ply
format ascii 1.0
element vertex 1258
property float x
property float y
property float z
property uchar red
property uchar green
property uchar blue
end_header
-0.030771 0.404153 0.215078 76 0 153
-0.732401 0.214339 0.190567 127 127 0
-0.289145 -0.537911 0.190567 204 51 127
-0.110176 -0.526929 0.063514 204 51 127
-0.251186 0.063514 -0.179372 153 76 0
0.023938 -0.066959 0.215506 127 0 127
0.266849 -0.078015 -0.172642 204 51 127
-0.760059 0.403591 -0.144076 76 0 153
-0.436523 0.379213 0.069052 76 0 153
-0.396831 -0.560876 0.215506 204 51 127
-0.508271 0.404153 0.096745 76 0 153
-0.100478 0.163069 -0.013988 153 0 76
-0.735119 0.277655 -0.102047 76 0 153
0.515670 -0.053075 0.085786 204 51 127
0.794516 0.267081 -0.104627 153 0 76
-0.325147 -0.053075 0.185174 204 51 127
0.136109 -0.526929 -0.137345 204 51 127
0.167673 -0.023979 0.038738 127 0 127
-0.719267 -0.296935 -0.183529 0 255 0
-0.205378 -0.078015 0.046325 204 51 127
-0.403148 0.404153 0.107068 76 0 153
0.769576 -0.077106 0.043240 204 51 127
-0.717858 -0.126854 0.215506 127 127 0
-0.239728 -0.086369 -0.183529 204 51 127
-0.201049 0.192165 -0.094807 76 0 153
0.328975 0.188662 0.015665 153 76 0
-0.656614 -0.526929 0.043202 204 51 127
0.102264 -0.551869 -0.104752 204 51 127
-0.399174 -0.078015 0.058961 204 51 127
-0.102689 -0.023979 0.062983 127 0 127
0.126284 0.237231 0.215506 76 153 0
0.603826 -0.089926 0.190567 204 51 127
-0.386861 0.329670 -0.208468 153 76 0
0.188315 0.138129 -0.094216 153 0 76
-0.735119 -0.077243 -0.102936 204 51 127
0.060369 0.287709 -0.183529 153 76 0
-0.735119 -0.555579 0.088512 204 51 127
0.698292 -0.551869 -0.007201 204 51 127
0.583346 0.379213 0.143345 76 0 153
0.763433 -0.164407 0.215506 0 0 255
-0.269578 0.239575 -0.153908 76 0 153
0.769576 0.363521 0.032055 153 0 76
-0.634357 0.009762 -0.208468 153 76 0
0.190340 -0.028922 0.198880 127 0 127
-0.293273 0.324619 -0.183529 76 0 153
0.447248 -0.526929 -0.118078 204 51 127
-0.320692 0.379213 0.147078 76 0 153
-0.626929 0.175846 0.198880 127 0 127
-0.009775 0.138129 -0.085287 153 0 76
-0.145890 -0.551869 0.001899 204 51 127
-0.249726 0.157885 0.215506 0 255 0
0.784843 -0.062306 0.215506 0 0 255
-0.071663 -0.551869 0.137823 204 51 127
0.067138 0.081476 -0.179372 127 127 0
0.299878 0.085173 0.027046 255 0 0
0.516379 0.389163 -0.208468 153 76 0
0.652847 0.379213 0.102940 76 0 153
0.779541 -0.488625 0.215506 0 0 255
0.449057 0.260776 0.198880 76 153 0
0.179967 0.259277 0.190567 76 153 0
-0.735119 0.216119 -0.038382 76 0 153
0.361942 -0.078015 -0.090854 204 51 127
-0.019788 -0.526929 0.063777 204 51 127
0.247005 0.163069 0.028266 153 0 76
-0.324603 -0.078015 0.125964 204 51 127
-0.371245 0.404153 -0.066866 76 0 153
0.658270 -0.526929 -0.052977 204 51 127
-0.007610 0.154607 0.215506 0 255 0
-0.233310 -0.032292 -0.157681 127 0 127
-0.187525 0.256210 0.215506 76 153 0
0.412017 -0.542847 -0.183529 204 51 127
0.263704 0.163069 0.072578 153 0 76
0.752719 -0.513294 -0.208468 255 0 0
0.685934 0.324259 -0.208468 153 76 0
0.644641 0.369475 -0.183529 153 76 0
0.044052 0.404153 0.008783 76 0 153
-0.303173 0.275584 -0.183529 153 76 0
0.244419 -0.065815 0.215506 0 0 255
0.576170 -0.551869 0.098588 204 51 127
0.714486 0.404153 -0.010491 76 0 153
0.740234 0.332085 -0.183529 153 76 0
0.769576 0.134614 -0.151036 153 0 76
0.211971 0.138129 -0.064435 153 0 76
-0.436038 -0.573304 0.215506 204 51 127
0.725812 0.106025 0.190567 76 153 0
0.342531 0.049289 0.190567 76 153 0
-0.172272 -0.023979 -0.075683 127 0 127
0.769576 0.332217 -0.078879 153 0 76
-0.483506 -0.078015 0.155077 204 51 127
0.383011 -0.022727 0.190852 76 153 0
-0.501151 0.379213 0.074988 76 0 153
-0.172541 -0.078015 0.010155 204 51 127
0.184782 0.379213 -0.101932 76 0 153
0.260197 -0.526929 0.159730 204 51 127
-0.315438 -0.053075 0.148527 204 51 127
-0.184559 0.001091 -0.183529 153 76 0
-0.141744 -0.526929 0.135732 204 51 127
0.627563 -0.551869 -0.077932 204 51 127
0.384704 0.379213 0.100317 76 0 153
0.136724 0.299382 0.215506 76 153 0
0.328975 0.121474 0.021920 153 76 0
0.235960 0.114420 -0.183529 153 76 0
0.610178 -0.053075 -0.113994 204 51 127
-0.278456 0.205604 0.190567 76 0 153
0.373246 -0.094399 -0.208468 153 76 0
-0.743308 0.126012 -0.183529 76 0 153
-0.760059 0.011018 0.015243 76 0 153
0.034051 -0.053075 -0.004047 204 51 127
0.351238 -0.078015 -0.138644 204 51 127
0.692085 -0.546391 0.190567 204 51 127
0.165292 0.122297 0.215506 0 0 255
0.794516 0.043536 -0.192749 255 0 0
-0.070042 -0.102954 -0.183996 153 76 0
0.769576 0.069837 -0.073229 153 0 76
-0.046325 0.162424 -0.208468 153 76 0
0.292205 0.197768 0.215506 76 153 0
0.080986 -0.551869 0.126729 204 51 127
-0.303787 -0.053075 -0.152735 204 51 127
0.235365 -0.551869 0.151196 204 51 127
0.665834 0.379213 0.141803 76 0 153
-0.225624 0.163069 -0.086500 153 0 76
0.684519 -0.102954 0.191856 127 0 127
0.026467 -0.023979 0.066080 127 0 127
-0.093977 -0.551869 0.037773 204 51 127
0.459684 0.379213 -0.084373 76 0 153
0.154551 -0.078015 0.101231 204 51 127
-0.164014 -0.551869 0.050257 204 51 127
-0.760059 -0.576431 -0.056925 204 51 127
0.070705 0.379213 0.173758 76 0 153
0.310950 -0.101597 -0.208468 153 76 0
-0.396779 -0.551869 -0.059002 204 51 127
-0.760059 0.227731 0.093893 76 0 153
-0.265076 0.239362 -0.208468 153 76 0
-0.745678 -0.338781 -0.183529 0 255 0
-0.676954 0.342002 0.190567 76 0 153
0.214015 0.379213 0.110451 76 0 153
0.152606 0.216376 -0.208468 153 76 0
0.293367 0.163069 -0.125974 153 76 0
0.412438 -0.053075 -0.055768 204 51 127
-0.109630 -0.053075 0.046973 204 51 127
-0.504068 0.310227 -0.208468 153 76 0
0.383860 0.277825 0.198880 76 153 0
-0.027726 -0.010835 0.190567 0 0 255
-0.374051 0.075688 -0.183529 153 76 0
0.035656 0.163069 0.148887 153 0 76
-0.171441 -0.526929 0.173834 204 51 127
0.025419 -0.025026 -0.179372 153 76 0
0.402978 -0.053075 -0.172659 204 51 127
-0.377879 0.186633 -0.183529 153 76 0
0.286803 -0.062614 -0.208468 153 76 0
0.794516 -0.557266 -0.053583 204 51 127
-0.471968 0.082071 -0.183529 153 76 0
-0.418403 -0.526929 0.116994 204 51 127
0.794516 0.022467 -0.021001 153 0 76
-0.760059 0.180579 -0.116690 76 0 153
0.485702 0.165896 0.198880 76 153 0
0.766074 -0.551869 0.141787 204 51 127
0.147956 0.061067 0.215506 0 0 255
0.769576 0.222470 0.130086 153 0 76
-0.760059 -0.553029 0.038178 204 51 127
0.299878 0.272100 -0.045021 153 0 76
0.340830 -0.023270 0.190567 76 153 0
-0.062608 0.379213 -0.070075 76 0 153
-0.269578 -0.000635 -0.056332 0 255 0
-0.294518 0.047213 0.035727 76 0 153
0.109573 0.192165 0.180692 76 153 0
0.303775 0.379213 -0.086035 153 76 0
0.135538 -0.526929 0.081844 204 51 127
-0.217089 -0.053075 -0.038929 204 51 127
-0.436727 -0.014134 0.190567 127 0 127
-0.420994 -0.053075 -0.017549 204 51 127
0.662186 -0.551869 0.133890 204 51 127
0.436506 0.349695 0.215506 76 153 0
-0.526823 -0.053075 0.016793 204 51 127
-0.259140 -0.048918 -0.082212 0 255 0
-0.203437 -0.032886 0.190567 127 0 127
-0.351429 0.404153 -0.170501 153 76 0
0.208962 0.034931 0.190567 0 0 255
-0.370641 -0.078015 0.176260 204 51 127
0.606537 0.404153 -0.155117 76 0 153
-0.327472 -0.550839 -0.183529 204 51 127
-0.552714 -0.526929 -0.095516 204 51 127
0.766126 -0.159340 -0.208468 255 0 0
-0.724015 0.056541 -0.183529 76 0 153
-0.240021 -0.029425 -0.208468 153 76 0
0.106039 -0.053075 0.035255 204 51 127
-0.085147 0.317251 -0.183529 153 76 0
-0.760059 0.088242 0.042258 76 0 153
-0.695113 -0.053075 -0.142535 204 51 127
-0.203106 0.378583 0.190567 76 0 153
-0.148417 -0.053075 -0.023703 204 51 127
-0.260818 -0.048918 0.008508 0 255 0
0.718297 0.079943 -0.208468 153 76 0
-0.715084 -0.547801 -0.208468 0 255 0
0.470875 0.404153 0.119255 76 0 153
0.668120 -0.526929 0.179183 204 51 127
0.677465 -0.078015 0.005767 204 51 127
0.406447 0.152846 0.190567 76 153 0
-0.237349 0.122228 -0.179372 127 127 0
0.672923 0.112316 -0.183529 153 76 0
-0.497441 0.323750 0.190567 127 0 127
0.521851 -0.078015 -0.002796 204 51 127
-0.026714 -0.078015 0.159286 204 51 127
0.502108 0.404153 -0.103345 76 0 153
0.677482 0.171082 -0.208468 153 76 0
-0.154574 0.192165 0.109055 76 0 153
0.171905 -0.053075 0.005112 204 51 127
0.268978 -0.551869 0.006431 204 51 127
0.794516 0.312086 -0.050240 153 0 76
-0.291847 -0.526929 -0.025569 204 51 127
-0.269578 0.217671 0.055844 76 0 153
-0.567366 0.323069 0.190567 127 0 127
-0.345789 -0.526929 0.000226 204 51 127
0.190902 0.310550 0.190567 76 153 0
-0.200422 -0.078015 -0.155023 204 51 127
0.366059 0.379213 -0.032572 76 0 153
-0.023109 -0.053075 0.065844 204 51 127
0.382038 0.188313 0.198880 76 153 0
0.766726 -0.013617 0.215506 0 0 255
0.666800 -0.053075 -0.038713 204 51 127
0.585530 0.404153 0.049259 76 0 153
0.634115 0.379213 0.026576 76 0 153
0.079909 -0.551869 0.083903 204 51 127
-0.188710 -0.053075 -0.102041 204 51 127
0.222880 0.292696 -0.162746 153 76 0
-0.603570 -0.526929 -0.160979 204 51 127
0.794516 -0.070850 0.146779 153 0 76
0.328975 -0.014464 -0.067863 153 76 0
-0.240118 0.133973 0.195403 0 255 0
-0.104908 0.138129 0.164975 153 0 76
-0.728454 -0.511341 0.215506 127 127 0
0.205391 0.379213 -0.041961 76 0 153
0.464857 0.364554 -0.208468 153 76 0
0.022477 0.138129 -0.139486 153 0 76
0.639532 0.066669 -0.208468 153 76 0
0.376479 0.091588 0.215506 76 153 0
-0.158087 0.138129 0.106636 153 0 76
0.645368 0.196479 -0.208468 153 76 0
-0.339326 0.294757 0.190567 127 0 127
0.663675 0.225288 0.190567 76 153 0
-0.153819 -0.053075 0.074217 204 51 127
-0.387698 0.379213 -0.094558 76 0 153
-0.700517 -0.078015 0.130394 204 51 127
-0.513327 0.404153 0.171964 76 0 153
0.283252 0.206088 0.054572 153 76 0
0.060857 0.055688 -0.208468 153 76 0
-0.251269 0.051484 0.215506 0 0 255
-0.621088 -0.019411 -0.183529 153 76 0
0.024943 -0.053075 -0.082632 204 51 127
0.328975 0.232422 -0.025732 153 76 0
0.483842 -0.526929 0.175033 204 51 127
0.107089 -0.053075 -0.145868 127 127 0
-0.356027 -0.000463 0.190567 127 0 127
0.521201 -0.033963 -0.183529 153 76 0
0.024699 0.316152 -0.183529 153 76 0
-0.239174 -0.078015 -0.080244 204 51 127
0.728016 -0.526929 0.187963 204 51 127
0.147451 0.138129 -0.119581 153 0 76
-0.287379 -0.053735 0.215506 127 0 127
-0.438099 -0.551487 0.190567 204 51 127
-0.340885 -0.053075 0.004078 204 51 127
-0.080359 -0.053075 -0.147776 204 51 127
-0.396560 0.305676 -0.183529 153 76 0
-0.032583 0.219577 -0.179372 153 76 0
-0.468790 -0.078015 -0.153975 204 51 127
0.769576 0.018698 0.028151 153 0 76
-0.294518 0.207566 0.117027 76 0 153
0.456001 0.067400 -0.183529 153 76 0
0.469575 -0.078015 -0.134815 204 51 127
0.655014 -0.078015 0.127726 204 51 127
0.199968 0.276006 -0.208468 153 76 0
-0.116220 0.011454 0.190567 0 0 255
-0.512471 0.404153 -0.160825 76 0 153
0.176354 -0.025837 -0.183529 153 76 0
-0.265421 -0.005191 0.030261 76 0 153
0.479761 0.219552 -0.183529 153 76 0
-0.735119 -0.028585 0.125715 76 0 153
0.764150 -0.078015 0.077556 153 0 76
0.589743 0.329801 0.190567 76 153 0
0.374179 0.204460 -0.183529 153 76 0
-0.143695 0.320123 0.215506 76 153 0
-0.069138 0.287383 0.190567 76 153 0
0.189005 0.404153 0.070174 76 0 153
-0.007328 -0.053075 -0.138462 204 51 127
-0.491463 -0.078015 -0.048521 204 51 127
-0.019050 -0.551869 -0.156806 204 51 127
-0.643057 0.404153 0.170289 76 0 153
0.207031 0.192165 0.138574 76 0 153
-0.573485 -0.526929 0.055350 204 51 127
-0.161657 0.042719 -0.179372 153 76 0
0.269887 0.228849 -0.208468 153 76 0
-0.666407 0.379213 0.071507 76 0 153
-0.643727 0.404153 0.046446 76 0 153
0.283252 0.126685 0.190645 255 0 0
-0.322548 -0.526929 -0.077336 204 51 127
0.166748 0.379213 0.126058 76 0 153
0.275423 0.376022 -0.183529 76 0 153
-0.666605 0.044806 -0.208468 153 76 0
-0.508114 0.037862 -0.183529 153 76 0
0.297019 0.133973 0.133828 153 0 76
-0.735119 0.348760 0.163845 76 0 153
-0.760059 -0.071606 -0.051545 76 0 153
0.660098 0.012956 -0.183529 153 76 0
0.328975 -0.009944 -0.126076 153 76 0
0.304035 0.369498 0.171650 153 76 0
0.007845 0.163069 -0.066181 153 0 76
0.040154 -0.551869 -0.002960 204 51 127
0.304035 0.032257 -0.078927 153 76 0
-0.154382 0.163069 -0.004678 153 0 76
0.010311 0.138129 0.096759 153 0 76
0.507825 -0.019311 0.215506 76 153 0
-0.139941 0.159376 -0.208468 153 76 0
0.794516 0.294796 0.189055 153 0 76
0.622706 -0.526929 0.101777 204 51 127
0.149703 0.404153 -0.073746 76 0 153
-0.092561 0.265860 -0.208468 153 76 0
-0.042416 0.138129 -0.017354 153 0 76
0.219033 0.211856 0.215506 76 153 0
0.051166 0.238153 0.190567 76 153 0
-0.496485 -0.015326 -0.183529 153 76 0
0.057025 0.133973 0.210750 0 255 0
0.083616 -0.041954 0.190567 0 0 255
-0.626325 -0.053075 -0.083548 204 51 127
-0.016619 0.342513 -0.179372 153 76 0
0.656621 0.148925 -0.183529 153 76 0
0.171100 -0.526929 -0.161671 204 51 127
0.769576 0.212338 0.079086 153 0 76
-0.668333 -0.526929 0.184420 204 51 127
-0.283243 0.281256 -0.208468 153 76 0
-0.710179 -0.260550 0.194795 127 127 0
-0.486210 -0.526929 -0.000085 204 51 127
0.384233 -0.551869 -0.140640 204 51 127
-0.305018 0.127096 0.190567 127 127 0
-0.654318 -0.078015 0.061438 204 51 127
0.794516 -0.422423 -0.208393 255 0 0
0.291565 0.186523 -0.008431 153 0 76
0.027320 0.230059 -0.208468 153 76 0
-0.734483 0.138381 0.190567 127 127 0
0.362665 -0.526929 0.127613 204 51 127
-0.395090 0.368198 -0.208468 153 76 0
0.308330 0.020865 -0.183529 153 76 0
-0.730848 0.174979 0.215506 127 127 0
-0.760059 0.101938 0.012104 76 0 153
-0.089584 0.138129 0.096259 153 0 76
-0.004381 0.362158 0.190567 76 153 0
-0.280336 -0.053075 -0.054600 204 51 127
0.060067 0.372575 0.215506 76 0 153
0.793650 0.046423 0.215506 0 0 255
0.283252 0.309404 -0.105441 153 0 76
0.794516 -0.074820 -0.177211 153 0 76
-0.064071 0.391683 0.215506 76 0 153
-0.265421 0.316007 -0.152982 76 0 153
0.034803 0.044368 0.190567 0 0 255
-0.110037 0.404153 -0.028364 76 0 153
-0.364415 -0.551869 0.066986 204 51 127
-0.675564 -0.526929 0.073033 204 51 127
0.275630 -0.526929 -0.092963 204 51 127
-0.261293 0.167226 0.099091 76 0 153
-0.745433 -0.591381 0.215506 127 127 0
-0.228266 -0.032292 -0.063273 127 0 127
0.537747 -0.551869 0.185041 204 51 127
0.520629 -0.053075 -0.149322 204 51 127
0.304035 0.376190 0.084399 153 76 0
0.287979 -0.023979 0.094426 255 0 0
0.422508 -0.551869 0.034676 204 51 127
0.227350 -0.053075 -0.137077 204 51 127
-0.432065 -0.053075 -0.174161 204 51 127
-0.478462 -0.066113 -0.208468 153 76 0
0.000360 0.404153 0.040062 76 0 153
-0.156947 -0.023979 0.038029 127 0 127
-0.224560 -0.053075 0.118742 204 51 127
-0.735119 0.299722 -0.070544 76 0 153
-0.427166 -0.053075 0.148299 204 51 127
0.395487 0.379213 0.176197 76 0 153
-0.725354 0.077007 -0.208468 0 255 0
-0.613701 0.404153 -0.182935 76 0 153
0.220352 0.379213 0.012515 76 0 153
-0.519536 -0.078015 -0.015838 204 51 127
0.190351 -0.526929 -0.083591 204 51 127
-0.184281 0.101041 -0.208468 153 76 0
-0.706353 0.072736 0.216328 76 0 153
0.081892 0.348600 -0.162746 153 76 0
-0.510752 -0.551869 -0.061012 204 51 127
0.291661 -0.078015 -0.038162 204 51 127
-0.465349 -0.551869 -0.050121 204 51 127
0.188819 0.378035 0.190567 76 0 153
-0.204777 -0.551869 -0.119699 204 51 127
-0.294518 0.301594 0.114410 76 0 153
-0.443291 0.404153 0.090913 76 0 153
-0.269578 0.376730 0.033245 76 0 153
0.304035 0.341426 0.153428 153 76 0
0.139509 0.167226 -0.173399 153 76 0
0.768666 -0.550451 -0.183529 204 51 127
0.534688 -0.526929 0.016741 204 51 127
0.769576 0.084489 -0.042957 153 0 76
0.299878 0.032160 0.123165 255 0 0
0.794516 0.061430 -0.016005 153 0 76
0.428827 -0.078015 0.020190 204 51 127
-0.726888 0.404153 0.111717 76 0 153
-0.735119 -0.087123 -0.032534 204 51 127
-0.735119 0.276823 -0.029448 76 0 153
-0.193016 -0.053075 0.097261 204 51 127
-0.067236 0.379213 -0.126102 76 0 153
0.298721 0.084657 -0.179372 153 76 0
0.616846 -0.026272 0.190567 76 153 0
-0.574198 0.404153 -0.043662 76 0 153
0.596983 -0.551061 -0.183529 204 51 127
0.747530 -0.129641 0.215506 0 0 255
0.716892 -0.526929 0.148228 204 51 127
-0.005418 0.403116 -0.183529 76 0 153
-0.557930 -0.526929 -0.060696 204 51 127
0.770716 0.328539 0.190567 153 0 76
0.652905 -0.058891 0.215506 76 153 0
-0.224199 0.202740 -0.179372 153 76 0
-0.022125 -0.526929 -0.021439 204 51 127
0.597017 0.007130 -0.208468 153 76 0
-0.310314 0.404153 0.165682 76 0 153
-0.330537 0.253450 0.190567 127 0 127
-0.502608 -0.053075 0.140838 204 51 127
-0.664563 0.255340 0.190567 127 0 127
-0.208477 0.404153 0.152448 76 0 153
-0.735119 0.186944 -0.079681 76 0 153
-0.294518 0.152572 0.026970 76 0 153
-0.716861 0.379213 -0.116898 76 0 153
0.597691 0.379213 -0.051887 76 0 153
0.013488 0.163069 -0.119103 153 0 76
0.101166 -0.078015 -0.036921 204 51 127
-0.263271 0.350117 0.152208 76 0 153
0.159393 0.379213 -0.039308 76 0 153
-0.002105 -0.053075 0.122279 204 51 127
-0.172747 -0.526929 0.097811 204 51 127
-0.120090 -0.053075 0.168713 204 51 127
0.113405 0.404153 -0.111508 76 0 153
-0.265421 -0.003149 -0.022376 0 255 0
-0.742199 -0.135332 0.190567 127 127 0
0.217544 0.163069 0.118771 153 0 76
0.478747 0.379213 -0.014275 76 0 153
0.794516 -0.071296 -0.061613 153 0 76
-0.721409 -0.573609 0.190567 127 127 0
-0.699410 0.404153 0.182173 76 0 153
0.016510 -0.023979 0.171754 127 0 127
0.405997 0.334201 -0.183529 153 76 0
0.771081 -0.299200 -0.208468 255 0 0
0.450704 -0.053075 -0.033348 204 51 127
-0.709177 0.379213 -0.018450 76 0 153
0.794516 0.192640 -0.026128 153 0 76
0.228707 -0.526929 -0.139602 204 51 127
0.284102 0.183852 0.106623 153 0 76
0.328975 -0.004370 0.011501 153 76 0
0.291531 -0.526929 -0.130259 204 51 127
-0.122067 -0.053075 -0.064546 204 51 127
0.352980 -0.526929 -0.027793 204 51 127
-0.089856 0.138129 -0.031152 153 0 76
0.149636 0.404153 0.213867 76 0 153
-0.109444 -0.526929 -0.042867 204 51 127
0.362916 -0.004267 -0.183529 153 76 0
-0.052264 0.354273 -0.188529 153 76 0
0.138424 -0.023979 -0.100028 127 0 127
0.769576 -0.030356 0.028167 153 0 76
-0.102046 0.223372 -0.162746 153 76 0
0.066805 0.379213 0.137360 76 0 153
0.669222 -0.053075 0.076002 204 51 127
-0.004227 0.379213 0.124732 76 0 153
0.328975 0.158033 -0.093830 153 76 0
0.617854 0.403194 0.190567 76 0 153
0.576162 0.379213 -0.083278 76 0 153
-0.729414 -0.418272 -0.183529 0 255 0
-0.760059 -0.015921 0.107652 76 0 153
-0.029396 0.379213 -0.016343 76 0 153
0.710687 0.267121 -0.183529 153 76 0
0.299878 0.113615 0.042689 153 76 0
-0.355865 -0.061389 0.215506 127 0 127
0.499529 -0.551869 0.150092 204 51 127
0.225428 0.354273 -0.189728 153 76 0
0.728089 0.207455 0.215506 76 153 0
-0.085944 -0.011763 -0.162746 127 127 0
0.769817 -0.628690 0.215506 0 0 255
0.195159 -0.551869 0.102314 204 51 127
-0.348554 0.181318 0.211778 127 0 127
-0.269578 0.346442 -0.051985 76 0 153
0.663051 -0.554929 0.215506 204 51 127
0.330107 -0.078015 -0.178119 204 51 127
0.271949 -0.053075 0.158468 255 0 0
-0.176137 0.273719 -0.208468 153 76 0
0.408479 0.366591 0.215506 76 0 153
-0.386181 -0.078015 0.148296 204 51 127
-0.459317 -0.526929 0.129204 204 51 127
-0.685933 0.106745 -0.183529 153 76 0
-0.735119 0.103540 0.064027 76 0 153
-0.202709 -0.562344 -0.183529 204 51 127
-0.317053 0.062139 -0.208468 153 76 0
0.487718 0.404153 0.090056 76 0 153
-0.640613 0.380831 -0.183529 153 76 0
-0.594224 0.080040 0.198880 127 0 127
-0.583104 -0.545004 -0.183529 204 51 127
-0.626188 -0.526929 0.056609 204 51 127
-0.107619 -0.053075 0.101445 204 51 127
-0.735119 0.024366 0.072258 76 0 153
-0.034325 0.404153 -0.119199 76 0 153
-0.455221 0.404153 -0.173394 76 0 153
0.323429 0.195887 -0.183529 153 76 0
-0.713349 -0.078015 0.087403 204 51 127
0.387270 -0.078015 0.082503 204 51 127
-0.517009 -0.551869 0.045085 204 51 127
0.280265 -0.551869 0.082454 204 51 127
0.328975 0.348161 0.048740 153 76 0
0.299878 0.322396 0.122580 153 0 76
-0.155264 0.404153 -0.121345 76 0 153
-0.312398 0.379213 -0.018672 76 0 153
-0.265421 0.053933 -0.035773 76 0 153
-0.500244 0.195831 -0.208468 153 76 0
-0.218779 0.404153 0.021647 76 0 153
0.283252 0.299823 0.191876 76 153 0
-0.294518 0.182958 -0.046547 76 0 153
0.608893 0.225960 0.198880 76 153 0
-0.229101 0.379198 0.215506 76 0 153
-0.677680 -0.078015 -0.069426 204 51 127
0.572230 0.404153 -0.034303 76 0 153
0.304035 0.245835 0.074587 153 0 76
-0.760059 0.318831 0.136555 76 0 153
-0.199237 0.379213 -0.035000 76 0 153
-0.735397 -0.634473 -0.183529 0 255 0
0.794516 0.256981 0.019841 153 0 76
-0.431300 0.270317 -0.208468 153 76 0
0.157000 -0.551869 0.036464 204 51 127
-0.760059 0.052268 0.129847 76 0 153
-0.123281 -0.551869 0.080003 204 51 127
-0.522812 0.088668 0.190567 127 0 127
-0.760059 0.235557 -0.198973 0 255 0
0.604081 0.241962 -0.183529 153 76 0
0.304035 0.317639 -0.011183 153 76 0
-0.269578 0.107190 0.101820 0 255 0
0.558292 -0.078015 0.153722 204 51 127
0.381086 -0.078015 -0.037020 204 51 127
0.769576 -0.026540 0.123103 153 0 76
-0.031103 -0.053075 -0.116219 204 51 127
-0.235857 -0.526929 -0.015114 204 51 127
0.299242 -0.078015 0.068088 204 51 127
0.268996 -0.526929 0.195643 204 51 127
-0.294518 -0.022337 0.049191 76 0 153
-0.735735 -0.426734 0.215506 127 127 0
0.085285 -0.053075 -0.006747 204 51 127
-0.434298 0.350117 0.210584 127 0 127
-0.005649 -0.095343 0.215506 127 0 127
0.064168 0.379213 -0.129386 76 0 153
-0.232845 0.192165 -0.067695 76 0 153
-0.137381 0.085820 -0.183529 127 127 0
-0.746183 0.335279 0.215506 127 127 0
-0.630358 0.185327 -0.208468 153 76 0
0.129490 0.375341 0.190567 76 0 153
0.157899 0.192165 0.101481 76 0 153
-0.059502 -0.102954 0.191196 127 0 127
0.349123 0.379213 -0.163733 76 0 153
-0.759749 -0.502575 -0.183529 0 255 0
-0.688387 -0.078015 0.166318 204 51 127
-0.248795 0.076680 -0.135541 0 255 0
-0.246391 0.379213 -0.144517 76 0 153
-0.229130 -0.053075 -0.131532 204 51 127
0.157498 0.151374 0.190567 153 0 76
0.617587 0.009035 -0.183529 153 76 0
-0.417048 -0.526929 0.048704 204 51 127
-0.605408 0.379213 0.136635 76 0 153
-0.191751 -0.053075 0.133280 204 51 127
0.328975 0.269134 0.158246 153 76 0
0.769576 0.045362 -0.118288 153 0 76
-0.547132 0.379213 0.072159 76 0 153
-0.326210 0.003504 -0.183529 153 76 0
0.708918 0.186383 -0.183529 153 76 0
-0.269578 0.283241 -0.152190 76 0 153
-0.265421 0.314949 0.035750 76 0 153
-0.294518 0.152270 0.068708 76 0 153
0.775842 0.101263 0.215506 0 0 255
-0.714898 -0.053075 -0.023142 204 51 127
0.755226 -0.390597 0.190567 0 0 255
-0.607024 -0.053075 -0.155417 204 51 127
0.721676 -0.538104 -0.183529 204 51 127
0.328975 0.143749 -0.154483 153 76 0
-0.303617 0.339266 0.190567 127 0 127
0.250596 0.163069 0.152860 153 0 76
-0.205950 0.040470 -0.183529 127 127 0
-0.037482 0.138129 0.076930 153 0 76
0.104005 0.030037 -0.183529 153 76 0
-0.200134 0.163069 -0.044094 153 0 76
0.299878 -0.030804 0.016640 255 0 0
-0.011500 0.042936 -0.179372 153 76 0
0.649283 -0.526929 -0.113927 204 51 127
0.706123 0.352526 -0.183529 153 76 0
0.216243 0.079609 -0.183529 153 76 0
-0.068735 0.138129 0.170378 153 0 76
-0.228722 0.183852 -0.134535 76 0 153
0.485971 -0.053075 -0.114326 204 51 127
0.388697 0.379213 -0.059255 76 0 153
-0.750568 -0.540091 0.215506 127 127 0
0.682215 -0.053075 0.170902 204 51 127
0.263668 0.037403 -0.179372 127 127 0
0.299878 0.210195 -0.095953 153 76 0
0.330674 0.375017 0.215506 76 0 153
-0.407678 0.380856 0.215506 76 0 153
0.319635 -0.526929 -0.059874 204 51 127
-0.075008 -0.032292 0.003985 127 0 127
-0.568633 0.379213 -0.147673 76 0 153
-0.239020 -0.023979 0.057598 127 0 127
0.025345 0.138129 -0.017512 153 0 76
-0.739685 -0.633849 0.215506 127 127 0
0.177654 -0.023979 0.131560 127 0 127
-0.317484 0.374948 -0.208468 153 76 0
-0.457453 -0.015693 0.215506 127 0 127
0.084086 0.404153 0.038896 76 0 153
-0.760059 0.171473 0.163108 76 0 153
-0.047550 0.061072 -0.183529 153 76 0
-0.235271 -0.551869 -0.108237 204 51 127
0.540331 -0.101706 -0.208468 153 76 0
0.678582 0.379213 -0.050599 76 0 153
-0.425895 -0.526929 0.017475 204 51 127
-0.298982 -0.078015 0.107070 204 51 127
0.251200 0.361186 0.215506 76 0 153
0.072546 -0.023979 0.105059 127 0 127
-0.291085 0.106115 0.215506 127 127 0
0.277499 0.328115 -0.183529 153 76 0
0.318553 0.018760 0.190567 255 0 0
-0.355951 0.163839 -0.183529 153 76 0
-0.712567 -0.358561 -0.208468 0 255 0
-0.277135 0.169444 -0.183529 153 0 76
0.344553 0.092376 0.215506 153 0 76
-0.513194 0.028478 0.198880 127 0 127
0.347652 -0.078015 -0.005590 204 51 127
0.769576 0.381944 0.076933 76 0 153
-0.289573 -0.078015 -0.132715 204 51 127
0.765391 -0.303973 0.215506 0 0 255
0.501536 0.052944 -0.208468 153 76 0
0.453964 0.323350 0.215506 76 153 0
0.336461 0.297133 -0.183529 153 76 0
0.794516 -0.539586 0.076197 204 51 127
0.217631 -0.013188 -0.179372 153 76 0
0.083026 -0.053075 0.159331 204 51 127
-0.735119 0.280868 0.092434 76 0 153
-0.457335 0.404153 -0.112854 76 0 153
0.503140 -0.526929 -0.166556 204 51 127
-0.390663 0.242331 -0.183529 153 76 0
0.636118 0.404153 -0.019819 76 0 153
0.218727 -0.526929 -0.039584 204 51 127
-0.148340 0.138129 -0.055768 153 0 76
0.285019 0.250137 -0.179372 153 76 0
-0.078095 0.201350 0.215506 76 153 0
-0.735119 0.382474 0.073012 76 0 153
0.726944 0.404153 0.020568 76 0 153
0.172732 -0.053075 0.053663 204 51 127
0.464956 -0.551869 0.131002 204 51 127
-0.066420 -0.044676 -0.208468 153 76 0
-0.185613 0.170085 -0.179372 153 0 76
0.735099 0.404153 -0.172539 76 0 153
0.255996 0.285093 -0.183529 153 76 0
0.196772 0.163069 -0.154923 153 0 76
-0.572342 0.404153 -0.098437 76 0 153
-0.011049 0.379213 -0.077873 76 0 153
-0.265421 0.261035 0.009306 76 0 153
0.392644 0.404153 0.069245 76 0 153
0.426253 -0.102954 -0.189285 153 76 0
0.072755 -0.023979 0.140255 127 0 127
-0.110840 0.404153 0.028690 76 0 153
-0.697670 0.379213 0.062374 76 0 153
0.328975 0.269357 0.083935 153 76 0
0.773657 -0.593366 0.190567 0 0 255
0.612029 0.386399 -0.183529 76 0 153
-0.760059 0.291240 0.115241 76 0 153
0.635320 0.291402 -0.183529 153 76 0
-0.739827 0.030274 -0.208468 0 255 0
0.695006 0.313059 0.215506 76 153 0
0.765003 0.299494 -0.183529 153 0 76
-0.214484 0.312404 -0.183529 153 76 0
0.164424 0.163069 0.064288 153 0 76
-0.002473 -0.566501 0.215506 204 51 127
-0.760059 0.327512 -0.052713 76 0 153
-0.604870 -0.551869 -0.100716 204 51 127
0.591982 0.128365 0.190567 76 153 0
0.721395 0.019026 -0.208468 153 76 0
-0.513999 -0.049119 -0.183529 153 76 0
-0.536047 -0.053075 0.152227 204 51 127
0.371024 -0.526929 -0.095207 204 51 127
0.769576 0.364050 -0.058126 153 0 76
-0.429995 0.050380 -0.208468 153 76 0
-0.262792 -0.551869 0.062493 204 51 127
0.104702 0.192165 0.062349 76 0 153
-0.174543 -0.078015 0.116610 204 51 127
-0.005370 0.322663 -0.208468 153 76 0
-0.152309 -0.041899 0.215506 0 0 255
0.646975 -0.053075 -0.131965 204 51 127
-0.456635 -0.078015 0.016614 204 51 127
-0.140376 -0.526929 -0.141828 204 51 127
0.309712 0.146531 0.215506 0 255 0
-0.710179 0.024288 -0.183700 0 255 0
0.650656 0.086135 -0.183529 153 76 0
0.092212 -0.023979 0.062949 127 0 127
-0.759596 0.404153 0.159954 76 0 153
0.696531 0.074081 0.190567 76 153 0
0.360819 0.093096 -0.183529 153 76 0
-0.296973 -0.053075 -0.082386 204 51 127
-0.416331 -0.553349 -0.183529 204 51 127
-0.371085 0.379213 0.044536 76 0 153
0.185151 0.084072 0.215506 0 0 255
0.794516 0.340875 0.167315 153 0 76
0.679493 -0.551869 0.097008 204 51 127
0.769887 0.354273 0.148668 153 0 76
-0.556965 -0.076186 -0.183529 204 51 127
-0.219950 0.138129 -0.030386 153 0 76
-0.294518 0.045112 -0.094957 76 0 153
0.684314 -0.046236 0.215506 76 153 0
-0.330884 -0.078015 0.084017 204 51 127
0.391229 -0.551869 0.018972 204 51 127
0.044123 -0.551869 0.166863 204 51 127
-0.225817 0.337187 0.190567 76 0 153
0.769576 -0.031399 -0.102646 153 0 76
-0.673490 0.379213 0.109289 76 0 153
-0.003676 0.192165 -0.044217 76 0 153
0.148304 -0.053075 -0.050407 127 0 127
-0.110425 -0.551869 0.011036 204 51 127
-0.006955 0.379213 -0.124311 76 0 153
-0.340688 0.302679 -0.183529 153 76 0
0.299878 0.048060 0.016852 255 0 0
0.716342 -0.526929 -0.001136 204 51 127
-0.432171 -0.053075 0.057787 204 51 127
0.260005 0.163069 -0.099139 153 0 76
-0.735119 0.130469 -0.083637 76 0 153
-0.736118 -0.002370 -0.183529 76 0 153
-0.735119 0.195823 -0.168582 0 255 0
0.240734 0.163069 -0.071974 153 0 76
0.242714 0.197039 -0.183529 153 76 0
-0.735119 -0.025318 -0.107751 76 0 153
0.020625 0.065526 -0.208468 153 76 0
-0.120655 -0.574632 0.215506 204 51 127
-0.539699 -0.078015 0.053524 204 51 127
0.399563 -0.053075 0.176189 204 51 127
0.016241 0.345374 -0.208468 153 76 0
-0.024129 -0.053075 -0.067535 204 51 127
0.180929 0.379213 -0.148418 76 0 153
0.794516 0.018348 0.114659 153 0 76
-0.471066 -0.551869 0.051802 204 51 127
0.196981 -0.526929 0.029614 204 51 127
-0.036667 -0.551869 0.158286 204 51 127
0.769576 0.029185 -0.053756 153 0 76
0.056316 0.273261 0.190567 76 153 0
-0.364666 0.354319 0.190567 127 0 127
-0.114121 -0.023979 0.123856 127 0 127
-0.173842 0.404153 -0.070301 76 0 153
-0.294518 -0.020344 0.152316 76 0 153
-0.252202 0.317857 0.215506 76 153 0
-0.592604 0.205119 -0.183529 153 76 0
0.304035 0.240431 0.121944 153 76 0
0.794516 -0.054473 -0.206788 255 0 0
0.517195 0.404153 -0.063960 76 0 153
-0.387066 -0.074053 -0.208468 153 76 0
0.353498 -0.550001 0.190567 204 51 127
0.210790 -0.053075 0.171695 204 51 127
-0.460617 -0.078015 -0.079980 204 51 127
-0.651803 -0.551869 -0.011770 204 51 127
0.629351 -0.575791 0.190567 204 51 127
-0.269578 0.290107 0.164004 76 0 153
0.414818 0.096464 -0.183529 153 76 0
0.299878 -0.031312 0.206306 255 0 0
-0.440232 -0.078015 -0.114064 204 51 127
0.036216 -0.023979 -0.104453 127 0 127
0.769576 0.106491 0.123994 153 0 76
0.689075 0.404153 0.015729 76 0 153
0.769576 -0.024538 -0.047243 153 0 76
-0.007250 0.138129 0.164896 153 0 76
0.439057 0.379213 0.100352 76 0 153
0.655713 -0.053075 -0.165170 204 51 127
-0.192101 -0.526929 -0.007369 204 51 127
-0.178864 -0.032292 -0.020860 127 0 127
0.513804 -0.071470 -0.183529 204 51 127
-0.199159 0.163069 0.047942 76 0 153
0.202329 0.252588 0.215506 76 153 0
-0.543677 0.379213 0.026189 76 0 153
0.769576 0.383209 -0.083663 76 0 153
0.769576 0.153538 -0.070271 153 0 76
0.794516 -0.546720 -0.086027 204 51 127
0.022992 0.192165 0.156063 76 0 153
-0.760059 0.081972 -0.082495 76 0 153
0.157170 0.078423 -0.208468 153 76 0
0.794516 -0.060146 0.088770 153 0 76
-0.209500 0.038783 0.190567 0 0 255
0.430492 -0.551869 0.142899 204 51 127
0.258355 -0.028183 -0.208468 153 76 0
0.211356 -0.089646 -0.208468 153 76 0
0.694076 -0.053075 -0.162506 204 51 127
0.153146 -0.078015 0.004902 204 51 127
0.579427 0.108992 -0.208468 153 76 0
-0.173991 0.054980 0.190567 0 0 255
-0.467598 0.328082 0.215506 127 0 127
0.065176 -0.072228 0.190567 204 51 127
-0.332334 0.404153 0.089398 76 0 153
0.592277 0.379213 0.096212 76 0 153
-0.676721 0.404153 -0.086308 76 0 153
0.744124 -0.526929 0.023621 204 51 127
-0.099004 0.184841 0.196802 76 0 153
0.078151 0.163069 0.146062 153 0 76
-0.244490 -0.078015 0.103914 204 51 127
0.328975 0.124345 0.161679 153 76 0
0.395352 -0.574481 -0.208468 204 51 127
0.298500 0.163069 -0.058177 153 0 76
-0.265421 0.237659 0.157635 76 0 153
-0.357958 -0.576809 -0.186128 204 51 127
-0.165185 0.195043 -0.208468 153 76 0
-0.248795 0.209437 -0.012085 76 0 153
0.021112 0.241074 0.215506 76 153 0
0.202305 -0.078015 0.024270 204 51 127
0.201244 -0.023979 0.036362 127 0 127
-0.613308 -0.559977 0.215506 204 51 127
0.251019 -0.526929 0.114856 204 51 127
0.088223 0.192165 -0.131947 76 0 153
-0.294518 -0.019663 -0.044294 76 0 153
0.733121 0.404153 -0.052844 76 0 153
-0.625296 -0.526929 0.142060 204 51 127
-0.681952 0.147445 0.190567 127 0 127
-0.717463 -0.609565 0.190567 127 127 0
0.293769 0.203103 -0.208468 153 76 0
0.532031 0.404153 -0.129536 76 0 153
0.236406 0.163069 -0.011210 153 0 76
-0.178827 0.404153 0.096867 76 0 153
0.543824 -0.053075 0.068697 204 51 127
0.128886 0.379213 -0.088789 76 0 153
0.124902 0.404153 0.018972 76 0 153
0.762336 -0.271559 0.215506 0 0 255
0.038368 0.192165 -0.018307 76 0 153
0.304035 0.046657 -0.027223 153 76 0
0.257949 0.379213 0.033067 76 0 153
-0.672680 0.307265 -0.183529 153 76 0
-0.670897 -0.053075 0.117614 204 51 127
0.662524 -0.078015 -0.098620 204 51 127
0.066836 -0.023979 -0.051996 127 0 127
-0.760059 0.049346 0.028454 76 0 153
-0.597949 -0.526929 0.025623 204 51 127
-0.346930 0.362772 -0.183529 153 76 0
0.033286 -0.053075 -0.141370 127 0 127
-0.265247 0.350117 0.048994 76 0 153
0.252120 -0.053075 0.117976 204 51 127
-0.658346 -0.551869 0.126151 204 51 127
-0.248795 0.339918 0.091378 76 0 153
-0.736827 -0.102954 -0.082975 76 0 153
0.725806 -0.077703 -0.183529 204 51 127
-0.358405 0.267098 0.198880 127 0 127
-0.164979 0.379213 -0.016728 76 0 153
-0.668208 -0.526929 -0.183545 204 51 127
0.189326 -0.554788 -0.183529 204 51 127
-0.208060 -0.526929 0.101982 204 51 127
-0.539076 -0.021917 -0.208468 153 76 0
0.210039 0.163069 -0.083807 153 0 76
0.115658 0.163069 -0.099232 153 0 76
-0.629258 -0.082500 0.215506 127 0 127
0.770413 0.394814 0.190567 0 0 255
-0.043836 -0.526929 -0.161335 204 51 127
-0.442823 0.404153 0.051373 76 0 153
0.767009 -0.468585 0.190567 0 0 255
-0.658942 -0.075709 -0.183529 153 76 0
0.426170 -0.557982 -0.208468 204 51 127
0.094195 0.373451 -0.208468 153 76 0
0.012198 -0.551869 0.075521 204 51 127
-0.349704 -0.053075 0.130684 204 51 127
0.304035 0.000661 -0.021759 153 76 0
-0.438920 0.379213 0.183680 76 0 153
-0.586484 0.112522 -0.183529 153 76 0
0.671338 -0.078015 -0.059853 204 51 127
-0.714063 0.404153 -0.076859 76 0 153
0.524950 0.200085 -0.208468 153 76 0
0.414284 -0.551869 -0.047596 204 51 127
0.514086 -0.053075 -0.073501 204 51 127
0.143321 0.138129 0.071429 153 0 76
-0.494133 -0.526929 0.061101 204 51 127
-0.269578 0.307797 -0.047422 76 0 153
0.299878 0.000392 0.167913 255 0 0
0.429951 0.375220 -0.208468 153 76 0
-0.645567 -0.551869 0.155357 204 51 127
-0.248795 0.035592 0.187883 0 0 255
-0.171831 0.114483 0.190567 0 0 255
0.109737 0.100281 0.215506 0 0 255
-0.501242 -0.526929 -0.126388 204 51 127
-0.239694 0.379213 0.016630 76 0 153
-0.363239 0.404153 -0.006994 76 0 153
-0.597607 0.044137 -0.208468 153 76 0
0.625184 0.404153 -0.206314 153 76 0
-0.318675 0.089415 0.222706 127 0 127
-0.760059 0.330111 -0.095066 76 0 153
-0.136956 0.163069 0.056951 153 0 76
-0.540975 -0.551869 -0.110470 204 51 127
-0.707984 0.379213 0.130035 76 0 153
0.716610 -0.053075 0.087631 204 51 127
0.624655 -0.551869 0.145947 204 51 127
0.604918 -0.526929 0.028365 204 51 127
0.085093 0.068422 0.215506 0 0 255
0.556614 -0.053075 0.027863 204 51 127
0.244192 0.262964 0.190567 76 153 0
-0.425765 0.204912 -0.208468 153 76 0
-0.139926 0.379213 -0.135253 76 0 153
-0.265421 0.206598 0.027258 76 0 153
-0.398933 -0.025534 0.190567 127 0 127
0.299878 0.013999 0.022243 255 0 0
0.384475 -0.053075 -0.084930 204 51 127
0.175325 -0.053075 0.106334 204 51 127
-0.238784 -0.526929 -0.045898 204 51 127
0.479362 0.379213 -0.049939 76 0 153
-0.550626 -0.031979 0.191142 127 0 127
0.555795 0.040932 -0.183529 153 76 0
0.794516 0.116408 0.146061 153 0 76
-0.760059 0.245146 -0.142385 76 0 153
-0.234543 0.138129 0.131908 153 0 76
-0.735119 0.170597 0.182952 76 0 153
0.671441 0.379213 0.186924 76 0 153
-0.760059 0.317315 -0.007936 76 0 153
0.464761 -0.526929 -0.050533 204 51 127
-0.071026 -0.526929 -0.063870 204 51 127
-0.130516 0.138129 0.007689 153 0 76
0.794516 0.122816 0.056539 153 0 76
-0.337026 -0.061191 -0.208468 153 76 0
-0.497863 0.093753 -0.208468 153 76 0
-0.627444 0.379213 -0.066988 76 0 153
-0.269578 0.222115 -0.108490 76 0 153
-0.689807 0.224342 0.190567 127 0 127
0.094466 0.110425 0.190567 0 0 255
0.627451 0.379213 -0.038652 76 0 153
-0.450585 -0.526929 0.036620 204 51 127
-0.760059 0.388142 -0.004784 76 0 153
0.769576 0.183950 -0.085193 153 0 76
-0.114096 -0.078015 0.019749 204 51 127
0.692415 0.404153 -0.183786 76 0 153
0.558676 -0.055430 0.190567 204 51 127
-0.546196 -0.551869 0.129180 204 51 127
-0.056891 0.163069 0.139125 153 0 76
0.004402 -0.101372 -0.208468 153 76 0
-0.461838 -0.526929 -0.025875 204 51 127
0.336944 -0.037315 -0.183529 153 76 0
-0.059602 0.404153 -0.092783 76 0 153
-0.731278 -0.563397 -0.183529 0 255 0
0.104658 0.281426 -0.162746 153 76 0
0.096722 -0.551869 -0.005060 204 51 127
0.377052 0.379213 -0.123869 76 0 153
0.557928 -0.526929 0.199714 204 51 127
-0.274296 -0.551869 0.026042 204 51 127
0.310881 -0.008023 -0.208468 153 76 0
-0.531631 0.379213 0.170960 76 0 153
0.304035 0.228661 0.184971 153 0 76
0.331837 -0.526929 -0.152436 204 51 127
0.574409 0.192515 0.190567 76 153 0
0.328975 0.209809 0.164534 153 76 0
0.440818 -0.096261 0.190567 127 0 127
0.041688 0.350117 0.193691 76 153 0
-0.547770 -0.562631 0.215506 204 51 127
0.390771 0.404153 0.004108 76 0 153
0.552392 0.370715 -0.208468 153 76 0
-0.741081 -0.394974 0.190567 127 127 0
-0.656143 0.124364 0.213969 127 0 127
-0.091811 0.374851 0.190567 76 0 153
0.576467 0.370714 0.215506 76 0 153
0.793439 0.329736 -0.183529 255 0 0
-0.258699 0.137399 -0.208468 153 76 0
0.427800 0.170405 -0.183529 153 76 0
0.507600 0.158574 -0.208468 153 76 0
0.304035 0.223674 0.040175 153 0 76
-0.672961 -0.070588 0.215506 127 0 127
0.765228 0.262037 -0.208468 255 0 0
-0.146534 0.254693 0.215506 76 153 0
-0.424430 0.352869 -0.208468 153 76 0
-0.014383 0.292879 -0.179372 153 76 0
-0.269578 0.103874 0.146364 0 255 0
-0.737671 0.057132 0.190567 76 0 153
-0.523306 0.379213 -0.101560 76 0 153
0.249340 0.242964 -0.183529 153 76 0
0.227033 -0.551869 0.029957 204 51 127
-0.476150 -0.551869 0.108548 204 51 127
-0.047548 0.045565 0.215506 0 0 255
-0.571128 0.160582 -0.208468 153 76 0
0.593310 0.163697 0.198880 76 153 0
0.769311 -0.251022 0.190567 0 0 255
-0.760059 0.337552 -0.130382 76 0 153
-0.371680 -0.551869 -0.129084 204 51 127
0.535348 -0.053075 -0.017013 204 51 127
-0.425956 -0.551869 -0.122761 204 51 127
0.331913 -0.551869 0.003386 204 51 127
0.769576 0.124876 -0.105164 153 0 76
0.022575 0.379213 -0.153614 76 0 153
0.004420 -0.023979 -0.096294 127 0 127
-0.733308 -0.450559 -0.208468 0 255 0
0.059025 0.163069 -0.092541 153 0 76
-0.083156 0.404153 -0.200584 153 76 0
-0.136994 -0.078015 0.174789 204 51 127
-0.110772 0.163069 -0.177134 153 76 0
-0.262650 0.350117 -0.009117 76 0 153
0.104000 0.163069 0.090738 76 0 153
-0.735119 -0.006713 -0.148308 76 0 153
-0.740206 -0.184086 0.215506 127 127 0
0.462305 -0.551444 0.215506 204 51 127
-0.464271 0.379213 -0.138236 76 0 153
0.117735 0.287420 0.190567 76 153 0
-0.461885 -0.053075 -0.035029 204 51 127
-0.703221 0.205491 -0.208468 153 76 0
0.569128 -0.551869 0.134355 204 51 127
0.232236 0.404153 -0.174102 76 0 153
0.178685 0.259660 -0.183529 153 76 0
-0.059862 0.163069 0.055951 153 0 76
-0.317432 0.150299 0.244974 0 127 127
0.328975 0.094905 -0.035835 153 76 0
-0.483666 -0.553483 -0.183529 204 51 127
0.299878 0.270703 0.140215 153 0 76
-0.760059 -0.024613 -0.008140 76 0 153
0.031477 0.019443 0.215506 0 0 255
-0.169601 0.192165 -0.063501 76 0 153
0.445229 0.379213 -0.014619 76 0 153
0.673037 0.404153 -0.020025 76 0 153
0.009498 0.192165 0.018999 76 0 153
-0.269578 0.372916 -0.080831 76 0 153
0.588066 -0.078015 0.166534 204 51 127
-0.357131 -0.053075 0.096748 204 51 127
0.225984 0.003665 0.190567 0 0 255
-0.663471 -0.542671 0.215506 204 51 127
0.008453 -0.078015 0.102401 204 51 127
-0.099729 -0.551869 -0.119265 204 51 127
0.794516 -0.078247 -0.100000 153 0 76
0.794516 0.152325 -0.123299 153 0 76
-0.656892 -0.551869 -0.154503 204 51 127
-0.149229 0.108629 -0.208468 153 76 0
0.304035 0.261757 -0.080664 153 76 0
-0.181769 0.142208 0.215506 0 255 0
-0.049020 0.144879 -0.183529 127 127 0
0.180477 0.192165 0.169803 76 0 153
-0.561039 -0.526929 0.116461 204 51 127
-0.268219 -0.078015 0.047775 204 51 127
-0.352466 -0.526929 -0.159603 204 51 127
0.304035 0.073091 -0.073283 255 0 0
0.299878 0.119898 -0.114565 255 0 0
-0.663139 0.379213 -0.056907 76 0 153
0.023917 0.404153 -0.096374 76 0 153
-0.154797 -0.078015 -0.151993 204 51 127
-0.101519 0.163069 0.113723 153 0 76
0.240562 0.087459 -0.162746 127 127 0
-0.760059 0.066902 -0.114374 76 0 153
-0.230166 0.326286 -0.208468 153 76 0
0.794516 0.362615 0.201367 153 0 76
-0.625103 -0.526929 -0.038894 204 51 127
-0.760059 -0.560927 -0.128054 204 51 127
-0.088097 0.192165 -0.151200 76 0 153
0.330732 -0.552924 -0.183529 204 51 127
0.474012 -0.053075 0.025030 204 51 127
-0.428600 -0.053075 0.021393 204 51 127
-0.609335 0.279333 0.198880 127 0 127
-0.079247 -0.526929 0.049212 204 51 127
0.439179 -0.078015 0.124270 204 51 127
-0.742249 -0.176059 -0.183529 0 255 0
0.571696 0.404153 -0.141225 76 0 153
-0.513211 -0.526929 -0.014972 204 51 127
0.110732 -0.053075 0.172179 204 51 127
-0.353788 -0.551869 0.140863 204 51 127
-0.007196 0.183852 -0.163506 153 76 0
-0.048190 -0.046276 -0.183529 153 76 0
-0.105555 -0.094601 0.190567 127 0 127
0.029474 -0.078015 -0.099643 204 51 127
-0.760059 -0.565883 0.010491 204 51 127
-0.706023 0.297847 0.197159 153 76 0
0.256279 -0.062424 -0.208468 153 76 0
0.018198 -0.551869 0.106222 204 51 127
-0.519375 0.317969 0.215506 127 0 127
-0.760059 0.302411 0.165935 76 0 153
-0.294518 0.113178 0.130991 76 0 153
0.633087 0.179300 -0.183529 153 76 0
-0.186154 0.192165 0.116650 76 0 153
0.225461 0.192165 0.060117 76 0 153
0.020964 -0.563505 0.190567 204 51 127
0.681172 0.063539 -0.183529 153 76 0
0.188032 -0.053075 -0.122877 204 51 127
0.515944 -0.526929 -0.014978 204 51 127
0.321875 -0.053075 -0.074755 153 76 0
-0.096091 -0.551869 0.117499 204 51 127
-0.269578 0.124894 -0.018649 76 0 153
-0.637707 0.379213 0.148720 76 0 153
-0.760059 0.027126 -0.183244 76 0 153
0.155879 -0.053075 -0.176323 153 76 0
0.794516 -0.052376 0.120954 153 0 76
0.794516 0.288782 0.143256 153 0 76
0.749306 -0.448461 -0.208468 255 0 0
-0.375170 -0.551869 0.023299 204 51 127
0.144097 0.163069 -0.141818 153 0 76
0.010139 -0.023979 0.129124 127 0 127
0.434817 0.138237 -0.183529 153 76 0
-0.046471 0.282534 0.215506 76 153 0
-0.709707 -0.526929 0.148007 204 51 127
0.576547 0.399156 0.190567 76 0 153
-0.518790 -0.069012 0.215506 127 0 127
0.769576 0.153824 0.028034 153 0 76
-0.294518 0.150872 -0.068251 76 0 153
-0.311181 0.040020 -0.183529 153 76 0
0.240717 0.379213 -0.067584 76 0 153
-0.589352 -0.068618 -0.208468 153 76 0
0.205803 0.183852 -0.042659 153 0 76
-0.090640 0.192165 0.109881 76 0 153
-0.037766 0.291724 -0.208468 153 76 0
0.114294 -0.558934 0.215506 204 51 127
0.593040 0.379213 -0.141250 76 0 153
-0.618129 0.239882 -0.208468 153 76 0
0.166825 0.138129 0.119833 153 0 76
-0.359142 -0.088643 -0.208468 153 76 0
0.118132 -0.551869 -0.139914 204 51 127
0.480562 0.379213 -0.112154 76 0 153
0.769576 -0.557017 0.067471 204 51 127
-0.760059 0.321879 0.095927 76 0 153
0.158357 -0.078015 0.170877 204 51 127
-0.296835 0.404153 0.091471 76 0 153
0.101592 0.404153 0.095021 76 0 153
0.654345 0.404153 0.083633 76 0 153
0.044020 0.084934 0.190567 0 0 255
-0.209184 -0.078015 0.161651 204 51 127
-0.238625 0.163069 0.025829 153 0 76
-0.265421 0.206614 0.149130 76 0 153
-0.148885 0.138129 -0.147606 153 0 76
0.271845 0.223968 0.215506 76 153 0
-0.580082 0.321995 -0.208468 153 76 0
-0.754465 -0.459382 0.215506 127 127 0
-0.377442 -0.078015 0.007640 204 51 127
-0.173900 0.138129 0.068330 153 0 76
0.695714 -0.053075 0.140702 204 51 127
0.680558 -0.526929 0.117123 204 51 127
-0.178663 0.320644 0.215506 76 153 0
-0.685976 -0.576341 0.215506 204 51 127
0.717321 0.339270 -0.208468 153 76 0
0.213486 0.256537 -0.179372 153 76 0
-0.265421 0.133592 -0.137819 153 0 76
-0.248795 0.281582 -0.097124 76 0 153
0.519502 0.080925 -0.208468 153 76 0
-0.756648 -0.025889 -0.208468 0 255 0
0.043058 0.133388 -0.162746 127 127 0
0.567907 0.086349 0.190567 76 153 0
0.727669 0.151436 0.215506 76 153 0
0.387150 0.238751 -0.183529 153 76 0
0.596063 -0.078015 -0.002689 204 51 127
0.360277 -0.566207 0.215506 204 51 127
-0.294518 0.130447 -0.095430 76 0 153
0.074529 -0.535438 0.215506 204 51 127
0.328975 0.155946 0.030368 153 76 0
-0.471199 0.139855 -0.208468 153 76 0
0.328975 0.005549 -0.042309 153 76 0
0.443551 0.404153 -0.093013 76 0 153
-0.122557 0.310921 0.190567 76 153 0
-0.087159 0.192165 -0.104146 76 0 153
-0.737640 0.314470 0.190567 76 0 153
-0.049221 0.379213 0.063144 76 0 153
-0.739128 -0.398561 -0.208468 0 255 0
0.320709 -0.548909 0.190567 204 51 127
0.769576 0.089289 -0.121188 153 0 76
0.555628 -0.551869 0.016436 204 51 127
-0.117985 -0.023979 -0.007375 127 0 127
-0.066870 0.138129 0.030012 153 0 76
0.794516 0.219673 -0.049490 153 0 76
0.447847 -0.526929 -0.003538 204 51 127
0.246097 0.192165 -0.144762 76 0 153
0.181331 -0.526929 0.055561 204 51 127
-0.343012 -0.024212 0.215506 127 0 127
-0.416092 -0.073528 0.215506 127 0 127
-0.511887 -0.526929 0.091927 204 51 127
0.448714 -0.006833 -0.208468 153 76 0
-0.314002 -0.083167 -0.183529 153 76 0
0.769576 0.115950 0.088905 153 0 76
-0.463011 -0.551869 0.148299 204 51 127
0.201120 -0.551869 0.133617 204 51 127
-0.760059 0.017362 0.120080 76 0 153
0.006608 -0.023979 0.016520 127 0 127
0.245767 -0.078015 0.019663 204 51 127
0.376927 0.025877 -0.183529 153 76 0
-0.491089 0.404153 0.049359 76 0 153
-0.008322 -0.004563 -0.179372 153 76 0
0.444717 -0.053075 0.098920 204 51 127
-0.028563 0.192165 -0.098558 76 0 153
-0.597746 -0.053075 0.162632 204 51 127
0.597849 -0.078015 -0.079791 204 51 127
0.435793 0.059062 0.198880 76 153 0
0.769576 0.252880 -0.092735 153 0 76
-0.417238 -0.053075 -0.133646 204 51 127
0.328975 0.358477 -0.180823 153 76 0
0.126425 0.379213 -0.176601 153 76 0
-0.459670 -0.526929 -0.198084 204 51 127
0.794516 0.145009 -0.201576 255 0 0
0.588403 -0.053075 0.117567 204 51 127
-0.082728 -0.526929 -0.134855 204 51 127
0.769576 0.300424 -0.146408 153 0 76
-0.140542 -0.078015 0.113625 204 51 127
-0.114248 0.072235 -0.208468 153 76 0
0.493224 -0.030486 0.190567 76 153 0
-0.137776 -0.007956 -0.208468 153 76 0
0.769576 0.236232 0.156975 153 0 76
-0.198095 -0.551869 0.044279 204 51 127
-0.735119 0.189297 0.123876 76 0 153
-0.107159 0.379213 -0.051891 76 0 153
-0.760059 0.090835 0.185556 127 127 0
-0.405228 0.264236 0.198880 127 0 127
-0.723517 0.342846 -0.183529 76 0 153
0.152125 -0.021632 -0.208468 153 76 0
-0.191664 0.138129 0.130185 153 0 76
-0.677480 0.379213 -0.180141 153 76 0
0.691187 -0.551869 0.034052 204 51 127
0.304035 0.224721 0.152279 153 76 0
0.101918 0.132920 -0.162746 153 0 76
0.114463 0.404153 0.127069 76 0 153
-0.561530 0.376673 -0.208468 153 76 0
-0.064701 -0.551869 0.089558 204 51 127
0.343629 0.172831 0.190567 76 153 0
-0.269578 0.096093 -0.037653 0 255 0
-0.445510 -0.551869 -0.154432 204 51 127
0.180976 0.404153 0.135319 76 0 153
-0.760059 0.378103 -0.052247 76 0 153
-0.282642 0.379213 0.100770 76 0 153
0.640417 -0.551869 -0.048747 204 51 127
0.304035 0.350667 -0.136003 153 76 0
0.548344 -0.574547 -0.183529 204 51 127
-0.727058 0.379213 -0.087758 76 0 153
0.052222 -0.533340 -0.208468 204 51 127
0.172952 0.183852 -0.075488 76 0 153
0.061443 0.163069 -0.058544 153 0 76
0.622867 0.063545 -0.183529 153 76 0
0.048783 -0.551869 -0.137193 204 51 127
-0.200796 -0.551869 -0.078218 204 51 127
-0.760059 -0.001975 -0.058807 76 0 153
-0.735119 0.282451 0.146112 76 0 153
-0.760059 -0.547190 -0.178885 204 51 127
0.328975 0.324215 0.092342 153 76 0
0.274414 -0.526929 0.066630 204 51 127
0.500753 0.379213 0.047676 76 0 153
0.400268 0.404153 0.148864 76 0 153
-0.270699 0.300243 -0.183529 76 0 153
-0.642511 0.228890 0.198880 127 0 127
-0.340279 0.379213 0.058292 76 0 153
0.210957 0.268022 0.190567 76 153 0
-0.189181 -0.551869 -0.047287 204 51 127
-0.163404 -0.526929 0.006543 204 51 127
0.221345 -0.555031 -0.208468 204 51 127
-0.678184 0.379213 0.183712 76 0 153
0.216365 -0.053075 -0.106835 204 51 127
-0.269578 0.149431 -0.038354 153 0 76
-0.248795 0.262495 -0.137072 76 0 153
0.460371 -0.572172 0.190567 204 51 127
0.794516 -0.022211 0.050279 153 0 76
0.101709 0.138129 0.173693 153 0 76
-0.728360 -0.659941 0.193155 127 127 0
0.365183 -0.053075 -0.151120 204 51 127
-0.732291 -0.551869 0.012137 204 51 127
0.139957 -0.060655 -0.208468 153 76 0
0.794516 0.117360 -0.018334 153 0 76
0.224913 0.379213 0.045162 76 0 153
0.048672 -0.526929 0.121308 204 51 127
0.450031 -0.078099 -0.183529 204 51 127
0.670408 0.404153 -0.150161 76 0 153
0.328975 0.149186 0.178584 153 76 0
0.769576 -0.548946 -0.104508 204 51 127
0.112134 0.379213 -0.145633 76 0 153
0.707112 -0.535932 0.215506 204 51 127
0.114418 0.183852 -0.005163 76 0 153
-0.677612 0.404153 0.000600 76 0 153
-0.437631 -0.053075 -0.059619 204 51 127
-0.240498 0.404153 0.145248 76 0 153
0.778547 -0.157219 0.190567 0 0 255
0.247048 0.192165 0.019205 76 0 153
0.171475 0.167226 0.211904 0 255 0
0.117512 -0.095250 0.190567 127 0 127
