ply
format ascii 1.0
element vertex 1250
property float x
property float y
property float z
property uchar red
property uchar green
property uchar blue
end_header
-0.083656 -0.606158 -0.490216 0 127 127
0.461993 0.556219 0.421201 153 0 76
0.181645 0.378273 -0.490216 0 127 127
-0.253312 0.390742 -0.490216 0 127 127
0.499912 0.389033 -0.184060 0 127 127
-0.494565 0.498351 -0.254525 0 127 127
0.499912 0.362492 0.409222 153 0 76
0.499912 0.291958 -0.277938 0 127 127
0.499912 0.133462 -0.457814 0 127 127
0.499912 -0.096858 -0.093883 0 127 127
0.499912 0.033668 0.420378 153 0 76
0.029469 -0.733377 -0.471608 127 0 127
0.166265 0.364108 0.500219 76 0 153
0.264370 -0.276532 -0.490216 0 127 127
0.225436 -0.622185 0.463969 153 0 76
0.121380 0.274154 0.463969 153 0 76
0.499912 0.313736 -0.474842 0 127 127
-0.494565 -0.404227 -0.085975 0 127 127
0.499912 0.021161 -0.436315 0 127 127
0.296873 -0.059511 0.463969 153 0 76
0.499912 -0.567893 0.350079 0 127 127
0.086739 0.557890 -0.274470 0 127 127
-0.046366 -0.310740 0.463969 153 0 76
-0.494565 0.115921 0.228656 0 127 127
-0.457270 0.080807 -0.490216 0 127 127
0.156784 0.557890 -0.177030 0 127 127
-0.189895 0.356331 -0.490216 0 127 127
-0.016351 0.557890 -0.032822 0 127 127
0.303827 0.557890 -0.340002 0 127 127
-0.103713 0.200063 -0.490216 0 127 127
-0.494565 0.446116 0.111191 0 127 127
-0.494565 0.203562 -0.100442 0 127 127
-0.297794 -0.241543 0.463969 153 0 76
-0.412367 0.557890 -0.085462 0 127 127
-0.362914 -0.466345 -0.490216 0 127 127
0.494897 -0.650374 0.023486 0 127 127
-0.105846 0.409754 0.505186 76 0 153
-0.262672 0.400744 0.463969 153 0 76
0.499912 -0.382825 -0.025084 0 127 127
-0.494565 -0.073923 -0.176397 0 127 127
0.238497 0.557890 -0.051521 0 127 127
-0.415001 0.557890 0.238925 0 127 127
0.499912 0.087987 0.054586 0 127 127
-0.234908 0.557890 -0.444815 0 127 127
-0.494565 0.058386 0.424284 153 0 76
0.366475 0.553163 0.401055 153 0 76
0.486597 0.557890 0.117269 0 127 127
0.499912 0.286105 -0.384554 0 127 127
-0.494565 0.045578 0.376497 0 127 127
0.028522 0.234014 0.463969 153 0 76
-0.049659 0.557890 0.204519 0 127 127
-0.494565 -0.396522 -0.400466 0 127 127
0.499912 -0.318446 -0.465694 0 127 127
0.479752 -0.150205 0.463969 153 0 76
0.383638 0.557890 0.087032 0 127 127
-0.494565 -0.146880 0.458505 153 0 76
-0.203756 -0.240467 0.463969 153 0 76
0.499912 0.059648 -0.214917 0 127 127
0.448292 0.557890 -0.037830 0 127 127
0.345853 -0.267784 -0.490216 0 127 127
0.091058 -0.429216 0.463969 153 0 76
0.060379 0.171490 0.463969 153 0 76
-0.474169 -0.141643 -0.490216 0 127 127
-0.167704 -0.183952 -0.490216 0 127 127
-0.077816 0.557890 -0.293830 0 127 127
-0.494565 -0.386091 0.308129 0 127 127
0.499912 -0.222960 0.013456 0 127 127
-0.292669 -0.592235 0.463969 153 0 76
-0.494565 0.369824 0.101591 0 127 127
0.499912 -0.606092 0.018379 0 127 127
-0.248053 0.451710 -0.490216 0 127 127
-0.211737 -0.056261 -0.490216 0 127 127
0.481320 -0.650374 -0.312167 0 127 127
0.461655 0.368283 0.463969 153 0 76
-0.278334 0.557890 -0.116283 0 127 127
0.380481 0.160492 0.463969 153 0 76
-0.283703 -0.037859 -0.490216 0 127 127
0.499912 -0.124285 0.304224 0 127 127
0.264321 -0.810053 -0.471608 127 0 127
0.499912 0.338107 0.024071 0 127 127
0.499912 0.419452 -0.187795 0 127 127
-0.004489 0.059421 -0.490216 0 127 127
0.019059 -0.435810 0.463969 153 0 76
0.499912 -0.565519 0.031246 0 127 127
-0.494565 -0.328058 -0.173086 0 127 127
-0.479342 -0.650374 -0.456123 0 127 127
0.499912 -0.434320 -0.483661 0 127 127
-0.136577 -0.753326 -0.471608 127 0 127
0.499912 -0.116064 0.349859 0 127 127
0.499912 -0.397865 -0.468767 0 127 127
-0.471163 -0.798649 0.027667 127 0 127
0.262923 -0.013578 -0.490216 0 127 127
0.316077 0.557890 0.080010 0 127 127
0.147243 -0.044648 0.463969 153 0 76
-0.436292 0.422501 -0.490216 0 127 127
-0.494565 -0.309366 -0.208182 0 127 127
-0.306320 0.557890 -0.057003 0 127 127
-0.323173 0.557890 0.105130 0 127 127
0.499912 -0.287240 -0.386370 0 127 127
0.022768 -0.575008 0.463969 153 0 76
-0.442369 0.029727 0.463969 153 0 76
0.499912 0.203716 -0.322121 0 127 127
-0.494565 -0.338254 -0.258566 0 127 127
0.499912 -0.128232 0.154024 0 127 127
0.143963 -0.107734 -0.490216 0 127 127
0.476516 -0.782133 -0.219240 127 0 127
-0.106469 -0.262280 -0.490216 0 127 127
0.267926 -0.529383 -0.490216 0 127 127
-0.287805 0.509456 -0.490216 0 127 127
0.174161 -0.478209 -0.490216 0 127 127
0.499912 -0.107282 -0.407296 0 127 127
0.113974 -0.273349 0.463969 153 0 76
0.090031 -0.694367 -0.471608 127 0 127
0.499912 -0.415741 0.099551 0 127 127
0.146294 -0.803095 -0.471608 127 0 127
-0.114279 0.020875 -0.490216 0 127 127
0.499912 -0.347319 0.341317 0 127 127
-0.025212 0.557890 0.006228 0 127 127
0.466901 0.329105 0.463969 153 0 76
-0.415396 0.484132 -0.490216 0 127 127
0.074491 0.079493 -0.490216 0 127 127
0.341289 -0.146375 -0.490216 0 127 127
-0.471155 -0.676463 -0.080663 127 0 127
-0.494565 -0.038415 -0.375177 0 127 127
0.499912 -0.264495 -0.064177 0 127 127
-0.494565 0.306982 -0.316683 0 127 127
0.402147 0.557890 -0.117318 0 127 127
-0.006001 -0.020480 -0.490216 0 127 127
-0.307584 -0.497301 -0.490216 0 127 127
0.232514 0.222291 -0.490216 0 127 127
-0.453347 -0.595124 -0.490216 0 127 127
0.444615 -0.676327 0.445361 127 0 127
-0.079651 0.218458 -0.490216 0 127 127
-0.494565 -0.449893 0.437854 153 0 76
0.499912 -0.427044 -0.300430 0 127 127
-0.262501 -0.026539 -0.490216 0 127 127
0.499912 -0.542054 -0.062303 0 127 127
-0.097804 0.557890 -0.307862 0 127 127
-0.216130 -0.099837 0.463969 153 0 76
0.149542 0.128199 0.463969 153 0 76
0.000911 -0.619345 0.463969 153 0 76
-0.494565 0.079514 0.373292 0 127 127
0.499912 -0.211021 -0.134176 0 127 127
-0.494565 -0.085201 0.443089 153 0 76
-0.494565 -0.360849 0.342040 0 127 127
0.303276 0.527361 0.463969 153 0 76
0.441027 0.185066 -0.490216 0 127 127
0.128794 0.434599 -0.490216 0 127 127
-0.160149 0.557890 -0.297084 0 127 127
0.271020 0.557890 0.213718 0 127 127
0.168993 -0.760537 -0.471608 127 0 127
-0.018099 0.457298 0.464326 153 0 76
-0.062940 -0.323267 0.463969 153 0 76
0.499912 0.191816 0.427607 153 0 76
-0.494565 -0.608452 -0.376020 0 127 127
0.476508 -0.732765 -0.251729 127 0 127
0.216493 -0.463632 -0.490216 0 127 127
-0.471156 -0.741807 0.257645 127 0 127
0.304498 -0.650374 -0.471679 127 0 127
-0.494565 -0.513561 0.194045 0 127 127
0.499912 -0.055739 0.387967 0 127 127
-0.336396 -0.141745 -0.490216 0 127 127
0.499912 0.408122 0.011221 0 127 127
0.499912 0.518319 -0.097286 0 127 127
-0.446643 0.436642 0.463969 153 0 76
0.142119 -0.729450 -0.471608 127 0 127
-0.494565 -0.138614 -0.045062 0 127 127
-0.471163 -0.676044 -0.370580 127 0 127
-0.494565 -0.567139 -0.390742 0 127 127
-0.494565 -0.600077 0.207719 0 127 127
-0.097643 -0.572461 0.463969 153 0 76
0.218686 -0.128852 0.463969 153 0 76
0.433753 0.186999 0.463969 153 0 76
0.405287 -0.671729 0.445361 127 0 127
0.499912 0.211761 -0.444967 0 127 127
0.265788 -0.289559 0.463969 153 0 76
0.499912 -0.209213 0.138518 0 127 127
-0.494565 -0.010849 -0.352126 0 127 127
0.436511 0.290428 0.463969 153 0 76
-0.471159 -0.763207 -0.121588 127 0 127
-0.494565 0.260925 0.128288 0 127 127
-0.494565 -0.181633 -0.031362 0 127 127
-0.494565 0.438579 0.172692 0 127 127
0.499912 0.501966 -0.111513 0 127 127
-0.494565 -0.082290 -0.066151 0 127 127
-0.494565 0.298123 0.131700 0 127 127
0.030766 0.200895 -0.490216 0 127 127
-0.471156 -0.742840 0.008679 127 0 127
-0.231739 0.557890 -0.307120 0 127 127
-0.494565 0.365528 -0.096766 0 127 127
-0.092546 -0.561207 -0.490216 0 127 127
-0.182621 -0.504916 -0.490216 0 127 127
0.010018 0.459453 -0.490216 0 127 127
-0.394722 -0.377078 0.463969 153 0 76
-0.494565 -0.386576 -0.328949 0 127 127
-0.134006 0.557890 0.112087 0 127 127
-0.494565 -0.614466 -0.403524 0 127 127
-0.494565 -0.256097 0.029966 0 127 127
-0.379659 0.301155 -0.490216 0 127 127
0.499912 0.058050 0.306213 0 127 127
0.128053 -0.618350 0.463969 153 0 76
-0.117211 0.557890 -0.193284 0 127 127
0.493010 0.557890 -0.051984 0 127 127
-0.148112 0.082513 -0.490216 0 127 127
0.499912 0.177189 0.187504 0 127 127
0.499912 -0.477897 -0.162254 0 127 127
-0.358824 0.042302 -0.490216 0 127 127
0.169990 0.049362 0.463969 153 0 76
-0.494565 0.163464 0.214923 0 127 127
-0.299973 -0.748425 -0.471608 127 0 127
-0.494565 -0.315017 0.276783 0 127 127
0.196936 -0.723090 0.445361 127 0 127
-0.180219 0.557890 -0.220564 0 127 127
0.017416 -0.547102 0.463969 153 0 76
0.223258 0.168575 0.463969 153 0 76
-0.401237 -0.649843 0.461736 153 0 76
0.408418 0.422384 0.463969 153 0 76
0.224507 -0.733306 -0.471608 127 0 127
0.499912 -0.004272 -0.348227 0 127 127
-0.471157 -0.669745 -0.127324 127 0 127
0.499912 -0.106168 -0.013462 0 127 127
-0.494565 -0.152364 -0.129371 0 127 127
0.499912 -0.124149 0.414003 153 0 76
-0.494565 0.433346 0.024951 0 127 127
-0.064324 0.445226 0.463969 153 0 76
0.022118 -0.617971 0.463969 153 0 76
0.495360 0.557890 0.372422 0 127 127
0.499912 -0.151168 -0.015768 0 127 127
-0.399213 0.557890 -0.420055 0 127 127
0.499912 -0.603422 0.459872 153 0 76
-0.476632 -0.650374 0.432574 153 0 76
-0.494565 0.364777 0.221295 0 127 127
-0.475445 -0.650374 -0.034173 127 0 127
-0.236038 -0.390521 -0.490216 0 127 127
-0.311067 0.503809 0.463969 153 0 76
-0.405436 -0.272087 -0.490216 0 127 127
-0.307670 -0.493101 0.463969 153 0 76
-0.480642 -0.110788 0.463969 153 0 76
-0.494565 0.201405 0.377164 0 127 127
-0.266539 0.557890 -0.319612 0 127 127
0.144515 0.369392 -0.490216 0 127 127
-0.135085 -0.223384 0.463969 153 0 76
-0.178445 -0.324416 -0.490216 0 127 127
0.499912 0.159131 -0.319256 0 127 127
0.499912 -0.276604 0.225584 0 127 127
-0.494565 0.165040 -0.049900 0 127 127
0.214607 0.311724 0.463969 153 0 76
-0.184377 0.557890 -0.357902 0 127 127
-0.494565 0.406038 -0.371063 0 127 127
-0.351656 0.557890 -0.333475 0 127 127
-0.494565 -0.252721 -0.127220 0 127 127
0.050226 0.557890 -0.019267 0 127 127
-0.182154 0.557890 0.020375 0 127 127
-0.494565 -0.415566 -0.437826 0 127 127
-0.494565 -0.406458 0.078587 0 127 127
0.198024 0.557890 -0.000912 0 127 127
-0.494565 0.397257 -0.158127 0 127 127
-0.271243 0.185651 0.463969 153 0 76
0.126842 0.557890 0.186595 0 127 127
0.499912 -0.226575 -0.052478 0 127 127
0.080463 0.557890 -0.327617 0 127 127
-0.494565 -0.573422 -0.182449 0 127 127
-0.028057 -0.009328 0.463969 153 0 76
-0.494565 -0.251183 0.083478 0 127 127
0.115914 0.322505 0.463969 153 0 76
-0.419524 0.557890 -0.006505 0 127 127
0.074694 0.557890 -0.374007 0 127 127
-0.132056 0.303034 0.463969 153 0 76
-0.264336 0.557890 0.191874 0 127 127
0.149809 -0.768993 0.445361 127 0 127
-0.494565 0.004966 -0.253387 0 127 127
0.332013 0.557890 -0.092591 0 127 127
-0.201100 -0.649878 0.461714 153 0 76
0.271702 0.005490 0.463969 153 0 76
-0.494565 -0.446271 0.259083 0 127 127
0.348576 0.557890 0.014709 0 127 127
0.080481 0.557890 -0.109877 0 127 127
-0.356405 0.398724 -0.490216 0 127 127
-0.075524 -0.334681 -0.490216 0 127 127
-0.494565 0.233167 -0.150016 0 127 127
0.106090 0.557890 0.076263 0 127 127
0.499912 0.007598 -0.302833 0 127 127
0.196901 0.102259 0.463969 153 0 76
-0.122035 0.122506 -0.490216 0 127 127
-0.494565 -0.624337 0.137570 0 127 127
0.039665 0.173357 -0.490216 0 127 127
-0.052065 -0.259983 0.463969 153 0 76
-0.449065 0.287178 -0.490216 0 127 127
0.283599 0.316775 -0.490216 0 127 127
0.499912 -0.650206 -0.136866 0 127 127
0.125189 0.379909 0.503776 76 0 153
-0.043210 -0.651518 -0.471608 0 127 127
-0.098586 0.557890 -0.432671 0 127 127
0.456498 -0.253105 -0.490216 0 127 127
-0.494565 -0.231610 -0.455440 0 127 127
0.499699 -0.650374 -0.442161 0 127 127
-0.437932 0.557890 0.181644 0 127 127
-0.494565 -0.305335 -0.026530 0 127 127
-0.494565 -0.335589 0.207849 0 127 127
0.476516 -0.761152 -0.024737 127 0 127
-0.494565 0.077421 0.267407 0 127 127
-0.494565 -0.503615 -0.124910 0 127 127
-0.089152 0.557890 0.373057 0 127 127
0.113245 0.054064 -0.490216 0 127 127
0.499912 0.157664 -0.277701 0 127 127
0.241206 -0.719213 -0.471608 127 0 127
-0.494565 -0.277454 -0.405063 0 127 127
-0.362599 -0.388282 0.463969 153 0 76
0.499912 0.202705 -0.080098 0 127 127
0.289286 -0.313900 0.463969 153 0 76
-0.140935 -0.463632 -0.490216 0 127 127
0.310355 -0.703870 -0.471608 127 0 127
0.345838 0.557890 0.085227 0 127 127
-0.045429 -0.465017 0.463969 153 0 76
0.447946 -0.393141 -0.490216 0 127 127
-0.471149 -0.687604 0.359113 127 0 127
0.097171 0.448577 -0.490216 0 127 127
-0.494565 -0.644715 0.371104 0 127 127
-0.494565 0.542289 -0.209184 0 127 127
0.393780 0.110929 0.463969 153 0 76
-0.141514 0.364182 0.502058 76 0 153
-0.494565 -0.208003 -0.251628 0 127 127
0.499912 0.362853 -0.316665 0 127 127
0.235981 -0.449367 -0.490216 0 127 127
0.499912 0.090694 -0.211167 0 127 127
0.499912 0.529370 -0.406681 0 127 127
0.124117 0.361085 0.463969 153 0 76
0.450136 -0.170315 0.463969 153 0 76
0.497605 -0.650374 0.127833 0 127 127
-0.243109 -0.455750 -0.490216 0 127 127
-0.263016 0.418608 0.484566 76 0 153
0.499912 -0.515861 0.132721 0 127 127
0.499912 0.003901 0.309339 0 127 127
0.478579 -0.332298 0.463969 153 0 76
0.068496 -0.198777 -0.490216 0 127 127
0.499912 0.022290 -0.207325 0 127 127
0.114636 0.220136 -0.490216 0 127 127
0.085175 0.557890 0.296722 0 127 127
-0.424686 0.403502 0.463969 153 0 76
0.499912 -0.282450 0.112021 0 127 127
-0.494565 -0.166321 -0.333655 0 127 127
-0.382903 0.557890 -0.371655 0 127 127
0.242823 -0.429837 -0.490216 0 127 127
-0.494565 0.122800 0.043330 0 127 127
-0.454909 0.486216 0.463969 153 0 76
0.499912 -0.165132 0.250398 0 127 127
0.499912 -0.413922 -0.100276 0 127 127
-0.125426 -0.459820 0.463969 153 0 76
0.172299 -0.630814 -0.490216 0 127 127
-0.494565 -0.585361 -0.408060 0 127 127
0.143514 -0.000574 -0.490216 0 127 127
-0.421029 0.069621 -0.490216 0 127 127
0.499912 0.158525 0.319745 0 127 127
-0.387346 0.428856 0.463969 153 0 76
-0.021227 0.557890 -0.457023 0 127 127
0.476507 -0.706955 0.113062 127 0 127
0.298905 0.039614 0.463969 153 0 76
0.073054 -0.787479 0.445361 127 0 127
0.375292 -0.156139 -0.490216 0 127 127
-0.008615 -0.629107 -0.490216 0 127 127
-0.464189 0.557890 0.120904 0 127 127
-0.494565 0.272318 -0.144605 0 127 127
-0.473503 -0.258434 -0.490216 0 127 127
0.075575 -0.029025 -0.490216 0 127 127
0.055129 -0.664233 0.445361 127 0 127
0.499912 -0.630324 0.269565 0 127 127
-0.321483 0.557890 0.023365 0 127 127
-0.350528 -0.390214 -0.490216 0 127 127
-0.042812 0.557890 -0.173546 0 127 127
0.383928 0.207136 0.463969 153 0 76
-0.494565 -0.387531 0.253939 0 127 127
-0.494565 -0.184022 0.189062 0 127 127
0.499912 -0.117074 0.213775 0 127 127
0.020920 0.557890 -0.016830 0 127 127
-0.108296 -0.660981 0.445361 127 0 127
0.392570 -0.065054 0.463969 153 0 76
0.499912 -0.006908 0.167322 0 127 127
-0.039807 0.176458 0.463969 153 0 76
0.318477 0.557890 0.162134 0 127 127
-0.032617 0.064488 0.463969 153 0 76
-0.025855 0.376363 0.497506 76 0 153
-0.471148 -0.686297 0.293198 127 0 127
0.499912 0.175305 0.212156 0 127 127
0.499912 -0.279083 -0.240576 0 127 127
-0.196312 0.058231 0.463969 153 0 76
-0.494565 0.420395 0.233754 0 127 127
-0.075624 -0.399518 0.471116 153 0 76
0.333326 -0.250148 -0.490216 0 127 127
0.499912 -0.643431 -0.095995 0 127 127
-0.425833 0.557890 0.138773 0 127 127
-0.494565 -0.303079 0.382601 0 127 127
-0.022948 -0.478494 -0.490216 0 127 127
0.499912 -0.144067 -0.390025 0 127 127
-0.345426 -0.728837 -0.471608 127 0 127
0.081878 0.112569 -0.490216 0 127 127
0.013383 -0.506177 0.463969 153 0 76
0.431418 0.521351 0.463969 153 0 76
-0.494565 0.111679 -0.256558 0 127 127
0.499912 0.152468 -0.053708 0 127 127
-0.148094 0.160746 -0.490216 0 127 127
-0.432142 -0.480521 -0.490216 0 127 127
-0.315595 0.557890 0.126737 0 127 127
-0.317704 -0.427922 0.463969 153 0 76
-0.336736 -0.256586 -0.490216 0 127 127
0.496683 -0.501601 0.396517 153 0 76
-0.494565 -0.506530 -0.014578 0 127 127
-0.458847 0.557890 0.081013 0 127 127
-0.226608 0.557890 0.177574 0 127 127
-0.494565 -0.042292 -0.137989 0 127 127
0.499912 0.103401 0.192981 0 127 127
0.009374 -0.778382 -0.471608 127 0 127
-0.386451 0.557890 0.454387 153 0 76
-0.285681 -0.637049 0.463969 153 0 76
0.046636 -0.113380 -0.490216 0 127 127
0.482636 0.557890 -0.327791 0 127 127
-0.494565 0.145861 0.138865 0 127 127
-0.101563 -0.456387 0.463969 153 0 76
0.499912 -0.481520 0.437345 153 0 76
-0.494565 -0.009358 -0.372152 0 127 127
0.476495 -0.686585 0.163417 127 0 127
-0.494565 -0.470590 -0.463289 0 127 127
0.156551 0.557890 -0.296462 0 127 127
-0.046525 -0.631739 0.463969 153 0 76
-0.060065 0.556219 0.419403 153 0 76
0.499912 -0.335004 0.195857 0 127 127
0.499912 0.025104 0.379043 0 127 127
0.499912 0.449866 -0.077799 0 127 127
0.157744 0.557890 0.153590 0 127 127
0.499912 0.008542 0.410778 153 0 76
0.155584 0.274719 -0.490216 0 127 127
-0.494565 -0.586465 -0.305514 0 127 127
0.190960 -0.592602 0.463969 153 0 76
-0.033429 -0.648093 -0.490216 0 127 127
0.343912 0.557890 -0.045929 0 127 127
-0.471151 -0.702083 0.086313 127 0 127
0.298441 0.413164 0.463969 153 0 76
0.476513 -0.690016 -0.395200 127 0 127
0.219308 0.557890 0.246847 0 127 127
0.499912 -0.448051 0.347536 0 127 127
0.499912 0.472862 -0.109015 0 127 127
-0.081959 0.407286 0.463969 153 0 76
0.314189 0.557890 -0.163124 0 127 127
0.289542 0.134331 -0.490216 0 127 127
-0.164564 0.244941 -0.490216 0 127 127
0.043636 -0.500690 0.463969 153 0 76
-0.494565 0.193405 -0.398059 0 127 127
0.499912 0.043967 0.255280 0 127 127
-0.494565 0.008949 -0.383374 0 127 127
-0.370134 0.557890 0.120770 0 127 127
-0.054836 -0.522761 0.463969 153 0 76
0.499912 0.265806 -0.314984 0 127 127
0.341023 0.557890 0.326817 0 127 127
-0.494565 -0.006757 0.029648 0 127 127
-0.076256 -0.583699 -0.490216 0 127 127
-0.476341 0.375267 0.463969 153 0 76
0.476516 -0.691549 0.438990 127 0 127
0.499912 0.104037 -0.372480 0 127 127
0.499912 -0.134561 -0.233531 0 127 127
-0.198869 0.266743 -0.490216 0 127 127
0.148043 0.557890 0.090180 0 127 127
0.482850 0.180576 -0.490216 0 127 127
-0.494565 0.305118 -0.219643 0 127 127
0.476504 -0.680400 -0.110463 127 0 127
0.089749 -0.577887 -0.490216 0 127 127
0.277673 0.023790 -0.490216 0 127 127
-0.224818 -0.549131 -0.490216 0 127 127
-0.079829 0.372480 0.463969 153 0 76
-0.494565 -0.455646 -0.445372 0 127 127
0.499912 0.325309 -0.424634 0 127 127
-0.359022 -0.432405 -0.490216 0 127 127
0.173945 -0.682538 -0.471608 127 0 127
-0.094207 0.410879 -0.490216 0 127 127
0.295194 0.256121 0.463969 153 0 76
0.499912 -0.079551 0.029200 0 127 127
-0.494565 0.216196 0.061469 0 127 127
0.499912 0.468216 0.345376 0 127 127
0.135099 -0.811514 0.445361 127 0 127
-0.494565 -0.508050 -0.400005 0 127 127
0.499912 0.220938 -0.018737 0 127 127
-0.494565 -0.065950 -0.102562 0 127 127
-0.340301 -0.611608 -0.490216 0 127 127
-0.246393 0.557890 0.381581 0 127 127
-0.461621 0.059062 0.463969 153 0 76
-0.494565 0.358137 -0.032057 0 127 127
-0.195463 0.368938 0.463969 153 0 76
0.499912 -0.146344 -0.350877 0 127 127
0.434362 0.557890 -0.489859 0 127 127
-0.003361 -0.251450 -0.490216 0 127 127
0.499912 -0.598175 -0.097882 0 127 127
0.310911 -0.190353 0.463969 153 0 76
0.482915 -0.106600 0.463969 153 0 76
-0.490666 -0.650374 0.023347 0 127 127
-0.494565 -0.619717 -0.471449 0 127 127
-0.494565 0.229897 -0.328280 0 127 127
-0.053463 -0.550819 -0.490216 0 127 127
0.089117 0.344965 -0.490216 0 127 127
-0.424548 0.557890 -0.180190 0 127 127
-0.494565 -0.214546 0.235398 0 127 127
0.499912 -0.263523 0.190395 0 127 127
-0.471161 -0.756127 -0.304364 127 0 127
0.436679 0.324257 -0.490216 0 127 127
-0.494565 0.347344 -0.153618 0 127 127
0.499912 -0.621593 0.041645 0 127 127
-0.470586 0.123551 0.463969 153 0 76
-0.066473 0.557890 -0.397000 0 127 127
0.148596 0.557890 0.328527 0 127 127
-0.494565 -0.430075 -0.388535 0 127 127
0.383767 -0.582747 -0.490216 0 127 127
-0.308235 0.306400 0.463969 153 0 76
-0.347881 0.227423 -0.490216 0 127 127
0.375303 -0.449084 0.463969 153 0 76
-0.435273 -0.149818 -0.490216 0 127 127
0.324689 -0.417487 0.463969 153 0 76
-0.494565 0.528592 -0.252115 0 127 127
0.396293 -0.379237 0.463969 153 0 76
0.319094 -0.204883 -0.490216 0 127 127
0.175572 -0.625353 0.463969 153 0 76
-0.494565 -0.268420 -0.226815 0 127 127
-0.241129 0.557890 -0.287791 0 127 127
0.136704 -0.172422 -0.490216 0 127 127
0.324498 -0.089271 0.463969 153 0 76
-0.494565 0.180286 0.143063 0 127 127
0.499912 0.478079 -0.238095 0 127 127
-0.471148 -0.670064 0.238058 127 0 127
0.499912 0.433307 -0.336422 0 127 127
0.499912 -0.522968 0.094895 0 127 127
0.455059 -0.786736 0.445361 127 0 127
0.496900 -0.593626 0.396517 0 127 127
-0.494565 -0.572925 0.024703 0 127 127
-0.175399 0.190664 -0.490216 0 127 127
0.499912 -0.347354 0.079138 0 127 127
0.073391 0.061383 0.463969 153 0 76
-0.247728 -0.517675 -0.490216 0 127 127
0.499912 -0.177646 -0.244015 0 127 127
0.015226 -0.764212 0.445361 127 0 127
0.499912 0.116553 -0.256110 0 127 127
-0.494565 -0.044566 -0.077107 0 127 127
-0.494565 0.353579 -0.003487 0 127 127
-0.274212 -0.490630 -0.490216 0 127 127
0.492290 0.557890 0.083309 0 127 127
0.499912 -0.216762 0.088222 0 127 127
-0.494565 -0.243603 0.208488 0 127 127
0.285835 -0.182883 0.463969 153 0 76
0.499912 -0.286821 0.309219 0 127 127
-0.053696 0.557890 -0.203645 0 127 127
-0.247268 0.557890 0.012645 0 127 127
-0.471163 -0.799927 -0.247192 127 0 127
0.046299 0.557890 -0.402396 0 127 127
0.499912 -0.216349 -0.227551 0 127 127
0.475937 0.215034 -0.490216 0 127 127
-0.077372 0.557890 0.120825 0 127 127
-0.350839 0.516555 -0.490216 0 127 127
-0.439829 0.557890 0.256729 0 127 127
-0.494565 -0.026330 0.278965 0 127 127
-0.202742 0.557890 -0.416840 0 127 127
-0.107482 0.150226 0.463969 153 0 76
-0.359317 -0.121639 0.463969 153 0 76
-0.301141 0.148166 0.463969 153 0 76
0.499912 0.276349 -0.130258 0 127 127
0.243969 0.332231 -0.490216 0 127 127
0.103605 -0.251907 -0.490216 0 127 127
0.393395 0.057720 -0.490216 0 127 127
0.499912 -0.055157 -0.435044 0 127 127
0.499912 -0.596264 0.191812 0 127 127
0.415294 -0.397744 0.463969 153 0 76
-0.261665 -0.186273 -0.490216 0 127 127
-0.494565 -0.223180 0.114214 0 127 127
-0.494565 -0.558708 0.198655 0 127 127
-0.061382 0.557890 0.322374 0 127 127
0.010542 0.557890 -0.370531 0 127 127
-0.477724 -0.650374 0.293107 127 0 127
-0.358799 0.557890 -0.019638 0 127 127
0.376253 -0.275412 0.463969 153 0 76
0.441045 0.027806 -0.490216 0 127 127
0.307596 -0.645245 0.463969 153 0 76
-0.068735 -0.229963 -0.490216 0 127 127
0.124227 0.453560 0.463969 153 0 76
0.499912 -0.487005 -0.013352 0 127 127
-0.206899 0.032649 -0.490216 0 127 127
-0.494565 -0.385647 -0.161699 0 127 127
0.365849 -0.658645 0.445361 127 0 127
0.275295 -0.703311 0.445361 127 0 127
-0.279468 0.355744 -0.490216 0 127 127
-0.172616 -0.455239 -0.490216 0 127 127
0.039602 0.557890 0.169784 0 127 127
0.473222 0.557890 0.345793 0 127 127
-0.494565 -0.441104 -0.350562 0 127 127
0.230221 -0.525075 0.463969 153 0 76
0.306564 -0.279586 -0.490216 0 127 127
-0.426682 -0.717056 0.445361 127 0 127
-0.494565 0.471150 0.155927 0 127 127
-0.270128 -0.225099 -0.490216 0 127 127
-0.204521 -0.647108 -0.490216 0 127 127
-0.494565 -0.169866 0.263826 0 127 127
-0.364647 -0.222152 -0.490216 0 127 127
-0.134721 0.557890 0.280133 0 127 127
0.499912 -0.614070 0.128504 0 127 127
-0.494565 -0.525571 -0.470328 0 127 127
0.499912 0.052866 0.080626 0 127 127
0.499912 -0.361249 0.459478 153 0 76
-0.453852 0.557890 0.140882 0 127 127
-0.471161 -0.785108 0.113383 127 0 127
0.159589 -0.647707 0.463043 153 0 76
0.476509 -0.696098 -0.278051 127 0 127
0.011821 -0.695020 0.445361 127 0 127
0.499912 -0.181800 0.054251 0 127 127
0.049713 -0.157303 -0.490216 0 127 127
0.499912 0.259983 -0.350120 0 127 127
0.418929 0.557890 0.331507 0 127 127
0.499912 -0.574711 -0.356053 0 127 127
-0.494565 -0.401701 0.350766 0 127 127
-0.494565 0.180707 -0.227095 0 127 127
0.406099 0.557890 0.110241 0 127 127
-0.494565 -0.246893 -0.250151 0 127 127
-0.025803 0.143115 0.463969 153 0 76
-0.494565 0.019642 0.003370 0 127 127
0.055173 -0.234346 -0.490216 0 127 127
-0.494565 -0.012539 -0.151826 0 127 127
-0.462400 0.557890 0.000749 0 127 127
-0.204523 -0.037768 -0.490216 0 127 127
0.499912 0.475961 0.363691 0 127 127
0.285899 0.528121 -0.490216 0 127 127
-0.011266 -0.788807 0.445361 127 0 127
0.233576 0.230518 0.463969 153 0 76
0.290803 -0.313587 -0.490216 0 127 127
0.499912 -0.320170 0.440077 153 0 76
-0.209002 0.084406 -0.490216 0 127 127
-0.430440 -0.327396 0.463969 153 0 76
-0.494565 -0.188022 0.373124 0 127 127
0.499912 -0.107388 -0.198211 0 127 127
0.119358 0.161886 -0.490216 0 127 127
-0.494565 -0.186771 0.058531 0 127 127
0.147837 -0.234745 0.463969 153 0 76
0.219101 0.557890 -0.471169 0 127 127
-0.494565 -0.001298 0.446816 153 0 76
-0.447373 -0.576376 0.463969 153 0 76
0.476516 -0.771049 0.174092 127 0 127
0.499912 -0.219564 0.357114 0 127 127
-0.195755 -0.359449 0.463969 153 0 76
-0.146318 -0.344337 -0.490216 0 127 127
-0.099542 -0.715126 0.445361 127 0 127
0.156943 0.502488 0.463969 153 0 76
0.032444 -0.302873 0.463969 153 0 76
-0.149796 -0.307026 0.463969 153 0 76
0.499912 0.218173 0.040242 0 127 127
-0.280861 -0.062705 -0.490216 0 127 127
-0.414326 -0.650374 0.446861 127 0 127
-0.407116 0.557890 -0.214190 0 127 127
0.240336 0.474804 -0.490216 0 127 127
-0.162560 0.461778 -0.490216 0 127 127
-0.459387 -0.611094 0.463969 153 0 76
0.138182 -0.225250 -0.490216 0 127 127
0.215616 0.557890 -0.173914 0 127 127
0.466579 0.492198 -0.490216 0 127 127
0.499912 -0.274357 -0.298998 0 127 127
0.422125 0.063171 -0.490216 0 127 127
0.339921 -0.467142 0.463969 153 0 76
0.499912 -0.389815 0.085173 0 127 127
-0.227758 -0.489121 0.463969 153 0 76
-0.471163 -0.793254 -0.050381 127 0 127
0.065121 -0.693482 -0.471608 127 0 127
-0.494565 -0.359604 -0.133557 0 127 127
0.499912 -0.021061 0.048249 0 127 127
0.476516 -0.720720 0.413934 127 0 127
0.047398 0.499332 -0.490216 0 127 127
0.367688 0.398636 0.463969 76 0 153
0.499912 -0.481634 0.029042 0 127 127
-0.020619 0.557890 0.329583 0 127 127
-0.297612 0.383456 0.481379 76 0 153
-0.494565 0.124759 -0.208878 0 127 127
-0.410816 -0.663595 -0.471608 127 0 127
-0.110741 -0.137768 0.463969 153 0 76
0.439372 0.557890 0.039408 0 127 127
-0.404994 -0.467795 0.463969 153 0 76
0.136051 -0.262960 0.463969 153 0 76
0.499912 0.356050 -0.230781 0 127 127
-0.494565 0.000181 0.164235 0 127 127
-0.168048 0.425681 -0.490216 0 127 127
-0.359634 0.557890 -0.203045 0 127 127
-0.346997 -0.002841 0.463969 153 0 76
-0.250888 0.557890 -0.150628 0 127 127
0.361214 -0.571076 -0.490216 0 127 127
-0.307303 0.557890 -0.369748 0 127 127
-0.407568 -0.331945 -0.490216 0 127 127
-0.494565 0.174146 -0.296571 0 127 127
-0.494565 -0.352100 0.092824 0 127 127
-0.086477 0.557890 0.228141 0 127 127
0.499912 -0.604135 0.255563 0 127 127
-0.494565 0.341569 -0.256299 0 127 127
-0.327403 -0.327877 0.463969 153 0 76
-0.112005 0.402865 0.463969 153 0 76
0.499912 -0.069741 -0.030999 0 127 127
0.499912 -0.280170 -0.052146 0 127 127
-0.494565 0.545739 -0.429875 0 127 127
0.327720 -0.323920 0.463969 153 0 76
0.499912 -0.511702 -0.273297 0 127 127
0.086796 0.557890 -0.042682 0 127 127
-0.233574 0.533760 0.463969 153 0 76
0.279785 0.379214 -0.490216 0 127 127
-0.079383 0.398613 0.495509 76 0 153
-0.261526 -0.261991 -0.490216 0 127 127
0.495185 -0.471456 0.398866 153 0 76
0.499912 -0.204550 -0.093836 0 127 127
0.476516 -0.764013 -0.068233 127 0 127
0.499912 0.385413 -0.384787 0 127 127
-0.494565 0.202754 -0.068996 0 127 127
0.491125 0.557890 -0.091862 0 127 127
-0.012548 -0.249792 0.463969 153 0 76
-0.300249 0.557890 0.331809 0 127 127
-0.286688 0.067763 0.463969 153 0 76
0.064767 0.557890 0.116374 0 127 127
-0.494565 0.029198 0.028493 0 127 127
-0.115322 0.300266 -0.490216 0 127 127
-0.494565 0.122755 0.410209 153 0 76
-0.322795 0.557890 0.215964 0 127 127
-0.039689 -0.650374 0.457554 153 0 76
-0.239050 -0.132965 0.463969 153 0 76
-0.420245 0.448572 0.463969 153 0 76
0.373687 -0.495099 0.463969 153 0 76
-0.494565 0.160491 0.388907 0 127 127
-0.494565 0.298359 -0.080992 0 127 127
0.499912 0.441089 -0.171309 0 127 127
-0.492060 -0.650374 -0.233454 0 127 127
-0.225536 0.557890 0.018827 0 127 127
-0.471151 -0.702817 0.191938 127 0 127
0.133703 -0.051118 -0.490216 0 127 127
-0.494565 0.455014 0.076228 0 127 127
0.388048 0.557890 0.016376 0 127 127
0.499912 0.252518 -0.222918 0 127 127
-0.339566 0.038144 -0.490216 0 127 127
-0.171122 -0.431241 -0.490216 0 127 127
0.255575 0.183992 0.463969 153 0 76
0.402336 -0.371472 -0.490216 0 127 127
0.499912 0.482123 0.443295 153 0 76
-0.494565 -0.254015 0.004197 0 127 127
-0.050224 -0.057472 -0.490216 0 127 127
-0.494565 0.132203 -0.185231 0 127 127
-0.494565 0.102067 0.147389 0 127 127
-0.494565 -0.528839 -0.045581 0 127 127
0.439272 0.557890 -0.126419 0 127 127
0.477927 -0.650374 0.186899 127 0 127
-0.494565 0.490613 -0.303241 0 127 127
-0.212681 0.557890 -0.237136 0 127 127
-0.483571 -0.516638 0.463969 153 0 76
0.499912 -0.370797 -0.129863 0 127 127
-0.494565 0.365903 -0.361228 0 127 127
0.499912 -0.370421 -0.245328 0 127 127
-0.177279 0.557890 0.114868 0 127 127
0.014095 -0.410875 -0.490216 0 127 127
-0.494565 -0.021971 -0.088217 0 127 127
0.423483 -0.046005 -0.490216 0 127 127
-0.494565 0.336530 -0.215102 0 127 127
0.482704 -0.650374 0.251870 127 0 127
-0.356869 0.126028 -0.490216 0 127 127
-0.494565 -0.171593 0.142169 0 127 127
0.211626 -0.159091 -0.490216 0 127 127
-0.066293 -0.128239 -0.490216 0 127 127
0.199433 0.557890 -0.099757 0 127 127
-0.494565 0.191969 -0.036264 0 127 127
-0.157030 -0.192977 0.463969 153 0 76
-0.483415 0.095269 -0.490216 0 127 127
0.499912 -0.410123 -0.426126 0 127 127
0.379449 -0.757508 -0.471608 127 0 127
-0.471163 -0.651418 -0.369917 127 0 127
-0.052538 0.557890 -0.488827 0 127 127
0.258296 0.399422 0.463969 153 0 76
-0.315144 -0.240326 -0.490216 0 127 127
0.491251 0.410762 0.463969 153 0 76
0.499912 0.196248 -0.387631 0 127 127
0.394990 0.376405 0.463969 153 0 76
0.332047 -0.253095 0.463969 153 0 76
-0.494565 -0.017870 -0.186860 0 127 127
0.499912 0.350695 -0.411694 0 127 127
-0.494565 0.238421 -0.263035 0 127 127
0.202974 -0.415269 0.463969 153 0 76
0.310785 -0.804850 0.445361 127 0 127
0.309342 0.557890 -0.029375 0 127 127
0.499912 -0.117584 0.036760 0 127 127
0.499912 -0.565703 0.225959 0 127 127
-0.389735 -0.498108 -0.490216 0 127 127
-0.242650 -0.432931 0.463969 153 0 76
-0.000526 0.403606 0.508972 76 0 153
-0.494565 -0.284427 -0.256640 0 127 127
0.499912 0.455944 0.050158 0 127 127
0.499912 -0.044544 0.047049 0 127 127
-0.494565 0.383892 0.412954 153 0 76
0.499912 -0.285993 0.053520 0 127 127
-0.494565 -0.177230 -0.479493 0 127 127
0.203729 -0.650374 0.453337 153 0 76
0.478859 -0.006099 0.463969 153 0 76
0.101625 -0.717264 0.445361 127 0 127
0.249521 -0.498546 -0.490216 0 127 127
0.499912 0.119521 0.391511 0 127 127
0.499912 -0.292748 0.347113 0 127 127
0.361195 0.557890 -0.425737 0 127 127
-0.236786 0.083237 0.463969 153 0 76
0.369335 0.557890 -0.310479 0 127 127
0.499912 -0.102598 -0.333603 0 127 127
-0.067113 0.054381 -0.490216 0 127 127
-0.189094 -0.043835 0.463969 153 0 76
0.325617 -0.687110 -0.471608 127 0 127
0.476516 -0.727018 0.343843 127 0 127
0.499912 0.058776 0.138939 0 127 127
0.499912 0.012660 -0.416578 0 127 127
-0.359565 -0.546684 -0.490216 0 127 127
0.177063 0.400693 0.488569 76 0 153
0.483871 0.557890 -0.176198 0 127 127
0.499912 0.140151 -0.376147 0 127 127
-0.494565 -0.071064 -0.405751 0 127 127
-0.494565 0.069184 -0.258132 0 127 127
0.398376 0.557890 0.070792 0 127 127
-0.077639 -0.213562 0.463969 153 0 76
-0.254364 0.362414 0.486161 76 0 153
0.499912 0.297341 0.351859 0 127 127
-0.103947 0.043673 0.463969 153 0 76
-0.113945 -0.318231 0.463969 153 0 76
-0.494565 -0.069033 0.070343 0 127 127
-0.471156 -0.740710 0.046685 127 0 127
0.442391 -0.654090 0.445361 153 0 76
0.499912 -0.126955 0.378525 0 127 127
-0.471146 -0.667071 0.354051 127 0 127
0.499912 -0.246872 0.320273 0 127 127
0.330830 0.557890 -0.314925 0 127 127
-0.367264 0.347335 -0.490216 0 127 127
0.499912 0.089425 -0.455282 0 127 127
-0.000669 -0.342753 -0.490216 0 127 127
-0.494565 0.459613 0.256402 0 127 127
0.200645 -0.295403 0.463969 153 0 76
-0.494565 0.430680 -0.327838 0 127 127
-0.494565 -0.608759 0.183198 0 127 127
-0.494565 0.406850 -0.289414 0 127 127
0.499912 -0.202361 -0.020756 0 127 127
-0.494565 0.477784 0.295138 0 127 127
-0.494565 -0.577829 0.250286 0 127 127
-0.184463 -0.564989 -0.490216 0 127 127
0.499912 -0.535515 -0.221646 0 127 127
0.115166 -0.051433 0.463969 153 0 76
-0.032786 0.504376 0.463969 153 0 76
0.280834 -0.777800 0.445361 127 0 127
0.475236 0.557890 -0.113183 0 127 127
0.499912 -0.506949 -0.324429 0 127 127
0.499912 -0.455629 -0.092978 0 127 127
0.438803 -0.355261 -0.490216 0 127 127
0.273202 0.557890 -0.029603 0 127 127
-0.494565 0.029166 0.309781 0 127 127
-0.490887 -0.213079 0.463489 153 0 76
-0.494565 -0.454832 -0.241852 0 127 127
-0.254932 -0.719216 0.445361 127 0 127
-0.148587 -0.428730 0.463969 153 0 76
-0.322360 -0.662562 -0.471608 127 0 127
-0.405204 0.557890 0.053405 0 127 127
0.499912 -0.248097 -0.172294 0 127 127
-0.253040 -0.759470 0.445361 127 0 127
-0.494565 -0.324087 -0.120036 0 127 127
0.084616 0.134198 0.463969 153 0 76
0.499912 0.509128 -0.055956 0 127 127
0.036797 0.270945 0.463969 153 0 76
-0.079555 0.032046 -0.490216 0 127 127
-0.472436 0.557890 0.184998 0 127 127
-0.494565 0.540515 0.011746 0 127 127
0.146605 0.161203 -0.490216 0 127 127
0.499912 -0.214803 0.293096 0 127 127
-0.037470 -0.788276 -0.471608 127 0 127
-0.120932 0.557890 -0.158007 0 127 127
-0.494565 0.010509 0.065252 0 127 127
-0.426124 0.557890 0.363947 0 127 127
-0.494565 -0.643119 0.230292 0 127 127
0.106916 -0.606017 -0.490216 0 127 127
-0.494565 0.036251 -0.011454 0 127 127
0.476516 -0.792072 0.333965 127 0 127
-0.494565 0.536144 0.174510 0 127 127
-0.213221 0.319521 0.463969 153 0 76
-0.471165 -0.811849 0.071916 127 0 127
-0.494565 -0.059245 0.033121 0 127 127
0.499912 -0.086298 -0.378882 0 127 127
-0.494565 0.045376 -0.342330 0 127 127
-0.133876 0.557890 0.302813 0 127 127
-0.120399 -0.400244 0.463969 153 0 76
-0.277541 0.161994 0.463969 153 0 76
0.090034 0.557890 0.087338 0 127 127
-0.494565 0.483805 0.419240 153 0 76
0.476511 -0.731505 -0.321106 127 0 127
0.451944 0.557890 -0.362965 0 127 127
-0.373200 0.170768 0.463969 153 0 76
-0.138493 -0.241200 -0.490216 0 127 127
-0.494565 0.403711 0.155425 0 127 127
-0.255782 0.536478 -0.490216 0 127 127
0.331991 0.008183 0.463969 153 0 76
-0.494565 0.123828 0.276588 0 127 127
0.461824 -0.746153 0.445361 127 0 127
0.210424 0.464591 -0.490216 0 127 127
-0.494565 -0.433954 -0.327617 0 127 127
0.305517 0.557890 0.326519 0 127 127
-0.329615 -0.210014 0.463969 153 0 76
-0.320760 0.557890 0.357947 0 127 127
0.191257 0.304745 0.463969 153 0 76
-0.158625 0.354715 0.463969 153 0 76
0.499912 -0.437877 0.440414 153 0 76
0.499912 -0.512582 0.337949 0 127 127
-0.470166 0.557890 -0.117714 0 127 127
0.204243 -0.435246 0.463969 153 0 76
-0.494565 0.412769 0.392918 0 127 127
0.100225 0.557890 0.194811 0 127 127
-0.177780 -0.066888 -0.490216 0 127 127
-0.494565 -0.292600 -0.046084 0 127 127
-0.494565 -0.610703 -0.450767 0 127 127
-0.273818 -0.703225 -0.471608 127 0 127
0.116532 -0.755999 -0.471608 127 0 127
-0.494565 0.351854 -0.119810 0 127 127
0.499912 -0.450559 0.168608 0 127 127
0.162320 -0.100762 -0.490216 0 127 127
-0.494565 0.287005 0.217765 0 127 127
-0.494565 -0.372666 0.326556 0 127 127
0.499912 0.557101 -0.002285 0 127 127
0.394240 0.412368 -0.490216 0 127 127
0.495106 0.248884 -0.490216 0 127 127
-0.484327 -0.062906 -0.490216 0 127 127
-0.494565 -0.473270 -0.316550 0 127 127
0.483791 0.557890 0.294092 0 127 127
0.171163 0.445145 -0.490216 0 127 127
-0.258579 -0.793482 -0.471608 127 0 127
0.092069 0.557890 0.338526 0 127 127
0.297866 0.557890 -0.402538 0 127 127
-0.494565 0.243479 -0.020670 0 127 127
0.499912 0.537832 -0.071294 0 127 127
-0.427107 0.557890 0.078362 0 127 127
-0.494565 -0.284216 0.194035 0 127 127
-0.494565 0.144876 -0.015966 0 127 127
0.003107 -0.268509 0.463969 153 0 76
0.476516 -0.803661 -0.258375 127 0 127
-0.494565 -0.099459 0.376319 0 127 127
-0.494565 -0.297314 -0.149787 0 127 127
0.499912 0.328235 -0.026093 0 127 127
0.389956 0.092275 -0.490216 0 127 127
0.499912 0.229525 -0.293701 0 127 127
-0.263053 -0.498320 0.463969 153 0 76
0.165952 -0.051302 0.463969 153 0 76
-0.494565 0.144203 -0.071010 0 127 127
0.425392 -0.559246 -0.490216 0 127 127
-0.494565 -0.269763 0.062561 0 127 127
-0.238586 0.557890 -0.336298 0 127 127
0.324919 0.557890 -0.441023 0 127 127
0.300561 0.343389 -0.490216 0 127 127
0.499912 -0.462765 0.103536 0 127 127
0.194751 0.557890 0.337552 0 127 127
-0.494565 0.552212 -0.087238 0 127 127
-0.488456 0.124925 -0.490216 0 127 127
0.486931 0.557890 -0.304763 0 127 127
-0.079742 0.557890 -0.109549 0 127 127
0.211815 0.557890 0.174963 0 127 127
-0.494565 0.557748 0.062410 0 127 127
0.337854 0.557890 -0.132569 0 127 127
0.099778 0.405664 0.495561 76 0 153
-0.442198 -0.184187 0.463969 153 0 76
0.499912 0.537417 0.247863 0 127 127
0.102002 -0.202641 0.463969 153 0 76
0.499912 0.002467 -0.233366 0 127 127
0.499912 -0.392970 0.024747 0 127 127
0.499912 0.070430 0.021082 0 127 127
-0.240277 0.402309 0.463969 153 0 76
-0.405421 -0.033384 -0.490216 0 127 127
0.084930 0.489814 -0.490216 0 127 127
-0.198484 0.557890 -0.046226 0 127 127
-0.494565 -0.576648 0.077773 0 127 127
0.499912 -0.447870 0.419063 153 0 76
-0.128630 -0.205064 0.463969 153 0 76
-0.494565 0.359924 -0.246930 0 127 127
0.499912 -0.265916 -0.097128 0 127 127
-0.494565 0.152109 -0.443380 0 127 127
0.038809 -0.406913 -0.490216 0 127 127
0.215386 0.417883 0.491502 76 0 153
0.192594 -0.526137 -0.490216 0 127 127
0.302441 0.419234 0.481973 76 0 153
0.499912 -0.264464 0.020250 0 127 127
-0.471165 -0.811499 -0.379031 127 0 127
-0.494565 -0.505134 0.348253 0 127 127
-0.494565 -0.466175 -0.275247 0 127 127
0.183855 0.557890 0.263164 0 127 127
0.476516 -0.742773 0.414530 127 0 127
-0.494565 0.216303 0.450327 153 0 76
-0.204155 0.549527 0.463969 153 0 76
-0.082521 -0.467935 0.463969 153 0 76
-0.294973 0.557890 0.268835 0 127 127
0.418128 0.150230 0.463969 153 0 76
0.321621 0.557890 0.362355 0 127 127
-0.034643 0.091254 -0.490216 0 127 127
0.257446 0.537374 0.463969 153 0 76
-0.494565 -0.644879 -0.357948 0 127 127
0.386355 0.556219 0.434848 153 0 76
-0.189533 0.425903 -0.490216 0 127 127
0.495351 -0.198073 0.463969 153 0 76
-0.009157 0.030506 0.463969 153 0 76
-0.471162 -0.788451 -0.316885 127 0 127
0.449864 -0.312216 0.463969 153 0 76
0.499912 -0.329966 0.007426 0 127 127
-0.494565 -0.278545 -0.089458 0 127 127
0.103243 0.287585 0.463969 153 0 76
-0.471165 -0.769153 -0.469468 127 0 127
0.091723 -0.347086 0.463969 153 0 76
0.499912 0.527430 -0.194165 0 127 127
-0.494565 -0.516102 -0.317561 0 127 127
0.499912 0.456326 -0.057125 0 127 127
0.145474 0.393266 -0.490216 0 127 127
-0.494565 -0.392310 -0.221701 0 127 127
-0.190377 0.557890 0.292091 0 127 127
-0.494565 -0.290568 0.458342 153 0 76
-0.443517 -0.055287 0.463969 153 0 76
0.254952 0.037070 0.463969 153 0 76
-0.494565 -0.017543 0.407755 153 0 76
0.459606 -0.351272 -0.490216 0 127 127
-0.494565 -0.563916 0.159757 0 127 127
0.099812 0.311529 0.463969 153 0 76
-0.312062 0.479427 -0.490216 0 127 127
-0.494565 -0.156421 0.300584 0 127 127
0.499912 -0.563368 0.276259 0 127 127
0.499912 -0.184850 0.290540 0 127 127
-0.234131 -0.694246 0.445361 127 0 127
0.499912 0.223302 -0.247536 0 127 127
0.275517 -0.024226 0.463969 153 0 76
-0.127888 0.539865 -0.490216 0 127 127
-0.453234 -0.702552 -0.471608 127 0 127
-0.258561 0.556219 0.418125 153 0 76
0.476513 -0.779271 -0.383581 127 0 127
-0.474572 0.020338 0.463969 153 0 76
-0.494565 0.136194 0.231247 0 127 127
0.499912 -0.435616 0.101158 0 127 127
0.499912 0.347228 0.041151 0 127 127
-0.146681 0.556118 0.402807 153 0 76
0.495185 0.323327 0.397498 0 127 127
0.296201 0.489624 0.463969 153 0 76
0.316125 0.347267 0.463969 153 0 76
-0.151527 -0.173352 0.463969 153 0 76
0.386888 -0.630889 0.463969 153 0 76
0.499912 0.040024 -0.257626 0 127 127
0.123473 0.557890 0.136616 0 127 127
-0.176792 -0.678666 0.445361 127 0 127
0.246632 0.402152 0.479912 76 0 153
-0.494565 -0.393261 -0.251793 0 127 127
-0.079585 -0.593976 0.463969 153 0 76
0.079079 -0.178305 -0.490216 0 127 127
-0.204609 0.119898 0.463969 153 0 76
0.397138 0.557890 -0.064583 0 127 127
0.499912 -0.119108 0.444053 153 0 76
-0.044759 0.297489 0.463969 153 0 76
-0.034606 0.557890 -0.374288 0 127 127
0.499912 -0.303632 0.079698 0 127 127
0.332818 0.269550 -0.490216 0 127 127
-0.494565 -0.550260 -0.298147 0 127 127
-0.238858 0.557890 -0.115818 0 127 127
-0.132579 0.438070 0.463969 153 0 76
0.055846 0.557890 -0.436087 0 127 127
0.499912 0.501704 -0.223359 0 127 127
-0.094602 0.557890 0.209638 0 127 127
-0.494565 0.034106 -0.071901 0 127 127
-0.494565 -0.401560 0.380592 0 127 127
0.499912 -0.474278 0.064406 0 127 127
-0.494565 -0.285103 0.079433 0 127 127
-0.494565 -0.219253 -0.086117 0 127 127
0.499912 -0.037953 0.004931 0 127 127
-0.214678 -0.421978 -0.490216 0 127 127
-0.405550 0.557890 0.092253 0 127 127
0.499912 0.512643 0.309075 0 127 127
-0.494565 0.132736 0.448960 153 0 76
0.173668 -0.009303 0.463969 153 0 76
-0.494565 0.144834 0.256035 0 127 127
-0.494565 0.022983 -0.224023 0 127 127
-0.494565 -0.105878 0.290904 0 127 127
-0.396432 -0.741057 -0.471608 127 0 127
0.476514 -0.756321 -0.437173 127 0 127
-0.369383 -0.811455 0.445361 127 0 127
-0.006281 0.557890 -0.432703 0 127 127
0.372680 0.066395 0.463969 153 0 76
0.362844 -0.568569 0.463969 153 0 76
-0.249064 0.119831 0.463969 153 0 76
0.499912 -0.310201 0.384186 0 127 127
0.247464 0.401127 -0.490216 0 127 127
0.499912 0.274318 -0.164411 0 127 127
0.499912 0.211514 -0.374367 0 127 127
0.499912 -0.246852 -0.349347 0 127 127
-0.494565 -0.221212 -0.225212 0 127 127
0.309266 -0.279496 0.463969 153 0 76
-0.148113 0.557890 -0.352836 0 127 127
0.067641 -0.571231 -0.490216 0 127 127
-0.494565 0.302398 0.109169 0 127 127
-0.331262 0.557890 0.312267 0 127 127
0.499912 -0.481746 -0.433642 0 127 127
0.145046 0.557890 0.240290 0 127 127
-0.322182 -0.313730 -0.490216 0 127 127
-0.101502 0.151152 -0.490216 0 127 127
0.131913 0.120411 0.463969 153 0 76
-0.471161 -0.783198 0.255857 127 0 127
0.499912 0.320913 -0.170483 0 127 127
-0.494565 0.288854 0.022476 0 127 127
0.354710 0.096729 0.463969 153 0 76
-0.351112 0.557890 -0.112031 0 127 127
0.116472 -0.464078 0.463969 153 0 76
-0.494565 0.376957 -0.403356 0 127 127
-0.236455 0.555736 0.402461 153 0 76
0.499912 0.060022 0.059314 0 127 127
0.225383 -0.039655 0.463969 153 0 76
0.499912 -0.570585 0.370093 0 127 127
0.255457 -0.126939 -0.490216 0 127 127
0.435752 0.357379 0.463969 153 0 76
-0.130227 0.557890 0.376304 0 127 127
0.429101 -0.756644 0.445361 127 0 127
0.499912 0.537285 -0.160577 0 127 127
-0.494565 -0.191924 0.253450 0 127 127
0.499912 -0.035340 0.270732 0 127 127
0.499912 0.085536 -0.094896 0 127 127
-0.168777 -0.680232 -0.471608 127 0 127
0.136101 0.295722 0.463969 153 0 76
-0.494565 0.542025 -0.141875 0 127 127
-0.413068 0.239476 -0.490216 0 127 127
-0.389586 0.557890 0.192908 0 127 127
0.499912 0.306902 0.123826 0 127 127
0.363860 0.557890 -0.446634 0 127 127
-0.494565 -0.406295 -0.356743 0 127 127
-0.494565 0.166473 -0.366426 0 127 127
0.094589 -0.012515 0.463969 153 0 76
-0.494565 -0.152510 -0.176360 0 127 127
-0.494565 0.331535 0.036759 0 127 127
0.499912 -0.619768 -0.302715 0 127 127
-0.055748 0.557890 -0.008979 0 127 127
0.396508 -0.120155 0.463969 153 0 76
0.198325 -0.065563 0.463969 153 0 76
-0.494565 0.443236 -0.463538 0 127 127
-0.318370 -0.127765 0.463969 153 0 76
0.201440 0.378252 -0.490216 0 127 127
-0.061441 0.361776 0.505691 76 0 153
-0.494326 0.557890 0.302425 0 127 127
-0.358254 -0.633255 -0.490216 0 127 127
0.033118 0.557890 -0.452917 0 127 127
-0.494565 -0.547789 0.132720 0 127 127
-0.046165 -0.287097 -0.490216 0 127 127
-0.050626 0.130491 -0.490216 0 127 127
-0.494565 -0.511003 -0.192020 0 127 127
0.019495 0.557890 -0.331847 0 127 127
-0.315114 0.177608 0.463969 153 0 76
0.499912 -0.276629 0.263984 0 127 127
0.499912 0.535369 0.293485 0 127 127
0.164714 -0.786748 -0.471608 127 0 127
-0.494565 0.072484 -0.180165 0 127 127
0.499912 0.075881 0.380053 0 127 127
-0.494565 0.102971 0.449482 153 0 76
0.216616 -0.241740 0.463969 153 0 76
-0.440083 0.557890 -0.310003 0 127 127
-0.494565 -0.244003 -0.056719 0 127 127
0.047861 0.557890 0.046640 0 127 127
-0.494565 -0.050203 -0.040947 0 127 127
-0.061051 -0.458913 -0.490216 0 127 127
-0.494565 -0.355325 -0.062905 0 127 127
0.310051 0.557890 0.116418 0 127 127
0.283904 0.557890 -0.113265 0 127 127
-0.492648 -0.049941 0.461799 153 0 76
-0.219340 -0.734191 -0.471608 127 0 127
-0.394836 0.557890 0.026280 0 127 127
-0.494565 -0.222745 -0.153586 0 127 127
0.221251 0.389557 0.463969 153 0 76
0.450458 -0.760818 -0.471608 127 0 127
0.498978 0.557890 0.018731 0 127 127
-0.406152 0.557890 0.287965 0 127 127
0.211864 -0.678966 0.445361 127 0 127
0.499912 -0.209282 -0.296760 0 127 127
-0.428687 -0.511818 0.463969 153 0 76
-0.274701 0.557890 0.295364 0 127 127
-0.361001 0.543012 -0.490216 0 127 127
0.499912 0.113975 0.094579 0 127 127
-0.014380 -0.167717 0.463969 153 0 76
-0.478575 0.230302 -0.490216 0 127 127
0.256062 -0.669308 0.445361 127 0 127
0.499912 -0.331301 -0.241101 0 127 127
-0.471163 -0.687792 -0.397520 127 0 127
-0.494565 -0.321967 -0.373357 0 127 127
0.476516 -0.805450 -0.311091 127 0 127
-0.005693 0.557890 -0.186202 0 127 127
-0.426349 0.039917 -0.490216 0 127 127
-0.238725 -0.270860 0.463969 153 0 76
0.372502 0.100192 -0.490216 0 127 127
0.490445 -0.554623 -0.490216 0 127 127
0.270067 0.557890 -0.464736 0 127 127
0.154321 0.539990 0.463969 153 0 76
0.055850 0.382346 0.463969 153 0 76
-0.494565 -0.225957 0.075360 0 127 127
0.450786 -0.480106 -0.490216 0 127 127
0.499912 -0.428178 0.394646 153 0 76
-0.301788 -0.277560 0.463969 153 0 76
-0.494565 -0.218244 0.034276 0 127 127
-0.143861 -0.114472 0.463969 153 0 76
0.499912 -0.197116 -0.052562 0 127 127
0.499912 0.410534 0.114445 0 127 127
0.496556 0.451055 0.463179 153 0 76
-0.494565 0.136236 0.156038 0 127 127
0.353403 0.462456 -0.490216 0 127 127
-0.341127 0.557890 -0.458831 0 127 127
-0.494565 -0.151033 -0.082797 0 127 127
0.452292 0.557890 0.184760 0 127 127
-0.285442 -0.778708 0.445361 127 0 127
-0.191238 0.100386 0.463969 153 0 76
0.385842 0.223685 -0.490216 0 127 127
0.499912 0.288402 0.440872 153 0 76
0.332018 0.557890 -0.156179 0 127 127
-0.444102 0.094844 -0.490216 0 127 127
0.499912 0.412405 -0.411160 0 127 127
-0.475159 -0.452976 0.463969 153 0 76
-0.494565 -0.186906 -0.098497 0 127 127
0.499912 0.336437 0.135765 0 127 127
0.111180 0.557890 0.280360 0 127 127
-0.343577 -0.503847 0.463969 153 0 76
-0.494565 -0.114975 -0.323864 0 127 127
0.499912 0.152485 0.003042 0 127 127
0.499912 -0.444372 -0.373244 0 127 127
-0.033088 0.557890 0.147015 0 127 127
0.499912 -0.125980 -0.301192 0 127 127
-0.082335 0.345643 0.463969 153 0 76
0.476516 -0.804616 0.107628 127 0 127
0.391038 0.308651 0.463969 153 0 76
0.499912 0.393917 -0.108653 0 127 127
0.274051 0.107013 0.463969 153 0 76
0.035575 -0.573205 -0.490216 0 127 127
-0.284426 0.306068 0.463969 153 0 76
0.476516 -0.748433 0.131969 127 0 127
0.499912 0.445675 -0.404673 0 127 127
0.018005 0.178147 0.463969 153 0 76
0.092182 -0.550181 0.463969 153 0 76
-0.494565 0.113935 0.343173 0 127 127
-0.471159 -0.769818 0.230654 127 0 127
-0.422752 -0.110485 -0.490216 0 127 127
0.499912 0.395356 -0.323382 0 127 127
0.472565 0.557890 0.060359 0 127 127
-0.309449 -0.626877 -0.490216 0 127 127
0.499912 -0.037279 0.234291 0 127 127
-0.494565 0.244877 0.278045 0 127 127
-0.471162 -0.790841 0.171472 127 0 127
-0.034613 -0.329763 0.463969 153 0 76
0.195059 0.386176 0.486062 76 0 153
-0.158574 -0.076109 0.463969 153 0 76
0.264070 0.071425 0.463969 153 0 76
-0.400831 0.341493 -0.490216 0 127 127
-0.494565 0.338286 0.091356 0 127 127
-0.191429 0.035917 0.463969 153 0 76
0.499912 -0.604418 -0.223915 0 127 127
0.431071 0.072911 0.463969 153 0 76
-0.321779 0.418335 -0.490216 0 127 127
0.499912 -0.224332 0.271220 0 127 127
0.341458 0.177181 0.463969 153 0 76
0.499912 -0.227057 -0.117000 0 127 127
0.499912 -0.418346 -0.204770 0 127 127
0.179898 0.256253 -0.490216 0 127 127
0.051686 0.197276 -0.490216 0 127 127
-0.272887 0.378837 0.463969 153 0 76
