ply
format ascii 1.0
element vertex 1278
property float x
property float y
property float z
property uchar red
property uchar green
property uchar blue
end_header
0.522488 -0.024625 0.255871 76 0 153
0.958812 0.047237 -0.116495 76 0 153
0.904587 -0.030461 0.041536 76 153 0
-0.754758 0.032573 0.248203 127 127 0
-0.297734 -0.007787 0.255871 153 0 76
-0.818870 -0.188381 0.246828 153 0 76
0.742462 -0.007067 0.000627 76 0 153
-0.796820 0.042811 -0.293646 76 153 0
-0.575805 0.042811 0.165165 76 153 0
-0.876579 0.061539 -0.207512 76 0 153
0.789347 0.062530 -0.002491 76 153 0
0.575253 0.042811 -0.129263 76 153 0
0.177489 0.042811 -0.281093 76 153 0
0.345764 0.017615 0.236162 127 127 0
0.401072 -0.006625 0.067771 76 0 153
0.576366 0.062530 0.241427 76 153 0
0.371944 0.017615 -0.279266 76 0 153
-0.259460 0.062530 0.178790 76 153 0
-0.222105 -0.022369 0.152011 255 0 0
0.308372 0.062530 -0.049333 76 153 0
-0.309085 0.021795 0.161983 76 0 153
0.868435 -0.428839 0.224861 76 0 153
0.577253 -0.019083 0.049710 255 0 0
0.722350 0.042811 -0.305670 76 153 0
0.850304 0.042811 -0.077800 76 153 0
-0.192915 0.060583 0.300911 76 153 0
-0.585859 -0.019083 0.114102 76 0 153
0.711862 -0.012065 0.231771 76 0 153
-0.043378 0.019390 -0.302692 0 0 255
0.033396 0.020431 0.146476 76 0 153
0.904587 -0.017086 0.001623 76 153 0
0.316644 0.062530 0.170783 76 153 0
-0.690308 0.008957 -0.071763 76 0 153
-0.440373 0.005474 -0.302692 0 127 127
-0.043284 0.062530 -0.330188 76 153 0
-0.193329 -0.022369 -0.000995 255 0 0
-0.333185 -0.023295 0.075843 255 0 0
-0.620352 0.011096 0.362132 0 127 127
0.115264 -0.053590 0.236681 127 127 0
-0.317572 0.042811 0.265432 76 153 0
-0.716348 0.062530 -0.225393 76 153 0
-0.833413 -0.038471 0.228188 153 0 76
0.633622 -0.006404 -0.302692 127 127 0
-0.545601 0.042811 -0.261521 76 153 0
0.805994 -0.041797 0.004464 204 51 127
0.285153 0.001697 0.000627 76 0 153
0.437917 0.003455 -0.152598 76 0 153
0.377896 -0.013485 0.231771 76 0 153
-0.010866 0.062530 0.120889 76 153 0
0.642868 0.062530 0.121389 76 153 0
0.426268 -0.036654 -0.042437 153 0 76
0.813449 0.062530 -0.111121 76 153 0
0.390117 -0.010925 -0.210107 76 0 153
0.192932 -0.022369 0.043983 153 76 0
-0.824650 0.015307 -0.229677 153 0 76
-0.069869 0.042811 -0.091793 76 153 0
-0.225371 0.042811 -0.263979 76 153 0
-0.782345 0.062530 0.105609 76 153 0
0.065632 0.062530 0.054823 76 153 0
0.641284 0.042811 -0.185057 76 153 0
-0.650320 0.036879 -0.295024 76 153 0
0.413122 -0.046616 -0.233240 153 0 76
-0.115812 0.062530 0.007908 76 153 0
-0.091297 0.062530 0.170572 76 153 0
-0.807122 0.025463 0.074379 153 0 76
0.867907 -0.034396 -0.242442 153 76 0
0.787172 0.062530 0.282648 76 153 0
0.865253 -0.356729 0.225118 76 0 153
0.532962 0.005626 0.255871 153 0 76
-0.076063 0.007689 -0.302692 0 0 255
0.706645 0.061973 0.299825 76 153 0
0.208043 0.062530 0.103405 76 153 0
-0.690308 -0.000031 -0.218715 76 0 153
-0.381281 0.062530 -0.114691 76 153 0
0.805994 -0.022326 0.032389 204 51 127
0.698077 0.042811 -0.271680 76 153 0
-0.738960 0.062530 0.116844 76 153 0
-0.828772 -0.141444 -0.281105 76 0 153
-0.548357 -0.019083 0.301161 153 76 0
0.358178 0.042811 0.129222 76 153 0
0.848757 0.042811 0.094049 76 153 0
0.778551 0.042811 0.043741 76 153 0
0.958812 0.060655 -0.091146 76 0 153
-0.424502 0.062530 -0.343164 76 153 0
-0.641524 0.042811 -0.014206 0 255 0
-0.454942 -0.002007 -0.038684 0 255 0
-0.166969 -0.022369 0.154648 255 0 0
0.413122 -0.002101 0.144754 76 0 153
-0.859532 0.062530 -0.060486 76 0 153
-0.196792 0.016867 -0.302692 0 0 255
0.693784 0.062530 0.022602 76 153 0
0.900191 -0.354696 0.227571 76 0 153
-0.199379 0.062530 -0.343982 76 153 0
0.323068 0.062530 0.061659 76 153 0
0.745132 0.062530 0.097625 76 153 0
0.039040 0.062530 0.154245 76 153 0
0.273313 -0.039402 0.230676 76 0 153
0.568951 0.042811 -0.030743 0 255 0
0.400079 -0.036063 0.025926 153 0 76
-0.809925 -0.053590 -0.237320 153 0 76
0.935857 0.042811 0.029016 76 0 153
-0.757958 0.042811 0.159694 76 153 0
-0.538993 0.062530 0.199230 76 153 0
-0.569326 0.062530 -0.211764 76 153 0
-0.288155 0.042811 0.149279 76 153 0
0.368409 0.042811 -0.131845 76 153 0
0.305356 0.062530 -0.140091 76 153 0
-0.157789 -0.022369 0.207278 255 0 0
0.380323 -0.022369 0.168495 76 0 153
0.860734 -0.176557 -0.287055 153 76 0
-0.552715 0.042811 0.011145 76 153 0
0.569747 0.062530 -0.316961 76 153 0
-0.550099 0.019592 -0.014339 0 255 0
0.501373 -0.019083 -0.113545 76 153 0
-0.447159 0.042811 -0.250212 76 153 0
0.033396 0.021416 -0.130422 76 0 153
-0.132128 0.062530 0.179513 76 153 0
-0.358381 -0.013537 0.360590 0 127 127
-0.410548 0.018637 0.386232 0 127 127
-0.406193 0.062530 -0.075965 76 153 0
-0.283545 0.062530 -0.263862 76 153 0
-0.794988 0.009421 -0.242442 76 0 153
0.048617 -0.022917 -0.087530 76 0 153
-0.807122 0.014322 -0.078113 153 0 76
-0.141607 -0.032743 -0.301027 127 0 127
-0.287149 0.062530 0.230224 76 153 0
-0.310582 -0.002855 0.119787 76 0 153
0.904857 -0.246573 -0.277107 153 76 0
-0.855441 0.062530 -0.099477 76 0 153
0.957526 0.062173 -0.043371 76 0 153
-0.009430 0.062530 -0.319536 76 153 0
-0.604696 0.042811 -0.322314 76 153 0
-0.414088 0.042811 0.256014 76 153 0
0.651279 -0.052316 0.248203 127 127 0
0.768353 0.062530 -0.056247 76 153 0
-0.807122 -0.023007 0.023292 153 0 76
-0.658286 0.062530 0.196232 76 153 0
-0.313229 -0.009358 -0.283099 76 0 153
0.431349 -0.035221 0.230676 153 0 76
0.413122 0.005264 -0.112868 153 0 76
-0.447144 0.042811 0.241603 76 153 0
0.391797 0.062530 -0.085245 76 153 0
0.148935 0.062530 -0.247163 76 153 0
0.618371 -0.022369 0.016959 255 0 0
-0.454155 0.042811 -0.204273 76 153 0
-0.503689 0.018711 0.235364 127 127 0
-0.256426 -0.019083 -0.088134 127 127 0
0.904587 -0.039060 0.168611 76 153 0
0.596724 0.042811 -0.230738 76 153 0
0.805994 0.040349 0.160214 204 51 127
-0.411435 0.062530 0.212916 76 153 0
-0.382964 -0.019083 0.139970 153 76 0
-0.232230 0.062530 -0.301517 76 153 0
0.836115 -0.042027 -0.032081 0 255 0
0.760626 0.002863 0.231771 76 0 153
0.480597 -0.053590 0.243802 127 127 0
0.571171 0.042811 -0.206468 76 153 0
0.904580 -0.073535 -0.245694 153 76 0
0.873913 0.005553 0.242292 76 0 153
-0.540137 0.042811 0.284489 76 153 0
0.173678 0.062530 -0.261293 76 153 0
0.494622 0.042811 -0.138863 76 153 0
0.418056 0.011110 -0.295024 127 0 127
-0.386250 -0.022369 0.319928 153 76 0
0.255150 -0.031075 -0.014339 0 255 0
-0.054912 0.042811 -0.166233 76 153 0
0.900858 -0.454887 0.225691 76 0 153
-0.869358 0.062530 -0.241832 76 0 153
0.504430 0.042811 0.266216 76 153 0
-0.718207 0.042811 0.145839 76 153 0
-0.142821 0.019607 0.255871 153 0 76
0.331260 0.042811 0.132708 76 153 0
0.470537 0.016136 -0.038684 0 255 0
0.876962 -0.071724 0.196212 76 0 153
0.257689 0.008613 -0.302692 76 0 153
-0.333185 0.018138 0.067254 153 76 0
0.729530 0.062530 -0.081933 76 153 0
-0.368209 0.018711 0.008468 255 0 0
0.010391 -0.000068 -0.162671 76 0 153
0.887059 -0.012001 0.179116 76 153 0
0.687520 0.062530 -0.195660 76 153 0
0.198646 -0.022369 -0.210275 153 0 76
0.934425 0.042811 0.201341 76 0 153
0.887059 0.010655 -0.147181 76 153 0
0.070642 0.020355 0.056732 76 0 153
-0.435629 0.042811 0.174754 76 153 0
-0.634118 -0.007425 0.113460 153 76 0
0.426268 0.012501 0.208314 153 0 76
0.372598 0.042811 -0.234574 76 153 0
-0.333185 -0.000392 0.135667 153 76 0
0.101723 0.062530 0.203051 76 153 0
0.870640 -0.016316 -0.014339 0 255 0
0.309333 0.003357 0.255871 76 153 0
0.748950 0.062530 -0.271548 76 153 0
0.350781 0.062530 0.219178 76 153 0
0.185578 -0.031532 0.248203 127 127 0
0.665327 -0.019083 0.125650 255 0 0
0.843213 0.062530 -0.217394 76 153 0
-0.701957 -0.025415 -0.244751 76 0 153
0.693644 -0.019083 -0.059538 76 153 0
-0.618367 -0.030748 -0.032081 76 0 153
0.277258 0.042811 0.044127 76 153 0
0.009295 -0.032208 0.059261 204 51 127
0.069145 0.000231 -0.057803 76 0 153
-0.722710 0.062530 -0.034438 76 153 0
0.577788 -0.033232 -0.300705 127 127 0
-0.654379 -0.022369 0.307209 153 76 0
0.807954 -0.045873 -0.295024 127 0 127
-0.378158 0.042811 -0.335246 76 153 0
0.321190 0.042811 0.093480 76 153 0
0.094135 0.062530 0.263028 76 153 0
0.150072 -0.019083 0.076863 153 76 0
0.872646 -0.034264 -0.280783 127 0 127
-0.838275 0.042811 0.127762 153 0 76
-0.693907 -0.036063 -0.157605 76 153 0
-0.100488 0.062530 -0.174400 76 153 0
0.210001 0.042938 -0.020546 76 153 0
0.621974 -0.019083 0.068084 255 0 0
0.540826 0.042811 0.282221 76 153 0
0.724676 -0.047164 -0.277497 127 0 127
0.364551 -0.053590 -0.279754 127 0 127
0.334318 0.021610 -0.301201 76 0 153
0.107149 -0.031070 -0.301565 76 0 153
-0.818977 -0.239455 -0.290099 76 0 153
0.899633 0.048288 0.263618 76 0 153
0.239849 0.062530 0.241790 76 153 0
-0.031187 -0.019083 -0.223334 127 127 0
-0.712912 0.012562 0.208616 204 51 127
0.257704 0.062530 0.003071 76 153 0
-0.088667 0.042811 0.122678 76 153 0
-0.818515 0.042811 -0.143989 153 0 76
0.741897 -0.009610 -0.302692 127 127 0
-0.369843 0.042811 -0.147903 76 153 0
-0.529127 0.042811 -0.304667 127 0 127
-0.273915 -0.022369 -0.208650 127 127 0
0.885017 0.042811 0.113126 76 153 0
-0.142346 0.062530 -0.087219 76 153 0
-0.034766 0.062530 0.272268 76 153 0
0.451344 0.042811 0.012598 76 153 0
-0.576917 0.034559 -0.014339 76 153 0
-0.484365 -0.035217 -0.277497 76 0 153
0.413122 -0.041845 -0.132089 153 0 76
0.859610 -0.089839 0.210670 76 0 153
-0.395216 -0.019083 0.177796 153 76 0
-0.498036 0.015425 -0.014339 0 255 0
0.580501 0.042811 -0.068828 76 153 0
0.805994 -0.042585 -0.106317 204 51 127
0.390117 -0.013546 0.018265 76 0 153
-0.005135 0.042811 0.196515 76 153 0
0.573059 -0.019083 -0.235080 76 153 0
0.538059 0.042811 -0.262717 76 153 0
-0.403432 0.042811 0.169031 76 153 0
0.215988 0.062530 -0.078682 76 153 0
-0.801055 0.062530 -0.093813 76 0 153
-0.333185 0.026262 -0.253508 153 76 0
0.501592 -0.022369 0.066941 255 0 0
0.000277 0.062530 0.295407 76 153 0
0.757290 0.062530 0.147822 76 153 0
-0.123440 0.062530 -0.035442 76 153 0
0.138029 -0.022369 -0.196054 153 0 76
0.663917 0.000098 -0.032081 0 255 0
-0.824650 0.021139 0.171772 153 0 76
0.795477 -0.053590 -0.173134 204 51 127
0.303463 0.042811 0.285720 76 153 0
-0.663806 0.018711 -0.280268 127 0 127
-0.175513 0.042811 0.050312 76 153 0
-0.524831 0.062530 0.092351 76 153 0
-0.605650 0.062530 -0.271511 76 153 0
-0.107058 0.062530 0.291768 76 153 0
0.657174 0.042811 0.133503 76 153 0
0.390117 -0.011124 -0.074388 153 0 76
0.790522 0.062530 0.131653 76 153 0
-0.509229 -0.022369 0.272801 153 76 0
0.805994 -0.019490 -0.134885 204 51 127
-0.807122 0.014800 0.023575 153 0 76
0.934564 0.042811 -0.298684 76 0 153
-0.856800 0.042811 -0.039098 76 0 153
0.037277 -0.028878 0.230676 76 0 153
0.353313 0.062530 -0.055117 76 153 0
-0.552713 -0.022369 -0.226161 76 0 153
-0.518861 0.042811 0.133900 76 153 0
0.618467 0.040760 -0.295024 76 153 0
0.342383 -0.031726 0.254624 76 153 0
-0.431934 0.062530 0.020529 76 153 0
-0.807122 -0.029760 -0.082465 153 0 76
0.681894 0.062530 0.279483 76 153 0
-0.406984 -0.019083 0.304496 153 76 0
-0.345503 -0.053590 -0.189901 153 76 0
0.023353 0.019806 -0.301761 0 0 255
-0.293725 0.062530 0.098422 76 153 0
-0.712912 -0.005405 0.173910 204 51 127
-0.017173 0.042811 -0.139434 76 153 0
0.202879 -0.026813 -0.014339 0 255 0
-0.873090 0.042811 -0.340060 76 0 153
0.005660 0.042811 0.057802 76 153 0
-0.121968 0.042811 0.264972 76 153 0
0.686831 0.062530 0.147221 76 153 0
0.732193 0.062530 -0.032466 76 153 0
-0.144587 0.042811 0.039397 76 153 0
0.143437 0.062530 0.173570 76 153 0
0.760964 0.042811 -0.136088 76 153 0
0.649737 0.062530 -0.148174 76 153 0
-0.236266 -0.005743 0.255871 153 0 76
0.924491 0.042811 -0.204816 76 0 153
0.542511 -0.019083 0.106452 255 0 0
-0.480625 -0.022369 0.292951 153 76 0
-0.671933 0.042811 -0.108282 76 153 0
-0.104883 -0.003579 -0.047448 76 0 153
0.517668 0.062530 -0.148192 76 153 0
0.236900 0.042811 0.167184 76 153 0
0.749164 -0.022369 -0.246011 76 153 0
0.341540 0.040730 -0.014339 76 153 0
0.677984 0.042811 0.240921 76 153 0
-0.024262 0.062530 0.028789 76 153 0
-0.069086 0.042811 -0.287764 76 153 0
-0.025106 -0.012098 -0.047448 127 127 0
0.608403 0.062530 -0.156062 76 153 0
0.349697 -0.019083 0.208097 153 76 0
0.248353 0.017085 0.248085 76 0 153
-0.726057 0.035965 -0.113957 204 51 127
-0.358381 0.003747 0.138438 76 153 0
-0.726057 -0.031178 -0.274884 204 51 127
-0.668326 0.042811 -0.235608 76 153 0
0.401072 -0.001661 0.099462 76 0 153
-0.824650 -0.010591 -0.190913 153 0 76
0.935540 0.042811 -0.254331 76 0 153
-0.163661 0.042811 -0.344513 76 153 0
-0.759388 0.062530 -0.105926 76 153 0
0.413122 0.006674 -0.193267 153 0 76
-0.369336 -0.004292 -0.195096 76 0 153
0.303871 0.042811 -0.339533 76 153 0
-0.627903 0.042811 -0.340191 76 153 0
-0.691972 0.042811 0.140267 76 153 0
0.792849 -0.001319 -0.262713 76 0 153
0.826187 0.042811 -0.175072 76 153 0
0.514555 -0.022369 -0.220782 76 153 0
0.949887 0.062530 -0.306927 76 0 153
0.509723 0.062530 0.109289 76 153 0
0.014364 0.042811 -0.049648 76 153 0
0.642239 0.062530 -0.053318 76 153 0
-0.310582 -0.005333 0.038059 76 0 153
0.518387 0.042811 -0.332841 76 153 0
-0.358381 -0.017894 0.299273 76 153 0
-0.277866 0.062530 0.011701 76 153 0
0.275850 -0.002416 0.255871 76 153 0
-0.297904 0.062530 -0.232470 76 153 0
0.522164 0.042811 -0.019261 0 255 0
0.805994 -0.019623 0.114000 204 51 127
-0.714249 0.062530 -0.153805 76 153 0
0.195447 0.062530 -0.319669 76 153 0
-0.795175 -0.236146 0.249435 153 0 76
-0.390661 -0.030995 0.230676 153 76 0
-0.486405 0.062530 -0.084270 76 153 0
0.574518 0.042811 0.267624 76 153 0
-0.042106 0.042938 -0.032045 76 153 0
0.033396 -0.052595 0.079284 76 0 153
0.887792 -0.334100 -0.292112 153 76 0
-0.282464 0.042811 -0.119223 76 153 0
0.888696 0.062530 0.190030 76 0 153
0.259421 -0.019083 -0.112173 153 0 76
0.805994 -0.002529 -0.158442 204 51 127
-0.247804 0.042811 -0.245032 76 153 0
-0.794587 0.006337 -0.303788 76 0 153
0.275696 -0.019083 -0.269140 153 0 76
-0.791866 -0.280059 -0.254017 76 0 153
0.827409 -0.013512 0.230676 127 127 0
0.447894 -0.029490 0.069762 76 0 153
0.156491 -0.022369 -0.061930 153 0 76
0.172101 0.034402 -0.032081 0 255 0
0.468531 0.018711 0.232492 76 0 153
-0.702043 0.062530 0.104564 76 153 0
-0.201528 0.013552 -0.032081 0 255 0
-0.270185 -0.019083 -0.260574 127 127 0
0.451379 -0.019083 0.214316 255 0 0
0.864126 0.032796 -0.280783 127 0 127
-0.573173 -0.019083 0.169842 153 76 0
0.897395 -0.111736 0.192886 76 0 153
0.409698 0.062530 0.051740 76 153 0
0.399120 0.018276 0.255871 76 153 0
0.144254 0.062530 -0.202184 76 153 0
-0.091832 0.042811 0.048316 76 153 0
-0.115491 -0.022369 0.046054 255 0 0
-0.688870 0.062530 -0.212624 76 153 0
-0.793758 -0.371658 -0.288292 76 0 153
0.656372 0.062530 0.219638 76 153 0
-0.708022 0.002477 -0.032081 0 255 0
0.234076 0.062530 -0.053815 76 153 0
-0.782501 -0.149005 -0.254256 76 0 153
0.782612 -0.034380 0.252585 127 127 0
-0.182289 -0.019083 -0.183843 127 127 0
-0.310582 -0.012119 -0.171752 76 0 153
0.426268 0.032501 0.017650 153 0 76
0.618483 -0.019083 0.197108 255 0 0
0.427040 -0.009320 -0.032081 0 255 0
-0.646436 0.062530 -0.072900 76 153 0
-0.056493 -0.002763 -0.014339 0 255 0
0.924642 0.042811 -0.331031 76 0 153
-0.704518 0.042811 0.270254 76 153 0
0.530488 0.062530 -0.073250 76 153 0
-0.321959 0.062530 -0.187804 76 153 0
-0.289592 0.018711 -0.284041 127 0 127
0.028331 0.025284 -0.171325 76 0 153
0.012064 -0.008762 0.233294 76 0 153
-0.310582 0.005557 -0.083923 76 0 153
0.105865 0.062530 -0.281595 76 153 0
0.875309 -0.039615 0.256967 76 0 153
-0.787420 -0.116041 0.193666 153 0 76
0.891128 -0.403346 -0.259368 153 76 0
0.551062 -0.022369 0.156873 255 0 0
0.519153 0.062530 0.171368 76 153 0
0.527460 0.042811 -0.288962 76 153 0
0.650384 -0.022369 -0.162000 76 153 0
0.073198 0.042811 -0.022553 0 255 0
0.040018 0.062530 -0.104286 76 153 0
-0.369145 -0.036063 -0.271391 153 0 76
-0.833715 0.062530 -0.136162 76 0 153
-0.124989 0.062530 0.107249 76 153 0
0.448539 -0.036063 0.037335 0 0 255
-0.619478 -0.022369 0.270925 153 76 0
0.722967 -0.019083 -0.282543 127 127 0
-0.464080 -0.019083 0.340439 153 76 0
-0.076869 0.042811 -0.135148 76 153 0
-0.578001 0.042811 -0.303848 76 153 0
0.694102 0.042811 0.122891 76 153 0
-0.156572 0.034782 -0.277497 127 0 127
0.448871 -0.010438 0.095624 76 0 153
-0.786118 0.042811 -0.218683 76 153 0
-0.206831 0.042811 0.056719 76 153 0
-0.387194 0.061679 0.300119 76 153 0
-0.195114 0.062530 -0.318556 76 153 0
0.758641 -0.022369 0.034643 255 0 0
-0.703858 0.062530 -0.064198 76 153 0
-0.820056 0.062530 -0.189586 76 153 0
-0.287798 0.019100 0.255871 153 0 76
0.903708 -0.092719 -0.294890 153 76 0
-0.072014 0.062530 0.043535 76 153 0
-0.752445 0.034735 -0.295024 127 0 127
0.897794 -0.223993 0.207036 76 0 153
0.904587 -0.031209 -0.093414 76 153 0
-0.557537 0.042811 -0.332947 76 153 0
-0.413837 0.042811 -0.181325 76 153 0
0.481132 0.018711 -0.280520 127 0 127
0.470538 -0.022369 -0.000715 76 0 153
-0.113378 0.040622 -0.014339 0 255 0
-0.042598 -0.022369 0.073408 255 0 0
0.046541 0.016790 0.123359 76 0 153
-0.849321 0.042811 -0.329632 76 0 153
-0.346331 -0.026725 -0.121789 153 76 0
0.156518 0.003491 0.231771 76 0 153
0.884851 0.062530 -0.339540 76 0 153
0.335816 -0.019083 -0.082910 153 0 76
-0.346331 -0.053195 -0.245847 153 76 0
-0.681801 0.062530 -0.330063 76 153 0
0.018250 0.042811 0.081914 76 153 0
-0.335879 0.042811 -0.008410 76 153 0
0.887059 0.020830 -0.090863 76 153 0
0.149173 0.042811 -0.345444 76 153 0
0.695292 0.062530 -0.288091 76 153 0
-0.064401 0.042811 -0.199052 76 153 0
-0.309085 0.020842 0.016406 76 0 153
0.886239 0.057052 -0.237762 76 153 0
0.905012 -0.142961 -0.289509 153 76 0
-0.436729 0.062530 -0.085356 76 153 0
-0.080253 0.042811 0.086144 76 153 0
0.874345 -0.079631 -0.244998 153 76 0
0.448865 0.018711 0.055652 76 0 153
-0.826589 -0.068308 0.195873 153 0 76
-0.038142 -0.010690 -0.302692 0 0 255
-0.617840 0.042811 -0.099392 76 153 0
0.128286 0.062530 0.281647 76 153 0
0.037498 0.062530 -0.157541 76 153 0
0.384141 0.062530 -0.131634 76 153 0
0.315994 -0.022369 0.178898 153 76 0
-0.333185 0.016401 -0.053873 76 0 153
-0.653240 0.042811 -0.134323 76 153 0
0.305800 -0.022369 -0.261013 153 0 76
0.021346 -0.024403 -0.062466 76 0 153
0.427059 0.042811 -0.111736 76 153 0
-0.395325 -0.019083 -0.070343 76 0 153
0.434962 0.062530 0.180211 76 153 0
0.914487 0.062530 0.086455 76 0 153
0.018120 0.042811 0.210640 76 153 0
-0.148079 -0.001245 -0.278592 76 0 153
-0.824650 -0.012061 0.192066 153 0 76
0.391880 0.042811 0.159115 76 153 0
0.034046 -0.053590 -0.153377 76 0 153
-0.346331 -0.011767 0.028848 255 0 0
-0.231921 -0.022369 0.033872 255 0 0
0.171552 0.042811 -0.209305 76 153 0
-0.480357 0.042811 0.131090 76 153 0
0.611142 -0.047030 -0.277497 127 0 127
-0.795687 0.056316 0.300911 76 0 153
-0.562129 0.062530 -0.284443 76 153 0
-0.690308 0.002708 -0.181807 76 0 153
0.057288 0.042811 0.188980 76 153 0
0.074116 0.042811 -0.135065 76 153 0
0.023959 -0.022917 -0.036402 0 255 0
0.878871 -0.344190 0.207434 76 0 153
0.009295 0.019507 0.100704 76 0 153
-0.329441 0.042811 0.160363 76 153 0
0.260700 0.062530 0.038001 76 153 0
0.557852 -0.029740 -0.277497 127 0 127
0.889270 0.057052 -0.033612 76 153 0
0.280800 0.062530 -0.076892 76 153 0
0.805994 -0.001728 0.175309 204 51 127
0.631153 0.062530 0.238557 76 153 0
0.805924 0.062530 0.245171 76 153 0
-0.746919 0.042811 0.207744 76 153 0
0.508650 0.062530 0.010002 76 153 0
0.211369 0.062530 0.018884 76 153 0
-0.402755 -0.037565 -0.295024 0 127 127
-0.375141 0.042811 0.089166 76 153 0
0.900151 0.042811 0.145875 76 153 0
0.109061 -0.022820 -0.032081 153 0 76
0.340257 -0.019083 -0.283210 76 0 153
-0.119613 0.042811 -0.259731 76 153 0
0.109823 -0.053590 -0.281745 127 0 127
0.609866 0.062530 0.283124 76 153 0
0.046541 0.041304 -0.266696 76 0 153
0.382337 0.012790 -0.008137 76 0 153
-0.323479 0.042811 0.074811 76 153 0
0.714814 0.019065 -0.302692 127 127 0
0.875855 -0.309480 -0.292825 153 76 0
0.141970 0.031672 0.248203 127 127 0
-0.779552 0.062530 0.231753 76 153 0
-0.419593 -0.019083 -0.104019 76 0 153
0.046541 -0.023317 -0.181980 153 76 0
-0.503680 0.062530 0.024295 76 153 0
0.134048 0.062530 -0.092728 76 153 0
0.089501 0.062530 -0.094201 76 153 0
0.527012 0.062530 0.081293 76 153 0
-0.772067 -0.061923 -0.265121 76 0 153
-0.375390 -0.002224 -0.278592 76 0 153
-0.021027 0.062530 -0.182032 76 153 0
-0.774570 0.042811 0.045214 76 153 0
0.425742 0.062530 -0.251196 76 153 0
-0.633260 -0.030618 0.385135 0 127 127
0.023284 0.062530 -0.318355 76 153 0
0.389449 0.042938 -0.026805 76 153 0
-0.792226 0.062530 0.005161 76 153 0
-0.608688 0.042811 -0.206423 76 153 0
0.039483 0.062530 0.290398 76 153 0
-0.319485 0.062530 0.280759 76 153 0
0.272394 -0.019083 -0.160916 153 0 76
-0.741844 0.062530 -0.136115 76 153 0
-0.631989 0.042811 0.118221 76 153 0
-0.219763 0.062530 0.166731 76 153 0
0.680727 -0.019083 0.101143 255 0 0
0.665588 0.042811 -0.307303 76 153 0
0.714434 0.042811 0.076725 76 153 0
-0.297859 -0.019083 0.205492 255 0 0
-0.240680 -0.019083 0.207681 255 0 0
0.246028 -0.022369 0.215190 153 76 0
0.511948 0.022096 0.254122 153 0 76
-0.260933 -0.019083 0.133104 255 0 0
-0.690475 0.042811 -0.258804 76 153 0
-0.455186 0.042811 0.148406 76 153 0
-0.444665 -0.053475 -0.032081 0 255 0
-0.149871 0.042811 0.286980 76 153 0
0.900072 -0.302126 0.236620 76 0 153
-0.552853 0.062530 -0.090271 76 153 0
0.329427 0.062530 -0.080870 76 153 0
0.331498 0.062530 -0.112072 76 153 0
-0.654548 0.062530 0.086713 76 153 0
0.846439 0.062530 0.276483 76 153 0
-0.430322 0.062530 0.240388 76 153 0
-0.818791 -0.113188 0.258739 153 0 76
-0.160350 0.062530 0.146201 76 153 0
0.034491 0.042811 -0.301827 76 153 0
0.046541 -0.034653 -0.207020 153 76 0
-0.858301 0.042811 -0.199185 76 0 153
-0.858356 0.042811 0.020501 76 0 153
0.727365 0.062530 -0.243066 76 153 0
-0.371050 0.062530 0.173716 76 153 0
-0.303948 -0.019083 -0.108145 127 127 0
0.874257 -0.124306 -0.239980 153 76 0
0.058190 -0.007805 -0.108986 76 0 153
0.040890 0.062530 0.117318 76 153 0
0.368147 -0.019083 0.123687 153 76 0
-0.162237 0.062530 -0.261194 76 153 0
-0.822436 -0.251070 -0.262182 76 0 153
0.452322 0.042811 -0.278261 76 153 0
0.590113 0.062530 0.164938 76 153 0
-0.055352 0.042811 -0.317282 76 153 0
-0.584410 -0.021394 0.386232 0 127 127
0.417171 0.042811 -0.279084 127 0 127
-0.394564 0.010009 0.113460 76 0 153
-0.579993 0.062530 -0.235829 76 153 0
0.866385 -0.253935 -0.289040 153 76 0
-0.690308 -0.000542 0.332204 153 0 76
-0.796825 0.042811 -0.129940 76 153 0
0.068790 0.042811 -0.165638 76 153 0
-0.241156 0.046864 -0.347607 76 153 0
-0.369336 0.009271 -0.146571 76 0 153
-0.774284 0.062530 -0.242393 76 153 0
-0.056090 0.020952 0.230676 127 127 0
-0.531580 0.042811 -0.213078 76 153 0
0.461333 0.042811 0.068105 76 153 0
-0.391245 0.007139 0.362132 0 127 127
-0.158317 0.062530 0.238864 76 153 0
0.769844 -0.003606 -0.194970 76 0 153
0.614846 0.062530 -0.216430 76 153 0
0.685996 0.042811 -0.329625 76 153 0
-0.521938 -0.019083 0.150857 153 76 0
0.761829 0.062530 -0.250245 76 153 0
0.033396 -0.046274 -0.258868 76 0 153
0.741815 0.042811 -0.284954 127 0 127
-0.600519 0.015608 -0.014339 0 255 0
0.058865 -0.024706 -0.278592 76 0 153
-0.205744 -0.019083 0.121958 255 0 0
-0.612973 -0.022369 -0.086149 76 0 153
-0.778791 -0.193430 0.232982 153 0 76
-0.824920 -0.233142 0.219887 153 0 76
0.046541 -0.047423 -0.052837 76 0 153
-0.698088 0.042811 -0.050192 76 153 0
-0.663467 0.042811 -0.162437 76 153 0
-0.603693 0.062530 0.095425 76 153 0
-0.773469 -0.028875 -0.303788 76 0 153
0.195585 0.017437 -0.302692 76 0 153
0.528995 0.062530 0.239498 76 153 0
0.695667 -0.043183 0.248203 153 0 76
0.165743 0.042811 0.072858 76 153 0
-0.774733 0.020678 0.256967 153 0 76
-0.436757 0.042811 -0.065634 76 153 0
-0.789813 -0.043307 -0.032081 0 255 0
0.015600 0.018711 0.198079 76 0 153
0.792849 0.018238 0.116995 204 51 127
-0.457135 -0.022369 -0.145544 76 0 153
0.885861 -0.180993 0.253417 76 0 153
0.489827 0.042811 0.143827 76 153 0
-0.002986 -0.019083 -0.146942 127 127 0
0.602153 -0.019083 -0.085509 76 153 0
0.570235 -0.019083 -0.146318 76 153 0
0.494429 0.007525 0.231771 76 0 153
0.384668 -0.032364 -0.032081 0 255 0
-0.811504 0.002842 -0.264299 76 0 153
0.134334 -0.019083 -0.274897 76 0 153
-0.338176 0.007558 -0.295024 127 0 127
-0.357285 0.015564 0.246684 127 127 0
0.861907 -0.225703 0.237664 76 0 153
0.722592 0.042811 -0.056039 76 153 0
0.913350 -0.008453 0.222353 76 0 153
-0.081305 0.062530 -0.031047 76 153 0
0.913350 0.038175 0.245521 76 0 153
-0.101207 -0.019083 -0.115843 127 127 0
0.128769 0.042811 -0.004532 76 153 0
0.369896 0.062530 -0.279841 76 153 0
-0.678668 0.000940 -0.014339 0 255 0
-0.620331 0.062530 -0.325034 76 153 0
0.692847 -0.022369 -0.147569 76 153 0
0.630013 0.017615 -0.281843 76 0 153
-0.493193 0.057406 0.300911 76 153 0
-0.720587 0.030136 0.248203 127 127 0
-0.491348 0.014820 0.362132 0 127 127
0.219958 0.062530 0.262878 76 153 0
-0.819041 -0.454912 0.234984 153 0 76
0.896469 -0.306699 0.211255 76 0 153
0.188728 -0.037302 -0.032081 0 255 0
-0.565525 0.062530 -0.150171 76 153 0
0.118592 0.040114 -0.277497 127 0 127
0.514081 -0.022369 0.225195 255 0 0
0.780799 -0.002889 0.152083 76 0 153
-0.188117 0.042811 -0.200443 76 153 0
-0.611115 0.062530 -0.114763 76 153 0
0.434881 0.062530 0.092758 76 153 0
-0.374175 0.042811 0.031748 76 153 0
-0.748003 0.062530 0.017523 76 153 0
0.783128 0.062530 -0.173109 76 153 0
-0.197914 0.062530 -0.161072 76 153 0
0.351950 -0.005920 0.231771 76 153 0
0.244828 0.039274 -0.032081 76 153 0
-0.790465 0.007772 0.233962 153 0 76
-0.590209 0.042811 -0.158041 76 153 0
0.244954 0.062530 0.062476 76 153 0
0.013356 0.025284 -0.230992 76 0 153
-0.370090 0.018711 -0.204083 76 0 153
0.788711 -0.036063 0.188427 204 51 127
-0.272338 0.042811 0.109573 76 153 0
-0.730458 0.042811 -0.326464 76 153 0
0.268124 0.042811 -0.190088 76 153 0
-0.807122 -0.039311 -0.059470 153 0 76
-0.448244 0.062530 -0.112443 76 153 0
0.407613 0.015449 -0.014740 76 0 153
0.355429 0.062530 0.026430 76 153 0
0.805994 0.031887 -0.201826 204 51 127
-0.654339 -0.028394 0.362443 0 127 127
-0.437047 0.042811 0.036482 76 153 0
0.151392 0.062530 -0.172563 76 153 0
-0.369336 -0.003407 0.159944 76 153 0
-0.528224 0.062530 0.295589 76 153 0
-0.680023 0.042811 0.205494 76 153 0
0.561421 0.004234 -0.047448 76 0 153
-0.568076 0.062530 0.194872 76 153 0
-0.506595 0.042811 0.050608 76 153 0
0.740172 -0.048947 -0.032081 0 255 0
0.529025 0.062530 0.138313 76 153 0
0.189783 0.062530 -0.005228 76 153 0
-0.289184 0.042811 0.244853 127 127 0
-0.437068 -0.001529 0.362132 0 127 127
-0.596838 -0.034152 0.230676 153 76 0
-0.041595 0.062530 -0.159135 76 153 0
-0.787886 -0.384379 0.219125 153 0 76
0.575312 0.042811 -0.174083 76 153 0
-0.344020 -0.053590 0.220655 153 76 0
-0.790114 -0.436335 -0.286902 76 0 153
-0.012139 0.062530 -0.039438 76 153 0
0.234459 -0.019083 0.129197 153 76 0
-0.509796 0.042811 0.264928 76 153 0
-0.644225 0.042811 -0.257730 76 153 0
0.243010 -0.019083 -0.055468 153 0 76
0.904587 0.027290 -0.205456 76 153 0
0.000861 0.030879 -0.014339 0 255 0
-0.533943 0.062530 0.006234 76 153 0
0.767922 -0.019083 0.183907 255 0 0
0.046541 0.014391 -0.254134 76 0 153
0.422938 -0.053590 0.099511 153 0 76
0.153590 0.042811 0.010182 76 153 0
0.464093 -0.022369 -0.252720 76 153 0
0.402020 0.018711 -0.247714 153 0 76
-0.346331 -0.029283 -0.171352 153 76 0
-0.151483 -0.019083 -0.149420 127 127 0
-0.629493 0.042811 -0.154237 76 153 0
-0.538550 -0.004120 -0.278592 76 0 153
-0.694416 -0.040306 -0.032081 76 153 0
0.797493 0.042811 0.226525 127 127 0
0.010391 -0.004471 0.005808 76 0 153
0.864057 0.062530 0.105481 76 153 0
-0.182917 0.062530 -0.281974 76 153 0
-0.321536 -0.010770 -0.127691 76 0 153
-0.282792 0.062530 -0.091651 76 153 0
0.336153 -0.018363 -0.047448 153 0 76
-0.463834 0.062530 0.118134 76 153 0
0.649281 0.042811 0.041881 76 153 0
0.224037 0.042811 0.097092 76 153 0
-0.333185 0.036677 -0.098887 153 76 0
0.250240 -0.019083 -0.146324 153 0 76
0.357842 -0.019083 -0.216545 153 0 76
0.421993 0.041037 0.248203 76 153 0
0.768748 0.024393 -0.246424 76 0 153
-0.790624 -0.031934 -0.242442 76 0 153
0.442465 0.062530 -0.199962 76 153 0
-0.371769 0.062530 -0.164876 76 153 0
-0.418684 0.042811 0.089450 76 153 0
0.645324 -0.022369 0.170662 255 0 0
-0.807122 0.042598 0.053121 153 0 76
0.953185 0.062530 0.029603 76 0 153
0.856095 0.062530 0.063332 76 153 0
-0.414842 0.062530 0.285660 76 153 0
-0.400351 0.062530 0.031773 76 153 0
0.614741 -0.022369 -0.158465 76 153 0
0.069788 0.018711 0.183298 76 0 153
-0.722025 0.062530 -0.297153 76 153 0
-0.761878 0.062530 -0.294702 76 153 0
0.724312 0.017615 -0.043689 76 0 153
0.391727 -0.002147 -0.279470 76 0 153
0.805994 -0.042196 0.158220 204 51 127
0.470860 0.001725 0.255871 153 0 76
0.426268 -0.026151 0.145258 153 0 76
-0.104128 0.042811 -0.070623 76 153 0
0.853696 0.042811 0.180415 76 153 0
0.835695 0.062530 -0.243498 76 153 0
-0.264727 0.035321 0.248203 127 127 0
0.337001 0.062530 0.091891 76 153 0
-0.634331 -0.022369 -0.280172 76 0 153
-0.217450 0.042811 0.125742 76 153 0
-0.194296 0.042811 0.283789 76 153 0
0.238816 0.062530 -0.094471 76 153 0
0.301632 0.042811 -0.313073 76 153 0
-0.034379 0.042811 -0.069323 76 153 0
-0.309085 -0.033951 -0.273949 76 0 153
0.077153 0.003724 0.231771 76 0 153
0.887059 -0.023950 -0.051136 76 153 0
-0.477093 -0.011431 -0.289547 0 127 127
-0.326699 0.062530 0.175372 76 153 0
0.046541 0.021458 0.207621 76 0 153
0.503428 0.062530 -0.244972 76 153 0
0.417152 0.062530 0.216514 76 153 0
0.001328 -0.029303 -0.295024 0 0 255
-0.457301 0.042811 -0.124982 76 153 0
0.897913 0.062530 -0.217005 76 153 0
0.013525 -0.049072 -0.014339 0 255 0
-0.499550 0.042811 -0.069925 76 153 0
0.622648 0.042811 0.169587 76 153 0
0.121464 0.062530 0.229913 76 153 0
0.641793 -0.029490 -0.280193 127 127 0
0.366760 0.062530 -0.032954 76 153 0
-0.128161 0.062530 -0.324332 76 153 0
0.441518 0.031636 0.230676 76 0 153
-0.743366 0.042811 0.296769 76 153 0
-0.668836 -0.019083 -0.052280 76 0 153
0.260409 0.042811 -0.086065 76 153 0
-0.703579 0.042811 0.085266 76 153 0
-0.833413 0.003817 -0.287487 76 0 153
0.087496 0.017615 -0.042947 0 255 0
-0.224002 0.062530 0.100790 76 153 0
-0.434473 -0.006314 -0.278592 76 0 153
-0.085775 -0.019083 -0.205096 127 127 0
0.488531 0.062530 -0.328656 76 153 0
-0.490802 0.042811 0.181050 76 153 0
0.113401 0.062530 -0.049631 76 153 0
0.010391 0.000582 -0.108227 76 0 153
0.242547 0.062530 -0.120461 76 153 0
-0.020224 -0.011136 0.255871 153 0 76
0.740985 0.062530 -0.342637 76 153 0
0.464289 0.062530 -0.061655 76 153 0
-0.334485 0.042811 -0.143228 76 153 0
0.236565 -0.022369 0.046879 153 76 0
-0.271443 0.042811 -0.001101 76 153 0
0.744410 0.062530 0.235598 76 153 0
0.286584 0.020429 -0.032081 0 255 0
0.612319 -0.004472 0.242726 76 0 153
0.134571 0.062530 -0.066397 76 153 0
0.904587 -0.020287 0.132860 76 153 0
-0.357804 -0.029490 0.197075 153 76 0
-0.369626 0.025284 0.051531 255 0 0
-0.183590 0.062530 0.224646 76 153 0
-0.690308 -0.006299 0.267543 153 0 76
0.802110 -0.019937 0.230676 204 51 127
-0.657741 0.062530 0.167105 76 153 0
-0.174966 0.042811 -0.114503 76 153 0
-0.410320 0.042811 -0.341457 76 153 0
-0.047006 0.042811 0.041865 76 153 0
0.330598 0.062530 -0.225308 76 153 0
-0.254670 0.042811 0.192224 76 153 0
0.087638 0.062530 -0.183972 76 153 0
0.650973 0.030925 0.248203 127 127 0
-0.876339 0.043561 -0.132583 76 0 153
-0.579350 0.062530 -0.077784 76 153 0
-0.503412 -0.019083 -0.146284 76 0 153
-0.315707 0.042811 -0.118531 76 153 0
-0.875220 0.062530 0.091905 76 0 153
0.164244 0.042811 0.098939 76 153 0
0.508448 -0.019083 0.183445 255 0 0
0.847258 0.042811 -0.313608 76 153 0
0.935175 0.062530 -0.011502 76 0 153
0.659588 0.062530 0.147500 76 153 0
0.101903 0.042811 0.166397 76 153 0
0.904587 -0.002785 0.039772 76 153 0
-0.781722 0.042811 0.285435 76 153 0
-0.712912 -0.028287 0.189862 204 51 127
0.563928 0.062530 0.058904 76 153 0
0.465368 0.042811 -0.127094 76 153 0
0.350146 0.062530 -0.094912 76 153 0
-0.028021 0.062530 0.227770 76 153 0
-0.833413 -0.050424 -0.247564 76 0 153
0.892349 -0.028253 -0.264351 76 153 0
-0.565313 -0.049908 -0.032081 0 255 0
-0.465992 -0.029483 0.378564 0 127 127
-0.685163 -0.008820 0.386232 0 127 127
-0.269662 0.002430 -0.047448 76 0 153
-0.315415 -0.036063 -0.055795 76 0 153
0.420779 0.056370 -0.347607 76 153 0
0.704576 -0.019083 0.158687 255 0 0
-0.597658 -0.022369 -0.214558 76 0 153
0.759362 0.042811 0.240670 127 127 0
-0.723317 0.062530 0.183071 76 153 0
0.725742 -0.047972 0.248203 127 127 0
0.586424 0.003786 -0.302692 127 127 0
-0.190942 0.042811 -0.036424 0 255 0
0.651835 0.042811 -0.008843 76 153 0
0.681185 0.042938 -0.018132 76 153 0
-0.435300 0.042811 -0.220114 76 153 0
0.153586 0.062530 0.195580 76 153 0
-0.473389 0.042811 -0.185141 76 153 0
-0.228724 -0.019083 -0.127666 127 127 0
-0.702095 -0.036063 -0.079084 204 51 127
0.235077 0.042811 -0.156110 76 153 0
-0.632621 -0.040510 0.230676 127 127 0
-0.354466 -0.032509 0.378564 0 127 127
-0.655056 0.062530 0.133282 76 153 0
0.956851 0.062530 0.229439 76 0 153
0.719008 -0.051050 -0.014339 0 255 0
-0.002722 -0.022369 0.035686 255 0 0
0.858964 0.062530 -0.177279 76 153 0
-0.712912 0.018800 -0.243621 76 0 153
-0.552845 0.062530 0.225515 76 153 0
0.511617 0.062530 -0.120648 76 153 0
0.010391 0.009785 -0.282257 76 0 153
-0.394555 0.062530 -0.215545 76 153 0
0.033396 -0.030059 -0.239398 76 0 153
-0.313242 -0.052809 -0.014339 0 255 0
-0.726057 -0.006303 -0.001702 0 255 0
0.069145 -0.005512 -0.212602 76 0 153
0.724569 0.024749 -0.014339 0 255 0
0.359861 0.061262 -0.347231 76 153 0
-0.712912 -0.028143 0.090439 0 0 255
0.390117 -0.009389 0.146376 153 76 0
0.348056 0.042811 -0.071384 76 153 0
-0.688811 0.042811 -0.316703 76 153 0
-0.095481 0.042811 -0.252575 76 153 0
0.338915 0.042811 -0.250226 76 153 0
0.819440 -0.000355 -0.277497 127 0 127
-0.446036 -0.022369 0.147639 153 76 0
0.576291 0.062530 0.281495 76 153 0
-0.369336 -0.009305 -0.129362 76 0 153
0.817064 -0.053590 0.240804 127 127 0
0.648207 0.062530 -0.305985 76 153 0
-0.732048 -0.053590 -0.017534 0 255 0
0.085534 -0.019083 0.006917 153 76 0
0.750160 0.042811 0.111151 76 153 0
0.165704 0.062530 0.283926 76 153 0
-0.712912 -0.000140 -0.114620 76 0 153
0.431642 0.042811 -0.075889 153 0 76
0.810037 0.062530 0.114600 76 153 0
-0.750507 0.024285 -0.014339 0 255 0
0.207239 0.062530 0.199687 76 153 0
0.913350 -0.019324 -0.243636 76 153 0
-0.008619 -0.022369 -0.231248 127 127 0
-0.499531 0.062530 -0.261865 76 153 0
0.204206 0.062530 -0.223441 76 153 0
0.333498 -0.022369 0.093604 153 76 0
0.053511 0.042811 0.042542 76 153 0
-0.122099 0.042811 -0.296185 76 153 0
0.012123 0.017615 0.051477 76 0 153
-0.795211 0.042811 0.220767 76 153 0
0.676105 0.042811 -0.177279 76 153 0
0.830956 -0.012995 -0.014339 0 255 0
0.735629 0.062530 -0.315784 76 153 0
0.491438 -0.003457 -0.278592 76 0 153
0.060143 0.042811 -0.070962 76 153 0
-0.759066 0.062530 0.132585 76 153 0
0.759898 0.062530 0.175920 76 153 0
-0.700733 0.043715 0.300624 76 153 0
-0.575781 -0.022369 -0.128913 76 0 153
0.220233 -0.019083 0.169537 153 76 0
0.311259 0.042811 0.191717 76 153 0
-0.259352 0.042811 0.069513 76 153 0
0.940836 0.062530 -0.236425 76 0 153
0.515297 -0.035210 -0.277497 127 0 127
-0.346005 0.042811 -0.341516 76 153 0
-0.164701 0.002273 0.255871 153 0 76
-0.620542 -0.004735 -0.289547 0 127 127
0.114909 -0.019083 0.019365 153 76 0
-0.739320 0.062530 -0.338962 76 153 0
0.510006 0.062530 0.193951 76 153 0
0.624774 0.062530 0.073081 76 153 0
-0.679717 0.062530 -0.274536 76 153 0
0.288633 -0.019083 -0.213009 153 0 76
-0.325147 0.025284 0.098048 153 76 0
0.694288 0.042811 -0.226022 76 153 0
-0.347450 -0.036063 0.146074 153 76 0
-0.649419 0.025632 -0.032081 0 255 0
-0.864760 0.062530 -0.011336 76 0 153
0.656088 -0.022369 -0.124188 76 153 0
0.038999 0.062530 0.047893 76 153 0
0.896996 -0.077312 0.254163 76 0 153
-0.304435 0.042811 -0.025777 0 255 0
-0.346331 -0.025597 -0.204237 153 76 0
-0.670564 -0.022369 0.185890 153 76 0
0.052987 -0.007624 0.253568 76 153 0
-0.476345 0.062530 -0.300441 76 153 0
0.842333 0.042811 -0.044863 76 153 0
-0.259090 0.062530 -0.333179 76 153 0
-0.306754 -0.022369 -0.194803 255 0 0
0.465236 0.062530 -0.290582 76 153 0
-0.709334 -0.022917 -0.194263 204 51 127
0.448925 0.062530 -0.040375 76 153 0
0.255725 0.062530 0.140831 76 153 0
-0.354368 -0.032566 -0.014740 255 0 0
-0.160122 0.062530 0.002623 76 153 0
0.896949 -0.265730 -0.290400 153 76 0
0.707105 -0.026004 -0.014339 0 255 0
-0.087600 0.028509 -0.295024 127 0 127
-0.459506 0.042811 -0.273942 76 153 0
-0.807122 -0.003909 0.151287 153 0 76
-0.134169 0.007350 0.000627 76 0 153
-0.084140 0.062530 -0.237377 76 153 0
-0.399609 -0.028394 0.363024 153 76 0
0.448938 0.042811 -0.148648 76 153 0
0.855037 0.042811 -0.112289 76 153 0
0.616643 0.001418 -0.047448 76 0 153
-0.575587 -0.028080 -0.278592 127 0 127
-0.329849 0.062530 0.060088 76 153 0
-0.021958 -0.019083 0.144401 255 0 0
-0.270561 -0.035231 -0.032081 0 255 0
-0.650531 0.062530 -0.228198 76 153 0
-0.374080 0.042811 -0.307747 76 153 0
-0.124794 0.062530 0.209508 76 153 0
0.446303 -0.036063 0.195294 0 0 255
-0.080545 0.062530 -0.295086 76 153 0
0.413122 -0.016107 0.007789 153 0 76
-0.434093 0.062530 -0.025516 76 153 0
0.885978 -0.023006 -0.303788 153 76 0
-0.373896 0.042811 -0.237037 76 153 0
0.660522 0.042811 -0.225254 76 153 0
0.520339 0.042811 -0.216281 76 153 0
-0.257332 -0.022369 -0.166726 127 127 0
0.413122 -0.034825 0.087512 153 0 76
-0.676725 0.042811 -0.206301 76 153 0
0.547596 0.042811 0.206130 76 153 0
0.175197 0.042811 -0.129765 76 153 0
-0.726057 0.015775 0.176091 204 51 127
0.552851 0.062530 0.117231 76 153 0
-0.449884 0.042811 0.119740 76 153 0
-0.820784 -0.316343 0.218706 153 0 76
-0.380901 0.018698 -0.032081 76 0 153
0.548631 0.022334 -0.300785 76 0 153
0.206727 -0.042755 -0.277497 127 0 127
0.707797 0.062530 0.207747 76 153 0
-0.113725 0.009344 -0.278592 76 0 153
-0.713923 -0.053590 -0.266445 204 51 127
0.893567 -0.356901 -0.287824 153 76 0
-0.347054 0.062530 -0.037136 76 153 0
0.069145 0.013214 -0.102028 76 0 153
-0.744999 0.042811 0.104545 76 153 0
-0.044334 0.042811 0.065618 76 153 0
-0.072234 0.062530 -0.323773 76 153 0
-0.310582 0.008945 -0.206799 76 0 153
0.179433 0.042811 0.242528 76 153 0
0.033396 -0.001449 0.207279 76 0 153
-0.703793 0.025284 0.153504 0 0 255
0.787347 0.022331 -0.297582 127 127 0
-0.873486 0.062530 0.248789 76 0 153
-0.806881 -0.030449 -0.303788 76 0 153
0.908022 0.062530 -0.000847 76 0 153
0.904587 -0.006097 -0.048013 76 153 0
-0.425093 0.028796 -0.277497 127 0 127
0.454321 -0.019083 -0.104769 76 153 0
-0.386370 0.042811 0.002617 76 153 0
0.026369 0.042811 -0.335245 76 153 0
-0.669531 -0.022369 -0.259951 76 0 153
0.005160 0.062530 -0.005004 76 153 0
0.762569 -0.004337 -0.032081 76 0 153
0.164826 0.017031 -0.014339 76 0 153
0.339858 0.062530 0.118778 76 153 0
0.382454 -0.026546 -0.302692 76 0 153
0.395137 0.042811 0.108345 76 153 0
0.562187 0.042811 -0.278903 76 153 0
0.878086 -0.389390 -0.289507 153 76 0
0.757981 -0.007627 0.255871 153 0 76
-0.848803 0.042811 -0.087812 76 0 153
0.824613 0.062530 0.028959 76 153 0
-0.574013 0.062530 -0.330815 76 153 0
-0.369336 0.000213 0.320521 76 153 0
0.113456 -0.022369 0.044567 153 76 0
0.529543 0.062530 0.270186 76 153 0
0.249152 0.042811 -0.283784 127 0 127
-0.023950 0.020694 -0.277497 76 0 153
0.781894 -0.029324 -0.278892 127 0 127
0.191692 0.042811 -0.339467 76 153 0
0.023830 0.001428 -0.032081 76 0 153
-0.203492 0.042811 0.146492 76 153 0
-0.833413 -0.014280 0.238509 153 0 76
0.083941 0.062530 0.179015 76 153 0
-0.688811 -0.034525 -0.201436 76 153 0
0.046541 -0.027742 0.045011 76 0 153
-0.032123 -0.052373 0.248203 127 127 0
0.270182 0.042811 -0.259445 76 153 0
0.021346 0.009975 0.176679 76 0 153
0.630125 -0.029959 -0.302692 76 0 153
0.025371 0.042811 0.159693 76 153 0
-0.824650 -0.015430 0.065784 153 0 76
0.033396 -0.003111 0.033869 76 0 153
-0.252114 -0.013910 -0.278592 76 0 153
-0.858565 0.062530 -0.129620 76 0 153
0.675916 -0.022369 0.019847 255 0 0
0.448609 0.062530 0.153088 76 153 0
0.276667 -0.042870 -0.014339 0 255 0
0.547207 -0.019083 0.081023 255 0 0
-0.829570 0.042811 0.066546 76 0 153
0.191124 0.062530 -0.093631 76 153 0
-0.744425 0.042811 -0.050140 204 51 127
0.737182 0.042811 0.058103 76 153 0
-0.586910 0.062530 -0.192635 76 153 0
0.484637 0.062530 0.100545 76 153 0
0.155284 0.024477 -0.277497 127 0 127
-0.824650 0.006495 -0.019403 153 0 76
-0.333185 -0.005525 -0.107641 76 0 153
0.351341 0.062530 0.182549 76 153 0
0.413122 -0.037020 -0.171327 153 0 76
-0.208785 0.062530 0.281261 76 153 0
0.904587 0.022475 0.059797 76 153 0
0.769844 0.007786 0.035582 76 0 153
-0.238378 -0.019083 0.060969 255 0 0
0.512728 -0.022369 -0.172633 76 153 0
0.122615 0.062530 0.084710 76 153 0
0.307750 0.042811 -0.110958 76 153 0
-0.275726 0.062530 0.265355 76 153 0
-0.447668 -0.022369 -0.203598 76 0 153
0.395927 0.062530 -0.007561 76 153 0
0.789769 0.042811 0.068047 76 153 0
-0.807122 0.031054 -0.050613 153 0 76
-0.054908 0.062530 0.229084 76 153 0
0.836065 0.019349 0.248203 127 127 0
-0.772067 -0.003326 -0.273207 76 0 153
0.511964 0.042811 0.126293 76 153 0
-0.298435 -0.022369 0.102600 255 0 0
-0.575433 0.042811 0.091376 76 153 0
0.449357 0.003762 -0.008137 76 0 153
0.381779 0.062530 0.034557 76 153 0
0.103507 0.042811 -0.123937 76 153 0
-0.388594 0.042811 -0.128353 76 153 0
0.780799 -0.004666 -0.219125 76 0 153
-0.424611 0.062530 -0.314848 76 153 0
-0.310582 -0.001625 0.148700 76 0 153
-0.708604 0.042811 0.115948 76 153 0
0.780799 -0.027403 0.146839 204 51 127
0.101904 0.042811 -0.098514 76 153 0
0.057475 -0.053590 0.234326 127 127 0
0.040227 0.062530 0.193874 76 153 0
0.523677 -0.053590 -0.015036 0 255 0
0.839700 0.042811 -0.342144 76 153 0
0.268631 0.062530 0.290595 76 153 0
-0.807122 -0.029383 0.144019 153 0 76
0.295701 -0.019083 -0.137589 153 0 76
-0.653811 -0.019083 0.229942 153 76 0
0.345857 -0.019083 0.051044 153 76 0
0.755790 0.042811 -0.060815 76 153 0
0.134764 0.062530 -0.027344 76 153 0
-0.780458 -0.248865 0.228168 153 0 76
-0.810337 0.062530 -0.070388 76 153 0
-0.429439 -0.003995 -0.032081 0 255 0
-0.116980 0.059633 -0.347607 76 153 0
0.499645 0.062530 0.287088 76 153 0
0.895930 -0.434642 -0.284604 153 76 0
0.569275 -0.019083 0.072259 255 0 0
-0.665311 0.062530 0.282916 76 153 0
0.377748 -0.019083 0.040253 153 76 0
0.904587 -0.031803 -0.138975 76 153 0
-0.824650 -0.025932 0.113696 153 0 76
-0.785033 -0.343306 -0.269222 76 0 153
-0.508921 0.062530 -0.131119 76 153 0
0.272069 0.062530 -0.222402 76 153 0
0.361349 0.023316 0.253011 127 127 0
0.811902 0.042811 -0.253286 76 153 0
0.178663 -0.027864 -0.292457 153 0 76
-0.413917 0.042811 -0.056465 76 153 0
-0.370253 0.042811 -0.179770 76 153 0
-0.060169 0.062530 -0.080259 76 153 0
0.872015 -0.265004 0.206237 76 0 153
-0.700375 0.062530 0.150224 76 153 0
-0.039133 0.042811 0.195926 76 153 0
0.033396 -0.028874 -0.163143 76 0 153
0.155722 0.062530 -0.141042 76 153 0
0.106012 0.042811 0.050469 76 153 0
-0.791879 -0.212757 0.249137 153 0 76
0.280226 0.061669 -0.346824 76 153 0
0.426268 -0.016943 -0.208057 153 0 76
-0.691829 0.062530 0.035156 76 153 0
0.514144 0.042811 0.238318 76 153 0
-0.779868 -0.014282 0.233962 153 0 76
-0.740959 0.062530 0.263551 76 153 0
0.448871 0.003117 0.075156 76 0 153
0.429210 0.062530 -0.162688 76 153 0
-0.266292 0.062530 -0.013359 76 153 0
0.751439 -0.022369 0.137438 255 0 0
0.241942 -0.029490 0.237323 76 153 0
0.754051 0.042811 -0.200507 76 153 0
0.831373 0.062530 0.217027 76 153 0
-0.585546 0.042811 0.236133 127 127 0
-0.786494 -0.078893 0.251222 153 0 76
-0.841589 0.060880 0.300911 76 0 153
0.801612 0.062530 -0.311834 76 153 0
-0.118027 -0.053590 -0.026441 0 255 0
0.332083 0.062530 0.000388 76 153 0
0.099309 0.062530 0.011409 76 153 0
0.545008 -0.053590 0.247567 127 127 0
-0.315595 0.062530 -0.215628 76 153 0
0.028199 0.062530 -0.050253 76 153 0
-0.830027 -0.104151 0.204785 153 0 76
-0.341435 0.046614 0.300911 76 153 0
0.867636 0.029587 0.256967 76 0 153
-0.866376 0.042811 -0.283988 76 0 153
-0.818058 0.052767 0.215754 76 0 153
0.913350 0.018637 -0.254783 153 76 0
0.879973 0.042811 0.020120 76 153 0
0.728100 -0.022369 -0.145774 76 153 0
-0.360941 0.042811 0.262261 76 153 0
-0.458097 0.042811 0.017193 76 153 0
0.502218 -0.019083 -0.052132 76 153 0
0.682320 0.042811 0.264876 76 153 0
0.074403 0.062530 -0.234820 76 153 0
-0.831475 0.011881 0.256967 153 0 76
0.887059 0.000826 -0.003169 76 153 0
0.033760 0.042811 0.251819 127 127 0
0.046541 -0.034218 -0.131396 153 76 0
-0.335966 0.042811 0.247719 127 127 0
0.046541 -0.009878 0.093554 76 0 153
0.856043 0.042811 -0.216542 76 153 0
-0.523978 0.062530 0.180588 76 153 0
0.196151 0.062530 -0.295523 76 153 0
0.769844 0.003843 0.009491 76 0 153
0.812006 0.062530 0.196423 76 153 0
-0.373912 0.042811 0.128292 76 153 0
-0.768766 -0.010828 -0.014339 0 255 0
-0.612268 -0.053590 -0.031269 0 255 0
0.425026 -0.053590 0.145707 153 0 76
-0.679535 0.062530 -0.097954 76 153 0
-0.346331 -0.003644 -0.010294 153 76 0
0.519316 0.062530 -0.174430 76 153 0
0.663987 0.042811 -0.153787 76 153 0
0.331229 -0.019083 -0.235446 153 0 76
-0.346331 -0.031526 0.174869 255 0 0
-0.708960 0.062530 -0.321999 76 153 0
-0.396998 0.062530 0.189289 76 153 0
0.174088 0.042811 -0.246577 76 153 0
0.904587 -0.011870 -0.193569 76 153 0
0.448871 -0.015988 -0.077323 76 153 0
0.437917 -0.003429 0.189029 76 0 153
0.109945 0.062530 0.133318 76 153 0
0.222501 0.042811 0.027537 76 153 0
0.043481 0.062530 -0.280439 76 153 0
-0.564401 -0.014982 0.362132 153 76 0
0.346757 0.062530 -0.316272 76 153 0
0.367784 0.062530 0.247901 76 153 0
-0.207172 0.062530 -0.078537 76 153 0
0.896919 0.048288 -0.114503 76 0 153
-0.839863 0.042811 0.154999 76 0 153
0.233776 0.042811 0.207394 76 153 0
0.600664 -0.019083 0.216708 255 0 0
0.839720 0.042811 0.226781 76 153 0
-0.060058 0.014334 -0.047448 76 0 153
0.043608 -0.006273 -0.014740 76 0 153
0.297847 0.042811 -0.289231 127 0 127
0.617265 0.042811 0.194642 76 153 0
0.348355 -0.000642 -0.014339 76 0 153
-0.664503 -0.036500 0.248203 127 127 0
0.547898 -0.022369 -0.189579 76 153 0
-0.824650 -0.038358 -0.022630 153 0 76
0.599029 0.042811 0.090538 76 153 0
-0.507670 0.062530 -0.038600 76 153 0
0.606253 -0.019083 0.147462 255 0 0
-0.805358 -0.288402 0.248249 153 0 76
-0.748927 0.062530 -0.084459 76 153 0
0.410465 0.025284 0.082268 153 0 76
-0.075198 -0.022369 -0.281607 76 0 153
0.595362 0.062530 -0.325297 76 153 0
-0.858050 0.062530 -0.161794 76 0 153
0.078975 0.062530 -0.004361 76 153 0
-0.597588 0.042811 0.000188 76 153 0
0.793638 0.042275 -0.277497 204 51 127
-0.807122 -0.046218 -0.207767 153 0 76
-0.025022 0.042811 0.113291 76 153 0
0.584278 -0.001589 -0.032081 76 0 153
0.862569 -0.296963 0.225929 76 0 153
0.324384 -0.019083 -0.104257 153 0 76
-0.332570 -0.022917 0.120309 153 76 0
0.614814 0.042811 -0.026808 76 153 0
0.220136 0.062530 -0.028707 76 153 0
-0.516163 -0.034235 -0.295024 0 127 127
-0.406760 0.062530 -0.191738 76 153 0
0.350048 -0.042453 -0.014339 0 255 0
0.860112 -0.128895 0.247423 76 0 153
-0.315230 -0.006989 -0.014339 0 255 0
-0.814942 -0.080009 0.216887 153 0 76
0.883125 -0.172651 0.198782 76 0 153
0.611763 0.042811 -0.080551 76 153 0
0.731773 0.009775 -0.289547 127 127 0
0.626141 0.042811 -0.203694 76 153 0
0.747460 0.062530 -0.136948 76 153 0
-0.461693 0.062530 0.055236 76 153 0
0.768748 0.024353 0.174646 76 0 153
-0.106420 0.062530 -0.269267 76 153 0
0.599023 -0.005397 -0.278592 76 0 153
-0.396962 0.062530 -0.043665 76 153 0
0.462941 0.062530 0.182313 76 153 0
-0.074044 -0.019083 0.122632 255 0 0
-0.619394 0.062530 -0.139015 76 153 0
0.057310 0.042811 0.124704 76 153 0
0.539342 -0.005036 -0.038684 76 153 0
-0.333185 -0.034617 -0.231714 255 0 0
-0.786177 -0.349121 0.219027 153 0 76
0.364284 -0.019083 0.005588 153 76 0
0.499195 0.062530 -0.268320 76 153 0
0.443052 0.018711 -0.088976 76 0 153
-0.243861 0.042811 0.240883 127 127 0
0.426268 0.017137 -0.174314 153 0 76
-0.020728 -0.019083 0.179414 255 0 0
-0.129187 0.042811 0.095481 76 153 0
-0.378871 -0.032829 -0.295024 127 0 127
0.958812 0.060362 0.059542 76 0 153
0.052721 0.042811 -0.096146 76 153 0
-0.553715 0.042811 -0.102724 76 153 0
0.122987 0.042811 0.131124 76 153 0
-0.712912 -0.034876 0.133487 204 51 127
0.752895 0.019863 -0.277497 76 0 153
0.888682 -0.375760 -0.256464 153 76 0
0.580035 0.042811 0.069690 76 153 0
