ply
format ascii 1.0
element vertex 614
property float x
property float y
property float z
property float nx
property float ny
property float nz
property uchar red
property uchar green
property uchar blue
property float opacity
end_header
-0.082306 -0.467944 -0.390225 -0.701149 0.000000 -0.713015 239 239 239 1.000000
0.091053 -0.429808 -0.209745 -0.684205 0.000000 -0.729289 219 219 219 1.000000
0.015953 0.119431 -0.274366 0.000000 -1.000000 0.000000 184 184 184 1.000000
0.044855 -0.368841 -0.419209 0.315270 0.000000 -0.949002 181 181 181 1.000000
-0.003509 0.294027 0.970623 -0.003361 -0.904077 0.427355 200 200 200 1.000000
-0.075191 0.168120 0.591269 0.928238 0.336308 -0.158972 183 183 183 1.000000
0.002056 0.433348 0.089912 0.000000 -0.926138 -0.377186 208 208 208 1.000000
0.073711 0.298616 0.779325 0.993551 0.102507 -0.048454 217 217 217 1.000000
0.002195 0.318398 -0.205713 0.227791 -0.884199 0.407802 151 151 151 1.000000
-0.080205 0.069085 0.335539 0.993114 0.105917 -0.050066 192 192 192 1.000000
-0.080390 0.267615 0.730786 -0.999812 0.017549 -0.008296 197 197 197 1.000000
0.127624 -0.453944 -0.275407 -0.978906 0.000000 -0.204310 194 194 194 1.000000
0.130595 -0.299139 -0.297971 0.999729 0.000000 0.023301 207 207 207 1.000000
0.065620 -0.497696 -0.366643 0.000000 -1.000000 0.000000 222 222 222 1.000000
-0.062155 -0.076409 -0.110483 -0.770008 0.576836 -0.272669 235 235 235 1.000000
-0.016585 -0.466039 -0.178367 0.177763 0.000000 -0.984073 162 162 162 1.000000
0.056732 0.136990 0.572330 -0.775191 0.571133 -0.269973 235 235 235 1.000000
-0.102143 0.093027 -0.236946 -0.859859 0.000000 0.510532 156 156 156 1.000000
-0.079443 0.311933 0.860831 0.983512 0.163500 -0.077285 191 191 191 1.000000
-0.114345 -0.099770 -0.265362 0.958797 0.000000 -0.284092 158 158 158 1.000000
0.061683 -0.086449 -0.112164 -0.841803 -0.488010 0.230681 204 204 204 1.000000
-0.025377 0.259915 -0.380592 0.000000 1.000000 0.000000 213 213 213 1.000000
0.072985 -0.497696 -0.295256 0.000000 1.000000 0.000000 192 192 192 1.000000
-0.070719 -0.014559 0.050022 0.875055 -0.437597 0.206851 223 223 223 1.000000
0.067046 0.057124 0.364388 -0.909057 0.376706 -0.178068 238 238 238 1.000000
0.051273 0.120622 0.550933 -0.707027 0.639356 -0.302222 239 239 239 1.000000
0.128300 -0.413220 -0.280536 -0.986536 0.000000 -0.163544 197 197 197 1.000000
-0.085121 -0.391745 -0.214763 0.725045 0.000000 -0.688702 158 158 158 1.000000
0.039063 0.215834 -0.421964 -0.266786 0.000000 0.963756 183 183 183 1.000000
0.073891 -0.154557 -0.155412 0.999822 -0.017066 0.008067 213 213 213 1.000000
0.073909 0.232446 0.665758 0.999473 -0.029360 0.013879 213 213 213 1.000000
0.102025 0.259915 -0.299930 0.000000 -1.000000 0.000000 170 170 170 1.000000
-0.024229 0.257226 0.902232 0.000000 -0.900581 0.434688 226 226 226 1.000000
-0.111420 -0.107107 -0.343469 -0.939664 0.000000 -0.342098 200 200 200 1.000000
-0.029822 -0.227591 -0.180930 0.282807 0.000000 -0.959177 157 157 157 1.000000
-0.083353 0.244252 -0.389836 0.706906 0.000000 0.707307 239 239 239 1.000000
0.056959 -0.114907 0.038887 -0.777844 0.568178 -0.268576 235 235 235 1.000000
0.038505 0.259915 -0.355726 0.000000 -1.000000 0.000000 200 200 200 1.000000
0.048630 -0.058535 -0.089263 -0.672553 -0.669066 0.316266 202 202 202 1.000000
-0.087946 -0.152031 -0.383327 0.750044 0.000000 0.661388 231 231 231 1.000000
0.094303 0.122398 -0.369045 0.793117 0.000000 -0.609069 172 172 172 1.000000
0.073925 -0.009695 0.155641 0.999020 -0.040025 0.018920 213 213 213 1.000000
-0.000999 -0.075082 0.189663 -0.028445 -0.903717 0.427185 197 197 197 1.000000
0.005160 0.290811 -0.101638 0.141739 0.898905 -0.414585 231 231 231 1.000000
-0.104830 -0.497696 -0.347300 0.000000 1.000000 0.000000 215 215 215 1.000000
0.081848 0.195854 -0.202269 0.611938 0.000000 0.790906 226 226 226 1.000000
0.036839 0.168395 0.678505 0.518762 -0.772917 0.365356 226 226 226 1.000000
-0.065785 -0.053757 0.161182 -0.807853 -0.532852 0.251878 175 175 175 1.000000
0.050335 0.311332 0.697050 0.694974 0.650067 -0.307286 202 202 202 1.000000
-0.050627 -0.085742 -0.157105 0.610390 -0.716125 0.338510 239 239 239 1.000000
-0.078526 -0.323356 -0.393126 0.673630 0.000000 0.739068 240 240 240 1.000000
0.015925 0.149494 -0.394311 0.000000 0.543174 -0.839620 188 188 188 1.000000
-0.058846 -0.158348 -0.041661 -0.716974 -0.630236 0.297911 179 179 179 1.000000
0.030660 0.044641 -0.178760 -0.201424 0.000000 -0.979504 173 173 173 1.000000
-0.078420 -0.366056 -0.393208 -0.672836 0.000000 -0.739792 240 240 240 1.000000
0.011537 0.065162 -0.425529 0.048007 0.000000 -0.998847 191 191 191 1.000000
-0.039968 -0.452556 -0.185133 -0.365933 0.000000 0.930641 155 155 155 1.000000
0.043765 -0.497696 -0.228009 0.000000 -1.000000 0.000000 159 159 159 1.000000
0.032513 -0.243120 -0.179004 -0.216027 0.000000 -0.976387 173 173 173 1.000000
-0.080317 0.311291 0.832954 0.999397 0.031388 -0.014837 197 197 197 1.000000
0.049670 -0.084123 -0.141044 -0.686309 -0.657548 0.310822 201 201 201 1.000000
-0.061376 0.165453 0.399294 0.753624 -0.594258 0.280904 235 235 235 1.000000
0.129334 0.017658 -0.313379 0.994946 0.000000 -0.100413 184 184 184 1.000000
-0.046871 -0.328247 -0.187992 -0.421132 0.000000 0.906999 156 156 156 1.000000
0.126718 -0.406689 -0.333252 -0.966128 0.000000 0.258063 193 193 193 1.000000
0.000459 -0.085060 0.168495 -0.011873 -0.904019 0.427328 197 197 197 1.000000
-0.018063 -0.247860 -0.423210 0.189508 0.000000 0.981879 205 205 205 1.000000
0.061427 0.342554 0.875998 0.000000 0.930418 0.366501 185 185 185 1.000000
-0.100286 0.180344 -0.233987 0.845284 0.000000 -0.534318 155 155 155 1.000000
-0.053807 -0.102526 0.087815 -0.652183 -0.685350 0.323964 175 175 175 1.000000
0.018638 -0.332451 -0.177177 0.105235 0.000000 0.994447 179 179 179 1.000000
0.019535 0.259915 -0.199763 0.000000 -1.000000 0.000000 175 175 175 1.000000
0.082834 -0.164744 -0.398332 -0.621404 0.000000 0.783490 169 169 169 1.000000
-0.069935 0.061874 -0.202053 0.606961 0.000000 -0.794731 156 156 156 1.000000
-0.012252 -0.224330 -0.125741 0.114907 0.898094 -0.424528 183 183 183 1.000000
0.038270 0.297482 0.645047 0.535743 0.763390 -0.360853 202 202 202 1.000000
-0.089729 0.119431 -0.249349 0.000000 -1.000000 0.000000 169 169 169 1.000000
0.028005 -0.379686 -0.423361 -0.180366 0.000000 0.983600 184 184 184 1.000000
0.011858 0.117054 -0.412929 0.056241 0.000000 -0.998417 192 192 192 1.000000
0.127263 -0.232194 -0.272657 -0.974145 0.000000 -0.225923 195 195 195 1.000000
-0.061850 0.100242 0.498604 -0.755733 -0.592065 0.279868 183 183 183 1.000000
-0.059774 0.317423 0.716907 -0.732968 0.615014 -0.290715 235 235 235 1.000000
-0.094579 0.230590 -0.375221 0.802910 0.000000 0.596100 226 226 226 1.000000
-0.023504 0.384001 -0.003986 -0.965952 0.234939 -0.108357 237 237 237 1.000000
0.069303 0.324663 0.792495 0.938458 0.312265 -0.147607 209 209 209 1.000000
0.044803 -0.078818 -0.419231 0.314842 0.000000 -0.949144 178 178 178 1.000000
-0.059096 -0.119335 -0.193737 -0.516570 0.000000 0.856245 158 158 158 1.000000
0.015989 0.321393 0.673342 0.249511 0.875488 -0.413842 206 206 206 1.000000
0.068234 -0.009366 0.218707 0.921743 -0.350604 0.165730 238 238 238 1.000000
-0.024675 0.023675 0.044920 -0.259123 0.873203 -0.412761 225 225 225 1.000000
0.092976 -0.497696 -0.249605 0.000000 -1.000000 0.000000 169 169 169 1.000000
0.089495 -0.482691 -0.393221 0.672703 0.000000 -0.739913 165 165 165 1.000000
0.060438 0.228582 0.842888 0.000000 -0.900581 0.434688 238 238 238 1.000000
0.044939 0.331031 -0.108381 -0.991269 -0.119732 0.055222 195 195 195 1.000000
-0.040276 0.230272 0.846388 0.000000 0.900581 -0.434688 216 216 216 1.000000
-0.049061 -0.396382 -0.412872 0.438294 0.000000 0.898832 222 222 222 1.000000
-0.029701 -0.201936 -0.088541 0.314320 0.858261 -0.405698 192 192 192 1.000000
0.070108 0.015916 0.145896 0.950816 0.280045 -0.132376 207 207 207 1.000000
-0.036882 -0.037837 0.250758 0.435542 0.813826 -0.384694 179 179 179 1.000000
0.068285 0.314041 0.902666 -0.922264 0.349482 -0.165200 239 239 239 1.000000
0.025758 -0.378546 -0.178114 -0.162443 0.000000 -0.986718 175 175 175 1.000000
-0.037558 0.268535 0.898018 -0.444515 -0.809851 0.382815 179 179 179 1.000000
-0.027728 0.206133 -0.179707 -0.264789 0.000000 0.964306 157 157 157 1.000000
0.053707 -0.022759 -0.186229 0.387265 0.000000 0.921969 202 202 202 1.000000
0.067403 -0.020377 0.198925 -0.912973 0.368884 -0.174371 238 238 238 1.000000
-0.018276 0.088460 0.177679 -0.185265 0.888432 -0.419959 223 223 223 1.000000
0.127225 0.074505 -0.329397 -0.973630 0.000000 0.228134 194 194 194 1.000000
0.121133 -0.341031 -0.254970 -0.929358 0.000000 -0.369180 219 219 219 1.000000
-0.005026 -0.497696 -0.366452 0.000000 -1.000000 0.000000 222 222 222 1.000000
0.027038 -0.156612 0.004196 -0.389939 0.832516 -0.393529 206 206 206 1.000000
-0.081696 -0.149943 -0.211078 0.696786 0.000000 -0.717279 156 156 156 1.000000
0.050915 -0.187462 -0.416699 -0.364749 0.000000 0.931106 177 177 177 1.000000
0.031698 0.360003 0.768789 -0.452961 -0.806017 0.381003 205 205 205 1.000000
0.021790 0.294786 -0.254527 -0.333816 -0.855984 0.394789 165 165 165 1.000000
0.069493 -0.463348 -0.193202 -0.510597 0.000000 -0.859820 235 235 235 1.000000
0.130798 0.168951 -0.304779 0.997006 0.000000 -0.077330 180 180 180 1.000000
-0.035500 -0.163492 -0.418489 -0.329531 0.000000 -0.944145 215 215 215 1.000000
-0.038271 0.114299 0.248706 0.453081 -0.805962 0.380976 236 236 236 1.000000
0.113381 -0.460611 -0.364635 -0.860827 0.000000 0.508898 162 162 162 1.000000
-0.009475 0.027270 -0.177431 0.120785 0.000000 -0.992679 160 160 160 1.000000
-0.080257 -0.065541 0.043729 0.996894 0.071200 -0.033656 192 192 192 1.000000
0.120737 -0.174285 -0.254013 0.926252 0.000000 0.376906 219 219 219 1.000000
0.019620 -0.072418 0.187288 0.296543 -0.863416 0.408135 210 210 210 1.000000
-0.050425 0.209398 0.466983 0.607996 -0.717787 0.339296 239 239 239 1.000000
-0.052406 0.252877 0.562499 0.633159 -0.699780 0.330784 239 239 239 1.000000
0.046110 0.285624 0.912512 -0.636051 0.697633 -0.329769 238 238 238 1.000000
0.118857 -0.306923 -0.352297 0.910650 0.000000 -0.413178 177 177 177 1.000000
0.113569 -0.497696 -0.251383 0.000000 -1.000000 0.000000 172 172 172 1.000000
0.055338 0.150149 -0.369083 0.000000 0.894934 0.446198 172 172 172 1.000000
-0.091510 0.259915 -0.230633 0.000000 1.000000 0.000000 161 161 161 1.000000
-0.049098 -0.069598 -0.125104 -0.592097 0.728570 -0.344393 239 239 239 1.000000
-0.046329 0.119431 -0.303320 0.000000 -1.000000 0.000000 193 193 193 1.000000
0.081225 -0.252582 -0.399567 -0.608546 0.000000 0.793519 172 172 172 1.000000
0.013881 0.092087 -0.425221 0.066879 0.000000 -0.997761 191 191 191 1.000000
0.068507 -0.037012 -0.409326 -0.502105 0.000000 0.864806 176 176 176 1.000000
0.041820 0.216276 0.477857 0.569795 0.742963 -0.351197 199 199 199 1.000000
0.099597 0.234129 -0.218633 0.752743 0.000000 0.658315 236 236 236 1.000000
-0.011967 0.183872 -0.177428 0.171028 0.000000 -0.985266 162 162 162 1.000000
0.127470 0.104379 -0.287801 0.000000 -1.000000 0.000000 162 162 162 1.000000
0.130886 -0.267454 -0.300179 0.999984 0.000000 0.005639 210 210 210 1.000000
0.047605 -0.206548 -0.132309 0.657130 -0.681477 0.322132 239 239 239 1.000000
-0.016742 0.145605 0.297541 0.169017 -0.891076 0.421209 223 223 223 1.000000
0.021239 0.129448 -0.327563 0.000000 0.894934 0.446198 185 185 185 1.000000
-0.076337 0.146646 0.536501 0.946817 0.290908 -0.137511 183 183 183 1.000000
0.031542 0.086109 0.189160 -0.425681 -0.818080 0.386705 206 206 206 1.000000
0.047142 -0.323668 -0.418262 -0.334026 0.000000 0.942564 181 181 181 1.000000
0.005891 0.202536 0.776686 0.117944 -0.897772 0.424375 192 192 192 1.000000
0.009613 0.443126 0.065901 0.000000 -0.926138 -0.377186 195 195 195 1.000000
-0.093729 0.181234 -0.376329 -0.796186 0.000000 -0.605052 226 226 226 1.000000
0.046118 -0.230725 -0.179853 -0.636164 0.697548 -0.329729 240 240 240 1.000000
-0.101883 0.253492 -0.365703 0.856227 0.000000 0.516600 219 219 219 1.000000
-0.065921 0.119431 -0.230882 0.000000 1.000000 0.000000 160 160 160 1.000000
-0.014404 -0.054721 0.231815 -0.133675 -0.895968 0.423523 183 183 183 1.000000
0.101073 0.084752 -0.221095 0.767488 0.000000 0.641063 236 236 236 1.000000
-0.105958 0.185364 -0.357515 0.891605 0.000000 0.452814 206 206 206 1.000000
0.025803 0.259915 -0.404584 0.000000 -1.000000 0.000000 226 226 226 1.000000
0.044825 0.006709 0.040166 -0.620492 -0.708993 0.335140 204 204 204 1.000000
-0.028065 0.259915 -0.250050 0.000000 1.000000 0.000000 157 157 157 1.000000
-0.114115 0.248153 -0.337822 0.955516 0.000000 0.294938 197 197 197 1.000000
0.067574 0.256543 0.784033 0.914815 -0.365134 0.172598 238 238 238 1.000000
-0.051250 0.350477 0.855883 0.000000 0.930418 0.366501 236 236 236 1.000000
-0.118772 0.173842 -0.311861 0.993104 0.000000 0.117239 175 175 175 1.000000
-0.007197 0.404878 -0.009327 0.497628 -0.787654 0.363275 224 224 224 1.000000
0.028471 0.119431 -0.191716 0.000000 -1.000000 0.000000 149 149 149 1.000000
0.012686 0.372402 0.800225 0.000000 0.930418 0.366501 206 206 206 1.000000
-0.060303 -0.207011 -0.194662 0.526886 0.000000 -0.849936 158 158 158 1.000000
0.110444 -0.235553 -0.233309 -0.840658 0.000000 -0.541566 240 240 240 1.000000
0.059556 -0.237637 -0.413120 -0.433629 0.000000 0.901091 172 172 172 1.000000
-0.068671 0.119431 -0.281735 0.000000 -1.000000 0.000000 183 183 183 1.000000
0.069696 0.167625 -0.404133 0.000000 0.894934 0.446198 162 162 162 1.000000
0.034855 0.142016 0.311728 0.472816 0.796642 -0.376571 202 202 202 1.000000
0.053630 0.108156 0.274672 0.736390 0.611664 -0.289132 199 199 199 1.000000
-0.044031 0.299403 0.648397 0.528851 -0.767308 0.362705 238 238 238 1.000000
0.080743 -0.305257 -0.201834 -0.604661 0.000000 -0.796483 226 226 226 1.000000
0.128368 -0.330854 -0.320716 0.987215 0.000000 -0.159393 187 187 187 1.000000
-0.078984 0.069468 0.280121 0.981062 -0.175117 0.082777 206 206 206 1.000000
-0.045103 -0.099151 0.110387 0.541641 0.759981 -0.359242 183 183 183 1.000000
0.025953 -0.053550 0.222953 0.376588 -0.837525 0.395896 206 206 206 1.000000
0.044638 0.183394 0.413525 0.617877 0.710858 -0.336021 204 204 204 1.000000
-0.111174 0.034559 -0.257709 -0.937888 0.000000 0.346939 156 156 156 1.000000
-0.023902 0.001585 -0.002329 0.244442 -0.876656 0.414393 225 225 225 1.000000
-0.024690 0.343816 -0.071781 -0.999658 0.023745 -0.010952 217 217 217 1.000000
-0.015770 0.259915 -0.325015 0.000000 -1.000000 0.000000 183 183 183 1.000000
-0.039312 0.108608 -0.198338 -0.400771 0.000000 0.916178 156 156 156 1.000000
-0.003724 0.268762 -0.155434 0.395158 0.834167 -0.384727 200 200 200 1.000000
-0.050193 -0.190764 -0.090687 -0.604172 -0.720421 0.340542 173 173 173 1.000000
0.044129 -0.264551 -0.182262 -0.309300 0.000000 -0.950965 206 206 206 1.000000
0.106707 -0.100352 -0.228438 0.813012 0.000000 0.582247 239 239 239 1.000000
-0.039452 -0.096629 0.123051 0.469463 0.798262 -0.377337 179 179 179 1.000000
-0.067510 0.122005 0.325376 0.830436 -0.503677 0.238087 226 226 226 1.000000
0.039151 0.053902 -0.180200 -0.268243 0.000000 -0.963351 210 210 210 1.000000
-0.109256 0.098908 -0.348695 0.923149 0.000000 0.384443 202 202 202 1.000000
-0.114406 -0.122291 -0.336261 -0.959159 0.000000 -0.282866 192 192 192 1.000000
0.126352 -0.070875 -0.267569 -0.964010 0.000000 -0.265866 226 226 226 1.000000
0.040173 -0.085870 -0.180623 0.276682 0.000000 0.960961 210 210 210 1.000000
-0.073126 -0.042231 0.001649 0.904362 -0.385831 0.182382 219 219 219 1.000000
0.054289 -0.452741 -0.186470 0.391927 0.000000 0.919996 200 200 200 1.000000
-0.010293 0.089691 -0.177539 0.127368 0.000000 -0.991855 160 160 160 1.000000
0.128275 -0.256059 -0.280348 0.986285 0.000000 0.165050 199 199 199 1.000000
-0.060007 0.259915 -0.335389 0.000000 1.000000 0.000000 189 189 189 1.000000
-0.118737 -0.007975 -0.292157 0.997543 0.000000 -0.070056 165 165 165 1.000000
0.073592 0.041749 0.228971 -0.988744 -0.135265 0.063939 203 203 203 1.000000
0.055265 0.100027 -0.414897 0.399725 0.000000 -0.916635 174 174 174 1.000000
0.030685 0.230544 0.846952 0.000000 -0.900581 0.434688 238 238 238 1.000000
-0.001720 -0.371561 -0.425361 0.058277 0.000000 0.998300 195 195 195 1.000000
-0.074573 -0.094060 0.041669 -0.917184 -0.360245 0.170287 179 179 179 1.000000
-0.054736 0.101798 0.248538 0.665929 -0.674460 0.318815 239 239 239 1.000000
0.000806 0.119431 -0.198820 0.000000 -1.000000 0.000000 149 149 149 1.000000
-0.002043 -0.235616 -0.425319 -0.060881 0.000000 -0.998145 196 196 196 1.000000
-0.069805 0.144848 -0.358451 0.000000 0.894934 0.446198 227 227 227 1.000000
-0.058174 0.040021 0.126180 0.717440 -0.629803 0.297706 238 238 238 1.000000
0.120611 -0.474211 -0.253711 0.925256 0.000000 0.379342 219 219 219 1.000000
-0.045412 0.258205 0.865980 -0.545465 -0.757742 0.358183 183 183 183 1.000000
0.071455 -0.054390 0.008157 -0.979675 -0.181349 0.085723 207 207 207 1.000000
-0.050179 -0.031129 -0.042202 0.605066 -0.719808 0.340251 239 239 239 1.000000
0.024682 0.104379 -0.179238 0.000000 -1.000000 0.000000 186 186 186 1.000000
-0.033747 -0.090751 0.142884 0.393505 0.831143 -0.392880 175 175 175 1.000000
0.038904 0.291727 0.633694 0.542970 0.759205 -0.358875 202 202 202 1.000000
0.069353 -0.096608 -0.098305 0.968174 0.226270 -0.106958 210 210 210 1.000000
-0.017201 0.255896 -0.178117 -0.201809 0.000000 0.979425 165 165 165 1.000000
-0.075242 -0.035579 0.024652 0.926867 -0.339383 0.160426 216 216 216 1.000000
-0.037502 0.210290 -0.418015 0.344967 0.000000 0.938615 217 217 217 1.000000
-0.025692 0.243606 0.874014 0.000000 -0.900581 0.434688 222 222 222 1.000000
-0.052189 0.132243 0.306772 0.630073 -0.702053 0.331858 239 239 239 1.000000
-0.109552 0.212293 -0.252934 0.923095 0.000000 -0.384571 156 156 156 1.000000
-0.035076 0.339064 0.719707 0.409869 -0.824654 0.389812 233 233 233 1.000000
0.110268 -0.221851 -0.233079 -0.839405 0.000000 -0.543507 240 240 240 1.000000
-0.080052 0.224334 0.617770 0.990492 -0.124372 0.058790 202 202 202 1.000000
0.045696 0.098367 0.517368 0.630149 -0.701997 0.331832 239 239 239 1.000000
-0.034451 -0.497696 -0.393467 0.000000 1.000000 0.000000 235 235 235 1.000000
-0.015614 -0.235013 -0.150301 0.144214 0.894632 -0.422891 183 183 183 1.000000
-0.005439 0.080485 -0.424872 0.088255 0.000000 0.996098 199 199 199 1.000000
-0.105009 -0.065310 -0.242823 0.885328 0.000000 -0.464968 156 156 156 1.000000
-0.017694 0.368723 0.035540 -0.792416 -0.553908 0.255468 232 232 232 1.000000
0.040087 0.231633 -0.180232 0.275222 0.000000 0.961381 210 210 210 1.000000
-0.078640 0.321351 0.809749 0.977324 -0.191441 0.090494 206 206 206 1.000000
0.068285 0.034944 0.312233 -0.922264 0.349484 -0.165200 238 238 238 1.000000
0.059096 0.147591 -0.395542 0.000000 0.543174 -0.839620 169 169 169 1.000000
0.044254 0.303484 -0.174212 0.978536 0.187130 -0.086306 183 183 183 1.000000
-0.071796 0.355458 0.843239 0.000000 -0.930418 -0.366501 239 239 239 1.000000
-0.035925 0.027946 0.391166 -0.422764 -0.819316 0.387289 179 179 179 1.000000
0.015127 0.112358 0.581201 -0.238160 0.878069 -0.415061 213 213 213 1.000000
-0.096255 0.152127 -0.228735 -0.815869 0.000000 0.578237 156 156 156 1.000000
-0.038914 -0.219362 -0.184696 0.357385 0.000000 -0.933957 155 155 155 1.000000
0.104824 -0.267992 -0.225985 0.798288 0.000000 0.602276 238 238 238 1.000000
0.091713 -0.146413 -0.391519 -0.689018 0.000000 0.724744 162 162 162 1.000000
0.116721 0.008664 -0.244319 -0.891266 0.000000 -0.453481 215 215 215 1.000000
-0.073598 0.291631 0.709929 0.909647 -0.375539 0.177517 219 219 219 1.000000
0.072671 -0.110968 -0.101619 0.985163 0.155160 -0.073343 204 204 204 1.000000
0.067980 -0.082508 0.065049 -0.919112 0.356205 -0.168377 238 238 238 1.000000
-0.110697 0.133422 -0.255699 -0.932056 0.000000 0.362315 156 156 156 1.000000
0.012295 0.369752 0.069771 0.062026 -0.906324 0.418007 224 224 224 1.000000
0.096093 -0.334807 -0.214605 0.723954 0.000000 0.689848 232 232 232 1.000000
-0.017697 0.090288 0.536664 -0.172875 -0.890470 0.420924 186 186 186 1.000000
-0.110221 -0.234931 -0.346366 0.930752 0.000000 0.365652 200 200 200 1.000000
-0.004310 0.235279 0.846372 -0.013745 -0.903997 0.427318 200 200 200 1.000000
0.127175 -0.112692 -0.329778 -0.972927 0.000000 0.231113 192 192 192 1.000000
0.102542 -0.384646 -0.223010 0.779773 0.000000 0.626062 238 238 238 1.000000
-0.004385 0.133822 -0.404450 0.000000 -0.543174 0.839620 199 199 199 1.000000
0.017544 -0.067050 -0.147508 0.269574 0.870613 -0.411537 207 207 207 1.000000
0.129704 0.181854 -0.313086 0.992970 0.000000 -0.118370 186 186 186 1.000000
-0.024690 0.321560 -0.115823 -0.999700 -0.022241 0.010258 204 204 204 1.000000
-0.043114 -0.293356 -0.415335 -0.391276 0.000000 -0.920273 219 219 219 1.000000
-0.006489 -0.497696 -0.288866 0.000000 1.000000 0.000000 187 187 187 1.000000
-0.019217 -0.241544 -0.166220 0.175552 0.890042 -0.420721 186 186 186 1.000000
-0.066433 -0.161367 -0.199366 0.578391 0.000000 -0.815760 157 157 157 1.000000
-0.099931 0.201940 -0.368247 0.842796 0.000000 0.538233 219 219 219 1.000000
0.059291 -0.497696 -0.347168 0.000000 1.000000 0.000000 215 215 215 1.000000
-0.082533 0.114916 -0.369928 0.787026 0.000000 0.616920 226 226 226 1.000000
-0.022284 0.313669 0.949328 0.000000 -0.930418 -0.366501 223 223 223 1.000000
0.046099 0.193886 0.439020 0.638201 0.696026 -0.329010 204 204 204 1.000000
-0.075183 -0.062992 -0.395691 0.648326 0.000000 0.761363 239 239 239 1.000000
0.053916 -0.042348 0.199760 0.741053 -0.607044 0.286948 238 238 238 1.000000
-0.047883 0.259915 -0.250567 0.000000 1.000000 0.000000 156 156 156 1.000000
-0.116659 -0.035404 -0.276379 -0.980479 0.000000 0.196622 158 158 158 1.000000
0.061159 0.217581 0.528973 -0.834611 -0.498004 0.235406 205 205 205 1.000000
-0.043035 -0.117474 0.074308 -0.515674 -0.774604 0.366154 183 183 183 1.000000
-0.077601 0.278551 0.805233 0.964261 0.239540 -0.113230 186 186 186 1.000000
0.035290 0.312503 -0.195006 0.722368 0.627941 -0.289613 178 178 178 1.000000
-0.049697 0.193611 0.723585 0.597490 0.724963 -0.342689 173 173 173 1.000000
-0.104838 0.115169 -0.281974 0.985639 0.000000 -0.168865 160 160 160 1.000000
-0.059639 0.181506 0.429043 -0.731250 0.616684 -0.291505 235 235 235 1.000000
-0.047997 0.138489 -0.345696 0.000000 0.894934 0.446198 217 217 217 1.000000
0.104639 -0.064602 -0.225744 -0.796813 0.000000 -0.604225 238 238 238 1.000000
0.035745 -0.048323 -0.179429 -0.241290 0.000000 -0.970453 173 173 173 1.000000
-0.021078 0.300091 0.978535 0.231217 0.879584 -0.415778 186 186 186 1.000000
-0.007194 0.277943 0.936748 -0.051037 -0.902904 0.426801 201 201 201 1.000000
0.115254 -0.402823 -0.360996 0.876988 0.000000 -0.480512 184 184 184 1.000000
0.051661 0.298380 0.672645 0.711962 0.634863 -0.300098 199 199 199 1.000000
-0.037924 0.211235 0.776324 0.449357 0.807664 -0.381781 179 179 179 1.000000
0.057488 0.181786 0.439154 -0.781229 -0.564369 0.266776 196 196 196 1.000000
-0.038200 0.072599 0.160390 -0.452123 0.806402 -0.381184 236 236 236 1.000000
0.054984 0.065867 0.426105 -0.754261 0.593597 -0.280592 238 238 238 1.000000
0.061789 -0.083565 0.088957 -0.825159 0.510717 -0.241415 232 232 232 1.000000
-0.094856 -0.080496 -0.374321 -0.807144 0.000000 -0.590355 226 226 226 1.000000
0.055643 0.052606 -0.187031 -0.402738 0.000000 -0.915315 200 200 200 1.000000
-0.096611 -0.492596 -0.372033 0.820599 0.000000 0.571504 223 223 223 1.000000
0.128401 0.124161 -0.278786 0.984203 0.000000 0.177044 198 198 198 1.000000
-0.021476 0.250068 0.521711 0.236198 -0.878502 0.415265 226 226 226 1.000000
-0.050050 0.114854 0.266446 0.603534 -0.720859 0.340748 239 239 239 1.000000
-0.001723 0.192838 0.395591 -0.019789 -0.903905 0.427274 215 215 215 1.000000
0.106894 0.259915 -0.251689 0.000000 -1.000000 0.000000 156 156 156 1.000000
-0.036019 0.145360 -0.183142 -0.332884 0.000000 0.942968 156 156 156 1.000000
0.027992 0.226974 -0.423694 -0.179789 0.000000 0.983705 183 183 183 1.000000
-0.078774 0.120309 0.460900 -0.977384 -0.191190 0.090374 189 189 189 1.000000
0.073826 0.036641 0.240451 -0.999583 -0.026119 0.012346 215 215 215 1.000000
0.073708 0.119445 0.399849 0.993278 0.104649 -0.049467 217 217 217 1.000000
0.047978 -0.187646 -0.093227 0.662327 -0.677352 0.320182 239 239 239 1.000000
0.051201 0.290265 0.654438 0.706109 0.640183 -0.302614 202 202 202 1.000000
0.073669 0.326134 0.831903 -0.989581 -0.130169 0.061530 217 217 217 1.000000
0.023727 0.314812 -0.209752 0.387385 0.837168 -0.386111 175 175 175 1.000000
0.078087 0.057629 -0.199797 -0.583016 0.000000 -0.812461 228 228 228 1.000000
-0.117037 -0.440568 -0.279250 -0.984779 0.000000 0.173813 160 160 160 1.000000
-0.018082 0.358492 0.748806 -0.191653 0.887324 -0.419436 223 223 223 1.000000
-0.061262 0.025388 0.102707 0.761257 -0.586252 0.277120 235 235 235 1.000000
-0.116603 -0.266923 -0.325818 0.979798 0.000000 0.199991 183 183 183 1.000000
0.041346 -0.497696 -0.366485 0.000000 1.000000 0.000000 222 222 222 1.000000
-0.117737 -0.350022 -0.317208 -0.991349 0.000000 -0.131253 179 179 179 1.000000
0.095592 -0.464610 -0.387819 0.719428 0.000000 -0.694567 177 177 177 1.000000
-0.008019 0.006049 0.361585 -0.083326 -0.900938 0.425872 200 200 200 1.000000
-0.071311 0.084384 -0.203109 0.617984 0.000000 -0.786191 156 156 156 1.000000
-0.119251 -0.036926 -0.305707 0.999255 0.000000 0.038603 173 173 173 1.000000
-0.119584 -0.061319 -0.303182 0.999832 0.000000 0.018345 173 173 173 1.000000
-0.021992 0.107831 0.221153 0.229975 -0.879850 0.415903 226 226 226 1.000000
-0.003586 0.259915 -0.397095 0.000000 -1.000000 0.000000 223 223 223 1.000000
0.073094 -0.153903 -0.195965 0.541313 0.000000 0.840821 231 231 231 1.000000
0.001042 0.015324 0.380834 -0.017996 0.903936 -0.427289 197 197 197 1.000000
-0.055012 0.104942 -0.395475 -0.538966 0.000000 -0.842327 236 236 236 1.000000
-0.083644 0.104681 -0.233291 -0.796979 0.000000 0.604007 156 156 156 1.000000
0.046798 0.181960 -0.183012 0.330317 0.000000 0.943870 206 206 206 1.000000
0.129879 -0.423893 -0.309239 0.997751 0.000000 -0.067033 184 184 184 1.000000
-0.119518 -0.448459 -0.303676 0.999751 0.000000 0.022305 173 173 173 1.000000
-0.083286 -0.162081 -0.212372 0.708374 0.000000 -0.705838 158 158 158 1.000000
-0.006302 0.259915 -0.183842 0.000000 1.000000 0.000000 186 186 186 1.000000
0.064896 0.162912 0.597263 -0.883664 0.423221 -0.200055 236 236 236 1.000000
0.021440 -0.021350 0.294102 -0.319878 0.856581 -0.404904 210 210 210 1.000000
-0.096490 0.168098 -0.372731 -0.817650 0.000000 -0.575716 223 223 223 1.000000
-0.067959 -0.497696 -0.365696 0.000000 -1.000000 0.000000 222 222 222 1.000000
-0.105004 -0.476342 -0.358960 0.885282 0.000000 0.465054 210 210 210 1.000000
-0.034758 0.328693 0.697320 -0.405543 0.826400 -0.390638 233 233 233 1.000000
-0.036753 -0.260376 -0.417970 -0.339779 0.000000 -0.940505 217 217 217 1.000000
-0.087789 -0.429486 -0.218240 -0.748679 0.000000 0.662933 158 158 158 1.000000
0.073163 -0.139425 -0.098181 0.987424 -0.142931 0.067563 227 227 227 1.000000
0.058800 -0.120853 0.021846 0.798753 -0.543949 0.257123 235 235 235 1.000000
-0.071925 0.241271 0.596329 0.890219 -0.411839 0.194676 223 223 223 1.000000
-0.028424 0.295609 0.964768 -0.325274 -0.854918 0.404118 190 190 190 1.000000
-0.071505 0.116675 0.499466 -0.883939 -0.422750 0.199833 183 183 183 1.000000
-0.102642 -0.330127 -0.364174 -0.863159 0.000000 -0.504932 219 219 219 1.000000
-0.059942 -0.046392 0.192708 -0.731341 -0.616595 0.291463 179 179 179 1.000000
-0.018861 -0.400742 -0.178667 0.195836 0.000000 -0.980637 165 165 165 1.000000
-0.077661 0.264177 0.679611 -0.964876 0.237506 -0.112269 210 210 210 1.000000
-0.080362 -0.081658 -0.004335 -0.999999 -0.001329 0.000628 197 197 197 1.000000
0.124034 -0.317158 -0.261973 0.950076 0.000000 0.312020 222 222 222 1.000000
0.070277 -0.122932 -0.193804 0.517322 0.000000 0.855791 231 231 231 1.000000
0.025297 0.417745 0.128222 0.000000 -0.926138 -0.377186 230 230 230 1.000000
-0.024689 -0.271518 -0.179434 -0.241578 0.000000 0.970381 170 170 170 1.000000
-0.079865 0.328035 0.835394 -0.989077 0.133261 -0.062992 202 202 202 1.000000
-0.040103 0.034067 0.081552 -0.477536 0.794338 -0.375482 235 235 235 1.000000
-0.041657 0.095034 0.212712 0.498039 -0.783979 0.370585 236 236 236 1.000000
0.033008 0.405703 0.127534 0.655364 -0.685879 0.316335 205 205 205 1.000000
0.069291 0.021135 0.277837 0.933910 -0.323216 0.152784 220 220 220 1.000000
-0.075489 0.058895 0.357775 -0.933309 -0.324633 0.153453 183 183 183 1.000000
-0.038442 0.161265 0.348304 0.455366 -0.804909 0.380479 236 236 236 1.000000
0.008599 -0.001619 0.344464 -0.152442 0.893516 -0.422363 216 216 216 1.000000
-0.009267 0.419340 0.124306 0.000000 -0.926138 -0.377186 230 230 230 1.000000
-0.076291 0.088957 0.296064 0.943075 -0.300680 0.142131 213 213 213 1.000000
0.024283 -0.497696 -0.206257 0.000000 1.000000 0.000000 150 150 150 1.000000
0.059614 0.079813 0.231509 -0.812644 -0.526863 0.249047 206 206 206 1.000000
0.061393 -0.002847 0.063565 -0.837836 -0.493559 0.233304 203 203 203 1.000000
0.009917 0.060325 -0.176029 -0.034986 0.000000 -0.999388 186 186 186 1.000000
0.005383 0.323113 0.925352 0.000000 0.930418 0.366501 213 213 213 1.000000
0.011001 -0.115221 -0.176171 0.043692 0.000000 0.999045 186 186 186 1.000000
-0.056284 0.152322 0.621355 -0.687271 -0.656727 0.310434 179 179 179 1.000000
0.047383 0.223124 0.503774 -0.655778 -0.682540 0.322636 202 202 202 1.000000
0.044951 0.369202 -0.023608 -0.994135 -0.098201 0.045291 205 205 205 1.000000
-0.050637 0.066307 0.164570 0.610510 -0.716042 0.338471 239 239 239 1.000000
-0.040681 0.259915 -0.286073 0.000000 -1.000000 0.000000 162 162 162 1.000000
0.036327 0.312381 -0.082733 0.750799 -0.599810 0.276639 210 210 210 1.000000
0.103262 0.010995 -0.223949 -0.785694 0.000000 -0.618615 238 238 238 1.000000
-0.016571 0.284166 -0.145114 0.764105 0.585790 -0.270173 207 207 207 1.000000
0.129362 -0.158998 -0.313163 0.995120 0.000000 -0.098674 184 184 184 1.000000
0.117674 0.097943 -0.246619 -0.900123 0.000000 -0.435635 215 215 215 1.000000
-0.046964 0.299819 0.952002 0.564473 0.746276 -0.352763 186 186 186 1.000000
0.119674 0.052885 -0.251448 -0.917608 0.000000 -0.397487 217 217 217 1.000000
-0.023814 -0.342093 -0.422453 0.234764 0.000000 0.972052 207 207 207 1.000000
-0.080266 -0.012752 0.154292 -0.997360 -0.065653 0.031034 192 192 192 1.000000
0.052005 -0.060307 -0.416247 0.373567 0.000000 -0.927603 176 176 176 1.000000
0.111688 0.259915 -0.288591 0.000000 -1.000000 0.000000 162 162 162 1.000000
0.033611 0.122690 0.586356 -0.474393 0.795876 -0.376209 226 226 226 1.000000
-0.064809 0.156242 0.609239 -0.793280 -0.550457 0.260200 175 175 175 1.000000
-0.054611 0.071909 0.455021 -0.664239 -0.675820 0.319459 175 175 175 1.000000
-0.076750 -0.040230 0.137788 0.952888 0.274229 -0.129627 186 186 186 1.000000
-0.099912 -0.497696 -0.331684 0.000000 -1.000000 0.000000 207 207 207 1.000000
0.065328 -0.302387 -0.410729 -0.478032 0.000000 0.878343 169 169 169 1.000000
-0.027974 0.114518 0.581930 -0.308914 -0.859864 0.406456 189 189 189 1.000000
-0.115725 0.104379 -0.322261 0.000000 -1.000000 0.000000 183 183 183 1.000000
-0.037248 0.189357 -0.418121 -0.342902 0.000000 -0.939371 217 217 217 1.000000
0.070416 0.060954 0.243689 0.955202 0.267567 -0.126478 206 206 206 1.000000
-0.080164 0.264199 0.753774 -0.989168 -0.132711 0.062731 189 189 189 1.000000
-0.075227 -0.005077 0.089116 0.926718 -0.339715 0.160583 216 216 216 1.000000
-0.016107 0.211220 0.435925 0.162288 -0.892098 0.421692 223 223 223 1.000000
-0.015553 0.302630 -0.102651 0.736924 0.613835 -0.283107 234 234 234 1.000000
-0.054220 0.226044 0.510133 -0.658759 0.680191 -0.321524 239 239 239 1.000000
-0.052647 0.033467 0.098920 -0.636594 0.697228 -0.329578 239 239 239 1.000000
0.080265 0.120074 -0.384609 -0.660024 0.000000 0.751244 164 164 164 1.000000
-0.074337 0.329060 0.910253 0.000000 0.930418 0.366501 239 239 239 1.000000
-0.029712 0.189149 0.398365 0.342375 -0.849443 0.401530 228 228 228 1.000000
-0.032747 -0.370320 -0.182142 -0.306927 0.000000 0.951733 156 156 156 1.000000
-0.024437 0.035568 0.069920 -0.257468 0.873603 -0.412950 225 225 225 1.000000
0.073814 -0.042232 0.071959 -0.999280 -0.034300 0.016213 215 215 215 1.000000
-0.004547 0.356345 -0.118208 0.419813 -0.824176 0.380119 195 195 195 1.000000
-0.053312 -0.058624 -0.411111 -0.471037 0.000000 -0.882114 226 226 226 1.000000
0.129135 0.056471 -0.286879 0.993639 0.000000 0.112612 202 202 202 1.000000
0.012767 0.221401 0.459929 -0.207603 -0.884385 0.418047 209 209 209 1.000000
0.002507 0.211823 -0.181870 0.042398 0.000000 0.999101 175 175 175 1.000000
-0.085732 -0.450507 -0.215560 -0.730527 0.000000 0.682884 158 158 158 1.000000
-0.077038 -0.127187 -0.048519 -0.956903 -0.262554 0.124108 186 186 186 1.000000
0.128490 -0.304506 -0.281978 0.988379 0.000000 0.152007 199 199 199 1.000000
0.047318 0.308789 0.684853 -0.654896 -0.683232 0.322963 202 202 202 1.000000
-0.036812 0.369700 0.786960 -0.433424 0.814750 -0.385131 233 233 233 1.000000
0.128346 -0.227439 -0.320887 0.986993 0.000000 -0.160763 187 187 187 1.000000
-0.074720 0.153744 -0.205311 -0.643115 0.000000 0.765769 156 156 156 1.000000
-0.028505 -0.116073 -0.421387 0.271933 0.000000 0.962316 213 213 213 1.000000
0.071669 0.217419 0.670752 -0.971656 0.213724 -0.101027 226 226 226 1.000000
0.072370 -0.078380 0.038407 0.979846 -0.180593 0.085366 225 225 225 1.000000
0.029745 0.385098 0.088866 -0.561809 0.751219 -0.346471 150 150 150 1.000000
0.046495 0.134233 -0.337160 0.000000 0.894934 0.446198 174 174 174 1.000000
0.112703 -0.247082 -0.365519 0.856294 0.000000 -0.516489 162 162 162 1.000000
-0.116372 -0.295035 -0.274196 0.976867 0.000000 -0.213848 158 158 158 1.000000
0.127335 -0.077702 -0.328563 0.975136 0.000000 -0.221609 191 191 191 1.000000
0.014128 0.011610 0.016907 0.225347 0.880828 -0.416366 210 210 210 1.000000
0.076255 -0.139073 -0.403380 0.567856 0.000000 -0.823128 174 174 174 1.000000
-0.087334 -0.086518 -0.217648 0.744706 0.000000 -0.667393 158 158 158 1.000000
-0.035598 0.119431 -0.257410 0.000000 1.000000 0.000000 174 174 174 1.000000
-0.116496 0.005406 -0.326630 0.978467 0.000000 0.206405 186 186 186 1.000000
0.036907 0.051444 0.430999 0.514209 -0.775400 0.366530 223 223 223 1.000000
0.071696 -0.091593 0.016778 0.971999 -0.212447 0.100423 225 225 225 1.000000
0.121887 -0.121001 -0.344981 0.935087 0.000000 -0.354418 174 174 174 1.000000
-0.083065 -0.297490 -0.389643 -0.706527 0.000000 -0.707686 239 239 239 1.000000
-0.067371 0.049235 0.170845 0.828388 -0.506426 0.239387 226 226 226 1.000000
-0.042722 0.226537 0.492409 0.511948 -0.776622 0.367107 238 238 238 1.000000
-0.083575 -0.009131 -0.389022 -0.711028 0.000000 -0.703164 235 235 235 1.000000
0.107098 -0.497696 -0.362478 0.000000 1.000000 0.000000 219 219 219 1.000000
-0.018045 -0.292225 -0.423212 0.189367 0.000000 0.981906 205 205 205 1.000000
-0.040188 -0.063113 0.193000 0.479075 0.793580 -0.375124 179 179 179 1.000000
0.057876 0.062438 0.187984 -0.786666 -0.558162 0.263842 206 206 206 1.000000
0.014462 0.285127 0.947144 -0.229449 0.879962 -0.415956 214 214 214 1.000000
0.017557 0.438688 0.054773 0.213031 0.887228 -0.409199 220 220 220 1.000000
0.101421 0.183699 -0.380761 0.768299 0.000000 -0.640091 172 172 172 1.000000
-0.102992 -0.151845 -0.363718 -0.865445 0.000000 -0.501005 216 216 216 1.000000
0.067044 -0.040898 0.005071 0.906610 0.381495 -0.180332 199 199 199 1.000000
0.035443 0.248158 0.849211 -0.501763 0.782036 -0.369667 226 226 226 1.000000
0.054651 -0.051716 0.178163 0.750178 -0.597812 0.282584 238 238 238 1.000000
0.127419 -0.090574 -0.273845 0.976258 0.000000 0.216613 196 196 196 1.000000
-0.075576 0.291122 0.848350 -0.934752 -0.321221 0.151840 183 183 183 1.000000
0.070154 0.222738 0.696233 0.949300 -0.284218 0.134349 223 223 223 1.000000
-0.005154 0.350075 -0.130968 -0.437874 0.816390 -0.376528 200 200 200 1.000000
-0.010565 -0.324585 -0.424197 0.129559 0.000000 0.991572 202 202 202 1.000000
-0.070897 0.102855 0.299169 0.877362 -0.433805 0.205059 223 223 223 1.000000
0.054716 -0.023742 0.237184 0.750985 -0.596983 0.282192 238 238 238 1.000000
0.054465 0.042465 0.377854 -0.747886 0.600154 -0.283691 238 238 238 1.000000
0.005259 0.141016 0.285675 0.109462 0.898650 -0.424790 213 213 213 1.000000
0.122785 -0.466881 -0.342814 -0.941595 0.000000 0.336748 174 174 174 1.000000
-0.086872 -0.253371 -0.384726 -0.740641 0.000000 -0.671901 231 231 231 1.000000
-0.021263 0.282851 0.590921 0.233412 -0.879110 0.415553 226 226 226 1.000000
-0.109582 -0.258910 -0.347908 -0.925759 0.000000 -0.378113 202 202 202 1.000000
0.016003 0.012812 0.370022 0.249612 -0.875465 0.413830 210 210 210 1.000000
0.016381 0.355155 0.037055 0.178893 -0.893424 0.412057 226 226 226 1.000000
0.120051 -0.272305 -0.349414 -0.920726 0.000000 0.390210 177 177 177 1.000000
0.019597 0.230543 -0.182595 -0.042398 0.000000 -0.999101 165 165 165 1.000000
0.034374 0.121278 0.267232 0.463909 0.800911 -0.378589 202 202 202 1.000000
0.073411 0.343756 0.866394 -0.987205 -0.144163 0.068145 202 202 202 1.000000
0.097405 0.152162 -0.373120 0.000000 -0.894934 -0.446198 151 151 151 1.000000
-0.007601 0.071103 0.138301 0.056392 -0.902644 0.426678 217 217 217 1.000000
0.001609 0.361614 0.752503 0.062814 0.902297 -0.426514 213 213 213 1.000000
0.110800 -0.050463 -0.367999 -0.843175 0.000000 0.537639 165 165 165 1.000000
-0.108411 -0.149663 -0.350734 0.916183 0.000000 0.400760 202 202 202 1.000000
0.127501 -0.463043 -0.327305 0.977330 0.000000 -0.211723 189 189 189 1.000000
0.008254 -0.073132 -0.425962 -0.021642 0.000000 0.999766 194 194 194 1.000000
0.064751 -0.141516 -0.046147 0.848768 -0.478048 0.225972 235 235 235 1.000000
0.029151 0.210522 0.449256 0.405609 0.826374 -0.390625 204 204 204 1.000000
0.042012 0.344449 -0.102666 0.911125 0.374245 -0.172606 210 210 210 1.000000
0.028639 -0.199999 -0.089305 0.409002 -0.825006 0.389978 228 228 228 1.000000
-0.099565 0.259915 -0.323460 0.000000 1.000000 0.000000 183 183 183 1.000000
-0.002563 0.119431 -0.291927 0.000000 -1.000000 0.000000 190 190 190 1.000000
0.072528 0.239997 0.710454 0.981501 -0.173092 0.081820 226 226 226 1.000000
0.061299 0.187056 0.464944 0.836548 0.495341 -0.234147 204 204 204 1.000000
-0.106112 0.122106 -0.312836 0.000000 -0.894934 -0.446198 240 240 240 1.000000
-0.107619 0.010477 -0.352645 -0.909393 0.000000 -0.415938 202 202 202 1.000000
0.091492 0.259915 -0.374218 0.000000 1.000000 0.000000 210 210 210 1.000000
0.005829 0.070982 0.137671 -0.116800 -0.897894 0.424433 213 213 213 1.000000
-0.029047 0.203351 0.427964 0.333965 -0.852175 0.402821 228 228 228 1.000000
0.057916 0.307928 0.931082 0.788843 -0.555645 0.262652 235 235 235 1.000000
0.064163 -0.003153 -0.411211 -0.469195 0.000000 0.883095 172 172 172 1.000000
0.032685 0.279175 -0.146033 0.645459 -0.693581 0.319888 190 190 190 1.000000
0.058988 0.204305 0.709267 0.800834 -0.541442 0.255938 235 235 235 1.000000
0.099575 0.068759 -0.219143 -0.754690 0.000000 -0.656081 236 236 236 1.000000
-0.009626 0.226437 0.861528 0.000000 0.900581 -0.434688 210 210 210 1.000000
0.047276 0.222721 0.776612 0.652528 -0.685082 0.323836 239 239 239 1.000000
-0.054861 -0.166995 -0.050950 -0.665731 -0.674619 0.318891 175 175 175 1.000000
0.062228 0.258033 0.618714 -0.849126 -0.477527 0.225726 202 202 202 1.000000
0.029113 0.338520 -0.150923 0.544401 0.761714 -0.351311 194 194 194 1.000000
-0.004711 0.259742 0.898140 0.018943 0.903920 -0.427281 201 201 201 1.000000
-0.097127 -0.352502 -0.371362 0.824462 0.000000 0.565918 223 223 223 1.000000
-0.063186 0.104379 -0.199087 0.000000 -1.000000 0.000000 175 175 175 1.000000
0.074482 0.038808 -0.197030 0.553022 0.000000 0.833167 231 231 231 1.000000
0.062758 -0.497696 -0.313571 0.000000 1.000000 0.000000 199 199 199 1.000000
0.093539 -0.389815 -0.390118 0.702144 0.000000 -0.712035 162 162 162 1.000000
-0.113024 -0.310663 -0.262174 -0.950618 0.000000 0.310364 157 157 157 1.000000
0.017647 0.151682 0.315283 -0.270892 -0.870278 0.411379 206 206 206 1.000000
-0.080203 -0.154436 -0.137141 -0.992997 -0.106809 0.050488 192 192 192 1.000000
-0.015062 0.117670 0.237316 -0.151195 0.893689 -0.422444 220 220 220 1.000000
-0.078666 -0.017495 0.093165 0.977625 -0.190181 0.089898 206 206 206 1.000000
0.105611 0.255680 -0.375301 0.802428 0.000000 -0.596749 168 168 168 1.000000
0.017225 0.288693 -0.107589 -0.203417 0.889087 -0.410057 227 227 227 1.000000
0.027097 0.259915 -0.189280 0.000000 -1.000000 0.000000 183 183 183 1.000000
0.100881 -0.002143 -0.380926 0.765867 0.000000 -0.642998 172 172 172 1.000000
-0.116637 0.197985 -0.273694 -0.976119 0.000000 0.217237 158 158 158 1.000000
0.116428 -0.435720 -0.358161 -0.888469 0.000000 0.458936 181 181 181 1.000000
-0.117277 0.037868 -0.281073 0.987238 0.000000 -0.159249 160 160 160 1.000000
0.039960 -0.069406 -0.180535 0.274926 0.000000 0.961465 210 210 210 1.000000
0.041573 0.143430 0.619036 -0.577221 0.738263 -0.348975 223 223 223 1.000000
0.045356 -0.134856 0.024806 -0.625287 0.705541 -0.333507 240 240 240 1.000000
0.082232 -0.158088 -0.202977 0.616616 0.000000 0.787264 226 226 226 1.000000
-0.031678 0.259915 -0.233982 0.000000 1.000000 0.000000 158 158 158 1.000000
-0.069695 0.027288 0.317412 -0.861750 -0.458671 0.216813 179 179 179 1.000000
-0.031959 0.149008 -0.366794 0.000000 -0.894934 -0.446198 210 210 210 1.000000
-0.019641 0.322612 -0.158736 0.854807 -0.471241 0.217341 173 173 173 1.000000
-0.066556 -0.025649 0.008986 -0.816096 0.522484 -0.246977 226 226 226 1.000000
0.058145 0.269720 0.627541 0.790765 0.553407 -0.261594 206 206 206 1.000000
0.073931 0.288847 0.788002 0.998817 -0.043969 0.020784 213 213 213 1.000000
0.049551 0.215948 0.756769 -0.683963 0.659544 -0.311764 239 239 239 1.000000
0.029151 -0.186869 -0.178561 0.189469 0.000000 0.981887 175 175 175 1.000000
0.073820 0.251954 0.695094 -0.999435 -0.030396 0.014368 215 215 215 1.000000
-0.021110 0.061624 0.122810 0.215168 -0.882906 0.417348 225 225 225 1.000000
0.117367 -0.390095 -0.245878 0.897307 0.000000 0.441407 215 215 215 1.000000
-0.074068 0.322908 0.778081 -0.914768 0.365232 -0.172644 219 219 219 1.000000
0.045251 0.135445 0.313471 0.626436 0.704708 -0.333114 205 205 205 1.000000
-0.074837 0.311044 0.756233 -0.922808 0.348307 -0.164644 219 219 219 1.000000
0.020054 -0.438203 -0.424408 0.116649 0.000000 -0.993173 186 186 186 1.000000
0.073997 -0.061763 0.058280 -0.993449 0.103319 -0.048838 227 227 227 1.000000
-0.069962 0.338528 0.793786 -0.865073 0.453530 -0.214382 223 223 223 1.000000
0.130253 -0.236767 -0.295374 0.999025 0.000000 0.044153 207 207 207 1.000000
-0.034589 0.238424 -0.419222 0.321193 0.000000 0.947014 215 215 215 1.000000
-0.059769 -0.044224 -0.048176 -0.746307 0.601759 -0.284450 235 235 235 1.000000
0.096520 -0.024324 -0.386609 0.727793 0.000000 -0.685797 176 176 176 1.000000
0.013819 -0.133356 -0.176543 0.066384 0.000000 0.997794 183 183 183 1.000000
-0.049902 0.259915 -0.263864 0.000000 1.000000 0.000000 156 156 156 1.000000
-0.031345 -0.223949 -0.136069 -0.356321 -0.844742 0.399308 192 192 192 1.000000
0.002738 0.095434 0.189348 -0.077310 -0.901377 0.426079 213 213 213 1.000000
0.043649 0.332639 -0.071292 -0.962532 0.246240 -0.113569 225 225 225 1.000000
0.114040 -0.434626 -0.237995 0.865156 0.000000 0.501504 239 239 239 1.000000
0.066748 -0.029993 0.026989 -0.903478 -0.387520 0.183180 198 198 198 1.000000
-0.113665 -0.182334 -0.338051 -0.954682 0.000000 -0.297628 197 197 197 1.000000
-0.048782 0.332403 0.901767 0.000000 0.930418 0.366501 236 236 236 1.000000
0.016717 -0.497696 -0.245700 0.000000 -1.000000 0.000000 169 169 169 1.000000
-0.070187 0.084337 0.256991 -0.868078 0.448811 -0.212152 223 223 223 1.000000
0.014255 0.320582 -0.203122 -0.117628 -0.901768 0.415905 151 151 151 1.000000
-0.072455 0.053928 0.202237 -0.896571 0.400419 -0.189277 219 219 219 1.000000
-0.025581 -0.347920 -0.179551 0.248496 0.000000 -0.968633 170 170 170 1.000000
-0.102224 -0.057142 -0.364719 0.860399 0.000000 0.509622 219 219 219 1.000000
0.064739 0.257220 0.882309 -0.949407 -0.136513 -0.282826 235 235 235 1.000000
-0.062285 0.009762 0.306209 -0.760714 -0.586828 0.277393 183 183 183 1.000000
0.072834 -0.184978 -0.191459 -0.984498 0.158573 -0.074957 225 225 225 1.000000
-0.118397 0.068823 -0.312194 0.995864 0.000000 0.090858 175 175 175 1.000000
-0.109306 -0.127602 -0.348573 -0.923557 0.000000 -0.383461 202 202 202 1.000000
-0.080174 -0.027641 0.135039 0.990216 0.126157 -0.059633 189 189 189 1.000000
0.085121 -0.497696 -0.348967 0.000000 -1.000000 0.000000 215 215 215 1.000000
0.020816 -0.497696 -0.423463 0.000000 -1.000000 0.000000 239 239 239 1.000000
-0.048730 -0.073250 0.160477 0.585658 0.732811 -0.346399 186 186 186 1.000000
-0.056170 0.259915 -0.206401 0.000000 1.000000 0.000000 172 172 172 1.000000
-0.077789 -0.023191 0.072879 -0.966651 0.231532 -0.109445 210 210 210 1.000000
-0.114412 -0.495417 -0.265526 -0.959197 0.000000 0.282738 158 158 158 1.000000
-0.068096 0.265410 0.631230 0.839031 -0.491896 0.232518 226 226 226 1.000000
0.053066 -0.063427 -0.185963 -0.382114 0.000000 -0.924115 202 202 202 1.000000
0.072093 0.180533 0.588741 0.976776 -0.193713 0.091568 226 226 226 1.000000
-0.027433 0.259915 -0.408090 0.000000 1.000000 0.000000 228 228 228 1.000000
-0.023752 -0.497696 -0.375309 0.000000 -1.000000 0.000000 225 225 225 1.000000
0.086958 -0.443671 -0.395168 -0.653552 0.000000 0.756881 165 165 165 1.000000
-0.080297 -0.142868 -0.125178 0.998780 0.044647 -0.021104 192 192 192 1.000000
0.019351 -0.045488 -0.100838 -0.292711 -0.864484 0.408640 207 207 207 1.000000
0.041278 -0.135853 -0.181081 0.285808 0.000000 0.958287 210 210 210 1.000000
0.031791 -0.132604 0.048837 -0.445420 0.809445 -0.382623 226 226 226 1.000000
0.126952 -0.041482 -0.331473 0.969697 0.000000 -0.244311 194 194 194 1.000000
-0.080299 0.102705 0.362781 0.992206 -0.112655 0.053251 202 202 202 1.000000
-0.008673 0.120172 -0.308958 0.000000 -0.894934 -0.446198 199 199 199 1.000000
0.062480 0.287153 0.681299 -0.852458 -0.472651 0.223421 202 202 202 1.000000
0.099276 0.022995 -0.383018 -0.752102 0.000000 0.659046 174 174 174 1.000000
0.034717 0.156361 -0.178963 0.222339 0.000000 0.974969 173 173 173 1.000000
-0.047507 -0.016766 0.281556 0.571040 0.742182 -0.350828 186 186 186 1.000000
0.046100 -0.061085 0.179068 -0.635905 0.697741 -0.329820 240 240 240 1.000000
0.028971 0.344472 0.732397 -0.416673 -0.821862 0.388493 205 205 205 1.000000
0.130385 0.259915 -0.294338 0.000000 1.000000 0.000000 165 165 165 1.000000
-0.112514 -0.400087 -0.260943 0.947255 0.000000 -0.320481 157 157 157 1.000000
0.034662 -0.347258 -0.422485 -0.232857 0.000000 0.972511 181 181 181 1.000000
-0.038496 0.049108 0.432599 -0.456914 -0.804191 0.380140 179 179 179 1.000000
0.060439 0.237864 0.774643 0.821889 -0.515008 0.243443 233 233 233 1.000000
-0.058037 -0.424173 -0.192924 0.507477 0.000000 -0.861665 158 158 158 1.000000
0.028145 0.006543 0.016431 -0.393878 -0.830999 0.392812 207 207 207 1.000000
-0.117072 0.126398 -0.321445 0.000000 -0.894934 -0.446198 239 239 239 1.000000
-0.045624 0.050155 0.123349 0.549137 -0.755571 0.357157 238 238 238 1.000000
-0.056071 0.276350 0.884222 -0.685018 -0.658648 0.311342 179 179 179 1.000000
0.073896 -0.019407 0.131180 -0.999744 0.020466 -0.009674 213 213 213 1.000000
0.028280 0.138031 0.294771 -0.395149 -0.830506 0.392578 206 206 206 1.000000
0.031634 -0.215720 -0.126774 0.443621 -0.810252 0.383004 228 228 228 1.000000
-0.080223 -0.078425 0.020982 -0.994629 -0.093579 0.044234 192 192 192 1.000000
0.059968 -0.112104 -0.173115 0.817784 0.520322 -0.245955 203 203 203 1.000000
-0.070886 0.256327 0.797311 0.876562 0.435124 -0.205682 183 183 183 1.000000
-0.067151 -0.263348 -0.199917 0.584307 0.000000 -0.811533 157 157 157 1.000000
-0.046908 -0.039310 -0.064109 0.565234 -0.745805 0.352540 238 238 238 1.000000
0.064641 -0.192752 -0.154075 -0.847921 0.479275 -0.226552 235 235 235 1.000000
0.029901 0.119431 -0.231308 0.000000 -1.000000 0.000000 159 159 159 1.000000
0.003509 0.095805 0.550992 0.067834 -0.902000 0.426373 192 192 192 1.000000
-0.024690 0.305571 -0.148082 0.998573 0.048488 -0.022363 183 183 183 1.000000
