ply
format ascii 1.0
element vertex 1284
property float x
property float y
property float z
property uchar red
property uchar green
property uchar blue
end_header
-0.385898 0.069250 0.118405 0 255 0
-0.585883 0.069250 -0.218207 255 0 0
0.085480 0.069250 0.173039 0 255 0
-0.667821 0.042306 -0.252931 255 0 0
-0.593348 0.106009 -0.225501 76 0 153
-0.622660 0.060841 -0.099304 255 0 0
0.394238 -0.022051 0.325976 255 0 0
0.047657 -0.042061 -0.373447 0 255 0
0.508483 0.099128 -0.171988 127 127 0
0.300563 0.069250 0.035024 0 255 0
0.526360 -0.022122 0.004427 0 127 127
-0.160938 0.095506 -0.010990 0 127 127
-0.079695 0.079753 0.043812 0 255 0
0.141131 0.106009 -0.000346 0 127 127
0.451738 0.106009 -0.245414 127 127 0
0.617813 -0.198513 -0.381242 0 0 255
0.285714 0.107059 0.031921 0 127 127
-0.646280 0.107059 0.347982 153 0 76
0.663898 -0.045278 0.064549 255 0 0
-0.677329 -0.139654 -0.310072 255 0 0
0.646495 0.069250 0.277479 255 0 0
-0.602705 0.032360 0.175434 153 76 0
-0.243896 0.069250 0.244049 0 255 0
0.353439 -0.008926 0.145155 0 127 127
-0.425954 0.039376 0.349081 153 0 76
-0.338395 -0.008926 -0.059940 153 0 76
0.306206 0.079753 -0.150152 0 255 0
-0.043888 0.106009 -0.119405 0 127 127
0.640793 0.020041 0.207350 255 0 0
-0.224187 0.069250 -0.077029 0 255 0
0.640793 0.037383 0.007815 255 0 0
-0.691062 -0.347329 0.322511 0 255 0
-0.380424 0.106009 0.360366 153 0 76
-0.653725 -0.074035 -0.309426 255 0 0
-0.129379 0.107059 0.158839 127 127 0
-0.528479 -0.008926 -0.119327 153 0 76
-0.160392 0.069250 0.031387 0 255 0
0.038072 -0.009519 -0.198123 127 0 127
-0.588177 0.079753 -0.257207 0 255 0
0.005922 0.005564 0.325976 255 0 0
-0.680565 -0.664560 0.291371 0 255 0
-0.699913 0.103584 -0.218842 204 51 127
0.266146 -0.008926 -0.023766 0 127 127
-0.001961 -0.001692 0.256459 127 127 0
0.362620 0.069250 -0.099201 0 255 0
0.628357 -0.408456 -0.316713 0 0 255
-0.128057 0.069250 -0.135305 0 255 0
-0.045021 0.038278 -0.141598 76 0 153
-0.043252 0.069250 -0.259340 0 255 0
-0.638666 0.095506 0.244902 76 0 153
-0.145195 0.046145 0.218734 0 255 0
-0.071450 -0.022122 -0.336576 76 0 153
-0.696177 0.019703 -0.346464 255 0 0
-0.532663 0.107059 0.153825 127 127 0
-0.027335 -0.022122 -0.091863 76 0 153
0.596869 -0.093539 -0.354793 0 0 255
-0.398302 0.069250 -0.177502 0 255 0
-0.073797 -0.006864 -0.179195 76 0 153
0.134649 0.107059 -0.045428 0 127 127
-0.694360 -0.196573 0.326315 0 255 0
0.259004 -0.022122 -0.335246 76 0 153
-0.279753 0.107059 0.007693 0 127 127
0.702331 0.069250 0.255509 76 0 153
-0.623978 -0.173738 0.336934 0 255 0
-0.548811 -0.017442 0.349081 153 0 76
0.595632 0.010082 0.104115 0 255 0
-0.403994 -0.008926 0.319843 153 0 76
0.582203 -0.045831 -0.377693 0 255 0
0.657680 0.106009 -0.121721 76 153 0
-0.141300 -0.017356 -0.163162 153 0 76
-0.293158 -0.008926 0.073043 153 0 76
-0.569368 -0.008926 0.286489 153 0 76
-0.667821 0.062605 -0.070537 127 127 0
0.489025 -0.022122 -0.343341 76 0 153
-0.499746 0.069250 -0.407558 0 0 255
-0.654479 -0.045227 -0.111648 0 0 255
-0.599800 0.046145 -0.306212 255 0 0
0.445040 0.046145 0.304967 0 255 0
-0.223051 0.069250 -0.350811 0 0 255
0.151586 0.106009 -0.392201 0 0 255
0.324719 0.106009 -0.365875 153 76 0
0.274284 0.079753 -0.295984 0 255 0
-0.690926 0.030894 0.121850 127 127 0
-0.490377 0.069250 -0.342122 0 0 255
0.313924 0.106009 -0.248939 127 127 0
-0.105603 0.107059 -0.026200 0 127 127
-0.047430 0.047705 0.352232 0 255 0
-0.510704 -0.022122 0.278037 153 0 76
0.627816 -0.111280 0.282844 204 51 127
0.002960 0.095506 -0.318431 153 76 0
-0.546931 0.107059 0.081137 127 127 0
-0.622660 0.027022 -0.377082 0 255 0
0.642641 0.106009 -0.245676 76 153 0
0.012537 -0.015820 -0.002510 127 127 0
-0.508664 0.085322 0.341729 153 0 76
0.575715 -0.045227 -0.045613 153 0 76
-0.394373 0.079753 -0.036820 0 255 0
-0.566194 -0.008926 0.061780 153 0 76
-0.284436 0.069250 -0.219392 0 255 0
0.627814 -0.073560 0.352232 204 51 127
-0.001961 -0.005594 -0.277878 0 127 127
-0.344507 -0.022122 0.074126 153 0 76
-0.633800 -0.622739 0.313687 0 255 0
0.080589 0.106009 0.348952 153 0 76
-0.216661 0.079753 -0.008442 0 255 0
0.356411 0.095506 -0.354196 0 255 0
-0.658935 -0.530788 0.288299 0 255 0
0.123972 0.106009 -0.149679 0 127 127
-0.162643 0.107059 0.262021 153 0 76
-0.624777 0.079753 0.060126 0 255 0
0.584310 0.002459 -0.354587 0 255 0
0.376634 -0.008926 0.175240 0 127 127
0.585077 0.107059 0.155434 76 0 153
-0.143186 -0.022122 -0.088274 153 0 76
-0.639349 -0.045227 0.182556 0 0 255
-0.477203 0.004498 -0.377693 0 255 0
0.643554 0.032629 -0.309426 0 0 255
0.600718 0.032491 -0.243556 153 0 76
-0.695895 0.069250 0.214733 204 51 127
0.298171 0.106009 0.314964 153 0 76
-0.567495 0.096557 0.135179 127 127 0
-0.154098 0.095506 -0.251171 0 255 0
-0.426145 0.069250 -0.342739 0 0 255
-0.601402 0.069250 0.189916 255 0 0
0.554540 -0.033674 -0.351421 76 0 153
-0.646813 0.032491 0.242813 255 0 0
0.615644 0.069250 0.163982 153 0 76
-0.409087 0.079753 0.180035 0 255 0
0.438815 0.031888 -0.354587 0 255 0
0.065918 0.079753 0.322725 0 255 0
-0.247395 0.107059 0.135663 0 127 127
0.666368 0.074147 0.219304 0 255 0
-0.449046 0.079753 0.037500 0 255 0
0.061076 0.079753 -0.071558 0 255 0
0.441513 0.096557 0.150454 127 127 0
0.640793 -0.005406 0.015427 255 0 0
-0.041250 0.069250 -0.403349 0 0 255
0.461828 0.069250 -0.374230 0 255 0
-0.385684 0.043158 -0.354587 0 255 0
0.489276 0.107059 0.360158 153 0 76
-0.038881 0.096557 0.199095 127 127 0
0.444090 0.019939 0.349081 255 0 0
-0.033607 0.079753 0.154240 0 255 0
-0.115740 0.079753 -0.335592 0 255 0
-0.252506 -0.022122 0.030595 153 0 76
-0.001961 0.021995 0.002396 127 127 0
-0.690926 0.034836 -0.298682 127 127 0
0.002980 0.069250 -0.236139 204 51 127
-0.012530 0.069250 -0.140429 204 51 127
0.192038 0.069475 -0.419691 0 0 255
-0.474124 -0.047044 -0.377693 0 255 0
-0.696177 -0.019858 -0.348876 255 0 0
-0.622660 0.042008 0.295891 0 255 0
-0.690926 0.026523 0.066226 127 127 0
0.640793 0.035566 -0.242164 153 0 76
0.130690 -0.022122 0.200876 0 127 127
0.377409 -0.040919 -0.354587 76 0 153
0.616936 0.032491 0.168458 153 0 76
-0.087311 -0.022122 -0.042104 153 0 76
-0.653309 -0.578796 -0.373630 255 0 0
0.015119 -0.045227 0.339265 153 0 76
-0.664020 -0.104366 -0.376891 255 0 0
-0.143768 -0.045227 -0.328475 76 0 153
-0.650277 -0.472363 0.286957 0 255 0
-0.707673 0.100102 0.014533 204 51 127
0.655866 0.088467 -0.049381 76 0 153
0.351331 0.069250 -0.399435 0 0 255
0.261317 0.106009 -0.356092 153 76 0
0.280498 -0.045227 0.334428 153 0 76
-0.603469 0.046145 -0.237466 255 0 0
0.549459 0.069250 0.269799 0 255 0
0.202134 -0.045227 0.260848 153 0 76
-0.274443 -0.045227 0.230165 153 0 76
-0.468668 -0.008926 0.024453 153 0 76
-0.591033 0.069250 -0.382632 0 255 0
0.311740 0.069250 0.112295 0 255 0
0.360250 0.079753 -0.227628 0 255 0
0.199135 0.079753 -0.047272 0 255 0
0.239693 -0.022122 -0.115216 0 127 127
0.255037 0.046145 -0.331922 0 0 255
-0.301108 0.069250 -0.274314 0 255 0
-0.544268 0.069250 0.090878 0 255 0
-0.649340 0.107059 -0.036135 204 51 127
0.083748 0.095506 0.209629 0 255 0
0.663898 0.046544 0.078067 255 0 0
0.017355 0.106009 -0.136559 0 127 127
-0.314945 -0.029893 -0.377693 0 255 0
0.567155 -0.008926 -0.100350 0 127 127
-0.161407 0.106009 -0.346828 153 76 0
-0.555643 0.069250 0.388571 153 0 76
-0.219869 0.107059 0.156957 127 127 0
-0.649592 -0.105866 0.346549 0 255 0
-0.658636 0.069250 0.246900 255 0 0
-0.454573 0.079753 0.101186 0 255 0
-0.264894 0.021966 -0.179195 76 0 153
-0.602705 0.000131 0.228777 153 76 0
-0.151839 0.069250 0.090815 0 255 0
-0.690926 0.051651 -0.182148 127 127 0
0.481854 0.046145 -0.310621 0 0 255
0.176129 -0.008926 -0.012733 0 127 127
-0.417052 0.107059 0.295989 153 0 76
0.548280 0.106009 0.351403 153 0 76
0.204178 0.046145 0.274194 0 255 0
-0.001961 0.028403 -0.056297 127 127 0
-0.369396 0.106009 -0.184366 127 127 0
-0.533158 0.079753 -0.375873 0 0 255
0.386629 0.079753 0.282975 0 255 0
0.397792 0.069250 0.242166 0 255 0
-0.157555 0.077702 0.352232 153 0 76
0.526014 0.079753 0.323848 0 255 0
0.226948 0.095506 -0.320851 153 76 0
0.568344 0.046145 -0.254886 153 0 76
-0.629086 -0.008468 0.070757 0 0 255
0.457284 0.069250 0.282058 0 255 0
-0.544153 -0.016897 -0.354587 0 255 0
-0.328604 0.069250 0.338581 0 255 0
0.069282 0.101282 0.142182 0 127 127
-0.578422 -0.045227 -0.189700 76 153 0
0.644869 -0.170918 0.350983 204 51 127
0.622956 0.106009 -0.127386 76 153 0
-0.625212 0.095506 -0.216629 0 255 0
-0.417329 -0.022122 0.200051 153 0 76
-0.345162 0.106009 -0.278533 153 76 0
0.066121 0.046145 0.248292 0 255 0
0.628485 -0.372605 -0.315828 0 0 255
-0.499144 0.095506 -0.166721 127 127 0
0.420794 0.086464 -0.415269 0 0 255
0.655866 0.088516 0.247113 0 255 0
-0.043054 -0.009519 -0.166485 76 0 153
-0.406507 0.106009 -0.219871 127 127 0
0.645879 -0.461929 -0.375969 0 0 255
0.600698 0.069250 0.378040 153 0 76
0.488841 -0.077894 -0.354587 0 255 0
-0.541037 0.069250 -0.293585 0 255 0
0.312337 -0.008926 -0.038395 0 127 127
-0.642522 0.069250 -0.187008 255 0 0
-0.208883 -0.008926 0.196851 153 0 76
0.631707 -0.045227 0.222085 204 51 127
0.236990 -0.008926 0.154706 0 127 127
0.492012 0.069250 0.055966 0 255 0
0.144525 0.069250 0.007490 0 255 0
-0.287979 0.069250 -0.186829 0 255 0
-0.048614 0.107059 0.098050 0 127 127
-0.035640 0.079753 -0.225188 0 255 0
-0.190213 0.069250 0.149720 0 255 0
-0.321034 0.079753 -0.034233 0 255 0
0.043002 0.079753 -0.320783 0 255 0
-0.331163 0.069250 0.291431 0 255 0
-0.602705 0.016637 0.074584 153 76 0
0.369180 -0.008926 0.041406 0 127 127
-0.712067 0.097035 0.374632 204 51 127
-0.446370 -0.008926 0.281038 153 0 76
0.115328 0.069250 -0.406320 0 0 255
-0.687596 -0.505787 0.329249 0 255 0
0.529238 0.106009 0.302431 153 0 76
-0.209454 0.095506 0.263903 0 255 0
0.235186 -0.045227 0.322560 153 0 76
-0.717237 0.091791 -0.296718 204 51 127
-0.375773 0.107059 -0.107594 0 127 127
-0.656751 -0.095377 0.281800 0 255 0
-0.388895 0.079753 0.258927 0 255 0
0.223624 0.069250 0.035030 0 255 0
0.195616 -0.008926 0.315396 0 127 127
-0.421615 0.079753 -0.104814 0 255 0
0.060140 0.053929 -0.377693 0 255 0
0.621035 -0.152080 0.279600 204 51 127
-0.622660 0.029692 -0.048282 153 76 0
0.031510 0.106009 -0.200027 127 127 0
-0.691849 -0.096764 -0.360482 255 0 0
0.694689 0.069250 -0.208341 76 0 153
-0.280586 0.079753 -0.115728 0 255 0
0.663898 0.055515 0.182512 255 0 0
0.640793 0.041958 -0.067999 255 0 0
0.242908 0.106009 0.317291 153 0 76
0.017994 0.020747 0.167347 127 127 0
-0.208720 -0.045227 0.340457 153 0 76
0.598971 0.050845 0.278714 204 51 127
0.010604 -0.015820 0.284394 127 127 0
0.410962 0.046145 -0.198306 127 0 127
-0.602705 0.008467 -0.028748 153 76 0
0.089427 -0.012188 -0.167515 0 127 127
-0.688456 0.069689 0.105463 0 255 0
0.450778 0.106009 -0.204411 127 127 0
0.038999 -0.032828 0.107474 0 127 127
0.401811 -0.022122 0.241071 153 0 76
0.650807 -0.708987 0.339278 204 51 127
0.333235 -0.008926 0.261128 0 127 127
-0.667821 -0.042811 -0.048315 0 0 255
0.607156 -0.008468 -0.221170 204 51 127
-0.609560 0.046145 0.112814 255 0 0
0.610402 -0.045227 0.261439 204 51 127
0.538853 0.106009 -0.260381 127 127 0
0.640793 0.002709 -0.030136 255 0 0
-0.336693 0.024663 -0.354587 0 255 0
-0.583105 0.075652 0.352232 0 255 0
0.563882 -0.045227 -0.289095 153 0 76
-0.026334 -0.022122 0.191429 0 127 127
-0.045021 0.015715 0.271929 76 0 153
-0.081621 0.046145 0.225662 0 255 0
-0.033572 -0.022122 0.109190 76 0 153
0.663898 -0.008485 -0.263697 255 0 0
-0.690926 0.030424 0.221377 127 127 0
-0.690926 0.039077 -0.113244 127 127 0
0.694968 0.092005 -0.277185 76 0 153
-0.001961 -0.010264 -0.049469 0 127 127
0.379225 0.069250 0.010409 0 255 0
0.666368 0.071764 0.150411 76 0 153
0.650181 0.106009 0.307799 153 0 76
-0.053630 0.107059 -0.050243 0 127 127
-0.280934 0.069250 -0.344477 0 0 255
-0.071453 0.069250 0.145766 0 255 0
0.107430 0.069250 -0.086765 0 255 0
-0.401522 0.095506 -0.005769 0 255 0
-0.282364 -0.045227 0.278872 153 0 76
-0.503364 0.095506 0.280026 0 255 0
-0.384059 0.095506 -0.313157 0 255 0
-0.256859 -0.008926 0.211341 153 0 76
0.620313 -0.022798 -0.360889 0 255 0
-0.379044 0.104715 -0.248410 127 127 0
-0.457632 -0.009519 -0.192127 76 0 153
-0.291953 0.100092 -0.172894 0 127 127
0.461551 0.107059 0.305743 153 0 76
-0.385088 0.069250 -0.401543 0 0 255
-0.017355 0.106009 -0.280936 153 76 0
-0.608996 0.107059 -0.151164 204 51 127
-0.001961 0.007709 -0.111356 127 127 0
-0.622660 -0.014456 0.147345 0 0 255
0.664265 -0.336787 0.342336 204 51 127
0.391883 0.005527 -0.354587 0 255 0
-0.498074 0.106383 -0.393447 0 0 255
0.221324 -0.022122 0.037392 0 127 127
0.430858 0.079753 0.242201 0 255 0
-0.483657 0.105340 0.115987 127 127 0
-0.068781 0.107059 0.224441 127 127 0
-0.468635 0.095506 -0.050478 0 255 0
0.355615 0.100069 0.371503 153 0 76
-0.669544 -0.278981 0.282515 0 255 0
-0.049694 -0.045227 0.330456 153 0 76
-0.020687 -0.045227 -0.250634 0 127 127
0.087260 0.107059 0.269811 153 0 76
-0.668449 -0.260783 -0.313065 255 0 0
0.488166 0.048350 0.215699 0 255 0
-0.034148 -0.022122 0.282956 153 0 76
0.145960 0.107059 0.347759 153 0 76
0.077958 0.069250 0.266673 0 255 0
-0.179502 0.069250 -0.092846 0 255 0
-0.030538 0.046145 0.039589 76 0 153
-0.690926 -0.040112 -0.190210 127 127 0
0.576477 -0.045227 0.324361 153 0 76
0.591725 0.095506 -0.230638 0 255 0
0.543119 -0.040568 -0.112761 153 0 76
0.344879 0.097295 0.142182 0 127 127
0.653008 0.106009 0.116406 76 0 153
-0.653379 0.069250 0.041910 255 0 0
-0.228552 0.095506 0.037028 0 127 127
0.388135 0.107059 -0.021286 0 127 127
-0.310163 -0.017039 0.352232 153 0 76
-0.430315 0.107059 0.192978 127 127 0
0.667502 -0.032920 0.352232 204 51 127
-0.693658 -0.228671 0.314550 0 255 0
0.222537 -0.046872 -0.359692 0 255 0
-0.591476 -0.018984 0.198056 153 0 76
0.640793 -0.008808 0.221123 255 0 0
0.140468 0.079753 -0.060379 0 255 0
0.409945 0.095506 0.030695 0 127 127
-0.241200 -0.022122 0.239930 153 0 76
-0.599795 0.069250 0.266025 0 255 0
-0.631671 0.079753 0.143471 0 255 0
-0.690926 -0.011473 0.131519 127 127 0
0.010344 0.104159 0.362734 153 0 76
0.575677 -0.020903 0.150472 0 255 0
-0.343297 -0.008926 0.015697 153 0 76
0.059061 -0.022122 -0.139463 0 127 127
0.286182 -0.008926 0.027643 0 127 127
0.058176 0.079753 -0.241851 0 255 0
-0.250633 0.079753 -0.125755 0 255 0
0.153259 -0.019434 -0.158912 0 127 127
0.525240 -0.022122 -0.349025 76 0 153
-0.065172 0.106009 -0.144737 0 127 127
-0.226245 0.096557 0.198573 127 127 0
0.332546 0.069250 0.298382 0 255 0
-0.075684 0.027741 0.325976 153 0 76
-0.129143 0.079753 -0.100185 0 255 0
-0.667821 -0.086385 -0.282008 127 127 0
0.661236 0.006949 0.352232 204 51 127
0.663898 0.044998 0.113401 255 0 0
0.313781 -0.022122 -0.331004 76 0 153
0.641135 0.095506 -0.188518 76 153 0
-0.206996 -0.022122 -0.341868 76 0 153
-0.629850 -0.442171 -0.350412 255 0 0
0.584512 0.069250 0.337007 0 255 0
0.504439 0.069250 0.137186 0 255 0
-0.484039 0.079753 -0.211583 0 255 0
-0.059102 -0.045227 -0.270724 0 127 127
-0.236063 0.095506 -0.262714 127 127 0
-0.567872 0.106009 -0.163084 127 127 0
-0.228267 0.069250 -0.245305 0 255 0
0.529386 0.054404 0.352232 0 255 0
-0.593699 -0.018016 -0.081941 153 0 76
-0.583709 -0.045227 0.068790 76 153 0
0.086176 0.079753 0.081374 0 255 0
0.560673 0.069250 0.028486 153 0 76
0.228705 0.030817 0.325976 255 0 0
-0.416554 -0.045227 -0.331231 76 0 153
-0.683897 -0.592910 0.289726 0 255 0
-0.508431 0.069250 0.118817 0 255 0
-0.089638 0.095506 -0.230927 127 127 0
0.012358 0.107059 -0.018503 0 127 127
-0.336888 0.004657 0.349081 153 0 76
-0.226547 0.095506 -0.317475 153 76 0
0.202519 0.107059 -0.388721 0 0 255
0.007684 0.095506 0.070401 0 255 0
0.096444 -0.008926 0.042716 0 127 127
0.408706 0.095506 -0.345381 153 76 0
0.178182 0.069250 -0.101935 0 255 0
0.155964 0.069250 0.240077 0 255 0
-0.303463 0.035830 -0.377693 0 255 0
0.238128 0.107059 0.200471 127 127 0
-0.066026 0.049137 -0.000292 204 51 127
-0.622660 -0.031269 0.287795 0 255 0
-0.178096 -0.030645 -0.377693 0 255 0
0.540565 0.069250 0.236191 0 255 0
-0.356042 0.079753 -0.216376 0 255 0
0.640793 0.064221 0.089748 255 0 0
0.023170 -0.022122 -0.286713 0 127 127
-0.690926 -0.059647 0.251741 127 127 0
-0.118589 -0.022122 -0.141883 153 0 76
-0.622660 -0.015664 -0.359036 255 0 0
-0.106190 0.042338 -0.199150 76 0 153
-0.616048 0.046145 -0.183636 255 0 0
-0.412840 -0.008926 -0.082054 153 0 76
-0.692290 0.069250 -0.147188 204 51 127
-0.713894 0.095393 0.250638 204 51 127
0.640793 0.005057 -0.118590 255 0 0
0.456884 0.069250 0.160953 0 255 0
-0.040998 0.107059 0.320199 153 0 76
0.437903 0.069250 -0.010619 0 255 0
-0.048297 -0.045227 -0.034295 0 127 127
-0.325174 0.106009 -0.105007 0 127 127
-0.650847 0.107059 0.095722 204 51 127
0.272523 0.069250 -0.027909 0 255 0
-0.058107 -0.022122 -0.218082 0 127 127
0.482273 0.011035 -0.354587 0 255 0
-0.690926 0.035195 -0.154566 127 127 0
0.177110 0.022755 0.325976 255 0 0
0.225694 0.019074 -0.377693 0 255 0
-0.001961 0.032233 0.123980 127 127 0
-0.667685 -0.216084 -0.380890 255 0 0
0.546301 -0.022122 0.083032 0 127 127
0.059073 -0.022122 0.236186 153 0 76
-0.370641 0.079753 -0.009939 0 255 0
-0.545807 0.079753 -0.117274 0 255 0
0.157414 -0.038752 0.215699 153 0 76
-0.445911 0.079753 0.193781 0 255 0
0.589424 -0.022122 0.190950 153 0 76
-0.210736 -0.008926 0.144782 153 0 76
-0.264910 0.107059 -0.086795 0 127 127
-0.133091 0.107059 0.121781 0 127 127
-0.139294 0.107059 0.207908 127 127 0
-0.464240 0.106009 -0.308747 153 76 0
0.124502 0.079753 -0.295060 0 255 0
0.384042 0.069250 -0.336442 0 255 0
-0.691622 0.106009 0.230473 204 51 127
0.584788 0.106009 0.302878 153 0 76
-0.551903 -0.045227 0.327356 153 0 76
-0.147820 -0.015820 0.330029 153 0 76
0.038999 -0.033298 -0.103754 0 127 127
0.497556 0.000644 0.325976 255 0 0
-0.575140 0.107059 0.359460 153 0 76
0.649741 -0.593272 0.341795 204 51 127
-0.667821 0.021455 0.147762 127 127 0
0.488501 0.099826 -0.402617 0 0 255
0.639090 -0.045227 -0.218466 204 51 127
-0.427631 0.069250 0.320139 0 255 0
0.552858 0.069250 0.337777 0 255 0
-0.657876 -0.457623 0.344746 0 255 0
-0.271498 0.069250 -0.286433 0 255 0
-0.049049 0.084608 0.385537 153 0 76
0.108515 0.095506 -0.103290 0 255 0
-0.510735 0.069250 0.079339 0 255 0
-0.622660 -0.048830 -0.355058 255 0 0
-0.354320 0.107059 -0.002778 0 127 127
0.159737 0.046145 0.293302 0 255 0
0.327862 -0.013856 0.336478 255 0 0
-0.045714 0.046145 0.289539 0 255 0
-0.646145 -0.045227 -0.290719 0 0 255
0.575677 0.009171 0.248239 0 255 0
0.606575 -0.613769 0.321841 204 51 127
0.020598 -0.014161 0.212103 0 127 127
-0.602705 0.041612 0.008925 153 76 0
0.182437 -0.022122 0.111681 0 127 127
0.049318 0.079753 0.186042 0 255 0
0.267315 0.020357 -0.179195 127 0 127
-0.238669 0.069250 0.187977 0 255 0
-0.029599 -0.022122 -0.231479 0 127 127
0.490773 -0.008926 0.043199 0 127 127
0.402770 -0.022122 -0.068809 0 127 127
0.581815 -0.009519 -0.007131 0 255 0
-0.571307 0.095506 -0.083810 127 127 0
0.611743 -0.590528 0.289671 204 51 127
-0.409607 0.078196 -0.382944 0 0 255
0.044265 0.095506 0.301256 153 0 76
0.624091 -0.093539 -0.311527 0 0 255
-0.255204 0.053292 -0.377693 0 255 0
-0.463473 0.106009 -0.374861 0 0 255
0.443897 -0.022122 -0.054005 0 127 127
-0.651467 -0.718438 -0.340012 255 0 0
0.024970 0.069250 0.264193 0 255 0
-0.653116 -0.323105 -0.314605 255 0 0
-0.602705 0.030542 -0.119569 153 76 0
0.571028 -0.045227 -0.225105 153 0 76
-0.330590 0.069250 -0.417164 0 0 255
-0.400798 -0.008926 -0.019087 153 0 76
-0.287056 0.046145 0.252743 0 255 0
-0.491749 0.079753 -0.007165 0 255 0
-0.045021 0.015015 -0.089990 76 0 153
-0.188696 -0.022122 0.257024 153 0 76
-0.031385 0.069250 -0.098145 204 51 127
0.617351 0.032491 -0.293142 153 0 76
-0.724778 0.074531 -0.230339 204 51 127
0.624396 -0.510636 0.343593 204 51 127
-0.570147 -0.040805 -0.067732 76 153 0
-0.686985 -0.425086 -0.376707 255 0 0
-0.164939 0.069250 -0.141842 0 255 0
0.017874 0.069250 0.369705 153 0 76
-0.505727 0.069250 0.154408 0 255 0
-0.667939 -0.480143 -0.375605 255 0 0
0.592929 0.010658 0.325976 255 0 0
0.022572 -0.045227 0.302619 153 0 76
0.146959 0.079753 -0.332486 0 255 0
0.459081 0.079753 -0.336365 0 255 0
0.425161 -0.008926 0.146422 0 127 127
-0.156879 0.095506 -0.218482 127 127 0
-0.011928 0.079753 0.245128 0 255 0
0.649594 -0.056780 0.309539 204 51 127
0.253557 0.069250 -0.257327 0 255 0
0.630130 -0.513528 -0.374937 0 0 255
-0.001961 -0.017459 0.040376 127 127 0
-0.068133 0.106009 -0.085635 0 127 127
0.513009 0.023731 -0.199150 127 0 127
-0.457187 0.069250 -0.403192 0 0 255
0.640793 -0.060457 -0.252790 255 0 0
0.613192 -0.461019 -0.375988 0 0 255
-0.690926 -0.061580 0.219652 127 127 0
0.656912 -0.672915 -0.348578 0 0 255
-0.061217 0.079753 -0.104399 0 255 0
-0.160727 0.103037 -0.396008 0 0 255
0.637332 0.095506 0.336827 0 255 0
0.549406 0.069250 -0.200051 0 255 0
-0.694292 0.069250 0.142387 204 51 127
0.039582 0.079753 -0.213958 0 255 0
0.222316 -0.008926 0.277394 0 127 127
0.061435 0.099707 0.372101 153 0 76
0.014885 0.095506 -0.225615 127 127 0
0.554725 0.079753 0.194510 0 255 0
-0.490736 0.106009 -0.284836 0 0 255
0.403563 0.106009 -0.089858 0 127 127
-0.524191 0.107059 -0.015132 127 127 0
-0.647212 0.095506 -0.007806 0 255 0
0.438117 0.107059 -0.026509 0 127 127
-0.674122 -0.003527 -0.333957 127 127 0
-0.668430 -0.397885 -0.316452 255 0 0
0.477594 0.095506 0.049418 0 255 0
0.649085 -0.578526 -0.320915 0 0 255
-0.667821 -0.040252 0.137592 127 127 0
-0.669699 -0.053389 0.084066 127 127 0
-0.001961 0.018653 0.069514 127 127 0
0.349693 0.095506 0.316086 0 255 0
-0.690926 -0.039685 0.164291 127 127 0
0.118856 -0.016472 0.352232 255 0 0
-0.687035 -0.531434 -0.373024 255 0 0
0.647094 0.009013 -0.344986 0 0 255
0.457674 0.020962 -0.179195 127 0 127
0.352758 0.046145 0.239532 0 255 0
0.551783 -0.045227 0.263982 153 0 76
-0.051530 0.107059 0.017333 0 127 127
-0.322031 0.069250 -0.167836 0 255 0
0.185871 0.079753 0.231744 0 255 0
0.612904 0.069250 -0.387226 0 0 255
0.510602 0.107059 0.053492 127 127 0
0.378579 0.106009 0.140220 0 127 127
-0.145484 -0.022122 -0.057810 153 0 76
0.156327 0.079753 0.074854 0 255 0
-0.439737 0.095506 -0.232723 0 255 0
-0.231684 0.079753 -0.177404 0 255 0
0.079389 0.104757 -0.172894 0 127 127
-0.023434 0.000984 -0.332038 0 127 127
-0.683476 -0.694126 -0.362394 255 0 0
-0.570147 0.065767 -0.192282 255 0 0
-0.157685 0.106009 0.094762 0 127 127
-0.103535 -0.026510 0.352232 153 0 76
0.194858 0.095506 -0.096343 0 127 127
-0.138143 0.046145 -0.329424 0 0 255
-0.127998 0.106009 -0.194894 127 127 0
0.017994 0.007140 0.233753 127 127 0
-0.690926 -0.020684 0.261556 127 127 0
0.135056 -0.022122 0.288460 153 0 76
0.083008 0.107059 0.237818 127 127 0
0.131199 -0.038341 -0.354587 76 0 153
0.130764 0.079753 -0.212262 0 255 0
0.586661 0.079753 0.016537 0 255 0
-0.011356 -0.045227 -0.186001 0 127 127
0.203612 0.107059 0.007595 0 127 127
-0.080071 0.046145 0.298242 0 255 0
0.230205 0.095506 -0.206872 127 127 0
-0.179718 0.095506 0.232397 0 255 0
0.663898 0.032945 -0.199269 255 0 0
0.599388 -0.285201 -0.349140 0 0 255
-0.489656 0.095506 0.194993 0 255 0
0.104384 0.106009 -0.351383 153 76 0
-0.014216 0.069250 0.359648 153 0 76
-0.388244 0.079753 0.310592 0 255 0
0.629958 -0.669343 0.291481 204 51 127
-0.133181 0.079753 0.314149 0 255 0
-0.667821 0.005572 0.215991 127 127 0
0.314242 0.036931 0.349081 255 0 0
0.243278 0.046145 0.219203 0 255 0
-0.274806 -0.008926 0.176084 153 0 76
-0.265383 -0.042243 0.352232 153 0 76
-0.458296 0.102878 0.365762 153 0 76
-0.633420 -0.605375 -0.335348 255 0 0
0.412230 0.020304 -0.179195 127 0 127
-0.260340 -0.008926 -0.095022 153 0 76
-0.383715 -0.022122 -0.098756 153 0 76
-0.712603 0.096622 -0.367400 204 51 127
0.495336 0.079753 0.010799 0 255 0
-0.438358 -0.015820 0.332488 153 0 76
0.578485 0.069250 0.238959 0 255 0
-0.380997 0.106009 -0.346847 0 0 255
-0.098082 -0.022122 0.067025 153 0 76
-0.377976 0.095506 -0.056923 0 255 0
0.529185 -0.048888 -0.377693 0 255 0
0.278649 -0.045227 -0.335972 76 0 153
0.635834 -0.385383 0.346317 204 51 127
-0.602705 -0.022115 0.253101 153 76 0
-0.531951 0.069250 0.229705 0 255 0
0.663898 0.038987 -0.033975 255 0 0
-0.676435 0.069250 -0.357053 0 255 0
0.038517 0.046145 0.141601 204 51 127
0.275169 0.079753 -0.148354 0 255 0
0.076640 0.030887 0.325976 255 0 0
-0.315460 0.095506 0.178971 0 255 0
0.255935 -0.008926 0.246321 0 127 127
-0.130166 -0.008926 0.278018 153 0 76
0.590921 -0.045227 -0.118779 153 0 76
0.330032 0.095506 0.086493 0 127 127
0.032951 0.106009 0.092988 0 127 127
0.159073 -0.022122 -0.061214 0 127 127
-0.275750 0.097328 0.375458 153 0 76
-0.577798 0.095506 0.241099 0 255 0
-0.561883 0.095506 -0.346558 153 76 0
0.529815 0.079753 -0.294340 0 255 0
0.509569 0.078831 -0.418352 0 0 255
0.114197 0.079753 0.048236 0 255 0
-0.533330 0.107059 0.296886 153 0 76
0.624604 -0.008468 0.158211 204 51 127
0.564257 0.079753 -0.033443 0 255 0
-0.093062 -0.008926 0.271300 153 0 76
0.498908 0.095506 -0.209360 127 127 0
-0.289552 0.106009 -0.314903 0 0 255
-0.001961 0.035713 -0.158232 127 127 0
-0.275309 0.095506 0.135468 0 255 0
0.657640 -0.639654 0.335075 204 51 127
-0.198746 0.095506 0.053308 0 255 0
-0.001961 0.026203 0.213947 127 127 0
-0.632713 -0.573053 0.323810 0 255 0
0.640793 0.040447 0.048386 153 0 76
-0.516981 0.095506 -0.247308 0 255 0
-0.010732 0.106009 -0.381258 153 76 0
-0.052722 -0.008926 0.138888 153 0 76
-0.615852 0.079753 -0.002830 0 255 0
0.164407 0.068924 -0.354587 0 0 255
0.562040 0.028283 0.325976 255 0 0
-0.667821 0.021140 -0.133815 127 127 0
0.214590 0.079753 0.184329 0 255 0
-0.657018 -0.041893 -0.360889 255 0 0
-0.040002 -0.008161 0.349081 76 0 153
-0.680176 0.069250 -0.305730 0 255 0
0.669150 -0.067703 -0.338880 0 0 255
0.283241 -0.008926 -0.151609 0 127 127
0.669150 0.013557 -0.369153 0 0 255
0.287160 0.106009 0.358909 153 0 76
0.405820 0.046145 0.323114 0 255 0
0.343992 0.069250 -0.046449 0 255 0
-0.023951 0.107059 -0.082274 0 127 127
-0.512332 0.069250 0.046111 0 255 0
-0.500200 0.069250 0.295849 0 255 0
-0.686577 -0.552370 -0.337880 255 0 0
0.161131 0.106009 0.250829 153 0 76
0.323645 0.069250 -0.275276 0 255 0
0.505766 0.079753 -0.051361 0 255 0
0.623691 -0.040907 -0.309426 0 0 255
0.451875 -0.054378 -0.354587 0 255 0
0.621905 -0.676160 0.339992 204 51 127
-0.247022 0.069250 -0.006198 0 255 0
-0.184038 0.106009 -0.164264 0 127 127
-0.169605 0.107059 0.050137 0 127 127
0.659661 -0.547233 0.315777 204 51 127
-0.172627 -0.034079 -0.309426 76 0 153
0.218214 0.045841 -0.354587 0 255 0
-0.256045 0.095506 0.236037 0 255 0
0.421834 0.078538 0.352232 153 0 76
-0.612674 0.107059 -0.190835 204 51 127
-0.609156 0.057697 -0.349785 255 0 0
0.639546 0.032491 0.234618 153 0 76
-0.149375 0.069250 -0.030129 0 255 0
0.401724 0.107059 -0.311451 0 0 255
0.154467 -0.008926 0.188215 0 127 127
0.437954 0.069250 0.189735 0 255 0
0.048544 0.095506 -0.368289 0 255 0
-0.106884 0.106009 -0.355476 0 0 255
-0.017213 0.106009 -0.191205 127 127 0
0.124798 -0.008926 0.094771 0 127 127
-0.041876 0.046145 0.130772 76 0 153
-0.391161 0.069250 -0.292791 0 255 0
0.363153 0.095506 0.041821 0 255 0
0.480099 0.106009 -0.298115 0 0 255
-0.583516 0.079753 0.318176 0 255 0
0.099003 0.069250 -0.201776 0 255 0
-0.260725 0.095506 0.036706 0 255 0
0.583037 0.046145 -0.087919 0 255 0
-0.696177 0.024785 0.286720 0 255 0
0.585921 0.106009 0.268305 76 0 153
0.486395 0.069250 -0.182472 0 255 0
0.609960 0.032491 -0.139429 153 0 76
-0.330755 0.046145 0.247918 0 255 0
0.404209 0.055868 -0.377693 0 255 0
-0.655192 0.016732 -0.382944 255 0 0
0.152754 -0.045227 0.252160 153 0 76
0.558067 -0.022122 -0.177869 153 0 76
-0.012956 -0.045227 0.040769 0 127 127
-0.330269 -0.008926 0.045941 153 0 76
0.606080 0.079753 -0.180452 0 255 0
-0.667821 -0.025098 0.032705 127 127 0
0.432043 -0.008926 0.289591 0 127 127
-0.266197 -0.022122 -0.332748 76 0 153
-0.314641 0.107059 -0.374779 0 0 255
0.614263 0.079753 -0.031936 0 255 0
-0.640933 -0.008468 -0.189236 0 0 255
-0.629246 -0.177321 0.280180 0 255 0
0.662541 -0.415589 0.306223 204 51 127
-0.630527 -0.473147 0.327422 0 255 0
0.640793 0.035430 -0.139075 255 0 0
-0.690926 -0.009211 0.173353 127 127 0
-0.537123 0.106009 -0.139249 127 127 0
0.604600 -0.150022 0.351437 204 51 127
-0.685355 -0.608227 -0.336792 255 0 0
-0.451188 -0.022122 -0.134607 153 0 76
-0.323529 0.079753 -0.197108 0 255 0
-0.112648 0.069250 0.369173 153 0 76
0.461908 0.106009 -0.101097 127 127 0
0.602030 0.095506 0.120894 0 255 0
0.262625 -0.022122 0.298677 0 127 127
-0.326116 -0.045227 0.282126 153 0 76
-0.478702 0.054724 0.352232 0 255 0
-0.453258 0.079753 0.223890 0 255 0
-0.001961 -0.007625 -0.231942 0 127 127
0.229192 -0.008926 -0.077380 0 127 127
-0.674122 -0.018926 0.319112 127 127 0
-0.322454 0.079753 0.143836 0 255 0
0.610692 -0.008468 0.122635 204 51 127
-0.692868 -0.264750 0.304546 0 255 0
0.599408 -0.008468 0.033265 204 51 127
0.640793 -0.022525 0.115035 255 0 0
-0.238979 0.046145 -0.180564 76 0 153
-0.439977 -0.008926 0.083407 153 0 76
-0.492100 0.098189 0.374331 153 0 76
-0.674122 0.025539 -0.326345 127 127 0
-0.281064 0.095506 -0.232853 0 255 0
0.174703 -0.022122 0.341422 255 0 0
-0.193181 -0.033017 0.215699 153 0 76
-0.218781 0.069250 0.349886 0 255 0
0.522450 0.106009 -0.075038 127 127 0
0.135329 0.079753 -0.182517 0 255 0
-0.022056 -0.008630 -0.377693 0 255 0
-0.033519 0.069250 -0.161374 204 51 127
-0.670457 0.069250 0.293657 0 255 0
-0.210521 0.004667 -0.354587 0 255 0
0.577304 0.106009 -0.339013 153 76 0
-0.098959 0.046145 -0.346035 0 0 255
-0.651853 -0.246419 0.281767 0 255 0
-0.641144 0.095506 -0.092218 0 255 0
0.377866 0.046145 0.295082 0 255 0
-0.014871 -0.037004 -0.309426 76 0 153
-0.410127 0.107059 0.345776 153 0 76
-0.408434 -0.022122 0.230597 153 0 76
0.321259 0.106009 0.126620 0 127 127
0.651073 -0.051935 -0.106544 255 0 0
0.012736 -0.022122 -0.175040 127 127 0
0.684457 0.100784 -0.341338 76 0 153
-0.207673 0.095506 0.088848 0 255 0
-0.319267 0.107059 -0.324595 0 0 255
-0.285943 0.069250 -0.059193 0 255 0
0.362600 -0.001974 -0.354587 0 255 0
0.553083 -0.045227 0.231674 153 0 76
-0.328178 -0.008926 -0.124994 153 0 76
-0.695104 -0.162557 0.309324 0 255 0
-0.690926 0.050883 -0.049069 127 127 0
0.376786 0.046145 -0.317894 0 0 255
0.316685 0.103616 0.363593 153 0 76
-0.113977 0.107059 0.328446 153 0 76
-0.559376 -0.022122 0.261141 153 0 76
0.098129 0.069250 -0.004600 0 255 0
0.187837 0.046145 -0.180769 127 0 127
-0.667821 -0.034743 0.184440 0 0 255
0.595632 0.040533 0.135217 0 255 0
-0.541099 0.079753 -0.157603 0 255 0
-0.093172 0.107059 0.055825 0 127 127
0.511090 0.095506 -0.311979 153 76 0
0.183245 0.106009 -0.160492 0 127 127
0.666368 0.077961 -0.204037 0 255 0
0.680116 0.069250 0.279587 76 0 153
-0.646424 -0.718438 0.320271 0 255 0
0.075309 0.069250 -0.037518 0 255 0
-0.068482 -0.045227 0.243770 153 0 76
0.055842 0.107059 -0.061897 0 127 127
-0.445837 0.107059 -0.161748 0 127 127
-0.626996 -0.008468 -0.239735 0 0 255
0.569913 0.097180 0.375652 153 0 76
0.258952 0.069250 0.092219 0 255 0
-0.424375 0.106009 -0.091857 0 127 127
-0.215367 0.095506 -0.054049 0 127 127
0.095071 0.046145 0.272843 0 255 0
-0.661245 0.106009 -0.189896 204 51 127
0.409617 -0.070445 -0.356282 0 255 0
0.006879 -0.045227 0.248193 153 0 76
-0.025067 0.016739 -0.142566 76 0 153
0.347943 -0.022122 -0.109847 0 127 127
-0.074783 -0.022122 0.201316 153 0 76
-0.642003 0.069250 0.081470 0 255 0
-0.102145 0.043201 -0.377693 0 255 0
0.196755 0.106009 0.091281 0 127 127
0.615182 0.069250 -0.287710 0 255 0
-0.395004 0.046145 0.324905 0 255 0
-0.545924 0.046145 -0.315407 0 0 255
-0.103910 -0.007602 -0.354587 0 255 0
0.273374 0.022784 -0.354587 0 255 0
-0.192960 0.069250 0.082537 0 255 0
0.202158 0.095506 -0.264979 0 255 0
0.036794 0.046145 0.243581 0 255 0
0.500687 -0.008926 -0.005049 0 127 127
0.661227 -0.475677 0.333652 204 51 127
0.344688 0.033277 -0.179195 127 0 127
0.299032 0.069250 -0.341525 0 0 255
0.051048 0.003049 0.325976 255 0 0
-0.201456 0.020899 0.325976 153 0 76
-0.460448 0.095506 -0.010611 0 255 0
0.019681 0.069250 -0.002535 204 51 127
-0.044771 0.107059 -0.390465 0 0 255
0.663898 -0.025177 -0.296982 255 0 0
-0.170169 0.046145 0.255250 0 255 0
-0.461276 0.022680 -0.354587 0 255 0
0.639740 0.095506 0.046020 0 255 0
0.383194 0.095506 0.101181 0 255 0
-0.268754 0.106009 0.271551 153 0 76
-0.690926 0.026725 -0.261893 127 127 0
-0.683805 -0.094687 0.349805 0 255 0
0.238043 0.096557 0.168893 127 127 0
-0.622660 0.062545 -0.154227 255 0 0
0.605174 -0.306177 0.283140 204 51 127
-0.185715 -0.008926 -0.004318 153 0 76
-0.639669 -0.031097 -0.382944 255 0 0
-0.419343 0.095506 0.080561 0 255 0
0.246485 0.079753 0.002794 0 255 0
0.306184 0.079753 -0.202091 0 255 0
-0.655085 0.106009 0.138585 204 51 127
-0.441842 0.106009 -0.327533 153 76 0
0.547768 0.069250 -0.317685 0 255 0
-0.685874 -0.062553 -0.158700 127 127 0
-0.237725 0.106009 -0.028213 0 127 127
-0.668046 0.095506 0.186104 76 0 153
-0.655450 -0.008468 -0.157996 0 0 255
0.300580 -0.022122 0.330108 255 0 0
-0.029506 -0.045227 0.089201 0 127 127
0.663898 -0.076280 0.258996 255 0 0
-0.654868 -0.008468 -0.281651 0 0 255
0.635999 0.107059 -0.017665 76 0 153
-0.475343 0.106009 -0.100749 0 127 127
0.040047 0.079753 0.016043 0 255 0
0.335775 -0.008926 0.078489 0 127 127
-0.667821 0.018310 -0.236316 127 127 0
0.038999 0.054649 -0.148643 204 51 127
0.207517 0.046145 0.227789 0 255 0
-0.487188 0.069250 -0.117030 0 255 0
0.506501 0.020265 0.349081 255 0 0
0.235739 0.069250 -0.176145 0 255 0
0.624598 -0.561366 0.289001 204 51 127
0.382093 0.039789 0.349081 255 0 0
-0.399823 -0.043371 0.352232 153 0 76
0.546740 -0.022122 0.182932 0 127 127
-0.624240 -0.185729 0.307875 0 255 0
0.652772 -0.285353 0.348493 204 51 127
-0.174377 -0.008926 0.045569 153 0 76
0.595632 0.000708 -0.131511 0 255 0
-0.001961 0.042136 -0.193752 127 0 127
0.550347 -0.045227 -0.022613 153 0 76
0.540457 0.107059 0.052323 127 127 0
-0.508105 -0.008926 -0.077766 153 0 76
0.185547 0.096557 0.162409 127 127 0
0.455194 0.107059 -0.168934 0 127 127
-0.602705 0.007643 0.194616 153 76 0
0.567250 0.036571 -0.354587 0 255 0
0.637301 0.033084 -0.360889 0 0 255
0.000325 -0.045227 -0.038088 0 127 127
-0.412776 -0.022122 0.058485 153 0 76
-0.177404 0.073813 -0.382944 0 255 0
-0.655436 -0.628927 0.341019 0 255 0
-0.563171 0.096557 0.058898 127 127 0
0.456318 0.103653 0.085885 0 127 127
-0.183163 0.079753 0.300043 0 255 0
0.075819 0.095506 0.007592 0 127 127
-0.314913 0.106009 0.329764 153 0 76
0.665848 0.079753 0.038270 0 255 0
-0.382581 -0.008926 0.229661 153 0 76
-0.347793 0.107059 -0.047577 0 127 127
0.584877 -0.022122 0.231818 0 255 0
-0.457522 -0.022122 0.234306 153 0 76
0.268227 -0.022122 0.094242 0 127 127
-0.351656 0.079753 -0.113353 0 255 0
-0.668303 -0.021023 -0.382944 255 0 0
0.060537 0.046145 0.216400 0 255 0
0.252224 0.079753 -0.329333 0 255 0
0.634588 -0.148594 -0.382241 0 0 255
-0.626016 -0.266924 0.328055 0 255 0
0.600959 0.106009 0.234525 76 153 0
-0.045021 0.029970 -0.052425 76 0 153
0.034980 -0.045227 -0.048427 0 127 127
0.077587 -0.015820 0.328689 255 0 0
0.540241 0.079753 0.138077 0 255 0
-0.484120 0.004620 -0.199150 76 0 153
0.110760 0.033928 -0.377693 0 255 0
-0.466117 0.046145 0.238784 0 255 0
-0.028209 0.050777 -0.354587 0 255 0
-0.593858 0.046145 0.249666 0 255 0
-0.705928 0.101124 0.154089 204 51 127
-0.085745 -0.008926 -0.011715 153 0 76
0.099446 0.095506 -0.295609 153 76 0
-0.611622 0.106009 0.146032 204 51 127
-0.433263 0.069250 0.076342 0 255 0
-0.667705 -0.490890 0.344022 0 255 0
0.260837 0.069250 0.357995 153 0 76
0.276290 0.095506 0.086858 0 127 127
-0.021067 0.000984 -0.004946 0 127 127
0.008379 0.063417 -0.354587 0 0 255
-0.321173 -0.022122 -0.040864 153 0 76
-0.156940 0.002187 0.352232 153 0 76
0.027187 -0.008926 0.118567 0 127 127
0.632936 -0.144473 0.351558 204 51 127
-0.397986 -0.022122 0.164640 153 0 76
-0.137440 -0.001086 -0.354587 0 255 0
-0.692369 -0.287593 -0.360140 255 0 0
-0.543904 0.106009 -0.381179 153 76 0
-0.484405 0.106009 -0.243731 127 127 0
0.612982 0.107059 0.175023 76 0 153
-0.630435 0.069250 -0.037125 0 255 0
0.112698 0.021413 0.325976 255 0 0
-0.670934 0.104469 0.362734 153 0 76
0.634674 0.079753 0.185469 0 255 0
0.663898 -0.017629 -0.214216 255 0 0
0.610473 -0.260705 -0.379997 0 0 255
-0.179437 -0.022122 -0.097633 153 0 76
-0.691189 -0.341498 0.291205 0 255 0
0.524918 0.069250 0.076632 0 255 0
-0.113078 0.042274 0.352232 153 0 76
-0.467880 0.069250 0.283676 0 255 0
0.669090 -0.116237 0.336642 204 51 127
0.188825 -0.045227 -0.341451 76 0 153
-0.396601 0.106009 0.053716 0 127 127
0.498110 0.079753 0.333027 0 255 0
-0.420820 0.079753 -0.302919 0 255 0
-0.014620 0.000984 0.097710 0 127 127
0.133312 0.079753 0.254689 0 255 0
-0.521450 -0.022122 -0.002991 153 0 76
0.110019 -0.045227 0.250569 153 0 76
0.256529 0.023189 0.325976 255 0 0
-0.014043 0.107059 0.055510 0 127 127
-0.253494 0.079753 -0.225495 0 255 0
0.324391 -0.022122 0.195579 0 127 127
-0.229282 0.079753 -0.148751 0 255 0
-0.358269 0.107059 0.218931 127 127 0
0.663898 0.042559 -0.172176 255 0 0
-0.130823 0.104832 0.352232 153 0 76
0.667232 -0.201179 0.288014 204 51 127
-0.146384 -0.008926 0.039065 153 0 76
0.663898 -0.007034 0.258486 255 0 0
0.595728 0.095506 -0.156412 0 255 0
0.153622 0.051078 0.215699 0 255 0
-0.397400 -0.045227 0.266662 153 0 76
0.028007 0.069250 -0.183835 204 51 127
-0.320126 0.107059 -0.137154 0 127 127
0.410562 0.106009 -0.253126 127 127 0
0.434618 -0.008926 0.055983 0 127 127
-0.567705 0.069250 0.235381 0 255 0
-0.524701 0.022809 0.325976 153 0 76
-0.352990 0.069250 0.109910 0 255 0
0.105639 0.069250 0.125138 0 255 0
-0.608761 0.095506 -0.350923 153 76 0
-0.293086 0.010531 -0.179195 76 0 153
0.545805 -0.045227 -0.266809 153 0 76
-0.622660 -0.017619 -0.304139 0 0 255
0.665828 -0.265359 -0.354583 0 0 255
-0.479345 -0.022122 -0.128244 153 0 76
0.283575 0.095506 -0.253380 0 255 0
0.498126 0.095506 0.233965 0 255 0
-0.289342 -0.008926 0.129172 153 0 76
-0.060922 0.079753 -0.374227 0 0 255
-0.684550 -0.645007 -0.350819 255 0 0
-0.214122 0.106009 -0.222661 127 127 0
-0.170284 0.042629 0.325976 153 0 76
0.120685 -0.008926 -0.040920 0 127 127
-0.495105 0.095506 0.023875 0 255 0
0.400609 -0.022122 0.298028 153 0 76
-0.522090 -0.022122 0.215391 153 0 76
-0.258474 0.079753 -0.049204 0 255 0
0.105500 0.069250 -0.270048 0 255 0
-0.625077 0.018664 0.278714 0 255 0
0.254289 -0.045227 0.254907 153 0 76
0.629165 -0.008468 0.259664 204 51 127
0.456706 0.100618 0.370596 153 0 76
-0.254998 0.069250 0.316650 0 255 0
0.005527 0.107059 -0.061014 0 127 127
-0.576289 0.033396 0.325976 153 0 76
0.391872 -0.008926 -0.122553 0 127 127
-0.325472 0.096583 0.376419 153 0 76
-0.644946 0.032491 0.101148 255 0 0
0.666962 -0.213525 0.315642 204 51 127
-0.096611 0.010422 -0.179195 76 0 153
0.242155 0.081410 -0.417555 0 0 255
-0.034075 0.095506 -0.252605 0 255 0
-0.372798 0.096445 0.142182 0 127 127
-0.667821 0.009585 -0.072686 127 127 0
0.493925 -0.061824 -0.377693 0 255 0
-0.688177 -0.479197 -0.343270 255 0 0
0.310066 0.079753 0.209912 0 255 0
0.605792 -0.008468 -0.181718 204 51 127
-0.667821 0.006009 0.086833 127 127 0
-0.011554 -0.045227 -0.153797 0 127 127
-0.582240 0.046747 0.215699 0 255 0
0.586220 0.106009 -0.309927 0 0 255
-0.420803 0.079753 0.134087 0 255 0
0.244687 0.046145 0.271656 0 255 0
-0.627692 0.069250 -0.256418 0 255 0
-0.403418 0.069250 -0.133131 0 255 0
-0.465362 0.079753 -0.275598 0 255 0
-0.102795 0.106009 -0.383725 0 0 255
-0.054159 -0.008926 0.298450 153 0 76
-0.661831 0.095506 -0.156840 76 0 153
-0.044313 -0.009519 0.049064 76 0 153
-0.311551 0.106009 0.012409 0 127 127
-0.208471 -0.008926 0.051060 153 0 76
-0.631274 -0.507273 -0.337825 255 0 0
-0.130999 0.079753 -0.205640 0 255 0
-0.088068 0.079753 -0.184861 0 255 0
0.167584 0.095506 -0.278945 153 76 0
-0.561249 -0.008209 -0.377693 0 255 0
0.053783 -0.045227 -0.338025 76 0 153
0.310524 0.069250 -0.310240 0 255 0
0.663898 0.035430 0.140257 255 0 0
-0.345849 0.095506 -0.246427 127 127 0
0.213447 -0.021433 -0.154821 0 127 127
-0.332227 0.095506 0.115994 0 127 127
0.494771 0.106009 0.310215 153 0 76
-0.121753 -0.008926 0.145389 153 0 76
0.313720 -0.028939 -0.377693 0 255 0
-0.007225 0.069250 0.156164 0 255 0
-0.039961 0.079753 -0.285583 0 255 0
0.073498 -0.022122 0.098139 0 127 127
-0.399583 0.009382 -0.199150 76 0 153
0.582177 0.079753 -0.058706 0 255 0
0.617641 -0.045227 -0.183593 204 51 127
0.178771 0.079753 0.118807 0 255 0
-0.297169 -0.022122 0.271376 153 0 76
-0.302485 0.079753 0.058748 0 255 0
-0.065001 0.095506 0.285378 0 255 0
-0.475760 -0.025038 -0.309426 76 0 153
0.636515 0.069250 -0.268672 153 0 76
-0.570147 -0.028997 -0.133235 76 153 0
-0.134928 0.069250 0.267024 0 255 0
-0.532617 -0.008926 -0.057817 153 0 76
-0.468806 -0.022122 0.066814 153 0 76
-0.547575 -0.022122 0.161189 153 0 76
0.347212 -0.008926 -0.043034 0 127 127
0.373850 0.079753 -0.130181 0 255 0
-0.372787 -0.008926 0.160293 153 0 76
-0.657703 -0.454765 -0.317858 255 0 0
0.129446 -0.022122 -0.003571 0 127 127
0.548398 0.079753 0.061783 0 255 0
0.017994 0.007569 -0.058956 127 127 0
0.601188 -0.367475 0.295767 204 51 127
0.663898 0.019187 -0.095542 255 0 0
-0.590296 -0.045227 -0.118889 76 153 0
-0.537841 0.095506 0.202105 0 255 0
-0.524629 -0.045227 0.231727 153 0 76
0.570261 -0.071575 -0.377693 0 255 0
-0.364615 0.095506 0.339281 0 255 0
-0.519660 0.106009 -0.325025 0 0 255
0.457703 -0.008926 0.277502 0 127 127
0.517945 0.058634 -0.354587 0 0 255
0.207572 0.079753 0.350894 153 0 76
0.655866 0.084305 -0.233118 0 255 0
-0.064230 0.046145 0.096507 204 51 127
0.007022 0.046145 -0.013152 204 51 127
-0.598388 -0.045227 -0.219877 76 153 0
-0.383652 0.069250 -0.265469 0 255 0
-0.599140 -0.015646 -0.163595 153 0 76
-0.241580 -0.022122 0.155581 153 0 76
0.690065 0.072997 0.388789 153 0 76
0.691095 0.096070 0.324830 76 0 153
-0.025067 -0.000470 0.150498 76 0 153
-0.686427 -0.334662 -0.378517 255 0 0
0.523034 0.069250 0.386822 153 0 76
0.637845 -0.305928 -0.379092 0 0 255
0.183690 0.096608 -0.407105 0 0 255
0.628713 0.107059 -0.321863 76 0 153
0.213736 -0.045227 0.221409 153 0 76
0.000708 0.046145 -0.124299 204 51 127
0.496361 -0.008926 -0.134452 0 127 127
0.180622 -0.045227 0.326202 153 0 76
0.601233 -0.340939 -0.378391 0 0 255
0.378951 -0.008926 0.098396 0 127 127
-0.061798 -0.022122 -0.252640 0 127 127
0.503633 -0.045227 -0.314807 76 0 153
0.306977 0.106009 0.270032 153 0 76
0.664029 0.079753 -0.174058 76 0 153
0.226385 0.079753 -0.150028 0 255 0
0.592223 0.057697 -0.316932 0 0 255
-0.622660 0.050719 0.191407 255 0 0
0.293148 0.095506 -0.309882 0 255 0
-0.689840 -0.046721 -0.066609 127 127 0
0.315915 0.106009 -0.131475 0 127 127
0.589262 0.079753 -0.346153 0 255 0
0.366363 0.079753 0.231223 0 255 0
0.341087 0.107059 0.192300 127 127 0
-0.378460 -0.022122 -0.037491 153 0 76
0.108222 -0.008926 0.144083 0 127 127
-0.292418 -0.022122 -0.024828 153 0 76
-0.267085 -0.008926 -0.037641 153 0 76
-0.649018 -0.172089 0.350957 0 255 0
-0.025067 0.004565 0.289694 76 0 153
0.187743 0.106009 -0.334478 153 76 0
-0.446190 0.107059 0.132953 0 127 127
-0.105708 0.095506 -0.255494 0 255 0
-0.366294 0.106009 -0.080312 0 127 127
-0.542989 0.106009 -0.205468 127 127 0
0.276571 0.069250 0.318667 0 255 0
-0.627671 -0.342551 0.303646 0 255 0
-0.653561 -0.663037 -0.323003 255 0 0
-0.716537 0.092618 -0.329121 204 51 127
-0.684575 0.037743 0.317657 0 255 0
0.540317 0.054190 -0.377693 0 255 0
0.680925 0.102482 0.245692 76 0 153
-0.170463 -0.022122 -0.342798 76 0 153
-0.219061 0.079753 0.135661 0 255 0
-0.606714 0.106009 -0.387766 0 0 255
-0.221744 0.106009 0.286897 153 0 76
0.004557 0.095506 0.010436 0 127 127
0.040691 0.095506 0.047807 0 127 127
0.538969 0.069250 -0.088270 0 255 0
-0.188993 0.095506 -0.003002 0 127 127
-0.480056 -0.022122 -0.078294 153 0 76
0.418565 -0.019372 0.352232 255 0 0
-0.382424 -0.022122 -0.350776 76 0 153
0.000689 0.046145 -0.082999 127 127 0
-0.159197 -0.022122 0.225408 153 0 76
0.640793 0.047894 -0.205439 153 0 76
-0.581661 0.046145 -0.129753 255 0 0
0.663898 0.065673 -0.106430 255 0 0
-0.428598 0.079753 -0.077623 0 255 0
-0.094758 0.095506 -0.096726 0 255 0
-0.196271 0.046145 -0.327148 0 0 255
0.192569 0.069250 -0.248559 0 255 0
-0.110534 -0.022122 0.253338 153 0 76
0.182819 0.079753 -0.143918 0 255 0
0.238206 0.103105 -0.382944 153 76 0
-0.690926 -0.003159 -0.008549 127 127 0
-0.716682 0.092446 -0.078604 204 51 127
0.104224 -0.018873 -0.354587 0 255 0
0.326583 0.106009 -0.333962 0 0 255
0.640793 0.036882 0.182494 153 0 76
0.050893 0.095506 -0.135372 0 255 0
-0.313753 0.079753 -0.348398 0 255 0
-0.622660 -0.087731 0.319120 0 255 0
-0.361247 0.039135 0.352232 153 0 76
-0.097407 0.069250 0.210050 0 255 0
-0.622660 -0.034008 0.107559 0 0 255
0.663898 0.022604 -0.148365 255 0 0
0.651237 0.037743 0.311419 204 51 127
-0.660565 -0.045227 -0.185066 0 0 255
0.581045 -0.045227 0.093618 153 0 76
0.064036 0.095506 0.115295 0 255 0
-0.591531 0.107059 0.117590 204 51 127
0.575677 0.018813 0.031947 0 255 0
-0.023556 0.069250 -0.046250 0 255 0
-0.622660 -0.000431 -0.134572 153 76 0
-0.637333 0.106009 0.321205 153 0 76
0.479422 0.095506 0.203588 0 255 0
0.563419 0.046145 -0.164034 153 0 76
0.613596 0.032491 0.013452 153 0 76
-0.183253 0.095506 0.103089 0 255 0
0.099376 0.079753 0.150676 0 255 0
0.378666 0.095506 0.304667 153 0 76
-0.690926 0.018924 0.251213 127 127 0
0.360024 0.079753 -0.067606 0 255 0
0.554244 0.069250 0.164011 0 255 0
-0.124718 0.069250 0.181551 0 255 0
-0.594908 0.069250 0.162719 0 255 0
-0.085427 0.079753 0.327209 0 255 0
0.385639 0.033735 -0.179195 127 0 127
0.475227 -0.008926 0.093534 0 127 127
-0.001961 -0.017620 0.120656 0 127 127
0.189849 -0.022122 0.222150 0 127 127
-0.254168 -0.045227 -0.344233 76 0 153
0.599489 0.051243 0.352232 204 51 127
0.349689 -0.047057 -0.354587 0 255 0
-0.570147 0.046533 -0.336224 255 0 0
0.640690 -0.549028 -0.374226 0 0 255
-0.541383 0.079753 -0.051954 0 255 0
-0.566465 0.052386 -0.377693 0 255 0
-0.273108 0.041529 0.352232 153 0 76
0.610806 -0.716318 0.339118 204 51 127
-0.415565 0.069250 0.275251 0 255 0
0.145760 -0.012072 0.336478 255 0 0
-0.425335 -0.008926 -0.032788 153 0 76
0.134008 0.095506 -0.263339 0 255 0
-0.008949 -0.045227 0.174107 0 127 127
0.342970 0.095506 0.272824 0 255 0
0.291144 -0.008926 0.199207 0 127 127
0.583130 -0.022122 0.051294 153 0 76
0.397235 0.095506 -0.196654 127 127 0
-0.384864 0.069250 0.193186 0 255 0
0.640793 -0.024989 -0.014900 255 0 0
-0.405672 0.079753 -0.250019 0 255 0
-0.350098 -0.031941 -0.377693 0 255 0
0.640793 0.006329 0.115393 255 0 0
0.598578 -0.248155 0.295645 204 51 127
0.304831 0.095506 0.236994 0 255 0
0.480650 0.092087 -0.372442 0 0 255
-0.540521 0.023959 -0.179195 76 0 153
-0.028578 -0.022122 -0.136204 76 0 153
-0.686862 -0.406130 0.285436 0 255 0
-0.251296 -0.022122 0.100209 153 0 76
0.678432 0.103377 0.008582 76 0 153
-0.053401 0.046145 -0.192878 76 0 153
-0.223203 0.046145 0.312845 0 255 0
0.430682 0.106009 0.322483 153 0 76
0.543119 0.054154 -0.290793 153 0 76
0.620779 0.009344 -0.360889 0 0 255
-0.494000 0.106009 -0.356676 0 0 255
0.112450 0.096557 0.176334 127 127 0
-0.223295 -0.022122 0.329971 153 0 76
-0.317049 -0.022122 0.321221 153 0 76
0.638424 -0.045227 -0.069432 204 51 127
-0.690926 0.058107 0.079565 127 127 0
-0.122995 0.095506 -0.142866 0 127 127
0.030100 -0.008926 -0.039502 0 127 127
-0.570147 0.059181 -0.080571 255 0 0
0.264630 -0.008926 0.151955 0 127 127
0.355756 0.069250 0.385004 153 0 76
0.012238 0.046145 -0.248562 204 51 127
0.174057 0.069250 0.305724 0 255 0
0.355897 0.079753 0.121837 0 255 0
0.047215 0.096557 0.158319 127 127 0
-0.191642 0.020168 -0.377693 0 255 0
-0.568580 0.096557 -0.038352 127 127 0
-0.577928 0.092400 -0.411209 0 0 255
0.054298 0.079753 0.347902 0 255 0
0.164762 -0.022122 0.266543 153 0 76
-0.677954 0.090481 -0.208133 0 255 0
0.248226 0.069250 0.306211 0 255 0
0.602102 -0.409286 -0.360428 0 0 255
0.440469 0.079753 0.086344 0 255 0
0.594049 -0.022122 -0.103827 153 0 76
-0.655171 0.106009 -0.382141 0 0 255
-0.569573 0.069250 0.139297 0 255 0
-0.485823 -0.008926 0.285975 153 0 76
0.404594 -0.045227 0.312733 153 0 76
-0.637674 0.106009 -0.343737 153 76 0
-0.018591 -0.045227 0.326152 255 0 0
-0.066026 -0.024770 -0.093585 0 127 127
0.354661 -0.026627 0.215699 153 0 76
0.607254 -0.644773 0.330549 204 51 127
-0.517776 -0.045227 -0.338301 76 0 153
-0.383276 -0.022122 0.084237 153 0 76
-0.592052 0.107059 -0.255252 204 51 127
