0.715897 0.670363 -0.192638 0.300000 0.000000 0.600000
0.715897 0.354027 0.193859 0.300000 0.000000 0.600000
0.213754 0.269666 -0.266577 0.300000 0.000000 0.600000
-0.650993 0.042908 -0.266577 0.300000 0.000000 0.600000
-0.413767 0.154755 0.103799 0.000000 0.000000 1.000000
-0.524712 -0.346951 0.109006 0.000000 0.000000 1.000000
0.381774 -0.148105 0.022564 0.300000 0.000000 0.600000
-0.366908 -0.391912 0.259745 0.000000 0.500000 0.500000
0.226958 0.065993 -0.009196 0.600000 0.300000 0.000000
-0.252515 0.280090 -0.111530 0.300000 0.000000 0.600000
0.397972 0.494187 -0.200160 0.300000 0.000000 0.600000
-0.571127 -0.380043 -0.198619 0.600000 0.000000 0.300000
-0.675735 -0.681234 -0.060016 0.300000 0.000000 0.600000
0.264576 0.262248 0.160572 0.300000 0.000000 0.600000
0.150907 0.294935 0.250824 0.300000 0.600000 0.000000
-0.057081 0.280090 -0.113401 0.300000 0.000000 0.600000
-0.064449 0.262248 0.015544 0.300000 0.000000 0.600000
-0.249079 0.000625 0.268666 0.000000 0.500000 0.500000
-0.585365 -0.150482 -0.266577 0.300000 0.000000 0.600000
0.140178 -0.148105 -0.029987 0.300000 0.000000 0.600000
-0.675735 0.536538 -0.217390 0.300000 0.000000 0.600000
0.260356 0.318126 0.088703 0.000000 0.000000 1.000000
0.715897 0.638579 -0.043736 0.300000 0.000000 0.600000
0.567000 -0.583866 -0.266577 0.300000 0.000000 0.600000
0.316723 0.494187 0.022077 0.300000 0.000000 0.600000
-0.131807 0.706054 -0.252161 0.300000 0.000000 0.600000
-0.330456 0.262248 0.214495 0.300000 0.000000 0.600000
-0.480415 0.494187 -0.147813 0.300000 0.000000 0.600000
0.081575 0.706054 0.220860 0.300000 0.000000 0.600000
0.006262 -0.707880 -0.062551 0.300000 0.000000 0.600000
0.715897 -0.678543 0.050983 0.300000 0.000000 0.600000
0.715897 -0.324415 -0.108101 0.300000 0.000000 0.600000
0.230367 -0.294582 0.250824 0.300000 0.600000 0.000000
-0.666277 0.706054 0.175555 0.300000 0.000000 0.600000
-0.434005 -0.458100 0.053363 0.300000 0.000000 0.600000
0.141668 0.262248 -0.074593 0.300000 0.000000 0.600000
0.455760 -0.339733 0.259745 0.600000 0.000000 0.300000
0.008692 -0.458100 0.125428 0.300000 0.000000 0.600000
0.317728 -0.133897 0.199022 0.000000 0.000000 1.000000
-0.509279 -0.165946 -0.088567 0.300000 0.000000 0.600000
-0.206569 0.692588 0.259745 0.300000 0.000000 0.600000
0.689135 -0.061148 0.201824 0.300000 0.000000 0.600000
-0.675735 0.627769 -0.225143 0.300000 0.000000 0.600000
-0.353005 0.395035 -0.257657 0.300000 0.000000 0.600000
0.689135 0.117175 0.171875 0.300000 0.000000 0.600000
0.700367 -0.707880 -0.202937 0.300000 0.000000 0.600000
-0.613310 0.706054 -0.138142 0.300000 0.000000 0.600000
-0.675735 -0.528594 0.140711 0.300000 0.000000 0.600000
-0.468468 0.519332 -0.266577 0.300000 0.000000 0.600000
0.639743 -0.458100 -0.098450 0.300000 0.000000 0.600000
-0.085411 0.494187 -0.223844 0.300000 0.000000 0.600000
0.325918 0.340384 0.198162 0.000000 0.000000 1.000000
0.095510 -0.143090 -0.257657 0.300000 0.000000 0.600000
0.354799 0.706054 -0.109462 0.300000 0.000000 0.600000
-0.675735 0.136528 -0.253213 0.300000 0.000000 0.600000
-0.034716 0.706054 -0.199687 0.300000 0.000000 0.600000
-0.525164 0.065993 0.088083 0.000000 0.000000 1.000000
-0.524315 0.318442 0.191744 0.000000 0.000000 1.000000
0.031687 -0.458100 -0.215883 0.300000 0.000000 0.600000
0.198884 -0.178068 0.250824 0.300000 0.600000 0.000000
-0.529526 -0.165946 -0.214976 0.300000 0.000000 0.600000
0.042474 0.706054 -0.006925 0.300000 0.000000 0.600000
-0.648973 -0.109625 -0.252149 0.300000 0.000000 0.600000
-0.550289 0.374550 0.259745 0.000000 0.500000 0.500000
-0.005523 -0.458100 -0.090670 0.300000 0.000000 0.600000
-0.532394 0.262248 -0.203359 0.300000 0.000000 0.600000
0.689135 -0.037144 0.078311 0.300000 0.000000 0.600000
0.084025 0.162935 0.250824 0.300000 0.600000 0.000000
0.117802 0.191964 -0.257657 0.300000 0.000000 0.600000
0.329890 -0.617637 -0.266577 0.300000 0.000000 0.600000
-0.405656 -0.061522 0.259745 0.000000 0.500000 0.500000
0.685848 -0.573953 0.259745 0.300000 0.000000 0.600000
-0.078885 0.065993 0.193990 0.600000 0.300000 0.000000
0.406198 0.048151 0.209467 0.600000 0.300000 0.000000
0.587967 -0.458100 -0.037349 0.300000 0.000000 0.600000
-0.224367 -0.165946 0.084310 0.300000 0.000000 0.600000
0.653569 0.329001 0.259745 0.600000 0.000000 0.300000
0.714225 0.557902 -0.266577 0.300000 0.000000 0.600000
0.495405 -0.707880 -0.107138 0.300000 0.000000 0.600000
0.689135 -0.434978 0.123457 0.300000 0.000000 0.600000
0.221396 -0.707880 0.094566 0.300000 0.000000 0.600000
-0.675735 0.699082 0.087044 0.300000 0.000000 0.600000
0.554137 -0.428280 -0.257657 0.300000 0.000000 0.600000
-0.675735 0.263503 0.012491 0.300000 0.000000 0.600000
0.248671 0.645928 0.259745 0.300000 0.000000 0.600000
-0.506364 0.262248 0.164524 0.300000 0.000000 0.600000
0.488666 -0.707880 -0.208921 0.300000 0.000000 0.600000
-0.244303 0.556657 -0.266577 0.300000 0.000000 0.600000
-0.057759 0.618280 -0.266577 0.300000 0.000000 0.600000
-0.675735 0.345571 -0.190797 0.300000 0.000000 0.600000
0.715897 0.074522 0.023326 0.300000 0.000000 0.600000
0.313331 0.639996 -0.266577 0.300000 0.000000 0.600000
0.407671 0.300545 0.114376 0.000000 0.000000 1.000000
0.417652 0.494187 0.047066 0.300000 0.000000 0.600000
0.489893 0.690388 -0.266577 0.300000 0.000000 0.600000
0.441684 -0.198790 0.259745 0.600000 0.000000 0.300000
-0.053312 0.323713 0.114306 0.000000 0.000000 1.000000
-0.098481 0.706054 0.195493 0.300000 0.000000 0.600000
-0.177191 -0.338853 0.169705 0.000000 0.000000 1.000000
-0.169812 0.451406 -0.266577 0.300000 0.000000 0.600000
-0.648973 0.401119 0.143398 0.300000 0.000000 0.600000
-0.547325 0.262248 0.056166 0.300000 0.000000 0.600000
-0.675735 -0.601101 -0.111292 0.300000 0.000000 0.600000
0.503407 0.706054 0.196737 0.300000 0.000000 0.600000
-0.077543 0.048151 0.016044 0.600000 0.300000 0.000000
0.476826 0.442845 0.259745 0.600000 0.000000 0.300000
-0.321480 0.494187 -0.095654 0.300000 0.000000 0.600000
-0.233055 0.706054 -0.010194 0.300000 0.000000 0.600000
-0.229942 0.280090 0.022241 0.300000 0.000000 0.600000
-0.498455 -0.165946 0.106315 0.300000 0.000000 0.600000
0.398374 -0.707880 -0.204071 0.300000 0.000000 0.600000
0.181732 0.280090 -0.203520 0.300000 0.000000 0.600000
0.481794 0.494187 0.147992 0.300000 0.000000 0.600000
0.545772 0.425566 -0.257657 0.300000 0.000000 0.600000
-0.648973 0.327929 0.120393 0.300000 0.000000 0.600000
0.622179 0.048151 0.202518 0.600000 0.300000 0.000000
0.661929 0.065993 -0.205172 0.600000 0.300000 0.000000
0.125439 -0.362202 -0.114906 0.600000 0.000000 0.300000
0.491425 0.347033 0.108352 0.000000 0.000000 1.000000
0.689135 0.061587 -0.095374 0.600000 0.300000 0.000000
-0.642208 -0.362202 -0.110515 0.600000 0.000000 0.300000
0.114497 0.048151 -0.099977 0.600000 0.300000 0.000000
-0.379442 -0.063335 0.114361 0.000000 0.000000 1.000000
-0.159901 0.539538 0.259745 0.300000 0.000000 0.600000
-0.000991 -0.707880 0.100346 0.300000 0.000000 0.600000
-0.465029 0.706054 0.205785 0.300000 0.000000 0.600000
0.097322 -0.668622 -0.266577 0.300000 0.000000 0.600000
0.566194 -0.041857 -0.266577 0.300000 0.000000 0.600000
-0.492033 -0.458100 -0.073882 0.300000 0.000000 0.600000
0.689135 -0.354973 0.029978 0.300000 0.000000 0.600000
-0.648973 0.135568 0.045115 0.300000 0.000000 0.600000
0.365529 0.239974 -0.266577 0.300000 0.000000 0.600000
0.093113 -0.362202 0.128038 0.600000 0.000000 0.300000
-0.347059 0.134062 -0.266577 0.300000 0.000000 0.600000
0.475787 -0.380043 0.088930 0.600000 0.000000 0.300000
-0.320877 0.706054 0.209024 0.300000 0.000000 0.600000
-0.374642 -0.458100 0.198170 0.300000 0.000000 0.600000
0.715897 -0.220315 0.015309 0.300000 0.000000 0.600000
0.584089 -0.384487 0.259745 0.600000 0.000000 0.300000
0.495919 0.538791 0.261114 0.300000 0.000000 0.600000
0.715897 -0.284210 -0.215873 0.300000 0.000000 0.600000
0.298372 -0.148105 -0.048532 0.300000 0.000000 0.600000
-0.458933 -0.707880 0.170007 0.300000 0.000000 0.600000
-0.239142 0.316319 0.116374 0.000000 0.000000 1.000000
0.275933 0.283661 -0.266577 0.300000 0.000000 0.600000
0.480796 0.706054 -0.077819 0.300000 0.000000 0.600000
-0.260786 -0.380043 -0.107984 0.600000 0.000000 0.300000
-0.495192 0.654802 -0.266577 0.300000 0.000000 0.600000
-0.354163 -0.148105 -0.212441 0.300000 0.000000 0.600000
0.672237 0.123814 0.268666 0.600000 0.000000 0.300000
-0.675735 -0.048693 -0.063608 0.300000 0.000000 0.600000
-0.375099 -0.279089 0.192208 0.000000 0.000000 1.000000
-0.648973 0.235046 0.062598 0.300000 0.000000 0.600000
-0.523178 -0.362202 0.047357 0.600000 0.000000 0.300000
-0.238215 -0.444847 -0.266577 0.300000 0.000000 0.600000
-0.313214 0.615787 -0.266577 0.300000 0.000000 0.600000
0.454853 -0.579858 -0.266577 0.300000 0.000000 0.600000
0.244406 0.494187 0.264243 0.600000 0.000000 0.300000
-0.402750 -0.362202 -0.124039 0.600000 0.000000 0.300000
-0.646627 -0.380043 0.112623 0.600000 0.000000 0.300000
0.293170 0.100438 0.165162 0.000000 0.000000 1.000000
-0.238279 0.523858 0.268666 0.300000 0.000000 0.600000
-0.611858 -0.707880 -0.134185 0.300000 0.000000 0.600000
-0.643230 -0.587013 0.259745 0.300000 0.000000 0.600000
0.487604 0.280090 0.005659 0.300000 0.000000 0.600000
-0.336809 0.459440 0.259745 0.000000 0.500000 0.500000
-0.018173 0.706054 -0.024571 0.300000 0.000000 0.600000
0.306957 -0.059827 0.259745 0.600000 0.000000 0.300000
0.273083 0.494187 -0.147527 0.300000 0.000000 0.600000
0.715897 0.637760 0.259342 0.300000 0.000000 0.600000
-0.121616 -0.458100 -0.242734 0.300000 0.000000 0.600000
-0.313004 -0.113433 -0.266577 0.300000 0.000000 0.600000
-0.675735 0.519142 -0.083071 0.300000 0.000000 0.600000
-0.675735 0.469423 -0.001930 0.300000 0.000000 0.600000
-0.221650 0.262248 -0.206648 0.300000 0.000000 0.600000
0.191539 -0.573981 0.259745 0.300000 0.000000 0.600000
0.689135 -0.133683 0.073964 0.300000 0.000000 0.600000
0.054238 -0.380043 -0.215866 0.600000 0.000000 0.300000
-0.236063 -0.206878 -0.266577 0.300000 0.000000 0.600000
0.686205 0.706054 0.057025 0.300000 0.000000 0.600000
-0.089674 -0.380043 -0.200503 0.600000 0.000000 0.300000
0.185660 -0.029538 -0.257657 0.300000 0.000000 0.600000
0.046993 0.423999 0.250824 0.300000 0.600000 0.000000
-0.223216 -0.707880 0.224482 0.300000 0.000000 0.600000
0.225146 -0.458100 -0.135231 0.300000 0.000000 0.600000
0.114391 0.262248 0.201505 0.300000 0.000000 0.600000
0.286917 -0.202975 -0.257657 0.300000 0.000000 0.600000
-0.398656 0.048151 0.060900 0.600000 0.300000 0.000000
-0.675735 0.375724 0.234230 0.300000 0.000000 0.600000
-0.648973 -0.249289 -0.124445 0.300000 0.000000 0.600000
-0.648973 0.436125 0.199197 0.300000 0.000000 0.600000
-0.131663 -0.181888 0.250824 0.300000 0.600000 0.000000
0.175785 0.262248 0.064418 0.300000 0.000000 0.600000
-0.675735 -0.517120 -0.227888 0.300000 0.000000 0.600000
-0.074245 -0.362202 -0.028697 0.600000 0.000000 0.300000
-0.536822 0.494187 0.021026 0.300000 0.000000 0.600000
-0.615310 0.455464 -0.266577 0.300000 0.000000 0.600000
-0.434235 0.065993 -0.112426 0.600000 0.300000 0.000000
0.386880 -0.380043 -0.205650 0.600000 0.000000 0.300000
0.715897 -0.328822 0.197921 0.300000 0.000000 0.600000
-0.648973 0.641442 0.267442 0.300000 0.000000 0.600000
-0.196179 0.494187 0.134979 0.300000 0.000000 0.600000
-0.181136 0.144175 0.095543 0.000000 0.000000 1.000000
-0.340268 -0.325837 0.094203 0.000000 0.000000 1.000000
0.237348 -0.305156 0.068909 0.000000 0.000000 1.000000
-0.469291 0.065993 -0.001473 0.600000 0.300000 0.000000
0.222886 -0.058897 0.197861 0.000000 0.000000 1.000000
0.014213 0.371002 0.250824 0.300000 0.600000 0.000000
0.455262 0.280090 -0.185231 0.300000 0.000000 0.600000
0.532232 -0.458100 0.197141 0.300000 0.000000 0.600000
0.402808 -0.191379 -0.266577 0.300000 0.000000 0.600000
0.271852 -0.362202 -0.240879 0.600000 0.000000 0.300000
-0.017437 -0.690038 0.255047 0.300000 0.000000 0.600000
-0.347062 0.706054 -0.172516 0.300000 0.000000 0.600000
0.142011 -0.120059 0.156541 0.000000 0.000000 1.000000
-0.325311 -0.707880 0.040706 0.300000 0.000000 0.600000
0.663630 0.706054 -0.055226 0.300000 0.000000 0.600000
-0.314755 -0.330053 0.199515 0.000000 0.000000 1.000000
-0.675735 0.622011 -0.036808 0.300000 0.000000 0.600000
0.561014 -0.058897 0.069667 0.000000 0.000000 1.000000
0.663776 -0.380043 -0.173561 0.600000 0.000000 0.300000
0.377521 0.494187 0.246046 0.300000 0.000000 0.600000
0.715897 0.551070 -0.144112 0.300000 0.000000 0.600000
-0.424256 0.299143 0.259745 0.000000 0.500000 0.500000
0.498118 0.140762 0.176952 0.000000 0.000000 1.000000
0.428771 0.290181 0.259745 0.600000 0.000000 0.300000
0.455151 0.136133 -0.257657 0.300000 0.000000 0.600000
-0.422753 -0.380043 0.184637 0.600000 0.000000 0.300000
-0.231420 0.065993 -0.212398 0.600000 0.300000 0.000000
0.527557 -0.165946 0.199104 0.300000 0.000000 0.600000
0.157122 -0.303296 -0.257657 0.300000 0.000000 0.600000
0.638025 0.280090 -0.129657 0.300000 0.000000 0.600000
0.342172 -0.148105 -0.195982 0.300000 0.000000 0.600000
-0.548966 -0.707880 -0.126058 0.300000 0.000000 0.600000
-0.132939 -0.458100 -0.031222 0.300000 0.000000 0.600000
0.689135 0.187575 0.217032 0.300000 0.000000 0.600000
-0.615983 0.473308 0.259745 0.000000 0.500000 0.500000
0.295404 -0.380043 0.067388 0.600000 0.000000 0.300000
-0.191780 0.706054 0.150230 0.300000 0.000000 0.600000
-0.675735 0.639795 0.060959 0.300000 0.000000 0.600000
-0.252694 -0.062247 0.077833 0.000000 0.000000 1.000000
-0.467110 0.473993 0.268666 0.000000 0.500000 0.500000
-0.026098 -0.303961 0.250824 0.300000 0.600000 0.000000
-0.337086 -0.243335 -0.257657 0.300000 0.000000 0.600000
-0.616196 -0.148105 0.004956 0.300000 0.000000 0.600000
-0.271260 0.114266 -0.266577 0.300000 0.000000 0.600000
-0.632376 -0.398379 0.268666 0.000000 0.500000 0.500000
0.070817 0.048151 0.217954 0.600000 0.300000 0.000000
0.431063 0.262248 0.051298 0.300000 0.000000 0.600000
-0.035769 0.100781 -0.266577 0.300000 0.000000 0.600000
0.018964 -0.212433 0.250824 0.300000 0.600000 0.000000
0.715897 -0.497643 0.173628 0.300000 0.000000 0.600000
0.582558 -0.148105 0.048266 0.300000 0.000000 0.600000
-0.442412 -0.454872 0.268666 0.000000 0.500000 0.500000
0.497092 -0.113382 0.179257 0.000000 0.000000 1.000000
-0.648973 -0.097208 0.032548 0.300000 0.000000 0.600000
0.689135 0.412092 -0.142828 0.300000 0.000000 0.600000
0.246728 0.203284 -0.257657 0.300000 0.000000 0.600000
-0.675735 0.468654 -0.118370 0.300000 0.000000 0.600000
-0.004342 0.515085 -0.266577 0.300000 0.000000 0.600000
0.216058 0.369297 0.189216 0.000000 0.000000 1.000000
-0.070770 0.494187 0.203660 0.300000 0.000000 0.600000
0.098489 0.262248 -0.008598 0.300000 0.000000 0.600000
0.364729 0.494187 -0.131318 0.300000 0.000000 0.600000
-0.130768 -0.035572 -0.266577 0.300000 0.000000 0.600000
-0.675735 -0.230749 -0.245912 0.300000 0.000000 0.600000
0.002571 0.626516 -0.266577 0.300000 0.000000 0.600000
-0.050928 0.369365 0.250824 0.300000 0.600000 0.000000
-0.172420 -0.148105 -0.111407 0.300000 0.000000 0.600000
0.715897 0.459318 -0.263205 0.300000 0.000000 0.600000
-0.561482 0.323211 -0.266577 0.300000 0.000000 0.600000
-0.026931 -0.380043 0.198787 0.600000 0.000000 0.300000
-0.021173 -0.573473 -0.266577 0.300000 0.000000 0.600000
0.715897 0.277562 0.113529 0.300000 0.000000 0.600000
0.246239 -0.148105 0.205565 0.300000 0.000000 0.600000
-0.330486 0.225530 -0.266577 0.300000 0.000000 0.600000
-0.109227 0.348018 -0.257657 0.300000 0.000000 0.600000
-0.237312 0.494187 -0.077659 0.300000 0.000000 0.600000
0.579384 0.478367 -0.266577 0.300000 0.000000 0.600000
0.052758 -0.489848 0.259745 0.300000 0.000000 0.600000
0.715897 0.507916 -0.004749 0.300000 0.000000 0.600000
0.406566 -0.362202 0.076556 0.600000 0.000000 0.300000
-0.135858 0.262248 -0.133416 0.300000 0.000000 0.600000
-0.146357 0.494187 0.008577 0.300000 0.000000 0.600000
0.256606 -0.380043 -0.053176 0.600000 0.000000 0.300000
-0.257975 -0.707880 -0.252773 0.300000 0.000000 0.600000
0.377134 -0.668110 -0.266577 0.300000 0.000000 0.600000
0.224281 0.649545 -0.266577 0.300000 0.000000 0.600000
0.174668 0.494187 0.028517 0.300000 0.000000 0.600000
0.102521 0.706054 -0.107159 0.300000 0.000000 0.600000
0.288460 0.157245 -0.257657 0.300000 0.000000 0.600000
0.151956 0.596810 -0.266577 0.300000 0.000000 0.600000
-0.480575 -0.332128 0.199844 0.000000 0.000000 1.000000
0.083410 -0.458100 -0.011313 0.300000 0.000000 0.600000
-0.637994 0.257253 -0.266577 0.300000 0.000000 0.600000
0.182520 0.104617 -0.257657 0.300000 0.000000 0.600000
-0.361209 -0.458100 0.124470 0.300000 0.000000 0.600000
-0.418980 0.048151 -0.180274 0.600000 0.300000 0.000000
-0.648973 0.060658 -0.142869 0.300000 0.000000 0.600000
-0.444286 0.322492 0.177297 0.000000 0.000000 1.000000
0.314018 0.262248 0.077355 0.300000 0.000000 0.600000
0.715897 0.617570 -0.242347 0.300000 0.000000 0.600000
0.561394 0.048151 -0.207607 0.600000 0.300000 0.000000
0.271478 0.706054 -0.173118 0.300000 0.000000 0.600000
-0.431613 -0.707880 -0.103431 0.300000 0.000000 0.600000
-0.675735 0.287933 -0.145562 0.300000 0.000000 0.600000
-0.675735 0.146019 0.150761 0.300000 0.000000 0.600000
-0.555190 -0.628941 0.259745 0.300000 0.000000 0.600000
-0.648973 -0.044562 0.216236 0.300000 0.000000 0.600000
-0.364526 -0.458100 0.004096 0.300000 0.000000 0.600000
0.155988 -0.131053 0.069491 0.000000 0.000000 1.000000
-0.532212 0.494187 0.164240 0.300000 0.000000 0.600000
-0.198531 -0.165946 -0.217003 0.300000 0.000000 0.600000
-0.287921 0.448503 -0.266577 0.300000 0.000000 0.600000
0.535154 -0.327271 0.091525 0.000000 0.000000 1.000000
-0.675735 0.702307 -0.132890 0.300000 0.000000 0.600000
0.304246 0.706054 0.101198 0.300000 0.000000 0.600000
-0.499179 0.343085 0.259745 0.000000 0.500000 0.500000
-0.139371 0.280090 -0.192366 0.300000 0.000000 0.600000
-0.130300 0.679292 0.264773 0.300000 0.000000 0.600000
0.196676 -0.707880 -0.223550 0.300000 0.000000 0.600000
-0.140860 -0.041023 0.250824 0.300000 0.600000 0.000000
-0.397370 0.329530 -0.257657 0.300000 0.000000 0.600000
0.689135 0.119702 -0.186200 0.300000 0.000000 0.600000
-0.310964 -0.707880 -0.070121 0.300000 0.000000 0.600000
0.040533 0.494187 -0.213911 0.300000 0.000000 0.600000
0.103320 0.529703 0.268666 0.300000 0.000000 0.600000
-0.121623 -0.707880 -0.216548 0.300000 0.000000 0.600000
-0.167286 0.494187 0.200570 0.300000 0.000000 0.600000
-0.675735 -0.551041 0.000387 0.300000 0.000000 0.600000
-0.103783 -0.165946 0.150186 0.300000 0.000000 0.600000
0.422920 0.706054 0.108497 0.300000 0.000000 0.600000
0.715897 -0.145588 -0.088608 0.300000 0.000000 0.600000
0.218633 -0.380043 0.153025 0.600000 0.000000 0.300000
0.458501 0.193162 0.259745 0.600000 0.000000 0.300000
0.104561 -0.707880 0.141728 0.300000 0.000000 0.600000
0.230353 0.280090 0.012494 0.300000 0.000000 0.600000
0.398741 -0.132476 -0.257657 0.300000 0.000000 0.600000
-0.036460 -0.165946 -0.183158 0.300000 0.000000 0.600000
-0.464207 -0.487227 -0.266577 0.300000 0.000000 0.600000
-0.403346 -0.068979 -0.266577 0.300000 0.000000 0.600000
-0.447568 0.162128 -0.257657 0.300000 0.000000 0.600000
0.310131 0.048151 0.142109 0.600000 0.300000 0.000000
0.318476 0.494187 0.185198 0.300000 0.000000 0.600000
0.252099 -0.458100 0.110482 0.300000 0.000000 0.600000
0.656129 -0.458100 -0.223662 0.300000 0.000000 0.600000
-0.675735 -0.646361 0.086518 0.300000 0.000000 0.600000
-0.448098 0.262248 -0.010422 0.300000 0.000000 0.600000
0.650138 0.358061 -0.257657 0.300000 0.000000 0.600000
0.471111 0.706054 -0.202977 0.300000 0.000000 0.600000
0.597063 0.262248 -0.251457 0.300000 0.000000 0.600000
-0.430438 -0.165946 -0.149347 0.300000 0.000000 0.600000
0.715897 0.522713 0.256522 0.300000 0.000000 0.600000
-0.133616 0.089527 0.185799 0.000000 0.000000 1.000000
-0.447506 0.280090 -0.187575 0.300000 0.000000 0.600000
-0.159945 -0.165946 0.021422 0.300000 0.000000 0.600000
-0.648973 -0.040545 -0.199085 0.300000 0.000000 0.600000
0.113245 -0.380043 0.021900 0.600000 0.000000 0.300000
0.357457 -0.459902 -0.266577 0.300000 0.000000 0.600000
-0.582299 0.706054 -0.075747 0.300000 0.000000 0.600000
0.594664 -0.165946 -0.053297 0.300000 0.000000 0.600000
0.520433 -0.380043 0.204429 0.600000 0.000000 0.300000
0.155598 -0.657782 -0.266577 0.300000 0.000000 0.600000
0.715897 -0.234427 0.227923 0.300000 0.000000 0.600000
0.668705 0.280090 -0.192461 0.300000 0.000000 0.600000
-0.391051 -0.112395 0.152604 0.000000 0.000000 1.000000
0.030117 -0.458100 0.205231 0.300000 0.000000 0.600000
-0.081649 -0.165946 -0.065351 0.300000 0.000000 0.600000
0.577959 -0.152338 0.259745 0.600000 0.000000 0.300000
0.484831 0.557633 -0.266577 0.300000 0.000000 0.600000
-0.330029 0.280090 0.153616 0.300000 0.000000 0.600000
0.062375 0.315328 0.184360 0.000000 0.000000 1.000000
-0.607593 0.675832 -0.266577 0.300000 0.000000 0.600000
-0.117912 -0.458100 0.156228 0.300000 0.000000 0.600000
-0.165597 0.273451 0.250824 0.300000 0.600000 0.000000
0.078667 0.315388 -0.266577 0.300000 0.000000 0.600000
-0.115542 -0.141768 -0.266577 0.300000 0.000000 0.600000
0.291151 0.262248 -0.087877 0.300000 0.000000 0.600000
0.017356 0.706054 0.256240 0.300000 0.000000 0.600000
0.291223 0.572962 0.259745 0.300000 0.000000 0.600000
-0.648973 -0.167977 -0.047573 0.300000 0.000000 0.600000
-0.538225 0.582473 -0.266577 0.300000 0.000000 0.600000
0.133202 0.319372 0.176326 0.000000 0.000000 1.000000
-0.432460 0.494187 0.131797 0.300000 0.000000 0.600000
-0.146757 0.110666 -0.257657 0.300000 0.000000 0.600000
0.712840 0.023332 -0.266577 0.300000 0.000000 0.600000
0.492412 0.494187 0.090081 0.300000 0.000000 0.600000
-0.490501 -0.191911 0.259745 0.000000 0.500000 0.500000
-0.079357 0.494187 -0.095688 0.300000 0.000000 0.600000
0.219029 0.262248 -0.153719 0.300000 0.000000 0.600000
0.561991 0.494187 0.213118 0.300000 0.000000 0.600000
0.543031 -0.272995 0.169795 0.000000 0.000000 1.000000
0.459222 -0.458100 0.012586 0.300000 0.000000 0.600000
0.389111 0.099423 0.116326 0.000000 0.000000 1.000000
0.571468 -0.458100 0.107114 0.300000 0.000000 0.600000
0.176701 0.494187 -0.082167 0.300000 0.000000 0.600000
0.439698 0.065993 -0.187283 0.600000 0.300000 0.000000
0.548274 0.118152 0.115691 0.000000 0.000000 1.000000
-0.344601 -0.064652 0.259745 0.000000 0.500000 0.500000
0.566203 0.415591 0.259745 0.600000 0.000000 0.300000
-0.273042 -0.707880 0.168299 0.300000 0.000000 0.600000
0.260924 -0.707880 -0.237746 0.300000 0.000000 0.600000
0.522958 -0.458100 -0.001500 0.300000 0.000000 0.600000
-0.675735 0.477199 -0.198513 0.300000 0.000000 0.600000
-0.251904 -0.458100 -0.062374 0.300000 0.000000 0.600000
-0.429577 -0.297635 0.259745 0.000000 0.500000 0.500000
0.569088 0.145803 -0.266577 0.300000 0.000000 0.600000
0.618277 -0.193784 -0.266577 0.300000 0.000000 0.600000
0.446450 0.262248 0.200821 0.300000 0.000000 0.600000
-0.595480 0.597269 0.259745 0.300000 0.000000 0.600000
-0.193339 -0.148105 -0.027704 0.300000 0.000000 0.600000
-0.448249 0.102382 0.081844 0.000000 0.000000 1.000000
0.078384 -0.000806 0.250824 0.300000 0.600000 0.000000
0.423341 -0.148105 0.143042 0.300000 0.000000 0.600000
0.016776 0.477448 0.259745 0.300000 0.600000 0.000000
-0.159169 -0.318187 0.116290 0.000000 0.000000 1.000000
0.659923 -0.369191 0.224062 0.600000 0.000000 0.300000
0.715897 -0.478624 0.060662 0.300000 0.000000 0.600000
-0.043279 0.706054 -0.109362 0.300000 0.000000 0.600000
-0.198435 0.190153 0.259745 0.300000 0.600000 0.000000
-0.062990 0.706054 0.090804 0.300000 0.000000 0.600000
-0.338555 0.494187 0.113254 0.300000 0.000000 0.600000
-0.492738 -0.707880 -0.208935 0.300000 0.000000 0.600000
0.677311 -0.362202 -0.068864 0.600000 0.000000 0.300000
-0.539303 0.246664 0.259745 0.000000 0.500000 0.500000
-0.609173 0.706054 0.148328 0.300000 0.000000 0.600000
0.300428 -0.458100 -0.084856 0.300000 0.000000 0.600000
-0.515878 0.706054 -0.212986 0.300000 0.000000 0.600000
-0.317429 0.330751 0.116164 0.000000 0.000000 1.000000
0.086061 0.146289 0.152737 0.000000 0.000000 1.000000
-0.017689 0.595949 0.259745 0.300000 0.000000 0.600000
0.715897 0.411241 -0.020036 0.300000 0.000000 0.600000
0.118040 0.262248 0.116079 0.300000 0.000000 0.600000
0.496989 -0.458100 -0.140382 0.300000 0.000000 0.600000
0.099829 0.262248 -0.114681 0.300000 0.000000 0.600000
0.394249 -0.545958 -0.266577 0.300000 0.000000 0.600000
0.020156 -0.165946 -0.027164 0.300000 0.000000 0.600000
-0.475831 -0.380043 -0.058683 0.600000 0.000000 0.300000
0.371005 -0.323264 0.184016 0.000000 0.000000 1.000000
0.195171 0.389571 -0.266577 0.300000 0.000000 0.600000
-0.675735 0.588259 -0.152541 0.300000 0.000000 0.600000
0.391536 0.048151 -0.076857 0.600000 0.300000 0.000000
0.539328 0.494187 -0.001488 0.300000 0.000000 0.600000
0.486661 -0.707215 -0.266577 0.300000 0.000000 0.600000
0.094496 -0.307074 0.068219 0.000000 0.000000 1.000000
0.029365 0.403146 -0.266577 0.300000 0.000000 0.600000
-0.214008 0.155200 0.176031 0.000000 0.000000 1.000000
0.586117 -0.362202 -0.169674 0.600000 0.000000 0.300000
-0.515900 0.494187 0.219488 0.300000 0.000000 0.600000
-0.451694 -0.132152 0.193936 0.000000 0.000000 1.000000
-0.209682 0.094181 0.095192 0.000000 0.000000 1.000000
0.491925 -0.318338 0.190862 0.000000 0.000000 1.000000
-0.539830 -0.208085 -0.266577 0.300000 0.000000 0.600000
-0.482133 0.388649 -0.257657 0.300000 0.000000 0.600000
0.665308 -0.126772 0.259745 0.600000 0.000000 0.300000
-0.263024 -0.165946 -0.048672 0.300000 0.000000 0.600000
0.715897 0.352481 -0.040041 0.300000 0.000000 0.600000
0.173567 -0.315634 0.197884 0.000000 0.000000 1.000000
0.559361 -0.707880 0.052442 0.300000 0.000000 0.600000
0.384917 -0.707880 0.169377 0.300000 0.000000 0.600000
-0.367058 0.494187 -0.221332 0.300000 0.000000 0.600000
0.556332 -0.165946 0.137613 0.300000 0.000000 0.600000
0.065863 -0.153735 0.224062 0.300000 0.000000 0.600000
-0.240793 0.315424 0.200180 0.000000 0.000000 1.000000
0.485665 0.065993 -0.237765 0.600000 0.300000 0.000000
-0.156061 -0.559433 -0.266577 0.300000 0.000000 0.600000
0.595591 -0.387695 -0.257657 0.300000 0.000000 0.600000
-0.539901 0.048151 -0.146363 0.600000 0.300000 0.000000
-0.364179 0.280090 -0.004758 0.300000 0.000000 0.600000
0.523642 -0.148105 -0.214911 0.300000 0.000000 0.600000
0.222326 -0.058897 0.114834 0.000000 0.000000 1.000000
0.212299 0.009717 0.264205 0.300000 0.600000 0.000000
-0.373068 -0.362202 -0.251004 0.600000 0.000000 0.300000
0.332060 -0.113417 0.078425 0.000000 0.000000 1.000000
0.574118 0.204812 0.259745 0.600000 0.000000 0.300000
0.565249 -0.020430 0.259745 0.600000 0.000000 0.300000
0.049949 0.706054 0.150685 0.300000 0.000000 0.600000
-0.188192 0.256083 -0.257657 0.300000 0.000000 0.600000
-0.329399 0.048151 -0.009694 0.600000 0.300000 0.000000
0.286954 0.367302 -0.266577 0.300000 0.000000 0.600000
0.039246 0.494187 0.207750 0.300000 0.000000 0.600000
0.222745 0.115382 0.115798 0.000000 0.000000 1.000000
0.214460 0.457149 -0.266577 0.300000 0.000000 0.600000
-0.598758 -0.148105 0.144266 0.300000 0.000000 0.600000
-0.250920 -0.324289 0.157480 0.000000 0.000000 1.000000
0.205037 -0.238748 0.250824 0.300000 0.600000 0.000000
0.176465 0.706054 -0.132978 0.300000 0.000000 0.600000
0.452498 -0.392718 -0.266577 0.300000 0.000000 0.600000
-0.198140 0.329924 -0.257657 0.300000 0.000000 0.600000
-0.079548 -0.275659 0.154087 0.000000 0.000000 1.000000
0.000607 -0.457673 -0.266577 0.300000 0.000000 0.600000
0.237633 -0.148105 0.102135 0.300000 0.000000 0.600000
-0.044310 -0.439701 0.259745 0.300000 0.600000 0.000000
-0.386831 -0.164529 0.224062 0.300000 0.000000 0.600000
0.565431 0.065993 0.210658 0.600000 0.300000 0.000000
-0.094948 0.333208 0.250824 0.300000 0.600000 0.000000
0.041370 0.280733 0.250824 0.300000 0.600000 0.000000
-0.498403 -0.458100 0.175485 0.300000 0.000000 0.600000
0.379295 0.608400 0.259745 0.300000 0.000000 0.600000
0.689135 0.159600 0.086671 0.300000 0.000000 0.600000
-0.350786 -0.707880 0.134008 0.300000 0.000000 0.600000
0.689135 -0.267012 0.086617 0.300000 0.000000 0.600000
0.352293 0.373595 0.259745 0.600000 0.000000 0.300000
-0.047824 0.433225 -0.257657 0.300000 0.000000 0.600000
0.689135 0.259928 -0.061083 0.300000 0.000000 0.600000
-0.618843 0.494187 -0.049779 0.300000 0.000000 0.600000
-0.344638 -0.279253 0.259745 0.000000 0.500000 0.500000
-0.137871 -0.108427 0.159864 0.000000 0.000000 1.000000
-0.237964 -0.458100 0.177916 0.300000 0.000000 0.600000
-0.675384 0.215653 0.259745 0.300000 0.000000 0.600000
0.386858 0.665554 -0.266577 0.300000 0.000000 0.600000
-0.295016 -0.004890 -0.266577 0.300000 0.000000 0.600000
-0.327164 0.081191 0.114029 0.000000 0.000000 1.000000
-0.387479 -0.707880 -0.252260 0.300000 0.000000 0.600000
-0.536022 0.050046 0.224062 0.600000 0.300000 0.000000
-0.675735 -0.358484 0.222912 0.300000 0.000000 0.600000
0.568938 -0.380043 0.165410 0.600000 0.000000 0.300000
0.583199 -0.707880 -0.213939 0.300000 0.000000 0.600000
-0.648973 -0.071175 -0.112682 0.300000 0.000000 0.600000
-0.563247 -0.315869 0.081591 0.000000 0.000000 1.000000
-0.004625 0.239802 -0.266577 0.300000 0.000000 0.600000
0.607657 -0.707880 0.090359 0.300000 0.000000 0.600000
0.400014 -0.314746 -0.266577 0.300000 0.000000 0.600000
0.513254 -0.206486 -0.257657 0.300000 0.000000 0.600000
-0.615861 -0.458100 -0.190603 0.300000 0.000000 0.600000
-0.276434 -0.412625 0.259745 0.000000 0.500000 0.500000
-0.179833 0.632525 -0.266577 0.300000 0.000000 0.600000
-0.434877 0.428097 0.259745 0.000000 0.500000 0.500000
-0.083565 0.152481 0.154772 0.000000 0.000000 1.000000
0.640221 0.205885 -0.266577 0.300000 0.000000 0.600000
-0.181808 -0.327061 0.250824 0.300000 0.600000 0.000000
-0.648973 0.243732 -0.176620 0.300000 0.000000 0.600000
0.553596 0.706054 0.094837 0.300000 0.000000 0.600000
0.287909 -0.707880 0.192967 0.300000 0.000000 0.600000
0.035563 -0.546634 -0.266577 0.300000 0.000000 0.600000
0.463172 -0.458100 -0.185477 0.300000 0.000000 0.600000
-0.536503 0.706054 0.156760 0.300000 0.000000 0.600000
0.252554 0.087461 -0.257657 0.300000 0.000000 0.600000
-0.082937 0.415714 0.250824 0.300000 0.600000 0.000000
0.301535 -0.653077 0.259745 0.300000 0.000000 0.600000
0.572696 -0.707880 0.182852 0.300000 0.000000 0.600000
-0.675735 0.599895 0.114549 0.300000 0.000000 0.600000
-0.359794 -0.544109 -0.266577 0.300000 0.000000 0.600000
-0.307482 0.706054 0.089580 0.300000 0.000000 0.600000
0.001250 0.262248 -0.027968 0.300000 0.000000 0.600000
-0.089876 -0.105834 0.085315 0.000000 0.000000 1.000000
0.689135 0.208413 -0.187744 0.300000 0.000000 0.600000
0.109884 -0.380043 -0.208064 0.600000 0.000000 0.300000
-0.648973 -0.270825 -0.028843 0.300000 0.000000 0.600000
0.243970 0.001283 -0.257657 0.300000 0.000000 0.600000
-0.437619 -0.636990 0.259745 0.300000 0.000000 0.600000
-0.124199 0.493229 -0.266577 0.300000 0.000000 0.600000
-0.549192 -0.423013 -0.266577 0.300000 0.000000 0.600000
-0.318701 -0.458100 0.201124 0.300000 0.000000 0.600000
-0.278428 0.262248 -0.241477 0.300000 0.000000 0.600000
0.675385 0.048151 0.075373 0.600000 0.300000 0.000000
-0.525453 0.161399 -0.266577 0.300000 0.000000 0.600000
-0.456920 -0.304038 0.114534 0.000000 0.000000 1.000000
-0.619467 -0.279999 0.259745 0.000000 0.500000 0.500000
-0.524467 -0.105097 0.078235 0.000000 0.000000 1.000000
0.689135 0.484165 0.129184 0.300000 0.000000 0.600000
0.027491 -0.753211 -0.234520 0.000000 0.500000 0.500000
0.689135 -0.447847 -0.070265 0.300000 0.000000 0.600000
-0.095712 0.706054 -0.207496 0.300000 0.000000 0.600000
-0.557649 0.280090 -0.047233 0.300000 0.000000 0.600000
0.715897 -0.580771 0.088700 0.300000 0.000000 0.600000
0.684378 -0.634995 -0.266577 0.300000 0.000000 0.600000
0.545725 0.312273 0.154352 0.000000 0.000000 1.000000
0.410471 -0.272995 0.079310 0.000000 0.000000 1.000000
0.243099 0.114791 0.251815 0.300000 0.600000 0.000000
-0.461650 -0.119261 0.115032 0.000000 0.000000 1.000000
0.506283 0.048151 0.047693 0.600000 0.300000 0.000000
0.715897 -0.582037 -0.144578 0.300000 0.000000 0.600000
0.353571 0.065993 0.013627 0.600000 0.300000 0.000000
-0.013293 0.048151 0.099356 0.600000 0.300000 0.000000
-0.335457 0.262248 -0.138278 0.300000 0.000000 0.600000
0.018237 0.048151 0.002892 0.600000 0.300000 0.000000
0.042941 0.200517 0.250824 0.300000 0.600000 0.000000
-0.102477 -0.165946 -0.169758 0.300000 0.000000 0.600000
-0.007194 0.048151 -0.155515 0.600000 0.300000 0.000000
0.017626 0.065993 -0.222256 0.600000 0.300000 0.000000
0.689135 0.181367 -0.041400 0.300000 0.000000 0.600000
0.328348 0.062448 0.259745 0.600000 0.000000 0.300000
0.219335 -0.609428 -0.266577 0.300000 0.000000 0.600000
0.456275 -0.707880 0.201636 0.300000 0.000000 0.600000
0.450304 -0.165946 0.073509 0.300000 0.000000 0.600000
0.247963 0.048151 0.161914 0.600000 0.300000 0.000000
0.293438 0.494187 -0.042943 0.300000 0.000000 0.600000
-0.029652 0.494187 0.023794 0.300000 0.000000 0.600000
-0.344327 -0.380043 0.114811 0.600000 0.000000 0.300000
0.575435 -0.110800 0.197838 0.000000 0.000000 1.000000
0.242834 -0.330129 0.151964 0.000000 0.000000 1.000000
-0.133818 -0.126148 0.250824 0.300000 0.600000 0.000000
-0.203229 0.048151 -0.145856 0.600000 0.300000 0.000000
0.659939 -0.320331 -0.266577 0.300000 0.000000 0.600000
0.689135 0.031362 0.243180 0.300000 0.000000 0.600000
-0.067910 -0.191911 0.250824 0.300000 0.600000 0.000000
-0.648973 -0.201312 0.013100 0.300000 0.000000 0.600000
0.680185 0.706054 -0.143290 0.300000 0.000000 0.600000
0.715897 -0.675364 -0.086833 0.300000 0.000000 0.600000
-0.556359 0.494187 -0.220322 0.300000 0.000000 0.600000
0.446952 0.262248 0.107346 0.300000 0.000000 0.600000
0.460924 0.312377 -0.266577 0.300000 0.000000 0.600000
0.438001 -0.380043 -0.094132 0.600000 0.000000 0.300000
-0.382390 -0.707880 -0.078269 0.300000 0.000000 0.600000
-0.140401 0.706054 -0.139793 0.300000 0.000000 0.600000
-0.062974 -0.707880 0.129733 0.300000 0.000000 0.600000
0.448199 0.706054 0.195524 0.300000 0.000000 0.600000
-0.360185 -0.574970 0.259745 0.300000 0.000000 0.600000
0.321406 -0.316757 0.068396 0.000000 0.000000 1.000000
-0.047077 0.141011 0.250824 0.300000 0.600000 0.000000
0.436208 0.494187 -0.035148 0.300000 0.000000 0.600000
-0.557773 -0.029557 0.259745 0.000000 0.500000 0.500000
0.456995 0.453773 -0.257657 0.300000 0.000000 0.600000
0.675308 0.706054 0.213894 0.300000 0.000000 0.600000
-0.675735 -0.393494 -0.007952 0.300000 0.000000 0.600000
0.197254 0.048151 -0.192999 0.600000 0.300000 0.000000
-0.617719 -0.615490 -0.266577 0.300000 0.000000 0.600000
0.671860 -0.066760 -0.257657 0.300000 0.000000 0.600000
0.553716 -0.258844 0.259745 0.600000 0.000000 0.300000
0.013165 -0.458100 0.064625 0.300000 0.000000 0.600000
0.410885 -0.458100 -0.076012 0.300000 0.000000 0.600000
-0.187018 -0.707880 -0.086092 0.300000 0.000000 0.600000
-0.099817 0.280090 -0.032120 0.300000 0.000000 0.600000
-0.494271 0.262248 0.103909 0.300000 0.000000 0.600000
-0.044338 0.322687 0.180632 0.000000 0.000000 1.000000
-0.615583 0.306649 -0.257657 0.300000 0.000000 0.600000
0.310656 -0.458100 0.254973 0.300000 0.000000 0.600000
0.686333 -0.176780 -0.266577 0.300000 0.000000 0.600000
-0.613735 -0.165946 0.094552 0.300000 0.000000 0.600000
0.677387 0.120544 -0.266577 0.300000 0.000000 0.600000
0.374499 0.280090 -0.106509 0.300000 0.000000 0.600000
0.645538 0.540393 -0.266577 0.300000 0.000000 0.600000
0.031554 -0.362202 0.204369 0.600000 0.000000 0.300000
0.203342 -0.096452 -0.257657 0.300000 0.000000 0.600000
-0.616942 -0.423672 -0.266577 0.300000 0.000000 0.600000
0.235394 -0.458100 0.212512 0.300000 0.000000 0.600000
-0.103644 -0.707880 0.204791 0.300000 0.000000 0.600000
-0.408155 0.117492 0.154402 0.000000 0.000000 1.000000
-0.613729 0.065993 -0.217456 0.600000 0.300000 0.000000
-0.023726 -0.391103 -0.266577 0.300000 0.000000 0.600000
-0.481001 -0.633646 -0.266577 0.300000 0.000000 0.600000
0.172297 -0.380043 0.196908 0.600000 0.000000 0.300000
0.689135 0.448132 -0.091079 0.300000 0.000000 0.600000
0.640870 -0.458100 0.035162 0.300000 0.000000 0.600000
-0.648973 0.348522 0.025919 0.300000 0.000000 0.600000
0.715897 -0.445578 0.196128 0.300000 0.000000 0.600000
0.079317 -0.165946 -0.098809 0.300000 0.000000 0.600000
-0.633271 -0.458100 0.063101 0.300000 0.000000 0.600000
-0.675735 -0.160256 0.129294 0.300000 0.000000 0.600000
0.291157 -0.002243 0.259745 0.600000 0.000000 0.300000
-0.626906 -0.362202 -0.169677 0.600000 0.000000 0.300000
-0.603883 0.048151 -0.015273 0.600000 0.300000 0.000000
0.136345 0.178561 0.250824 0.300000 0.600000 0.000000
-0.021688 -0.559375 0.259745 0.300000 0.000000 0.600000
0.083657 -0.707880 -0.222439 0.300000 0.000000 0.600000
-0.072077 0.262248 0.118206 0.300000 0.000000 0.600000
0.024100 -0.380043 0.085243 0.600000 0.000000 0.300000
0.188613 -0.165946 -0.233654 0.300000 0.000000 0.600000
0.689135 0.473338 -0.177596 0.300000 0.000000 0.600000
-0.626671 0.295929 0.261033 0.000000 0.500000 0.500000
0.509712 -0.148105 -0.117488 0.300000 0.000000 0.600000
0.512884 0.048151 0.219253 0.600000 0.300000 0.000000
0.406688 -0.058897 0.183926 0.000000 0.000000 1.000000
0.689135 -0.064603 -0.179768 0.300000 0.000000 0.600000
0.683796 -0.165946 0.144147 0.300000 0.000000 0.600000
-0.105999 0.048151 0.062497 0.600000 0.300000 0.000000
0.419978 -0.637148 0.259745 0.300000 0.000000 0.600000
-0.055848 -0.707880 -0.257219 0.300000 0.000000 0.600000
-0.537556 -0.498802 0.259745 0.300000 0.000000 0.600000
0.050745 -0.165946 0.092625 0.300000 0.000000 0.600000
0.202942 -0.148105 -0.078814 0.300000 0.000000 0.600000
-0.082475 0.104959 0.070762 0.000000 0.000000 1.000000
-0.356787 0.494187 -0.003773 0.300000 0.000000 0.600000
-0.442840 0.220204 -0.257657 0.300000 0.000000 0.600000
0.669040 0.494187 0.018925 0.300000 0.000000 0.600000
-0.402596 -0.707880 0.035439 0.300000 0.000000 0.600000
0.449418 0.095255 0.099341 0.000000 0.000000 1.000000
-0.121845 -0.350254 -0.266577 0.300000 0.000000 0.600000
-0.557889 0.262248 0.139479 0.300000 0.000000 0.600000
0.233995 -0.455996 -0.257657 0.300000 0.000000 0.600000
0.409814 0.572724 -0.266577 0.300000 0.000000 0.600000
-0.086606 -0.287053 -0.266577 0.300000 0.000000 0.600000
-0.235572 -0.285083 0.115999 0.000000 0.000000 1.000000
0.689135 0.304846 -0.123225 0.300000 0.000000 0.600000
0.169211 -0.458100 -0.179304 0.300000 0.000000 0.600000
-0.648973 -0.306934 -0.136255 0.300000 0.000000 0.600000
0.331757 -0.380043 -0.134287 0.600000 0.000000 0.300000
0.715897 0.129829 -0.011456 0.300000 0.000000 0.600000
0.149664 0.036197 -0.266577 0.300000 0.000000 0.600000
-0.474401 0.065993 0.119999 0.600000 0.300000 0.000000
-0.455534 -0.551025 0.259745 0.300000 0.000000 0.600000
-0.648973 -0.081408 0.123233 0.300000 0.000000 0.600000
-0.015635 -0.148105 -0.136517 0.300000 0.000000 0.600000
-0.675735 -0.297101 0.233919 0.300000 0.000000 0.600000
0.365393 0.494187 -0.065218 0.300000 0.000000 0.600000
0.069991 0.142167 -0.266577 0.300000 0.000000 0.600000
0.715897 0.695270 -0.063871 0.300000 0.000000 0.600000
-0.251281 -0.707880 -0.051915 0.300000 0.000000 0.600000
0.500275 0.048151 -0.059373 0.600000 0.300000 0.000000
-0.401383 -0.195407 -0.266577 0.300000 0.000000 0.600000
-0.460354 -0.380043 -0.164717 0.600000 0.000000 0.300000
0.689135 0.440290 0.221499 0.300000 0.000000 0.600000
-0.448488 -0.362202 0.129360 0.600000 0.000000 0.300000
0.715897 0.693963 0.167967 0.300000 0.000000 0.600000
-0.610160 0.280090 0.144028 0.300000 0.000000 0.600000
0.167209 0.494187 0.208195 0.300000 0.000000 0.600000
0.020429 -0.148105 -0.234553 0.300000 0.000000 0.600000
-0.029735 0.262248 -0.177464 0.300000 0.000000 0.600000
0.108319 0.334228 0.097247 0.000000 0.000000 1.000000
0.614643 -0.248920 -0.257657 0.300000 0.000000 0.600000
0.293520 0.280090 -0.197987 0.300000 0.000000 0.600000
0.451264 -0.165946 -0.134839 0.300000 0.000000 0.600000
0.506742 -0.374906 -0.257657 0.600000 0.000000 0.300000
-0.675735 -0.665114 0.239315 0.300000 0.000000 0.600000
0.533990 0.494187 -0.139280 0.300000 0.000000 0.600000
0.338024 0.307290 0.094750 0.000000 0.000000 1.000000
-0.337884 0.699314 0.259745 0.300000 0.000000 0.600000
-0.566090 -0.707880 0.064032 0.300000 0.000000 0.600000
-0.675735 -0.400213 -0.064686 0.300000 0.000000 0.600000
-0.291265 -0.441697 -0.257657 0.300000 0.000000 0.600000
0.167627 0.431103 0.250824 0.300000 0.600000 0.000000
-0.605874 -0.165946 -0.084954 0.300000 0.000000 0.600000
0.234876 0.494187 -0.082811 0.300000 0.000000 0.600000
0.715897 -0.617618 0.190857 0.300000 0.000000 0.600000
0.122561 0.676637 -0.266577 0.300000 0.000000 0.600000
0.424075 0.626629 -0.266577 0.300000 0.000000 0.600000
-0.030963 0.008349 0.250824 0.300000 0.600000 0.000000
-0.530403 -0.362202 0.203495 0.600000 0.000000 0.300000
0.232522 -0.279557 0.116025 0.000000 0.000000 1.000000
0.658065 -0.165946 0.044104 0.300000 0.000000 0.600000
0.079143 -0.458100 0.099052 0.300000 0.000000 0.600000
-0.165709 0.290110 0.070369 0.000000 0.000000 1.000000
-0.110500 -0.707880 -0.046452 0.300000 0.000000 0.600000
-0.520702 0.267046 -0.266577 0.300000 0.000000 0.600000
-0.287543 -0.380043 0.008137 0.600000 0.000000 0.300000
0.361559 0.494187 0.051665 0.300000 0.000000 0.600000
0.436964 -0.068995 0.259745 0.600000 0.000000 0.300000
-0.082258 0.494187 0.117663 0.300000 0.000000 0.600000
0.302660 -0.318550 0.200452 0.000000 0.000000 1.000000
0.588114 -0.511302 0.259745 0.300000 0.000000 0.600000
-0.650813 -0.745104 -0.247495 0.500000 0.000000 0.500000
-0.648973 -0.284405 0.168321 0.300000 0.000000 0.600000
-0.643779 -0.707880 -0.018773 0.300000 0.000000 0.600000
-0.218813 -0.267486 -0.257657 0.300000 0.000000 0.600000
0.025411 0.262248 0.087054 0.300000 0.000000 0.600000
0.162190 0.494187 -0.233731 0.300000 0.000000 0.600000
-0.648973 -0.050495 0.073904 0.300000 0.000000 0.600000
0.423281 -0.165946 -0.051666 0.300000 0.000000 0.600000
-0.221449 0.134077 -0.266577 0.300000 0.000000 0.600000
0.398119 0.113542 -0.257657 0.300000 0.000000 0.600000
-0.175434 0.065993 -0.035488 0.600000 0.300000 0.000000
0.715897 0.395638 0.146629 0.300000 0.000000 0.600000
0.715897 -0.660849 -0.223093 0.300000 0.000000 0.600000
-0.258955 -0.124934 0.091895 0.000000 0.000000 1.000000
0.140229 -0.458100 -0.030728 0.300000 0.000000 0.600000
-0.526700 0.065993 -0.058249 0.600000 0.300000 0.000000
0.439804 0.119412 0.259745 0.600000 0.000000 0.300000
-0.392099 0.531430 0.268666 0.300000 0.000000 0.600000
0.689135 -0.194636 -0.176389 0.300000 0.000000 0.600000
0.715897 0.577655 0.179457 0.300000 0.000000 0.600000
-0.412554 -0.148105 0.098219 0.000000 0.000000 1.000000
0.111198 0.141050 0.090780 0.000000 0.000000 1.000000
0.369044 0.384050 -0.266577 0.300000 0.000000 0.600000
0.119085 -0.387550 0.250824 0.300000 0.600000 0.000000
-0.200873 -0.458100 -0.230840 0.300000 0.000000 0.600000
-0.623355 -0.458100 -0.070187 0.300000 0.000000 0.600000
-0.047923 -0.165946 0.047176 0.300000 0.000000 0.600000
-0.194107 -0.362202 -0.004987 0.600000 0.000000 0.300000
0.245018 0.048151 0.108691 0.600000 0.300000 0.000000
-0.458573 0.007608 -0.266577 0.300000 0.000000 0.600000
-0.675735 -0.115462 -0.134675 0.300000 0.000000 0.600000
0.600706 0.262248 0.210703 0.300000 0.000000 0.600000
-0.530990 0.280090 0.008751 0.300000 0.000000 0.600000
-0.090481 -0.125014 0.184237 0.000000 0.000000 1.000000
0.683642 -0.066649 0.268666 0.600000 0.000000 0.300000
-0.204950 -0.121305 -0.257657 0.300000 0.000000 0.600000
-0.387857 -0.362202 -0.017995 0.600000 0.000000 0.300000
0.039349 -0.380043 0.033732 0.600000 0.000000 0.300000
0.344737 -0.168303 0.259745 0.600000 0.000000 0.300000
0.110432 0.065993 -0.050041 0.600000 0.300000 0.000000
-0.393822 0.065084 -0.266577 0.300000 0.000000 0.600000
0.073242 -0.148105 -0.209666 0.300000 0.000000 0.600000
-0.474257 0.124999 0.259745 0.000000 0.500000 0.500000
-0.303706 -0.163735 0.259745 0.000000 0.500000 0.500000
-0.239078 -0.707880 -0.202006 0.300000 0.000000 0.600000
-0.029155 0.494187 -0.126857 0.300000 0.000000 0.600000
0.670282 -0.707880 0.013176 0.300000 0.000000 0.600000
0.492511 -0.424159 0.259745 0.600000 0.000000 0.300000
0.614399 -0.707880 0.242320 0.300000 0.000000 0.600000
0.321749 0.065993 0.056064 0.600000 0.300000 0.000000
0.589405 0.065993 -0.046216 0.600000 0.300000 0.000000
-0.029647 -0.165946 0.218348 0.300000 0.000000 0.600000
0.558564 -0.430936 0.259745 0.600000 0.000000 0.300000
0.620204 0.262248 0.026800 0.300000 0.000000 0.600000
-0.427834 0.662551 -0.266577 0.300000 0.000000 0.600000
-0.080572 -0.362202 0.085522 0.600000 0.000000 0.300000
0.493738 -0.276566 0.103158 0.000000 0.000000 1.000000
-0.534283 -0.707880 0.136835 0.300000 0.000000 0.600000
-0.499748 0.468326 -0.257657 0.300000 0.000000 0.600000
0.299547 -0.053587 -0.266577 0.300000 0.000000 0.600000
-0.288331 -0.103721 0.172248 0.000000 0.000000 1.000000
0.233449 -0.707880 0.179773 0.300000 0.000000 0.600000
0.715897 -0.370948 -0.224947 0.300000 0.000000 0.600000
-0.675735 0.559913 0.212803 0.300000 0.000000 0.600000
0.689135 -0.234617 0.154622 0.300000 0.000000 0.600000
0.345127 0.156870 0.259745 0.600000 0.000000 0.300000
0.689135 0.219845 0.033760 0.300000 0.000000 0.600000
0.613532 0.283640 0.259745 0.600000 0.000000 0.300000
0.493644 -0.596171 0.259745 0.300000 0.000000 0.600000
-0.327424 -0.165946 -0.170526 0.300000 0.000000 0.600000
-0.163311 0.304427 0.200357 0.000000 0.000000 1.000000
0.044132 0.521692 0.268666 0.300000 0.000000 0.600000
-0.550377 -0.124826 0.153645 0.000000 0.000000 1.000000
0.341133 -0.458100 -0.149068 0.300000 0.000000 0.600000
0.164211 0.103949 0.152258 0.000000 0.000000 1.000000
-0.350067 -0.165946 -0.105946 0.300000 0.000000 0.600000
-0.392926 -0.300253 -0.266577 0.300000 0.000000 0.600000
-0.533177 -0.458100 -0.106778 0.300000 0.000000 0.600000
-0.194274 0.067814 0.259745 0.300000 0.600000 0.000000
0.046397 -0.707880 -0.025904 0.300000 0.000000 0.600000
-0.390441 0.494187 0.221723 0.300000 0.000000 0.600000
-0.129072 -0.350366 0.250824 0.300000 0.600000 0.000000
-0.395234 0.650082 0.259745 0.300000 0.000000 0.600000
0.596674 0.280090 -0.025318 0.300000 0.000000 0.600000
-0.201376 0.706054 -0.056918 0.300000 0.000000 0.600000
0.243099 -0.363851 0.266153 0.600000 0.000000 0.300000
0.007702 0.706054 0.108609 0.300000 0.000000 0.600000
-0.496270 -0.382626 -0.266577 0.300000 0.000000 0.600000
0.475629 0.280090 -0.060842 0.300000 0.000000 0.600000
-0.511708 -0.148105 -0.037996 0.300000 0.000000 0.600000
0.178388 -0.333708 0.105168 0.000000 0.000000 1.000000
0.413639 -0.707880 0.232434 0.300000 0.000000 0.600000
-0.604443 0.262248 -0.197573 0.300000 0.000000 0.600000
0.232875 0.706054 -0.230770 0.300000 0.000000 0.600000
-0.296594 0.055032 0.259745 0.000000 0.500000 0.500000
0.502508 -0.362202 -0.192492 0.600000 0.000000 0.300000
0.524374 -0.306533 0.259745 0.600000 0.000000 0.300000
-0.098050 -0.198440 -0.266577 0.300000 0.000000 0.600000
0.464450 -0.223760 -0.266577 0.300000 0.000000 0.600000
0.530489 0.238022 -0.257657 0.300000 0.000000 0.600000
0.203543 0.538791 0.262507 0.300000 0.000000 0.600000
0.115967 -0.223500 -0.266577 0.300000 0.000000 0.600000
0.648620 0.048151 -0.130775 0.600000 0.300000 0.000000
-0.255934 -0.195245 0.259745 0.000000 0.500000 0.500000
0.617439 0.477315 0.268666 0.600000 0.000000 0.300000
0.003190 0.494187 -0.017115 0.300000 0.000000 0.600000
0.691441 0.657136 -0.266577 0.300000 0.000000 0.600000
0.341763 -0.284712 0.259745 0.600000 0.000000 0.300000
-0.222746 0.435376 -0.257657 0.300000 0.000000 0.600000
0.314535 -0.103295 0.152749 0.000000 0.000000 1.000000
-0.672506 -0.197338 0.259745 0.300000 0.000000 0.600000
0.169315 0.323042 0.068090 0.000000 0.000000 1.000000
0.256446 -0.158608 0.268666 0.600000 0.000000 0.300000
-0.312437 -0.102051 0.115639 0.000000 0.000000 1.000000
0.715897 -0.108889 0.180501 0.300000 0.000000 0.600000
-0.292000 0.258640 0.259745 0.000000 0.500000 0.500000
0.689135 -0.366001 -0.124996 0.300000 0.000000 0.600000
0.404581 0.034007 0.259745 0.600000 0.000000 0.300000
-0.239354 -0.499518 0.259745 0.300000 0.000000 0.600000
0.547722 -0.640474 -0.266577 0.300000 0.000000 0.600000
0.026313 0.100336 0.250824 0.300000 0.600000 0.000000
-0.313606 -0.380043 0.214532 0.600000 0.000000 0.300000
-0.323290 -0.376473 -0.257657 0.600000 0.000000 0.300000
0.335526 -0.707880 0.033998 0.300000 0.000000 0.600000
