ply
format ascii 1.0
element vertex 1267
property float x
property float y
property float z
property uchar red
property uchar green
property uchar blue
end_header
0.464783 -0.216457 -0.303395 76 0 153
0.033574 0.373623 -0.269575 0 0 255
-0.718743 0.388758 -0.303395 0 0 255
0.480560 -0.152519 0.305520 153 0 76
0.528682 0.166356 0.332196 153 0 76
0.605861 -0.359898 0.200683 204 51 127
0.725435 -0.296999 0.299100 153 0 76
-0.838186 -0.209409 0.059781 153 76 0
-0.650836 0.347426 -0.263987 0 0 255
0.454349 -0.359898 0.025104 204 51 127
0.335770 -0.333701 -0.159218 204 51 127
-0.727869 0.347426 0.141988 0 0 255
-0.810402 -0.083294 0.259845 0 255 0
-0.550131 -0.359053 -0.303395 76 0 153
-0.155542 0.242280 0.336770 0 127 127
0.672602 -0.333701 0.062497 204 51 127
-0.804056 0.347426 0.127811 0 0 255
0.864632 0.212301 0.168405 76 0 153
0.568502 -0.359898 -0.227018 204 51 127
-0.408159 0.347426 0.208866 0 0 255
0.699704 -0.333701 -0.264634 204 51 127
0.300267 0.021855 0.338436 153 0 76
-0.354693 -0.020570 -0.283747 153 0 76
0.700181 0.373623 -0.161726 0 0 255
0.481577 0.373623 -0.267861 0 0 255
-0.783336 -0.073434 -0.303395 153 0 76
-0.491335 -0.320717 0.334285 0 127 127
0.341647 -0.082760 -0.283747 153 0 76
-0.532423 -0.333701 -0.206247 204 51 127
-0.808993 -0.293940 -0.329592 153 76 0
0.838435 0.268268 -0.278462 76 0 153
-0.398619 0.281554 -0.329592 153 76 0
-0.648669 -0.359898 -0.297238 204 51 127
0.216026 -0.359898 -0.015466 204 51 127
-0.146821 -0.333701 0.082570 204 51 127
0.000573 0.347426 -0.191504 0 0 255
0.864632 0.128449 0.127955 76 0 153
0.724906 0.291160 0.338396 153 0 76
0.820258 0.388173 0.259845 0 0 255
-0.401595 0.242637 -0.315525 153 76 0
-0.471207 0.169337 -0.303395 153 0 76
0.864632 0.118630 -0.129835 76 0 153
0.412550 -0.341412 0.259845 153 0 76
-0.838186 0.236371 -0.205461 153 76 0
0.233052 -0.018574 0.305520 153 0 76
-0.374672 -0.359898 -0.291733 204 51 127
0.864632 -0.233884 0.089600 76 0 153
0.567105 0.362508 0.259845 204 51 127
0.864632 -0.251359 -0.014463 76 0 153
-0.054671 0.090096 0.259845 255 0 0
-0.377701 -0.312663 0.299140 153 0 76
-0.202234 -0.333701 -0.145631 204 51 127
-0.409984 0.324773 0.338396 0 127 127
-0.313284 -0.333701 0.004687 204 51 127
0.201477 -0.359898 -0.252291 204 51 127
-0.442566 -0.333701 -0.106145 204 51 127
0.102824 -0.359898 0.182385 204 51 127
-0.262015 0.051290 -0.283747 153 0 76
-0.838186 -0.381495 0.139069 153 76 0
-0.533686 -0.333701 -0.039530 204 51 127
0.785960 0.393939 0.299140 204 51 127
-0.838186 0.235546 -0.104902 153 76 0
0.381291 -0.359898 -0.214078 204 51 127
-0.617249 -0.307691 0.299140 153 0 76
-0.766283 0.373623 -0.112024 0 0 255
0.171081 -0.386095 0.261437 153 0 76
-0.814077 0.353366 0.259845 153 76 0
-0.495456 0.373623 -0.145304 0 0 255
0.838435 -0.333386 -0.122611 76 0 153
0.794979 0.347426 -0.285258 0 0 255
0.091420 0.203205 -0.283747 153 0 76
0.838435 -0.017378 0.144605 76 0 153
-0.811989 0.195810 0.184834 153 76 0
-0.838186 0.016348 -0.264984 153 76 0
0.432940 -0.333701 -0.222628 204 51 127
0.199796 0.373623 0.034994 0 0 255
-0.838186 0.232499 0.182120 153 76 0
0.633324 -0.007711 0.305520 153 0 76
-0.340223 0.373623 0.093353 0 0 255
0.423002 -0.106774 0.338436 153 0 76
-0.583740 -0.110059 -0.303395 153 0 76
0.671911 0.347426 0.187889 0 0 255
-0.553877 -0.015797 0.338436 0 127 127
0.615164 0.399821 0.262621 204 51 127
-0.296542 -0.333701 0.208342 204 51 127
-0.413391 0.347426 -0.241159 0 0 255
0.677272 0.399808 -0.303395 153 76 0
-0.668675 0.337656 -0.303395 153 0 76
-0.724405 -0.377976 0.299140 153 0 76
0.462525 0.014953 0.338436 153 0 76
-0.022649 0.347426 0.242070 0 0 255
0.640310 0.116873 0.338436 153 0 76
-0.368909 -0.344188 0.259845 153 0 76
-0.477411 0.225768 -0.283747 153 0 76
-0.850321 0.373692 0.259845 0 255 0
-0.751042 -0.070464 -0.283747 153 0 76
0.838435 0.128313 0.245669 76 0 153
0.864632 0.249811 -0.141504 76 0 153
0.838435 -0.301303 -0.098275 76 0 153
0.169651 0.322651 0.338396 153 0 76
0.838435 0.086902 -0.005049 76 0 153
-0.334789 0.064261 0.338436 0 127 127
-0.666024 0.091905 0.305520 0 127 127
-0.269763 -0.359898 -0.023764 204 51 127
-0.801892 -0.333701 -0.233231 204 51 127
-0.838186 -0.209459 -0.028170 153 76 0
0.066095 0.299837 0.299100 153 0 76
-0.775596 -0.359898 0.105817 204 51 127
0.497280 -0.058040 0.338436 153 0 76
-0.311404 -0.359898 -0.072450 204 51 127
-0.026819 -0.269186 0.338396 0 127 127
0.020589 -0.333701 -0.211202 204 51 127
0.358356 -0.275790 0.338396 153 0 76
0.387954 0.242637 -0.318447 153 76 0
-0.143731 -0.333701 -0.292422 76 0 153
0.381350 -0.101830 -0.283747 153 0 76
0.549907 0.244506 0.299100 153 0 76
-0.753627 0.347426 -0.254038 0 0 255
-0.302540 0.373623 -0.032851 0 0 255
0.838435 -0.150190 -0.254398 76 0 153
0.179514 0.373623 -0.235690 0 0 255
-0.321854 0.324514 -0.329592 153 76 0
-0.451206 -0.057400 0.305520 0 127 127
0.174292 -0.177543 0.318324 153 0 76
-0.811989 0.121811 0.159582 153 76 0
0.067659 -0.359898 -0.113388 204 51 127
0.208147 0.312344 0.338396 153 0 76
-0.783654 0.107825 0.299100 0 127 127
0.085825 -0.326933 0.331210 153 0 76
-0.308673 0.366516 0.299140 204 51 127
0.864632 -0.191008 0.011921 76 0 153
-0.545324 -0.333701 -0.135450 204 51 127
-0.484687 -0.242633 -0.303395 153 0 76
-0.838186 -0.157594 0.228647 153 76 0
-0.811989 0.065403 0.026184 153 76 0
0.334833 -0.290872 -0.329592 76 0 153
0.700413 0.347426 0.120618 0 0 255
-0.356492 0.207494 -0.303395 153 0 76
-0.559215 0.043154 0.305520 0 127 127
-0.062428 -0.333701 -0.169637 204 51 127
-0.528150 0.165279 0.337632 0 127 127
0.596840 0.305903 0.299100 153 0 76
0.807002 -0.359898 -0.068139 204 51 127
-0.816378 -0.141292 0.259845 0 255 0
0.558797 0.367634 0.299140 204 51 127
0.838435 -0.301778 0.036858 76 0 153
-0.811989 0.090869 0.116841 153 76 0
0.569847 0.352318 -0.303395 0 0 255
0.583919 -0.041416 -0.283747 153 0 76
-0.084079 -0.060772 0.299100 0 127 127
0.449915 -0.284426 -0.283747 153 0 76
0.281394 0.002256 -0.283747 153 0 76
0.539862 -0.359898 -0.044827 204 51 127
-0.811989 0.117207 0.040992 153 76 0
-0.113183 0.347426 0.215345 0 0 255
-0.807972 0.373623 0.221419 0 0 255
-0.662308 0.373623 -0.074417 0 0 255
-0.838186 0.100196 0.064266 153 76 0
-0.811989 0.174160 -0.100265 153 76 0
-0.838186 -0.288452 0.215399 153 76 0
0.731079 -0.308172 -0.283747 153 0 76
-0.803760 -0.115838 -0.303395 153 0 76
-0.582073 -0.064940 0.305520 0 127 127
-0.838186 0.310593 -0.272304 153 76 0
-0.240457 -0.333701 -0.287496 76 0 153
-0.099796 0.059894 -0.303395 153 0 76
-0.524139 0.332494 0.338396 0 127 127
0.521719 -0.333701 -0.176934 204 51 127
-0.787278 -0.188739 0.333170 0 127 127
0.814768 0.347426 -0.032242 0 0 255
-0.635475 -0.330605 0.327632 0 127 127
0.729437 0.360231 0.299140 204 51 127
-0.811989 -0.012324 0.107534 153 76 0
0.113614 -0.143968 -0.303395 153 0 76
-0.515687 0.141472 0.305520 0 127 127
0.144898 -0.026233 0.330953 153 0 76
-0.603400 0.084197 -0.283747 153 0 76
-0.469344 -0.359898 -0.127000 204 51 127
-0.099183 -0.359898 -0.183734 204 51 127
0.472940 0.347426 -0.059396 0 0 255
-0.278251 -0.286353 0.387631 76 153 0
-0.838186 0.057382 0.180026 153 76 0
-0.749586 -0.307538 0.338396 0 127 127
0.054431 0.182208 0.259845 255 0 0
0.161627 -0.364614 0.299140 153 0 76
0.054493 0.038617 0.338396 153 0 76
0.124250 -0.299591 0.299100 153 0 76
0.697821 -0.288812 -0.303395 153 0 76
-0.811968 -0.255439 -0.303395 153 76 0
0.044027 -0.266478 -0.303395 153 0 76
0.457029 0.394011 0.299140 204 51 127
0.177504 -0.303779 -0.283747 153 0 76
-0.594486 0.232978 -0.283747 153 0 76
-0.838186 -0.320347 -0.281788 153 76 0
0.837608 -0.083806 0.259845 76 0 153
-0.838186 -0.346398 -0.131602 153 76 0
0.709670 0.373623 -0.107123 0 0 255
-0.817707 -0.211270 0.259845 0 255 0
0.031327 0.152713 -0.283747 153 0 76
0.623778 0.373623 -0.044313 0 0 255
0.134482 -0.333701 -0.179386 204 51 127
0.864632 -0.303222 0.002225 76 0 153
0.838435 -0.252256 -0.234117 76 0 153
-0.750519 0.347426 0.200705 0 0 255
0.509322 0.092266 0.305520 153 0 76
-0.736071 0.373623 0.077135 0 0 255
0.825327 -0.008480 0.309132 153 0 76
-0.838186 0.164020 0.175095 153 76 0
-0.806878 0.373623 -0.295129 153 76 0
0.492466 -0.333701 -0.038904 204 51 127
0.498933 -0.196644 0.305520 153 0 76
-0.305910 -0.326134 0.259845 153 0 76
0.838435 -0.022706 -0.146154 76 0 153
-0.120855 -0.134020 0.299100 0 127 127
0.441919 0.347426 -0.099687 0 0 255
-0.133574 -0.235810 0.338396 0 127 127
0.157738 -0.271516 -0.329592 76 0 153
-0.733951 0.203232 0.299100 0 127 127
-0.548132 0.192906 0.305520 0 127 127
-0.016786 0.347426 -0.243554 0 0 255
0.034146 -0.333701 0.048623 204 51 127
0.347497 -0.359898 -0.110108 204 51 127
-0.251912 -0.333701 0.104442 204 51 127
0.230822 -0.333701 -0.129041 204 51 127
0.267366 0.062308 0.305520 153 0 76
-0.630338 -0.359898 0.196456 204 51 127
0.634998 0.347426 -0.078118 0 0 255
0.610559 0.232074 0.325077 153 0 76
-0.496339 0.373623 -0.001485 0 0 255
0.507428 -0.091197 -0.303395 153 0 76
-0.555506 -0.312099 -0.303395 76 0 153
0.701984 -0.003251 -0.283747 153 0 76
-0.592978 -0.359898 -0.182686 204 51 127
0.427589 0.373623 -0.207399 0 0 255
-0.173806 0.279866 0.299100 0 127 127
-0.785017 0.294448 0.338223 0 127 127
0.002895 0.373623 0.039932 0 0 255
-0.040574 0.387134 -0.303395 153 76 0
-0.185559 0.313583 -0.283747 153 0 76
-0.811989 -0.295762 0.148722 153 76 0
0.864632 0.325038 0.149419 76 0 153
0.864632 0.322033 0.033165 76 0 153
-0.811989 0.245202 -0.274780 153 76 0
0.763451 -0.045050 -0.283747 153 0 76
-0.200062 -0.246635 0.338396 0 127 127
0.376044 0.373623 0.169678 0 0 255
-0.293546 0.003354 -0.303395 153 0 76
0.152299 0.184185 -0.283747 153 0 76
-0.811989 0.016941 -0.190528 153 76 0
0.222762 0.347426 -0.034971 0 0 255
0.864632 -0.371538 -0.280916 76 0 153
0.443635 0.347426 -0.030861 0 0 255
0.381715 -0.386095 -0.312891 76 0 153
0.875723 0.279145 0.299140 0 0 255
-0.648901 -0.130591 0.321161 0 127 127
0.091815 0.040447 0.264844 255 0 0
0.484419 -0.351081 -0.303395 76 0 153
0.864632 -0.290628 -0.169583 76 0 153
0.799446 -0.296602 0.299100 153 0 76
-0.838186 0.202185 -0.322477 153 76 0
-0.773207 -0.300087 0.299100 0 255 0
0.864632 0.367765 -0.249792 76 0 153
0.167741 -0.359898 0.182531 204 51 127
0.625303 -0.324505 -0.329592 76 0 153
0.697401 -0.326820 0.259845 153 0 76
0.864632 0.286350 0.139102 76 0 153
-0.342957 -0.154512 0.305520 0 127 127
0.191555 -0.359898 0.108766 204 51 127
0.302051 0.347426 0.058806 0 0 255
-0.029889 0.218605 -0.303395 153 0 76
-0.157242 -0.257472 -0.303395 76 0 153
0.864632 -0.353398 0.008271 76 0 153
-0.077951 0.219429 -0.303395 153 0 76
0.745361 -0.333701 -0.235498 204 51 127
-0.300205 0.373623 -0.182101 0 0 255
-0.313531 0.321229 0.267865 204 51 127
-0.429438 -0.359898 0.125937 204 51 127
-0.484603 0.119650 0.305520 0 127 127
-0.753741 -0.247626 0.338396 0 127 127
0.354911 -0.333701 0.183088 204 51 127
-0.071642 0.347426 0.088887 0 0 255
-0.042814 -0.013004 0.299140 255 0 0
0.186860 -0.145688 -0.283747 153 0 76
0.169054 0.290990 0.299100 153 0 76
0.074181 0.143681 0.259845 255 0 0
0.736259 -0.353238 -0.329592 76 0 153
0.864632 0.005607 -0.074860 76 0 153
-0.792484 0.373623 0.027120 0 0 255
0.001611 -0.359898 -0.291364 204 51 127
0.638993 -0.263935 -0.303395 76 0 153
-0.495797 0.211990 0.305520 0 127 127
0.698514 0.023375 0.317917 153 0 76
0.694607 0.279446 -0.283747 153 0 76
0.472736 0.296226 -0.283747 153 0 76
-0.423489 -0.006609 0.305520 0 127 127
0.053603 0.088290 -0.303395 153 0 76
0.690756 0.373623 0.059945 0 0 255
-0.704337 0.373623 0.125575 0 0 255
0.417813 -0.333701 0.200878 204 51 127
0.864632 0.113081 -0.083512 76 0 153
-0.698729 0.347426 0.020270 0 0 255
-0.648385 -0.359898 -0.105103 204 51 127
-0.572471 -0.001698 0.305520 0 127 127
0.285776 -0.333701 -0.015536 204 51 127
-0.708122 -0.321003 -0.283747 153 0 76
0.838435 -0.126249 -0.148106 76 0 153
-0.838186 0.327603 -0.045847 153 76 0
-0.424833 0.347426 -0.003036 0 0 255
0.255620 -0.301908 -0.329592 76 0 153
0.789712 0.373623 -0.184071 0 0 255
-0.731854 0.156581 -0.303395 153 0 76
-0.838186 -0.339175 0.117450 153 76 0
-0.025532 -0.359898 0.173057 204 51 127
-0.784388 -0.228912 -0.319763 76 0 153
0.582651 -0.240307 -0.303395 76 0 153
-0.730490 0.364295 0.259845 204 51 127
-0.258453 0.347426 -0.187871 0 0 255
0.381413 -0.219014 0.327320 153 0 76
-0.811989 0.195510 -0.253967 153 76 0
0.838435 -0.264184 -0.040618 76 0 153
-0.220464 -0.343358 0.299140 153 0 76
0.815776 0.347426 0.126942 0 0 255
-0.280018 0.147302 0.305520 0 127 127
0.299335 -0.122786 0.338436 153 0 76
0.233861 -0.386095 0.295078 153 0 76
0.119301 -0.058617 0.299100 153 0 76
-0.515961 0.121078 -0.303395 153 0 76
-0.811989 -0.130819 -0.067883 153 76 0
0.482834 0.351633 0.259845 0 0 255
0.170177 0.347426 -0.147891 0 0 255
0.427127 -0.359898 -0.050282 204 51 127
-0.811989 0.276166 0.035623 153 76 0
-0.351909 0.315536 -0.303395 153 0 76
0.864632 0.193584 -0.303025 76 0 153
-0.154175 0.124546 0.320228 0 127 127
0.806409 0.373623 -0.082025 0 0 255
-0.373297 0.347426 -0.164279 0 0 255
0.831964 -0.234101 0.299140 153 0 76
-0.147468 -0.007332 -0.283747 153 0 76
-0.838186 -0.048380 -0.199860 153 76 0
-0.219395 -0.333701 0.002170 204 51 127
-0.064175 0.347426 0.024776 0 0 255
-0.269288 0.373623 -0.128519 0 0 255
-0.536245 -0.359898 0.204593 204 51 127
-0.431696 0.399821 -0.314399 153 76 0
0.537624 -0.386095 0.261448 153 0 76
-0.837794 0.257200 -0.329592 153 76 0
0.092805 -0.333701 -0.052431 204 51 127
0.155361 -0.359898 0.071882 204 51 127
-0.069117 0.347426 -0.266883 0 0 255
-0.811989 0.068269 0.150451 153 76 0
0.838435 0.097217 0.136693 76 0 153
0.065621 -0.099771 0.338396 153 0 76
0.492144 -0.359898 0.078535 204 51 127
-0.221787 -0.092267 0.305520 0 127 127
0.325290 -0.359898 -0.057793 204 51 127
0.838435 -0.013663 0.092526 76 0 153
0.231201 -0.204471 0.305520 153 0 76
-0.388246 0.373623 -0.232875 0 0 255
-0.041913 -0.333701 0.080103 204 51 127
0.345655 0.373623 0.094976 0 0 255
0.864632 -0.006267 -0.182156 76 0 153
-0.431188 -0.359898 0.044231 204 51 127
0.710480 -0.050467 0.327006 153 0 76
-0.333676 0.347426 -0.098396 0 0 255
0.067746 0.165673 0.299100 153 0 76
0.049040 -0.382070 0.299140 153 0 76
-0.628698 0.347426 0.177852 0 0 255
0.442731 -0.359898 0.103214 204 51 127
-0.838186 -0.057310 -0.319592 153 76 0
0.006990 -0.129393 -0.303395 153 0 76
-0.244192 -0.102722 0.338436 0 127 127
-0.838186 -0.330134 -0.064309 153 76 0
-0.747916 0.266752 -0.329592 153 76 0
-0.838186 0.366914 -0.273937 153 76 0
-0.615154 -0.333701 0.136791 204 51 127
-0.165887 0.357070 -0.329592 153 76 0
0.379392 0.210232 -0.303395 153 0 76
-0.706279 -0.230855 -0.283747 153 0 76
-0.015207 0.257783 0.332296 0 127 127
-0.237672 -0.359898 -0.153502 204 51 127
0.139454 0.373623 0.193175 0 0 255
-0.349077 -0.254836 -0.283747 153 0 76
-0.678472 0.373623 -0.035650 0 0 255
0.596463 0.347426 -0.113055 0 0 255
-0.714064 0.347426 -0.192872 0 0 255
-0.464008 -0.164355 0.305520 0 127 127
-0.273569 0.182266 -0.303395 153 0 76
0.790377 -0.032110 0.338396 153 0 76
-0.074614 -0.156407 0.299100 0 127 127
0.476252 0.015137 -0.303395 153 0 76
-0.811989 0.278190 0.143593 153 76 0
0.218416 0.169897 -0.283747 153 0 76
-0.838186 0.010289 0.140551 153 76 0
0.651976 -0.115001 0.326700 153 0 76
-0.536358 -0.359898 0.041098 204 51 127
0.864632 -0.154771 0.110078 76 0 153
-0.838186 -0.223265 0.129223 153 76 0
0.838435 -0.129300 -0.029364 76 0 153
0.512370 -0.224604 0.333629 153 0 76
-0.192479 0.342563 0.329640 0 127 127
0.353673 0.347426 -0.164414 0 0 255
-0.562639 -0.288921 0.338396 0 127 127
-0.394062 -0.359898 0.200292 204 51 127
0.078210 -0.359898 0.107451 204 51 127
-0.110215 0.347426 -0.020675 0 0 255
0.102027 0.067731 -0.283747 153 0 76
-0.742062 0.373623 0.120644 0 0 255
-0.324547 0.156123 0.338436 0 127 127
-0.486206 0.373623 0.043730 0 0 255
-0.727461 0.342951 0.329201 0 127 127
-0.379626 -0.228558 0.338396 0 127 127
-0.697612 -0.333701 -0.172417 204 51 127
0.225183 0.071193 0.305520 153 0 76
0.181488 0.399821 -0.306082 153 76 0
0.864632 -0.260290 -0.298186 76 0 153
-0.662410 -0.016013 0.318187 0 127 127
0.066102 0.145613 -0.303395 153 0 76
-0.089210 -0.359898 0.226329 204 51 127
0.718942 0.373623 0.004079 0 0 255
-0.233735 0.373623 0.132007 0 0 255
-0.750279 -0.028926 -0.303395 153 0 76
0.412616 0.399821 -0.313774 153 76 0
-0.578774 0.347426 0.059205 0 0 255
-0.838186 0.273273 -0.035497 153 76 0
0.262975 -0.194803 -0.303395 153 0 76
0.434498 0.053159 -0.303395 153 0 76
-0.811989 0.068040 -0.056613 153 76 0
0.556578 -0.198395 0.318154 153 0 76
-0.562213 -0.333701 -0.235749 204 51 127
-0.838186 0.187342 -0.051904 153 76 0
-0.110743 -0.292554 -0.283747 153 0 76
-0.171684 -0.359898 -0.298368 204 51 127
-0.678818 0.328422 0.259845 204 51 127
-0.137893 0.327010 -0.283747 153 0 76
-0.654667 0.347426 0.226062 0 0 255
0.697206 -0.184835 -0.303395 153 0 76
-0.416738 0.373623 0.175752 0 0 255
0.344035 0.399821 -0.305273 153 76 0
-0.811989 0.123974 0.211619 153 76 0
0.365678 0.373623 0.061751 0 0 255
-0.758422 -0.256366 -0.303395 76 0 153
-0.838186 0.210318 0.096690 153 76 0
0.864632 -0.176955 0.062120 76 0 153
0.443086 -0.359898 0.059806 204 51 127
-0.249331 0.347426 -0.089047 0 0 255
-0.261617 0.085182 0.338436 0 127 127
0.793451 0.387545 -0.303395 153 76 0
0.295774 -0.359898 0.225167 204 51 127
-0.075928 0.120900 0.299100 0 127 127
0.150723 -0.206034 -0.303395 153 0 76
-0.092913 0.347426 -0.218544 0 0 255
-0.702606 -0.085496 -0.303395 153 0 76
0.759462 -0.164096 0.338396 153 0 76
-0.811989 0.006534 0.211624 153 76 0
0.324515 0.347426 -0.060620 0 0 255
0.651436 -0.005931 -0.283747 153 0 76
0.592803 -0.014118 0.305520 153 0 76
0.276665 0.347426 0.222441 0 0 255
-0.065369 -0.221180 0.267614 255 0 0
0.832923 0.340795 -0.303395 76 0 153
0.864632 -0.015842 0.051683 76 0 153
-0.678298 -0.228548 0.337591 0 127 127
0.060942 -0.056451 0.259845 255 0 0
-0.185821 -0.297729 -0.283747 153 0 76
0.319323 0.373623 -0.004184 0 0 255
-0.169829 0.347426 0.111360 0 0 255
-0.409381 0.347426 -0.108294 0 0 255
0.682428 -0.333701 0.208865 204 51 127
0.516989 -0.313492 0.259845 153 0 76
0.465841 0.373623 -0.107820 0 0 255
0.679938 0.044867 -0.303395 153 0 76
-0.260160 0.242637 -0.319632 153 76 0
-0.414405 0.053996 0.338436 0 127 127
0.838435 0.130207 0.001172 76 0 153
0.701185 0.100497 -0.303395 153 0 76
0.089108 0.133832 0.338396 153 0 76
-0.239835 -0.219343 0.299100 0 127 127
-0.392293 0.373623 0.104574 0 0 255
-0.811989 0.265119 0.104325 153 76 0
0.810654 -0.359898 0.219169 204 51 127
0.072636 0.271200 -0.303395 153 76 0
-0.705402 -0.333701 0.091100 204 51 127
-0.838186 0.105647 -0.086640 153 76 0
-0.468908 0.347426 -0.119030 0 0 255
-0.198760 0.347426 0.022023 0 0 255
0.324483 -0.347301 -0.329592 76 0 153
0.759964 0.371638 -0.303395 0 0 255
-0.850433 0.051479 0.259845 153 76 0
0.864632 -0.056487 0.108320 76 0 153
-0.838186 0.361886 0.065680 153 76 0
-0.445673 0.154555 0.338436 0 127 127
0.838435 0.166347 0.118139 76 0 153
-0.633099 0.290746 0.338396 0 127 127
0.091815 0.079624 0.262820 255 0 0
0.509768 -0.333701 0.133043 204 51 127
-0.322413 -0.057195 -0.303395 153 0 76
-0.153590 0.103166 -0.303395 153 0 76
0.745928 -0.298699 0.338396 153 0 76
-0.032785 -0.077717 0.338396 0 127 127
0.842006 -0.364663 0.259845 204 51 127
-0.649902 -0.359898 -0.200012 204 51 127
0.360087 0.321229 0.287769 153 0 76
0.864632 -0.035963 -0.047151 76 0 153
-0.802111 0.123275 -0.283747 153 0 76
-0.726397 -0.121801 0.299100 0 127 127
0.498089 -0.094916 0.338436 153 0 76
-0.002563 -0.206936 0.259845 255 0 0
-0.238232 -0.386095 -0.326499 76 0 153
0.638549 -0.359898 -0.081875 204 51 127
-0.213624 0.373623 -0.125551 0 0 255
0.864632 -0.041509 -0.165077 76 0 153
-0.703823 -0.333701 -0.013504 204 51 127
-0.185600 -0.164911 0.305520 0 127 127
0.838435 -0.350768 -0.186000 76 0 153
-0.732836 -0.333701 -0.130196 204 51 127
0.101290 -0.333701 -0.247312 204 51 127
-0.811989 0.390369 0.149770 153 76 0
0.625758 0.347426 0.221233 0 0 255
-0.256323 -0.356445 0.299140 153 0 76
0.182053 -0.359898 -0.216063 204 51 127
-0.313843 0.373623 0.121924 0 0 255
0.583026 -0.288655 -0.303395 76 0 153
-0.811989 -0.012211 -0.124462 153 76 0
0.584233 -0.329812 0.328530 153 0 76
-0.126665 -0.333701 0.034863 204 51 127
-0.115792 -0.333701 -0.097305 204 51 127
0.838435 0.052119 0.157436 76 0 153
0.273239 -0.060917 0.338436 153 0 76
-0.456034 0.279628 -0.303395 153 0 76
-0.388682 0.157015 -0.283747 153 0 76
0.023820 0.373623 0.114163 0 0 255
-0.201880 0.347426 -0.102136 0 0 255
0.141162 -0.224383 0.299100 153 0 76
0.316245 -0.250890 -0.303395 76 0 153
0.660323 0.373623 -0.118604 0 0 255
0.370414 0.173326 0.305519 153 0 76
0.027076 0.347426 0.009147 0 0 255
0.764471 0.373623 0.013329 0 0 255
-0.293215 -0.257266 -0.283747 153 0 76
-0.813619 -0.186929 0.299140 0 255 0
-0.653542 0.277958 -0.329592 153 76 0
0.581303 -0.359898 -0.138019 204 51 127
-0.074254 0.085679 -0.283747 153 0 76
0.076299 -0.195087 0.299140 255 0 0
0.838435 -0.030485 0.227118 76 0 153
-0.441966 -0.106661 -0.303395 153 0 76
0.718681 0.347426 -0.038882 0 0 255
-0.311557 -0.333701 -0.171040 204 51 127
0.599368 0.373623 -0.275387 0 0 255
0.738613 -0.313467 -0.329592 76 0 153
-0.105951 -0.359898 0.178347 204 51 127
0.290714 -0.359898 0.164234 204 51 127
-0.270813 0.062305 0.305520 0 127 127
0.200239 0.373623 0.191506 0 0 255
-0.818747 0.181388 0.299140 0 255 0
0.508320 -0.021603 -0.283747 153 0 76
0.838435 0.234241 0.179941 76 0 153
0.325682 -0.359898 0.051067 204 51 127
0.317076 -0.333701 -0.107082 204 51 127
0.542683 0.260300 -0.303395 153 0 76
-0.614683 0.193362 -0.303395 153 0 76
-0.838186 0.228920 -0.001484 153 76 0
-0.454042 -0.126344 0.305520 0 127 127
0.474164 0.399348 -0.303395 153 76 0
-0.749996 0.347426 -0.044878 0 0 255
0.864632 -0.302529 0.111802 76 0 153
0.838435 -0.146447 0.013656 76 0 153
0.545238 -0.150549 0.338202 153 0 76
-0.524481 -0.050699 0.338436 0 127 127
0.864632 0.037611 0.230567 76 0 153
-0.012387 -0.333701 -0.141666 204 51 127
-0.851284 0.231254 0.296205 0 255 0
-0.401978 -0.113955 0.338436 0 127 127
0.787784 0.268565 0.338396 153 0 76
0.645602 -0.333701 0.161917 204 51 127
-0.069149 -0.333701 0.179613 204 51 127
0.695732 -0.359898 -0.236758 204 51 127
0.314646 0.242637 -0.320247 153 76 0
0.864632 0.257587 -0.059958 76 0 153
0.028693 -0.333701 0.223388 204 51 127
-0.066409 0.227839 0.338396 0 127 127
0.334567 0.206806 -0.303395 153 0 76
0.416479 -0.303653 0.299100 153 0 76
-0.572376 0.013150 -0.283747 153 0 76
-0.201363 0.220587 -0.303395 153 0 76
0.864632 -0.305930 -0.210937 76 0 153
-0.396972 -0.333701 0.173391 204 51 127
-0.509459 -0.296641 -0.303395 153 0 76
-0.033796 0.361793 -0.329592 153 76 0
-0.582243 0.166302 0.332797 0 127 127
0.864632 0.199618 -0.136322 76 0 153
-0.284020 -0.333701 -0.208598 204 51 127
0.763181 0.002207 -0.283747 153 0 76
0.630311 -0.333701 -0.201746 204 51 127
0.564869 0.323551 0.299140 204 51 127
-0.013429 -0.354141 0.259845 153 0 76
-0.140472 -0.333701 0.175577 204 51 127
0.838435 -0.177918 -0.106820 76 0 153
-0.677256 -0.343477 0.299140 0 127 127
0.864632 0.258776 -0.097560 76 0 153
-0.074685 0.258991 0.299100 0 127 127
0.033260 -0.359898 -0.013187 204 51 127
-0.445901 0.373623 0.210599 0 0 255
0.286742 -0.270145 0.385832 76 0 153
-0.772693 0.320832 0.298980 204 51 127
0.639885 0.082119 0.305520 153 0 76
0.237117 -0.359898 0.112637 204 51 127
-0.380388 0.130186 0.338436 0 127 127
-0.753983 0.373623 0.037843 0 0 255
0.008184 -0.277337 -0.329592 76 0 153
0.408743 0.373623 0.029680 0 0 255
-0.712873 0.280446 0.299100 0 127 127
-0.811989 -0.192635 -0.169403 153 76 0
0.864632 -0.134577 0.157630 76 0 153
0.323443 -0.359898 0.201584 204 51 127
0.298065 0.351054 -0.329592 153 76 0
0.331878 0.347426 -0.249777 0 0 255
0.838435 -0.087350 -0.170271 76 0 153
-0.058967 -0.349232 -0.303395 204 51 127
-0.243325 0.242276 0.335238 0 127 127
-0.067398 0.166991 -0.303395 153 0 76
0.367836 0.220328 0.305519 153 0 76
0.525790 0.347426 -0.148828 0 0 255
0.218375 -0.333701 0.228128 204 51 127
0.271142 -0.359898 0.199186 204 51 127
0.302142 -0.333701 0.096625 204 51 127
0.557341 -0.053094 0.305520 153 0 76
-0.578053 -0.117037 0.338436 0 127 127
-0.772104 0.220212 0.338396 0 127 127
0.278986 0.369323 -0.303395 153 76 0
-0.161574 0.347426 0.061052 0 0 255
-0.143312 0.347426 -0.135394 0 0 255
0.804853 -0.333701 0.038155 204 51 127
0.064462 -0.333701 -0.184434 204 51 127
0.703532 -0.359898 -0.054561 204 51 127
0.298923 -0.333701 -0.242611 204 51 127
0.838435 0.200527 0.251442 0 0 255
0.838435 -0.081149 -0.041294 76 0 153
-0.395640 -0.333701 -0.117650 204 51 127
0.091815 0.260123 0.266936 255 0 0
0.135314 0.321229 0.294696 153 0 76
0.792822 0.049847 -0.303395 153 0 76
-0.737800 -0.307504 0.268144 153 0 76
0.565878 -0.094343 -0.283747 153 0 76
-0.229157 0.321229 0.281627 204 51 127
-0.006432 0.081212 0.311522 0 127 127
0.365627 -0.333701 -0.270323 204 51 127
0.009014 0.172940 -0.303395 153 0 76
-0.009097 0.036475 0.259845 255 0 0
-0.838186 -0.088372 -0.296454 153 76 0
0.864632 0.227144 0.016906 76 0 153
0.014469 -0.133191 0.259845 255 0 0
-0.684975 0.373623 -0.211888 0 0 255
-0.202285 0.347426 0.173742 0 0 255
-0.267345 0.311547 0.338396 0 127 127
0.803602 -0.107182 0.299140 153 0 76
-0.838186 -0.100283 0.221969 153 76 0
0.561816 -0.359898 0.092087 204 51 127
-0.838186 0.328426 0.190963 153 76 0
-0.241051 0.373623 -0.037911 0 0 255
0.514836 -0.315341 -0.303395 76 0 153
-0.053209 -0.020076 0.338396 0 127 127
-0.204926 -0.334456 0.259845 153 0 76
-0.772091 0.373623 -0.152822 0 0 255
-0.811989 -0.123597 0.121131 153 76 0
-0.838186 -0.342476 0.057119 153 76 0
-0.567876 0.347426 -0.281119 0 0 255
0.590487 0.373623 0.164570 0 0 255
0.481644 0.242637 -0.316124 153 76 0
-0.447863 -0.054047 -0.303395 153 0 76
0.097865 -0.056771 0.338396 153 0 76
0.850613 0.370576 0.299140 0 0 255
-0.315331 -0.198843 -0.283747 153 0 76
-0.302154 0.347426 -0.210038 0 0 255
0.838435 0.372166 0.083448 0 0 255
0.033986 0.344054 0.324132 153 0 76
-0.324330 0.017394 -0.283747 153 0 76
-0.316360 0.375676 -0.329592 153 76 0
0.864632 0.132243 -0.189483 76 0 153
-0.049778 0.275976 -0.303395 153 76 0
0.101133 0.347426 -0.020422 0 0 255
0.395989 0.390664 0.259845 204 51 127
0.262988 0.313412 -0.329592 153 76 0
-0.076709 -0.135443 -0.283747 153 0 76
0.123203 -0.044478 -0.303395 153 0 76
0.838435 0.314426 -0.041990 76 0 153
-0.510024 0.396419 0.259845 204 51 127
-0.811989 0.126352 -0.208799 153 76 0
0.701532 0.372527 -0.329592 153 76 0
0.080123 0.347426 0.226709 0 0 255
0.607694 -0.333701 0.039102 204 51 127
-0.851284 -0.247917 0.298339 0 255 0
0.398968 -0.333701 0.121431 204 51 127
0.207160 -0.359898 -0.053821 204 51 127
-0.306636 -0.357380 0.299140 153 0 76
-0.450401 -0.386095 -0.326802 76 0 153
0.155334 0.351182 -0.303395 153 0 76
0.707028 0.347426 0.169221 0 0 255
0.800139 -0.333701 -0.130562 204 51 127
-0.465434 0.002600 -0.283747 153 0 76
-0.838186 -0.157113 -0.249322 153 76 0
-0.209583 0.347426 0.107855 0 0 255
0.838435 0.317468 -0.194686 76 0 153
-0.587927 0.373623 0.202843 0 0 255
-0.838186 -0.099975 -0.181098 153 76 0
-0.811989 -0.255249 -0.054600 153 76 0
0.717848 -0.113020 0.299100 153 0 76
0.553995 0.014228 -0.283747 153 0 76
-0.838186 -0.258520 0.053514 153 76 0
-0.548230 0.399821 0.279846 204 51 127
-0.064648 -0.333701 0.123371 204 51 127
0.838435 -0.175894 0.181141 76 0 153
0.260091 0.373623 -0.165070 0 0 255
0.368546 -0.359898 0.024587 204 51 127
0.614544 0.158664 -0.303395 153 0 76
-0.185367 -0.298688 0.299100 0 127 127
0.556810 -0.274633 0.338396 153 0 76
0.405620 -0.025400 -0.283747 153 0 76
0.838435 0.176046 -0.238413 76 0 153
-0.724242 -0.333701 -0.233867 204 51 127
-0.183671 0.392328 -0.329592 153 76 0
0.031787 -0.333701 -0.048319 204 51 127
0.653582 0.119268 0.305520 153 0 76
-0.199811 -0.359898 -0.044736 204 51 127
0.430350 -0.333701 -0.140092 204 51 127
-0.233714 -0.333701 0.068624 204 51 127
0.864632 0.204623 -0.172059 76 0 153
-0.607655 0.321229 0.261505 204 51 127
0.838435 0.012533 -0.126018 76 0 153
0.864632 0.048019 0.130881 76 0 153
-0.525569 0.090501 0.338436 0 127 127
0.352743 0.281060 0.299100 153 0 76
0.726920 -0.261597 0.299100 153 0 76
0.216800 0.028989 0.338436 153 0 76
0.334178 0.347426 0.224466 0 0 255
0.733010 -0.359898 -0.290960 204 51 127
0.729772 0.062260 -0.283747 153 0 76
0.241775 -0.069045 0.305520 153 0 76
0.458659 -0.053233 -0.283747 153 0 76
-0.781178 -0.144607 -0.303395 153 0 76
0.330359 -0.087605 0.305520 153 0 76
-0.232150 -0.333701 -0.092595 204 51 127
-0.838186 0.178588 0.126551 153 76 0
-0.077572 0.399821 0.261573 204 51 127
-0.614767 -0.359898 0.109835 204 51 127
-0.022250 -0.303907 0.299140 0 127 127
-0.086206 0.373623 -0.105300 0 0 255
-0.811989 0.171024 0.019215 153 76 0
0.274710 0.345690 0.300139 153 0 76
-0.776969 0.168382 0.259845 0 255 0
-0.218356 0.064522 0.305520 0 127 127
0.724494 0.373623 0.105777 0 0 255
0.581763 0.197031 -0.303395 153 0 76
-0.186878 0.373623 -0.175415 0 0 255
0.249204 0.088891 0.338436 153 0 76
0.446404 -0.152387 0.336227 153 0 76
-0.084525 -0.322193 0.333149 0 127 127
-0.838186 -0.049081 0.178462 153 76 0
0.864632 0.077107 -0.217907 76 0 153
-0.773256 -0.359898 0.258090 153 0 76
-0.506113 0.359940 0.259845 204 51 127
0.152017 -0.096505 -0.303395 153 0 76
-0.785503 -0.333701 -0.065541 204 51 127
0.335775 0.016949 -0.303395 153 0 76
0.307849 -0.058621 0.305520 153 0 76
0.605426 -0.359898 -0.039797 204 51 127
-0.162630 -0.088677 0.305520 0 127 127
-0.085512 -0.241818 -0.283747 153 0 76
-0.811989 0.095383 -0.002986 153 76 0
-0.763330 0.373623 -0.065881 0 0 255
-0.141272 -0.333701 0.134314 204 51 127
-0.545538 -0.285131 0.390150 76 153 0
-0.564935 0.373623 0.078405 0 0 255
-0.508089 -0.018921 0.338436 0 127 127
-0.475352 -0.333701 0.227631 204 51 127
-0.814542 -0.386095 -0.099524 153 76 0
0.633760 0.373623 -0.144654 0 0 255
0.747411 0.347426 0.138903 0 0 255
-0.280428 -0.311219 0.338396 0 127 127
-0.523790 -0.188853 -0.303395 153 0 76
0.838435 0.336478 0.099241 0 0 255
0.568425 0.373623 0.121736 0 0 255
-0.158428 -0.359898 -0.061899 204 51 127
-0.001638 -0.359898 -0.200270 204 51 127
-0.811989 -0.218501 0.006629 153 76 0
0.014978 -0.359898 -0.081774 204 51 127
0.469792 -0.359898 0.184790 204 51 127
0.583056 0.373623 -0.227880 0 0 255
-0.340602 0.343131 0.328990 0 127 127
-0.229829 0.373623 0.072052 0 0 255
-0.302443 -0.075704 0.338436 0 127 127
0.012646 0.373623 0.231975 0 0 255
0.154670 -0.333701 -0.208876 204 51 127
0.704578 0.188560 0.305520 153 0 76
-0.274942 0.347426 0.206825 0 0 255
-0.648737 0.131594 0.305520 0 127 127
-0.122328 -0.333701 -0.170477 204 51 127
-0.521136 0.029245 0.338436 0 127 127
0.322884 0.373623 -0.224752 0 0 255
-0.323349 0.266454 -0.303395 153 0 76
0.256632 -0.333701 -0.066061 204 51 127
0.245781 0.164662 0.338010 153 0 76
0.648492 0.291275 -0.329592 153 76 0
0.600829 -0.061625 0.338436 153 0 76
0.500365 -0.371423 0.259845 153 0 76
-0.240655 -0.288131 -0.283747 153 0 76
0.105051 0.277373 -0.283747 153 0 76
0.035991 -0.359898 0.166419 204 51 127
-0.132062 -0.284338 0.338396 0 127 127
-0.102707 -0.359898 -0.228593 204 51 127
-0.196407 0.165145 0.337728 0 127 127
-0.051880 -0.359898 -0.001270 204 51 127
-0.105158 0.371079 -0.329592 153 76 0
-0.793243 0.347426 0.086484 153 76 0
0.498283 -0.157986 -0.303395 153 0 76
-0.583541 0.223862 0.317826 0 127 127
0.443180 0.357397 -0.329592 153 76 0
-0.528240 -0.333701 0.111068 204 51 127
0.194113 0.373623 0.103950 0 0 255
0.102113 -0.288005 -0.303395 76 0 153
-0.597599 -0.135213 0.305520 0 127 127
-0.838186 0.246632 -0.144039 153 76 0
0.465884 0.373623 0.204693 0 0 255
0.838435 -0.305552 -0.024693 76 0 153
0.181453 -0.065462 0.320575 153 0 76
0.513699 -0.140761 0.305520 153 0 76
0.877730 0.121900 0.298028 0 0 255
0.799139 0.362135 0.292022 0 0 255
0.266672 0.277973 -0.303395 153 76 0
0.565863 -0.171021 -0.283747 153 0 76
0.060242 0.094760 0.259845 255 0 0
-0.652333 -0.359898 0.004108 204 51 127
0.492903 -0.327828 -0.329592 76 0 153
0.459994 -0.104082 0.305520 153 0 76
-0.701869 -0.333701 0.038025 204 51 127
0.623387 0.114722 -0.303395 153 0 76
0.188068 0.390592 0.259845 204 51 127
0.356656 -0.028904 -0.283747 153 0 76
-0.643088 0.373623 -0.145468 0 0 255
-0.215927 -0.117447 -0.303395 153 0 76
0.027002 -0.333701 0.141590 204 51 127
-0.188688 -0.359898 0.131927 204 51 127
0.230793 -0.092561 0.338436 153 0 76
0.563240 -0.003328 0.338436 153 0 76
0.646070 0.360953 -0.303395 153 76 0
0.454072 0.373623 -0.158979 0 0 255
0.838435 0.094108 0.067261 76 0 153
0.018872 0.347426 -0.037091 0 0 255
-0.811989 -0.169697 -0.203382 153 76 0
0.838435 0.386998 -0.198036 76 0 153
0.404766 -0.209427 -0.283747 153 0 76
0.255372 -0.079874 -0.303395 153 0 76
-0.811989 -0.080584 0.070734 153 76 0
0.330951 0.078074 0.305520 153 0 76
0.838435 -0.255338 -0.115942 76 0 153
0.708114 -0.359898 0.153437 204 51 127
-0.581448 -0.185520 0.305520 0 127 127
0.452037 -0.333701 0.133188 204 51 127
0.413583 0.373623 -0.083641 0 0 255
0.864632 -0.066145 0.064618 76 0 153
-0.763439 0.059386 0.299100 0 127 127
0.709968 0.087924 0.303795 153 0 76
-0.710104 0.347426 0.178590 0 0 255
0.864632 0.281385 0.200353 76 0 153
-0.801080 0.347426 -0.245319 0 0 255
0.059377 -0.376230 -0.329592 76 0 153
0.451780 0.240507 -0.283747 153 0 76
0.388507 0.277965 -0.283747 153 0 76
-0.106816 -0.333701 0.104548 204 51 127
-0.625673 -0.386095 0.260828 153 0 76
0.734241 0.227090 -0.303395 153 0 76
0.838435 -0.362795 -0.324940 76 0 153
-0.120257 -0.209676 -0.303395 153 0 76
-0.836213 -0.386095 -0.210751 153 76 0
0.077954 0.373815 -0.329592 153 76 0
-0.701196 0.347426 -0.269317 0 0 255
0.286355 0.135235 0.305520 153 0 76
0.227425 -0.333701 0.157324 204 51 127
-0.838186 0.042704 0.048698 153 76 0
-0.180509 0.130701 -0.303395 153 0 76
-0.366101 -0.041660 0.338436 0 127 127
-0.652623 0.347426 0.129231 0 0 255
0.383167 0.347426 0.233917 0 0 255
-0.383824 -0.070559 0.305520 0 127 127
-0.523895 -0.332484 0.324389 0 127 127
-0.036336 -0.333701 0.021833 204 51 127
0.626882 0.233699 -0.303395 153 76 0
-0.838186 0.029596 -0.094687 153 76 0
-0.282821 0.239547 0.334265 0 127 127
0.346705 -0.148846 0.338436 153 0 76
-0.421581 0.306826 0.299100 0 127 127
-0.628058 -0.333701 0.062143 204 51 127
-0.811989 -0.256062 0.228921 153 76 0
0.185490 -0.076378 -0.283747 153 0 76
0.816335 0.156509 0.299140 0 0 255
0.221717 -0.151324 0.337792 153 0 76
-0.211175 -0.333701 0.198024 204 51 127
0.276129 0.220932 -0.303395 153 0 76
0.130419 0.399821 -0.305415 153 76 0
0.270045 0.347426 -0.038270 0 0 255
-0.726280 0.236065 -0.283747 153 0 76
-0.274956 0.373623 0.009084 0 0 255
-0.315985 0.126938 -0.283747 153 0 76
-0.009530 -0.068118 0.299339 255 0 0
0.101792 0.314687 -0.303395 153 0 76
-0.621768 -0.059014 -0.283747 153 0 76
0.310646 0.347426 0.150182 0 0 255
-0.284171 -0.329537 -0.303395 76 0 153
0.046136 -0.177004 0.337622 153 0 76
0.201413 0.347426 -0.169784 0 0 255
0.441841 0.116039 -0.303395 153 0 76
0.749105 -0.359898 -0.070924 204 51 127
0.864632 -0.224992 -0.175278 76 0 153
-0.673367 0.399821 0.298403 204 51 127
-0.666409 -0.314523 0.259845 153 0 76
0.838435 -0.215755 -0.048013 76 0 153
0.039353 0.373623 -0.010314 0 0 255
0.377785 0.373623 -0.217267 0 0 255
0.255095 0.347426 0.116128 0 0 255
-0.811989 0.306635 -0.302671 153 76 0
-0.811989 -0.190700 0.073147 153 76 0
0.237098 -0.333701 0.052897 204 51 127
-0.376885 0.052611 -0.303395 153 0 76
0.759840 -0.347806 0.299140 153 0 76
-0.838186 0.095025 0.218585 153 76 0
-0.838186 -0.134965 -0.170088 153 76 0
-0.402767 -0.359898 0.082629 204 51 127
-0.702711 0.294019 -0.303395 153 76 0
0.084122 -0.202723 -0.283747 153 0 76
0.835323 0.214367 -0.283747 153 0 76
0.822658 -0.075411 -0.303395 153 0 76
0.666035 -0.359898 -0.033946 204 51 127
-0.657953 0.214267 -0.303395 153 0 76
0.046700 0.322226 -0.329592 153 76 0
0.427427 0.353930 0.299140 204 51 127
0.428944 -0.280066 0.338396 153 0 76
0.748790 -0.080396 0.338396 153 0 76
-0.749651 -0.359898 -0.198702 204 51 127
0.191895 -0.329696 0.259845 153 0 76
0.686215 0.373623 -0.241428 0 0 255
-0.027872 0.106372 -0.303395 153 0 76
-0.273522 -0.333701 0.043661 204 51 127
-0.481838 0.347426 0.095968 0 0 255
-0.469762 -0.078861 0.338436 0 127 127
0.116880 0.239644 0.299100 153 0 76
0.032879 0.098740 0.310232 255 0 0
0.113785 0.344486 0.327460 153 0 76
-0.838186 0.350376 0.008974 153 76 0
-0.811989 0.152574 -0.299631 153 0 76
-0.067585 -0.069747 -0.303395 153 0 76
-0.560279 -0.326614 0.331425 0 127 127
-0.722557 -0.257521 -0.303395 153 0 76
-0.555344 -0.086300 -0.303395 153 0 76
0.343244 0.158232 0.338436 153 0 76
-0.796932 -0.030301 0.326274 0 127 127
0.202039 0.331078 -0.329592 153 76 0
-0.838186 0.320364 -0.208839 153 76 0
-0.396878 -0.289002 0.390455 76 153 0
-0.327392 0.373623 0.172984 0 0 255
-0.568334 0.373623 -0.119449 0 0 255
-0.124571 0.373623 -0.275988 0 0 255
0.838435 -0.258889 0.033011 76 0 153
0.377063 -0.302236 -0.329592 76 0 153
-0.811989 -0.019651 -0.025551 153 76 0
0.237382 0.140244 0.305520 153 0 76
-0.344035 0.293064 0.299100 0 127 127
0.775576 -0.333701 -0.215369 204 51 127
0.812595 -0.333686 0.310857 153 0 76
-0.681299 -0.299384 -0.303395 76 0 153
0.720509 -0.079201 -0.303395 153 0 76
-0.797711 0.026465 0.300671 0 255 0
-0.298383 -0.040484 -0.283747 153 0 76
-0.840871 0.098673 0.299140 0 255 0
0.864632 0.241857 -0.326653 76 0 153
0.370904 -0.159656 -0.303395 153 0 76
0.749927 0.347426 0.032364 0 0 255
-0.688899 0.359800 -0.329592 153 76 0
0.799326 -0.333701 -0.013608 204 51 127
-0.626570 -0.240344 -0.283747 153 0 76
0.838435 0.243364 -0.041207 76 0 153
0.384988 0.347426 -0.272054 0 0 255
-0.333992 -0.351345 -0.329592 76 0 153
0.670357 -0.124359 -0.283747 153 0 76
0.864632 0.372225 0.142254 76 0 153
-0.274984 0.080864 -0.303395 153 0 76
-0.092807 -0.314107 0.259845 204 51 127
-0.348960 -0.359898 -0.043486 204 51 127
-0.811989 -0.106987 0.176019 153 76 0
-0.309175 -0.386095 0.279897 153 0 76
0.780107 -0.359898 -0.092307 204 51 127
0.283155 -0.359898 0.123100 204 51 127
0.632777 0.309871 0.299100 153 0 76
0.554965 0.373623 0.229433 0 0 255
0.734124 0.373623 0.224927 0 0 255
0.128027 0.373623 -0.009259 0 0 255
-0.838186 0.124606 -0.248544 153 76 0
-0.811989 0.135697 -0.171192 153 76 0
-0.810809 -0.330370 -0.303395 153 76 0
-0.276489 -0.333701 -0.159385 204 51 127
-0.761733 0.347426 0.245437 0 0 255
-0.465847 0.058454 0.305520 0 127 127
0.716228 0.347426 -0.145943 0 0 255
0.444808 -0.315169 -0.303395 153 0 76
0.838435 -0.172125 -0.009437 76 0 153
-0.811989 0.176690 -0.204051 153 76 0
-0.442302 -0.359898 -0.234656 204 51 127
-0.381090 0.373623 -0.294234 153 76 0
-0.811989 -0.240161 -0.252050 153 76 0
0.656508 -0.338430 0.259845 153 0 76
-0.838186 -0.237028 -0.128759 153 76 0
0.838435 -0.379686 -0.204821 76 0 153
0.777722 -0.366283 0.259845 153 0 76
-0.429379 0.012116 -0.283747 153 0 76
0.809634 0.162282 -0.303395 153 0 76
-0.652929 0.185013 0.305520 0 127 127
-0.832514 -0.033661 0.259845 0 255 0
-0.477169 -0.359898 0.125917 204 51 127
0.038606 -0.359898 -0.157972 204 51 127
-0.222617 -0.359898 -0.205012 204 51 127
0.645200 -0.051995 0.305520 153 0 76
-0.403752 -0.359898 -0.064531 204 51 127
-0.740345 -0.359898 0.139408 204 51 127
-0.314183 0.373623 0.063076 0 0 255
-0.007539 -0.359898 0.094233 204 51 127
0.096696 0.373623 0.255766 0 0 255
-0.183993 -0.359898 -0.123751 204 51 127
0.484084 0.291055 0.338396 153 0 76
0.147174 0.070439 0.299100 153 0 76
-0.791005 -0.105733 0.299100 0 255 0
-0.811989 0.000729 0.056962 153 76 0
-0.452827 0.232056 0.300494 0 127 127
0.433455 -0.279597 0.411012 76 0 153
-0.847782 0.155009 0.259845 153 76 0
-0.637076 0.347426 -0.119696 0 0 255
0.602364 0.347426 0.002651 0 0 255
-0.452828 0.347426 -0.047960 0 0 255
-0.390809 -0.085211 -0.303395 153 0 76
0.096890 0.016829 0.338396 153 0 76
0.439938 -0.086031 -0.283747 153 0 76
0.311099 -0.386095 -0.319081 76 0 153
-0.791194 -0.359898 0.200871 204 51 127
0.690418 -0.097416 0.318143 153 0 76
0.611282 0.347426 -0.220826 0 0 255
0.522145 0.373623 -0.021779 0 0 255
0.123173 -0.359898 0.149377 204 51 127
-0.838186 -0.125860 0.035562 153 76 0
0.809269 -0.294573 -0.329592 76 0 153
0.774471 0.373623 -0.138162 0 0 255
0.000086 -0.245538 -0.303395 76 0 153
-0.115824 -0.180056 0.333477 0 127 127
-0.271195 -0.160898 -0.303395 153 0 76
-0.400871 -0.312081 -0.303395 153 0 76
-0.506052 -0.333701 0.058590 204 51 127
-0.125072 -0.125642 -0.303395 153 0 76
-0.127175 0.347426 -0.222986 0 0 255
0.864632 -0.102107 0.206066 76 0 153
0.774041 0.347426 -0.031529 0 0 255
-0.019408 0.109521 0.334570 0 127 127
-0.558470 -0.297777 0.299100 0 127 127
-0.811989 -0.308399 0.198000 153 76 0
0.838435 -0.077001 0.098729 76 0 153
-0.695126 -0.313800 0.299100 0 127 127
-0.531418 0.058854 -0.303395 153 0 76
-0.575076 0.105625 -0.283747 153 0 76
-0.413563 0.347426 0.122865 0 0 255
-0.534360 0.069748 0.305520 0 127 127
-0.555957 -0.359898 0.174838 204 51 127
0.110175 -0.333701 0.071631 204 51 127
0.055493 0.373623 -0.231292 0 0 255
-0.275722 0.209641 0.305520 0 127 127
-0.613675 -0.333701 -0.163474 204 51 127
-0.838186 -0.181782 -0.052594 153 76 0
-0.487472 0.317267 0.299100 204 51 127
-0.555233 0.373623 -0.034560 0 0 255
-0.116341 -0.085561 -0.303395 153 0 76
0.249669 -0.149289 0.305520 153 0 76
0.689619 -0.268253 -0.329592 76 0 153
0.599174 0.382917 -0.329592 153 76 0
-0.395551 0.191098 0.323802 0 127 127
-0.214794 0.095433 -0.283747 153 0 76
0.838435 0.254969 -0.166919 76 0 153
0.538301 0.373623 -0.300116 153 76 0
0.169771 -0.333701 -0.157861 204 51 127
0.603531 -0.359898 -0.266471 204 51 127
-0.719136 -0.151428 -0.303395 153 0 76
0.713357 -0.333701 0.093654 204 51 127
-0.774651 0.265676 -0.283747 153 0 76
-0.106903 -0.333701 -0.270812 204 51 127
0.761085 -0.012798 0.338396 153 0 76
-0.009860 0.373623 -0.134620 0 0 255
-0.399818 0.104172 0.305520 0 127 127
0.732558 -0.359898 0.118731 204 51 127
-0.743922 -0.333701 0.064302 204 51 127
-0.487354 0.347426 -0.186301 0 0 255
-0.631472 0.321229 0.293449 0 127 127
-0.719627 0.373623 -0.151433 0 0 255
-0.811989 0.150853 0.071663 153 76 0
0.447453 0.099359 0.338436 153 0 76
-0.838186 -0.228182 -0.187247 153 76 0
-0.313299 0.012071 0.338436 0 127 127
-0.376655 -0.146036 -0.283747 153 0 76
0.169894 0.347426 -0.043856 0 0 255
0.678166 0.375793 0.259845 204 51 127
0.864632 0.192635 -0.024332 76 0 153
0.221457 0.300610 -0.303395 153 0 76
-0.066051 0.347426 0.131459 0 0 255
-0.257326 0.051241 0.338436 0 127 127
-0.838186 0.051125 0.083819 153 76 0
0.130905 -0.104307 0.299100 153 0 76
-0.293478 0.293307 -0.329592 153 76 0
0.431728 0.347426 -0.150158 0 0 255
0.825331 -0.077710 0.314083 153 0 76
0.838435 -0.326417 0.127066 204 51 127
0.199904 -0.359898 0.016019 204 51 127
0.076980 -0.333701 0.035648 204 51 127
-0.374314 -0.224223 -0.303395 153 0 76
-0.811989 -0.033260 -0.289756 153 76 0
0.147684 -0.157949 0.327098 153 0 76
-0.811989 -0.032364 0.227993 153 76 0
-0.764496 0.396690 0.259845 204 51 127
0.598119 -0.333701 0.228328 204 51 127
-0.653715 -0.333701 -0.147739 204 51 127
-0.683519 -0.181538 0.305336 0 127 127
0.864632 0.274313 0.059353 76 0 153
-0.280369 -0.051577 0.305520 0 127 127
-0.838186 -0.200219 -0.142941 153 76 0
0.085933 0.347426 -0.159914 0 0 255
-0.737424 -0.094824 -0.303395 153 0 76
0.832720 -0.271217 -0.303395 76 0 153
0.757141 0.119834 -0.283747 153 0 76
0.609229 -0.135100 -0.303395 153 0 76
-0.811989 -0.025155 -0.202559 153 76 0
0.612464 -0.045590 -0.303395 153 0 76
-0.117297 0.117253 -0.303395 153 0 76
-0.811989 -0.138149 -0.119101 153 76 0
-0.676651 -0.355122 0.259845 153 0 76
-0.424090 0.318253 -0.329592 153 76 0
0.864632 0.160511 -0.208558 76 0 153
-0.272702 0.373623 -0.243369 0 0 255
0.695752 -0.333701 -0.032195 204 51 127
0.001688 0.347426 0.067449 0 0 255
-0.838186 -0.264345 -0.218898 153 76 0
0.805505 -0.359898 -0.269164 204 51 127
-0.121779 -0.110888 0.324121 0 127 127
0.181790 0.089786 0.320715 153 0 76
-0.676205 0.347426 -0.235813 0 0 255
-0.519869 0.373623 0.038049 0 0 255
-0.811989 -0.087751 -0.155467 153 76 0
0.838435 -0.042508 -0.116146 76 0 153
0.368429 0.373623 -0.104581 0 0 255
0.080568 -0.262132 0.299100 255 0 0
0.864632 0.378554 0.229625 76 0 153
0.143085 0.347426 -0.172653 0 0 255
0.196131 0.238956 -0.303395 153 76 0
0.042976 0.399821 0.260744 204 51 127
-0.733657 0.166603 0.338396 0 127 127
-0.795904 0.293681 0.259845 0 255 0
0.864632 -0.061002 -0.295458 76 0 153
0.047380 -0.359898 0.236263 153 0 76
0.589085 0.087140 0.338436 153 0 76
0.645870 -0.359898 0.071300 204 51 127
0.824693 0.347426 -0.211518 76 0 153
-0.330110 0.245521 -0.329592 153 76 0
0.371457 0.111117 -0.303395 153 0 76
-0.756380 -0.190766 -0.283747 153 0 76
-0.811989 -0.322142 -0.177959 153 76 0
0.864632 -0.206467 0.192826 76 0 153
0.258025 0.347426 0.046549 0 0 255
0.326257 0.399821 0.260372 204 51 127
0.864632 -0.073853 -0.016637 76 0 153
0.594204 0.347426 -0.167840 0 0 255
0.704932 0.347426 -0.085991 0 0 255
0.280331 -0.163937 0.326131 153 0 76
-0.220573 -0.308372 0.338396 0 127 127
0.874738 -0.360034 0.299140 0 0 255
-0.654694 -0.333701 -0.052081 204 51 127
0.864632 0.026855 0.038202 76 0 153
-0.008754 -0.386095 0.296168 153 0 76
0.808900 0.373623 0.176966 0 0 255
-0.416206 0.347426 -0.069060 0 0 255
-0.362975 -0.333701 -0.105809 204 51 127
0.678601 0.347426 -0.001583 0 0 255
0.650391 0.373623 0.039132 0 0 255
-0.724744 0.347426 0.227690 0 0 255
-0.524863 0.001009 -0.283747 153 0 76
0.838435 -0.052501 0.173083 76 0 153
0.565596 -0.303495 0.299100 153 0 76
0.143602 0.276022 0.338396 153 0 76
-0.181964 0.078793 0.327046 0 127 127
-0.811989 -0.246860 0.171503 153 76 0
-0.638417 -0.333701 -0.082908 204 51 127
0.148154 0.347426 0.223466 0 0 255
-0.665529 -0.333701 0.155735 204 51 127
0.095097 0.373623 0.099450 0 0 255
-0.361822 0.350011 0.299140 204 51 127
-0.336516 0.042246 -0.303395 153 0 76
-0.093761 0.195163 -0.283747 153 0 76
0.159322 -0.318043 -0.329592 153 0 76
0.375624 0.011358 0.338436 153 0 76
-0.438227 0.369182 0.259845 204 51 127
-0.379672 -0.153429 0.305520 0 127 127
0.838435 0.163353 0.171484 76 0 153
-0.775083 -0.359898 -0.254316 204 51 127
-0.330058 -0.172383 -0.303395 153 0 76
0.063405 0.373623 0.121977 0 0 255
0.615273 0.373623 0.197519 0 0 255
0.723789 0.010890 0.299100 153 0 76
0.117926 0.106341 0.299100 153 0 76
-0.732339 0.347426 0.044815 0 0 255
0.639878 -0.333701 -0.140826 204 51 127
-0.493014 0.289355 -0.303395 153 76 0
-0.329689 0.347426 -0.151789 0 0 255
0.838435 -0.261989 0.099908 76 0 153
0.477352 0.168865 0.305519 153 0 76
0.610606 0.347426 0.067938 0 0 255
0.551803 0.347426 0.105043 0 0 255
-0.750616 0.080769 0.338396 0 127 127
-0.459270 0.242637 -0.307202 153 0 76
0.306397 0.232881 0.327625 153 0 76
0.750415 -0.333701 0.070434 204 51 127
-0.326322 -0.312030 -0.303395 76 0 153
-0.393686 0.290403 0.338396 0 127 127
-0.592806 -0.333701 0.038039 204 51 127
-0.061049 -0.285373 -0.329592 76 0 153
0.035809 -0.359898 -0.270012 204 51 127
-0.413498 -0.348996 -0.303395 76 0 153
0.838435 0.165399 -0.018540 76 0 153
-0.838186 0.199155 0.040633 153 76 0
0.322409 -0.359898 0.124335 204 51 127
0.744651 0.143108 0.299100 153 0 76
0.864632 -0.076925 -0.255031 76 0 153
-0.575370 -0.196969 -0.283747 153 0 76
-0.811989 -0.310791 0.100036 153 76 0
-0.811989 0.257907 -0.214017 153 76 0
0.460961 -0.359898 -0.131265 204 51 127
-0.674881 0.336997 0.299140 0 127 127
0.812359 -0.271909 0.334493 153 0 76
0.019562 0.347426 0.158209 0 0 255
0.815478 0.095282 -0.303395 153 0 76
-0.660533 0.248906 0.338396 0 127 127
0.411254 0.007069 0.305520 153 0 76
-0.781374 0.394179 -0.303395 153 76 0
0.673196 -0.307504 0.276373 153 0 76
-0.046178 0.040401 -0.303395 153 0 76
0.385940 -0.359898 -0.114276 204 51 127
-0.699008 0.082874 0.299100 0 127 127
0.566109 0.184610 0.305519 153 0 76
-0.033786 0.152309 0.259845 255 0 0
0.461757 0.347426 0.132367 0 0 255
-0.568608 0.079294 0.338436 0 127 127
-0.826537 0.315748 0.299140 0 255 0
-0.434544 -0.359898 0.235196 204 51 127
-0.448751 0.370746 -0.303395 153 76 0
0.799139 -0.251369 0.297642 153 0 76
-0.604007 0.287452 -0.303395 153 0 76
0.129075 0.367944 -0.329592 153 76 0
0.076175 0.222459 0.338396 153 0 76
0.561660 0.020564 0.305520 153 0 76
0.103675 -0.333701 0.203603 204 51 127
-0.205720 0.301018 -0.329592 153 76 0
0.037581 -0.359898 -0.225995 204 51 127
-0.838186 -0.085805 -0.015141 153 76 0
-0.266062 0.347426 -0.282018 0 0 255
0.864632 -0.305080 0.065304 76 0 153
0.363473 0.347426 0.133955 0 0 255
0.622151 -0.333701 0.124135 204 51 127
