-0.481583 0.461212 0.224227 0.000000 0.500000 0.500000
-0.490568 -0.289812 0.353042 1.000000 0.000000 0.000000
0.792690 0.184283 0.315116 0.000000 0.500000 0.500000
0.042413 -0.415269 0.193495 0.500000 0.000000 0.500000
-0.177204 0.148742 0.316363 1.000000 0.000000 0.000000
-0.780573 -0.271839 0.066347 0.000000 0.500000 0.500000
0.510106 0.034063 0.292885 0.000000 0.500000 0.500000
-0.674214 0.461212 -0.268556 0.000000 0.500000 0.500000
0.316353 0.460732 0.137026 0.000000 0.500000 0.500000
-0.788593 0.460384 -0.277581 0.000000 0.500000 0.500000
-0.467374 -0.411302 0.284554 0.000000 0.500000 0.500000
-0.385014 0.239105 0.157852 0.000000 0.500000 0.500000
0.321407 -0.476380 0.076508 0.500000 0.000000 0.500000
-0.661384 0.425937 0.365769 0.000000 0.500000 0.500000
-0.543327 -0.409077 0.303135 0.000000 0.500000 0.500000
-0.243393 0.239105 -0.280931 0.000000 0.500000 0.500000
-0.730475 0.461212 -0.053868 0.000000 0.500000 0.500000
-0.215504 -0.087624 -0.366491 0.000000 0.500000 0.500000
-0.574841 0.050594 -0.366491 0.000000 0.500000 0.500000
0.301441 0.461212 -0.254116 0.000000 0.500000 0.500000
0.506330 -0.411633 0.270070 0.000000 0.500000 0.500000
-0.585262 0.440264 0.319750 0.000000 0.500000 0.500000
0.822262 -0.156570 -0.135819 0.000000 0.500000 0.500000
0.136751 0.353449 0.316363 0.000000 0.500000 0.500000
-0.314400 0.032092 -0.400085 0.000000 0.500000 0.500000
0.297634 0.034854 -0.400085 0.000000 0.500000 0.500000
0.401868 0.373094 0.355997 0.000000 0.500000 0.500000
-0.504569 -0.301709 -0.366541 0.000000 0.500000 0.500000
-0.411274 -0.048770 0.326839 0.000000 1.000000 0.000000
0.435055 0.239120 0.112750 0.000000 0.500000 0.500000
0.821878 -0.298501 0.124965 0.000000 0.500000 0.500000
-0.337442 -0.479816 -0.329589 0.500000 0.000000 0.500000
-0.808861 0.451536 0.285257 0.000000 0.500000 0.500000
-0.005192 0.460460 -0.284847 0.000000 0.500000 0.500000
0.419180 -0.378168 -0.152563 0.000000 0.500000 0.500000
0.661668 -0.357027 0.368494 0.000000 0.500000 0.500000
0.637379 -0.026053 0.368494 0.000000 0.500000 0.500000
0.416222 -0.423689 0.163079 0.500000 0.000000 0.500000
-0.202903 0.180866 -0.400085 0.000000 0.500000 0.500000
-0.670486 0.461212 -0.017584 0.000000 0.500000 0.500000
-0.780329 0.005319 -0.326475 0.000000 0.500000 0.500000
0.504625 0.067979 0.193024 0.000000 0.500000 0.500000
0.293034 -0.154608 -0.400085 0.000000 0.500000 0.500000
-0.723960 0.389402 -0.400085 0.000000 0.500000 0.500000
-0.209354 0.460213 -0.288214 0.000000 0.500000 0.500000
-0.804508 0.284881 0.367247 0.000000 0.500000 0.500000
-0.557372 -0.478285 -0.379633 0.500000 0.000000 0.500000
0.822245 0.118495 -0.186595 0.000000 0.500000 0.500000
0.437643 0.050853 -0.366212 0.000000 0.500000 0.500000
0.434894 0.343267 0.353737 0.000000 0.500000 0.500000
0.539707 -0.313834 0.328931 0.000000 0.500000 0.500000
0.467733 0.402920 0.351002 0.000000 0.500000 0.500000
0.326616 -0.297137 -0.400085 0.000000 0.500000 0.500000
0.822262 -0.365339 -0.256340 0.000000 0.500000 0.500000
0.797499 0.232395 -0.394575 0.000000 0.500000 0.500000
0.236623 -0.153510 -0.366491 0.000000 0.500000 0.500000
0.370324 -0.479843 -0.024280 0.500000 0.000000 0.500000
-0.207212 -0.378156 0.167925 0.000000 0.500000 0.500000
0.720973 -0.278195 -0.400085 0.000000 0.500000 0.500000
-0.785064 0.423997 -0.397292 0.000000 0.500000 0.500000
0.822034 0.008551 0.271638 0.000000 0.500000 0.500000
-0.641465 0.239105 0.160832 0.000000 0.500000 0.500000
-0.098748 -0.187784 -0.400085 0.000000 0.500000 0.500000
0.344446 -0.305095 0.367247 1.000000 0.000000 0.000000
0.821264 0.331985 0.142320 0.000000 0.500000 0.500000
-0.757048 -0.180230 -0.399968 0.000000 0.500000 0.500000
0.346436 -0.411638 0.269135 0.000000 0.500000 0.500000
0.473904 -0.479843 -0.301393 0.500000 0.000000 0.500000
-0.284205 0.172672 -0.366286 0.000000 0.500000 0.500000
-0.147760 0.239105 0.240269 0.000000 0.500000 0.500000
-0.083304 -0.124751 -0.400085 0.000000 0.500000 0.500000
0.264590 -0.241609 -0.366491 0.000000 0.500000 0.500000
-0.814164 -0.438212 -0.206105 0.500000 0.000000 0.500000
-0.341483 -0.378156 0.231537 0.000000 0.500000 0.500000
-0.094898 0.239105 -0.198979 0.000000 0.500000 0.500000
0.766983 0.300097 -0.399898 0.000000 0.500000 0.500000
-0.738410 -0.136850 -0.400085 0.000000 0.500000 0.500000
0.439349 0.268623 0.338772 1.000000 0.000000 0.000000
-0.808075 -0.218028 0.295678 0.000000 0.500000 0.500000
-0.814166 -0.057231 0.032259 0.000000 0.500000 0.500000
-0.017735 -0.301569 0.364799 1.000000 0.000000 0.000000
0.508702 -0.151197 0.319613 1.000000 0.000000 0.000000
-0.144202 0.460213 -0.260868 0.000000 0.500000 0.500000
-0.810091 0.103673 0.326178 1.000000 0.000000 0.000000
0.481409 -0.141218 -0.400085 0.000000 0.500000 0.500000
-0.122894 -0.232348 -0.366491 0.000000 0.500000 0.500000
-0.068915 -0.292793 -0.366491 0.000000 0.500000 0.500000
0.349039 -0.378442 0.211034 0.000000 0.500000 0.500000
-0.780573 -0.005235 -0.086240 0.000000 0.500000 0.500000
0.821684 -0.167086 0.157838 0.000000 0.500000 0.500000
0.167945 -0.055392 0.333199 0.000000 1.000000 0.000000
0.822262 -0.368403 0.040156 0.000000 0.500000 0.500000
0.161548 -0.415420 0.192755 0.500000 0.000000 0.500000
0.159650 0.427101 0.320194 0.000000 0.500000 0.500000
0.648187 0.182737 0.353875 0.000000 0.000000 1.000000
0.504625 -0.022886 -0.180156 0.000000 0.500000 0.500000
0.188986 0.423985 -0.399947 0.000000 0.500000 0.500000
0.504625 -0.024399 0.241574 0.000000 0.500000 0.500000
0.141035 0.460646 0.074767 0.000000 0.500000 0.500000
-0.074749 -0.372371 0.367247 1.000000 0.000000 0.000000
-0.664338 0.239105 -0.105495 0.000000 0.500000 0.500000
-0.116429 -0.378699 0.085403 0.000000 0.500000 0.500000
-0.812166 -0.265402 0.286325 0.000000 0.500000 0.500000
0.763363 -0.479765 -0.041660 0.500000 0.000000 0.500000
-0.361842 -0.378634 0.281499 0.000000 0.500000 0.500000
0.477807 -0.077424 0.316363 1.000000 0.000000 0.000000
0.817729 0.249297 0.292495 0.000000 0.500000 0.500000
-0.780573 -0.176918 -0.082581 0.000000 0.500000 0.500000
0.679648 0.461212 0.161142 0.000000 0.500000 0.500000
-0.148152 -0.176269 -0.400085 0.000000 0.500000 0.500000
-0.295011 -0.000809 -0.366491 0.000000 0.500000 0.500000
-0.814166 -0.381402 -0.149194 0.000000 0.500000 0.500000
0.512594 -0.004123 -0.400085 0.000000 0.500000 0.500000
0.234203 -0.414042 0.199509 0.500000 0.000000 0.500000
0.724640 0.313674 0.340009 0.000000 0.500000 0.500000
0.447479 -0.407672 0.365511 1.000000 0.000000 0.000000
-0.737161 0.113154 0.316363 1.000000 0.000000 0.000000
0.477684 0.166262 0.316363 1.000000 0.000000 0.000000
0.607109 -0.436874 0.135603 0.500000 0.000000 0.500000
-0.814166 0.316230 0.045713 0.000000 0.500000 0.500000
-0.515074 0.274012 -0.400085 0.000000 0.500000 0.500000
-0.220553 -0.387823 0.367247 1.000000 0.000000 0.000000
0.759951 0.070583 0.357050 0.000000 0.000000 1.000000
-0.780836 0.197828 -0.140205 0.000000 0.500000 0.500000
-0.780573 -0.066213 -0.001811 0.000000 0.500000 0.500000
-0.565875 0.140938 0.353545 1.000000 0.000000 0.000000
-0.678788 0.239105 -0.216015 0.000000 0.500000 0.500000
-0.814166 -0.407132 0.009143 0.500000 0.000000 0.500000
-0.115740 0.409160 0.316363 0.000000 0.500000 0.500000
-0.537306 -0.196127 -0.400085 0.000000 0.500000 0.500000
0.491000 0.329648 0.362556 0.000000 0.500000 0.500000
-0.780727 -0.310860 0.043254 0.000000 0.500000 0.500000
0.821263 0.071629 0.006984 0.000000 0.500000 0.500000
-0.233740 -0.479843 -0.214466 0.500000 0.000000 0.500000
-0.681728 0.059799 0.316363 1.000000 0.000000 0.000000
-0.814166 -0.099076 0.193540 0.000000 0.500000 0.500000
-0.767680 0.062446 0.316363 1.000000 0.000000 0.000000
-0.246227 0.117180 0.326839 0.000000 1.000000 0.000000
-0.814167 -0.163842 -0.323850 0.000000 0.500000 0.500000
-0.270141 -0.479843 -0.053502 0.500000 0.000000 0.500000
0.711343 -0.478740 -0.373395 0.500000 0.000000 0.500000
-0.384008 0.330164 0.367247 0.000000 0.500000 0.500000
-0.283856 -0.379075 -0.201572 0.000000 0.500000 0.500000
-0.423875 0.461212 -0.020231 0.000000 0.500000 0.500000
-0.210034 -0.032201 -0.400085 0.000000 0.500000 0.500000
-0.232031 0.461212 0.139755 0.000000 0.500000 0.500000
-0.660705 -0.320767 0.367247 1.000000 0.000000 0.000000
0.588200 -0.035074 0.368420 0.000000 0.500000 0.500000
0.512612 -0.479843 -0.158265 0.500000 0.000000 0.500000
0.292155 0.461212 -0.030289 0.000000 0.500000 0.500000
-0.002645 0.389301 0.363955 0.000000 0.500000 0.500000
0.339971 0.171097 -0.400085 0.000000 0.500000 0.500000
0.274663 -0.379196 0.283327 0.000000 0.500000 0.500000
0.442519 0.461212 -0.170944 0.000000 0.500000 0.500000
-0.067046 0.359475 0.361144 0.000000 0.500000 0.500000
-0.618641 -0.472560 -0.391445 0.500000 0.000000 0.500000
-0.598874 0.193629 -0.400085 0.000000 0.500000 0.500000
-0.778986 0.209231 0.120828 0.000000 0.500000 0.500000
0.101723 -0.379154 0.197848 0.000000 0.500000 0.500000
-0.766529 0.461122 0.200018 0.000000 0.500000 0.500000
0.622869 0.460376 -0.368115 0.000000 0.500000 0.500000
0.386319 0.284177 -0.400085 0.000000 0.500000 0.500000
0.231855 -0.378156 0.065883 0.000000 0.500000 0.500000
-0.403452 -0.473598 0.084682 0.500000 0.000000 0.500000
-0.556937 0.461212 0.227034 0.000000 0.500000 0.500000
-0.780573 -0.139196 -0.082946 0.000000 0.500000 0.500000
0.414106 -0.273700 -0.400085 0.000000 0.500000 0.500000
0.424680 0.461212 0.070120 0.000000 0.500000 0.500000
0.540621 -0.414951 0.195053 0.500000 0.000000 0.500000
-0.479748 -0.103578 -0.400085 0.000000 0.500000 0.500000
0.821831 0.347111 -0.349345 0.000000 0.500000 0.500000
0.098919 0.061575 0.333199 0.000000 1.000000 0.000000
0.139685 0.239244 -0.306566 0.000000 0.500000 0.500000
-0.120308 -0.114199 -0.400085 0.000000 0.500000 0.500000
-0.478122 0.391159 0.316363 0.000000 0.500000 0.500000
-0.318388 0.121550 -0.400085 0.000000 0.500000 0.500000
-0.777517 -0.150266 0.367247 1.000000 0.000000 0.000000
0.504625 -0.274335 0.161005 0.000000 0.500000 0.500000
-0.812411 0.019308 0.285766 0.000000 0.500000 0.500000
-0.814166 0.218881 -0.260075 0.000000 0.500000 0.500000
0.822211 -0.141317 -0.092693 0.000000 0.500000 0.500000
-0.814166 -0.153238 0.008870 0.000000 0.500000 0.500000
0.179999 -0.360897 0.316363 1.000000 0.000000 0.000000
0.463693 -0.314158 -0.364729 0.000000 0.500000 0.500000
-0.554440 0.377976 0.340009 0.000000 0.500000 0.500000
0.733378 -0.214097 0.315116 0.000000 0.500000 0.500000
0.393082 0.460497 -0.366746 0.000000 0.500000 0.500000
-0.086486 -0.414464 0.197438 0.500000 0.000000 0.500000
0.030336 -0.103770 -0.400085 0.000000 0.500000 0.500000
-0.326799 -0.326128 -0.400085 0.000000 0.500000 0.500000
0.822262 0.188272 -0.163283 0.000000 0.500000 0.500000
0.687216 -0.049277 0.319760 0.000000 0.500000 0.500000
0.378233 0.409609 -0.400085 0.000000 0.500000 0.500000
0.322390 -0.411705 0.211298 0.000000 0.500000 0.500000
-0.175434 -0.189144 0.333199 0.000000 1.000000 0.000000
0.821930 -0.214125 0.216420 0.000000 0.500000 0.500000
0.263467 -0.479733 -0.340870 0.500000 0.000000 0.500000
-0.531338 -0.479843 -0.223616 0.500000 0.000000 0.500000
-0.604736 0.011787 -0.400085 0.000000 0.500000 0.500000
-0.439669 -0.349704 -0.357337 0.000000 0.500000 0.500000
-0.389491 0.239105 0.197172 0.000000 0.500000 0.500000
-0.814166 -0.196170 -0.212952 0.000000 0.500000 0.500000
0.652740 -0.394370 -0.400085 0.000000 0.500000 0.500000
-0.780573 -0.040697 -0.235645 0.000000 0.500000 0.500000
-0.780790 -0.317199 -0.235853 0.000000 0.500000 0.500000
0.473152 -0.440755 0.130301 0.500000 0.000000 0.500000
0.637085 0.140042 0.319541 0.000000 0.500000 0.500000
-0.814166 0.289153 -0.071954 0.000000 0.500000 0.500000
-0.704881 -0.153932 0.316363 1.000000 0.000000 0.000000
-0.308298 -0.114330 0.333199 0.000000 1.000000 0.000000
0.535603 0.084354 -0.400085 0.000000 0.500000 0.500000
0.563174 0.457136 0.323626 0.000000 0.500000 0.500000
0.812864 -0.373144 -0.382923 0.000000 0.500000 0.500000
-0.232403 -0.071914 -0.400085 0.000000 0.500000 0.500000
0.357720 0.425937 0.343421 0.000000 0.500000 0.500000
0.354564 0.461212 0.094929 0.000000 0.500000 0.500000
-0.515752 -0.363307 0.367247 1.000000 0.000000 0.000000
-0.585624 0.198430 0.367247 1.000000 0.000000 0.000000
0.060671 -0.378156 -0.158781 0.000000 0.500000 0.500000
0.623499 -0.479843 -0.148187 0.500000 0.000000 0.500000
0.071530 -0.378172 -0.286929 0.000000 0.500000 0.500000
-0.697069 -0.311612 0.316363 1.000000 0.000000 0.000000
-0.001720 0.457136 0.354497 0.000000 0.500000 0.500000
-0.170674 -0.366840 0.316363 1.000000 0.000000 0.000000
-0.780573 -0.161594 -0.153827 0.000000 0.500000 0.500000
-0.642906 0.282676 -0.400085 0.000000 0.500000 0.500000
-0.522358 -0.378156 0.108811 0.000000 0.500000 0.500000
0.086676 0.461213 -0.175461 0.000000 0.500000 0.500000
-0.089861 0.239105 0.013916 0.000000 0.500000 0.500000
0.000216 0.239105 0.207345 0.000000 0.500000 0.500000
-0.441679 0.449071 -0.395668 0.000000 0.500000 0.500000
-0.814166 0.284554 -0.249586 0.000000 0.500000 0.500000
0.579307 -0.479843 -0.234157 0.500000 0.000000 0.500000
-0.294278 0.087798 0.333199 0.000000 1.000000 0.000000
0.255671 0.425937 0.355978 0.000000 0.500000 0.500000
-0.312600 0.425937 0.361309 0.000000 0.500000 0.500000
-0.534729 0.149696 0.316363 1.000000 0.000000 0.000000
0.411237 -0.123004 0.367247 1.000000 0.000000 0.000000
0.104573 -0.085580 -0.400085 0.000000 0.500000 0.500000
-0.780573 -0.203741 0.042216 0.000000 0.500000 0.500000
-0.785684 -0.410854 0.217883 0.000000 0.500000 0.500000
0.009736 -0.374115 0.316363 1.000000 0.000000 0.000000
0.600883 0.301001 -0.400085 0.000000 0.500000 0.500000
0.446661 -0.376495 -0.106720 0.000000 0.500000 0.500000
0.448050 -0.190096 -0.365572 0.000000 0.500000 0.500000
0.821763 -0.362658 0.175273 0.000000 0.500000 0.500000
-0.550296 -0.479834 0.029304 0.500000 0.000000 0.500000
0.821264 0.313523 0.080723 0.000000 0.500000 0.500000
-0.810091 0.339239 0.321284 0.000000 0.500000 0.500000
0.112886 -0.479704 -0.344683 0.500000 0.000000 0.500000
0.490184 -0.349080 -0.347674 0.000000 0.500000 0.500000
0.766010 0.385941 0.340009 0.000000 0.500000 0.500000
0.724398 0.142981 -0.400085 0.000000 0.500000 0.500000
-0.355925 0.461212 0.099183 0.000000 0.500000 0.500000
0.504625 -0.161202 -0.045211 0.000000 0.500000 0.500000
-0.247243 0.460191 -0.333938 0.000000 0.500000 0.500000
0.108092 0.273324 -0.400085 0.000000 0.500000 0.500000
0.048450 0.460213 0.207814 0.000000 0.500000 0.500000
0.610847 0.461212 -0.085284 0.000000 0.500000 0.500000
0.028811 -0.379154 0.185824 0.000000 0.500000 0.500000
0.504625 0.116254 0.127907 0.000000 0.500000 0.500000
-0.608115 0.239105 -0.216636 0.000000 0.500000 0.500000
-0.399507 0.228624 -0.349284 0.000000 0.500000 0.500000
0.309147 0.461212 -0.145989 0.000000 0.500000 0.500000
-0.503104 0.239105 0.134476 0.000000 0.500000 0.500000
-0.814166 -0.398385 -0.283760 0.000000 0.500000 0.500000
0.466238 -0.091634 0.392325 0.500000 0.500000 0.000000
0.173336 0.115161 -0.366491 0.000000 0.500000 0.500000
0.783542 0.027284 -0.399624 0.000000 0.500000 0.500000
-0.102883 0.239105 -0.051025 0.000000 0.500000 0.500000
-0.426862 -0.120146 -0.400085 0.000000 0.500000 0.500000
0.366383 0.460244 0.209949 0.000000 0.500000 0.500000
-0.470757 -0.256934 0.326839 0.000000 1.000000 0.000000
-0.236928 0.460213 -0.229481 0.000000 0.500000 0.500000
-0.200940 -0.375897 -0.400085 0.000000 0.500000 0.500000
-0.691711 -0.140893 0.367247 1.000000 0.000000 0.000000
0.783219 0.460953 -0.146687 0.000000 0.500000 0.500000
-0.354491 0.306631 0.351522 0.000000 0.500000 0.500000
0.005157 -0.026525 -0.366491 0.000000 0.500000 0.500000
0.499813 0.461212 -0.019692 0.000000 0.500000 0.500000
-0.404060 -0.378156 0.052997 0.000000 0.500000 0.500000
0.486369 0.230856 -0.033865 0.000000 0.500000 0.500000
-0.147287 -0.248361 -0.400085 0.000000 0.500000 0.500000
-0.814166 -0.211292 -0.113825 0.000000 0.500000 0.500000
-0.813212 -0.400878 0.160974 0.500000 0.000000 0.500000
0.496959 -0.348728 -0.159727 0.000000 0.500000 0.500000
0.663251 -0.266730 0.368494 0.000000 0.500000 0.500000
-0.780573 -0.111719 0.023789 0.000000 0.500000 0.500000
0.281272 -0.378618 0.197634 0.000000 0.500000 0.500000
0.091101 0.228211 -0.350208 0.000000 0.500000 0.500000
0.500497 0.203581 0.367247 1.000000 0.000000 0.000000
-0.780573 0.169016 -0.189954 0.000000 0.500000 0.500000
-0.655602 0.343267 0.344287 0.000000 0.500000 0.500000
-0.157661 0.069035 -0.400085 0.000000 0.500000 0.500000
0.184832 -0.378978 0.281715 0.000000 0.500000 0.500000
0.734144 0.041052 0.319575 0.000000 0.500000 0.500000
-0.273271 -0.101442 0.333199 0.000000 1.000000 0.000000
0.809840 0.094412 -0.387403 0.000000 0.500000 0.500000
0.264819 0.275432 0.337789 0.000000 0.500000 0.500000
-0.780573 -0.160627 -0.117339 0.000000 0.500000 0.500000
-0.196813 -0.479843 -0.261657 0.500000 0.000000 0.500000
-0.402526 0.461181 -0.167061 0.000000 0.500000 0.500000
0.654197 0.439811 -0.399484 0.000000 0.500000 0.500000
-0.814165 0.405360 0.209216 0.000000 0.500000 0.500000
0.081630 -0.105093 -0.366491 0.000000 0.500000 0.500000
-0.084045 0.461212 0.180773 0.000000 0.500000 0.500000
-0.128565 -0.411586 0.279694 0.000000 0.500000 0.500000
-0.246106 -0.479843 -0.004688 0.500000 0.000000 0.500000
0.142412 0.275432 0.319455 0.000000 0.500000 0.500000
0.714254 0.231975 0.368034 0.000000 0.500000 0.500000
-0.814166 -0.159388 0.155208 0.000000 0.500000 0.500000
-0.033703 0.197644 -0.364624 0.000000 0.500000 0.500000
-0.516634 0.039242 0.333199 0.000000 1.000000 0.000000
-0.800450 0.410257 0.367247 0.000000 0.500000 0.500000
0.660989 0.354325 0.340009 0.000000 0.500000 0.500000
-0.814166 -0.334325 -0.075150 0.000000 0.500000 0.500000
0.133601 -0.378156 -0.208288 0.000000 0.500000 0.500000
-0.655809 0.029483 0.350043 1.000000 0.000000 0.000000
-0.141542 0.231327 -0.343245 0.000000 0.500000 0.500000
-0.814166 0.063048 -0.068817 0.000000 0.500000 0.500000
0.330614 0.125125 0.326839 0.000000 1.000000 0.000000
-0.814166 -0.003332 -0.236254 0.000000 0.500000 0.500000
-0.169625 -0.479843 -0.061995 0.500000 0.000000 0.500000
0.821944 -0.192199 -0.343427 0.000000 0.500000 0.500000
0.068475 0.313827 0.316363 0.000000 0.500000 0.500000
0.504625 0.016723 -0.259942 0.000000 0.500000 0.500000
0.140826 -0.067179 -0.366491 0.000000 0.500000 0.500000
0.103746 0.461110 -0.334433 0.000000 0.500000 0.500000
0.389556 0.099534 0.359737 1.000000 0.000000 0.000000
0.209444 0.461212 -0.236501 0.000000 0.500000 0.500000
-0.634953 0.327148 -0.400085 0.000000 0.500000 0.500000
0.818930 -0.044835 0.330519 0.000000 0.500000 0.500000
0.484356 0.231814 0.104148 0.000000 0.500000 0.500000
0.741641 -0.000139 0.319645 0.000000 0.500000 0.500000
0.511742 0.138360 -0.400085 0.000000 0.500000 0.500000
0.198498 0.461212 -0.034784 0.000000 0.500000 0.500000
0.168986 -0.378156 -0.020348 0.000000 0.500000 0.500000
0.504838 -0.330704 0.133021 0.000000 0.500000 0.500000
0.247388 -0.306305 0.367247 1.000000 0.000000 0.000000
-0.661261 -0.263263 -0.366491 0.000000 0.500000 0.500000
-0.223380 -0.333304 0.316363 1.000000 0.000000 0.000000
0.362398 -0.372472 0.316363 1.000000 0.000000 0.000000
0.209575 0.345773 -0.400085 0.000000 0.500000 0.500000
0.340566 0.454049 0.367247 0.000000 0.500000 0.500000
-0.658359 -0.105960 -0.366491 0.000000 0.500000 0.500000
-0.814166 -0.075115 -0.197950 0.000000 0.500000 0.500000
-0.047842 0.461030 0.114743 0.000000 0.500000 0.500000
-0.632694 0.118755 -0.400085 0.000000 0.500000 0.500000
0.817826 0.018141 -0.369761 0.000000 0.500000 0.500000
-0.219734 -0.119831 -0.400085 0.000000 0.500000 0.500000
0.616359 0.329648 0.363336 0.000000 0.500000 0.500000
-0.814166 0.251100 -0.070089 0.000000 0.500000 0.500000
0.034142 -0.479843 -0.294795 0.500000 0.000000 0.500000
0.534144 0.140037 0.354994 1.000000 0.000000 0.000000
0.384159 -0.378156 0.011916 0.000000 0.500000 0.500000
0.115649 0.061036 -0.400085 0.000000 0.500000 0.500000
-0.155170 0.140790 -0.400085 0.000000 0.500000 0.500000
-0.345452 0.422966 -0.399983 0.000000 0.500000 0.500000
-0.510611 0.105469 -0.366491 0.000000 0.500000 0.500000
-0.462984 -0.126784 0.333199 0.000000 1.000000 0.000000
-0.256359 0.460879 0.273373 0.000000 0.500000 0.500000
0.183705 -0.378709 0.367247 1.000000 0.000000 0.000000
0.389783 0.087140 -0.400085 0.000000 0.500000 0.500000
-0.044142 -0.379111 0.215295 0.000000 0.500000 0.500000
-0.713479 -0.479843 -0.145251 0.500000 0.000000 0.500000
0.819434 0.083538 0.337684 0.000000 0.500000 0.500000
0.659310 -0.479843 -0.239694 0.500000 0.000000 0.500000
0.513490 -0.205404 -0.400085 0.000000 0.500000 0.500000
0.791039 -0.113954 0.367826 0.000000 0.500000 0.500000
0.499144 0.460207 0.273219 0.000000 0.500000 0.500000
-0.295597 -0.479733 0.056667 0.500000 0.000000 0.500000
-0.780573 -0.011511 -0.162588 0.000000 0.500000 0.500000
-0.780573 0.009382 0.222147 0.000000 0.500000 0.500000
0.703115 0.461212 0.031810 0.000000 0.500000 0.500000
-0.587179 0.343267 0.349242 0.000000 0.500000 0.500000
0.482702 -0.478227 0.067406 0.500000 0.000000 0.500000
0.553958 -0.106573 0.320210 0.000000 0.500000 0.500000
0.631872 0.461212 -0.206016 0.000000 0.500000 0.500000
-0.087731 -0.050168 0.326839 0.000000 1.000000 0.000000
-0.812642 -0.362356 -0.364722 0.000000 0.500000 0.500000
-0.036763 0.207033 -0.400085 0.000000 0.500000 0.500000
0.463670 0.239381 -0.246860 0.000000 0.500000 0.500000
0.648966 -0.479733 0.056554 0.500000 0.000000 0.500000
-0.780573 0.072585 -0.256669 0.000000 0.500000 0.500000
-0.575623 -0.120344 -0.400085 0.000000 0.500000 0.500000
-0.007597 -0.414901 0.195296 0.500000 0.000000 0.500000
-0.814165 0.402764 -0.146081 0.000000 0.500000 0.500000
0.501704 -0.032289 -0.332316 0.000000 0.500000 0.500000
-0.421085 0.345877 0.340009 0.000000 0.500000 0.500000
0.198668 -0.264501 -0.366491 0.000000 0.500000 0.500000
0.821370 -0.095377 0.141820 0.000000 0.500000 0.500000
0.320067 -0.382230 0.322061 1.000000 0.000000 0.000000
0.452851 -0.007936 0.425040 0.500000 0.500000 0.000000
-0.687522 0.109871 0.367247 1.000000 0.000000 0.000000
0.318202 -0.092386 -0.366491 0.000000 0.500000 0.500000
-0.024621 -0.235721 -0.366491 0.000000 0.500000 0.500000
0.368620 0.064615 -0.366491 0.000000 0.500000 0.500000
0.446056 -0.215678 0.402863 0.500000 0.500000 0.000000
0.163367 -0.329334 -0.400085 0.000000 0.500000 0.500000
0.428126 0.239105 -0.174450 0.000000 0.500000 0.500000
-0.814166 -0.106469 -0.039615 0.000000 0.500000 0.500000
-0.394592 -0.283242 -0.400085 0.000000 0.500000 0.500000
0.545780 0.195378 0.368041 0.000000 0.500000 0.500000
0.440343 -0.174022 0.367247 1.000000 0.000000 0.000000
0.490423 -0.225394 0.399342 0.500000 0.500000 0.000000
-0.179008 -0.479782 -0.334280 0.500000 0.000000 0.500000
-0.380254 -0.090185 0.333199 0.000000 1.000000 0.000000
-0.269507 -0.265953 -0.366491 0.000000 0.500000 0.500000
0.416693 -0.367589 -0.337590 0.000000 0.500000 0.500000
0.429897 0.239105 -0.127305 0.000000 0.500000 0.500000
-0.220604 -0.411749 0.246096 0.000000 0.500000 0.500000
0.096580 0.457136 0.335935 0.000000 0.500000 0.500000
-0.612566 -0.027100 0.333199 0.000000 1.000000 0.000000
-0.102450 0.118480 -0.366491 0.000000 0.500000 0.500000
-0.523996 0.276168 0.316363 0.000000 0.500000 0.500000
-0.183610 0.460213 -0.223059 0.000000 0.500000 0.500000
0.821261 0.408314 0.181986 0.000000 0.500000 0.500000
-0.780573 -0.195031 0.212744 0.000000 0.500000 0.500000
-0.616202 -0.234891 -0.366491 0.000000 0.500000 0.500000
-0.139763 0.333169 0.316363 0.000000 0.500000 0.500000
0.759296 0.461059 -0.337533 0.000000 0.500000 0.500000
0.114843 -0.363920 -0.400085 0.000000 0.500000 0.500000
-0.814166 0.240385 0.211264 0.000000 0.500000 0.500000
0.322631 0.238923 -0.326273 0.000000 0.500000 0.500000
0.476419 -0.058682 -0.400085 0.000000 0.500000 0.500000
-0.780573 -0.248825 0.242726 0.000000 0.500000 0.500000
0.220371 -0.479843 -0.295105 0.500000 0.000000 0.500000
-0.814152 0.214752 0.248170 0.000000 0.500000 0.500000
0.319066 -0.340033 -0.400085 0.000000 0.500000 0.500000
-0.688829 0.461212 0.202432 0.000000 0.500000 0.500000
-0.787228 0.386423 0.316363 0.000000 0.500000 0.500000
0.329293 0.187683 -0.365287 0.000000 0.500000 0.500000
0.397102 -0.479843 -0.068167 0.500000 0.000000 0.500000
0.821902 -0.453903 -0.022350 0.500000 0.000000 0.500000
0.423278 0.155140 0.316363 1.000000 0.000000 0.000000
-0.329984 -0.008565 -0.366491 0.000000 0.500000 0.500000
0.419533 -0.479834 0.027738 0.500000 0.000000 0.500000
0.634741 0.461212 0.036733 0.000000 0.500000 0.500000
-0.269640 0.461212 0.110809 0.000000 0.500000 0.500000
-0.813176 -0.025738 -0.363448 0.000000 0.500000 0.500000
-0.469501 -0.294973 0.316363 1.000000 0.000000 0.000000
0.242800 0.317599 0.319440 0.000000 0.500000 0.500000
-0.782055 -0.343728 -0.399077 0.000000 0.500000 0.500000
-0.814166 0.296467 0.012378 0.000000 0.500000 0.500000
0.079650 -0.004319 -0.366491 0.000000 0.500000 0.500000
-0.780573 -0.046980 0.164319 0.000000 0.500000 0.500000
-0.814166 0.381269 -0.306439 0.000000 0.500000 0.500000
-0.205265 0.425937 0.341834 0.000000 0.500000 0.500000
-0.814166 0.268627 -0.122607 0.000000 0.500000 0.500000
0.146814 0.161589 0.316363 1.000000 0.000000 0.000000
0.477361 -0.479843 -0.170270 0.500000 0.000000 0.500000
-0.780987 0.191699 0.048398 0.000000 0.500000 0.500000
0.480244 -0.411729 0.230522 0.000000 0.500000 0.500000
0.822262 -0.125245 -0.232850 0.000000 0.500000 0.500000
-0.814166 0.064602 0.163137 0.000000 0.500000 0.500000
0.134666 -0.108258 0.326839 0.000000 1.000000 0.000000
-0.637196 -0.180293 0.333199 0.000000 1.000000 0.000000
0.166381 0.234600 -0.335933 0.000000 0.500000 0.500000
-0.780573 -0.055456 0.086155 0.000000 0.500000 0.500000
0.821262 0.400305 0.047880 0.000000 0.500000 0.500000
0.724696 -0.176846 0.370785 1.000000 0.000000 0.000000
0.670384 -0.436629 0.135642 0.500000 0.000000 0.500000
0.116933 0.239105 -0.277494 0.000000 0.500000 0.500000
0.428314 -0.030787 0.367247 1.000000 0.000000 0.000000
0.505817 0.077165 0.367247 1.000000 0.000000 0.000000
0.323704 0.240361 -0.400085 0.000000 0.500000 0.500000
-0.461809 -0.338799 -0.400085 0.000000 0.500000 0.500000
-0.458127 0.044454 0.333199 0.000000 1.000000 0.000000
0.049434 -0.167015 -0.366491 0.000000 0.500000 0.500000
-0.727855 0.140784 -0.365378 0.000000 0.500000 0.500000
0.118627 -0.391612 0.367247 1.000000 0.000000 0.000000
-0.483692 -0.216527 -0.400085 0.000000 0.500000 0.500000
0.395216 0.461212 -0.124496 0.000000 0.500000 0.500000
0.380366 -0.378156 0.092790 0.000000 0.500000 0.500000
-0.302747 0.326722 0.340009 0.000000 0.500000 0.500000
-0.058680 -0.411654 0.265700 0.000000 0.500000 0.500000
0.178703 -0.069088 -0.366491 0.000000 0.500000 0.500000
0.167603 -0.296982 0.360212 1.000000 0.000000 0.000000
0.822138 -0.291350 0.018678 0.000000 0.500000 0.500000
-0.227425 -0.378156 -0.028698 0.000000 0.500000 0.500000
0.292551 0.431450 -0.399684 0.000000 0.500000 0.500000
-0.725198 -0.479843 -0.198920 0.500000 0.000000 0.500000
-0.780800 -0.242785 -0.314235 0.000000 0.500000 0.500000
-0.630308 0.280178 0.316363 0.000000 0.500000 0.500000
-0.814166 -0.300358 -0.187787 0.000000 0.500000 0.500000
0.363362 0.461212 -0.283369 0.000000 0.500000 0.500000
0.087453 -0.479843 -0.070913 0.500000 0.000000 0.500000
-0.780742 -0.158031 0.257613 0.000000 0.500000 0.500000
0.547425 -0.308749 -0.400085 0.000000 0.500000 0.500000
0.818187 0.287730 0.362636 0.000000 0.500000 0.500000
-0.357686 -0.479835 0.023438 0.500000 0.000000 0.500000
0.597333 0.188927 -0.400085 0.000000 0.500000 0.500000
0.180511 0.460213 0.225827 0.000000 0.500000 0.500000
-0.808907 -0.226059 -0.373628 0.000000 0.500000 0.500000
-0.814166 0.142237 0.191064 0.000000 0.500000 0.500000
-0.069261 -0.110650 -0.366491 0.000000 0.500000 0.500000
-0.425074 0.117514 -0.366491 0.000000 0.500000 0.500000
0.366177 -0.087193 -0.400085 0.000000 0.500000 0.500000
-0.420271 0.461212 0.177752 0.000000 0.500000 0.500000
0.081203 0.461070 0.009888 0.000000 0.500000 0.500000
-0.064052 0.457136 0.324645 0.000000 0.500000 0.500000
0.217276 0.084196 -0.400085 0.000000 0.500000 0.500000
0.287047 -0.369517 -0.334441 0.000000 0.500000 0.500000
-0.148405 0.033626 0.326839 0.000000 1.000000 0.000000
0.158173 0.216791 0.316363 1.000000 0.000000 0.000000
-0.533105 -0.338892 0.316363 1.000000 0.000000 0.000000
0.808802 -0.477820 -0.299914 0.500000 0.000000 0.500000
-0.031279 -0.308204 -0.366594 0.000000 0.500000 0.500000
-0.465796 -0.378156 0.006825 0.000000 0.500000 0.500000
0.089642 -0.055775 0.333199 0.000000 1.000000 0.000000
-0.060708 -0.014477 -0.366491 0.000000 0.500000 0.500000
-0.814166 -0.137472 -0.095721 0.000000 0.500000 0.500000
0.335958 0.373094 0.366765 0.000000 0.500000 0.500000
0.531774 0.384529 0.340009 0.000000 0.500000 0.500000
-0.620457 0.340830 0.316363 0.000000 0.500000 0.500000
0.804998 -0.344969 0.315116 0.000000 0.500000 0.500000
-0.433122 -0.378178 -0.187707 0.000000 0.500000 0.500000
-0.780573 -0.139527 -0.276890 0.000000 0.500000 0.500000
0.504625 0.155242 0.155753 0.000000 0.500000 0.500000
0.235748 0.460213 0.212764 0.000000 0.500000 0.500000
-0.502031 -0.038700 -0.366491 0.000000 0.500000 0.500000
-0.377813 0.461212 0.235011 0.000000 0.500000 0.500000
-0.780573 -0.107928 0.122167 0.000000 0.500000 0.500000
-0.182477 -0.073659 0.326839 0.000000 1.000000 0.000000
-0.814166 0.360862 0.048759 0.000000 0.500000 0.500000
0.282184 0.222258 0.367247 1.000000 0.000000 0.000000
0.049615 -0.252351 -0.366491 0.000000 0.500000 0.500000
0.095395 0.222302 0.367247 1.000000 0.000000 0.000000
-0.814166 -0.373705 -0.250524 0.000000 0.500000 0.500000
-0.814162 -0.088757 -0.326315 0.000000 0.500000 0.500000
-0.380905 -0.009107 -0.366491 0.000000 0.500000 0.500000
-0.299142 0.239105 0.019442 0.000000 0.500000 0.500000
-0.067004 0.275432 0.343824 0.000000 0.500000 0.500000
-0.422587 0.085291 -0.400085 0.000000 0.500000 0.500000
0.606328 -0.249938 0.367494 0.000000 0.500000 0.500000
-0.814166 -0.008017 -0.051923 0.000000 0.500000 0.500000
-0.694310 -0.425966 0.157452 0.500000 0.000000 0.500000
0.121774 0.239105 0.182962 0.000000 0.500000 0.500000
-0.765057 0.077224 -0.399873 0.000000 0.500000 0.500000
-0.301101 -0.459036 -0.399511 0.500000 0.000000 0.500000
-0.405476 0.461212 0.081881 0.000000 0.500000 0.500000
0.262425 0.127402 0.326918 0.000000 1.000000 0.000000
0.276614 -0.451007 0.115851 0.500000 0.000000 0.500000
-0.570747 -0.207613 -0.400085 0.000000 0.500000 0.500000
-0.093830 0.074530 0.326839 0.000000 1.000000 0.000000
0.725759 0.444281 -0.399330 0.000000 0.500000 0.500000
0.208105 -0.378156 -0.182051 0.000000 0.500000 0.500000
0.363329 -0.431526 -0.400085 0.500000 0.000000 0.500000
-0.814166 -0.046702 -0.162631 0.000000 0.500000 0.500000
0.117227 0.461212 -0.284323 0.000000 0.500000 0.500000
-0.473485 0.451376 0.367247 0.000000 0.500000 0.500000
-0.814166 0.054526 -0.281534 0.000000 0.500000 0.500000
-0.236014 -0.027273 -0.366491 0.000000 0.500000 0.500000
-0.387948 0.240051 0.283602 0.000000 0.500000 0.500000
-0.764276 -0.383516 0.322724 1.000000 0.000000 0.000000
0.514075 -0.187520 0.367247 1.000000 0.000000 0.000000
-0.692832 -0.234843 -0.400085 0.000000 0.500000 0.500000
-0.433349 -0.179865 -0.400085 0.000000 0.500000 0.500000
-0.452225 -0.479843 -0.088330 0.500000 0.000000 0.500000
-0.811856 0.191318 0.287146 0.000000 0.500000 0.500000
-0.040626 0.206319 0.316363 1.000000 0.000000 0.000000
-0.780588 -0.120264 0.247415 0.000000 0.500000 0.500000
0.686471 -0.479270 0.062268 0.500000 0.000000 0.500000
0.311243 0.457136 0.328685 0.000000 0.500000 0.500000
-0.461041 0.128274 -0.366491 0.000000 0.500000 0.500000
0.822262 -0.379457 -0.032132 0.000000 0.500000 0.500000
0.216905 -0.443168 0.126849 0.500000 0.000000 0.500000
0.189665 0.207608 -0.362541 0.000000 0.500000 0.500000
-0.624957 0.239105 -0.263241 0.000000 0.500000 0.500000
-0.338160 -0.297452 -0.366507 0.000000 0.500000 0.500000
-0.701114 0.266689 0.322724 1.000000 0.000000 0.000000
-0.002074 0.242233 0.287722 0.000000 0.500000 0.500000
0.504625 -0.009520 0.112816 0.000000 0.500000 0.500000
0.504625 0.048646 -0.201177 0.000000 0.500000 0.500000
-0.343478 -0.137933 -0.400085 0.000000 0.500000 0.500000
-0.348117 0.154415 0.316363 1.000000 0.000000 0.000000
-0.682680 0.367393 0.316363 0.000000 0.500000 0.500000
0.341456 0.461212 -0.218855 0.000000 0.500000 0.500000
-0.234923 0.102196 -0.400085 0.000000 0.500000 0.500000
-0.099415 -0.433739 -0.400085 0.500000 0.000000 0.500000
0.604833 -0.030731 0.315116 0.000000 0.500000 0.500000
0.822262 0.125371 -0.115144 0.000000 0.500000 0.500000
-0.320353 -0.046739 0.326839 0.000000 1.000000 0.000000
0.214150 0.195102 0.316363 1.000000 0.000000 0.000000
0.283575 -0.377171 0.367247 1.000000 0.000000 0.000000
-0.091614 0.444782 0.367247 0.000000 0.500000 0.500000
0.718420 0.381444 0.340009 0.000000 0.500000 0.500000
0.822262 -0.362950 -0.167728 0.000000 0.500000 0.500000
-0.813749 0.199782 -0.358379 0.000000 0.500000 0.500000
0.262008 -0.462907 -0.399402 0.500000 0.000000 0.500000
0.355349 0.306631 0.357065 0.000000 0.500000 0.500000
-0.814167 -0.372039 -0.317474 0.000000 0.500000 0.500000
0.821264 -0.085382 0.098372 0.000000 0.500000 0.500000
-0.057748 0.461122 0.054453 0.000000 0.500000 0.500000
-0.545174 0.239105 0.131054 0.000000 0.500000 0.500000
-0.780573 -0.272040 0.168941 0.000000 0.500000 0.500000
-0.625383 -0.293334 0.356564 1.000000 0.000000 0.000000
0.753597 -0.479759 0.049232 0.500000 0.000000 0.500000
0.490390 -0.359710 0.054519 0.000000 0.500000 0.500000
0.134546 0.460229 0.122940 0.000000 0.500000 0.500000
-0.450653 0.460212 -0.326289 0.000000 0.500000 0.500000
0.525112 -0.479733 -0.340806 0.500000 0.000000 0.500000
-0.577210 0.460713 -0.294639 0.000000 0.500000 0.500000
-0.814166 0.295737 0.089442 0.000000 0.500000 0.500000
0.271264 -0.094295 -0.400085 0.000000 0.500000 0.500000
-0.433278 -0.479842 -0.001498 0.500000 0.000000 0.500000
-0.814143 -0.305011 -0.327817 0.000000 0.500000 0.500000
0.020159 0.205581 -0.363723 0.000000 0.500000 0.500000
0.473285 0.394864 0.316363 0.000000 0.500000 0.500000
-0.067773 -0.330183 -0.400085 0.000000 0.500000 0.500000
0.393942 0.055791 0.316363 1.000000 0.000000 0.000000
0.330397 -0.014124 -0.366491 0.000000 0.500000 0.500000
-0.708715 0.007523 -0.366499 0.000000 0.500000 0.500000
0.719317 -0.120731 0.367494 0.000000 0.500000 0.500000
-0.164246 0.461212 0.195190 0.000000 0.500000 0.500000
-0.389152 -0.009125 0.333199 0.000000 1.000000 0.000000
-0.814166 -0.409674 -0.319374 0.500000 0.000000 0.500000
-0.261084 0.461212 -0.028175 0.000000 0.500000 0.500000
0.377279 0.028456 0.347460 1.000000 0.000000 0.000000
0.818637 0.448440 0.242037 0.000000 0.500000 0.500000
0.821917 0.287452 -0.074249 0.000000 0.500000 0.500000
-0.670560 -0.039615 -0.400085 0.000000 0.500000 0.500000
0.555907 -0.479843 -0.131224 0.500000 0.000000 0.500000
-0.648056 -0.257193 -0.400085 0.000000 0.500000 0.500000
0.429264 -0.378173 0.231092 0.000000 0.500000 0.500000
0.816408 -0.081268 -0.374469 0.000000 0.500000 0.500000
0.632131 -0.008757 0.315116 0.000000 0.500000 0.500000
-0.467873 0.310941 0.352550 0.000000 0.500000 0.500000
-0.158054 -0.406311 0.322724 1.000000 0.000000 0.000000
0.773428 -0.478428 -0.376152 0.500000 0.000000 0.500000
0.270304 -0.378156 0.096544 0.000000 0.500000 0.500000
-0.127245 -0.378598 0.205046 0.000000 0.500000 0.500000
0.172615 0.461212 -0.271679 0.000000 0.500000 0.500000
0.272133 -0.301615 -0.366541 0.000000 0.500000 0.500000
-0.599340 0.408502 -0.400085 0.000000 0.500000 0.500000
0.228887 -0.375306 -0.314142 0.000000 0.500000 0.500000
-0.248393 -0.165329 0.326839 0.000000 1.000000 0.000000
0.033631 -0.063384 -0.400085 0.000000 0.500000 0.500000
-0.607878 -0.193044 -0.400085 0.000000 0.500000 0.500000
0.504625 -0.232621 0.072787 0.000000 0.500000 0.500000
0.492906 0.461212 -0.200151 0.000000 0.500000 0.500000
0.821582 0.413140 -0.038505 0.000000 0.500000 0.500000
-0.814166 0.234085 -0.192275 0.000000 0.500000 0.500000
0.775583 -0.034801 0.367776 0.000000 0.500000 0.500000
-0.814166 -0.218058 -0.290846 0.000000 0.500000 0.500000
0.558858 0.172274 0.319831 0.000000 0.500000 0.500000
0.175542 -0.114075 -0.366491 0.000000 0.500000 0.500000
-0.742064 0.238975 0.006048 0.000000 0.500000 0.500000
0.465373 -0.097127 -0.364451 0.000000 0.500000 0.500000
0.025057 0.239105 -0.224105 0.000000 0.500000 0.500000
0.697219 0.017149 0.315116 0.000000 0.500000 0.500000
0.424015 0.239105 0.146300 0.000000 0.500000 0.500000
0.735024 -0.438481 -0.400085 0.500000 0.000000 0.500000
-0.701285 -0.053556 -0.366497 0.000000 0.500000 0.500000
-0.813720 0.236849 -0.360675 0.000000 0.500000 0.500000
-0.814166 -0.014699 -0.120570 0.000000 0.500000 0.500000
-0.814166 0.180039 0.011795 0.000000 0.500000 0.500000
0.822259 -0.433501 -0.160361 0.500000 0.000000 0.500000
-0.577934 0.426440 0.367247 0.000000 0.500000 0.500000
-0.013955 -0.379766 0.285105 0.000000 0.500000 0.500000
0.594739 -0.410398 0.292100 0.000000 0.500000 0.500000
0.268020 -0.046071 -0.366491 0.000000 0.500000 0.500000
-0.011840 -0.379154 0.172879 0.000000 0.500000 0.500000
0.410444 -0.477979 -0.383823 0.500000 0.000000 0.500000
-0.784649 0.137856 0.317862 1.000000 0.000000 0.000000
-0.285396 0.299960 0.367247 0.000000 0.500000 0.500000
-0.519179 -0.273941 -0.400085 0.000000 0.500000 0.500000
0.269603 0.457136 0.366365 0.000000 0.500000 0.500000
-0.227698 0.142935 0.355541 1.000000 0.000000 0.000000
0.308170 -0.256531 0.326839 0.000000 1.000000 0.000000
0.134563 -0.393028 -0.400085 0.000000 0.500000 0.500000
-0.331302 0.088007 0.333199 0.000000 1.000000 0.000000
0.620984 0.433020 0.319500 0.000000 0.500000 0.500000
-0.109181 -0.259238 -0.400085 0.000000 0.500000 0.500000
-0.337322 0.175717 -0.400085 0.000000 0.500000 0.500000
-0.184346 0.108427 -0.366491 0.000000 0.500000 0.500000
-0.155499 0.460159 -0.346011 0.000000 0.500000 0.500000
-0.301631 0.268623 0.358573 1.000000 0.000000 0.000000
0.656923 -0.398751 0.368445 0.000000 0.500000 0.500000
0.821263 0.349127 -0.002410 0.000000 0.500000 0.500000
0.819435 -0.371759 0.350450 0.000000 0.500000 0.500000
-0.007458 -0.201718 -0.400085 0.000000 0.500000 0.500000
-0.814111 0.421699 -0.229744 0.000000 0.500000 0.500000
0.021099 0.239105 0.144701 0.000000 0.500000 0.500000
0.259107 -0.063214 0.333199 0.000000 1.000000 0.000000
0.519166 -0.064570 0.367247 1.000000 0.000000 0.000000
0.276271 0.161383 -0.400085 0.000000 0.500000 0.500000
0.821919 0.249007 -0.313193 0.000000 0.500000 0.500000
0.247114 -0.378156 0.032150 0.000000 0.500000 0.500000
0.821933 -0.305007 0.261772 0.000000 0.500000 0.500000
-0.814166 0.348719 -0.242111 0.000000 0.500000 0.500000
-0.207966 0.461212 0.067998 0.000000 0.500000 0.500000
0.599902 0.461212 -0.182188 0.000000 0.500000 0.500000
0.822219 -0.003028 -0.156406 0.000000 0.500000 0.500000
0.821709 0.324545 0.255016 0.000000 0.500000 0.500000
0.503213 -0.334784 0.258026 0.000000 0.500000 0.500000
-0.283158 -0.430410 0.146470 0.500000 0.000000 0.500000
-0.339814 0.461212 -0.066529 0.000000 0.500000 0.500000
-0.092799 0.017863 -0.366491 0.000000 0.500000 0.500000
-0.780573 0.020319 -0.228657 0.000000 0.500000 0.500000
0.660419 0.045643 0.366160 0.000000 0.500000 0.500000
0.504625 -0.292311 -0.203431 0.000000 0.500000 0.500000
0.455862 -0.479789 -0.333228 0.500000 0.000000 0.500000
0.293515 0.136266 -0.366491 0.000000 0.500000 0.500000
0.493399 0.226039 -0.319481 0.000000 0.500000 0.500000
0.676682 0.461200 -0.327009 0.000000 0.500000 0.500000
0.201694 -0.002933 -0.366491 0.000000 0.500000 0.500000
0.489508 -0.359950 -0.293021 0.000000 0.500000 0.500000
0.192602 -0.321596 0.367247 1.000000 0.000000 0.000000
-0.031150 -0.102163 -0.366491 0.000000 0.500000 0.500000
-0.188454 0.239105 0.136348 0.000000 0.500000 0.500000
0.506473 -0.479843 -0.043503 0.500000 0.000000 0.500000
0.433887 -0.093737 0.367247 1.000000 0.000000 0.000000
-0.501437 -0.387956 0.308497 0.000000 0.500000 0.500000
-0.493317 0.005364 -0.366491 0.000000 0.500000 0.500000
-0.713784 0.176766 -0.400085 0.000000 0.500000 0.500000
0.040967 0.100629 -0.366491 0.000000 0.500000 0.500000
-0.228418 0.457136 0.333173 0.000000 0.500000 0.500000
-0.568164 0.183965 0.316363 1.000000 0.000000 0.000000
0.340775 -0.341850 0.367247 1.000000 0.000000 0.000000
0.223780 -0.205093 0.333199 0.000000 1.000000 0.000000
0.534144 0.260804 0.360623 1.000000 0.000000 0.000000
0.723515 0.204363 0.319477 0.000000 0.500000 0.500000
-0.067877 0.239105 0.243950 0.000000 0.500000 0.500000
-0.350025 0.055618 -0.400085 0.000000 0.500000 0.500000
0.783394 -0.386248 -0.399634 0.000000 0.500000 0.500000
-0.549296 0.456699 0.316363 0.000000 0.500000 0.500000
0.760778 0.133416 -0.399997 0.000000 0.500000 0.500000
0.467273 -0.188444 0.415657 0.500000 0.500000 0.000000
-0.413944 0.402920 0.366625 0.000000 0.500000 0.500000
-0.814166 -0.014833 -0.271963 0.000000 0.500000 0.500000
0.126892 0.239105 0.016304 0.000000 0.500000 0.500000
0.145606 0.239105 -0.052126 0.000000 0.500000 0.500000
0.279468 0.067821 -0.366491 0.000000 0.500000 0.500000
0.504625 -0.193607 -0.233059 0.000000 0.500000 0.500000
-0.505139 -0.479843 -0.082326 0.500000 0.000000 0.500000
-0.603187 0.100925 -0.400085 0.000000 0.500000 0.500000
-0.344176 -0.378156 -0.113370 0.000000 0.500000 0.500000
0.149333 0.459603 0.290733 0.000000 0.500000 0.500000
0.365843 -0.128234 -0.366491 0.000000 0.500000 0.500000
-0.607280 -0.421022 0.169669 0.500000 0.000000 0.500000
-0.565813 -0.414988 0.194874 0.500000 0.000000 0.500000
-0.401017 -0.462425 -0.399415 0.500000 0.000000 0.500000
0.161283 -0.332342 -0.365847 0.000000 0.500000 0.500000
-0.134519 -0.040636 -0.400085 0.000000 0.500000 0.500000
-0.780715 0.083783 -0.305216 0.000000 0.500000 0.500000
-0.801529 -0.011097 0.322724 1.000000 0.000000 0.000000
-0.531595 -0.375640 -0.315585 0.000000 0.500000 0.500000
0.821264 0.275270 0.170044 0.000000 0.500000 0.500000
-0.300170 0.461212 0.040317 0.000000 0.500000 0.500000
-0.780573 -0.179204 0.118136 0.000000 0.500000 0.500000
-0.771865 -0.154777 -0.345600 0.000000 0.500000 0.500000
0.579997 0.428041 -0.399829 0.000000 0.500000 0.500000
0.189166 -0.199138 -0.400085 0.000000 0.500000 0.500000
-0.780573 -0.084181 -0.155537 0.000000 0.500000 0.500000
-0.780652 -0.081504 -0.298557 0.000000 0.500000 0.500000
0.822263 -0.250909 -0.310695 0.000000 0.500000 0.500000
0.822263 0.060301 -0.131287 0.000000 0.500000 0.500000
-0.695479 0.239105 -0.090973 0.000000 0.500000 0.500000
-0.583103 -0.175272 0.326839 0.000000 1.000000 0.000000
-0.764911 0.311596 0.345193 0.000000 0.500000 0.500000
-0.233539 -0.258805 -0.366491 0.000000 0.500000 0.500000
0.747048 -0.360078 0.315116 0.000000 0.500000 0.500000
-0.772275 -0.351462 -0.287894 0.000000 0.500000 0.500000
-0.810091 -0.205263 0.334793 1.000000 0.000000 0.000000
-0.663178 -0.382160 0.293429 0.000000 0.500000 0.500000
-0.814166 0.208202 0.082635 0.000000 0.500000 0.500000
0.377813 -0.378682 0.270280 0.000000 0.500000 0.500000
-0.137257 -0.378805 -0.245430 0.000000 0.500000 0.500000
0.710033 0.076701 -0.400085 0.000000 0.500000 0.500000
0.217273 -0.475386 0.081407 0.500000 0.000000 0.500000
-0.280705 0.056532 -0.400085 0.000000 0.500000 0.500000
-0.813456 -0.460380 0.016210 0.500000 0.000000 0.500000
0.339104 0.089170 -0.400085 0.000000 0.500000 0.500000
0.720266 0.217353 -0.400085 0.000000 0.500000 0.500000
-0.142823 -0.325851 0.367247 1.000000 0.000000 0.000000
0.029750 -0.378156 -0.068100 0.000000 0.500000 0.500000
-0.508613 0.373094 0.364009 0.000000 0.500000 0.500000
-0.704307 -0.211357 -0.366498 0.000000 0.500000 0.500000
-0.780573 -0.078067 -0.235490 0.000000 0.500000 0.500000
-0.008089 -0.378156 -0.228306 0.000000 0.500000 0.500000
-0.467225 -0.262761 -0.366491 0.000000 0.500000 0.500000
0.589583 0.457136 0.364976 0.000000 0.500000 0.500000
0.400725 -0.271235 -0.366491 0.000000 0.500000 0.500000
0.290703 0.239105 -0.066247 0.000000 0.500000 0.500000
-0.814166 0.114522 -0.179677 0.000000 0.500000 0.500000
0.822091 -0.422901 -0.335238 0.500000 0.000000 0.500000
0.116056 0.329648 0.344799 0.000000 0.500000 0.500000
0.091740 -0.378156 -0.144307 0.000000 0.500000 0.500000
0.155638 0.240443 0.367247 1.000000 0.000000 0.000000
-0.674629 0.090861 -0.366491 0.000000 0.500000 0.500000
0.096554 0.239105 0.149539 0.000000 0.500000 0.500000
0.504625 -0.076848 0.118598 0.000000 0.500000 0.500000
0.476384 -0.179892 0.316363 1.000000 0.000000 0.000000
0.024378 -0.479843 -0.118847 0.500000 0.000000 0.500000
0.250958 0.387735 0.316363 0.000000 0.500000 0.500000
-0.244758 0.058632 -0.400085 0.000000 0.500000 0.500000
-0.280688 -0.373656 0.316363 1.000000 0.000000 0.000000
-0.735322 0.241590 0.286736 0.000000 0.500000 0.500000
-0.640024 0.239105 -0.173049 0.000000 0.500000 0.500000
-0.308148 0.460213 -0.261152 0.000000 0.500000 0.500000
-0.773198 -0.071910 -0.342586 0.000000 0.500000 0.500000
0.505128 -0.267801 0.282412 0.000000 0.500000 0.500000
-0.814166 0.183185 0.205474 0.000000 0.500000 0.500000
-0.643126 -0.479798 0.040243 0.500000 0.000000 0.500000
-0.190615 0.461212 -0.067650 0.000000 0.500000 0.500000
0.695996 0.461212 -0.287093 0.000000 0.500000 0.500000
0.691816 -0.162721 0.315116 0.000000 0.500000 0.500000
-0.147855 -0.435966 0.137152 0.500000 0.000000 0.500000
0.521921 0.425937 0.348985 0.000000 0.500000 0.500000
-0.745442 0.459478 0.299964 0.000000 0.500000 0.500000
0.598688 0.244184 0.367803 0.000000 0.500000 0.500000
0.044221 -0.407672 0.365216 1.000000 0.000000 0.000000
0.257262 0.226086 -0.351771 0.000000 0.500000 0.500000
-0.582306 0.461212 0.168163 0.000000 0.500000 0.500000
-0.806083 -0.407672 0.332425 1.000000 0.000000 0.000000
-0.492841 0.421285 -0.400042 0.000000 0.500000 0.500000
0.654858 0.256980 -0.400085 0.000000 0.500000 0.500000
0.822091 -0.107868 -0.083221 0.000000 0.500000 0.500000
-0.326553 0.239170 0.250977 0.000000 0.500000 0.500000
-0.675913 0.461212 0.034269 0.000000 0.500000 0.500000
0.745945 -0.328739 0.367494 0.000000 0.500000 0.500000
0.821591 0.146698 -0.039167 0.000000 0.500000 0.500000
-0.500497 0.189629 0.316363 1.000000 0.000000 0.000000
-0.069164 0.237791 -0.328803 0.000000 0.500000 0.500000
-0.722223 0.421745 0.340009 0.000000 0.500000 0.500000
0.821944 0.238386 -0.077127 0.000000 0.500000 0.500000
0.504625 -0.126079 -0.269236 0.000000 0.500000 0.500000
-0.392955 -0.407672 0.328139 1.000000 0.000000 0.000000
-0.810091 -0.243747 0.363646 1.000000 0.000000 0.000000
0.453598 -0.102975 0.316363 1.000000 0.000000 0.000000
0.312639 0.206991 0.367247 1.000000 0.000000 0.000000
0.285881 0.239137 -0.293959 0.000000 0.500000 0.500000
-0.316677 -0.185484 -0.366491 0.000000 0.500000 0.500000
-0.298441 -0.407672 0.365493 1.000000 0.000000 0.000000
0.499823 -0.172676 -0.336790 0.000000 0.500000 0.500000
-0.379876 0.461212 -0.040149 0.000000 0.500000 0.500000
-0.260640 0.353249 -0.400085 0.000000 0.500000 0.500000
0.431700 0.306635 0.316363 0.000000 0.500000 0.500000
-0.780573 -0.015753 -0.198502 0.000000 0.500000 0.500000
-0.025011 -0.378156 -0.194587 0.000000 0.500000 0.500000
-0.522798 -0.239719 0.333199 0.000000 1.000000 0.000000
-0.448590 -0.054676 -0.400085 0.000000 0.500000 0.500000
0.604047 -0.355102 -0.400085 0.000000 0.500000 0.500000
0.169237 0.425937 0.366676 0.000000 0.500000 0.500000
-0.106819 -0.479626 -0.355221 0.500000 0.000000 0.500000
-0.780573 -0.023085 0.100579 0.000000 0.500000 0.500000
0.817358 0.450493 -0.232277 0.000000 0.500000 0.500000
-0.076330 0.123512 -0.400085 0.000000 0.500000 0.500000
-0.814166 0.346104 -0.301478 0.000000 0.500000 0.500000
-0.376953 0.461212 0.133439 0.000000 0.500000 0.500000
0.078806 0.459891 0.285861 0.000000 0.500000 0.500000
-0.581844 0.239591 0.280534 0.000000 0.500000 0.500000
-0.632995 0.143205 -0.366493 0.000000 0.500000 0.500000
0.042455 0.314515 -0.400085 0.000000 0.500000 0.500000
-0.017904 -0.479843 -0.293403 0.500000 0.000000 0.500000
0.592891 -0.479777 -0.334866 0.500000 0.000000 0.500000
0.285299 -0.411591 0.278631 0.000000 0.500000 0.500000
0.821378 -0.027142 -0.016333 0.000000 0.500000 0.500000
0.672412 0.461212 -0.072362 0.000000 0.500000 0.500000
-0.814166 -0.362008 0.152315 0.000000 0.500000 0.500000
-0.400070 -0.173041 -0.400085 0.000000 0.500000 0.500000
-0.803339 0.219938 0.322724 1.000000 0.000000 0.000000
0.073291 -0.471396 0.088354 0.500000 0.000000 0.500000
