ply
format ascii 1.0
element vertex 617
property float x
property float y
property float z
property float nx
property float ny
property float nz
property uchar red
property uchar green
property uchar blue
property float opacity
end_header
-0.663729 0.025625 -0.244555 1.000000 0.000000 0.000000 105 105 105 1.000000
0.107450 0.363892 0.211706 0.000000 -1.000000 -0.000000 105 105 105 1.000000
0.317817 0.463670 0.008868 0.000000 1.000000 0.000000 105 105 105 1.000000
0.315356 -0.425890 -0.588542 0.000000 -1.000000 0.000037 105 105 105 1.000000
-0.414318 0.147295 -0.667703 0.000000 -0.000000 1.000000 105 105 105 1.000000
0.086608 0.363892 -0.039617 0.000000 -1.000000 -0.000000 105 105 105 1.000000
-0.563950 0.245833 -0.137250 -1.000000 0.000000 0.000000 105 105 105 1.000000
0.313912 -0.147550 0.333686 1.000000 0.000000 0.000000 105 105 105 1.000000
0.654141 0.148300 -0.567981 -1.000000 0.000000 0.000000 105 105 105 1.000000
-0.563648 -0.165962 -0.667703 0.000000 -0.000000 1.000000 105 105 105 1.000000
-0.550825 0.272388 -0.667703 0.000000 -0.000000 1.000000 105 105 105 1.000000
0.295005 -0.425860 0.234860 0.000000 -1.000000 0.000037 105 105 105 1.000000
0.654141 -0.298926 -0.627469 1.000000 0.000000 0.000000 105 105 105 1.000000
0.417478 0.463670 0.408668 0.000000 -1.000000 -0.000000 105 105 105 1.000000
0.313912 0.363197 0.166129 1.000000 0.000000 0.000000 105 105 105 1.000000
0.654141 -0.201977 0.459944 1.000000 0.000000 0.000000 105 105 105 1.000000
-0.384848 0.073480 -0.667703 0.000000 -0.000000 1.000000 105 105 105 1.000000
-0.252661 0.363892 0.104163 0.000000 -1.000000 -0.000000 105 105 105 1.000000
-0.339577 0.463670 -0.539538 0.000000 -1.000000 -0.000000 105 105 105 1.000000
-0.663729 -0.148392 0.288608 -1.000000 0.000000 0.000000 105 105 105 1.000000
-0.570540 0.195223 0.561486 -1.000000 0.000000 0.000000 128 128 128 0.500000
0.563738 0.463670 0.311566 0.000000 -1.000000 -0.000000 105 105 105 1.000000
0.267246 0.363892 0.496327 0.000000 1.000000 0.000000 105 105 105 1.000000
-0.448789 0.463670 -0.051023 0.000000 1.000000 0.000000 105 105 105 1.000000
0.541190 0.352862 0.584273 0.000000 -0.000000 1.000000 226 226 226 1.000000
-0.563408 0.139247 -0.667703 0.000000 -0.000000 1.000000 105 105 105 1.000000
0.318917 -0.276920 0.561210 0.000000 -0.000000 1.000000 105 105 105 1.000000
0.017764 0.319935 -0.150440 0.000000 0.000000 -1.000000 105 105 105 1.000000
-0.620010 0.463623 0.540785 0.000000 -1.000000 -0.000000 231 231 231 1.000000
-0.052900 0.462271 0.584273 0.000000 -0.000000 1.000000 159 159 159 1.000000
0.529283 -0.425867 0.045532 0.000000 -1.000000 0.000037 105 105 105 1.000000
-0.220255 -0.038157 0.564505 0.000000 -0.000000 1.000000 128 128 128 0.500000
-0.663729 -0.221092 0.155005 1.000000 0.000000 0.000000 105 105 105 1.000000
0.647552 0.115901 0.559962 1.000000 0.000000 0.000000 238 238 238 1.000000
0.058613 0.363892 0.370537 0.000000 -1.000000 -0.000000 105 105 105 1.000000
0.394598 0.463670 -0.108618 0.000000 1.000000 0.000000 105 105 105 1.000000
0.115231 0.463670 0.106209 0.000000 -1.000000 -0.000000 105 105 105 1.000000
0.462020 -0.425874 -0.170284 0.000000 1.000000 -0.000037 105 105 105 1.000000
0.198905 -0.425881 -0.353712 0.000000 1.000000 -0.000037 105 105 105 1.000000
-0.116819 0.036595 -0.150440 0.000000 0.000000 -1.000000 105 105 105 1.000000
-0.230592 -0.425868 -0.006189 0.000000 -1.000000 0.000037 105 105 105 1.000000
0.312246 0.159211 0.574389 0.000000 -0.000000 1.000000 105 105 105 1.000000
-0.663729 0.133591 -0.052830 1.000000 0.000000 0.000000 105 105 105 1.000000
-0.663729 0.426742 -0.069591 -1.000000 0.000000 0.000000 105 105 105 1.000000
-0.663729 0.024616 -0.041413 -1.000000 0.000000 0.000000 105 105 105 1.000000
0.344613 -0.240802 0.636742 -0.316046 0.178912 -0.931722 228 228 228 1.000000
-0.145419 0.463670 -0.175605 0.000000 1.000000 0.000000 105 105 105 1.000000
-0.348411 0.417610 0.531558 0.000000 0.000000 -1.000000 105 105 105 1.000000
0.148985 0.463670 -0.552159 0.000000 -1.000000 -0.000000 105 105 105 1.000000
-0.663729 0.305672 0.441975 -1.000000 0.000000 0.000000 105 105 105 1.000000
0.492000 0.463670 -0.108421 0.000000 1.000000 0.000000 105 105 105 1.000000
0.654141 -0.224580 -0.435352 -1.000000 0.000000 0.000000 105 105 105 1.000000
0.198255 0.463670 -0.406378 0.000000 -1.000000 -0.000000 105 105 105 1.000000
0.354055 -0.416248 -0.667212 0.000000 -0.268335 -0.963326 105 105 105 1.000000
0.386093 -0.274551 0.574389 0.000000 -0.000000 1.000000 105 105 105 1.000000
0.205885 -0.425872 -0.102845 0.000000 1.000000 -0.000037 105 105 105 1.000000
0.647552 -0.117395 0.560160 -1.000000 0.000000 0.000000 238 238 238 1.000000
0.654141 -0.115633 -0.548693 -1.000000 0.000000 0.000000 105 105 105 1.000000
0.614508 -0.425874 -0.163996 0.000000 1.000000 -0.000037 105 105 105 1.000000
-0.045228 -0.326070 0.364911 0.000000 1.000000 0.000000 105 105 105 1.000000
0.654141 0.082320 0.025746 1.000000 0.000000 0.000000 105 105 105 1.000000
0.042884 0.458816 -0.664715 0.000000 0.632675 -0.774418 105 105 105 1.000000
0.654141 0.240681 -0.582011 1.000000 0.000000 0.000000 105 105 105 1.000000
0.313912 0.105247 0.468030 -1.000000 0.000000 0.000000 105 105 105 1.000000
-0.499067 -0.425863 0.145535 0.000000 1.000000 -0.000037 105 105 105 1.000000
0.313912 0.350989 -0.028793 1.000000 0.000000 0.000000 105 105 105 1.000000
-0.663729 0.009640 0.406753 -1.000000 0.000000 0.000000 105 105 105 1.000000
-0.278896 0.363892 0.410428 0.000000 1.000000 0.000000 105 105 105 1.000000
-0.127522 -0.402382 -0.667703 0.000000 0.000000 -1.000000 105 105 105 1.000000
-0.059917 -0.425869 -0.022674 0.000000 -1.000000 0.000037 105 105 105 1.000000
-0.376304 0.363892 0.062237 0.000000 1.000000 0.000000 105 105 105 1.000000
0.425703 0.463670 -0.277531 0.000000 -1.000000 -0.000000 105 105 105 1.000000
0.654141 -0.267801 0.017637 1.000000 0.000000 0.000000 105 105 105 1.000000
0.204892 -0.326070 0.172348 0.000000 -1.000000 -0.000000 105 105 105 1.000000
0.369810 -0.425869 -0.034614 0.000000 -1.000000 0.000037 105 105 105 1.000000
0.636322 -0.425862 0.176964 0.000000 1.000000 -0.000037 105 105 105 1.000000
-0.161520 -0.326070 0.431385 0.000000 1.000000 0.000000 105 105 105 1.000000
-0.633562 0.463670 -0.562965 0.000000 -1.000000 -0.000000 105 105 105 1.000000
0.654141 0.426816 -0.564024 1.000000 0.000000 0.000000 105 105 105 1.000000
0.493571 -0.205578 0.531558 0.000000 -0.000000 1.000000 105 105 105 1.000000
-0.229050 0.168828 0.561210 0.000000 0.000000 -1.000000 128 128 128 0.500000
0.090866 -0.289250 -0.667703 0.000000 -0.000000 1.000000 105 105 105 1.000000
0.201067 -0.026232 -0.667703 0.000000 -0.000000 1.000000 105 105 105 1.000000
0.153392 -0.078992 -0.150440 0.000000 0.000000 -1.000000 105 105 105 1.000000
0.654141 -0.373553 -0.644934 -1.000000 0.000000 0.000000 105 105 105 1.000000
0.063586 0.101427 -0.150440 0.000000 -0.000000 1.000000 105 105 105 1.000000
0.012492 -0.263534 0.574389 0.000000 0.000000 -1.000000 105 105 105 1.000000
0.376372 0.463670 0.093398 0.000000 -1.000000 -0.000000 105 105 105 1.000000
-0.564115 0.119868 0.531558 0.000000 0.000000 -1.000000 105 105 105 1.000000
-0.163794 -0.425858 0.284206 0.000000 -1.000000 0.000037 105 105 105 1.000000
-0.663729 -0.147604 0.021209 -1.000000 0.000000 0.000000 105 105 105 1.000000
-0.308746 0.117623 0.564505 0.000000 -0.000000 1.000000 128 128 128 0.500000
-0.210127 0.463670 -0.059989 0.000000 1.000000 0.000000 105 105 105 1.000000
0.550982 -0.425869 -0.018036 0.000000 1.000000 -0.000037 105 105 105 1.000000
-0.641817 0.064956 -0.667703 0.000000 0.000000 -1.000000 105 105 105 1.000000
-0.663729 0.328795 -0.068674 -1.000000 0.000000 0.000000 105 105 105 1.000000
0.329768 0.463670 -0.439197 0.000000 1.000000 0.000000 105 105 105 1.000000
0.654141 -0.323252 0.281258 -1.000000 0.000000 0.000000 105 105 105 1.000000
0.516936 -0.113577 0.531558 0.000000 -0.000000 1.000000 105 105 105 1.000000
-0.449713 0.463670 0.299473 0.000000 -1.000000 -0.000000 105 105 105 1.000000
0.280394 0.200700 -0.150440 0.000000 0.000000 -1.000000 105 105 105 1.000000
0.472515 0.230005 0.574389 0.000000 -0.000000 1.000000 105 105 105 1.000000
-0.494207 0.463670 -0.478871 0.000000 1.000000 0.000000 105 105 105 1.000000
-0.257622 -0.425883 -0.395630 0.000000 -1.000000 0.000037 105 105 105 1.000000
-0.225371 -0.367957 0.584273 0.000000 0.000000 -1.000000 179 179 179 1.000000
0.654141 0.041692 0.507016 -1.000000 0.000000 0.000000 105 105 105 1.000000
-0.065766 0.463670 -0.153835 0.000000 1.000000 0.000000 105 105 105 1.000000
-0.593826 -0.293407 0.574389 0.000000 -0.000000 1.000000 105 105 105 1.000000
-0.196414 0.451366 0.584273 0.000000 0.000000 -1.000000 175 175 175 1.000000
0.177637 0.400916 -0.667703 0.000000 -0.000000 1.000000 105 105 105 1.000000
0.522265 0.049552 0.574389 0.000000 0.000000 -1.000000 105 105 105 1.000000
-0.079491 -0.059838 -0.150440 0.000000 -0.000000 1.000000 105 105 105 1.000000
-0.431125 -0.425857 0.302123 0.000000 -1.000000 0.000037 105 105 105 1.000000
-0.396830 -0.425868 0.007393 0.000000 -1.000000 0.000037 105 105 105 1.000000
-0.230178 0.271506 0.561210 0.000000 0.000000 -1.000000 128 128 128 0.500000
-0.420577 0.313621 -0.150440 0.000000 0.000000 -1.000000 105 105 105 1.000000
0.312167 0.252083 0.561210 0.000000 -0.000000 1.000000 105 105 105 1.000000
0.254920 0.463670 0.177197 0.000000 -1.000000 -0.000000 105 105 105 1.000000
-0.663729 0.096616 0.102629 1.000000 0.000000 0.000000 105 105 105 1.000000
0.654141 -0.118447 0.419523 1.000000 0.000000 0.000000 105 105 105 1.000000
0.102596 -0.283033 0.564505 0.000000 0.000000 -1.000000 128 128 128 0.500000
0.654141 -0.210981 -0.059207 -1.000000 0.000000 0.000000 105 105 105 1.000000
0.053045 0.463670 -0.395165 0.000000 1.000000 0.000000 105 105 105 1.000000
-0.663729 0.232714 -0.565361 1.000000 0.000000 0.000000 105 105 105 1.000000
0.499316 -0.177596 -0.667703 0.000000 -0.000000 1.000000 105 105 105 1.000000
-0.062440 0.174953 -0.150440 0.000000 0.000000 -1.000000 105 105 105 1.000000
-0.663729 0.069140 -0.330118 1.000000 0.000000 0.000000 105 105 105 1.000000
-0.563950 0.351546 0.036220 1.000000 0.000000 0.000000 105 105 105 1.000000
0.354551 0.037280 0.574389 0.000000 -0.000000 1.000000 105 105 105 1.000000
-0.467780 -0.326070 0.010078 0.000000 -1.000000 -0.000000 105 105 105 1.000000
0.201470 0.463670 0.330781 0.000000 -1.000000 -0.000000 105 105 105 1.000000
-0.587746 -0.425882 -0.385402 0.000000 1.000000 -0.000037 105 105 105 1.000000
-0.563950 -0.184233 -0.137468 1.000000 0.000000 0.000000 105 105 105 1.000000
-0.364567 -0.395956 -0.667703 0.000000 0.000000 -1.000000 105 105 105 1.000000
-0.607090 -0.425851 0.470414 0.000000 1.000000 -0.000037 105 105 105 1.000000
-0.563950 0.073140 0.239959 -1.000000 0.000000 0.000000 105 105 105 1.000000
-0.333089 -0.425852 0.427527 0.000000 -1.000000 0.000037 105 105 105 1.000000
0.356294 -0.425849 0.529216 0.000000 -1.000000 0.000037 105 105 105 1.000000
0.654141 0.290587 0.055023 1.000000 0.000000 0.000000 105 105 105 1.000000
-0.548505 -0.388875 0.584273 0.000000 -0.000000 1.000000 223 223 223 1.000000
-0.296262 0.463670 -0.290180 0.000000 -1.000000 -0.000000 105 105 105 1.000000
0.264289 0.463670 0.444352 0.000000 1.000000 0.000000 105 105 105 1.000000
0.235926 -0.425874 -0.146571 0.000000 1.000000 -0.000037 105 105 105 1.000000
0.313912 0.030135 0.174115 -1.000000 0.000000 0.000000 105 105 105 1.000000
-0.141503 -0.326070 0.127746 0.000000 1.000000 0.000000 105 105 105 1.000000
-0.308277 -0.320358 0.533118 0.000000 -1.000000 -0.000000 189 189 189 1.000000
-0.168976 -0.107936 0.564505 0.000000 0.000000 -1.000000 128 128 128 0.500000
-0.000664 -0.425885 -0.452342 0.000000 1.000000 -0.000037 105 105 105 1.000000
0.654141 0.184422 0.444246 -1.000000 0.000000 0.000000 105 105 105 1.000000
-0.457911 -0.425865 0.087837 0.000000 1.000000 -0.000037 105 105 105 1.000000
0.311462 -0.425857 0.304973 0.000000 -1.000000 0.000037 105 105 105 1.000000
0.207180 -0.386706 -0.667703 0.000000 0.000000 -1.000000 105 105 105 1.000000
0.654141 -0.162884 -0.367287 -1.000000 0.000000 0.000000 105 105 105 1.000000
-0.427176 -0.425881 -0.342608 0.000000 1.000000 -0.000037 105 105 105 1.000000
-0.268510 -0.425862 0.176685 0.000000 1.000000 -0.000037 105 105 105 1.000000
0.027686 0.463670 0.244952 0.000000 -1.000000 -0.000000 105 105 105 1.000000
0.012630 -0.425860 0.226859 0.000000 1.000000 -0.000037 105 105 105 1.000000
0.298494 -0.235207 0.581177 -1.000000 0.000000 0.000000 233 233 233 1.000000
-0.401263 -0.326070 0.055584 0.000000 1.000000 0.000000 105 105 105 1.000000
0.654141 0.106293 -0.645001 -1.000000 0.000000 0.000000 105 105 105 1.000000
-0.151987 0.463670 0.424998 0.000000 1.000000 0.000000 105 105 105 1.000000
0.313912 0.158025 -0.046313 1.000000 0.000000 0.000000 105 105 105 1.000000
-0.517626 0.315125 -0.150440 0.000000 -0.000000 1.000000 105 105 105 1.000000
0.023191 -0.016166 0.564505 0.000000 -0.000000 1.000000 128 128 128 0.500000
-0.563950 0.119333 0.414259 -1.000000 0.000000 0.000000 105 105 105 1.000000
0.339604 0.357177 -0.667703 0.000000 -0.000000 1.000000 105 105 105 1.000000
-0.663729 -0.021315 -0.300183 1.000000 0.000000 0.000000 105 105 105 1.000000
0.163348 0.010786 0.561210 0.000000 -0.000000 1.000000 128 128 128 0.500000
0.050875 0.158338 -0.150440 0.000000 -0.000000 1.000000 105 105 105 1.000000
-0.037127 0.363892 0.133608 0.000000 -1.000000 -0.000000 105 105 105 1.000000
-0.482715 -0.053150 -0.667703 0.000000 -0.000000 1.000000 105 105 105 1.000000
-0.138833 -0.284489 0.574389 0.000000 0.000000 -1.000000 105 105 105 1.000000
-0.135761 0.429012 0.584273 0.000000 0.000000 -1.000000 166 166 166 1.000000
-0.239066 0.463670 0.017319 0.000000 -1.000000 -0.000000 105 105 105 1.000000
0.292753 -0.326070 0.011237 0.000000 -1.000000 -0.000000 105 105 105 1.000000
-0.663729 -0.068729 0.511055 -1.000000 0.000000 0.000000 105 105 105 1.000000
-0.490396 0.156949 -0.150440 0.000000 0.000000 -1.000000 105 105 105 1.000000
0.374629 0.463670 0.242758 0.000000 1.000000 0.000000 105 105 105 1.000000
0.414596 -0.425854 0.380902 0.000000 1.000000 -0.000037 105 105 105 1.000000
-0.068084 -0.147901 -0.150440 0.000000 0.000000 -1.000000 105 105 105 1.000000
0.610208 -0.192928 0.531558 0.000000 0.000000 -1.000000 105 105 105 1.000000
-0.073937 -0.326070 0.158294 0.000000 -1.000000 -0.000000 105 105 105 1.000000
0.298877 -0.326070 0.107275 0.000000 1.000000 0.000000 105 105 105 1.000000
0.551515 -0.425863 0.144274 0.000000 -1.000000 0.000037 105 105 105 1.000000
-0.616291 -0.425858 0.277759 0.000000 1.000000 -0.000037 105 105 105 1.000000
0.313912 0.049414 0.445215 -1.000000 0.000000 0.000000 105 105 105 1.000000
-0.071699 -0.416069 0.531558 0.000000 -0.000000 1.000000 105 105 105 1.000000
-0.457772 0.463670 0.045454 0.000000 1.000000 0.000000 105 105 105 1.000000
0.307323 0.463670 0.400269 0.000000 1.000000 0.000000 105 105 105 1.000000
-0.563950 -0.160572 0.057509 -1.000000 0.000000 0.000000 105 105 105 1.000000
-0.663729 -0.153276 0.127672 -1.000000 0.000000 0.000000 105 105 105 1.000000
-0.021902 -0.081996 -0.150440 0.000000 0.000000 -1.000000 105 105 105 1.000000
0.617132 -0.032867 0.584273 0.000000 -0.000000 1.000000 235 235 235 1.000000
-0.472028 -0.186168 -0.150440 0.000000 0.000000 -1.000000 105 105 105 1.000000
-0.326661 -0.068910 0.561210 0.000000 0.000000 -1.000000 128 128 128 0.500000
0.106323 -0.326070 -0.105150 0.000000 -1.000000 -0.000000 105 105 105 1.000000
-0.631339 0.438415 0.584273 0.000000 0.000000 -1.000000 232 232 232 1.000000
-0.166614 -0.334746 0.584273 0.000000 -0.000000 1.000000 173 173 173 1.000000
-0.420701 -0.089469 -0.667703 0.000000 0.000000 -1.000000 105 105 105 1.000000
-0.215092 -0.277373 0.561210 0.000000 0.000000 -1.000000 128 128 128 0.500000
-0.138521 -0.121982 -0.150440 0.000000 0.000000 -1.000000 105 105 105 1.000000
0.466638 0.463670 0.358166 0.000000 -1.000000 -0.000000 105 105 105 1.000000
0.654141 0.322946 -0.290038 1.000000 0.000000 0.000000 105 105 105 1.000000
-0.618665 0.293435 0.584273 0.000000 -0.000000 1.000000 231 231 231 1.000000
-0.663729 0.067106 0.443015 -1.000000 0.000000 0.000000 105 105 105 1.000000
0.439678 -0.027163 0.574389 0.000000 0.000000 -1.000000 105 105 105 1.000000
0.654141 -0.034868 -0.200696 -1.000000 0.000000 0.000000 105 105 105 1.000000
-0.055303 0.463670 -0.060790 0.000000 -1.000000 -0.000000 105 105 105 1.000000
-0.294478 0.086330 -0.667703 0.000000 0.000000 -1.000000 105 105 105 1.000000
-0.051324 -0.057386 -0.667703 0.000000 -0.000000 1.000000 105 105 105 1.000000
-0.163921 0.131097 0.564505 0.000000 0.000000 -1.000000 128 128 128 0.500000
-0.646772 0.374356 0.531558 0.000000 -0.000000 1.000000 105 105 105 1.000000
-0.305393 0.345060 -0.667703 0.000000 0.000000 -1.000000 105 105 105 1.000000
-0.325571 -0.425850 0.492244 0.000000 1.000000 -0.000037 105 105 105 1.000000
0.384423 0.412752 0.531558 0.000000 0.000000 -1.000000 105 105 105 1.000000
0.593018 0.463670 0.395794 0.000000 -1.000000 -0.000000 105 105 105 1.000000
-0.239583 0.162251 -0.150440 0.000000 -0.000000 1.000000 105 105 105 1.000000
0.654141 -0.004743 0.003647 1.000000 0.000000 0.000000 105 105 105 1.000000
0.252869 -0.322998 0.561210 0.000000 0.000000 -1.000000 105 105 105 1.000000
-0.011311 -0.271548 -0.150440 0.000000 0.000000 -1.000000 105 105 105 1.000000
0.654141 -0.102624 0.353945 1.000000 0.000000 0.000000 105 105 105 1.000000
-0.663729 -0.363897 0.200751 -1.000000 0.000000 0.000000 105 105 105 1.000000
-0.086514 -0.325599 -0.667703 0.000000 0.000000 -1.000000 105 105 105 1.000000
0.004294 0.146261 0.564505 0.000000 -0.000000 1.000000 128 128 128 0.500000
-0.563950 0.362830 0.265882 1.000000 0.000000 0.000000 105 105 105 1.000000
-0.368038 0.014183 0.564505 0.000000 -0.000000 1.000000 128 128 128 0.500000
-0.292970 0.363892 0.062638 0.000000 -1.000000 -0.000000 105 105 105 1.000000
0.536637 -0.077945 -0.667703 0.000000 0.000000 -1.000000 105 105 105 1.000000
-0.546237 0.339698 0.574389 0.000000 0.000000 -1.000000 105 105 105 1.000000
-0.232959 0.160663 -0.667703 0.000000 -0.000000 1.000000 105 105 105 1.000000
0.420903 0.463670 -0.420472 0.000000 -1.000000 -0.000000 105 105 105 1.000000
-0.623437 0.027171 0.531558 0.000000 0.000000 -1.000000 239 239 239 1.000000
0.558790 0.222526 -0.667703 0.000000 -0.000000 1.000000 105 105 105 1.000000
-0.269698 0.463670 -0.513709 0.000000 1.000000 0.000000 105 105 105 1.000000
-0.306204 0.224010 -0.150440 0.000000 -0.000000 1.000000 105 105 105 1.000000
-0.462826 0.463670 -0.202812 0.000000 1.000000 0.000000 105 105 105 1.000000
-0.631805 -0.425876 -0.206954 0.000000 -1.000000 0.000037 105 105 105 1.000000
0.355847 -0.282409 0.615942 0.924119 0.078759 -0.373900 228 228 228 1.000000
0.445929 -0.146433 0.531558 0.000000 -0.000000 1.000000 105 105 105 1.000000
-0.563950 0.246628 0.216373 -1.000000 0.000000 0.000000 105 105 105 1.000000
-0.160559 -0.207541 0.564505 0.000000 0.000000 -1.000000 128 128 128 0.500000
0.654141 -0.339989 -0.290573 1.000000 0.000000 0.000000 105 105 105 1.000000
0.207776 -0.425892 -0.635067 0.000000 1.000000 -0.000037 105 105 105 1.000000
0.441939 0.319790 0.574389 0.000000 -0.000000 1.000000 105 105 105 1.000000
-0.207212 0.463670 -0.588815 0.000000 -1.000000 -0.000000 105 105 105 1.000000
-0.384651 0.066378 -0.150440 0.000000 -0.000000 1.000000 105 105 105 1.000000
0.440382 -0.337863 0.531558 0.000000 -0.000000 1.000000 227 227 227 1.000000
-0.656469 0.427111 0.531558 0.000000 0.000000 -1.000000 105 105 105 1.000000
-0.016134 0.148351 -0.150440 0.000000 0.000000 -1.000000 105 105 105 1.000000
-0.369784 -0.326070 -0.117817 0.000000 -1.000000 -0.000000 105 105 105 1.000000
-0.573699 -0.017035 -0.667703 0.000000 -0.000000 1.000000 105 105 105 1.000000
0.368848 -0.226258 -0.667703 0.000000 0.000000 -1.000000 105 105 105 1.000000
-0.164301 0.319501 -0.150440 0.000000 0.000000 -1.000000 105 105 105 1.000000
0.609669 -0.425884 -0.437368 0.000000 1.000000 -0.000037 105 105 105 1.000000
-0.663729 -0.269804 0.403646 -1.000000 0.000000 0.000000 105 105 105 1.000000
-0.663729 -0.001527 0.238336 1.000000 0.000000 0.000000 105 105 105 1.000000
0.029823 0.363892 0.524955 0.000000 1.000000 0.000000 105 105 105 1.000000
-0.663729 0.276603 0.275707 -1.000000 0.000000 0.000000 105 105 105 1.000000
-0.291396 0.463623 0.567163 0.000000 -1.000000 -0.000000 189 189 189 1.000000
-0.072646 0.363892 0.365493 0.000000 -1.000000 -0.000000 105 105 105 1.000000
0.286725 0.113607 -0.150440 0.000000 0.000000 -1.000000 105 105 105 1.000000
0.654141 0.067321 0.221897 -1.000000 0.000000 0.000000 105 105 105 1.000000
0.654141 0.455235 -0.469519 1.000000 0.000000 0.000000 105 105 105 1.000000
0.289669 0.463623 0.543048 0.000000 1.000000 0.000000 178 178 178 1.000000
-0.069524 -0.326070 0.291499 0.000000 1.000000 0.000000 105 105 105 1.000000
-0.197631 -0.326070 0.380998 0.000000 1.000000 0.000000 105 105 105 1.000000
0.564032 0.042145 0.531558 0.000000 0.000000 -1.000000 105 105 105 1.000000
-0.563950 -0.003224 0.041240 1.000000 0.000000 0.000000 105 105 105 1.000000
0.629513 0.308313 -0.667703 0.000000 -0.000000 1.000000 105 105 105 1.000000
-0.265445 -0.326070 0.449795 0.000000 -1.000000 -0.000000 105 105 105 1.000000
0.565475 0.185239 0.574389 0.000000 -0.000000 1.000000 105 105 105 1.000000
-0.004660 -0.026819 -0.667703 0.000000 -0.000000 1.000000 105 105 105 1.000000
0.644868 0.182127 0.531558 0.000000 0.000000 -1.000000 105 105 105 1.000000
-0.663729 0.354617 0.300320 1.000000 0.000000 0.000000 105 105 105 1.000000
-0.511419 -0.326070 0.060845 0.000000 -1.000000 -0.000000 105 105 105 1.000000
-0.663729 -0.171077 -0.389190 1.000000 0.000000 0.000000 105 105 105 1.000000
-0.005167 -0.336198 -0.667703 0.000000 -0.000000 1.000000 105 105 105 1.000000
-0.663729 -0.104927 -0.629326 1.000000 0.000000 0.000000 105 105 105 1.000000
0.597879 0.075488 -0.667703 0.000000 -0.000000 1.000000 105 105 105 1.000000
0.386227 -0.378890 0.584273 0.000000 0.000000 -1.000000 202 202 202 1.000000
-0.626154 -0.425862 0.159453 0.000000 -1.000000 0.000037 105 105 105 1.000000
0.421708 0.063726 0.574389 0.000000 -0.000000 1.000000 105 105 105 1.000000
0.086960 -0.279238 -0.150440 0.000000 -0.000000 1.000000 105 105 105 1.000000
0.320137 0.355608 0.584273 0.000000 0.000000 -1.000000 183 183 183 1.000000
0.520268 0.463670 -0.550207 0.000000 1.000000 0.000000 105 105 105 1.000000
-0.663729 -0.251381 0.558934 1.000000 0.000000 0.000000 238 238 238 1.000000
0.061107 0.463670 0.280906 0.000000 -1.000000 -0.000000 105 105 105 1.000000
0.254297 0.463670 -0.373674 0.000000 -1.000000 -0.000000 105 105 105 1.000000
-0.522301 -0.245086 -0.667703 0.000000 -0.000000 1.000000 105 105 105 1.000000
0.024846 -0.425880 -0.318011 0.000000 1.000000 -0.000037 105 105 105 1.000000
0.558142 -0.146930 0.531558 0.000000 0.000000 -1.000000 105 105 105 1.000000
-0.359465 0.276922 -0.150440 0.000000 -0.000000 1.000000 105 105 105 1.000000
-0.563950 -0.088066 0.026498 -1.000000 0.000000 0.000000 105 105 105 1.000000
0.601298 -0.425853 0.421191 0.000000 1.000000 -0.000037 105 105 105 1.000000
-0.503086 0.363892 0.351002 0.000000 -1.000000 -0.000000 105 105 105 1.000000
0.483171 -0.241482 0.574389 0.000000 0.000000 -1.000000 105 105 105 1.000000
0.524749 -0.187089 0.561210 0.000000 0.000000 -1.000000 105 105 105 1.000000
-0.024526 0.211109 -0.667703 0.000000 0.000000 -1.000000 105 105 105 1.000000
-0.253510 -0.425858 0.278085 0.000000 1.000000 -0.000037 105 105 105 1.000000
0.413022 -0.247907 0.531558 0.000000 0.000000 -1.000000 105 105 105 1.000000
0.331049 0.183298 0.531558 0.000000 0.000000 -1.000000 105 105 105 1.000000
0.617078 0.285277 0.534916 -1.000000 0.000000 0.000000 235 235 235 1.000000
-0.482717 -0.425874 -0.160275 0.000000 -1.000000 0.000037 105 105 105 1.000000
-0.663729 0.334886 -0.198488 1.000000 0.000000 0.000000 105 105 105 1.000000
0.654141 -0.202292 0.139050 -1.000000 0.000000 0.000000 105 105 105 1.000000
0.166243 0.463670 -0.476978 0.000000 -1.000000 -0.000000 105 105 105 1.000000
0.051828 -0.326070 0.021146 0.000000 1.000000 0.000000 105 105 105 1.000000
-0.344681 -0.326070 0.273180 0.000000 -1.000000 -0.000000 105 105 105 1.000000
0.066142 0.463670 -0.623477 0.000000 -1.000000 -0.000000 105 105 105 1.000000
-0.176418 -0.070672 -0.667703 0.000000 0.000000 -1.000000 105 105 105 1.000000
0.654141 -0.239288 0.324863 1.000000 0.000000 0.000000 105 105 105 1.000000
-0.200690 -0.326070 -0.065761 0.000000 -1.000000 -0.000000 105 105 105 1.000000
0.198533 -0.309328 -0.667703 0.000000 -0.000000 1.000000 105 105 105 1.000000
-0.663729 -0.339379 -0.443940 1.000000 0.000000 0.000000 105 105 105 1.000000
0.654141 0.258264 0.480314 -1.000000 0.000000 0.000000 105 105 105 1.000000
0.654141 -0.198324 0.361609 1.000000 0.000000 0.000000 105 105 105 1.000000
-0.655718 0.044674 0.584273 0.000000 -0.000000 1.000000 235 235 235 1.000000
-0.663729 0.432277 0.028346 1.000000 0.000000 0.000000 105 105 105 1.000000
-0.325834 -0.156547 0.561210 0.000000 0.000000 -1.000000 128 128 128 0.500000
-0.663729 -0.288282 0.485315 -1.000000 0.000000 0.000000 105 105 105 1.000000
-0.540437 -0.425887 -0.506992 0.000000 1.000000 -0.000037 105 105 105 1.000000
0.329994 -0.425881 -0.337675 0.000000 -1.000000 0.000037 105 105 105 1.000000
-0.353534 -0.326070 0.023395 0.000000 1.000000 0.000000 105 105 105 1.000000
0.342139 0.449544 -0.667703 0.000000 -0.000000 1.000000 105 105 105 1.000000
-0.526017 -0.326070 -0.036350 0.000000 1.000000 0.000000 105 105 105 1.000000
0.617078 -0.299744 0.555565 1.000000 0.000000 0.000000 239 239 239 1.000000
0.482074 -0.425865 0.097491 0.000000 -1.000000 0.000037 105 105 105 1.000000
-0.432600 0.028986 -0.150440 0.000000 -0.000000 1.000000 105 105 105 1.000000
0.249610 0.363892 -0.038436 0.000000 1.000000 0.000000 105 105 105 1.000000
-0.090368 0.463670 0.432579 0.000000 -1.000000 -0.000000 105 105 105 1.000000
0.313912 -0.070062 0.289727 1.000000 0.000000 0.000000 105 105 105 1.000000
-0.663729 0.182088 0.156599 -1.000000 0.000000 0.000000 105 105 105 1.000000
-0.472077 0.077663 -0.667703 0.000000 -0.000000 1.000000 105 105 105 1.000000
-0.148650 0.463670 0.513001 0.000000 1.000000 0.000000 105 105 105 1.000000
0.228967 0.421787 -0.667703 0.000000 -0.000000 1.000000 105 105 105 1.000000
0.122760 0.363892 0.512425 0.000000 -1.000000 -0.000000 105 105 105 1.000000
-0.250434 -0.425854 0.395989 0.000000 -1.000000 0.000037 105 105 105 1.000000
-0.285529 -0.086553 -0.667703 0.000000 -0.000000 1.000000 105 105 105 1.000000
0.312778 -0.107623 0.658463 0.109310 0.092460 -0.989698 235 235 235 1.000000
-0.607599 -0.136545 -0.667703 0.000000 -0.000000 1.000000 105 105 105 1.000000
-0.511369 0.363892 -0.015109 0.000000 1.000000 0.000000 105 105 105 1.000000
0.504174 -0.425861 0.204173 0.000000 -1.000000 0.000037 105 105 105 1.000000
0.270566 0.329629 -0.150440 0.000000 0.000000 -1.000000 105 105 105 1.000000
0.052345 -0.425886 -0.477466 0.000000 1.000000 -0.000037 105 105 105 1.000000
-0.643994 -0.377144 -0.667703 0.000000 -0.000000 1.000000 105 105 105 1.000000
-0.193292 -0.326070 0.518627 0.000000 1.000000 0.000000 105 105 105 1.000000
-0.513601 -0.326070 0.460994 0.000000 -1.000000 -0.000000 105 105 105 1.000000
-0.375639 -0.326070 0.347389 0.000000 -1.000000 -0.000000 105 105 105 1.000000
-0.001019 -0.091972 0.564505 0.000000 -0.000000 1.000000 128 128 128 0.500000
-0.151569 0.316591 0.574389 0.000000 0.000000 -1.000000 105 105 105 1.000000
0.209163 0.282868 -0.150440 0.000000 -0.000000 1.000000 105 105 105 1.000000
-0.566430 -0.340446 0.531558 0.000000 -0.000000 1.000000 238 238 238 1.000000
-0.135759 0.182686 0.561210 0.000000 -0.000000 1.000000 128 128 128 0.500000
0.248299 0.463670 -0.051735 0.000000 1.000000 0.000000 105 105 105 1.000000
0.645869 0.463670 -0.378648 0.000000 1.000000 0.000000 105 105 105 1.000000
-0.663729 0.136003 -0.518500 -1.000000 0.000000 0.000000 105 105 105 1.000000
-0.614934 0.463670 -0.224655 0.000000 1.000000 0.000000 105 105 105 1.000000
0.462569 -0.099319 -0.667703 0.000000 0.000000 -1.000000 105 105 105 1.000000
-0.185360 0.408668 0.531558 0.000000 -0.000000 1.000000 105 105 105 1.000000
0.175727 -0.080962 -0.667703 0.000000 0.000000 -1.000000 105 105 105 1.000000
0.313912 -0.196577 0.141342 1.000000 0.000000 0.000000 105 105 105 1.000000
-0.620076 -0.085776 0.573956 -1.000000 0.000000 0.000000 105 105 105 1.000000
0.266590 -0.425856 0.322383 0.000000 -1.000000 0.000037 105 105 105 1.000000
-0.364438 -0.321655 -0.667703 0.000000 0.000000 -1.000000 105 105 105 1.000000
-0.136433 -0.326070 0.007251 0.000000 -1.000000 -0.000000 105 105 105 1.000000
-0.425625 -0.326070 -0.032740 0.000000 -1.000000 -0.000000 105 105 105 1.000000
-0.203342 -0.425856 0.320656 0.000000 1.000000 -0.000037 105 105 105 1.000000
-0.352497 -0.257502 -0.150440 0.000000 -0.000000 1.000000 105 105 105 1.000000
-0.663729 0.338004 -0.485862 -1.000000 0.000000 0.000000 105 105 105 1.000000
0.313912 0.225251 0.373936 -1.000000 0.000000 0.000000 105 105 105 1.000000
0.498834 0.069756 0.531558 0.000000 0.000000 -1.000000 105 105 105 1.000000
-0.372361 0.463670 -0.304120 0.000000 -1.000000 -0.000000 105 105 105 1.000000
-0.586230 -0.417013 -0.666952 0.000000 0.326956 0.945040 105 105 105 1.000000
0.313912 -0.117752 0.252780 -1.000000 0.000000 0.000000 105 105 105 1.000000
-0.022124 -0.425855 0.366071 0.000000 -1.000000 0.000037 105 105 105 1.000000
0.016645 0.463670 0.085114 0.000000 1.000000 0.000000 105 105 105 1.000000
0.181104 -0.326070 0.326132 0.000000 -1.000000 -0.000000 105 105 105 1.000000
-0.270048 -0.425880 -0.312765 0.000000 1.000000 -0.000037 105 105 105 1.000000
0.365031 -0.041227 0.531558 0.000000 0.000000 -1.000000 105 105 105 1.000000
-0.524894 -0.425883 -0.410468 0.000000 1.000000 -0.000037 105 105 105 1.000000
-0.563950 -0.139257 -0.055242 1.000000 0.000000 0.000000 105 105 105 1.000000
0.313912 0.263395 -0.055242 1.000000 0.000000 0.000000 105 105 105 1.000000
0.263013 -0.159173 0.562928 1.000000 0.000000 0.000000 128 128 128 0.500000
0.654141 0.194528 -0.103536 1.000000 0.000000 0.000000 105 105 105 1.000000
0.654141 0.192148 0.358374 -1.000000 0.000000 0.000000 105 105 105 1.000000
-0.363875 0.463670 -0.377316 0.000000 -1.000000 -0.000000 105 105 105 1.000000
0.355981 -0.140242 0.569711 -1.000000 0.000000 0.000000 105 105 105 1.000000
0.598177 0.417922 -0.667703 0.000000 -0.000000 1.000000 105 105 105 1.000000
-0.218435 0.463670 0.262466 0.000000 1.000000 0.000000 105 105 105 1.000000
0.346883 -0.425878 -0.274318 0.000000 1.000000 -0.000037 105 105 105 1.000000
-0.563950 -0.084352 -0.125485 -1.000000 0.000000 0.000000 105 105 105 1.000000
-0.383587 0.324513 0.574389 0.000000 0.000000 -1.000000 105 105 105 1.000000
0.644328 0.166323 -0.667703 0.000000 -0.000000 1.000000 105 105 105 1.000000
-0.663729 0.279908 -0.517676 -1.000000 0.000000 0.000000 105 105 105 1.000000
0.104957 0.363892 0.097654 0.000000 -1.000000 -0.000000 105 105 105 1.000000
-0.501971 -0.342575 -0.667703 0.000000 -0.000000 1.000000 105 105 105 1.000000
-0.029660 -0.425887 -0.517374 0.000000 1.000000 -0.000037 105 105 105 1.000000
0.654141 -0.388432 0.415574 1.000000 0.000000 0.000000 105 105 105 1.000000
-0.405982 -0.327578 0.561210 0.000000 -0.000000 1.000000 105 105 105 1.000000
-0.563950 -0.232922 0.380196 1.000000 0.000000 0.000000 105 105 105 1.000000
0.654141 0.330233 0.460313 1.000000 0.000000 0.000000 105 105 105 1.000000
0.654141 0.028524 -0.083295 -1.000000 0.000000 0.000000 105 105 105 1.000000
-0.271439 0.463670 -0.431102 0.000000 1.000000 0.000000 105 105 105 1.000000
-0.002028 0.314379 0.561210 0.000000 0.000000 -1.000000 105 105 105 1.000000
0.313912 0.312169 0.114781 1.000000 0.000000 0.000000 105 105 105 1.000000
0.055479 -0.150729 0.561210 0.000000 -0.000000 1.000000 128 128 128 0.500000
-0.369947 -0.038156 -0.150440 0.000000 -0.000000 1.000000 105 105 105 1.000000
0.654141 0.275863 0.139720 1.000000 0.000000 0.000000 105 105 105 1.000000
-0.320412 0.463670 0.467074 0.000000 -1.000000 -0.000000 105 105 105 1.000000
0.313912 0.329710 -0.100747 -1.000000 0.000000 0.000000 105 105 105 1.000000
-0.399083 -0.326070 0.249780 0.000000 1.000000 0.000000 105 105 105 1.000000
-0.663729 0.067676 -0.087614 -1.000000 0.000000 0.000000 105 105 105 1.000000
0.520698 -0.339843 0.584273 0.000000 0.000000 -1.000000 223 223 223 1.000000
-0.390691 -0.129637 0.564505 0.000000 0.000000 -1.000000 128 128 128 0.500000
0.194870 0.040462 0.574389 0.000000 -0.000000 1.000000 105 105 105 1.000000
0.283375 -0.425870 -0.059664 0.000000 -1.000000 0.000037 105 105 105 1.000000
-0.497841 0.363892 0.199773 0.000000 1.000000 0.000000 105 105 105 1.000000
0.641409 0.463670 0.037189 0.000000 1.000000 0.000000 105 105 105 1.000000
0.167380 -0.211734 0.564505 0.000000 0.000000 -1.000000 128 128 128 0.500000
0.008259 0.463670 -0.397185 0.000000 -1.000000 -0.000000 105 105 105 1.000000
0.461964 0.463670 0.260431 0.000000 1.000000 0.000000 105 105 105 1.000000
0.602911 0.463670 -0.142580 0.000000 -1.000000 -0.000000 105 105 105 1.000000
0.640833 -0.425877 -0.250932 0.000000 1.000000 -0.000037 105 105 105 1.000000
0.313912 -0.240414 0.357070 1.000000 0.000000 0.000000 105 105 105 1.000000
0.064683 -0.326070 0.092187 0.000000 1.000000 0.000000 105 105 105 1.000000
-0.100439 0.463670 -0.416962 0.000000 1.000000 0.000000 105 105 105 1.000000
0.654141 0.018196 0.154506 -1.000000 0.000000 0.000000 105 105 105 1.000000
0.654141 -0.116466 -0.066271 1.000000 0.000000 0.000000 105 105 105 1.000000
0.654141 -0.236432 0.105585 1.000000 0.000000 0.000000 105 105 105 1.000000
-0.213541 -0.220432 -0.667703 0.000000 0.000000 -1.000000 105 105 105 1.000000
0.493263 0.004231 0.574389 0.000000 0.000000 -1.000000 105 105 105 1.000000
0.313912 -0.284519 0.169313 -1.000000 0.000000 0.000000 105 105 105 1.000000
0.132268 0.169584 -0.150440 0.000000 0.000000 -1.000000 105 105 105 1.000000
0.324340 0.352663 0.536647 0.000000 1.000000 0.000000 150 150 150 1.000000
-0.375706 0.463670 -0.565958 0.000000 -1.000000 -0.000000 105 105 105 1.000000
-0.380878 -0.425870 -0.059132 0.000000 1.000000 -0.000037 105 105 105 1.000000
0.628138 0.463623 0.537170 0.000000 1.000000 0.000000 235 235 235 1.000000
0.133541 0.299948 0.570955 0.000000 -1.000000 -0.000000 105 105 105 1.000000
0.145793 0.049299 -0.150440 0.000000 -0.000000 1.000000 105 105 105 1.000000
-0.200632 0.363892 0.040503 0.000000 1.000000 0.000000 105 105 105 1.000000
-0.563950 0.197691 0.285791 1.000000 0.000000 0.000000 105 105 105 1.000000
-0.194354 -0.240706 -0.150440 0.000000 -0.000000 1.000000 105 105 105 1.000000
0.654141 -0.122477 -0.638336 -1.000000 0.000000 0.000000 105 105 105 1.000000
-0.038876 -0.425877 -0.248064 0.000000 1.000000 -0.000037 105 105 105 1.000000
0.000746 -0.425863 0.144183 0.000000 -1.000000 0.000037 105 105 105 1.000000
0.229146 -0.425884 -0.437777 0.000000 1.000000 -0.000037 105 105 105 1.000000
0.607218 -0.331878 -0.667703 0.000000 -0.000000 1.000000 105 105 105 1.000000
-0.663729 -0.419401 0.046909 1.000000 0.000000 0.000000 105 105 105 1.000000
-0.448456 0.363892 -0.080943 0.000000 -1.000000 -0.000000 105 105 105 1.000000
-0.629046 -0.425889 -0.565265 0.000000 1.000000 -0.000037 105 105 105 1.000000
-0.497469 0.463670 0.152133 0.000000 1.000000 0.000000 105 105 105 1.000000
0.387141 -0.425891 -0.621758 0.000000 1.000000 -0.000037 105 105 105 1.000000
0.397029 -0.369871 -0.667703 0.000000 -0.000000 1.000000 105 105 105 1.000000
0.158155 -0.345604 0.531558 0.000000 0.000000 -1.000000 105 105 105 1.000000
-0.563950 -0.210299 0.064113 -1.000000 0.000000 0.000000 105 105 105 1.000000
-0.243091 0.363892 0.302897 0.000000 1.000000 0.000000 105 105 105 1.000000
-0.020143 -0.098784 -0.667703 0.000000 -0.000000 1.000000 105 105 105 1.000000
-0.467939 0.103270 -0.150440 0.000000 -0.000000 1.000000 105 105 105 1.000000
0.313912 0.109064 0.126274 1.000000 0.000000 0.000000 105 105 105 1.000000
0.466688 0.148728 -0.667703 0.000000 0.000000 -1.000000 105 105 105 1.000000
0.224420 -0.326070 -0.011848 0.000000 -1.000000 -0.000000 105 105 105 1.000000
0.654141 -0.285755 0.334467 -1.000000 0.000000 0.000000 105 105 105 1.000000
0.453789 -0.425868 0.001262 0.000000 1.000000 -0.000037 105 105 105 1.000000
-0.108626 0.363892 0.067101 0.000000 -1.000000 -0.000000 105 105 105 1.000000
0.654141 0.043888 0.326652 -1.000000 0.000000 0.000000 105 105 105 1.000000
-0.102552 -0.157465 0.564505 0.000000 0.000000 -1.000000 128 128 128 0.500000
-0.394792 -0.182161 -0.667703 0.000000 0.000000 -1.000000 105 105 105 1.000000
0.003687 -0.326070 0.240621 0.000000 -1.000000 -0.000000 105 105 105 1.000000
0.383453 0.395082 -0.667703 0.000000 -0.000000 1.000000 105 105 105 1.000000
-0.244646 0.079513 -0.150440 0.000000 -0.000000 1.000000 105 105 105 1.000000
-0.663729 0.393321 0.274013 1.000000 0.000000 0.000000 105 105 105 1.000000
-0.457005 0.229664 -0.150440 0.000000 -0.000000 1.000000 105 105 105 1.000000
-0.663729 0.370284 -0.526606 1.000000 0.000000 0.000000 105 105 105 1.000000
0.017252 0.363892 0.436560 0.000000 1.000000 0.000000 105 105 105 1.000000
-0.563950 0.186053 -0.109283 1.000000 0.000000 0.000000 105 105 105 1.000000
0.114026 -0.425858 0.269552 0.000000 -1.000000 0.000037 105 105 105 1.000000
0.313912 0.305358 0.374304 -1.000000 0.000000 0.000000 105 105 105 1.000000
-0.160261 0.363892 0.328330 0.000000 -1.000000 -0.000000 105 105 105 1.000000
-0.489223 -0.425889 -0.570329 0.000000 1.000000 -0.000037 105 105 105 1.000000
0.044369 0.063030 0.564505 0.000000 0.000000 -1.000000 128 128 128 0.500000
0.654141 0.072785 -0.283970 -1.000000 0.000000 0.000000 105 105 105 1.000000
0.600049 0.425760 0.584273 0.000000 0.000000 -1.000000 232 232 232 1.000000
-0.563950 -0.176059 0.235562 -1.000000 0.000000 0.000000 105 105 105 1.000000
-0.352443 -0.425865 0.089778 0.000000 -1.000000 0.000037 105 105 105 1.000000
-0.294173 -0.425878 -0.266262 0.000000 -1.000000 0.000037 105 105 105 1.000000
0.079969 -0.425890 -0.600650 0.000000 1.000000 -0.000037 105 105 105 1.000000
0.340465 0.142523 -0.667703 0.000000 -0.000000 1.000000 105 105 105 1.000000
0.617078 0.088551 0.535638 -1.000000 0.000000 0.000000 235 235 235 1.000000
-0.150626 -0.028248 0.564505 0.000000 -0.000000 1.000000 128 128 128 0.500000
-0.663729 -0.128797 0.487436 -1.000000 0.000000 0.000000 105 105 105 1.000000
-0.219393 0.317478 0.561825 0.000000 1.000000 0.000000 128 128 128 0.500000
0.172493 0.463670 -0.009407 0.000000 1.000000 0.000000 105 105 105 1.000000
0.654141 -0.176282 -0.131888 -1.000000 0.000000 0.000000 105 105 105 1.000000
-0.663729 0.356390 -0.108002 1.000000 0.000000 0.000000 105 105 105 1.000000
-0.663729 0.289322 0.522277 1.000000 0.000000 0.000000 105 105 105 1.000000
0.457696 -0.425888 -0.539414 0.000000 -1.000000 0.000037 105 105 105 1.000000
-0.663729 0.042316 -0.153120 1.000000 0.000000 0.000000 105 105 105 1.000000
0.654141 0.104807 -0.199190 -1.000000 0.000000 0.000000 105 105 105 1.000000
0.311733 0.190278 -0.667703 0.000000 -0.000000 1.000000 105 105 105 1.000000
-0.305483 -0.028206 0.561210 0.000000 0.000000 -1.000000 128 128 128 0.500000
-0.108147 0.016089 0.564505 0.000000 0.000000 -1.000000 128 128 128 0.500000
-0.408252 0.235687 0.561210 0.000000 -0.000000 1.000000 128 128 128 0.500000
0.278409 -0.328065 -0.667703 0.000000 -0.000000 1.000000 105 105 105 1.000000
-0.563950 0.291046 0.213582 1.000000 0.000000 0.000000 105 105 105 1.000000
-0.426455 0.050980 -0.667703 0.000000 0.000000 -1.000000 105 105 105 1.000000
-0.343501 0.177965 0.561210 0.000000 -0.000000 1.000000 128 128 128 0.500000
0.654141 0.129315 0.367141 1.000000 0.000000 0.000000 105 105 105 1.000000
-0.477537 0.463670 0.358912 0.000000 1.000000 0.000000 105 105 105 1.000000
-0.282067 -0.298776 0.561210 0.000000 -0.000000 1.000000 105 105 105 1.000000
-0.042785 0.363892 0.240156 0.000000 -1.000000 -0.000000 105 105 105 1.000000
-0.663729 -0.384451 0.516631 1.000000 0.000000 0.000000 105 105 105 1.000000
0.292049 0.125400 0.641613 0.591422 0.061535 0.804011 239 239 239 1.000000
-0.069516 -0.326070 0.057271 0.000000 -1.000000 -0.000000 105 105 105 1.000000
-0.406292 0.363892 0.177751 0.000000 1.000000 0.000000 105 105 105 1.000000
-0.663729 0.298591 -0.430202 -1.000000 0.000000 0.000000 105 105 105 1.000000
0.498783 -0.015797 -0.667703 0.000000 -0.000000 1.000000 105 105 105 1.000000
-0.031447 0.321868 -0.150440 0.000000 0.000000 -1.000000 105 105 105 1.000000
0.389955 -0.225365 0.574389 0.000000 0.000000 -1.000000 105 105 105 1.000000
0.654141 0.448022 -0.102895 -1.000000 0.000000 0.000000 105 105 105 1.000000
0.422314 -0.425872 -0.093719 0.000000 1.000000 -0.000037 105 105 105 1.000000
-0.663729 0.451086 -0.132925 1.000000 0.000000 0.000000 105 105 105 1.000000
0.445334 -0.425849 0.506564 0.000000 1.000000 -0.000037 105 105 105 1.000000
0.274399 0.042783 -0.667703 0.000000 0.000000 -1.000000 105 105 105 1.000000
0.062532 -0.320358 0.547765 0.000000 1.000000 0.000000 157 157 157 1.000000
0.251759 -0.326070 0.336021 0.000000 -1.000000 -0.000000 105 105 105 1.000000
0.108807 0.363892 0.036966 0.000000 -1.000000 -0.000000 105 105 105 1.000000
0.654141 0.341810 0.246714 1.000000 0.000000 0.000000 105 105 105 1.000000
-0.497153 0.210279 -0.667703 0.000000 -0.000000 1.000000 105 105 105 1.000000
-0.314173 0.463670 0.333567 0.000000 1.000000 0.000000 105 105 105 1.000000
0.043982 -0.425863 0.128858 0.000000 1.000000 -0.000037 105 105 105 1.000000
0.313912 -0.276790 0.024355 -1.000000 0.000000 0.000000 105 105 105 1.000000
-0.663729 -0.081622 0.243599 1.000000 0.000000 0.000000 105 105 105 1.000000
0.105076 -0.326070 0.489739 0.000000 1.000000 0.000000 105 105 105 1.000000
-0.210184 0.463670 -0.239181 0.000000 1.000000 0.000000 105 105 105 1.000000
0.160343 0.363892 -0.032219 0.000000 -1.000000 -0.000000 105 105 105 1.000000
0.654141 0.332283 -0.569148 1.000000 0.000000 0.000000 105 105 105 1.000000
-0.663729 0.183131 -0.075269 -1.000000 0.000000 0.000000 105 105 105 1.000000
0.023729 0.226811 0.561210 0.000000 0.000000 -1.000000 128 128 128 0.500000
0.102510 -0.161614 0.561210 0.000000 0.000000 -1.000000 128 128 128 0.500000
-0.125617 0.374553 -0.667703 0.000000 -0.000000 1.000000 105 105 105 1.000000
0.654141 -0.142360 0.324338 1.000000 0.000000 0.000000 105 105 105 1.000000
0.025499 -0.393700 0.531558 0.000000 0.000000 -1.000000 174 174 174 1.000000
0.654141 -0.353833 -0.207146 -1.000000 0.000000 0.000000 105 105 105 1.000000
0.313912 0.273303 0.222069 1.000000 0.000000 0.000000 105 105 105 1.000000
-0.332845 -0.061472 -0.150440 0.000000 -0.000000 1.000000 105 105 105 1.000000
-0.271042 -0.425865 0.077294 0.000000 -1.000000 0.000037 105 105 105 1.000000
0.136802 -0.274292 -0.667703 0.000000 -0.000000 1.000000 105 105 105 1.000000
-0.663729 0.254211 -0.455165 -1.000000 0.000000 0.000000 105 105 105 1.000000
-0.663729 -0.265719 0.307323 -1.000000 0.000000 0.000000 105 105 105 1.000000
0.654141 -0.267379 -0.510292 -1.000000 0.000000 0.000000 105 105 105 1.000000
0.288858 0.278318 -0.667703 0.000000 0.000000 -1.000000 105 105 105 1.000000
0.654141 -0.415832 0.277799 -1.000000 0.000000 0.000000 105 105 105 1.000000
0.313912 -0.240031 0.116158 1.000000 0.000000 0.000000 105 105 105 1.000000
0.654141 0.317236 -0.346337 1.000000 0.000000 0.000000 105 105 105 1.000000
-0.563950 -0.168266 0.141353 1.000000 0.000000 0.000000 105 105 105 1.000000
-0.146111 0.126132 -0.667703 0.000000 0.000000 -1.000000 105 105 105 1.000000
0.654141 0.393499 0.483794 1.000000 0.000000 0.000000 105 105 105 1.000000
0.654141 -0.057323 0.479210 1.000000 0.000000 0.000000 105 105 105 1.000000
0.654141 -0.202777 -0.587028 1.000000 0.000000 0.000000 105 105 105 1.000000
-0.663729 0.178053 0.011802 -1.000000 0.000000 0.000000 105 105 105 1.000000
-0.323931 0.048079 -0.667703 0.000000 -0.000000 1.000000 105 105 105 1.000000
0.137707 0.031495 -0.667703 0.000000 -0.000000 1.000000 105 105 105 1.000000
-0.161136 0.363892 -0.113466 0.000000 -1.000000 -0.000000 105 105 105 1.000000
-0.619831 -0.425854 0.379558 0.000000 -1.000000 0.000037 105 105 105 1.000000
-0.032065 -0.233098 -0.150440 0.000000 0.000000 -1.000000 105 105 105 1.000000
0.325199 0.463670 -0.329992 0.000000 -1.000000 -0.000000 105 105 105 1.000000
-0.663729 0.401700 0.450177 1.000000 0.000000 0.000000 105 105 105 1.000000
0.537318 0.463670 0.214194 0.000000 1.000000 0.000000 105 105 105 1.000000
-0.345054 0.123733 -0.150440 0.000000 -0.000000 1.000000 105 105 105 1.000000
0.608108 -0.131193 0.574389 0.000000 0.000000 -1.000000 105 105 105 1.000000
-0.459360 0.324320 -0.667703 0.000000 0.000000 -1.000000 105 105 105 1.000000
-0.261606 -0.215799 0.564505 0.000000 -0.000000 1.000000 128 128 128 0.500000
-0.663729 0.076585 -0.002619 1.000000 0.000000 0.000000 105 105 105 1.000000
0.654141 0.248458 -0.424125 -1.000000 0.000000 0.000000 105 105 105 1.000000
0.654141 0.351841 -0.124184 1.000000 0.000000 0.000000 105 105 105 1.000000
-0.663729 0.212101 -0.275748 1.000000 0.000000 0.000000 105 105 105 1.000000
0.274878 -0.159005 -0.150440 0.000000 0.000000 -1.000000 105 105 105 1.000000
-0.663729 0.148648 -0.617550 1.000000 0.000000 0.000000 105 105 105 1.000000
0.654141 -0.225356 0.277378 -1.000000 0.000000 0.000000 105 105 105 1.000000
0.083767 0.463670 -0.169672 0.000000 1.000000 0.000000 105 105 105 1.000000
0.226373 -0.425870 -0.061260 0.000000 1.000000 -0.000037 105 105 105 1.000000
0.146151 0.363892 0.349251 0.000000 -1.000000 -0.000000 105 105 105 1.000000
0.528376 -0.425859 0.240378 0.000000 -1.000000 0.000037 105 105 105 1.000000
-0.663729 0.345539 -0.357044 -1.000000 0.000000 0.000000 105 105 105 1.000000
0.195730 0.241201 0.564505 0.000000 0.000000 -1.000000 128 128 128 0.500000
-0.130628 -0.425866 0.062854 0.000000 1.000000 -0.000037 105 105 105 1.000000
-0.663729 -0.137664 -0.229486 -1.000000 0.000000 0.000000 105 105 105 1.000000
0.060818 0.256266 0.564505 0.000000 0.000000 -1.000000 128 128 128 0.500000
-0.607572 -0.230266 -0.667703 0.000000 -0.000000 1.000000 105 105 105 1.000000
-0.663729 0.294858 -0.333435 -1.000000 0.000000 0.000000 105 105 105 1.000000
0.513034 -0.425850 0.492343 0.000000 1.000000 -0.000037 105 105 105 1.000000
0.479238 0.419071 0.584273 0.000000 0.000000 -1.000000 215 215 215 1.000000
0.207507 -0.425939 0.543998 0.000000 -1.000000 -0.000000 153 153 153 1.000000
0.078060 0.463623 0.544614 0.000000 -1.000000 -0.000000 157 157 157 1.000000
-0.242081 0.463670 0.116874 0.000000 1.000000 0.000000 105 105 105 1.000000
-0.541642 0.069344 -0.667703 0.000000 0.000000 -1.000000 105 105 105 1.000000
0.089581 -0.326070 -0.062339 0.000000 1.000000 0.000000 105 105 105 1.000000
-0.279831 0.463670 0.079848 0.000000 -1.000000 -0.000000 105 105 105 1.000000
0.104562 0.056707 0.564505 0.000000 -0.000000 1.000000 128 128 128 0.500000
-0.207016 -0.425877 -0.242289 0.000000 1.000000 -0.000037 105 105 105 1.000000
0.294988 -0.346006 0.609995 0.457376 0.222302 -0.861040 240 240 240 1.000000
0.313912 -0.106737 0.522913 -1.000000 0.000000 0.000000 105 105 105 1.000000
-0.096993 -0.425877 -0.243806 0.000000 1.000000 -0.000037 105 105 105 1.000000
-0.291928 0.259440 -0.667703 0.000000 0.000000 -1.000000 105 105 105 1.000000
-0.509234 -0.425892 -0.647366 0.000000 -1.000000 0.000037 105 105 105 1.000000
-0.663729 0.425282 0.361967 1.000000 0.000000 0.000000 105 105 105 1.000000
-0.357981 0.458487 -0.664997 0.000000 0.606851 -0.794816 105 105 105 1.000000
0.428041 -0.425860 0.225842 0.000000 1.000000 -0.000037 105 105 105 1.000000
0.021672 -0.425851 0.456720 0.000000 -1.000000 0.000037 105 105 105 1.000000
-0.663729 0.276976 0.009126 -1.000000 0.000000 0.000000 105 105 105 1.000000
0.331931 -0.072750 0.636221 0.112387 0.067814 -0.991348 239 239 239 1.000000
-0.139866 -0.326070 0.344985 0.000000 1.000000 0.000000 105 105 105 1.000000
0.174980 -0.155247 -0.150440 0.000000 -0.000000 1.000000 105 105 105 1.000000
-0.041080 0.405111 -0.667703 0.000000 0.000000 -1.000000 105 105 105 1.000000
-0.563950 0.218829 0.057145 -1.000000 0.000000 0.000000 105 105 105 1.000000
-0.477188 -0.425852 0.443366 0.000000 1.000000 -0.000037 105 105 105 1.000000
0.502038 0.463670 -0.013636 0.000000 1.000000 0.000000 105 105 105 1.000000
