ply
format ascii 1.0
element vertex 1298
property float x
property float y
property float z
property uchar red
property uchar green
property uchar blue
end_header
-0.441887 0.448454 -0.477318 0 255 0
-0.464362 0.065912 0.173227 0 255 0
0.274867 0.404898 0.417446 127 127 0
-0.735529 0.046645 0.341044 0 255 0
-0.735529 -0.019830 0.227805 0 255 0
-0.234349 0.185424 0.406864 127 0 127
-0.781826 0.251216 0.410980 127 127 0
0.453959 0.337342 0.104935 0 255 0
0.595404 0.087036 0.367181 127 127 0
0.473084 -0.284358 0.398901 127 127 0
-0.486589 0.252364 0.367181 0 255 0
0.695810 0.448454 0.255932 0 255 0
-0.464362 0.090224 0.129051 0 255 0
0.084118 0.113038 -0.501876 0 255 0
-0.464362 0.313605 0.272436 0 255 0
-0.697012 0.448454 0.117016 0 255 0
-0.423010 -0.509228 0.398515 0 255 0
-0.781826 -0.188143 0.398784 127 127 0
0.461574 0.321667 0.268611 0 255 0
-0.506995 0.113450 -0.501876 0 255 0
0.732741 0.115940 0.198326 0 255 0
0.429037 -0.204442 0.417446 127 127 0
0.135777 0.201608 -0.269069 0 255 0
0.540649 -0.408144 0.365858 0 255 0
-0.479018 0.393710 -0.501876 0 255 0
0.273066 -0.152081 0.000481 0 255 0
-0.781826 0.130771 0.402705 127 127 0
0.426645 -0.454758 -0.501876 0 255 0
0.154845 -0.304159 -0.501876 0 255 0
0.435118 -0.076907 0.384181 127 127 0
-0.287412 0.034091 -0.501876 0 255 0
-0.540937 -0.425600 0.367181 0 255 0
-0.464362 0.102830 0.197001 0 255 0
0.732741 -0.414705 -0.064040 0 255 0
0.461574 0.123651 -0.236516 0 255 0
0.242928 0.112546 0.406864 127 0 127
-0.464362 0.060518 -0.211039 0 255 0
0.732741 0.298655 0.209626 0 255 0
-0.735529 0.322454 -0.435936 0 255 0
-0.464362 -0.136256 0.283377 0 255 0
-0.464362 0.260515 -0.095994 0 255 0
0.732741 0.347170 0.257309 0 255 0
0.022285 -0.015549 0.417446 127 0 127
0.732741 0.049012 0.210961 0 255 0
0.512859 0.448454 -0.471478 0 255 0
0.273785 -0.509228 0.401569 0 255 0
0.320580 -0.383578 0.439933 0 255 0
0.361327 0.267437 0.417446 127 0 127
0.430669 0.149630 -0.501876 0 255 0
-0.335540 0.088120 -0.501876 0 255 0
0.732741 -0.051865 0.163710 0 255 0
0.159905 0.337342 0.035087 0 255 0
-0.735529 -0.404639 -0.083587 0 255 0
-0.449548 0.319865 0.417446 127 127 0
0.611655 0.436489 0.367181 0 255 0
-0.005818 -0.472190 0.047231 0 255 0
-0.636309 -0.060981 0.367181 0 255 0
0.732741 -0.418360 -0.106719 0 255 0
-0.592292 0.369608 0.417446 127 127 0
0.294652 0.371284 0.365858 0 255 0
-0.293468 0.448454 -0.236670 0 255 0
0.533070 -0.287850 0.417446 0 255 0
-0.139690 0.448454 0.051240 0 255 0
0.732741 -0.236858 -0.280341 0 255 0
0.461574 0.165812 -0.195368 0 255 0
-0.633756 0.448454 0.311525 0 255 0
-0.735529 -0.153152 -0.285761 0 255 0
0.778216 0.462139 0.417446 127 127 0
-0.654259 0.326792 -0.501876 0 255 0
-0.446965 -0.445820 -0.501876 0 255 0
0.746974 -0.390803 0.367181 0 255 0
-0.261866 -0.472190 0.036931 0 255 0
0.667588 -0.481806 0.365858 0 255 0
0.732741 -0.026143 0.024472 0 255 0
-0.646757 -0.455539 0.365858 0 255 0
0.299944 0.448454 -0.419445 0 255 0
-0.317939 0.045021 0.417446 127 0 127
-0.613281 0.304586 0.365858 127 127 0
0.461574 -0.021032 0.024742 0 255 0
0.104691 -0.472190 0.080002 0 255 0
-0.735529 0.397962 0.222318 0 255 0
0.255944 0.448454 0.244228 0 255 0
0.447225 -0.442329 0.367181 0 255 0
-0.428796 -0.472190 -0.131632 0 255 0
0.308431 -0.419193 0.439933 0 255 0
-0.433975 -0.393956 -0.501876 0 255 0
0.458388 0.282317 0.417446 127 127 0
-0.454103 0.170899 -0.501876 0 255 0
0.321331 -0.058991 -0.269069 0 255 0
-0.722477 -0.472190 -0.406948 0 255 0
-0.482381 -0.248139 0.365858 0 255 0
0.642385 -0.133763 0.417446 127 127 0
-0.464362 0.274163 -0.126449 0 255 0
-0.075518 -0.472190 -0.282605 0 255 0
-0.059742 -0.472190 0.033004 0 255 0
-0.347189 -0.472190 0.022425 0 255 0
-0.089303 0.448454 0.317346 0 255 0
0.611565 -0.130690 -0.501876 0 255 0
-0.781826 0.193687 0.391293 127 127 0
0.671145 0.032286 -0.501876 0 255 0
-0.735529 0.243600 -0.325207 0 255 0
-0.110295 0.337342 0.271267 0 255 0
0.461574 -0.022194 -0.039997 0 255 0
-0.096596 -0.152081 -0.033595 0 255 0
-0.007078 -0.223454 -0.501876 0 255 0
-0.155690 -0.111924 -0.269069 0 255 0
-0.701423 -0.391760 0.367181 0 255 0
-0.258629 -0.472190 -0.300270 0 255 0
-0.686570 -0.005169 -0.501876 0 255 0
-0.735529 -0.328264 -0.426342 0 255 0
-0.598060 0.448454 -0.327637 0 255 0
-0.255404 0.089331 -0.501876 0 255 0
-0.516840 -0.131073 0.365858 127 127 0
-0.437907 0.103138 0.401850 127 127 0
0.386544 0.337342 -0.014697 0 255 0
0.722914 -0.269709 -0.501876 0 255 0
0.732741 0.312254 -0.101170 0 255 0
0.040378 0.337342 -0.011899 0 255 0
-0.511674 -0.147416 -0.501876 0 255 0
-0.702491 -0.472190 -0.146702 0 255 0
0.139806 0.092174 0.406864 127 0 127
0.276328 0.243384 -0.269069 0 255 0
-0.284706 -0.159599 0.417446 127 127 0
0.384189 0.337342 0.208878 0 255 0
0.351105 -0.174604 0.365858 127 127 0
0.673131 0.150395 0.365858 127 127 0
0.042874 -0.352580 0.438610 153 0 76
0.547580 -0.119309 -0.501876 0 255 0
0.102776 0.152711 0.417446 127 0 127
-0.717072 -0.238670 0.365858 127 127 0
-0.168440 0.019931 -0.501876 0 255 0
-0.313397 0.337342 0.154674 0 255 0
0.267620 -0.152081 0.362891 0 255 0
0.300519 -0.472190 -0.448786 0 255 0
0.115962 -0.177668 0.365858 0 255 0
-0.735529 -0.260060 -0.342923 0 255 0
0.167884 0.285698 0.417446 127 0 127
-0.735529 0.174735 -0.156401 0 255 0
-0.368605 -0.472190 -0.271052 0 255 0
-0.291752 0.176251 0.417446 127 0 127
0.159486 0.403974 0.417446 127 127 0
0.186051 -0.289316 -0.501876 0 255 0
-0.735529 0.230657 -0.073800 0 255 0
0.272023 0.448454 -0.272793 0 255 0
0.086329 -0.063688 -0.501876 0 255 0
0.007221 0.186834 -0.501876 0 255 0
0.461574 0.016231 0.344873 0 255 0
0.615708 -0.333457 0.365858 0 255 0
0.421190 -0.140871 -0.269069 0 255 0
0.461574 -0.149129 0.307585 0 255 0
0.007769 0.448454 0.248894 0 255 0
-0.393714 0.359271 -0.501876 0 255 0
0.546072 0.259837 -0.501876 0 255 0
-0.060279 -0.472190 -0.155644 0 255 0
-0.278291 0.217689 -0.269069 0 255 0
-0.034246 0.448454 -0.371861 0 255 0
-0.361676 0.196777 -0.501876 0 255 0
0.161776 -0.488737 0.367181 0 255 0
0.472708 -0.032164 -0.501876 0 255 0
0.323558 -0.152081 0.109760 0 255 0
-0.440012 0.464328 0.389820 127 127 0
0.350806 0.233639 -0.269069 0 255 0
-0.069533 0.200743 -0.501876 0 255 0
-0.580788 -0.160747 0.365858 0 255 0
0.461574 0.199550 0.308648 0 255 0
0.560093 -0.472190 0.198530 0 255 0
-0.652985 0.448454 -0.243627 0 255 0
-0.434480 0.337342 0.311571 0 255 0
0.051128 -0.351013 0.367181 0 255 0
0.354699 -0.007022 0.417446 127 0 127
0.109426 -0.026961 -0.501876 0 255 0
-0.397257 0.240589 -0.269069 0 255 0
0.708354 0.366453 0.367181 0 255 0
-0.174450 -0.509228 0.409053 0 255 0
0.732741 -0.218965 0.153685 0 255 0
-0.613213 -0.005546 0.417446 127 127 0
-0.333705 -0.472190 0.191033 0 255 0
0.511469 -0.124794 0.417446 127 127 0
0.651627 0.448454 0.268237 0 255 0
-0.194519 0.045239 -0.269069 0 255 0
0.285709 0.350531 0.417446 127 127 0
-0.355800 -0.308068 0.367181 0 255 0
-0.689762 -0.293286 0.367181 0 255 0
0.413918 -0.472190 0.249576 0 255 0
0.033075 0.095498 -0.501876 0 255 0
-0.583371 0.281960 0.365858 127 127 0
-0.087872 -0.295290 0.430589 0 255 0
-0.087161 0.337342 -0.206905 0 255 0
-0.298395 0.448454 -0.380843 0 255 0
0.071599 0.449283 0.378292 0 255 0
0.157393 0.223553 0.406864 127 0 127
-0.735529 0.113560 -0.166291 0 255 0
0.461574 -0.124280 -0.149554 0 255 0
-0.329187 -0.440993 -0.501876 0 255 0
0.738455 -0.183708 0.367181 0 255 0
0.461574 0.263671 0.185310 0 255 0
-0.336203 -0.062330 -0.501876 0 255 0
-0.706510 -0.415740 -0.501876 0 255 0
0.537401 0.157314 0.367181 0 255 0
-0.339124 0.337342 0.369971 127 127 0
-0.683131 0.265810 -0.501876 0 255 0
0.732741 -0.023193 0.070495 0 255 0
0.155290 -0.137743 -0.501876 0 255 0
-0.406083 -0.407350 0.417446 0 255 0
0.448409 0.136038 0.417446 127 0 127
-0.735529 0.081953 -0.137424 0 255 0
0.100979 -0.376149 -0.501876 0 255 0
-0.667638 0.398818 0.365858 0 255 0
-0.271222 -0.472190 -0.025633 0 255 0
-0.035904 -0.152081 -0.135542 0 255 0
-0.735529 -0.412177 -0.208606 0 255 0
0.272868 -0.472190 -0.253225 0 255 0
0.058244 0.316841 -0.269069 0 255 0
-0.735529 -0.024110 -0.112325 0 255 0
0.080873 -0.191437 0.417446 127 127 0
-0.428819 0.337342 0.102436 0 255 0
0.101488 -0.152081 0.354188 127 127 0
0.431027 0.337342 -0.091063 0 255 0
-0.590988 -0.360746 0.417446 0 255 0
0.005942 0.188413 0.406864 127 0 127
0.522393 -0.166044 0.417446 127 127 0
-0.735529 0.043850 0.108624 0 255 0
-0.600808 -0.435418 0.367181 0 255 0
-0.761474 0.033115 0.367181 127 127 0
0.402477 -0.480241 0.367181 0 255 0
0.536925 0.448454 0.036885 0 255 0
0.185918 0.149435 -0.501876 0 255 0
-0.735529 -0.327496 0.298475 0 255 0
-0.770447 -0.358247 0.367181 0 255 0
0.732741 -0.362254 -0.136331 0 255 0
0.511223 -0.043640 0.417446 127 127 0
-0.706419 0.085613 -0.501876 0 255 0
-0.735529 -0.235111 -0.218419 0 255 0
0.666789 -0.484113 0.291784 0 255 0
-0.111677 0.011148 0.417446 127 0 127
-0.101803 -0.438236 -0.501876 0 255 0
0.461700 -0.472190 -0.223090 0 255 0
0.280513 -0.276421 0.415789 127 127 0
0.704208 -0.509228 0.327345 0 255 0
0.522197 0.448454 0.347232 0 255 0
0.212686 0.005128 -0.269069 0 255 0
-0.735529 -0.283001 -0.169252 0 255 0
-0.319905 -0.509228 0.415007 0 255 0
0.389056 0.337342 0.050553 0 255 0
-0.331869 -0.269413 0.367181 127 127 0
-0.144507 -0.310359 0.437764 0 255 0
-0.278034 0.125447 -0.501876 0 255 0
-0.439912 -0.152081 0.129372 0 255 0
-0.150346 -0.472190 0.090223 0 255 0
0.701487 -0.315360 -0.501876 0 255 0
0.732741 -0.481877 0.332982 0 255 0
-0.464362 0.165410 0.038071 0 255 0
0.756725 0.132267 0.417446 127 127 0
-0.781826 0.066226 0.413163 127 127 0
-0.642236 0.248902 0.367181 0 255 0
-0.366591 0.448454 -0.452252 0 255 0
0.259755 0.022529 -0.501876 0 255 0
-0.645116 0.427929 -0.501876 0 255 0
-0.390476 -0.437703 -0.501876 0 255 0
-0.377666 -0.152081 0.123189 0 255 0
-0.193246 -0.152081 -0.157560 0 255 0
0.335405 -0.472190 -0.129438 0 255 0
0.203345 -0.152081 0.224318 0 255 0
-0.213043 0.337342 -0.067012 0 255 0
-0.084268 0.448454 -0.059897 0 255 0
-0.176927 0.430578 0.417446 127 127 0
0.200993 -0.509228 0.412423 0 255 0
-0.081154 -0.111840 -0.501876 0 255 0
-0.464362 -0.092450 0.351297 127 127 0
0.025553 -0.371614 0.365858 0 255 0
-0.084475 -0.472190 -0.015705 0 255 0
0.394104 0.448454 -0.485113 0 255 0
0.732741 0.186090 0.294967 0 255 0
-0.735529 0.137824 0.054370 0 255 0
-0.061237 0.337342 0.085193 0 255 0
0.445738 -0.137985 -0.501876 0 255 0
0.408407 -0.056867 -0.501876 0 255 0
-0.276465 0.294468 -0.269069 0 255 0
0.405846 0.399084 -0.501876 0 255 0
0.046910 0.114322 0.417446 127 0 127
-0.190861 -0.116979 -0.501876 0 255 0
0.328952 0.214637 0.417446 127 0 127
-0.464362 0.179534 0.125966 0 255 0
0.488760 0.311021 0.367181 0 255 0
-0.506653 -0.372536 -0.501876 0 255 0
-0.414338 -0.097570 -0.269069 0 255 0
-0.337073 -0.106440 -0.501876 0 255 0
0.732741 -0.112712 -0.084568 0 255 0
-0.667853 0.448454 -0.174057 0 255 0
0.474385 0.448454 0.000059 0 255 0
0.060004 -0.472190 0.043307 0 255 0
0.481556 -0.472190 0.036227 0 255 0
0.341106 0.448454 -0.119718 0 255 0
-0.191430 0.337342 -0.181288 0 255 0
-0.654925 -0.038313 -0.501876 0 255 0
0.732741 -0.256825 -0.079564 0 255 0
-0.689878 0.389393 -0.501876 0 255 0
-0.437182 0.448454 -0.104426 0 255 0
0.004233 0.089746 -0.269069 0 255 0
-0.068387 0.058010 0.406864 127 0 127
0.401448 0.448454 -0.273570 0 255 0
-0.667581 0.448454 0.172135 0 255 0
-0.016695 0.337342 -0.184021 0 255 0
-0.523545 -0.276421 0.385960 0 255 0
0.732741 -0.090020 0.347831 0 255 0
-0.026336 0.448454 0.204058 0 255 0
0.145642 0.337342 -0.227556 0 255 0
-0.502957 -0.042429 -0.501876 0 255 0
-0.374491 -0.163191 0.417446 127 0 127
0.670662 -0.284358 0.392249 127 127 0
-0.376316 -0.186901 -0.501876 0 255 0
0.293647 -0.472190 -0.194758 0 255 0
-0.144334 0.285830 -0.501876 0 255 0
-0.438121 0.073791 0.417446 127 0 127
0.194670 0.337342 -0.201755 0 255 0
-0.464362 0.001199 0.282134 0 255 0
-0.464362 0.128733 0.085645 0 255 0
0.433867 0.448454 0.253001 0 255 0
-0.735529 -0.158443 0.330149 0 255 0
0.549003 -0.441452 0.365858 0 255 0
0.779037 -0.455458 0.387859 0 255 0
-0.502233 0.448454 -0.137081 0 255 0
0.149109 -0.441043 0.367181 0 255 0
0.538736 0.448454 -0.050281 0 255 0
0.193502 -0.472190 -0.120831 0 255 0
-0.492606 -0.350914 0.417446 0 255 0
0.732741 -0.132715 0.236002 0 255 0
0.732741 -0.219260 0.277934 0 255 0
0.217311 -0.152081 -0.033198 0 255 0
-0.706437 -0.472190 0.256370 0 255 0
-0.302133 0.448454 0.231175 0 255 0
0.732741 0.402368 -0.284537 0 255 0
-0.475642 0.266376 -0.501876 0 255 0
0.109595 0.448454 0.038185 0 255 0
0.486013 -0.472190 -0.060499 0 255 0
0.699584 0.448454 0.026123 0 255 0
0.485731 -0.446718 0.367181 0 255 0
-0.678465 0.201424 -0.501876 0 255 0
0.342835 -0.492015 0.417446 0 255 0
0.531926 -0.472190 -0.216996 0 255 0
-0.298229 -0.115669 -0.501876 0 255 0
0.047067 -0.152081 0.353674 0 255 0
0.546756 -0.398732 -0.501876 0 255 0
0.645787 0.163057 0.417446 127 127 0
-0.398578 0.092935 -0.269069 0 255 0
-0.235762 0.044811 -0.501876 0 255 0
-0.147560 0.474910 0.381042 0 255 0
0.461574 0.108796 -0.047470 0 255 0
-0.735529 -0.185252 -0.420132 0 255 0
-0.462246 0.285684 0.367181 127 127 0
0.534090 0.402272 -0.501876 0 255 0
0.732741 0.126197 -0.260119 0 255 0
0.732741 -0.425350 -0.331096 0 255 0
-0.456823 0.290739 0.417446 127 127 0
0.732741 -0.317505 -0.353417 0 255 0
-0.020919 -0.224568 0.367181 0 255 0
-0.464362 -0.100975 0.130052 0 255 0
-0.426751 -0.152081 -0.149348 0 255 0
0.687289 0.081429 0.365858 0 255 0
-0.464362 0.035121 0.275630 0 255 0
-0.165976 -0.482948 0.367181 0 255 0
0.023028 -0.152081 -0.264211 0 255 0
-0.464362 -0.046003 0.133861 0 255 0
0.567441 0.039100 0.417446 127 127 0
0.273641 0.054958 0.417446 127 0 127
-0.479861 0.448454 0.375127 0 255 0
-0.332943 -0.323268 0.417446 0 255 0
-0.254312 0.327419 0.406864 127 0 127
-0.503130 0.121502 0.365858 127 127 0
-0.679923 -0.509228 0.385378 0 255 0
0.435118 0.245748 0.390156 127 0 127
-0.103945 0.185060 0.406864 127 0 127
0.461574 0.037737 0.305690 0 255 0
-0.735529 -0.345511 -0.299507 0 255 0
-0.505576 0.448454 -0.215843 0 255 0
-0.464362 0.310152 -0.188252 0 255 0
0.179390 0.037259 -0.269069 0 255 0
0.741437 -0.079700 0.417446 127 127 0
0.474926 0.106373 -0.501876 0 255 0
0.461574 0.229175 0.157290 0 255 0
0.553364 0.448454 0.247158 0 255 0
0.598605 -0.203890 0.417446 127 127 0
-0.503186 0.448454 -0.013958 0 255 0
-0.161461 0.448454 -0.046441 0 255 0
0.269764 0.088990 -0.269069 0 255 0
0.328315 0.337342 0.117924 0 255 0
0.565923 0.355783 0.417446 127 127 0
0.303904 0.337342 0.347686 0 255 0
0.461574 0.012031 0.276067 0 255 0
-0.117788 -0.472190 -0.275845 0 255 0
0.430961 0.337342 -0.173703 0 255 0
-0.464362 0.028502 -0.234392 0 255 0
-0.502210 0.167409 -0.501876 0 255 0
0.013757 0.157637 -0.501876 0 255 0
0.162761 0.431025 -0.501876 0 255 0
0.146336 0.337342 0.089030 0 255 0
0.426664 0.000050 -0.501876 0 255 0
0.270076 -0.115136 -0.501876 0 255 0
0.564745 -0.472190 -0.417095 0 255 0
0.410890 0.337342 0.290956 0 255 0
-0.147534 0.448454 -0.019392 0 255 0
-0.349819 -0.399701 0.365858 0 255 0
0.395483 -0.472190 -0.011113 0 255 0
0.071572 -0.472190 -0.096287 0 255 0
0.497965 0.164876 -0.501876 0 255 0
-0.164602 -0.152081 -0.094267 0 255 0
-0.357361 0.215887 -0.269069 0 255 0
0.194861 0.065085 0.406864 127 0 127
-0.122714 -0.505661 0.438610 0 255 0
0.115023 -0.152081 -0.135935 0 255 0
-0.229401 -0.472190 0.095732 0 255 0
0.220204 -0.472190 -0.328704 0 255 0
0.626753 -0.228991 -0.501876 0 255 0
0.704554 -0.472190 -0.041069 0 255 0
-0.404716 -0.398461 0.367181 0 255 0
-0.223780 -0.379832 0.417446 0 255 0
0.376030 0.448454 0.267669 0 255 0
0.217485 -0.152081 -0.089944 0 255 0
0.738752 0.207656 0.417446 127 127 0
-0.424497 -0.472190 0.259722 0 255 0
-0.437907 0.120309 0.370416 127 127 0
-0.553350 0.326961 0.365858 127 127 0
-0.348548 -0.472190 -0.478687 0 255 0
-0.458854 -0.472190 0.210031 0 255 0
0.028069 0.250733 0.417446 127 0 127
-0.140153 -0.472190 -0.443821 0 255 0
-0.735529 0.161739 0.111276 0 255 0
-0.178559 -0.152081 0.039911 0 255 0
-0.504648 0.461403 0.417446 127 127 0
-0.227177 -0.472190 -0.060574 0 255 0
-0.735529 0.340930 -0.390900 0 255 0
-0.412927 -0.472190 0.163490 0 255 0
-0.756410 0.214320 0.367181 127 127 0
-0.203549 0.448454 0.016799 0 255 0
0.337530 -0.484435 0.367181 0 255 0
-0.723868 0.448454 0.032915 0 255 0
-0.410219 0.023176 0.406864 127 0 127
0.732741 -0.178866 -0.014233 0 255 0
0.002340 0.115073 0.417446 127 0 127
-0.230921 0.144359 -0.269069 0 255 0
0.644421 -0.366009 0.417446 0 255 0
-0.114586 -0.276421 0.381851 127 127 0
0.562773 0.003648 0.417446 127 127 0
-0.735529 -0.080813 0.363475 127 127 0
0.143846 -0.191256 0.367181 0 255 0
-0.464362 -0.054679 -0.135764 0 255 0
-0.653992 -0.191941 0.417446 127 127 0
0.398070 -0.212537 0.417446 127 127 0
0.174793 0.101197 -0.501876 0 255 0
0.359193 0.442414 0.367181 127 127 0
-0.439003 -0.137265 -0.501876 0 255 0
-0.195260 0.448454 -0.464846 0 255 0
-0.758398 -0.376587 0.417446 0 255 0
0.453488 -0.019766 0.367181 0 255 0
-0.123306 -0.154084 -0.501876 0 255 0
0.031631 0.309957 0.417446 127 0 127
-0.735529 -0.127260 0.090569 0 255 0
-0.064923 0.448454 -0.349598 0 255 0
0.779037 -0.145618 0.388694 127 127 0
-0.781826 0.407270 0.395398 127 127 0
0.732741 -0.435098 -0.450871 0 255 0
-0.187428 -0.131490 0.406864 127 0 127
0.521940 -0.255220 -0.501876 0 255 0
0.444502 0.448454 0.135759 0 255 0
0.083533 -0.289135 0.427658 127 127 0
-0.145260 0.448454 0.207477 0 255 0
0.461574 0.030893 0.149928 0 255 0
0.301109 -0.472190 -0.370598 0 255 0
0.732741 -0.022333 0.287040 0 255 0
-0.132356 0.337342 0.310304 0 255 0
0.461574 0.327055 0.164508 0 255 0
-0.285182 -0.472190 0.084711 0 255 0
0.226128 -0.274600 -0.501876 0 255 0
-0.577396 0.448454 -0.266310 0 255 0
-0.735529 0.354724 -0.278920 0 255 0
-0.457498 -0.152081 0.222110 0 255 0
-0.160217 0.337342 0.164178 0 255 0
-0.307820 -0.472190 -0.092327 0 255 0
0.002917 0.109114 -0.501876 0 255 0
-0.506611 0.162041 0.417446 127 127 0
-0.040528 0.103389 0.406864 127 0 127
0.311397 -0.038128 0.417446 127 0 127
-0.433432 -0.152081 0.276582 0 255 0
-0.190950 0.448454 -0.430487 0 255 0
-0.041313 -0.152081 -0.241034 0 255 0
0.069396 -0.016660 0.417446 127 0 127
-0.078251 0.310968 0.406864 127 0 127
-0.230811 0.448454 -0.028760 0 255 0
0.610208 -0.472190 0.261618 0 255 0
-0.530676 0.010377 0.367181 127 127 0
0.732741 -0.128064 -0.309609 0 255 0
-0.037517 -0.472190 -0.047728 0 255 0
0.028328 0.448454 0.337564 0 255 0
-0.735529 0.192061 -0.214920 0 255 0
-0.124138 0.347514 -0.501876 0 255 0
0.751043 -0.352924 0.417446 0 255 0
0.732741 -0.086620 -0.041647 0 255 0
0.106117 -0.472190 -0.473459 0 255 0
-0.735529 0.371646 -0.474311 0 255 0
-0.464362 -0.110860 -0.115645 0 255 0
0.155988 -0.040393 -0.269069 0 255 0
-0.331974 -0.152081 -0.063561 0 255 0
0.232986 0.337342 0.011083 0 255 0
-0.482467 -0.472190 -0.227438 0 255 0
-0.345271 -0.472190 0.065409 0 255 0
-0.521400 -0.472190 0.190523 0 255 0
0.058378 -0.509228 0.405606 0 255 0
0.732741 -0.363654 -0.466410 0 255 0
0.443871 -0.472190 -0.102120 0 255 0
0.724646 0.297188 0.417446 127 127 0
0.732741 -0.122435 0.339899 0 255 0
0.660913 0.094331 -0.501876 0 255 0
-0.418516 -0.062838 -0.501876 0 255 0
0.161798 -0.000736 -0.501876 0 255 0
0.046715 -0.025112 -0.501876 0 255 0
0.144916 -0.152081 0.328022 0 255 0
-0.468158 -0.509228 0.355735 0 255 0
-0.277510 -0.377822 0.439933 0 255 0
-0.464362 0.304524 0.040139 0 255 0
-0.442448 -0.447760 0.417446 0 255 0
0.393940 0.337342 0.345025 0 255 0
-0.522694 -0.016455 0.417446 127 127 0
-0.390547 -0.152081 -0.235521 0 255 0
-0.438251 -0.472190 -0.414968 0 255 0
-0.283423 0.386348 0.367181 0 255 0
-0.116972 0.287403 0.406864 127 0 127
0.732741 0.308443 0.310977 0 255 0
-0.175165 0.448454 0.101760 0 255 0
-0.004461 0.396411 0.417446 127 127 0
-0.350262 0.116088 -0.269069 0 255 0
0.184812 -0.236684 0.417446 127 127 0
0.241443 -0.267627 0.417446 127 127 0
0.340682 0.448454 -0.185369 0 255 0
0.690883 0.253279 0.417446 127 127 0
0.120562 -0.284358 0.385112 127 127 0
0.588779 0.448454 0.250501 0 255 0
0.448560 0.448454 -0.170345 0 255 0
0.461574 0.209911 0.033471 0 255 0
-0.568526 -0.472190 0.082853 0 255 0
-0.563896 0.390116 -0.501876 0 255 0
0.346733 0.394436 0.417446 127 127 0
0.467939 0.021692 0.417446 127 127 0
-0.203995 -0.152081 -0.040650 0 255 0
-0.543107 -0.114737 0.367181 127 127 0
0.176957 -0.152081 -0.243570 0 255 0
0.407494 -0.264821 0.417446 127 127 0
0.191972 -0.472190 -0.180667 0 255 0
0.336803 -0.472190 -0.098327 0 255 0
0.277593 -0.472190 0.033123 0 255 0
0.016688 -0.146862 0.417446 127 127 0
-0.673896 0.448454 -0.282251 0 255 0
-0.022831 -0.472190 0.225426 0 255 0
0.224895 -0.122857 0.406864 127 0 127
0.732741 0.214785 0.098531 0 255 0
0.293127 0.448454 -0.206261 0 255 0
-0.084584 -0.152081 -0.162726 0 255 0
-0.404025 -0.457535 0.367181 0 255 0
-0.067159 -0.152081 0.203996 0 255 0
-0.735529 0.378511 -0.423181 0 255 0
-0.437907 0.270420 0.403465 127 0 127
-0.109306 -0.501612 0.365858 0 255 0
-0.029678 -0.054767 0.417446 127 0 127
0.083282 0.235389 -0.501876 0 255 0
-0.735529 0.206790 0.056952 0 255 0
0.122693 0.448454 -0.212263 0 255 0
-0.247718 -0.152081 0.383761 127 127 0
-0.164631 -0.472190 -0.115243 0 255 0
0.718471 -0.438011 0.367181 0 255 0
-0.272014 0.337342 0.038669 0 255 0
0.732741 -0.304549 -0.171746 0 255 0
0.163009 0.448454 0.124971 0 255 0
0.732741 -0.079412 -0.221596 0 255 0
0.070820 -0.377670 -0.501876 0 255 0
-0.476666 0.387522 0.417446 127 127 0
0.193327 0.448454 -0.060719 0 255 0
-0.382859 0.221616 0.417446 127 0 127
0.732741 -0.253340 -0.191996 0 255 0
0.298344 -0.025192 -0.501876 0 255 0
-0.779734 -0.102000 0.417446 127 127 0
0.118227 0.445240 0.417446 127 127 0
-0.504342 -0.472190 -0.271359 0 255 0
0.706091 0.154469 0.417446 127 127 0
-0.105465 -0.152081 -0.241127 0 255 0
0.079659 -0.472190 0.107734 0 255 0
0.114582 -0.182628 -0.501876 0 255 0
-0.704459 0.184170 0.417446 127 127 0
0.005728 -0.472190 -0.398463 0 255 0
-0.735529 0.429783 0.342681 0 255 0
0.489614 0.448454 0.174902 0 255 0
-0.464362 -0.133065 -0.224934 0 255 0
0.572050 -0.168481 0.365858 127 127 0
-0.464362 -0.046670 -0.105508 0 255 0
-0.297735 0.453826 0.376911 127 127 0
-0.287759 -0.152081 0.035100 0 255 0
-0.735529 -0.447958 -0.155698 0 255 0
-0.002426 0.448454 -0.142760 0 255 0
0.271579 -0.359068 0.425682 0 255 0
0.532549 -0.472190 -0.076697 0 255 0
0.342226 0.341723 0.417446 127 127 0
0.127199 0.337342 0.357049 127 127 0
0.294656 -0.341871 -0.501876 0 255 0
-0.502492 0.064826 -0.501876 0 255 0
0.732741 0.165409 0.328842 0 255 0
0.082611 -0.405136 0.365858 0 255 0
0.732741 -0.191041 0.017255 0 255 0
0.732741 0.131888 0.067359 0 255 0
-0.599079 -0.472190 -0.474259 0 255 0
-0.456184 0.337342 0.156208 0 255 0
-0.203371 0.448454 -0.341823 0 255 0
0.145176 -0.509228 0.291860 0 255 0
-0.145393 0.337342 -0.041724 0 255 0
0.089579 -0.472190 -0.419266 0 255 0
0.002481 0.337342 0.243331 0 255 0
0.600341 0.448454 0.286160 0 255 0
0.001774 0.238274 0.406864 127 0 127
-0.697966 0.448454 -0.394224 0 255 0
-0.189883 -0.152081 -0.240515 0 255 0
-0.381079 0.337342 -0.015441 0 255 0
0.587287 0.027420 0.365858 0 255 0
-0.433380 -0.487684 0.365858 0 255 0
-0.461292 0.448454 -0.267460 0 255 0
-0.735529 -0.411000 -0.149946 0 255 0
0.379022 0.305603 -0.269069 0 255 0
-0.735529 -0.446758 0.327828 0 255 0
0.275262 -0.472190 -0.020177 0 255 0
0.036193 -0.099712 0.406864 127 0 127
-0.735529 0.033783 -0.196060 0 255 0
-0.231287 0.254369 -0.501876 0 255 0
-0.047794 -0.152081 0.152133 0 255 0
0.732741 -0.237413 0.337410 0 255 0
-0.242496 0.337342 -0.009993 0 255 0
-0.192121 0.200420 0.406864 127 0 127
0.163488 -0.472190 0.116291 0 255 0
0.548887 -0.258422 0.367181 127 127 0
-0.735529 0.238686 0.050123 0 255 0
-0.663702 -0.452928 0.417446 0 255 0
-0.128943 -0.472190 -0.105927 0 255 0
-0.362783 -0.359443 0.365858 0 255 0
-0.464362 0.084010 0.244286 0 255 0
-0.186467 -0.472190 0.257803 0 255 0
0.167974 0.167995 0.406864 127 0 127
-0.577336 0.107305 0.417446 127 127 0
0.732741 -0.431995 0.073001 0 255 0
0.451376 -0.243025 0.417446 127 127 0
-0.221677 0.448454 -0.087821 0 255 0
-0.715852 -0.472190 0.033513 0 255 0
-0.437907 0.224649 0.413971 127 0 127
-0.036304 0.448454 -0.475449 0 255 0
-0.601769 -0.100008 -0.501876 0 255 0
0.040961 0.337342 0.353271 0 255 0
-0.167899 -0.284358 0.389438 0 255 0
0.614687 -0.087925 0.417446 127 127 0
0.732741 -0.250729 -0.147490 0 255 0
-0.735529 0.289101 -0.194363 0 255 0
-0.262235 -0.152081 -0.089235 0 255 0
0.571658 0.448454 -0.283684 0 255 0
0.423595 -0.152081 -0.060209 0 255 0
-0.100410 0.337342 0.019574 0 255 0
0.732741 -0.010553 -0.358467 0 255 0
-0.041443 0.448454 -0.401031 0 255 0
-0.121312 -0.509228 0.325748 0 255 0
-0.303181 0.474910 0.396500 0 255 0
-0.113180 0.205612 -0.269069 0 255 0
0.461574 0.304459 -0.090784 0 255 0
-0.076485 0.448454 -0.413263 0 255 0
-0.670443 0.134460 -0.501876 0 255 0
0.461574 -0.081553 -0.031763 0 255 0
-0.424308 -0.472190 -0.233633 0 255 0
-0.735529 -0.219721 0.053677 0 255 0
0.385675 0.322279 0.417446 127 0 127
-0.171633 0.117288 -0.501876 0 255 0
0.686947 0.321116 0.367181 127 127 0
0.403689 -0.054975 0.406864 127 0 127
0.372792 0.448454 -0.352895 0 255 0
0.271474 -0.090781 0.406864 127 0 127
-0.534704 -0.472190 -0.126488 0 255 0
0.108587 0.337342 0.241786 0 255 0
0.604174 0.404750 0.417446 127 127 0
-0.170912 -0.027450 -0.269069 0 255 0
0.210072 -0.152081 0.347364 0 255 0
0.433885 0.337342 0.039263 0 255 0
0.433012 -0.152081 0.166469 0 255 0
0.280173 -0.472190 -0.077111 0 255 0
-0.238921 -0.284358 0.390632 0 255 0
0.199421 0.100039 0.406864 127 0 127
0.220564 0.222624 0.406864 127 0 127
-0.464362 -0.007830 0.118705 0 255 0
-0.512990 -0.472190 0.064513 0 255 0
0.438813 -0.182849 -0.501876 0 255 0
0.732741 0.339606 -0.049047 0 255 0
-0.106644 -0.472190 0.046425 0 255 0
0.461574 0.252305 -0.137738 0 255 0
-0.230957 0.315197 -0.269069 0 255 0
0.779037 -0.429152 0.413948 0 255 0
0.384518 -0.152081 0.071370 0 255 0
-0.310243 -0.472190 0.171658 0 255 0
-0.017402 -0.509228 0.356830 0 255 0
-0.457691 0.228039 -0.501876 0 255 0
0.736492 0.017423 0.417446 127 127 0
-0.007634 0.449105 0.376497 0 255 0
0.120407 0.419771 0.367181 127 127 0
0.029285 0.337342 0.323622 0 255 0
0.732741 -0.360365 -0.071362 0 255 0
0.178392 0.448454 0.261793 0 255 0
0.732741 0.391600 -0.008020 0 255 0
-0.464362 -0.045231 0.301657 0 255 0
0.732741 0.301474 0.016049 0 255 0
0.722726 0.212062 -0.501876 0 255 0
-0.214281 -0.309955 0.417446 0 255 0
0.092709 0.293431 0.417446 127 0 127
0.779037 0.253246 0.395127 127 127 0
-0.167001 0.337342 -0.164679 0 255 0
0.461574 0.131470 0.075629 0 255 0
-0.670411 -0.271523 0.365858 127 127 0
0.346159 0.118924 -0.501876 0 255 0
-0.735529 0.319285 -0.136622 0 255 0
-0.216410 -0.118387 -0.269069 0 255 0
0.142440 -0.472190 -0.253706 0 255 0
-0.011268 0.448454 0.318378 0 255 0
-0.633324 0.356878 0.367181 127 127 0
-0.078872 -0.472190 -0.227132 0 255 0
-0.401655 0.448454 0.313690 0 255 0
0.571294 -0.164882 -0.501876 0 255 0
-0.427402 0.448454 -0.219746 0 255 0
-0.534386 -0.220039 0.365858 127 127 0
0.732741 0.442441 0.140373 0 255 0
-0.261290 0.337342 -0.065595 0 255 0
-0.373530 0.448454 0.048423 0 255 0
-0.551065 0.448454 -0.245282 0 255 0
-0.140553 0.125848 -0.501876 0 255 0
0.141919 0.337342 0.224850 0 255 0
0.471740 -0.472190 -0.277316 0 255 0
0.446020 -0.394088 0.365858 0 255 0
-0.183916 0.337342 0.386476 127 127 0
-0.350086 0.030451 -0.501876 0 255 0
-0.625083 0.250880 -0.501876 0 255 0
0.237039 -0.356522 -0.501876 0 255 0
0.732741 0.103050 0.000654 0 255 0
-0.735529 0.076742 0.059914 0 255 0
0.348792 0.127042 0.417446 127 0 127
0.302217 0.359915 -0.501876 0 255 0
-0.754452 0.092299 0.367181 127 127 0
-0.735529 -0.031054 -0.430481 0 255 0
-0.411806 0.337342 0.158533 0 255 0
-0.012677 -0.152081 0.388696 127 127 0
0.456099 -0.472190 0.135407 0 255 0
-0.232119 -0.152081 0.063502 0 255 0
-0.600917 0.448454 -0.113373 0 255 0
-0.724303 0.053718 -0.501876 0 255 0
0.597610 -0.276421 0.388257 127 127 0
-0.330370 0.337342 -0.079319 0 255 0
0.207240 0.055770 -0.501876 0 255 0
-0.233278 0.448454 0.033557 0 255 0
-0.044781 -0.472190 -0.426398 0 255 0
-0.230572 0.158494 -0.501876 0 255 0
0.031678 -0.295090 -0.501876 0 255 0
0.015940 0.337342 -0.133104 0 255 0
0.732741 0.363277 0.283189 0 255 0
0.145954 0.448454 0.281749 0 255 0
0.091078 -0.152081 0.243555 0 255 0
-0.630371 -0.063883 0.417446 127 127 0
0.600485 0.448454 0.186561 0 255 0
-0.610121 -0.440920 0.417446 0 255 0
-0.580618 -0.472190 -0.040488 0 255 0
0.732741 0.343921 0.175123 0 255 0
-0.548968 0.036969 0.367181 127 127 0
-0.464362 0.242880 0.119931 0 255 0
-0.735529 0.404713 0.004870 0 255 0
-0.224224 -0.152081 0.127519 0 255 0
0.461574 0.116495 -0.013750 0 255 0
-0.707037 0.448454 -0.274354 0 255 0
-0.057975 -0.152081 -0.206084 0 255 0
0.165756 -0.470422 -0.501876 0 255 0
-0.113907 -0.472190 -0.145380 0 255 0
-0.253811 0.239682 -0.269069 0 255 0
-0.065064 0.440047 0.417446 127 127 0
-0.169396 0.421556 0.365858 127 127 0
0.779037 0.140054 0.400590 127 127 0
0.193472 -0.472190 -0.265621 0 255 0
0.065855 0.180828 -0.501876 0 255 0
0.570488 -0.000396 -0.501876 0 255 0
-0.704919 -0.142193 -0.501876 0 255 0
0.432947 -0.244071 -0.501876 0 255 0
-0.435305 0.354681 -0.501876 0 255 0
-0.552591 0.008591 0.417446 127 127 0
0.323382 0.337342 0.205444 0 255 0
-0.735529 -0.274579 -0.405463 0 255 0
0.748534 0.257006 0.367181 0 255 0
0.732741 0.336452 -0.005836 0 255 0
-0.523744 -0.472190 0.037312 0 255 0
0.000725 -0.472190 -0.427290 0 255 0
-0.198450 -0.472190 -0.341091 0 255 0
0.339433 0.270804 -0.501876 0 255 0
-0.781826 -0.300655 0.388266 0 255 0
-0.308460 0.223300 -0.501876 0 255 0
0.415134 -0.308543 0.417446 0 255 0
0.387911 0.448454 0.298173 0 255 0
0.010354 0.337342 -0.067832 0 255 0
0.220772 0.052107 0.406864 127 0 127
-0.509949 0.003358 -0.501876 0 255 0
-0.007741 -0.152081 -0.026221 0 255 0
-0.175561 -0.472190 -0.452058 0 255 0
-0.699240 0.343523 0.417446 127 127 0
0.127640 -0.472190 -0.317934 0 255 0
0.727005 0.361090 0.417446 127 127 0
-0.101365 0.448454 -0.123063 0 255 0
0.270241 0.235184 0.406864 127 0 127
-0.343474 0.257148 -0.501876 0 255 0
-0.123272 0.337342 0.393116 127 127 0
-0.094913 -0.079886 -0.269069 0 255 0
0.175108 0.310713 -0.269069 0 255 0
-0.273894 -0.472190 0.008351 0 255 0
0.053446 -0.152081 0.020073 0 255 0
-0.735529 0.368580 -0.008858 0 255 0
-0.569515 -0.396710 -0.501876 0 255 0
0.400876 0.337342 0.185224 0 255 0
0.256782 -0.124581 -0.269069 0 255 0
0.375785 0.170163 -0.501876 0 255 0
0.585580 -0.472190 0.155797 0 255 0
0.435118 0.157131 0.392662 127 127 0
0.058344 0.157830 0.406864 127 0 127
-0.663375 0.448454 -0.213585 0 255 0
-0.317295 0.448454 -0.141399 0 255 0
-0.263395 -0.329227 0.367181 0 255 0
-0.666263 0.277628 0.367181 0 255 0
0.585367 -0.499708 0.417446 0 255 0
-0.751537 -0.227992 0.417446 127 127 0
0.732741 -0.371861 0.120066 0 255 0
-0.218664 0.216688 -0.501876 0 255 0
-0.136217 -0.472190 -0.197307 0 255 0
0.675862 0.448454 -0.131524 0 255 0
-0.410619 0.047983 -0.269069 0 255 0
0.282503 0.444539 0.417446 127 127 0
-0.735529 0.155244 -0.356446 0 255 0
0.512389 -0.399986 -0.501876 0 255 0
0.358599 -0.438131 0.417446 0 255 0
0.732741 0.324913 -0.286719 0 255 0
0.634331 0.262513 0.417446 127 127 0
0.732741 -0.142299 -0.235868 0 255 0
-0.756335 0.002745 0.417446 127 127 0
-0.735313 -0.020262 -0.501876 0 255 0
0.004870 -0.472190 -0.260789 0 255 0
-0.672698 0.448454 -0.443385 0 255 0
0.732741 -0.405977 -0.369229 0 255 0
0.107057 0.337342 -0.129409 0 255 0
0.732741 0.160565 0.092486 0 255 0
-0.672180 0.448454 -0.008078 0 255 0
-0.735529 -0.078241 -0.268037 0 255 0
0.110437 -0.472190 0.012859 0 255 0
-0.735529 0.342066 0.091378 0 255 0
0.535730 0.084435 0.367181 127 127 0
0.566435 -0.472190 -0.160456 0 255 0
0.485987 0.369241 -0.501876 0 255 0
-0.735529 0.235864 0.216553 0 255 0
0.732741 0.412795 -0.476425 0 255 0
0.497060 -0.337666 0.417446 0 255 0
-0.156560 -0.010977 0.406864 127 0 127
-0.735529 0.213536 -0.392071 0 255 0
0.009667 -0.132276 -0.501876 0 255 0
0.709150 -0.508929 0.367181 0 255 0
-0.694064 0.034835 0.365858 0 255 0
-0.464362 0.320908 0.202726 0 255 0
0.390029 -0.390958 0.365858 0 255 0
-0.735529 -0.469394 -0.381366 0 255 0
0.309365 -0.472190 -0.412809 0 255 0
-0.735529 0.007538 0.135960 0 255 0
-0.029108 -0.472190 -0.376739 0 255 0
-0.006168 0.337342 -0.103289 0 255 0
0.582576 -0.472190 -0.041348 0 255 0
-0.155179 0.176590 -0.501876 0 255 0
-0.280699 0.337342 0.389208 127 127 0
-0.534037 0.448454 0.036094 0 255 0
0.095583 0.337342 -0.189144 0 255 0
-0.669034 -0.301485 0.417446 0 255 0
0.779037 0.403596 0.391357 127 127 0
0.124800 -0.472190 0.143218 0 255 0
-0.261568 0.448454 0.087811 0 255 0
0.692075 -0.356094 -0.501876 0 255 0
-0.368893 0.272316 -0.269069 0 255 0
0.461112 0.039585 -0.501876 0 255 0
0.453461 0.276497 -0.269069 0 255 0
0.317563 0.448454 0.050963 0 255 0
-0.464362 -0.123886 -0.168590 0 255 0
-0.308960 0.337342 0.377423 127 127 0
-0.112250 -0.152081 0.225005 0 255 0
0.481308 -0.308435 0.367181 0 255 0
0.732741 -0.460489 -0.407544 0 255 0
0.282583 -0.258427 -0.501876 0 255 0
0.104638 -0.072275 0.406864 127 0 127
-0.432815 -0.152081 -0.082475 0 255 0
-0.464362 0.165279 0.264136 0 255 0
0.407447 0.464328 0.393220 0 255 0
-0.033114 0.448454 0.038610 0 255 0
-0.735529 0.291780 -0.371876 0 255 0
0.525899 -0.472190 -0.374860 0 255 0
0.456295 -0.286419 -0.501876 0 255 0
-0.237551 -0.387687 0.367181 0 255 0
-0.735529 0.334748 -0.333104 0 255 0
-0.280080 0.448454 0.196107 0 255 0
0.732741 0.075845 -0.093425 0 255 0
0.139123 -0.339804 -0.501876 0 255 0
-0.735529 0.270385 -0.259496 0 255 0
0.241433 0.005829 -0.269069 0 255 0
-0.373295 -0.096950 -0.269069 0 255 0
0.635614 -0.466907 0.417446 0 255 0
0.523612 0.376403 0.367181 0 255 0
0.732741 0.376625 -0.202554 0 255 0
0.328923 -0.292052 0.365858 0 255 0
0.086512 0.007864 0.417446 127 0 127
-0.216366 -0.472190 0.009900 0 255 0
0.234434 0.337342 0.161846 0 255 0
0.732741 -0.271560 -0.321651 0 255 0
0.732741 0.253039 0.290094 0 255 0
-0.735529 -0.306018 -0.052920 0 255 0
0.172196 -0.300679 0.365858 0 255 0
-0.374223 -0.441744 0.417446 0 255 0
0.258094 0.337342 0.087494 0 255 0
-0.661050 0.234504 0.417446 127 127 0
0.732741 0.188078 -0.063524 0 255 0
-0.001641 0.078919 -0.501876 0 255 0
-0.332897 -0.472190 0.263729 0 255 0
0.511943 0.205516 0.417446 127 127 0
-0.182837 0.375906 -0.501876 0 255 0
-0.264334 0.181856 -0.501876 0 255 0
-0.455718 0.448454 -0.043699 0 255 0
0.527081 -0.502923 0.291784 0 255 0
-0.695726 -0.432134 0.417446 0 255 0
-0.595479 -0.472190 -0.154605 0 255 0
-0.342288 0.448454 0.219625 0 255 0
0.483955 -0.472190 0.188308 0 255 0
-0.553526 -0.472190 -0.162156 0 255 0
0.731481 -0.455870 -0.501876 0 255 0
0.461574 0.157183 -0.163162 0 255 0
-0.593488 0.464328 0.405561 0 255 0
-0.009977 0.337342 0.382835 127 127 0
-0.661449 -0.509228 0.342820 0 255 0
-0.184443 -0.296289 0.367181 0 255 0
0.334858 0.337342 0.352393 0 255 0
0.151289 0.448454 -0.452392 0 255 0
-0.246514 -0.276152 0.417446 127 127 0
-0.273977 0.337342 0.134891 0 255 0
-0.081804 -0.152081 0.393242 127 127 0
0.732741 -0.122474 -0.476055 0 255 0
-0.377933 0.155716 0.417446 127 0 127
-0.409020 -0.106430 0.406864 127 0 127
0.306875 0.448454 -0.358391 0 255 0
-0.524538 0.358652 0.417446 127 127 0
0.732741 0.070341 -0.228923 0 255 0
0.025583 0.344500 -0.501876 0 255 0
0.137382 -0.472190 0.104502 0 255 0
0.732741 -0.415630 -0.277887 0 255 0
0.732741 0.386113 0.179175 0 255 0
-0.549835 -0.476867 0.365858 0 255 0
0.304195 -0.152081 0.017616 0 255 0
-0.376781 -0.448442 0.367181 0 255 0
-0.361131 -0.357143 -0.501876 0 255 0
-0.074389 0.337342 0.328356 0 255 0
0.317143 0.306327 0.417446 127 0 127
0.070199 -0.128565 -0.269069 0 255 0
0.732741 -0.089438 0.288840 0 255 0
-0.725340 0.130381 0.417446 127 127 0
-0.383822 0.337342 -0.208646 0 255 0
0.627104 -0.164040 0.365858 0 255 0
0.436534 0.370568 0.417446 127 127 0
0.732741 -0.191244 -0.315887 0 255 0
0.130001 -0.289761 -0.501876 0 255 0
-0.552772 0.448454 0.274232 0 255 0
-0.432983 0.126031 -0.501876 0 255 0
-0.464362 0.184269 -0.015788 0 255 0
0.054068 0.375515 0.417446 127 127 0
0.240719 -0.184580 0.365858 127 127 0
0.732741 -0.011041 -0.302438 0 255 0
0.732741 0.134684 -0.072925 0 255 0
0.378645 0.172245 0.417446 127 0 127
0.732741 -0.231402 0.180069 0 255 0
0.054935 -0.152081 0.393520 127 0 127
-0.595930 -0.276421 0.374165 0 255 0
-0.750162 -0.414376 0.417446 0 255 0
-0.111252 0.241006 -0.501876 0 255 0
0.426391 -0.306368 0.365858 0 255 0
-0.189064 -0.239926 0.367181 0 255 0
-0.636573 0.448454 -0.035813 0 255 0
0.320682 -0.134142 -0.269069 0 255 0
0.541590 -0.175991 -0.501876 0 255 0
0.181465 -0.152081 -0.077812 0 255 0
-0.127410 -0.031826 -0.501876 0 255 0
-0.464362 -0.063252 0.093096 0 255 0
0.288750 0.123807 0.406864 127 0 127
0.732741 -0.202670 0.109621 0 255 0
0.461574 0.034403 -0.045036 0 255 0
0.183959 -0.152081 0.364803 127 127 0
-0.426536 0.337342 -0.192735 0 255 0
0.461574 0.207708 -0.016444 0 255 0
-0.227770 0.337342 0.174413 0 255 0
-0.464362 0.313780 -0.061543 0 255 0
0.027877 -0.241033 -0.501876 0 255 0
0.270533 -0.152081 0.174281 0 255 0
0.732741 -0.020705 0.142843 0 255 0
-0.781826 -0.488645 0.383881 0 255 0
0.732741 0.174518 -0.032683 0 255 0
0.303488 0.448454 -0.011163 0 255 0
-0.283004 -0.152081 0.180116 0 255 0
0.380939 -0.152081 -0.101898 0 255 0
-0.464362 -0.143966 0.338191 0 255 0
-0.520292 0.355266 0.365858 0 255 0
0.665624 -0.397500 -0.501876 0 255 0
0.298931 0.448454 -0.457391 0 255 0
-0.578123 -0.493040 0.291784 0 255 0
0.323267 -0.138850 0.417446 127 0 127
0.732741 -0.165023 0.165608 0 255 0
0.146517 0.337342 -0.081574 0 255 0
0.376512 0.448454 -0.230496 0 255 0
-0.273806 -0.152081 -0.224723 0 255 0
-0.132627 -0.152081 0.003846 0 255 0
0.582354 0.308495 0.417446 127 127 0
0.407667 -0.095335 0.406864 127 0 127
-0.462684 -0.152081 0.159639 0 255 0
0.358321 -0.320849 -0.501876 0 255 0
0.399953 -0.152081 -0.243035 0 255 0
0.012068 0.424525 0.367181 0 255 0
-0.315436 -0.457535 0.365858 0 255 0
-0.735529 0.107808 -0.447468 0 255 0
-0.536170 -0.053448 0.417446 127 127 0
0.461574 -0.127661 0.277535 0 255 0
0.732741 -0.308538 -0.277760 0 255 0
0.732741 -0.291720 0.151140 0 255 0
-0.213951 -0.472190 0.250402 0 255 0
-0.347214 -0.419015 0.432048 153 76 0
-0.735529 0.038148 0.245187 0 255 0
-0.735529 0.096031 -0.337448 0 255 0
0.437231 -0.084356 -0.269069 0 255 0
-0.220919 -0.152081 -0.073468 0 255 0
-0.735529 0.418864 0.150785 0 255 0
0.414892 0.307081 -0.501876 0 255 0
0.461574 0.212255 -0.143649 0 255 0
-0.659176 -0.472190 -0.112984 0 255 0
-0.459561 -0.378365 0.417446 0 255 0
-0.464362 -0.151324 -0.017379 0 255 0
-0.349652 -0.382933 0.417446 0 255 0
-0.735529 0.002078 -0.317306 0 255 0
-0.481235 0.448454 -0.082479 0 255 0
0.285631 -0.139937 0.417446 127 0 127
0.224018 -0.427372 0.365858 0 255 0
-0.735529 -0.077888 0.293626 0 255 0
0.461574 0.261753 0.019030 0 255 0
-0.035475 0.337342 -0.159016 0 255 0
-0.330431 0.448454 -0.270305 0 255 0
-0.261355 -0.472190 0.107216 0 255 0
-0.267821 -0.254211 0.417446 127 127 0
0.579011 -0.488069 0.367181 0 255 0
-0.584265 -0.472190 -0.071110 0 255 0
0.732741 -0.183049 -0.500164 0 255 0
0.732741 -0.110239 -0.435267 0 255 0
0.383447 -0.152081 -0.200166 0 255 0
0.732741 0.269779 0.215301 0 255 0
-0.411358 -0.472190 -0.045027 0 255 0
-0.437907 -0.037954 0.382678 127 127 0
-0.279301 -0.480984 0.417446 0 255 0
0.368924 0.337342 -0.122974 0 255 0
-0.622058 0.350463 0.417446 127 127 0
-0.677670 -0.229636 -0.501876 0 255 0
0.090661 0.106765 0.406864 127 0 127
-0.498313 0.421533 0.417446 127 127 0
0.439789 -0.471596 0.417446 0 255 0
-0.300238 -0.179046 0.365858 0 255 0
0.547509 0.121649 -0.501876 0 255 0
0.331213 -0.357565 0.417446 0 255 0
-0.398789 -0.174549 0.365858 0 255 0
0.459843 0.337342 0.001036 0 255 0
0.435118 0.097609 0.399955 127 127 0
0.732741 0.246444 -0.102775 0 255 0
0.732741 -0.311744 0.299645 0 255 0
0.118242 0.444216 -0.501876 0 255 0
0.720826 0.418195 -0.501876 0 255 0
0.530350 0.448454 -0.158085 0 255 0
-0.510279 -0.405543 0.365858 0 255 0
0.629969 0.464328 0.396655 0 255 0
-0.735529 0.408031 -0.095257 0 255 0
-0.214117 -0.509228 0.345004 0 255 0
0.425793 0.448454 0.349829 0 255 0
-0.015149 0.029041 -0.501876 0 255 0
0.059370 0.448454 0.150712 0 255 0
-0.189587 -0.472190 0.199791 0 255 0
0.384910 0.144575 0.406864 127 0 127
0.236744 -0.152081 0.194808 0 255 0
-0.248541 -0.458716 -0.501876 0 255 0
-0.001069 0.337342 0.104116 0 255 0
-0.279693 -0.268975 -0.501876 0 255 0
0.364415 0.469619 0.415280 0 255 0
-0.289547 0.448454 -0.317350 0 255 0
0.176911 -0.395323 0.365858 0 255 0
0.553695 0.319917 0.365858 127 127 0
0.034620 -0.385192 -0.501876 0 255 0
-0.735529 0.201103 0.225505 0 255 0
0.090162 -0.152081 0.137509 0 255 0
0.366186 -0.152081 -0.145493 0 255 0
0.493431 0.065464 -0.501876 0 255 0
-0.389452 -0.012646 -0.501876 0 255 0
0.396020 0.337342 -0.144254 0 255 0
0.048398 -0.072191 0.406864 127 0 127
0.465151 -0.166774 0.365858 0 255 0
-0.609593 -0.472190 0.291378 0 255 0
0.517451 0.450053 0.378292 0 255 0
-0.735529 -0.087356 -0.360186 0 255 0
-0.713974 -0.472190 0.074888 0 255 0
-0.051065 -0.174549 0.365858 0 255 0
-0.540374 -0.472190 -0.311756 0 255 0
0.057728 -0.078351 -0.501876 0 255 0
-0.735529 0.278321 0.002377 0 255 0
0.779037 -0.349129 0.381641 0 255 0
0.275262 -0.152081 -0.027697 0 255 0
0.046157 -0.472190 -0.183966 0 255 0
-0.372972 0.246429 0.406864 127 0 127
0.732741 0.386243 -0.433936 0 255 0
0.285576 0.448454 0.193358 0 255 0
0.332350 -0.509228 0.389411 0 255 0
0.732741 -0.273744 -0.431001 0 255 0
-0.735529 0.103227 -0.418314 0 255 0
0.568666 -0.199193 0.417446 127 127 0
0.127226 -0.305325 0.435367 0 255 0
0.662274 0.202102 -0.501876 0 255 0
0.655359 -0.509228 0.340509 0 255 0
0.313392 0.188811 -0.269069 0 255 0
0.732741 0.358466 0.231432 0 255 0
-0.335483 -0.413469 -0.501876 0 255 0
0.393978 0.006109 -0.269069 0 255 0
-0.166525 -0.084405 -0.269069 0 255 0
0.172448 0.337342 0.237019 0 255 0
0.368868 -0.407155 0.417446 0 255 0
0.475970 0.200790 -0.501876 0 255 0
0.433927 0.337342 0.315744 0 255 0
-0.747102 -0.199710 0.367181 127 127 0
-0.668584 -0.320368 -0.501876 0 255 0
0.043750 0.448454 -0.137039 0 255 0
0.245339 -0.472190 -0.425649 0 255 0
0.138960 -0.453905 -0.501876 0 255 0
0.732741 -0.470937 -0.265247 0 255 0
-0.735529 -0.199864 0.186227 0 255 0
-0.384523 0.337342 0.140537 0 255 0
0.473334 -0.178345 0.417446 127 127 0
0.043610 0.337342 -0.121074 0 255 0
0.035240 -0.472190 0.260309 0 255 0
0.732741 -0.377015 -0.497213 0 255 0
-0.367558 -0.152081 -0.164898 0 255 0
0.457798 0.254633 -0.501876 0 255 0
-0.067053 -0.259973 0.417446 127 127 0
-0.756970 0.345716 0.367181 0 255 0
-0.122373 0.101893 0.417446 127 0 127
-0.335944 -0.077342 0.406864 127 0 127
-0.378339 0.118591 -0.269069 0 255 0
0.732741 -0.227298 0.000017 0 255 0
0.100537 -0.426738 -0.501876 0 255 0
0.726698 0.004776 0.367181 0 255 0
-0.768939 -0.178804 0.367181 127 127 0
-0.055351 0.430607 -0.501876 0 255 0
-0.735529 0.073636 -0.006824 0 255 0
-0.108870 0.108685 -0.269069 0 255 0
-0.735529 -0.032771 0.258712 0 255 0
-0.292692 -0.152081 0.214227 0 255 0
0.301492 0.285421 0.406864 127 0 127
0.057779 0.392146 0.365858 127 127 0
0.747501 0.089608 0.367181 127 127 0
-0.197814 -0.429765 0.417446 0 255 0
-0.625386 -0.337739 -0.501876 0 255 0
0.319380 0.337342 0.074692 0 255 0
-0.165315 -0.509228 0.332863 0 255 0
-0.082095 -0.509228 0.391338 0 255 0
-0.735529 0.089968 -0.475055 0 255 0
0.191602 -0.284358 0.389602 0 255 0
0.683569 0.474910 0.389805 0 255 0
-0.517158 -0.261722 -0.501876 0 255 0
0.345384 0.448454 0.202783 0 255 0
-0.735529 -0.292763 -0.377197 0 255 0
-0.122015 -0.124429 -0.269069 0 255 0
-0.781826 -0.124042 0.373949 127 127 0
0.732741 0.033543 0.039911 0 255 0
0.375950 -0.318600 0.417446 0 255 0
0.701933 -0.307176 0.367181 0 255 0
-0.459599 0.337342 0.054382 0 255 0
0.587128 -0.472190 -0.197410 0 255 0
0.354251 -0.152081 -0.263994 0 255 0
-0.510297 0.046423 0.417446 127 127 0
-0.303773 -0.351989 0.417446 0 255 0
0.461574 0.220395 -0.041721 0 255 0
-0.464362 0.318011 -0.158605 0 255 0
0.413527 -0.297751 -0.501876 0 255 0
-0.735529 -0.325539 0.270267 0 255 0
-0.735529 -0.002059 -0.412726 0 255 0
0.131791 0.448454 0.089969 0 255 0
0.376462 -0.472190 0.177168 0 255 0
-0.509116 -0.472190 -0.337570 0 255 0
-0.098997 0.448454 -0.365773 0 255 0
0.449821 -0.360104 0.365858 0 255 0
0.424720 0.448454 -0.064945 0 255 0
0.626618 0.239694 0.365858 127 127 0
-0.595755 -0.055549 0.367181 127 127 0
-0.682406 0.075907 0.417446 127 127 0
0.144704 -0.152081 0.250790 0 255 0
-0.735529 -0.346505 -0.093645 0 255 0
0.686083 -0.460936 0.417446 0 255 0
-0.277975 0.448454 -0.290550 0 255 0
-0.735529 -0.360769 -0.380741 0 255 0
0.018600 0.337342 0.032670 0 255 0
-0.486452 -0.458555 0.365858 0 255 0
-0.195048 -0.152081 0.110584 0 255 0
0.057991 0.448454 -0.241796 0 255 0
-0.131122 -0.212340 0.365858 0 255 0
0.298373 -0.452113 0.432907 0 255 0
0.490469 0.448454 0.256686 0 255 0
0.256910 -0.152081 0.307690 0 255 0
-0.306460 0.448454 0.137551 0 255 0
0.426232 -0.509228 0.379643 0 255 0
-0.057606 0.375019 0.417446 127 127 0
0.182265 0.338615 -0.501876 0 255 0
0.093065 0.448454 -0.438044 0 255 0
-0.599095 -0.472190 -0.011184 0 255 0
0.732741 -0.310290 0.234057 0 255 0
-0.735529 -0.270190 0.264422 0 255 0
-0.437465 -0.206938 0.417446 127 127 0
-0.278189 -0.235622 0.365858 0 255 0
0.732741 -0.172737 -0.185445 0 255 0
0.111349 0.418059 0.417446 127 127 0
0.483514 -0.226471 0.417446 127 127 0
0.461574 0.076574 -0.094669 0 255 0
0.580223 0.448454 -0.144621 0 255 0
-0.636378 0.032300 0.367181 0 255 0
-0.625033 0.448454 -0.297525 0 255 0
0.369313 -0.184361 0.417446 127 127 0
0.352538 0.448454 -0.211635 0 255 0
0.461574 -0.082925 -0.064150 0 255 0
0.161861 -0.472190 -0.147714 0 255 0
0.732741 0.028771 -0.072211 0 255 0
-0.735529 -0.314889 0.351772 0 255 0
0.241335 -0.337254 0.417446 0 255 0
-0.516050 0.300971 0.417446 127 127 0
0.011841 0.448454 -0.333931 0 255 0
0.666085 -0.079140 0.417446 127 127 0
-0.368388 0.238213 -0.501876 0 255 0
-0.115909 -0.336124 -0.501876 0 255 0
0.612442 -0.150904 0.417446 127 127 0
-0.359353 0.063518 -0.269069 0 255 0
0.360222 0.357725 -0.501876 0 255 0
-0.250950 -0.033058 0.406864 127 0 127
-0.735529 -0.023079 -0.221630 0 255 0
0.325622 -0.178614 0.417446 127 127 0
-0.584204 -0.472190 0.145438 0 255 0
0.732741 -0.230764 -0.214341 0 255 0
0.074603 -0.152081 0.342126 0 255 0
-0.115331 -0.472190 -0.062146 0 255 0
-0.565352 -0.342542 0.365858 0 255 0
0.047830 0.050076 -0.269069 0 255 0
0.439791 -0.472190 -0.292446 0 255 0
0.638524 -0.472190 0.216906 0 255 0
0.692874 0.412778 0.417446 127 127 0
-0.741961 0.002758 0.367181 127 127 0
0.461574 -0.003798 0.200050 0 255 0
0.461574 0.242239 0.344826 0 255 0
0.753237 -0.042424 0.417446 127 127 0
-0.334094 0.362712 -0.501876 0 255 0
-0.014582 -0.110922 0.417446 127 0 127
0.627897 -0.472190 0.066960 0 255 0
-0.486924 0.448454 0.285976 0 255 0
-0.016681 -0.324286 0.365858 0 255 0
-0.380231 0.448454 -0.205506 0 255 0
-0.464362 0.083907 -0.041640 0 255 0
0.222983 0.218444 -0.269069 0 255 0
-0.056867 -0.472190 0.174389 0 255 0
0.701393 -0.472190 0.241398 0 255 0
0.094306 -0.152081 0.081601 0 255 0
0.378661 -0.321304 0.367181 0 255 0
-0.520177 -0.255707 0.417446 127 127 0
-0.102338 -0.193417 0.417446 127 127 0
-0.195833 -0.042306 0.417446 127 0 127
-0.735529 0.041158 0.186610 0 255 0
0.061126 -0.406712 0.438610 153 0 76
0.456332 -0.303628 0.417446 0 255 0
-0.509911 0.094915 0.417446 127 127 0
-0.059223 -0.166548 0.417446 127 127 0
-0.735529 0.278925 0.121350 0 255 0
-0.426064 -0.509228 0.344351 0 255 0
-0.464362 0.207841 0.030068 0 255 0
0.123371 0.448454 -0.054592 0 255 0
-0.133532 -0.089890 0.417446 127 0 127
0.425544 -0.472190 0.012543 0 255 0
-0.096035 -0.330005 0.365858 0 255 0
0.303523 0.337342 -0.016241 0 255 0
-0.143451 0.448454 0.019590 0 255 0
0.363104 -0.071435 -0.269069 0 255 0
-0.754596 -0.470390 0.367181 0 255 0
-0.343572 0.448454 -0.491726 0 255 0
0.158132 0.117085 -0.269069 0 255 0
-0.735529 -0.154078 -0.470271 0 255 0
0.461574 0.067314 -0.004678 0 255 0
-0.649435 -0.115276 0.417446 127 127 0
0.331149 0.438870 0.367181 0 255 0
-0.311914 -0.406244 0.365858 0 255 0
-0.201684 -0.082416 -0.269069 0 255 0
-0.492146 -0.189285 0.365858 0 255 0
