ply
format ascii 1.0
element vertex 1295
property float x
property float y
property float z
property uchar red
property uchar green
property uchar blue
end_header
-0.047815 0.364364 -0.063085 0 255 0
-0.583330 -0.270195 0.097231 0 255 0
0.581018 0.262318 -0.286720 0 255 0
0.390364 -0.377054 0.408237 204 51 127
-0.589570 -0.035299 0.009797 0 255 0
0.192172 -0.318535 -0.150118 0 255 0
-0.322911 0.010536 0.359898 204 51 127
0.065848 0.357839 0.361847 204 51 127
-0.273829 -0.318535 0.189594 0 255 0
0.630148 0.124214 -0.457982 0 255 0
-0.025126 -0.319423 -0.340126 0 255 0
-0.641998 -0.125335 0.026029 0 255 0
0.581009 0.237812 0.078161 0 255 0
-0.641998 0.033174 -0.409835 0 255 0
0.538874 -0.313657 -0.248566 0 255 0
-0.641998 -0.111738 -0.399338 0 255 0
-0.621011 0.619143 0.359606 0 255 0
0.309345 0.321990 0.359898 204 51 127
-0.118176 -0.054578 -0.499230 0 255 0
0.148072 0.325092 0.266049 0 255 0
0.012014 -0.410048 0.063472 0 255 0
0.493713 -0.057903 -0.499230 0 255 0
0.581009 0.033013 0.277973 0 255 0
0.213252 0.370254 0.316972 0 255 0
0.630193 -0.162006 -0.240646 0 255 0
-0.588859 -0.202619 -0.100090 0 255 0
0.629423 -0.378616 0.185966 0 255 0
0.236560 0.325092 -0.055450 0 255 0
-0.015123 -0.410048 -0.352834 0 255 0
0.581009 0.012435 -0.359708 0 255 0
0.039947 0.325092 0.000397 0 255 0
0.059246 -0.410048 0.139410 0 255 0
-0.197798 0.625172 0.405844 0 255 0
0.524806 -0.317569 -0.382719 0 255 0
-0.588867 0.283068 -0.408711 0 255 0
-0.562379 0.105303 -0.481392 0 255 0
-0.641998 -0.282539 -0.188343 0 255 0
0.228695 0.325092 -0.271896 0 255 0
-0.557676 0.456459 0.409288 0 255 0
0.657839 -0.019661 0.403689 204 51 127
-0.231017 0.364688 -0.412180 0 255 0
-0.377906 0.035611 -0.499230 0 255 0
-0.277546 0.363858 0.167442 0 255 0
-0.231225 -0.139309 -0.499230 0 255 0
-0.083329 0.255593 0.401439 204 51 127
-0.587076 -0.247159 -0.040856 0 255 0
-0.641998 0.148965 0.233239 0 255 0
-0.540792 -0.316288 -0.242618 0 255 0
-0.641998 -0.150538 0.162329 0 255 0
0.468817 0.448285 0.409239 0 255 0
-0.600898 -0.138614 -0.499142 0 255 0
0.178594 0.364481 -0.199037 0 255 0
0.135388 -0.263977 0.406571 204 51 127
0.305808 -0.246173 0.359898 204 51 127
-0.419398 -0.318536 -0.356387 0 255 0
-0.304525 -0.131356 -0.499230 0 255 0
-0.199330 0.364688 -0.166042 0 255 0
0.200153 0.082587 0.359898 204 51 127
0.375318 0.364688 -0.245923 0 255 0
0.050562 -0.318561 -0.299142 0 255 0
-0.111685 0.325092 -0.285229 0 255 0
0.125293 0.363685 -0.360075 0 255 0
-0.496818 -0.176925 0.359898 204 51 127
0.581239 -0.183270 0.320626 0 255 0
-0.003435 -0.319176 -0.270436 0 255 0
0.409475 0.488384 0.358433 0 255 0
-0.045485 0.316440 -0.464362 0 255 0
0.396024 -0.410048 -0.055306 0 255 0
0.106658 0.004726 0.359898 204 51 127
-0.526794 0.325100 -0.031488 0 255 0
0.046245 -0.410047 -0.441868 0 255 0
-0.660918 0.519426 0.360266 0 255 0
-0.194307 -0.318535 0.302278 0 255 0
0.208578 0.183823 -0.481236 0 255 0
0.245807 -0.228774 0.386511 0 0 255
-0.641998 0.270584 -0.380805 0 255 0
-0.021572 -0.318943 -0.129750 0 255 0
0.630193 0.010574 0.191576 0 255 0
0.023835 -0.320702 0.340498 0 255 0
-0.049842 -0.077455 0.386104 0 0 255
-0.641996 0.304611 0.121970 0 255 0
0.199699 0.246610 -0.481236 0 255 0
-0.635990 -0.397140 -0.234841 0 255 0
-0.641998 -0.033090 -0.201944 0 255 0
-0.641998 0.280157 -0.125041 0 255 0
0.424826 0.325271 0.318033 0 255 0
-0.002686 0.609028 0.358586 0 255 0
0.450342 -0.011288 -0.481236 0 255 0
-0.380049 -0.222686 -0.499230 0 255 0
0.629328 0.253199 -0.257761 0 255 0
-0.517101 -0.318566 0.178683 0 255 0
-0.100518 -0.319537 -0.227089 0 255 0
-0.053310 0.323369 0.407503 204 51 127
-0.151593 -0.410048 0.275887 0 255 0
0.223680 0.197767 0.359898 204 51 127
-0.641998 -0.042959 -0.108521 0 255 0
0.451383 0.325092 0.067695 0 255 0
0.486599 0.572925 0.409846 0 255 0
-0.018080 0.363880 0.131012 0 255 0
0.058637 -0.271064 0.359898 204 51 127
0.251111 0.391630 0.342260 0 255 0
-0.161713 0.325092 0.122025 0 255 0
0.473146 0.020383 -0.481236 0 255 0
0.112805 -0.183175 -0.481236 0 255 0
-0.622258 -0.407424 -0.413329 0 255 0
-0.641998 -0.191008 -0.301107 0 255 0
0.162015 -0.319537 0.211849 0 255 0
0.382214 0.304266 -0.475450 0 255 0
-0.641998 -0.018879 -0.318697 0 255 0
0.209217 -0.402917 -0.490353 0 255 0
0.581009 0.131071 0.290738 0 255 0
-0.660345 -0.112810 0.363821 0 255 0
-0.300670 -0.254656 -0.499230 0 255 0
-0.478733 0.347009 0.402492 204 51 127
0.559695 0.318993 -0.499224 0 255 0
-0.605005 0.372273 0.321452 0 255 0
0.234765 0.325092 0.034837 0 255 0
-0.563019 0.040028 0.359898 204 51 127
-0.531431 0.549949 0.358433 0 255 0
-0.385870 0.325092 0.183543 0 255 0
-0.217337 0.144820 0.359898 204 51 127
-0.589507 -0.118829 0.323985 0 255 0
-0.152518 0.325092 -0.350742 0 255 0
0.332250 0.399020 0.409695 0 255 0
0.162504 -0.284381 -0.499230 0 255 0
0.628971 0.324459 -0.396516 0 255 0
0.538401 -0.203857 0.359898 204 51 127
0.100630 0.586241 0.409820 0 255 0
-0.056576 -0.410048 -0.371019 0 255 0
0.432999 -0.318535 -0.204387 0 255 0
0.099951 0.297855 0.359898 204 51 127
0.234106 0.602040 0.409686 0 255 0
0.629821 0.129014 -0.173280 0 255 0
-0.391859 0.119012 -0.481236 0 255 0
-0.471561 0.325092 -0.161201 0 255 0
0.428525 -0.185053 0.359898 204 51 127
-0.425043 0.325344 0.332661 0 255 0
0.629780 0.334159 0.307570 0 255 0
-0.641803 0.336093 -0.289117 0 255 0
-0.412675 -0.318535 -0.059920 0 255 0
0.516685 -0.314345 -0.499230 0 255 0
0.202803 0.252954 0.405919 204 51 127
-0.319018 0.135855 0.385378 0 0 255
0.354785 -0.350954 -0.499229 0 255 0
-0.296177 -0.410048 0.170576 0 255 0
-0.111245 -0.247772 0.359898 204 51 127
0.553147 0.364688 -0.000278 0 255 0
0.630193 0.023253 -0.403741 0 255 0
0.242593 0.585979 0.358448 0 255 0
0.252712 0.322832 -0.451935 0 255 0
-0.144479 0.448350 0.409801 0 255 0
-0.398189 0.325093 -0.400612 0 255 0
-0.589194 0.042119 0.212563 0 255 0
0.259759 -0.318535 -0.131516 0 255 0
-0.641702 0.021160 -0.469408 0 255 0
0.351815 0.364688 -0.094216 0 255 0
-0.126847 -0.129672 -0.481236 0 255 0
-0.360969 -0.361743 -0.499115 0 255 0
0.464478 -0.318535 -0.009017 0 255 0
0.387474 0.225947 0.359898 204 51 127
0.545573 0.323145 -0.195545 0 255 0
0.004587 -0.406924 0.399987 204 51 127
-0.488419 -0.318535 -0.073882 0 255 0
-0.633127 0.359544 -0.457816 0 255 0
-0.367432 0.364688 -0.402688 0 255 0
-0.650643 -0.049803 0.328660 0 255 0
-0.558889 -0.303809 -0.457438 0 255 0
0.630193 0.109285 0.107030 0 255 0
-0.383679 -0.410048 -0.299531 0 255 0
-0.641998 0.074682 -0.046955 0 255 0
0.562685 -0.354376 -0.499225 0 255 0
-0.638095 0.351717 0.258355 0 255 0
0.514445 0.304744 -0.475250 0 255 0
-0.276103 -0.410048 0.242004 0 255 0
-0.145766 -0.319096 -0.219056 0 255 0
0.141530 -0.410048 -0.166465 0 255 0
-0.525635 0.325352 0.332659 0 255 0
-0.523208 0.432130 0.409762 0 255 0
0.630193 0.200624 0.034752 0 255 0
-0.251235 0.112251 -0.481236 0 255 0
-0.397636 0.340843 0.403815 204 51 127
0.415440 0.179534 0.385169 0 0 255
0.033372 -0.318757 -0.333791 0 255 0
-0.325484 0.364621 -0.458122 0 255 0
0.093221 -0.396709 -0.494885 0 255 0
-0.515204 -0.318561 0.052490 0 255 0
-0.633512 0.359319 -0.006595 0 255 0
-0.429932 -0.338158 0.361563 0 255 0
0.506610 -0.377848 0.408129 204 51 127
0.630060 0.342240 0.375138 0 255 0
-0.007099 0.370488 0.318557 0 255 0
0.347135 -0.410018 -0.456964 0 255 0
-0.390877 0.325092 0.221875 0 255 0
0.610668 0.359485 -0.306586 0 255 0
-0.585901 -0.248364 -0.337093 0 255 0
-0.472055 0.076974 0.359898 204 51 127
-0.364167 0.325092 0.056993 0 255 0
0.212323 0.364688 -0.073674 0 255 0
-0.167696 -0.318535 0.098320 0 255 0
-0.589376 0.193681 -0.379983 0 255 0
-0.407519 -0.318535 0.300225 0 255 0
-0.139045 0.181787 0.359898 204 51 127
-0.588815 -0.179928 -0.302578 0 255 0
-0.641998 -0.089803 -0.119270 0 255 0
0.451226 -0.304403 -0.460007 0 255 0
-0.641998 -0.187636 0.231234 0 255 0
-0.301590 0.598242 0.409668 0 255 0
-0.504812 0.364688 -0.422260 0 255 0
-0.077786 0.154881 -0.481236 0 255 0
0.391729 0.075373 -0.481236 0 255 0
0.396440 0.364686 0.277886 0 255 0
-0.581244 -0.281551 0.136489 0 255 0
-0.563575 0.099247 0.408380 204 51 127
0.537925 -0.209868 0.407379 204 51 127
-0.487863 0.364688 0.170728 0 255 0
0.581009 -0.090179 -0.046499 0 255 0
-0.468289 -0.410048 -0.207682 0 255 0
0.122745 -0.319257 0.308594 0 255 0
-0.588765 0.274822 0.104196 0 255 0
0.591083 -0.083463 0.355407 0 255 0
-0.506069 0.149533 -0.499230 0 255 0
0.058099 0.211083 0.394177 204 51 127
-0.648565 0.246503 0.408380 204 51 127
-0.641998 -0.060651 0.150808 0 255 0
0.170185 0.364688 0.046508 0 255 0
-0.168570 0.638799 0.378372 0 255 0
-0.215303 0.364688 -0.071921 0 255 0
0.499147 -0.318844 0.301623 0 255 0
0.003644 -0.410048 -0.047425 0 255 0
0.514628 0.078083 -0.481236 0 255 0
-0.023526 0.225768 0.359898 204 51 127
-0.252359 -0.318535 -0.110092 0 255 0
-0.432104 -0.410048 0.025431 0 255 0
0.531897 0.324300 0.311050 0 255 0
-0.146171 -0.410048 0.010636 0 255 0
0.440244 0.149518 -0.481236 0 255 0
-0.473066 -0.056299 -0.499230 0 255 0
-0.178566 -0.319247 -0.250509 0 255 0
0.316098 -0.080279 -0.481236 0 255 0
-0.289290 -0.048616 -0.481236 0 255 0
0.590848 -0.144479 0.355115 0 255 0
-0.226652 0.638847 0.389257 0 255 0
0.074642 0.408837 0.409845 153 0 76
0.206785 -0.410048 -0.318798 0 255 0
0.291742 -0.318535 -0.229224 0 255 0
-0.169734 -0.318535 0.143031 0 255 0
-0.022672 0.178123 -0.481236 0 255 0
-0.589086 0.008002 -0.064312 0 255 0
0.335979 0.497620 0.409467 0 255 0
0.373502 -0.088248 0.359898 204 51 127
0.084752 -0.410048 0.069095 0 255 0
0.628532 0.324039 -0.308002 0 255 0
-0.582132 -0.070601 0.359898 204 51 127
-0.588764 0.148298 0.270384 0 255 0
0.226723 0.364688 0.119761 0 255 0
0.293932 -0.318535 -0.334763 0 255 0
0.108975 0.325092 -0.222428 0 255 0
-0.559050 0.322847 0.287375 0 255 0
0.629054 0.088334 0.408380 204 51 127
0.570987 -0.226782 -0.470747 0 255 0
0.107193 0.364224 -0.187947 0 255 0
-0.340023 0.325092 -0.008083 0 255 0
-0.191555 -0.367456 -0.499030 0 255 0
0.581009 0.160014 0.154450 0 255 0
-0.578365 -0.283632 -0.380305 0 255 0
0.041310 0.059587 0.385103 0 0 255
0.054637 0.483995 0.358433 0 255 0
0.594363 0.363033 0.035184 0 255 0
-0.180431 0.363685 0.242093 0 255 0
0.581009 0.123715 0.166514 0 255 0
0.306019 -0.142941 0.359898 204 51 127
0.228588 -0.153139 -0.481236 0 255 0
-0.464603 0.325092 0.272655 0 255 0
0.629909 0.092308 -0.151627 0 255 0
-0.322978 -0.318535 -0.064746 0 255 0
0.453619 0.362870 0.384942 204 51 127
-0.641998 -0.351420 -0.149188 0 255 0
-0.215497 0.072895 0.385103 0 0 255
-0.141440 -0.410048 0.102033 0 255 0
0.167791 0.205866 0.389222 204 51 127
0.379312 -0.410048 0.197437 0 255 0
-0.043256 0.424804 0.409846 153 0 76
-0.644632 0.111988 0.313441 0 255 0
-0.525573 0.325099 0.238844 0 255 0
0.179239 0.325092 -0.117379 0 255 0
0.369542 -0.318535 0.091880 0 255 0
-0.352079 -0.003523 0.385335 0 0 255
0.072362 -0.024315 0.386104 0 0 255
0.630191 0.199936 -0.445038 0 255 0
-0.151431 0.325098 -0.417115 0 255 0
0.630193 -0.133892 0.227848 0 255 0
-0.559628 -0.294420 0.408380 204 51 127
0.416801 -0.410048 -0.129187 0 255 0
0.581009 0.148653 -0.372248 0 255 0
-0.588764 -0.085471 -0.340580 0 255 0
-0.432045 -0.410047 -0.446804 0 255 0
0.581186 0.283824 0.121562 0 255 0
0.402794 -0.282237 -0.475899 0 255 0
0.581009 0.215183 -0.148693 0 255 0
-0.641998 0.055389 -0.100098 0 255 0
-0.301242 -0.110169 0.359898 204 51 127
-0.652120 0.330679 0.332580 0 255 0
0.492773 0.364688 -0.297290 0 255 0
0.629756 0.322415 0.110827 0 255 0
-0.036964 0.311894 0.359898 204 51 127
-0.502453 -0.410048 -0.221913 0 255 0
0.121048 -0.410048 -0.095641 0 255 0
-0.037874 0.364413 -0.374770 0 255 0
0.084068 0.325092 -0.160766 0 255 0
0.448844 -0.022763 0.359898 204 51 127
-0.363540 -0.319030 -0.369356 0 255 0
-0.447399 0.364688 -0.389702 0 255 0
-0.305661 -0.410048 -0.124384 0 255 0
0.152714 0.005624 0.386104 0 0 255
0.629190 0.211750 -0.173668 0 255 0
-0.370744 0.582046 0.409846 0 255 0
-0.334824 0.325092 0.163000 0 255 0
-0.006581 -0.319230 -0.403220 0 255 0
-0.155299 -0.053646 0.359898 204 51 127
0.580612 -0.152089 -0.437013 0 255 0
0.289571 0.364688 0.051834 0 255 0
-0.608765 0.359633 0.362850 204 51 127
0.386553 0.118371 0.386103 0 0 255
0.581086 0.271059 -0.071216 0 255 0
0.345371 -0.319020 0.321384 0 255 0
0.124707 -0.410048 -0.344840 0 255 0
0.348730 -0.318535 -0.016607 0 255 0
-0.596230 -0.269697 -0.499187 0 255 0
0.571001 0.122693 0.408380 204 51 127
0.553763 0.252166 0.408380 204 51 127
-0.436215 -0.258978 0.406917 204 51 127
-0.234654 -0.157793 0.359898 204 51 127
0.556661 -0.403454 0.349504 0 255 0
-0.517529 0.364688 -0.345799 0 255 0
-0.469077 0.325092 -0.385193 0 255 0
0.630193 0.182258 0.072609 0 255 0
0.409950 -0.314576 -0.438961 0 255 0
-0.080799 -0.410048 0.199367 0 255 0
-0.236866 -0.409905 0.322241 0 255 0
-0.562555 -0.171381 -0.480700 0 255 0
0.251187 0.024107 0.359898 204 51 127
0.129330 -0.410048 -0.059400 0 255 0
-0.370871 0.065836 0.359898 204 51 127
0.309653 -0.410048 0.105303 0 255 0
-0.528931 0.324098 -0.499177 0 255 0
-0.047996 0.570839 0.409846 0 255 0
-0.527921 0.325100 -0.289409 0 255 0
0.640262 -0.021743 0.364676 0 255 0
0.229132 -0.158666 0.385198 0 0 255
0.558716 -0.410048 0.051004 0 255 0
0.390780 0.298008 0.407380 204 51 127
0.630193 -0.123009 -0.211374 0 255 0
-0.641998 0.109451 0.117823 0 255 0
0.630193 0.172403 0.254885 0 255 0
-0.129051 0.363112 0.380557 204 51 127
0.201594 -0.319537 0.156184 0 255 0
-0.595146 0.151480 -0.499198 0 255 0
-0.454712 0.638863 0.378164 0 255 0
-0.251500 -0.017679 0.359898 204 51 127
0.422553 0.577432 0.409846 0 255 0
0.039739 0.364540 0.090920 0 255 0
0.060652 -0.410048 -0.234471 0 255 0
-0.026515 -0.318634 0.254544 0 255 0
0.110686 -0.152582 0.359898 204 51 127
0.581009 0.025953 -0.239722 0 255 0
0.630193 0.239740 0.146997 0 255 0
-0.598620 -0.409970 -0.168004 0 255 0
-0.119839 -0.214166 -0.499230 0 255 0
0.225029 -0.301588 -0.499230 0 255 0
-0.023814 0.325092 -0.000204 0 255 0
0.353703 -0.318535 -0.251879 0 255 0
-0.316164 0.355285 0.360418 204 51 127
0.187998 -0.314193 0.408380 204 51 127
0.049491 -0.339644 -0.499229 0 255 0
-0.166066 0.153276 -0.481236 0 255 0
0.370261 -0.398013 0.360191 204 51 127
-0.588766 0.249226 0.069264 0 255 0
-0.554670 -0.312221 -0.079490 0 255 0
-0.518828 -0.166187 0.405934 204 51 127
-0.588929 -0.222310 0.171649 0 255 0
0.260765 -0.400864 0.360636 204 51 127
0.070012 -0.359686 0.364929 0 255 0
-0.472144 0.440392 0.409826 0 255 0
-0.641998 -0.308550 -0.307845 0 255 0
-0.084599 -0.182932 0.359898 204 51 127
0.320910 0.364688 0.251510 0 255 0
-0.068179 0.363645 -0.480644 0 255 0
0.283119 -0.142616 -0.499230 0 255 0
0.109907 0.194598 0.359898 204 51 127
0.096896 -0.337774 0.409186 204 51 127
-0.003572 0.325100 -0.423247 0 255 0
0.195913 -0.318535 -0.079083 0 255 0
-0.069335 -0.134562 0.359898 204 51 127
-0.272127 0.159534 -0.481236 0 255 0
0.112465 -0.319530 0.071285 0 255 0
-0.201958 0.325092 -0.271800 0 255 0
0.570225 0.311620 0.181635 0 255 0
0.541537 -0.312979 0.199430 0 255 0
-0.241851 -0.318535 0.172824 0 255 0
0.026676 -0.165659 0.359898 204 51 127
-0.588865 0.205712 -0.296414 0 255 0
0.581057 0.267413 0.261943 0 255 0
0.630193 0.204311 0.105621 0 255 0
-0.488989 -0.048052 0.359898 204 51 127
-0.078910 0.325092 0.051244 0 255 0
0.439413 -0.129683 0.359898 204 51 127
-0.434266 -0.410048 0.266291 0 255 0
-0.641998 -0.234573 -0.029483 0 255 0
-0.033761 0.325092 0.059592 0 255 0
0.305564 0.128606 0.359898 204 51 127
-0.588763 -0.122093 -0.224635 0 255 0
0.581009 0.193565 0.019233 0 255 0
0.145428 0.344007 0.359907 204 51 127
-0.588765 -0.057385 -0.252724 0 255 0
0.381816 0.566684 0.358433 0 255 0
-0.126157 0.003424 0.385177 0 0 255
0.099273 0.194152 -0.499230 0 255 0
0.174398 0.325092 -0.014917 0 255 0
-0.506346 -0.103700 0.393710 204 51 127
0.437427 -0.318535 0.074758 0 255 0
-0.365116 -0.230922 0.386472 0 0 255
0.581008 0.253783 -0.370252 0 255 0
0.629190 0.299084 -0.158349 0 255 0
-0.632853 0.559737 0.409359 0 255 0
-0.590023 -0.079252 -0.499230 0 255 0
0.364268 0.325092 0.278050 0 255 0
-0.612049 0.523847 0.409402 0 255 0
0.581009 0.001778 -0.013581 0 255 0
0.513959 -0.410047 -0.441948 0 255 0
0.552010 0.364688 0.177015 0 255 0
-0.492672 -0.318535 0.214015 0 255 0
0.330856 0.043308 0.359898 204 51 127
0.663138 0.587969 0.381880 0 255 0
-0.114076 0.363685 0.256592 0 255 0
0.120632 -0.410048 0.095994 0 255 0
-0.040079 0.325092 0.239374 0 255 0
0.264330 0.154686 -0.481236 0 255 0
0.629335 0.313094 -0.090433 0 255 0
-0.090522 -0.297343 0.359898 204 51 127
-0.214617 0.363794 0.119567 0 255 0
0.255385 0.014013 -0.481236 0 255 0
-0.641998 -0.259370 -0.336266 0 255 0
0.555299 0.208165 -0.499230 0 255 0
-0.271493 0.364688 -0.354550 0 255 0
-0.493264 0.561377 0.409846 0 255 0
0.526417 0.324690 0.145335 0 255 0
-0.435498 -0.212628 0.359898 204 51 127
-0.187422 0.364688 -0.268484 0 255 0
-0.641998 -0.341666 -0.184768 0 255 0
-0.243055 -0.312919 -0.447157 0 255 0
0.581009 -0.154198 -0.147898 0 255 0
-0.588764 -0.178782 -0.074410 0 255 0
-0.071802 -0.318535 0.049054 0 255 0
-0.589975 0.127354 -0.447871 0 255 0
0.019174 0.312369 -0.499225 0 255 0
0.122591 -0.319537 0.151369 0 255 0
0.037990 0.364449 -0.124279 0 255 0
-0.588764 0.167626 -0.109286 0 255 0
-0.240912 -0.206168 -0.481235 0 255 0
-0.367203 -0.410048 0.302997 0 255 0
-0.186536 0.248768 0.385484 204 51 127
-0.013799 0.344211 -0.498864 0 255 0
-0.343323 -0.178728 0.359898 204 51 127
-0.641998 0.063861 -0.202496 0 255 0
0.142348 -0.388338 -0.497154 0 255 0
-0.134579 0.364688 -0.319000 0 255 0
0.360530 -0.334815 0.360427 0 255 0
0.513716 -0.410048 -0.244318 0 255 0
0.630151 -0.024852 -0.059732 0 255 0
-0.247530 0.325092 0.006175 0 255 0
0.026567 0.096579 -0.481236 0 255 0
-0.343379 -0.410048 -0.428169 0 255 0
-0.167225 0.309645 0.359898 204 51 127
0.630206 -0.267206 0.359898 204 51 127
0.017271 0.218565 0.402828 204 51 127
-0.478084 0.271133 0.359898 204 51 127
0.470432 0.220842 0.398700 204 51 127
0.629846 -0.140723 -0.072848 0 255 0
-0.336764 0.323050 -0.449700 0 255 0
-0.266115 0.006819 0.385103 0 0 255
0.624207 -0.397054 -0.288577 0 255 0
-0.585103 0.311897 0.226363 0 255 0
0.630155 0.235016 0.282892 0 255 0
0.562854 0.166740 -0.475810 0 255 0
0.385284 0.363871 -0.478965 0 255 0
-0.176358 -0.020053 -0.499230 0 255 0
0.118949 -0.410048 0.260185 0 255 0
-0.168107 0.325092 -0.086201 0 255 0
0.408924 0.113073 0.359898 204 51 127
-0.272117 -0.319537 -0.366770 0 255 0
-0.387866 0.325092 0.090966 0 255 0
-0.448086 -0.023728 -0.481236 0 255 0
0.438433 0.325092 0.251475 0 255 0
0.409918 0.364688 -0.121533 0 255 0
0.314423 0.325092 0.134835 0 255 0
0.042857 -0.319425 0.202006 0 255 0
0.056893 0.157097 0.359898 204 51 127
0.155480 -0.041290 -0.481236 0 255 0
0.624930 0.266928 0.359898 204 51 127
-0.587850 0.298239 -0.445380 0 255 0
-0.103060 -0.408494 0.373918 204 51 127
0.456326 -0.250687 0.359898 204 51 127
0.206230 0.635243 0.395767 0 255 0
0.559575 0.324576 0.406957 204 51 127
0.553058 0.553182 0.409835 0 255 0
0.315231 0.364688 0.181296 0 255 0
0.237858 -0.410048 -0.272215 0 255 0
0.001351 0.364102 0.085785 0 255 0
0.425153 -0.313710 0.359898 204 51 127
-0.261675 -0.243681 0.359898 204 51 127
-0.641998 0.168492 0.188191 0 255 0
0.049818 0.364655 0.211944 0 255 0
0.379499 -0.410048 0.099923 0 255 0
-0.062200 0.325092 -0.031740 0 255 0
0.445981 0.364688 0.082425 0 255 0
-0.638833 0.350121 -0.387413 0 255 0
-0.031924 -0.124331 0.386104 0 0 255
-0.604686 0.364463 0.084315 0 255 0
0.478337 0.325092 0.019541 0 255 0
0.321691 -0.054214 0.385103 0 0 255
0.472470 0.213651 -0.481236 0 255 0
-0.163585 0.325092 -0.002636 0 255 0
0.180758 0.364688 0.259992 0 255 0
-0.291948 0.364688 -0.172461 0 255 0
0.581009 0.106315 -0.264708 0 255 0
-0.494733 -0.212822 0.359898 204 51 127
-0.198078 0.498799 0.358433 0 255 0
-0.504782 0.364688 -0.059910 0 255 0
-0.241870 0.361238 -0.487341 0 255 0
-0.026207 -0.409936 -0.463152 0 255 0
0.581009 -0.219563 0.208019 0 255 0
-0.275148 0.066808 0.359898 204 51 127
-0.552620 0.364688 0.014759 0 255 0
-0.588909 0.116812 -0.156608 0 255 0
-0.467246 -0.341622 -0.499229 0 255 0
-0.610014 0.174436 0.408380 204 51 127
0.630191 0.290408 -0.012091 0 255 0
0.245039 0.364682 0.278623 0 255 0
0.492900 0.134507 0.359898 204 51 127
0.573062 -0.410047 0.146011 0 255 0
-0.235356 0.016629 -0.481236 0 255 0
-0.510580 -0.407771 0.368968 204 51 127
-0.399739 0.364538 0.165397 0 255 0
-0.256759 -0.410048 0.178664 0 255 0
-0.325949 0.364688 -0.078191 0 255 0
-0.519150 -0.318571 0.248293 0 255 0
-0.555108 -0.174564 0.359898 204 51 127
-0.557485 0.364688 0.056786 0 255 0
-0.310315 0.202190 0.359898 204 51 127
-0.571848 -0.052590 -0.473736 0 255 0
0.461429 -0.045508 -0.499230 0 255 0
0.356556 -0.163350 0.359898 204 51 127
-0.589228 -0.105172 0.078381 0 255 0
-0.665098 0.348403 0.407211 204 51 127
0.056731 -0.290021 -0.499230 0 255 0
-0.055772 -0.318535 0.146625 0 255 0
0.131897 0.111512 0.359898 204 51 127
0.530867 0.376645 0.328808 0 255 0
0.084901 0.107859 0.359898 204 51 127
0.484113 -0.409883 0.324578 0 255 0
0.063889 -0.410048 -0.136469 0 255 0
0.600991 -0.107309 0.407380 204 51 127
-0.556511 -0.311682 -0.297657 0 255 0
-0.304713 0.167298 0.385435 0 0 255
0.328971 0.325092 -0.168508 0 255 0
0.350376 -0.410048 -0.370305 0 255 0
-0.429366 -0.408485 0.372714 204 51 127
-0.102513 0.046471 -0.499230 0 255 0
-0.038594 -0.306658 -0.499230 0 255 0
-0.513654 0.111199 0.401202 204 51 127
-0.641998 0.094556 -0.324812 0 255 0
-0.641998 -0.328143 -0.398581 0 255 0
0.581009 -0.143651 -0.263974 0 255 0
-0.490081 -0.318535 0.081130 0 255 0
-0.258340 -0.318535 0.259902 0 255 0
-0.295797 -0.410048 -0.383622 0 255 0
-0.220085 -0.410048 0.042018 0 255 0
-0.333762 0.364688 -0.281204 0 255 0
0.299474 0.325092 0.050687 0 255 0
-0.053294 0.364560 -0.225354 0 255 0
0.510565 0.325101 -0.409773 0 255 0
0.641341 -0.068743 0.359967 204 51 127
-0.589759 -0.031156 0.214340 0 255 0
-0.279594 -0.410048 -0.260000 0 255 0
0.598341 -0.243746 -0.498930 0 255 0
0.451357 0.065422 -0.481236 0 255 0
-0.621291 -0.074820 0.359898 204 51 127
-0.326374 -0.318535 0.003081 0 255 0
-0.157313 -0.318535 0.011887 0 255 0
-0.601586 -0.002207 0.356246 0 255 0
-0.588764 0.212139 0.240210 0 255 0
-0.081732 0.364688 -0.118845 0 255 0
-0.548128 0.364688 -0.034294 0 255 0
-0.448510 0.015948 0.385509 0 0 255
-0.144657 -0.067180 -0.481236 0 255 0
0.630188 0.111733 0.278319 0 255 0
0.543961 0.364688 -0.069586 0 255 0
-0.588765 -0.146087 -0.000470 0 255 0
0.292162 -0.410048 0.141177 0 255 0
-0.243431 0.038008 0.359898 204 51 127
-0.103218 0.325092 0.251709 0 255 0
0.630193 -0.007194 -0.338778 0 255 0
-0.346039 0.325092 -0.381194 0 255 0
-0.157093 0.081515 0.359898 204 51 127
0.545352 0.323163 0.041494 0 255 0
0.133053 -0.410048 -0.228036 0 255 0
-0.236733 0.361612 0.365766 204 51 127
0.400433 0.513536 0.409846 0 255 0
0.337891 0.325092 -0.001964 0 255 0
0.471914 0.029202 0.359898 204 51 127
-0.387963 -0.070294 0.386104 0 0 255
-0.641998 0.107109 -0.197513 0 255 0
-0.010383 0.460989 0.358439 0 255 0
0.630193 0.279215 0.274479 0 255 0
-0.063638 0.364683 -0.161591 0 255 0
0.160800 0.328601 -0.499129 0 255 0
-0.328603 -0.008592 -0.481236 0 255 0
-0.641997 0.251508 -0.438091 0 255 0
-0.508865 -0.014594 0.395422 204 51 127
0.042681 0.006124 -0.481236 0 255 0
-0.588411 -0.242594 0.030778 0 255 0
0.150207 0.426751 0.409846 0 127 127
-0.588764 0.250860 -0.271475 0 255 0
0.630193 -0.305820 -0.398949 0 255 0
0.629191 0.256991 -0.165595 0 255 0
-0.182758 0.364688 -0.408979 0 255 0
-0.641902 0.148981 0.292995 0 255 0
0.661074 0.279966 0.392573 204 51 127
-0.110769 0.168242 -0.499230 0 255 0
0.310668 0.012452 0.359898 204 51 127
0.005230 -0.299491 0.359898 204 51 127
0.627486 0.330959 -0.145991 0 255 0
-0.589495 0.001169 0.071249 0 255 0
0.392950 0.325092 -0.189409 0 255 0
-0.577085 0.318273 -0.342868 0 255 0
-0.078716 0.325092 -0.169951 0 255 0
-0.042797 0.006886 0.359898 204 51 127
-0.478041 0.191075 -0.481236 0 255 0
0.196309 0.325092 0.211223 0 255 0
0.278429 -0.318535 0.026460 0 255 0
0.107707 0.325092 -0.330956 0 255 0
-0.641998 0.270422 0.122531 0 255 0
-0.461039 0.325092 0.094856 0 255 0
-0.286102 -0.410048 -0.206108 0 255 0
-0.205253 -0.218251 0.385274 0 0 255
-0.370941 -0.180783 -0.499230 0 255 0
0.581009 0.169469 -0.164706 0 255 0
0.468031 -0.410048 0.015819 0 255 0
-0.419987 0.097617 -0.499230 0 255 0
0.547810 0.076657 0.408380 204 51 127
0.581009 -0.128385 0.243545 0 255 0
-0.146709 0.257499 0.359898 204 51 127
-0.641761 -0.369185 -0.029349 0 255 0
-0.641998 0.190825 0.272853 0 255 0
0.180194 0.121584 0.359898 204 51 127
-0.346655 0.364688 -0.122435 0 255 0
-0.432937 0.225770 -0.499230 0 255 0
0.282013 0.073166 0.386103 0 0 255
-0.261117 0.597229 0.358515 0 255 0
-0.588765 -0.083404 -0.033145 0 255 0
0.630193 0.069779 0.040877 0 255 0
0.228421 0.271850 0.359898 204 51 127
-0.287498 0.088607 0.385103 0 0 255
0.630193 0.201220 -0.379272 0 255 0
-0.453123 0.439762 0.358461 0 255 0
0.581009 0.220937 0.208581 0 255 0
-0.622996 0.014843 0.407379 204 51 127
-0.641998 -0.309537 0.031958 0 255 0
0.630193 -0.112619 0.183819 0 255 0
-0.641998 -0.217856 -0.071732 0 255 0
0.581009 -0.128957 -0.086260 0 255 0
0.581009 -0.225456 -0.151712 0 255 0
-0.501036 -0.124587 0.359898 204 51 127
0.222141 0.296151 0.407459 204 51 127
-0.490661 0.325092 -0.247093 0 255 0
-0.333846 0.232211 -0.481236 0 255 0
0.149702 0.425806 0.355792 0 255 0
0.630193 -0.308902 -0.309444 0 255 0
-0.641995 0.313594 -0.412506 0 255 0
-0.183027 0.198986 -0.499230 0 255 0
0.085672 -0.318546 -0.401114 0 255 0
0.093819 -0.305926 -0.458389 0 255 0
-0.271109 -0.410048 0.036752 0 255 0
-0.541081 -0.107084 -0.499230 0 255 0
-0.595388 0.216608 0.359898 204 51 127
-0.623157 -0.313580 0.407620 204 51 127
-0.641998 -0.105543 -0.227011 0 255 0
-0.394555 0.241002 -0.499230 0 255 0
-0.588766 0.253664 0.166836 0 255 0
-0.473876 0.045898 -0.499230 0 255 0
-0.204236 -0.265568 -0.481484 0 255 0
0.581009 -0.137511 -0.002304 0 255 0
-0.213121 -0.410048 -0.335550 0 255 0
-0.074255 0.482302 0.358433 0 255 0
-0.031640 0.364480 -0.189834 0 255 0
-0.589758 -0.031065 0.087253 0 255 0
0.633936 -0.043416 0.407574 204 51 127
0.159745 0.325092 -0.313340 0 255 0
0.598376 0.372199 0.320846 0 255 0
0.074777 -0.022523 -0.481236 0 255 0
0.134387 0.387591 0.409498 0 255 0
0.581009 -0.054652 0.142720 0 255 0
0.434194 -0.248918 -0.481355 0 255 0
-0.473566 0.364688 -0.027231 0 255 0
-0.399199 -0.177541 0.385913 0 0 255
-0.569037 0.296683 -0.477765 0 255 0
0.161074 0.482041 0.409846 76 153 0
-0.134637 -0.319538 -0.256935 0 255 0
0.228205 -0.318572 -0.412153 0 255 0
0.288239 -0.318535 -0.040414 0 255 0
0.236254 -0.056013 0.385103 0 0 255
0.340987 -0.202692 0.386104 0 0 255
-0.233265 0.363685 0.186641 0 255 0
0.429434 0.230573 0.359898 204 51 127
-0.052317 -0.401054 0.360743 204 51 127
-0.034615 0.358394 0.394915 0 255 0
-0.589077 0.053435 0.267958 0 255 0
0.015077 0.364259 0.015253 0 255 0
-0.210218 0.125339 -0.481236 0 255 0
0.266623 -0.318714 0.107192 0 255 0
0.232427 0.531123 0.409845 0 255 0
0.185787 -0.410048 -0.231570 0 255 0
-0.588764 -0.185164 -0.036866 0 255 0
-0.641998 -0.234462 0.083598 0 255 0
0.086456 0.364688 0.007724 0 255 0
0.061993 0.427793 0.356258 0 255 0
0.440141 -0.377932 0.359898 204 51 127
0.019600 -0.409733 -0.478327 0 255 0
-0.088279 0.375475 0.328026 0 255 0
-0.641998 0.178177 0.109519 0 255 0
-0.213801 0.303577 -0.476072 0 255 0
-0.589709 0.096058 -0.339197 0 255 0
-0.170304 0.325092 -0.322011 0 255 0
0.436437 -0.410048 -0.251433 0 255 0
-0.550018 -0.313584 0.184437 0 255 0
-0.098603 -0.318535 0.302829 0 255 0
-0.588983 -0.232623 0.093831 0 255 0
0.032082 0.325092 0.074823 0 255 0
0.577198 0.364687 -0.130670 0 255 0
-0.616181 -0.238908 -0.498994 0 255 0
-0.303240 -0.356704 0.364912 0 255 0
-0.410744 -0.299709 0.408380 204 51 127
0.078434 -0.241244 0.359898 204 51 127
0.630193 0.104411 -0.234277 0 255 0
-0.403751 -0.410048 -0.249896 0 255 0
0.173350 0.010617 0.359898 204 51 127
0.581009 0.013776 0.027646 0 255 0
0.410298 -0.136554 -0.499230 0 255 0
-0.570385 -0.204919 -0.472377 0 255 0
0.251397 0.205861 0.389220 204 51 127
-0.665915 -0.375526 0.361588 204 51 127
0.161030 -0.169030 0.385434 0 0 255
0.084830 -0.319537 0.121911 0 255 0
0.012835 0.428882 0.356540 0 255 0
0.140056 0.315416 -0.465674 0 255 0
0.154750 0.252645 0.384963 204 51 127
-0.395867 -0.141248 0.386104 0 0 255
-0.143191 -0.410048 0.233100 0 255 0
0.412513 0.364688 0.143694 0 255 0
-0.386120 0.308586 -0.473973 0 255 0
-0.131737 0.364688 -0.182233 0 255 0
-0.123594 0.364688 -0.418907 0 255 0
0.581009 -0.060112 -0.317366 0 255 0
0.630016 -0.268771 0.251701 0 255 0
0.576956 0.364687 0.148422 0 255 0
-0.588838 -0.050332 -0.396115 0 255 0
0.443134 -0.215411 0.386082 0 0 255
0.084743 -0.060397 0.386104 0 0 255
-0.641998 -0.287445 -0.374965 0 255 0
0.656712 0.617817 0.366549 0 255 0
-0.518058 -0.289223 -0.499230 0 255 0
0.556102 -0.305953 0.273284 0 255 0
0.315881 -0.014577 0.385621 0 0 255
0.251459 0.326899 0.339297 0 255 0
-0.388077 -0.382219 0.407618 204 51 127
0.233803 -0.318535 -0.072414 0 255 0
-0.331582 0.288709 0.407465 204 51 127
-0.013457 -0.410048 -0.242090 0 255 0
0.581009 0.231970 0.253308 0 255 0
-0.426502 -0.318535 0.095074 0 255 0
-0.641998 -0.295748 0.184075 0 255 0
0.630190 0.316361 0.183647 0 255 0
-0.429066 0.364688 -0.235449 0 255 0
0.006591 0.326442 0.338126 0 255 0
0.500150 -0.410048 0.247156 0 255 0
-0.435665 -0.137490 0.359898 204 51 127
0.132830 0.311282 0.407379 204 51 127
-0.099126 -0.026970 -0.499230 0 255 0
0.581009 -0.210721 0.160378 0 255 0
0.581009 -0.160629 0.174931 0 255 0
-0.043158 -0.156368 0.386104 0 0 255
-0.641998 -0.005190 -0.089749 0 255 0
0.177112 0.222450 -0.499230 0 255 0
-0.557179 -0.410048 -0.055717 0 255 0
0.557592 -0.410048 -0.352938 0 255 0
0.301727 -0.318535 -0.188268 0 255 0
0.235445 -0.410048 -0.126159 0 255 0
0.346362 -0.096988 -0.499230 0 255 0
0.619041 0.331753 0.408369 204 51 127
0.630193 0.156323 -0.330071 0 255 0
-0.288541 0.364470 0.090221 0 255 0
-0.050146 0.363685 0.110617 0 255 0
0.581009 0.051482 -0.149040 0 255 0
0.150239 0.627578 0.405191 0 255 0
0.630193 -0.242154 -0.278071 0 255 0
-0.138327 0.283769 -0.499230 0 255 0
-0.641998 0.174091 -0.017177 0 255 0
-0.377326 -0.183533 0.359898 204 51 127
-0.641998 0.070230 0.263064 0 255 0
0.278339 0.363891 -0.349001 0 255 0
0.626292 0.634638 0.396591 0 255 0
0.581009 0.178742 -0.259550 0 255 0
0.060688 0.325092 -0.082779 0 255 0
-0.176081 -0.410048 -0.150033 0 255 0
0.277864 0.040071 -0.481236 0 255 0
-0.589438 -0.160446 0.308119 0 255 0
-0.283396 0.363685 0.231546 0 255 0
-0.638849 0.350098 0.139897 0 255 0
0.605346 -0.040164 -0.498816 0 255 0
0.465182 0.364688 -0.337441 0 255 0
0.058335 -0.319538 0.063154 0 255 0
-0.092064 0.584664 0.358440 0 255 0
0.392443 -0.318535 0.124327 0 255 0
-0.323316 0.301022 -0.499228 0 255 0
0.392627 0.175635 0.359898 204 51 127
-0.077264 -0.410048 -0.064962 0 255 0
0.448626 0.364688 -0.303618 0 255 0
-0.404477 -0.288820 -0.473775 0 255 0
0.630193 -0.064687 0.230302 0 255 0
-0.045597 -0.319537 -0.393364 0 255 0
0.007380 -0.099373 -0.481236 0 255 0
0.022954 0.363917 -0.231250 0 255 0
0.629550 -0.239067 0.149076 0 255 0
-0.325248 0.363608 0.292224 0 255 0
-0.641998 -0.150092 -0.044770 0 255 0
-0.351580 0.172941 -0.499230 0 255 0
-0.152748 -0.167758 0.359898 204 51 127
0.474792 0.364969 0.307185 0 255 0
0.580444 0.364637 0.068317 0 255 0
0.132409 0.363685 -0.395190 0 255 0
0.060313 -0.410048 0.100572 0 255 0
-0.256285 0.364688 -0.273926 0 255 0
0.464549 -0.036958 0.386082 0 0 255
0.231216 -0.410048 0.169129 0 255 0
0.629681 -0.379469 -0.087733 0 255 0
0.560780 0.356951 -0.494539 0 255 0
0.078905 0.126457 -0.499230 0 255 0
-0.075764 -0.318535 0.184427 0 255 0
0.658975 0.131363 0.400897 204 51 127
0.629387 0.290890 -0.311154 0 255 0
-0.641998 -0.109287 -0.340178 0 255 0
0.485627 0.364688 0.167687 0 255 0
-0.054561 -0.319517 -0.187401 0 255 0
0.278289 -0.410048 -0.352822 0 255 0
0.148362 0.538532 0.358433 0 255 0
0.489783 0.325092 -0.067722 0 255 0
-0.322490 0.394872 0.344913 0 255 0
0.384633 0.364688 0.226703 0 255 0
0.257539 -0.410048 -0.034526 0 255 0
0.345080 0.363728 -0.429239 0 255 0
0.100394 -0.236258 -0.481235 0 255 0
0.533848 0.364688 0.211385 0 255 0
-0.397088 -0.410048 0.084700 0 255 0
-0.357205 0.364671 0.104631 0 255 0
-0.644661 0.061797 0.359898 204 51 127
0.515041 -0.318577 -0.010483 0 255 0
-0.588764 0.151211 0.139654 0 255 0
-0.085788 -0.367412 0.407967 204 51 127
0.530237 0.219261 0.408351 204 51 127
0.578347 0.419561 0.354328 0 255 0
-0.172409 -0.272119 0.359898 204 51 127
-0.195184 0.093322 -0.481236 0 255 0
-0.344009 0.364688 -0.427927 0 255 0
0.292346 0.364467 -0.286448 0 255 0
0.458686 0.405525 0.351038 0 255 0
-0.264506 0.606537 0.409645 0 255 0
0.077906 0.140339 0.385480 0 0 255
0.572589 -0.288947 -0.025377 0 255 0
0.029140 -0.315662 -0.435953 0 255 0
0.581009 0.070824 0.061746 0 255 0
0.019196 -0.008432 0.359898 204 51 127
0.162627 0.473726 0.358433 0 255 0
-0.126641 0.325092 0.080278 0 255 0
0.164868 0.325507 0.332660 0 255 0
-0.072160 -0.410048 0.079879 0 255 0
0.566789 0.076780 -0.474049 0 255 0
0.549014 -0.320621 0.357941 0 255 0
-0.073965 -0.410048 -0.286029 0 255 0
0.263968 0.081760 -0.481236 0 255 0
-0.375545 -0.410048 0.113103 0 255 0
0.404466 -0.122975 0.359898 204 51 127
-0.054088 -0.127415 -0.481236 0 255 0
0.116294 -0.219589 0.359898 204 51 127
-0.016292 -0.402562 0.351460 0 255 0
-0.618602 -0.397580 -0.493170 0 255 0
0.173934 0.381440 0.334996 0 255 0
0.461380 -0.318535 -0.042938 0 255 0
0.310273 0.325092 -0.248121 0 255 0
-0.342489 -0.318535 0.099467 0 255 0
0.620778 -0.320960 0.407631 204 51 127
0.383267 -0.292530 0.407572 204 51 127
0.581009 0.198051 -0.331792 0 255 0
-0.153090 -0.286969 0.408380 204 51 127
-0.478533 -0.410048 -0.149645 0 255 0
0.153663 0.057685 -0.499230 0 255 0
0.482937 0.082868 0.388080 0 0 255
-0.588647 0.038737 -0.456329 0 255 0
-0.413864 -0.094862 0.386104 0 0 255
0.185759 -0.269553 0.359898 204 51 127
-0.246162 -0.206715 0.359898 204 51 127
0.028553 -0.060204 -0.481236 0 255 0
-0.102372 -0.103411 0.359898 204 51 127
-0.558567 0.270925 -0.499230 0 255 0
-0.060211 -0.189453 0.385770 0 0 255
-0.215056 -0.318535 -0.117683 0 255 0
0.629753 -0.381563 -0.400466 0 255 0
-0.641997 0.294507 0.192151 0 255 0
0.562735 0.364614 0.289788 0 255 0
0.431427 0.325092 -0.125293 0 255 0
-0.519573 0.364688 -0.150963 0 255 0
0.163241 -0.182143 -0.499230 0 255 0
0.120462 0.533920 0.409731 0 255 0
-0.659070 0.232572 0.345312 0 255 0
0.385255 0.264523 -0.481266 0 255 0
0.296329 0.325092 -0.017370 0 255 0
-0.427538 0.061466 0.385103 0 0 255
-0.588765 -0.088159 -0.115979 0 255 0
0.479541 -0.318569 -0.410758 0 255 0
-0.589764 -0.096422 0.275677 0 255 0
0.423166 -0.373794 0.408037 204 51 127
0.629431 -0.345949 0.011605 0 255 0
0.629191 -0.236722 0.001159 0 255 0
0.480717 -0.287611 -0.499230 0 255 0
-0.419406 -0.410048 0.174628 0 255 0
-0.306092 -0.318535 -0.261390 0 255 0
-0.270391 -0.191055 -0.499230 0 255 0
0.581009 -0.196622 0.097064 0 255 0
0.438203 -0.318535 -0.393613 0 255 0
0.567391 -0.295851 -0.310465 0 255 0
0.419142 0.205955 -0.499230 0 255 0
0.630038 -0.363767 -0.143930 0 255 0
0.630193 0.034911 0.261309 0 255 0
-0.271730 0.323884 -0.499179 0 255 0
-0.024384 0.173295 0.385809 0 0 255
0.450570 -0.410048 0.183148 0 255 0
0.274216 0.221720 0.359898 204 51 127
-0.239377 0.180126 -0.499230 0 255 0
-0.656017 -0.136195 0.339809 0 255 0
-0.641998 -0.234768 0.008519 0 255 0
-0.524804 -0.409961 0.316243 0 255 0
-0.514420 0.364688 -0.246653 0 255 0
-0.307278 -0.410048 -0.283350 0 255 0
0.456897 -0.358548 0.407689 204 51 127
-0.542550 0.324287 -0.420674 0 255 0
0.155537 0.619399 0.359638 0 255 0
0.170014 -0.320977 0.343010 0 255 0
-0.567547 0.364688 -0.361839 0 255 0
0.487241 -0.409920 -0.464326 0 255 0
0.629836 -0.330135 0.296519 0 255 0
-0.641998 -0.078208 -0.067702 0 255 0
0.184317 0.323805 -0.440570 0 255 0
0.630193 -0.087801 0.253646 0 255 0
0.132971 -0.406988 0.341760 0 255 0
0.407651 -0.186239 0.385826 0 0 255
-0.132239 -0.244490 -0.481311 0 255 0
0.059658 -0.319538 0.240829 0 255 0
-0.664633 0.408232 0.359538 0 255 0
0.049936 -0.318568 -0.363488 0 255 0
0.123775 -0.410048 -0.421696 0 255 0
-0.222541 -0.002221 0.359898 204 51 127
-0.554519 -0.312266 -0.397736 0 255 0
0.314280 -0.352465 0.364456 0 255 0
-0.588765 0.173058 0.045648 0 255 0
-0.481488 0.140117 0.386017 0 0 255
-0.641998 0.249450 0.148912 0 255 0
0.314677 0.441976 0.409640 0 255 0
0.034584 0.325092 -0.205265 0 255 0
0.319767 -0.237057 0.389842 0 0 255
0.630193 -0.089892 -0.218073 0 255 0
-0.337638 -0.318985 -0.342629 0 255 0
0.238600 0.492564 0.358433 0 255 0
-0.496055 0.005655 -0.481235 0 255 0
0.438405 -0.318540 -0.499230 0 255 0
-0.641860 -0.219785 0.299674 0 255 0
0.393636 -0.241303 0.359898 204 51 127
-0.271265 0.491158 0.409658 0 255 0
-0.559480 0.532994 0.358433 0 255 0
-0.496483 0.310939 -0.499226 0 255 0
-0.554656 0.017932 0.408380 204 51 127
-0.565155 -0.304614 -0.168623 0 255 0
0.449385 0.151125 0.359898 204 51 127
0.038726 0.364528 0.160499 0 255 0
-0.673554 0.444705 0.392358 0 255 0
-0.641998 0.021601 0.112012 0 255 0
0.038239 -0.319372 0.117680 0 255 0
0.288613 0.545914 0.409798 0 255 0
0.630193 -0.015758 -0.408764 0 255 0
-0.641998 0.055562 0.015594 0 255 0
-0.041477 0.041238 -0.481236 0 255 0
-0.376011 0.164613 0.359898 204 51 127
-0.210567 0.325092 0.066875 0 255 0
-0.124331 0.363685 0.204300 0 255 0
-0.387545 0.193022 0.385582 0 0 255
0.388947 0.629936 0.361039 0 255 0
-0.428610 0.154741 0.385435 0 0 255
0.066112 0.363685 -0.409672 0 255 0
0.169259 -0.319531 0.100672 0 255 0
-0.412699 0.264089 0.359898 204 51 127
0.303106 0.076928 0.359898 204 51 127
0.639922 0.311697 0.331474 0 255 0
-0.015572 0.095106 0.359898 204 51 127
0.440670 0.638626 0.390155 0 255 0
0.581010 -0.068189 -0.416814 0 255 0
0.319735 0.283435 -0.499230 0 255 0
0.630193 0.048822 0.191426 0 255 0
-0.237139 0.364688 -0.205794 0 255 0
-0.641530 -0.105978 -0.477950 0 255 0
-0.126927 0.364688 -0.103518 0 255 0
-0.243984 0.325092 0.236845 0 255 0
-0.316384 0.461061 0.358439 0 255 0
-0.202019 -0.410048 -0.077510 0 255 0
0.406719 0.325092 -0.391998 0 255 0
-0.641998 0.076353 -0.125122 0 255 0
-0.297077 -0.023048 0.385779 0 0 255
-0.206513 0.325092 -0.046096 0 255 0
0.603067 0.089433 0.359898 204 51 127
-0.287658 -0.380324 -0.498838 0 255 0
-0.589331 -0.218372 0.222181 0 255 0
-0.641934 -0.358162 0.146840 0 255 0
-0.673461 -0.310502 0.371433 204 51 127
-0.363716 -0.135550 0.359898 204 51 127
-0.251860 -0.336578 0.361080 0 255 0
0.130419 0.058159 0.359898 204 51 127
0.519194 -0.044514 -0.481236 0 255 0
0.580882 -0.100890 -0.429181 0 255 0
-0.113249 -0.195772 0.385824 0 0 255
0.287425 -0.197443 0.359898 204 51 127
0.157884 -0.315432 -0.436036 0 255 0
-0.183726 0.325092 -0.206586 0 255 0
-0.589063 -0.022847 -0.094927 0 255 0
0.113834 0.364688 0.253900 0 255 0
-0.080063 0.210966 -0.499230 0 255 0
-0.434737 0.364688 -0.098641 0 255 0
-0.226399 -0.318535 0.102107 0 255 0
0.341426 0.024644 -0.481236 0 255 0
-0.239756 0.325092 -0.391131 0 255 0
-0.280935 0.325092 0.199466 0 255 0
0.184197 0.364688 -0.057300 0 255 0
-0.088921 0.299637 0.359898 204 51 127
-0.397782 0.503348 0.358433 0 255 0
-0.061013 0.545422 0.358433 0 255 0
0.189821 -0.319537 0.276450 0 255 0
0.088055 0.229551 0.390265 204 51 127
-0.641989 -0.307640 0.279039 0 255 0
-0.641998 0.244949 -0.301461 0 255 0
-0.635965 0.337769 0.359899 204 51 127
-0.193725 0.325092 -0.119719 0 255 0
-0.641998 0.024738 0.217970 0 255 0
0.151872 -0.115668 0.385103 0 0 255
0.568888 0.312397 -0.055180 0 255 0
-0.096377 0.325092 0.305966 0 255 0
-0.572821 0.364688 -0.229759 0 255 0
0.449158 0.375301 0.326318 0 255 0
0.469522 0.117291 -0.481236 0 255 0
-0.337612 0.325222 0.320086 0 255 0
0.660755 0.163508 0.368881 204 51 127
-0.316636 0.066516 0.359898 204 51 127
0.032409 0.364572 -0.036076 0 255 0
-0.153168 0.363685 0.259963 0 255 0
0.284934 0.364688 -0.097584 0 255 0
-0.456725 0.325092 0.163540 0 255 0
0.102376 -0.318838 -0.003640 0 255 0
0.034173 0.362956 0.373431 204 51 127
-0.588764 0.268920 -0.237930 0 255 0
-0.565418 0.321567 -0.204343 0 255 0
0.570578 -0.410047 0.096846 0 255 0
-0.264755 0.387713 0.409500 0 255 0
-0.342985 0.633082 0.365315 0 255 0
0.170563 -0.066798 0.359898 204 51 127
-0.153002 -0.410048 -0.314051 0 255 0
-0.543243 0.610946 0.358597 0 255 0
0.630193 -0.198340 -0.197127 0 255 0
-0.489445 -0.410048 -0.039946 0 255 0
0.581011 0.104235 -0.421510 0 255 0
-0.588915 -0.207296 -0.384546 0 255 0
0.581009 0.051636 -0.038795 0 255 0
-0.177307 0.084296 0.385103 0 0 255
-0.529456 0.214893 -0.481235 0 255 0
-0.613268 0.364314 -0.110462 0 255 0
-0.641998 0.160936 -0.083214 0 255 0
0.579086 0.294332 -0.421447 0 255 0
-0.019978 0.054370 0.359898 204 51 127
0.086145 -0.130054 -0.499230 0 255 0
0.629527 -0.114485 -0.034721 0 255 0
0.488069 0.616300 0.359243 0 255 0
-0.542895 0.361748 0.403520 204 51 127
0.148621 0.363685 -0.337581 0 255 0
0.528480 0.364688 -0.228550 0 255 0
0.346364 -0.003934 0.359898 204 51 127
-0.568159 -0.302699 0.215226 0 255 0
-0.311376 -0.334127 -0.499230 0 255 0
-0.025154 -0.410048 -0.080135 0 255 0
0.569088 -0.294359 -0.184796 0 255 0
0.119821 0.325092 -0.061037 0 255 0
-0.203696 0.363685 0.166398 0 255 0
-0.129394 0.528279 0.409845 0 255 0
0.621117 -0.398692 -0.488227 0 255 0
-0.532235 -0.318601 -0.322986 0 255 0
-0.573026 -0.108373 0.407474 204 51 127
0.357987 -0.407871 0.394567 204 51 127
0.479042 0.364688 0.097406 0 255 0
-0.641998 -0.119651 -0.029406 0 255 0
-0.404346 0.325092 -0.294202 0 255 0
-0.487837 0.364688 -0.277994 0 255 0
-0.095468 0.325092 -0.019653 0 255 0
-0.292029 0.037362 0.359898 204 51 127
-0.269791 0.101782 0.359898 204 51 127
0.414254 -0.016701 0.359898 204 51 127
-0.032664 0.398662 0.347574 0 255 0
0.581009 -0.013216 -0.237856 0 255 0
0.558403 -0.304060 0.055427 0 255 0
-0.641998 0.145887 0.061810 0 255 0
0.630151 -0.237417 -0.099599 0 255 0
0.512753 0.349950 0.402701 204 51 127
-0.430935 0.325092 -0.086752 0 255 0
0.330136 0.600983 0.409695 0 255 0
-0.222237 0.364277 0.064635 0 255 0
0.585050 -0.409991 -0.250858 0 255 0
0.557302 0.610141 0.409596 0 255 0
-0.588909 0.089686 0.081580 0 255 0
-0.511953 -0.392210 0.407385 204 51 127
-0.313918 0.364688 -0.361508 0 255 0
0.632938 0.225092 0.313758 0 255 0
0.557579 0.298570 0.359898 204 51 127
0.232619 0.363685 -0.413197 0 255 0
0.373567 0.238497 0.386165 204 51 127
-0.005163 -0.318878 0.046152 0 255 0
0.308437 -0.087682 0.359898 204 51 127
0.085649 0.493910 0.358433 0 255 0
-0.589691 0.163098 -0.413303 0 255 0
0.581009 0.202765 -0.077106 0 255 0
-0.340462 0.111430 0.385103 0 0 255
0.101640 0.325092 -0.380673 0 255 0
-0.301976 -0.238710 0.389826 0 0 255
-0.050816 0.196389 0.385962 0 0 255
0.476759 -0.410048 -0.168563 0 255 0
-0.366575 -0.087199 0.359898 204 51 127
0.611234 0.205166 -0.497256 0 255 0
-0.033267 -0.410048 -0.133610 0 255 0
0.629768 0.203592 -0.052596 0 255 0
0.423508 0.325092 0.084984 0 255 0
0.461234 0.258481 -0.481236 0 255 0
0.629842 -0.124331 0.074276 0 255 0
-0.641998 -0.122058 -0.195376 0 255 0
0.278090 0.111848 0.359898 204 51 127
-0.361575 0.597903 0.358519 0 255 0
-0.356623 -0.317569 0.408380 204 51 127
0.630193 0.039716 -0.361532 0 255 0
-0.098070 0.261337 -0.499230 0 255 0
-0.157751 -0.130349 -0.499230 0 255 0
-0.140102 0.066024 0.385103 0 0 255
-0.223988 0.226425 0.359898 204 51 127
-0.588765 0.293011 0.164724 0 255 0
-0.479555 0.268253 -0.499230 0 255 0
0.106540 -0.409936 0.318884 0 255 0
0.315992 0.490052 0.358433 0 255 0
0.581009 -0.182825 -0.319483 0 255 0
0.344064 0.364688 0.102191 0 255 0
-0.603991 0.317406 -0.499107 0 255 0
0.481696 -0.392605 0.360019 204 51 127
0.630095 -0.206037 0.291264 0 255 0
-0.480791 0.364688 0.058785 0 255 0
0.630193 0.137057 0.256701 0 255 0
0.581009 -0.229969 -0.206410 0 255 0
-0.153683 0.325092 -0.290552 0 255 0
-0.155911 -0.035008 0.386052 0 0 255
-0.268208 0.325092 0.295471 0 255 0
-0.026629 -0.060564 0.359898 204 51 127
-0.494886 -0.318538 0.310209 0 255 0
-0.426063 -0.410048 -0.072785 0 255 0
-0.324069 0.165318 0.359898 204 51 127
-0.455620 0.408455 0.351813 0 255 0
-0.163687 0.364688 -0.369117 0 255 0
-0.477879 0.518659 0.409828 0 255 0
0.300427 -0.298098 0.359898 204 51 127
0.427457 -0.410048 -0.048894 0 255 0
-0.427394 -0.300773 -0.499230 0 255 0
-0.608415 0.364398 0.197507 0 255 0
-0.350691 0.270332 -0.499230 0 255 0
-0.082453 0.325098 -0.416488 0 255 0
-0.589105 0.090317 -0.073522 0 255 0
0.205046 0.325092 0.115694 0 255 0
0.581009 0.082509 -0.100215 0 255 0
-0.026367 -0.018882 -0.499230 0 255 0
-0.340548 -0.410048 -0.154603 0 255 0
0.334610 -0.125969 0.385103 0 0 255
-0.377861 0.467946 0.409293 0 255 0
-0.479182 -0.318535 0.046436 0 255 0
0.291348 0.295034 0.407484 204 51 127
0.507990 0.364688 -0.092285 0 255 0
0.586956 0.263853 0.408223 204 51 127
0.629219 0.151547 -0.100675 0 255 0
-0.214671 0.288308 0.407790 204 51 127
-0.574328 -0.410048 0.286014 0 255 0
-0.441313 -0.080741 0.359898 204 51 127
0.064079 -0.368107 -0.499021 0 255 0
0.405455 -0.318535 0.073896 0 255 0
0.485328 -0.410048 -0.259041 0 255 0
-0.609469 -0.180703 0.359539 0 255 0
0.581009 -0.069560 -0.272839 0 255 0
0.289912 0.364833 0.306933 0 255 0
-0.226034 0.127310 0.385183 0 0 255
0.103321 -0.410048 -0.375870 0 255 0
0.581199 0.236384 0.318242 0 255 0
0.443117 0.325092 -0.352436 0 255 0
-0.589357 0.059784 -0.187774 0 255 0
-0.564484 0.321834 0.006820 0 255 0
0.040819 0.364688 -0.071443 0 255 0
0.291404 -0.410048 -0.319590 0 255 0
0.630192 0.030697 -0.434804 0 255 0
0.630122 0.098675 -0.021563 0 255 0
-0.641998 -0.258361 0.262471 0 255 0
0.630193 -0.205348 -0.365252 0 255 0
-0.509535 -0.398244 -0.494468 0 255 0
-0.589021 -0.035897 -0.427972 0 255 0
-0.199027 -0.410048 0.278721 0 255 0
0.004555 0.325092 -0.014857 0 255 0
-0.108523 -0.410048 -0.027386 0 255 0
-0.368452 0.407006 0.409833 0 255 0
0.651109 -0.402681 0.361918 204 51 127
-0.341332 -0.410048 0.166089 0 255 0
0.076299 -0.408510 0.376048 204 51 127
0.337903 0.364556 0.299100 0 255 0
0.137670 -0.199896 0.386104 0 0 255
-0.641678 -0.374486 -0.291341 0 255 0
0.630107 -0.044233 0.289603 0 255 0
0.263873 -0.410048 -0.072793 0 255 0
0.195574 -0.054197 -0.481236 0 255 0
0.529119 0.364688 0.276118 0 255 0
-0.043781 -0.410048 0.280925 0 255 0
-0.169278 -0.410048 -0.426329 0 255 0
-0.265097 0.439834 0.358461 0 255 0
-0.265896 0.325092 0.043441 0 255 0
-0.072557 -0.298074 -0.467170 0 255 0
0.630193 0.264090 0.126489 0 255 0
0.169154 -0.318535 -0.053255 0 255 0
-0.622610 -0.192295 0.407380 204 51 127
0.214334 -0.140498 0.359898 204 51 127
0.630193 -0.253195 -0.308973 0 255 0
0.069843 -0.267645 -0.480788 0 255 0
-0.641998 0.286909 -0.251819 0 255 0
-0.589764 0.058026 -0.343223 0 255 0
-0.211237 -0.406552 -0.484268 0 255 0
0.443746 -0.318535 -0.117784 0 255 0
-0.097777 0.364585 -0.055879 0 255 0
-0.094933 0.208391 0.359898 204 51 127
0.275899 0.435978 0.358177 0 255 0
-0.418928 -0.318535 -0.249805 0 255 0
0.446806 -0.410038 0.307979 0 255 0
-0.084865 0.083299 0.359898 204 51 127
-0.563031 -0.408171 0.370964 204 51 127
-0.588766 -0.169019 -0.270860 0 255 0
0.520335 0.364612 -0.408455 0 255 0
0.335338 -0.410048 0.246762 0 255 0
-0.125278 0.104532 0.359898 204 51 127
0.056926 0.364687 0.256215 0 255 0
-0.098829 0.325092 0.018491 0 255 0
-0.225764 -0.410048 0.147723 0 255 0
-0.137345 -0.410048 -0.175397 0 255 0
0.274525 -0.410048 0.184939 0 255 0
0.127242 0.130011 0.385244 0 0 255
-0.505446 0.311078 0.407641 204 51 127
-0.641998 -0.091752 0.121479 0 255 0
0.404471 0.360797 0.405277 204 51 127
-0.584267 -0.260284 -0.226299 0 255 0
0.589819 0.057420 0.359898 204 51 127
-0.446767 0.311463 0.407984 204 51 127
-0.107834 0.142651 0.385436 0 0 255
-0.589475 -0.035366 0.316636 0 255 0
0.045871 0.325513 0.333038 0 255 0
-0.314491 -0.204747 -0.481235 0 255 0
-0.641998 -0.142117 -0.161724 0 255 0
0.283265 0.032387 0.386104 0 0 255
0.366806 0.364688 -0.190962 0 255 0
-0.351553 -0.410048 0.133803 0 255 0
0.422231 0.037824 0.386104 0 0 255
-0.056099 0.247549 -0.481236 0 255 0
0.626644 -0.390538 -0.360181 0 255 0
-0.214206 0.325092 -0.217845 0 255 0
-0.466096 -0.410020 -0.456820 0 255 0
-0.404115 0.364688 -0.153450 0 255 0
0.132615 -0.282536 -0.475799 0 255 0
0.639418 0.188086 0.330172 0 255 0
-0.641998 -0.284800 -0.070526 0 255 0
-0.453177 0.100936 -0.499230 0 255 0
