ply
format ascii 1.0
element vertex 618
property float x
property float y
property float z
property float nx
property float ny
property float nz
property uchar red
property uchar green
property uchar blue
property float opacity
end_header
-0.461919 0.559631 0.461982 0.000000 0.980669 -0.195676 183 111 61 1.000000
-0.497382 -0.590218 0.223364 0.000000 -0.000000 1.000000 173 104 57 1.000000
-0.732893 -0.167567 0.129120 -1.000000 0.000000 0.000000 181 113 62 1.000000
0.571041 -0.486349 -0.450792 0.000000 0.000000 -1.000000 243 207 143 1.000000
-0.679273 0.171054 -0.401948 0.000000 1.000000 0.000000 243 201 139 1.000000
-0.023133 0.171054 -0.261369 0.000000 1.000000 0.000000 242 205 146 1.000000
0.709052 -0.480949 -0.089907 -1.000000 0.000000 0.000000 255 255 255 1.000000
-0.228501 0.171054 -0.372985 0.000000 1.000000 0.000000 243 206 147 1.000000
0.069735 0.171054 0.122645 0.000000 -1.000000 -0.000000 255 255 255 1.000000
-0.732893 -0.025148 -0.230712 1.000000 0.000000 0.000000 255 255 255 1.000000
-0.732893 0.471736 -0.371836 1.000000 0.000000 0.000000 255 255 255 1.000000
-0.087801 0.171054 -0.183823 0.000000 -1.000000 -0.000000 255 255 255 1.000000
-0.732893 0.503396 -0.097748 -1.000000 0.000000 0.000000 185 113 63 1.000000
-0.483336 0.171054 -0.007854 0.000000 1.000000 0.000000 243 206 147 1.000000
0.282373 -0.198795 -0.143574 0.000000 1.000000 0.000000 255 255 255 1.000000
0.690325 0.527429 0.191463 -1.000000 0.000000 0.000000 239 202 143 1.000000
-0.706370 -0.123023 -0.422702 0.000000 0.000000 -1.000000 248 211 152 1.000000
0.378727 -0.092155 0.452974 0.000000 0.000000 -1.000000 184 112 62 1.000000
0.718415 0.595374 0.421091 1.000000 0.000000 0.000000 191 120 62 1.000000
-0.057188 0.550386 0.471339 0.000000 -0.222744 -0.974877 255 255 255 1.000000
-0.243567 -0.095399 -0.408657 0.000000 -0.000000 1.000000 248 211 152 1.000000
0.088885 0.343209 -0.422702 0.000000 0.000000 -1.000000 245 208 149 1.000000
0.213700 0.142965 -0.160426 0.000000 -1.000000 -0.000000 245 213 152 1.000000
-0.173473 0.235849 0.452974 0.000000 -0.000000 1.000000 255 255 255 1.000000
-0.432590 -0.236248 -0.161119 0.000000 -1.000000 -0.000000 255 255 255 1.000000
0.709052 -0.478940 -0.168235 -1.000000 0.000000 0.000000 255 255 255 1.000000
-0.714167 -0.582402 -0.035485 -1.000000 0.000000 0.000000 255 255 255 1.000000
0.684035 0.374365 -0.422702 0.000000 0.000000 -1.000000 245 208 149 1.000000
-0.456537 -0.198795 0.370643 0.000000 1.000000 0.000000 255 255 255 1.000000
0.709052 0.048361 0.056855 1.000000 0.000000 0.000000 186 113 67 1.000000
-0.146198 -0.161206 -0.422702 0.000000 -0.000000 1.000000 255 255 255 1.000000
0.220353 -0.397189 0.223364 0.000000 0.000000 -1.000000 255 255 255 1.000000
-0.003917 0.171054 -0.310892 0.000000 -1.000000 -0.000000 255 255 255 1.000000
-0.153051 -0.236248 -0.034341 0.000000 1.000000 0.000000 245 208 149 1.000000
0.272532 0.071720 -0.422702 0.000000 0.000000 -1.000000 245 208 149 1.000000
0.116274 -0.439596 -0.450792 0.000000 -0.000000 1.000000 255 255 255 1.000000
-0.714167 -0.313520 0.019017 1.000000 0.000000 0.000000 239 203 139 1.000000
-0.105553 -0.135483 0.376399 -1.000000 0.000000 0.000000 255 255 255 1.000000
-0.233275 -0.208148 -0.422702 0.000000 0.000000 -1.000000 245 213 152 1.000000
0.216822 -0.198795 -0.125659 0.000000 -1.000000 -0.000000 254 211 154 1.000000
-0.742256 0.468087 0.421207 1.000000 0.000000 0.000000 255 255 255 1.000000
0.249543 0.233662 -0.408657 0.000000 -0.000000 1.000000 246 209 150 1.000000
0.132215 -0.198795 -0.296319 0.000000 1.000000 0.000000 255 255 255 1.000000
0.315825 -0.163243 0.419993 0.000000 -0.000000 1.000000 248 211 152 1.000000
-0.356882 0.142965 0.070599 0.000000 1.000000 0.000000 255 255 255 1.000000
0.709052 0.041283 -0.072655 1.000000 0.000000 0.000000 188 116 66 1.000000
0.083150 -0.133252 0.131106 0.000000 1.000000 0.000000 240 204 140 1.000000
-0.525661 -0.075340 0.459997 0.000000 0.000000 -1.000000 255 255 255 1.000000
-0.647218 0.328470 -0.422702 0.000000 -0.000000 1.000000 255 255 255 1.000000
0.012827 -0.175502 0.448083 0.000000 -0.000000 1.000000 255 255 255 1.000000
-0.330220 0.021191 0.459997 0.000000 -0.000000 1.000000 186 115 59 1.000000
0.709052 -0.342860 -0.231432 -1.000000 0.000000 0.000000 255 255 255 1.000000
0.431332 -0.180069 -0.034815 0.000000 -1.000000 -0.000000 255 255 255 1.000000
-0.316486 0.142965 -0.283719 0.000000 -1.000000 -0.000000 247 210 151 1.000000
0.560402 -0.144146 -0.422702 0.000000 -0.000000 1.000000 255 255 255 1.000000
0.522041 0.171054 -0.349418 0.000000 -1.000000 -0.000000 255 255 255 1.000000
-0.112212 0.171054 -0.024598 0.000000 -1.000000 -0.000000 255 255 255 1.000000
-0.632027 -0.285150 0.223364 0.000000 0.000000 -1.000000 255 255 255 1.000000
-0.714167 0.348247 0.094327 -1.000000 0.000000 0.000000 255 255 255 1.000000
0.586026 0.142965 -0.293757 0.000000 1.000000 0.000000 255 255 255 1.000000
0.059084 0.140444 -0.408657 0.000000 0.000000 -1.000000 255 255 255 1.000000
0.254246 0.142965 0.401006 0.000000 -1.000000 -0.000000 239 207 146 1.000000
0.342375 -0.393881 0.223364 0.000000 -0.000000 1.000000 169 97 47 1.000000
-0.559361 -0.198795 -0.131961 0.000000 -1.000000 -0.000000 240 203 144 1.000000
0.392908 0.142965 -0.027708 0.000000 1.000000 0.000000 255 255 255 1.000000
-0.581836 -0.236248 0.135743 0.000000 1.000000 0.000000 245 213 152 1.000000
0.639766 0.550267 0.343092 0.000000 -1.000000 -0.000000 244 207 148 1.000000
-0.648557 0.233564 0.476173 0.000000 -0.000000 1.000000 163 91 41 1.000000
0.131956 -0.198795 -0.179948 0.000000 -1.000000 -0.000000 244 207 148 1.000000
0.445115 -0.236248 -0.280595 0.000000 1.000000 0.000000 241 209 148 1.000000
-0.441240 -0.198795 0.045984 0.000000 1.000000 0.000000 255 255 255 1.000000
-0.714167 -0.390352 -0.021855 1.000000 0.000000 0.000000 239 203 139 1.000000
-0.714167 0.572610 0.059578 1.000000 0.000000 0.000000 238 201 142 1.000000
0.690325 0.011825 0.014979 -1.000000 0.000000 0.000000 244 207 148 1.000000
0.651442 -0.236248 0.098659 0.000000 1.000000 0.000000 242 206 142 1.000000
0.623789 -0.208158 0.234351 0.000000 -1.000000 -0.000000 246 214 153 1.000000
-0.470746 -0.050632 -0.422702 0.000000 -0.000000 1.000000 255 255 255 1.000000
0.624170 0.142965 -0.310424 0.000000 -1.000000 -0.000000 240 204 140 1.000000
0.143777 -0.040309 0.452974 0.000000 -0.000000 1.000000 255 255 255 1.000000
0.085305 0.081551 -0.422702 0.000000 -0.000000 1.000000 255 255 255 1.000000
-0.294271 -0.198795 -0.207055 0.000000 1.000000 0.000000 255 255 255 1.000000
-0.497619 -0.401304 -0.450792 0.000000 0.000000 -1.000000 249 206 149 1.000000
0.386755 0.484724 -0.437823 0.000000 1.000000 0.000000 255 255 255 1.000000
0.012424 -0.543705 0.223364 0.000000 0.000000 -1.000000 255 255 255 1.000000
-0.414331 0.303030 0.459997 0.000000 0.000000 -1.000000 255 255 255 1.000000
-0.011125 -0.162869 0.419993 0.000000 -0.000000 1.000000 255 255 255 1.000000
0.370120 0.091715 -0.422702 0.000000 -0.000000 1.000000 255 255 255 1.000000
-0.103499 0.142965 0.402109 0.000000 -1.000000 -0.000000 239 202 143 1.000000
-0.304569 0.171054 -0.405071 0.000000 1.000000 0.000000 248 206 142 1.000000
0.577966 0.562553 -0.212687 -1.000000 0.000000 0.000000 246 210 146 1.000000
0.269983 0.027746 0.452974 0.000000 -0.000000 1.000000 255 255 255 1.000000
-0.079692 -0.056544 0.448083 0.000000 0.000000 -1.000000 186 115 59 1.000000
-0.441547 -0.236248 0.353911 0.000000 -1.000000 -0.000000 255 255 255 1.000000
-0.653960 -0.208158 0.278778 0.000000 -1.000000 -0.000000 239 195 138 1.000000
0.690325 0.168764 0.260575 -1.000000 0.000000 0.000000 250 219 151 1.000000
0.597144 -0.103796 0.459997 0.000000 0.000000 -1.000000 255 255 255 1.000000
-0.176739 -0.283065 0.447512 0.000000 -1.000000 -0.000000 165 97 46 1.000000
0.152543 0.593333 0.448083 0.000000 0.000000 -1.000000 255 255 255 1.000000
0.522835 -0.527617 0.223364 0.000000 -0.000000 1.000000 175 107 56 1.000000
-0.162198 -0.236248 -0.127285 0.000000 1.000000 0.000000 247 204 147 1.000000
-0.562438 -0.236248 0.080509 0.000000 -1.000000 -0.000000 255 255 255 1.000000
0.690325 0.165760 -0.367792 1.000000 0.000000 0.000000 255 255 255 1.000000
0.163215 0.369401 -0.422702 0.000000 -0.000000 1.000000 255 255 255 1.000000
-0.112053 -0.208158 -0.035436 0.000000 1.000000 0.000000 255 255 255 1.000000
0.307385 -0.198795 -0.343549 0.000000 -1.000000 -0.000000 244 204 141 1.000000
-0.528890 0.142965 0.323917 0.000000 1.000000 0.000000 255 255 255 1.000000
-0.052044 0.499500 -0.422702 0.000000 -0.000000 1.000000 255 255 255 1.000000
0.244221 -0.095881 0.452974 0.000000 -0.000000 1.000000 255 255 255 1.000000
0.211538 -0.198795 -0.330658 0.000000 1.000000 0.000000 255 255 255 1.000000
-0.424024 -0.283065 0.420399 0.000000 1.000000 0.000000 255 255 255 1.000000
0.709052 0.425131 0.154016 -1.000000 0.000000 0.000000 255 255 255 1.000000
-0.059734 0.142965 0.060625 0.000000 -1.000000 -0.000000 251 215 151 1.000000
0.450394 0.142965 0.242758 0.000000 1.000000 0.000000 255 255 255 1.000000
-0.120427 -0.208158 -0.342951 0.000000 1.000000 0.000000 255 255 255 1.000000
-0.156657 -0.198795 -0.363308 0.000000 -1.000000 -0.000000 243 206 147 1.000000
0.024464 -0.254987 0.419993 0.000000 -0.000000 1.000000 255 255 255 1.000000
0.337245 0.142965 -0.394192 0.000000 -1.000000 -0.000000 244 207 148 1.000000
0.690325 0.284975 -0.450156 1.000000 0.000000 0.000000 255 255 255 1.000000
-0.314406 0.142965 0.025792 0.000000 1.000000 0.000000 255 255 255 1.000000
0.690325 -0.394894 -0.098655 1.000000 0.000000 0.000000 255 255 255 1.000000
0.134457 -0.226885 0.442917 0.000000 -1.000000 -0.000000 255 255 255 1.000000
-0.435678 0.171054 -0.401423 0.000000 -1.000000 -0.000000 255 255 255 1.000000
-0.670081 0.074032 0.476173 0.000000 0.000000 -1.000000 255 255 255 1.000000
0.399997 -0.109980 -0.408657 0.000000 0.000000 -1.000000 255 255 255 1.000000
0.523508 0.142965 -0.325193 0.000000 1.000000 0.000000 255 255 255 1.000000
0.016247 -0.104667 -0.408657 0.000000 0.000000 -1.000000 255 255 255 1.000000
-0.574902 0.171054 0.081802 0.000000 -1.000000 -0.000000 255 255 255 1.000000
-0.469526 -0.198795 -0.036094 0.000000 -1.000000 -0.000000 244 207 148 1.000000
-0.640351 -0.236248 -0.290080 0.000000 1.000000 0.000000 247 210 151 1.000000
0.248982 -0.180069 0.045850 0.000000 1.000000 0.000000 244 212 151 1.000000
-0.018791 -0.236248 -0.389984 0.000000 -1.000000 -0.000000 255 255 255 1.000000
-0.542352 -0.236248 0.146805 0.000000 1.000000 0.000000 243 211 150 1.000000
-0.105553 -0.137507 -0.206128 1.000000 0.000000 0.000000 245 205 142 1.000000
0.075518 -0.236248 -0.333324 0.000000 1.000000 0.000000 241 204 145 1.000000
0.349355 0.142965 -0.285129 0.000000 -1.000000 -0.000000 244 207 148 1.000000
0.627321 -0.236248 0.351383 0.000000 1.000000 0.000000 249 212 153 1.000000
-0.036285 0.171054 -0.098500 0.000000 1.000000 0.000000 242 205 146 1.000000
-0.503330 0.142965 -0.029433 0.000000 1.000000 0.000000 255 255 255 1.000000
0.709052 -0.185787 0.132798 1.000000 0.000000 0.000000 166 97 50 1.000000
0.709052 0.366156 0.252576 1.000000 0.000000 0.000000 167 94 47 1.000000
-0.637884 0.568994 0.370505 0.000000 -1.000000 -0.000000 255 255 255 1.000000
-0.548068 -0.198795 0.174747 0.000000 1.000000 0.000000 255 255 255 1.000000
0.083182 -0.236248 0.125095 0.000000 -1.000000 -0.000000 255 255 255 1.000000
-0.714167 -0.140684 0.398351 -1.000000 0.000000 0.000000 255 255 255 1.000000
-0.553879 0.171054 -0.162749 0.000000 -1.000000 -0.000000 255 255 255 1.000000
-0.537651 -0.198795 0.117438 0.000000 1.000000 0.000000 255 255 255 1.000000
0.515117 0.550847 -0.450792 0.000000 0.000000 -1.000000 246 214 153 1.000000
0.709609 0.514302 0.448083 0.000000 0.000000 -1.000000 255 255 255 1.000000
-0.626277 -0.236248 0.200413 0.000000 -1.000000 -0.000000 255 255 255 1.000000
-0.470602 -0.416467 0.223364 0.000000 -0.000000 1.000000 169 100 55 1.000000
-0.167970 0.171054 -0.235492 0.000000 1.000000 0.000000 245 213 152 1.000000
0.029662 0.125631 0.476173 0.000000 -0.000000 1.000000 188 116 66 1.000000
-0.714167 -0.109013 0.244340 -1.000000 0.000000 0.000000 255 255 255 1.000000
0.690325 0.527189 0.223829 -1.000000 0.000000 0.000000 240 203 144 1.000000
0.691327 -0.283065 -0.392364 0.000000 1.000000 0.000000 255 255 255 1.000000
-0.372772 0.025235 0.459997 0.000000 0.000000 -1.000000 255 255 255 1.000000
-0.030194 -0.128408 0.467856 0.903112 -0.000000 0.429405 167 95 45 1.000000
-0.446895 0.171054 -0.160110 0.000000 1.000000 0.000000 247 215 154 1.000000
0.263411 0.171054 0.165057 0.000000 1.000000 0.000000 245 205 140 1.000000
-0.156708 -0.236248 -0.284309 0.000000 1.000000 0.000000 244 207 148 1.000000
0.709052 -0.040899 0.260454 1.000000 0.000000 0.000000 204 132 82 1.000000
0.067818 0.474007 -0.422702 0.000000 0.000000 -1.000000 241 204 145 1.000000
-0.404680 -0.236248 -0.112940 0.000000 1.000000 0.000000 246 209 150 1.000000
0.072349 -0.202664 0.055600 -1.000000 0.000000 0.000000 244 208 144 1.000000
-0.606685 0.550267 0.280096 0.000000 1.000000 0.000000 255 255 255 1.000000
0.478851 0.171054 0.030180 0.000000 1.000000 0.000000 242 206 142 1.000000
-0.274379 0.513179 -0.450792 0.000000 0.000000 -1.000000 249 217 156 1.000000
-0.714167 0.309215 -0.330897 1.000000 0.000000 0.000000 240 204 140 1.000000
0.690325 -0.245080 -0.057590 -1.000000 0.000000 0.000000 246 209 150 1.000000
-0.732893 -0.569113 0.105944 -1.000000 0.000000 0.000000 165 97 48 1.000000
0.455446 -0.236248 0.123882 0.000000 1.000000 0.000000 239 206 141 1.000000
0.104078 0.557566 0.458214 0.000000 0.957726 -0.287681 189 117 67 1.000000
-0.604641 -0.190412 0.448083 0.000000 -0.000000 1.000000 255 255 255 1.000000
0.338134 0.171054 -0.139856 0.000000 1.000000 0.000000 244 211 148 1.000000
0.154841 -0.483942 0.223364 0.000000 -0.000000 1.000000 169 100 53 1.000000
-0.732893 0.218586 0.229759 1.000000 0.000000 0.000000 255 255 255 1.000000
0.492971 -0.133252 -0.398485 0.000000 1.000000 0.000000 236 204 143 1.000000
0.355726 0.142965 0.398348 0.000000 -1.000000 -0.000000 249 211 150 1.000000
0.219336 -0.236248 0.285677 0.000000 1.000000 0.000000 235 198 139 1.000000
0.667868 0.171054 -0.244049 0.000000 -1.000000 -0.000000 255 255 255 1.000000
0.077052 -0.171769 -0.385249 0.000000 0.000000 -1.000000 237 201 137 1.000000
-0.714167 0.104867 -0.372472 1.000000 0.000000 0.000000 246 209 150 1.000000
0.044259 0.216673 0.424472 1.000000 0.000000 0.000000 184 113 57 1.000000
-0.732893 0.497098 0.251697 1.000000 0.000000 0.000000 255 255 255 1.000000
-0.714167 -0.524475 -0.386236 -1.000000 0.000000 0.000000 255 255 255 1.000000
0.668299 -0.236248 -0.347768 0.000000 -1.000000 -0.000000 255 255 255 1.000000
0.365956 -0.180069 0.365639 0.000000 -1.000000 -0.000000 255 255 255 1.000000
0.056652 0.597084 -0.445177 0.000000 -1.000000 -0.000000 255 255 255 1.000000
-0.676205 0.171054 0.317648 0.000000 1.000000 0.000000 242 201 143 1.000000
-0.483407 -0.198795 0.387220 0.000000 -1.000000 -0.000000 242 206 142 1.000000
0.359980 0.540904 0.442781 0.000000 -1.000000 -0.000000 162 94 43 1.000000
-0.648377 0.171054 0.255346 0.000000 -1.000000 -0.000000 255 255 255 1.000000
0.709052 0.420652 -0.293057 -1.000000 0.000000 0.000000 255 255 255 1.000000
-0.714167 -0.184787 0.363973 -1.000000 0.000000 0.000000 255 255 255 1.000000
-0.595535 -0.236248 0.364643 0.000000 1.000000 0.000000 244 207 148 1.000000
-0.494269 -0.198795 -0.273508 0.000000 1.000000 0.000000 255 255 255 1.000000
-0.572893 0.450034 -0.408657 0.000000 0.000000 -1.000000 255 255 255 1.000000
-0.714167 -0.038017 -0.376213 -1.000000 0.000000 0.000000 255 255 255 1.000000
-0.188012 -0.103316 0.452974 0.000000 0.000000 -1.000000 173 101 51 1.000000
0.211437 0.171054 0.096794 0.000000 -1.000000 -0.000000 255 255 255 1.000000
-0.622096 0.568994 0.092909 0.000000 -1.000000 -0.000000 255 255 255 1.000000
0.527880 -0.198795 0.097393 0.000000 1.000000 0.000000 255 255 255 1.000000
-0.124280 -0.185599 0.258866 1.000000 0.000000 0.000000 244 207 148 1.000000
0.577966 0.551991 -0.169942 -1.000000 0.000000 0.000000 245 208 149 1.000000
-0.512021 -0.087276 -0.408657 0.000000 0.000000 -1.000000 255 255 255 1.000000
-0.628224 0.568994 -0.379363 0.000000 1.000000 0.000000 250 213 154 1.000000
-0.215972 -0.198795 0.302791 0.000000 1.000000 0.000000 255 255 255 1.000000
-0.714167 0.050327 -0.030112 -1.000000 0.000000 0.000000 255 255 255 1.000000
-0.419010 -0.180069 -0.066166 0.000000 -1.000000 -0.000000 255 255 255 1.000000
0.532464 0.171054 0.154523 0.000000 1.000000 0.000000 243 211 150 1.000000
-0.714167 -0.260070 0.411799 -1.000000 0.000000 0.000000 255 255 255 1.000000
0.690325 -0.071957 0.348697 -1.000000 0.000000 0.000000 245 207 148 1.000000
0.709052 -0.473313 0.093591 -1.000000 0.000000 0.000000 255 255 255 1.000000
0.558133 -0.314395 0.223364 0.000000 0.000000 -1.000000 255 255 255 1.000000
-0.620602 0.594655 -0.422702 0.000000 0.000000 -1.000000 255 255 255 1.000000
0.202075 -0.236248 -0.377805 0.000000 -1.000000 -0.000000 255 255 255 1.000000
0.105908 0.534270 -0.408657 0.000000 0.000000 -1.000000 255 255 255 1.000000
-0.732893 0.288809 0.114626 -1.000000 0.000000 0.000000 186 114 64 1.000000
-0.574585 -0.194713 0.476173 0.000000 -0.000000 1.000000 181 109 59 1.000000
0.709052 0.124392 0.311002 -1.000000 0.000000 0.000000 255 255 255 1.000000
-0.105553 -0.181782 -0.384427 1.000000 0.000000 0.000000 241 204 145 1.000000
-0.185063 0.573875 -0.450792 0.000000 -0.000000 1.000000 255 255 255 1.000000
-0.032054 0.142965 -0.301588 0.000000 -1.000000 -0.000000 243 206 147 1.000000
-0.732893 -0.033514 -0.093616 -1.000000 0.000000 0.000000 206 134 84 1.000000
0.170490 0.142965 0.135662 0.000000 1.000000 0.000000 255 255 255 1.000000
-0.095957 0.142965 0.195769 0.000000 -1.000000 -0.000000 246 205 147 1.000000
0.655177 -0.236248 0.404472 0.000000 1.000000 0.000000 244 214 152 1.000000
0.128441 0.171054 0.111521 0.000000 -1.000000 -0.000000 255 255 255 1.000000
0.709052 0.190964 0.277020 -1.000000 0.000000 0.000000 255 255 255 1.000000
0.253832 -0.236248 -0.225678 0.000000 1.000000 0.000000 246 209 150 1.000000
0.709052 -0.403265 -0.330334 -1.000000 0.000000 0.000000 255 255 255 1.000000
-0.336640 -0.198795 -0.088027 0.000000 -1.000000 -0.000000 239 202 143 1.000000
0.152796 -0.180069 -0.348583 0.000000 1.000000 0.000000 243 211 150 1.000000
-0.185298 0.171054 -0.291600 0.000000 -1.000000 -0.000000 255 255 255 1.000000
-0.732893 -0.615835 -0.340249 -1.000000 0.000000 0.000000 188 116 66 1.000000
0.709052 0.339690 -0.447756 1.000000 0.000000 0.000000 181 109 59 1.000000
0.408814 -0.180069 -0.073913 0.000000 1.000000 0.000000 249 213 149 1.000000
-0.225163 -0.475151 -0.450792 0.000000 -0.000000 1.000000 255 255 255 1.000000
0.690325 -0.406890 0.099197 -1.000000 0.000000 0.000000 243 211 150 1.000000
0.308473 0.171054 0.348402 0.000000 -1.000000 -0.000000 255 255 255 1.000000
-0.446545 0.270982 -0.408657 0.000000 0.000000 -1.000000 255 255 255 1.000000
0.718415 0.070354 0.441615 1.000000 0.000000 0.000000 163 91 41 1.000000
-0.019864 0.171054 -0.026494 0.000000 -1.000000 -0.000000 255 255 255 1.000000
0.294100 0.170779 -0.422702 0.000000 -0.000000 1.000000 255 255 255 1.000000
-0.167629 -0.212459 0.448083 0.000000 -0.000000 1.000000 255 255 255 1.000000
0.709052 0.408598 0.407029 -1.000000 0.000000 0.000000 255 255 255 1.000000
0.421768 -0.186450 0.476173 0.000000 0.000000 -1.000000 255 255 255 1.000000
0.170091 -0.145378 -0.422702 0.000000 -0.000000 1.000000 255 255 255 1.000000
0.230367 0.374000 -0.422702 0.000000 0.000000 -1.000000 246 209 150 1.000000
-0.732893 0.571142 0.016404 1.000000 0.000000 0.000000 255 255 255 1.000000
-0.626718 0.171054 0.301473 0.000000 1.000000 0.000000 239 211 149 1.000000
-0.246775 0.142965 0.023388 0.000000 1.000000 0.000000 255 255 255 1.000000
0.709052 -0.334321 -0.353981 -1.000000 0.000000 0.000000 255 255 255 1.000000
-0.180460 -0.465883 -0.450792 0.000000 -0.000000 1.000000 255 255 255 1.000000
0.598411 0.171054 -0.328965 0.000000 -1.000000 -0.000000 255 255 255 1.000000
-0.613871 -0.028647 0.452974 0.000000 0.000000 -1.000000 185 113 63 1.000000
0.668947 0.494158 -0.408657 0.000000 -0.000000 1.000000 245 209 145 1.000000
-0.714167 -0.584026 -0.097558 1.000000 0.000000 0.000000 242 210 149 1.000000
-0.732893 -0.225876 0.026055 1.000000 0.000000 0.000000 255 255 255 1.000000
-0.248238 0.171054 -0.327627 0.000000 1.000000 0.000000 242 206 142 1.000000
0.437350 0.225211 0.452974 0.000000 -0.000000 1.000000 255 255 255 1.000000
-0.714167 0.139073 -0.394485 1.000000 0.000000 0.000000 242 205 146 1.000000
-0.516642 0.556129 -0.422702 0.000000 -0.000000 1.000000 248 211 152 1.000000
-0.329141 -0.198795 0.151439 0.000000 1.000000 0.000000 255 255 255 1.000000
-0.714167 -0.047900 0.323882 -1.000000 0.000000 0.000000 255 255 255 1.000000
0.534860 0.142965 0.116134 0.000000 -1.000000 -0.000000 242 210 150 1.000000
-0.484746 -0.236248 0.067082 0.000000 1.000000 0.000000 247 210 151 1.000000
-0.461227 0.416501 -0.408657 0.000000 0.000000 -1.000000 255 255 255 1.000000
-0.409164 -0.236248 -0.336022 0.000000 1.000000 0.000000 245 209 145 1.000000
0.290287 -0.236248 0.165803 0.000000 1.000000 0.000000 253 212 154 1.000000
0.556410 -0.219442 -0.408657 0.000000 0.000000 -1.000000 255 255 255 1.000000
-0.160829 0.142965 0.417446 0.000000 -1.000000 -0.000000 243 206 148 1.000000
-0.714167 -0.527497 0.175134 1.000000 0.000000 0.000000 248 210 149 1.000000
-0.319414 0.334648 -0.422702 0.000000 -0.000000 1.000000 255 255 255 1.000000
-0.462104 0.068725 0.459997 0.000000 -0.000000 1.000000 186 115 59 1.000000
0.529651 -0.139213 0.459997 0.000000 -0.000000 1.000000 178 109 64 1.000000
-0.160484 -0.180069 -0.313479 0.000000 1.000000 0.000000 249 217 156 1.000000
0.690325 -0.345286 -0.133798 -1.000000 0.000000 0.000000 246 209 150 1.000000
-0.516651 0.171054 -0.396210 0.000000 -1.000000 -0.000000 255 255 255 1.000000
0.307402 0.171054 -0.004648 0.000000 -1.000000 -0.000000 255 255 255 1.000000
-0.357135 -0.176054 0.401266 0.000000 0.000000 -1.000000 242 206 142 1.000000
0.078387 -0.283065 0.444553 0.000000 -1.000000 -0.000000 173 105 54 1.000000
0.019681 0.142965 -0.007174 0.000000 -1.000000 -0.000000 238 212 149 1.000000
0.093190 0.108823 -0.408657 0.000000 -0.000000 1.000000 252 214 153 1.000000
-0.201234 -0.208158 0.408205 0.000000 1.000000 0.000000 255 255 255 1.000000
-0.395219 0.047063 -0.408657 0.000000 0.000000 -1.000000 255 255 255 1.000000
-0.341881 -0.180069 -0.227684 0.000000 -1.000000 -0.000000 255 255 255 1.000000
-0.396173 -0.236248 0.247119 0.000000 1.000000 0.000000 239 207 146 1.000000
-0.102600 -0.478017 -0.450792 0.000000 -0.000000 1.000000 255 255 255 1.000000
0.191159 -0.195977 -0.422702 0.000000 0.000000 -1.000000 238 206 145 1.000000
-0.568884 0.142965 0.400645 0.000000 -1.000000 -0.000000 236 199 140 1.000000
0.291357 0.240934 0.459997 0.000000 0.000000 -1.000000 255 255 255 1.000000
0.709052 -0.125753 -0.032569 -1.000000 0.000000 0.000000 255 255 255 1.000000
0.658103 0.568994 0.049286 0.000000 1.000000 0.000000 246 205 147 1.000000
0.718415 0.228411 0.437627 -1.000000 0.000000 0.000000 255 255 255 1.000000
0.202656 -0.180069 -0.067568 0.000000 -1.000000 -0.000000 255 255 255 1.000000
0.241939 0.142965 0.310876 0.000000 -1.000000 -0.000000 245 207 146 1.000000
0.147516 0.589789 -0.408657 0.000000 0.000000 -1.000000 255 255 255 1.000000
-0.066127 -0.102056 -0.408657 0.000000 -0.000000 1.000000 244 207 148 1.000000
-0.107894 -0.064949 0.450346 1.000000 0.000000 0.000000 255 255 255 1.000000
0.709052 -0.482759 -0.268831 -1.000000 0.000000 0.000000 255 255 255 1.000000
0.709052 0.367261 0.347857 -1.000000 0.000000 0.000000 255 255 255 1.000000
-0.080143 0.171054 0.327365 0.000000 1.000000 0.000000 243 201 137 1.000000
-0.732893 0.017923 0.134062 -1.000000 0.000000 0.000000 174 102 52 1.000000
-0.610531 0.295935 -0.408657 0.000000 -0.000000 1.000000 245 208 149 1.000000
-0.192110 -0.225772 0.475224 0.000000 -0.997291 0.073562 176 104 50 1.000000
0.709052 0.440520 -0.137163 -1.000000 0.000000 0.000000 255 255 255 1.000000
-0.631440 0.550267 -0.154000 0.000000 1.000000 0.000000 255 255 255 1.000000
0.348105 0.452248 0.452974 0.000000 0.000000 -1.000000 192 121 65 1.000000
0.373303 -0.180069 0.026033 0.000000 1.000000 0.000000 243 206 147 1.000000
0.378957 0.535698 -0.450792 0.000000 0.000000 -1.000000 246 209 150 1.000000
0.391175 0.171054 0.132038 0.000000 1.000000 0.000000 241 209 148 1.000000
0.709052 0.230995 -0.381737 -1.000000 0.000000 0.000000 255 255 255 1.000000
0.072349 -0.159620 0.269465 -1.000000 0.000000 0.000000 244 208 144 1.000000
-0.337600 0.171054 -0.044517 0.000000 1.000000 0.000000 245 213 152 1.000000
-0.701236 -0.283065 -0.445064 0.000000 -1.000000 -0.000000 255 255 255 1.000000
-0.732893 -0.225372 0.082091 1.000000 0.000000 0.000000 255 255 255 1.000000
0.089063 -0.538573 -0.450792 0.000000 0.000000 -1.000000 238 202 138 1.000000
0.302937 0.022885 -0.408657 0.000000 -0.000000 1.000000 247 205 143 1.000000
0.417613 -0.180069 0.067102 0.000000 -1.000000 -0.000000 255 255 255 1.000000
0.615419 -0.171078 0.091341 -1.000000 0.000000 0.000000 243 202 134 1.000000
0.709052 0.238116 -0.426129 1.000000 0.000000 0.000000 190 119 63 1.000000
-0.474003 -0.591533 -0.450792 0.000000 -0.000000 1.000000 255 255 255 1.000000
-0.714167 -0.558746 -0.398627 -1.000000 0.000000 0.000000 255 255 255 1.000000
-0.438987 0.171054 0.368206 0.000000 1.000000 0.000000 238 201 142 1.000000
-0.136751 0.540947 0.448083 0.000000 0.000000 -1.000000 185 113 63 1.000000
-0.732893 0.581765 -0.046807 -1.000000 0.000000 0.000000 207 136 80 1.000000
0.690325 -0.541531 -0.119255 -1.000000 0.000000 0.000000 245 208 149 1.000000
0.361192 -0.236248 0.146777 0.000000 1.000000 0.000000 241 204 145 1.000000
0.571899 0.484724 -0.446656 0.000000 -1.000000 -0.000000 248 211 152 1.000000
-0.658898 -0.208158 -0.352594 0.000000 -1.000000 -0.000000 253 216 157 1.000000
-0.616140 -0.180069 0.062169 0.000000 -1.000000 -0.000000 255 255 255 1.000000
-0.714167 -0.378688 -0.236314 -1.000000 0.000000 0.000000 255 255 255 1.000000
-0.688109 0.568994 0.129103 0.000000 -1.000000 -0.000000 255 255 255 1.000000
0.157974 -0.236248 -0.175506 0.000000 -1.000000 -0.000000 255 255 255 1.000000
0.054902 -0.236248 0.324259 0.000000 1.000000 0.000000 244 202 138 1.000000
-0.617057 -0.140612 0.401266 0.000000 -0.000000 1.000000 255 255 255 1.000000
-0.714167 -0.214798 0.294040 1.000000 0.000000 0.000000 241 204 145 1.000000
-0.704052 0.171054 -0.177036 0.000000 1.000000 0.000000 249 212 153 1.000000
-0.043812 0.142965 0.227357 0.000000 -1.000000 -0.000000 247 210 151 1.000000
0.495476 0.171054 0.099433 0.000000 -1.000000 -0.000000 255 255 255 1.000000
-0.714167 0.536324 0.214382 1.000000 0.000000 0.000000 239 211 149 1.000000
-0.217161 0.142965 0.074461 0.000000 1.000000 0.000000 255 255 255 1.000000
0.502905 -0.515419 -0.450792 0.000000 0.000000 -1.000000 240 203 144 1.000000
-0.666842 0.171054 -0.337020 0.000000 1.000000 0.000000 243 207 143 1.000000
0.679944 0.142965 0.049273 0.000000 1.000000 0.000000 255 255 255 1.000000
0.634455 0.171054 0.297482 0.000000 1.000000 0.000000 244 216 154 1.000000
0.361358 -0.133252 0.401464 0.000000 -1.000000 -0.000000 255 255 255 1.000000
-0.240948 -0.618666 0.223364 0.000000 0.000000 -1.000000 255 255 255 1.000000
0.000714 0.442826 -0.408657 0.000000 -0.000000 1.000000 243 207 143 1.000000
0.144877 -0.236248 0.041371 0.000000 -1.000000 -0.000000 255 255 255 1.000000
-0.714167 0.120528 0.263003 1.000000 0.000000 0.000000 243 215 153 1.000000
0.690325 0.291983 0.019611 1.000000 0.000000 0.000000 255 255 255 1.000000
-0.226646 0.171054 -0.205063 0.000000 1.000000 0.000000 248 216 155 1.000000
0.406802 0.350746 0.459997 0.000000 0.000000 -1.000000 255 255 255 1.000000
0.080792 0.142965 -0.003470 0.000000 -1.000000 -0.000000 243 213 151 1.000000
-0.006267 0.142965 -0.355972 0.000000 -1.000000 -0.000000 240 204 140 1.000000
-0.064673 -0.254831 0.419993 0.000000 0.000000 -1.000000 236 199 140 1.000000
-0.732893 -0.317385 -0.159252 1.000000 0.000000 0.000000 255 255 255 1.000000
-0.206639 -0.236248 -0.123970 0.000000 1.000000 0.000000 246 209 150 1.000000
-0.182103 0.244985 -0.422702 0.000000 -0.000000 1.000000 255 255 255 1.000000
0.551928 0.171054 0.369382 0.000000 -1.000000 -0.000000 255 255 255 1.000000
-0.719232 0.187108 0.448083 0.000000 -0.000000 1.000000 187 115 65 1.000000
-0.660764 -0.161719 -0.422702 0.000000 0.000000 -1.000000 243 211 150 1.000000
0.343279 0.142965 0.053821 0.000000 -1.000000 -0.000000 246 209 150 1.000000
-0.560424 0.421973 -0.408657 0.000000 0.000000 -1.000000 255 255 255 1.000000
0.360808 0.168481 0.459997 0.000000 0.000000 -1.000000 255 255 255 1.000000
0.563593 0.171054 -0.282146 0.000000 1.000000 0.000000 244 207 148 1.000000
0.651219 -0.256663 0.448083 0.000000 -0.000000 1.000000 177 105 55 1.000000
0.269833 0.373019 0.459997 0.000000 0.000000 -1.000000 255 255 255 1.000000
-0.147630 -0.397945 0.223364 0.000000 0.000000 -1.000000 255 255 255 1.000000
0.709052 0.208603 0.069257 -1.000000 0.000000 0.000000 255 255 255 1.000000
0.485093 -0.163683 0.452392 0.000000 -1.000000 -0.000000 255 255 255 1.000000
0.646148 0.568994 -0.398575 0.000000 -1.000000 -0.000000 255 255 255 1.000000
0.183163 -0.180069 0.122948 0.000000 -1.000000 -0.000000 255 255 255 1.000000
-0.732893 0.343746 0.353054 1.000000 0.000000 0.000000 255 255 255 1.000000
-0.490373 0.142965 0.308161 0.000000 -1.000000 -0.000000 241 207 147 1.000000
-0.091204 -0.530704 0.223364 0.000000 -0.000000 1.000000 177 114 71 1.000000
-0.556648 -0.236248 -0.220004 0.000000 -1.000000 -0.000000 255 255 255 1.000000
0.044259 -0.159212 0.426966 -1.000000 0.000000 0.000000 255 255 255 1.000000
-0.732893 0.386592 0.149232 1.000000 0.000000 0.000000 255 255 255 1.000000
0.690325 -0.089175 -0.338021 1.000000 0.000000 0.000000 255 255 255 1.000000
-0.389739 -0.595082 0.223364 0.000000 -0.000000 1.000000 162 93 46 1.000000
0.012701 0.074810 0.419993 0.000000 -0.000000 1.000000 255 255 255 1.000000
0.593451 0.171054 -0.395113 0.000000 1.000000 0.000000 240 207 144 1.000000
-0.714167 0.442102 0.081633 -1.000000 0.000000 0.000000 255 255 255 1.000000
0.709052 0.466106 -0.218135 1.000000 0.000000 0.000000 180 108 58 1.000000
-0.463489 0.171054 -0.107976 0.000000 1.000000 0.000000 252 209 152 1.000000
0.263849 -0.018642 -0.408657 0.000000 -0.000000 1.000000 235 204 138 1.000000
-0.277026 0.496678 0.476173 0.000000 0.000000 -1.000000 255 255 255 1.000000
-0.635993 -0.236248 -0.351666 0.000000 1.000000 0.000000 241 204 145 1.000000
0.581649 -0.236248 -0.353137 0.000000 1.000000 0.000000 243 207 143 1.000000
0.709052 0.585469 0.303615 -1.000000 0.000000 0.000000 255 255 255 1.000000
-0.730439 0.322963 -0.450792 0.000000 -0.000000 1.000000 255 255 255 1.000000
0.344334 -0.548390 0.223364 0.000000 0.000000 -1.000000 255 255 255 1.000000
0.609215 0.142965 -0.029232 0.000000 1.000000 0.000000 255 255 255 1.000000
0.533257 0.568974 0.419993 0.000000 -0.000000 1.000000 255 255 255 1.000000
0.410978 0.142965 -0.092815 0.000000 1.000000 0.000000 255 255 255 1.000000
-0.646817 0.267552 0.448083 0.000000 -0.000000 1.000000 255 255 255 1.000000
0.336879 0.171054 0.095519 0.000000 1.000000 0.000000 247 210 151 1.000000
0.419413 -0.206245 -0.422702 0.000000 0.000000 -1.000000 246 214 153 1.000000
-0.331830 0.142965 0.135442 0.000000 1.000000 0.000000 255 255 255 1.000000
-0.028542 -0.215557 0.457439 -0.957726 -0.000000 0.287681 255 255 255 1.000000
-0.309695 0.142965 0.343469 0.000000 -1.000000 -0.000000 241 215 152 1.000000
0.003351 -0.236248 -0.193806 0.000000 -1.000000 -0.000000 255 255 255 1.000000
0.075770 -0.208158 0.147317 0.000000 -1.000000 -0.000000 242 206 142 1.000000
-0.026545 0.171054 0.046977 0.000000 1.000000 0.000000 242 205 146 1.000000
-0.678784 0.550267 0.238684 0.000000 1.000000 0.000000 255 255 255 1.000000
-0.714167 -0.266911 -0.016314 -1.000000 0.000000 0.000000 255 255 255 1.000000
0.690188 0.142965 0.191058 0.000000 -1.000000 -0.000000 250 218 157 1.000000
0.690325 0.529170 0.349277 1.000000 0.000000 0.000000 255 255 255 1.000000
0.465413 -0.180069 -0.201295 0.000000 -1.000000 -0.000000 255 255 255 1.000000
0.709052 0.590540 0.085564 1.000000 0.000000 0.000000 181 109 59 1.000000
0.460291 0.408099 -0.408657 0.000000 -0.000000 1.000000 242 208 148 1.000000
-0.732893 0.008888 -0.098437 -1.000000 0.000000 0.000000 193 122 66 1.000000
-0.416864 -0.588489 -0.450792 0.000000 0.000000 -1.000000 247 207 144 1.000000
-0.693143 0.403671 -0.422702 0.000000 -0.000000 1.000000 255 255 255 1.000000
0.668505 0.019057 0.448083 0.000000 0.000000 -1.000000 181 109 59 1.000000
0.220474 -0.236248 -0.209562 0.000000 1.000000 0.000000 249 212 153 1.000000
0.535445 0.171054 0.209922 0.000000 1.000000 0.000000 240 204 142 1.000000
0.203091 -0.198795 -0.244490 0.000000 1.000000 0.000000 255 255 255 1.000000
0.490897 -0.236248 0.045925 0.000000 -1.000000 -0.000000 255 255 255 1.000000
0.709052 -0.542243 -0.303855 -1.000000 0.000000 0.000000 255 255 255 1.000000
-0.282990 -0.163454 0.459997 0.000000 -0.000000 1.000000 180 108 58 1.000000
0.393089 -0.283065 -0.445587 0.000000 1.000000 0.000000 248 211 152 1.000000
-0.477356 -0.198795 -0.248992 0.000000 -1.000000 -0.000000 246 209 150 1.000000
0.690325 -0.282401 0.136134 1.000000 0.000000 0.000000 255 255 255 1.000000
0.692421 0.099733 0.419993 0.000000 0.000000 -1.000000 242 205 146 1.000000
0.094251 -0.182218 0.448083 0.000000 -0.000000 1.000000 255 255 255 1.000000
0.288228 -0.242493 -0.422702 0.000000 0.000000 -1.000000 242 205 146 1.000000
-0.353373 -0.183914 0.476173 0.000000 0.000000 -1.000000 255 255 255 1.000000
-0.642728 -0.198795 0.357243 0.000000 -1.000000 -0.000000 245 213 152 1.000000
0.312466 0.414410 0.459997 0.000000 0.000000 -1.000000 255 255 255 1.000000
0.690325 -0.579087 -0.329116 -1.000000 0.000000 0.000000 243 206 147 1.000000
-0.601807 0.553131 0.394716 1.000000 0.000000 0.000000 251 214 155 1.000000
-0.245371 0.142965 0.416539 0.000000 1.000000 0.000000 255 255 255 1.000000
-0.710166 -0.265225 -0.422702 0.000000 -0.000000 1.000000 255 255 255 1.000000
-0.016491 -0.236248 0.088511 0.000000 -1.000000 -0.000000 255 255 255 1.000000
-0.394045 0.178595 0.452974 0.000000 -0.000000 1.000000 255 255 255 1.000000
-0.237931 0.142965 -0.145706 0.000000 -1.000000 -0.000000 243 206 147 1.000000
0.108578 0.142965 0.135956 0.000000 1.000000 0.000000 255 255 255 1.000000
-0.420317 0.171054 -0.205967 0.000000 1.000000 0.000000 245 213 152 1.000000
-0.732893 0.347873 -0.254361 1.000000 0.000000 0.000000 255 255 255 1.000000
-0.732893 -0.358155 0.120632 1.000000 0.000000 0.000000 255 255 255 1.000000
-0.732893 0.475328 0.074767 -1.000000 0.000000 0.000000 181 109 59 1.000000
0.159909 0.180519 -0.422702 0.000000 0.000000 -1.000000 246 209 150 1.000000
-0.470719 0.171054 -0.342042 0.000000 1.000000 0.000000 242 206 142 1.000000
0.709052 0.325213 0.349904 1.000000 0.000000 0.000000 186 114 64 1.000000
0.035368 -0.510255 0.223364 0.000000 0.000000 -1.000000 255 255 255 1.000000
0.250988 -0.198795 -0.008189 0.000000 1.000000 0.000000 255 255 255 1.000000
-0.732893 -0.065734 0.052786 -1.000000 0.000000 0.000000 155 83 33 1.000000
0.031197 -0.619245 0.223364 0.000000 0.000000 -1.000000 255 255 255 1.000000
-0.009530 -0.552189 -0.450792 0.000000 -0.000000 1.000000 255 255 255 1.000000
0.548282 0.142965 -0.125273 0.000000 -1.000000 -0.000000 247 210 151 1.000000
0.185631 -0.180069 -0.273842 0.000000 -1.000000 -0.000000 255 255 255 1.000000
0.218915 0.171054 -0.122426 0.000000 1.000000 0.000000 247 219 157 1.000000
-0.214543 0.395830 -0.408657 0.000000 0.000000 -1.000000 255 255 255 1.000000
0.709052 -0.367461 -0.375473 -1.000000 0.000000 0.000000 255 255 255 1.000000
-0.402942 0.142965 0.245103 0.000000 -1.000000 -0.000000 245 208 149 1.000000
-0.573574 0.477400 0.452974 0.000000 0.000000 -1.000000 171 99 49 1.000000
0.358901 -0.180069 -0.303169 0.000000 1.000000 0.000000 248 211 152 1.000000
-0.587941 0.130684 -0.408657 0.000000 0.000000 -1.000000 255 255 255 1.000000
0.094273 0.142965 0.396009 0.000000 1.000000 0.000000 255 255 255 1.000000
-0.732893 -0.125673 0.115550 -1.000000 0.000000 0.000000 185 113 63 1.000000
0.615419 -0.163326 0.153589 1.000000 0.000000 0.000000 255 255 255 1.000000
0.105611 -0.188393 0.401266 0.000000 -0.000000 1.000000 241 209 148 1.000000
-0.430882 -0.198795 -0.001555 0.000000 -1.000000 -0.000000 244 203 145 1.000000
0.532657 -0.615484 0.223364 0.000000 -0.000000 1.000000 185 117 66 1.000000
-0.732893 -0.266068 -0.273555 -1.000000 0.000000 0.000000 175 107 56 1.000000
-0.714167 -0.514898 -0.092133 1.000000 0.000000 0.000000 241 204 145 1.000000
0.655728 0.142965 -0.132601 0.000000 -1.000000 -0.000000 241 209 148 1.000000
0.709052 -0.501878 -0.218599 1.000000 0.000000 0.000000 191 118 71 1.000000
-0.209058 -0.527854 0.223364 0.000000 0.000000 -1.000000 255 255 255 1.000000
-0.033705 0.379053 0.448713 0.992891 0.000000 -0.119027 195 124 68 1.000000
-0.403279 0.289537 -0.422702 0.000000 0.000000 -1.000000 244 207 148 1.000000
-0.319623 0.171054 -0.376854 0.000000 1.000000 0.000000 239 203 139 1.000000
0.690325 -0.350344 -0.410244 1.000000 0.000000 0.000000 255 255 255 1.000000
0.606936 0.171054 -0.278889 0.000000 -1.000000 -0.000000 255 255 255 1.000000
0.690325 -0.014448 -0.061622 1.000000 0.000000 0.000000 255 255 255 1.000000
0.506346 0.149495 0.452974 0.000000 0.000000 -1.000000 188 116 66 1.000000
-0.015143 0.171054 0.082736 0.000000 1.000000 0.000000 240 204 140 1.000000
-0.550214 0.142965 0.082552 0.000000 -1.000000 -0.000000 242 205 146 1.000000
-0.714167 -0.197569 0.256325 -1.000000 0.000000 0.000000 255 255 255 1.000000
-0.714167 0.101362 0.239807 -1.000000 0.000000 0.000000 255 255 255 1.000000
-0.732893 -0.090173 0.406057 1.000000 0.000000 0.000000 255 255 255 1.000000
-0.020454 -0.277981 0.448083 0.000000 -0.000000 1.000000 181 113 62 1.000000
-0.029060 0.142965 -0.069340 0.000000 -1.000000 -0.000000 242 205 146 1.000000
-0.454117 -0.424809 -0.450792 0.000000 -0.000000 1.000000 255 255 255 1.000000
0.451521 -0.180069 -0.164645 0.000000 -1.000000 -0.000000 255 255 255 1.000000
0.579647 0.451644 -0.408657 0.000000 -0.000000 1.000000 248 212 148 1.000000
0.042462 -0.010274 0.448083 0.000000 -0.000000 1.000000 255 255 255 1.000000
0.005902 0.197645 0.467384 -0.082935 -0.000000 0.996555 197 126 70 1.000000
-0.070143 -0.011167 -0.408657 0.000000 -0.000000 1.000000 244 207 148 1.000000
-0.219155 0.597084 -0.412916 0.000000 -1.000000 -0.000000 255 255 255 1.000000
-0.530774 0.171054 -0.230951 0.000000 -1.000000 -0.000000 255 255 255 1.000000
-0.714167 -0.504639 0.041922 1.000000 0.000000 0.000000 246 204 142 1.000000
0.469823 -0.198795 0.051165 0.000000 1.000000 0.000000 255 255 255 1.000000
-0.303997 -0.208158 -0.386210 0.000000 1.000000 0.000000 255 255 255 1.000000
-0.174251 0.405936 0.459997 0.000000 -0.000000 1.000000 199 127 77 1.000000
-0.360413 -0.198795 -0.141634 0.000000 1.000000 0.000000 255 255 255 1.000000
-0.031660 0.096596 -0.408657 0.000000 -0.000000 1.000000 247 211 147 1.000000
0.400617 -0.546701 0.223364 0.000000 0.000000 -1.000000 255 255 255 1.000000
0.709052 0.382800 0.131997 -1.000000 0.000000 0.000000 255 255 255 1.000000
-0.647993 0.142965 -0.000302 0.000000 1.000000 0.000000 255 255 255 1.000000
0.091075 -0.172268 -0.098627 -1.000000 0.000000 0.000000 255 255 255 1.000000
0.294130 -0.198409 0.401266 0.000000 0.000000 -1.000000 241 204 145 1.000000
0.175320 -0.236248 0.080983 0.000000 1.000000 0.000000 244 207 148 1.000000
-0.044341 0.547962 -0.422702 0.000000 0.000000 -1.000000 246 204 142 1.000000
0.690325 -0.175847 0.041050 1.000000 0.000000 0.000000 255 255 255 1.000000
-0.443671 0.407083 0.452974 0.000000 0.000000 -1.000000 204 133 77 1.000000
0.690325 0.528322 0.260336 -1.000000 0.000000 0.000000 245 208 149 1.000000
-0.732893 0.112012 -0.199985 1.000000 0.000000 0.000000 255 255 255 1.000000
-0.732893 -0.317994 -0.127411 -1.000000 0.000000 0.000000 182 110 60 1.000000
-0.079374 0.505009 -0.408657 0.000000 0.000000 -1.000000 255 255 255 1.000000
0.037451 0.437728 0.448083 0.000000 -0.000000 1.000000 196 124 74 1.000000
-0.710790 0.550267 -0.019306 0.000000 -1.000000 -0.000000 245 213 152 1.000000
0.489838 -0.180069 0.100765 0.000000 1.000000 0.000000 246 203 146 1.000000
-0.709890 0.142965 0.360958 0.000000 -1.000000 -0.000000 240 203 144 1.000000
-0.419903 -0.108202 0.459997 0.000000 -0.000000 1.000000 179 107 57 1.000000
-0.714167 0.201404 0.340348 1.000000 0.000000 0.000000 245 205 142 1.000000
0.672989 0.171054 0.084666 0.000000 -1.000000 -0.000000 255 255 255 1.000000
-0.215041 0.142965 -0.006269 0.000000 -1.000000 -0.000000 236 204 143 1.000000
-0.044103 0.171054 -0.225827 0.000000 1.000000 0.000000 245 208 149 1.000000
0.561582 0.529290 0.448083 0.000000 0.000000 -1.000000 203 131 81 1.000000
-0.540008 0.171054 0.023611 0.000000 -1.000000 -0.000000 255 255 255 1.000000
0.690325 0.013541 -0.316073 -1.000000 0.000000 0.000000 244 207 148 1.000000
-0.714167 -0.365215 0.054554 -1.000000 0.000000 0.000000 255 255 255 1.000000
0.224283 0.142965 -0.216566 0.000000 1.000000 0.000000 255 255 255 1.000000
0.121244 0.171054 -0.260330 0.000000 1.000000 0.000000 243 211 150 1.000000
0.285022 -0.107773 0.452974 0.000000 0.000000 -1.000000 205 133 83 1.000000
-0.669375 0.567485 0.448083 0.000000 -0.000000 1.000000 168 106 55 1.000000
0.660895 0.570557 0.419993 0.000000 0.000000 -1.000000 246 209 150 1.000000
-0.060951 -0.259803 -0.408657 0.000000 -0.000000 1.000000 246 209 150 1.000000
0.630339 -0.236248 -0.060516 0.000000 1.000000 0.000000 245 208 149 1.000000
0.690325 -0.049322 0.143787 -1.000000 0.000000 0.000000 244 203 145 1.000000
0.709052 -0.061471 0.311716 -1.000000 0.000000 0.000000 255 255 255 1.000000
-0.623962 -0.185514 0.476173 0.000000 -0.000000 1.000000 170 99 41 1.000000
-0.714167 -0.479416 -0.050561 -1.000000 0.000000 0.000000 255 255 255 1.000000
-0.732893 0.260725 0.129223 1.000000 0.000000 0.000000 255 255 255 1.000000
-0.331434 -0.180069 -0.315302 0.000000 1.000000 0.000000 248 216 155 1.000000
0.471110 0.142965 0.104847 0.000000 -1.000000 -0.000000 243 207 143 1.000000
-0.140826 0.171054 0.207180 0.000000 1.000000 0.000000 241 205 139 1.000000
0.709052 0.271051 0.184743 -1.000000 0.000000 0.000000 255 255 255 1.000000
-0.527956 -0.236248 -0.038072 0.000000 1.000000 0.000000 245 208 149 1.000000
0.456058 0.142965 -0.066971 0.000000 -1.000000 -0.000000 246 209 150 1.000000
0.091075 -0.155307 0.051264 -1.000000 0.000000 0.000000 255 255 255 1.000000
-0.714167 -0.151343 0.348241 -1.000000 0.000000 0.000000 255 255 255 1.000000
0.609178 0.171054 -0.188466 0.000000 1.000000 0.000000 245 213 152 1.000000
-0.732893 -0.012129 0.037067 1.000000 0.000000 0.000000 255 255 255 1.000000
0.002608 0.260165 0.465834 0.859474 0.000000 -0.511179 255 255 255 1.000000
-0.423186 0.142965 -0.104111 0.000000 1.000000 0.000000 255 255 255 1.000000
0.653528 0.171054 0.351360 0.000000 1.000000 0.000000 241 204 145 1.000000
-0.732893 0.527928 0.192036 1.000000 0.000000 0.000000 255 255 255 1.000000
-0.311867 -0.385514 0.223364 0.000000 0.000000 -1.000000 255 255 255 1.000000
-0.371136 0.171054 -0.291265 0.000000 1.000000 0.000000 246 209 150 1.000000
-0.579575 -0.198795 0.104210 0.000000 -1.000000 -0.000000 244 208 144 1.000000
-0.714167 0.014944 -0.198259 -1.000000 0.000000 0.000000 255 255 255 1.000000
0.690325 -0.255255 0.359056 -1.000000 0.000000 0.000000 246 214 153 1.000000
-0.732893 0.262789 0.017490 -1.000000 0.000000 0.000000 189 117 67 1.000000
-0.124280 -0.156889 0.156893 -1.000000 0.000000 0.000000 245 209 145 1.000000
0.636753 0.268364 0.448083 0.000000 -0.000000 1.000000 255 255 255 1.000000
0.514159 -0.180069 -0.322943 0.000000 1.000000 0.000000 243 211 150 1.000000
-0.310282 -0.236248 -0.276868 0.000000 -1.000000 -0.000000 255 255 255 1.000000
-0.473717 0.171054 -0.253295 0.000000 -1.000000 -0.000000 255 255 255 1.000000
-0.129922 0.171054 -0.239730 0.000000 1.000000 0.000000 242 210 149 1.000000
-0.437710 0.145007 0.419993 0.000000 -0.000000 1.000000 236 199 140 1.000000
0.673497 0.530316 -0.422702 0.000000 -0.000000 1.000000 255 255 255 1.000000
-0.181312 0.171054 -0.399531 0.000000 -1.000000 -0.000000 255 255 255 1.000000
0.363721 -0.180069 0.163455 0.000000 -1.000000 -0.000000 255 255 255 1.000000
-0.732893 0.089842 -0.245630 -1.000000 0.000000 0.000000 192 121 65 1.000000
-0.383774 -0.198795 -0.073798 0.000000 -1.000000 -0.000000 248 211 152 1.000000
0.186172 0.493399 -0.408657 0.000000 -0.000000 1.000000 236 204 143 1.000000
-0.525259 0.171054 0.179774 0.000000 -1.000000 -0.000000 255 255 255 1.000000
-0.422172 0.142965 -0.003338 0.000000 -1.000000 -0.000000 252 209 152 1.000000
-0.714167 -0.468909 0.017114 1.000000 0.000000 0.000000 242 206 142 1.000000
-0.732893 -0.191939 -0.369686 -1.000000 0.000000 0.000000 186 114 64 1.000000
-0.048311 -0.055554 -0.408657 0.000000 -0.000000 1.000000 248 211 152 1.000000
0.061018 0.171054 0.019246 0.000000 1.000000 0.000000 246 209 150 1.000000
0.544851 -0.244236 -0.422702 0.000000 0.000000 -1.000000 246 214 153 1.000000
-0.397280 0.008736 0.459997 0.000000 -0.000000 1.000000 195 124 68 1.000000
0.308182 0.505199 -0.422702 0.000000 0.000000 -1.000000 242 205 146 1.000000
0.276826 0.171054 -0.142263 0.000000 1.000000 0.000000 249 217 156 1.000000
0.088351 -0.133252 -0.231012 0.000000 1.000000 0.000000 245 213 152 1.000000
0.357461 -0.594204 0.223364 0.000000 0.000000 -1.000000 255 255 255 1.000000
-0.732893 0.112132 0.153433 -1.000000 0.000000 0.000000 196 124 70 1.000000
0.005086 0.462320 0.448083 0.000000 -0.000000 1.000000 161 88 41 1.000000
0.237905 0.142965 -0.347289 0.000000 -1.000000 -0.000000 246 209 150 1.000000
0.016970 -0.372801 0.223364 0.000000 0.000000 -1.000000 255 255 255 1.000000
-0.280689 -0.180069 0.317437 0.000000 1.000000 0.000000 244 207 148 1.000000
-0.714167 0.063925 0.388382 -1.000000 0.000000 0.000000 255 255 255 1.000000
-0.714167 -0.116820 0.073624 1.000000 0.000000 0.000000 241 209 148 1.000000
-0.057346 -0.113007 0.476173 0.000000 -0.000000 1.000000 154 81 37 1.000000
-0.538267 -0.423111 0.223364 0.000000 0.000000 -1.000000 255 255 255 1.000000
0.108211 -0.149300 -0.403976 0.000000 -0.000000 1.000000 255 255 255 1.000000
-0.714167 0.250539 -0.226660 -1.000000 0.000000 0.000000 255 255 255 1.000000
-0.365256 0.171054 0.206104 0.000000 1.000000 0.000000 252 215 156 1.000000
-0.097578 0.171054 0.034817 0.000000 -1.000000 -0.000000 255 255 255 1.000000
-0.665526 -0.236248 0.391901 0.000000 1.000000 0.000000 247 206 148 1.000000
-0.365902 -0.184776 -0.422702 0.000000 -0.000000 1.000000 255 255 255 1.000000
-0.490050 -0.236248 0.011462 0.000000 1.000000 0.000000 244 207 148 1.000000
-0.317491 -0.236248 0.077573 0.000000 -1.000000 -0.000000 255 255 255 1.000000
0.268340 0.531010 -0.422702 0.000000 -0.000000 1.000000 255 255 255 1.000000
-0.408616 0.171054 0.265121 0.000000 -1.000000 -0.000000 255 255 255 1.000000
-0.639643 -0.198795 -0.321832 0.000000 -1.000000 -0.000000 245 213 152 1.000000
0.690325 0.026521 0.332480 -1.000000 0.000000 0.000000 244 208 144 1.000000
0.225911 0.171054 -0.256938 0.000000 -1.000000 -0.000000 255 255 255 1.000000
-0.318110 0.097731 0.452974 0.000000 -0.000000 1.000000 255 255 255 1.000000
-0.661387 0.171054 -0.046240 0.000000 -1.000000 -0.000000 255 255 255 1.000000
-0.732893 0.287681 -0.133614 -1.000000 0.000000 0.000000 196 124 74 1.000000
0.709052 -0.465957 -0.043926 -1.000000 0.000000 0.000000 255 255 255 1.000000
0.148756 0.130599 0.452974 0.000000 0.000000 -1.000000 182 111 55 1.000000
-0.634684 -0.198795 0.020846 0.000000 1.000000 0.000000 255 255 255 1.000000
0.202277 0.093605 0.452974 0.000000 -0.000000 1.000000 255 255 255 1.000000
0.545574 0.354694 0.452974 0.000000 -0.000000 1.000000 255 255 255 1.000000
0.609573 -0.180069 -0.226721 0.000000 -1.000000 -0.000000 255 255 255 1.000000
0.405635 -0.180069 -0.110472 0.000000 1.000000 0.000000 239 203 139 1.000000
0.552426 0.593337 -0.422702 0.000000 -0.000000 1.000000 245 213 152 1.000000
-0.297671 -0.180069 -0.283515 0.000000 1.000000 0.000000 250 207 150 1.000000
