ply
format ascii 1.0
element vertex 1290
property float x
property float y
property float z
property uchar red
property uchar green
property uchar blue
end_header
-0.090809 -0.380387 0.543485 127 127 0
0.066169 -0.106356 0.682791 0 0 255
-0.147575 0.098099 0.682791 0 0 255
-0.498135 -0.142217 0.307973 127 127 0
-0.065096 -0.530955 -0.223353 0 255 0
-0.183371 0.052593 -0.028861 127 0 127
-0.245366 -0.451940 -0.729449 0 255 0
-0.475550 0.335924 0.626637 153 0 76
-0.167660 -0.428725 -0.599939 0 255 0
-0.191850 -0.530955 -0.010873 0 255 0
0.319587 0.185760 0.626637 153 0 76
0.075340 -0.380387 0.541396 127 127 0
-0.403867 0.409834 0.626637 153 0 76
-0.549302 0.042828 -0.512453 0 255 0
0.302064 0.350805 0.732147 204 51 127
0.204143 0.303358 0.247183 76 153 0
-0.547113 0.524312 -0.436608 0 255 0
-0.174732 -0.427721 -0.011934 0 255 0
0.452137 -0.343375 0.337958 127 127 0
0.456529 -0.530955 -0.021037 0 255 0
0.292915 0.348263 0.060425 76 153 0
-0.549069 -0.505285 -0.295119 0 255 0
0.533372 0.135325 -0.448703 0 255 0
0.111934 0.537365 -0.263806 0 255 0
0.446642 0.062142 0.527367 127 0 127
-0.498135 -0.280142 0.626672 127 127 0
0.365827 0.359943 0.123297 76 153 0
-0.360287 0.119027 0.158969 76 153 0
0.100969 -0.117253 -0.666049 0 255 0
0.099596 -0.389936 0.001730 127 127 0
0.502433 -0.127386 0.681356 153 0 76
0.409720 0.131645 -0.729449 0 255 0
-0.525338 -0.441402 0.680273 153 0 76
0.216146 -0.105144 0.626637 153 0 76
0.211046 -0.367626 0.626637 153 0 76
-0.000045 0.537108 -0.330842 0 255 0
0.452166 0.265248 0.058838 127 0 127
-0.096499 0.062142 0.423281 127 0 127
0.112916 0.138094 0.264191 76 153 0
-0.498135 -0.257300 0.231284 127 127 0
0.157552 0.151904 0.126184 76 153 0
-0.548255 -0.202604 -0.711986 0 255 0
-0.450540 0.048654 0.682791 0 0 255
-0.549302 -0.161423 -0.048849 0 255 0
0.034775 -0.426963 -0.628218 0 255 0
-0.155650 0.388286 0.679362 153 0 76
-0.415321 -0.447485 0.682439 153 0 76
-0.296590 0.128851 -0.665522 0 255 0
0.361751 0.075835 0.626637 153 0 76
-0.549302 0.392424 -0.494050 0 255 0
-0.280063 -0.458489 0.626637 153 0 76
0.105043 -0.221748 0.682791 0 0 255
-0.501635 -0.452875 0.547518 153 0 76
-0.281225 0.537365 -0.236398 0 255 0
0.452166 -0.023011 0.062478 127 127 0
0.335314 -0.473586 0.626637 153 0 76
0.477277 0.288614 -0.729449 0 255 0
0.056989 0.055601 0.682791 0 0 255
0.497541 0.522814 0.626637 153 0 76
0.462298 0.461102 -0.729449 0 255 0
0.451984 0.468667 -0.522858 0 255 0
0.155092 0.535836 0.043747 0 255 0
-0.487828 0.062142 -0.044398 127 0 127
0.253146 -0.380387 0.340709 127 127 0
-0.549302 -0.348678 -0.031840 0 255 0
0.192144 0.537365 -0.367042 0 255 0
-0.448540 0.457601 -0.729449 0 255 0
-0.335228 0.485199 -0.037119 0 255 0
-0.504918 -0.054253 -0.396914 0 255 0
-0.153319 0.131733 0.016576 76 153 0
0.432021 0.537365 -0.291420 0 255 0
-0.549302 0.368009 -0.638868 0 255 0
0.452166 0.331918 0.259116 127 0 127
0.504588 0.537122 -0.489662 0 255 0
0.130630 0.573039 0.671325 153 0 76
0.191042 -0.428436 -0.127740 0 255 0
0.478734 0.415563 -0.408680 0 255 0
0.271250 -0.380387 -0.076070 127 127 0
-0.153485 -0.420068 -0.729449 0 255 0
0.355093 -0.458156 -0.729449 0 255 0
0.442357 -0.421227 -0.634194 0 255 0
-0.356471 -0.205210 0.682791 0 0 255
0.145971 0.290808 -0.665522 0 255 0
0.489158 -0.209483 -0.463975 0 255 0
-0.472170 0.052593 0.524533 127 0 127
-0.488586 0.303824 -0.003011 127 0 127
-0.194823 -0.052603 0.626637 153 0 76
-0.495768 -0.359088 -0.532989 0 255 0
0.286823 0.197063 -0.729449 0 255 0
-0.083297 0.254266 0.682791 0 0 255
-0.505400 -0.148223 -0.308747 0 255 0
0.125295 -0.427721 -0.292670 0 255 0
-0.469086 -0.530955 -0.074060 0 255 0
0.469087 0.447670 -0.137679 0 255 0
-0.488586 0.382967 0.458908 127 0 127
-0.447551 0.537365 -0.359836 0 255 0
-0.335681 0.537365 -0.461513 0 255 0
0.414815 -0.427091 -0.251841 0 255 0
0.110956 -0.427721 -0.473274 0 255 0
-0.242537 -0.389936 0.129460 127 127 0
0.341471 0.242822 -0.002564 76 153 0
-0.199498 0.002007 -0.666523 0 255 0
-0.501648 -0.453594 0.367876 153 0 76
0.337703 0.537365 -0.358381 0 255 0
0.006385 0.536496 -0.009598 0 255 0
-0.337986 0.534004 0.626637 153 0 76
-0.269496 -0.428400 -0.621770 0 255 0
0.470057 -0.451367 0.102431 153 0 76
-0.549302 0.463752 0.014578 0 255 0
0.268293 0.134223 0.185294 76 153 0
0.294498 -0.423576 -0.645930 0 255 0
-0.051363 0.537309 -0.242431 0 255 0
0.140878 0.458052 -0.729449 0 255 0
-0.498135 -0.009311 0.600265 127 127 0
0.214905 0.144349 -0.729449 0 255 0
0.529510 0.525786 -0.060633 0 255 0
0.129986 -0.062790 -0.729449 0 255 0
-0.217959 0.062142 0.348420 127 0 127
-0.549302 -0.351608 -0.258749 0 255 0
0.095040 -0.311750 -0.666523 0 255 0
-0.159133 0.454024 -0.305314 0 255 0
0.220207 -0.348981 -0.666214 0 255 0
-0.488586 -0.020076 -0.089613 127 127 0
0.241295 0.401662 0.251993 76 153 0
0.168450 0.216028 0.055709 76 153 0
0.461715 0.198105 -0.044477 127 0 127
0.533372 -0.085538 -0.032575 0 255 0
0.261280 -0.135777 -0.665522 0 255 0
-0.488586 -0.045390 0.036005 127 127 0
-0.133535 -0.530955 -0.318190 0 255 0
-0.269818 0.052593 0.024116 127 0 127
0.458503 0.225423 0.682791 0 0 255
-0.501736 -0.076965 0.682785 153 0 76
-0.088834 -0.380387 0.408374 127 127 0
0.271255 0.062142 -0.095992 127 0 127
0.373402 -0.418057 0.682791 0 0 255
0.069872 -0.389936 0.148601 127 127 0
0.454638 -0.368053 -0.087998 127 127 0
-0.075109 -0.530955 -0.410973 0 255 0
0.419120 -0.389668 0.209780 127 127 0
0.533372 -0.084515 -0.553683 0 255 0
-0.339989 -0.380387 0.109770 127 127 0
-0.076094 -0.530955 -0.009682 0 255 0
0.491664 -0.339181 0.626637 153 0 76
0.488925 0.143369 -0.363830 0 255 0
0.078896 -0.506116 -0.729203 0 255 0
-0.488586 -0.017587 0.371387 127 127 0
-0.005252 0.184262 0.626637 153 0 76
0.272722 0.451344 0.016101 76 153 0
-0.102605 0.485199 -0.186410 0 255 0
0.101503 -0.530955 -0.010283 0 255 0
-0.213066 -0.468878 0.060741 0 255 0
0.051000 0.292355 -0.729449 0 255 0
0.500829 0.131764 0.681583 153 0 76
-0.027728 -0.220248 0.682791 0 0 255
-0.161749 -0.380387 0.064658 127 127 0
0.116957 -0.288494 0.626637 153 0 76
0.352940 0.537365 -0.134636 0 255 0
-0.225306 -0.288248 -0.729449 0 255 0
-0.002519 0.406915 -0.665522 0 255 0
0.447170 0.173494 -0.663770 0 255 0
-0.549302 0.110603 -0.459380 0 255 0
-0.372531 0.158735 0.083593 76 153 0
-0.289429 0.525828 -0.726596 0 255 0
-0.549302 0.483791 -0.173705 0 255 0
0.028408 0.062142 0.146888 127 0 127
-0.521553 0.391825 0.679694 153 0 76
-0.472633 -0.118652 -0.660825 0 255 0
-0.354965 0.052593 0.002918 127 0 127
0.261779 -0.389936 0.114860 127 127 0
0.552223 -0.275512 0.679031 153 0 76
0.259175 0.454024 -0.275758 0 255 0
0.461715 0.133962 0.059951 127 0 127
0.390979 0.052593 0.455332 127 0 127
0.461715 0.186762 0.247956 127 0 127
0.382075 0.366867 -0.665522 0 255 0
-0.515053 0.251320 0.681721 153 0 76
0.261325 -0.389936 0.483205 127 127 0
0.228476 -0.427721 -0.339097 0 255 0
-0.407798 0.317779 0.215501 76 153 0
0.418914 -0.426931 -0.537473 0 255 0
0.153746 0.537365 -0.518874 0 255 0
-0.152961 -0.427721 -0.398280 0 255 0
-0.229363 -0.389936 0.430671 127 127 0
0.046644 0.091079 -0.665522 0 255 0
-0.544695 -0.521386 0.045890 0 255 0
-0.071902 -0.389936 -0.087892 127 127 0
-0.332854 0.204582 0.175014 76 153 0
0.011366 -0.222953 -0.729449 0 255 0
-0.247410 0.239467 0.042166 76 153 0
0.299747 0.262829 0.682791 0 0 255
0.461715 -0.325949 0.499944 127 127 0
0.089927 0.471636 -0.657759 0 255 0
-0.549302 -0.446043 -0.183356 0 255 0
0.405200 -0.209586 0.682791 0 0 255
-0.497897 0.358443 -0.260154 0 255 0
0.448450 -0.098068 -0.663275 0 255 0
-0.224215 -0.429634 0.682791 153 0 76
-0.194078 0.235264 -0.729449 0 255 0
0.015469 -0.380387 0.273741 127 127 0
0.461715 0.181140 0.485412 127 0 127
-0.125771 -0.199681 -0.666523 0 255 0
0.360482 -0.427721 -0.182889 0 255 0
0.134687 0.321863 0.680881 153 0 76
-0.223247 -0.427721 -0.310225 0 255 0
-0.504872 -0.120556 -0.466751 0 255 0
-0.077991 0.536364 -0.630293 0 255 0
0.055133 0.243165 0.200110 76 153 0
-0.243747 0.133369 0.049080 76 153 0
-0.549302 0.003042 -0.245131 0 255 0
-0.299771 -0.380387 0.282993 127 127 0
0.064592 0.529102 -0.725205 0 255 0
-0.212802 0.052593 0.565746 127 0 127
0.352574 0.295675 0.184984 76 153 0
0.024310 -0.482138 0.626637 153 0 76
-0.409455 0.191802 0.626637 153 0 76
-0.227228 0.355367 0.166899 76 153 0
-0.134861 -0.346388 0.682791 0 0 255
0.463656 0.075734 -0.656730 0 255 0
0.088923 0.196652 0.682791 0 0 255
-0.486870 -0.459999 -0.010883 153 0 76
0.310799 0.536866 -0.062636 0 255 0
0.395160 -0.389936 0.377171 127 127 0
0.533372 -0.126538 -0.480552 0 255 0
0.452166 -0.157136 0.083726 127 127 0
-0.114806 0.281439 -0.004610 76 153 0
0.244169 0.537365 -0.632270 0 255 0
-0.116666 0.394635 0.103342 76 153 0
0.169314 -0.495841 0.626637 153 0 76
-0.499765 -0.212844 0.682786 153 0 76
0.291103 0.314539 0.247183 76 153 0
-0.498135 -0.203442 0.064714 127 127 0
-0.270015 0.050128 -0.665863 0 255 0
-0.504872 0.236476 -0.393617 0 255 0
-0.242240 0.120585 0.177353 76 153 0
0.461715 0.076959 0.128994 127 0 127
0.232977 0.485199 -0.197377 0 255 0
0.320460 0.100455 -0.729449 0 255 0
-0.502962 -0.028752 -0.529453 0 255 0
0.142593 0.052593 -0.010236 127 0 127
0.362714 0.485199 -0.512936 0 255 0
-0.496290 -0.351435 0.429566 127 127 0
0.049881 0.318295 0.626637 153 0 76
0.452166 -0.168728 0.545470 127 127 0
-0.457282 -0.530955 -0.422921 0 255 0
-0.032119 -0.158298 -0.666523 0 255 0
0.359062 -0.530955 -0.419236 0 255 0
0.371949 0.314233 -0.729449 0 255 0
0.207625 0.052593 0.618998 127 0 127
-0.414807 -0.427520 -0.307173 0 255 0
-0.145640 0.242623 0.237265 76 153 0
0.261157 -0.147486 0.682791 0 0 255
-0.402926 0.499024 0.059184 0 255 0
-0.497796 0.226328 -0.600434 0 255 0
0.452166 -0.162287 -0.088680 127 127 0
-0.494893 -0.366470 -0.321100 0 255 0
0.461715 0.336341 0.018171 127 0 127
-0.488586 -0.214024 0.408832 127 127 0
0.533372 0.112090 -0.107402 0 255 0
-0.287277 -0.427721 -0.118908 0 255 0
-0.454194 -0.448520 -0.729449 0 255 0
0.488989 0.269523 -0.157619 0 255 0
0.546829 -0.457107 0.626638 153 0 76
0.172755 0.060608 -0.098916 127 0 127
0.317356 0.052593 0.205506 127 0 127
0.532370 -0.418305 -0.504490 0 255 0
0.046117 -0.232293 0.626637 153 0 76
0.205186 -0.530955 -0.236149 0 255 0
-0.060028 0.309071 0.626637 153 0 76
0.166181 0.063851 -0.729449 0 255 0
-0.497667 0.316297 -0.597589 0 255 0
0.261048 0.519391 0.626637 153 0 76
-0.168920 0.187560 -0.665522 0 255 0
0.274739 -0.530955 -0.544281 0 255 0
0.439695 0.062142 0.347374 127 0 127
-0.052608 -0.348309 0.682791 0 0 255
0.239567 0.052593 0.170468 127 0 127
-0.027009 0.517168 -0.729103 0 255 0
0.461715 -0.117334 0.206057 127 127 0
0.243246 0.062142 0.334123 127 0 127
-0.154235 -0.311498 -0.666523 0 255 0
0.296495 0.205128 0.055294 76 153 0
-0.462712 -0.037125 -0.664815 0 255 0
-0.377056 -0.135290 -0.729449 0 255 0
0.526531 0.530429 0.041331 0 255 0
0.533372 -0.319393 -0.107545 0 255 0
-0.452234 0.482396 -0.591533 0 255 0
-0.549302 0.028064 -0.373255 0 255 0
0.380661 -0.288879 -0.729449 0 255 0
0.471850 0.537365 -0.660028 0 255 0
0.415526 0.340582 0.704607 204 51 127
-0.132345 0.485199 0.008947 0 255 0
-0.360198 -0.049858 -0.729449 0 255 0
0.520245 -0.012349 0.626637 153 0 76
0.409402 0.483362 -0.227111 0 255 0
-0.549302 0.455203 -0.084745 0 255 0
0.184321 0.355720 0.118088 76 153 0
0.021944 -0.380387 -0.019044 127 127 0
-0.097178 0.062142 0.240516 127 0 127
0.276416 -0.251217 -0.729449 0 255 0
-0.549302 -0.159555 -0.146224 0 255 0
-0.498135 0.221189 0.414742 127 0 127
-0.269178 0.491580 0.626637 153 0 76
0.396889 0.406302 0.027715 76 153 0
0.297996 -0.084707 -0.729449 0 255 0
-0.051356 0.226386 0.293258 76 153 0
-0.498135 -0.318973 -0.088691 127 127 0
-0.122344 0.052593 0.115074 127 0 127
-0.117440 0.536980 -0.404025 0 255 0
0.226341 -0.174161 -0.729449 0 255 0
0.049966 0.358810 0.277573 76 153 0
-0.248243 0.435666 0.220028 76 153 0
0.390075 0.537365 -0.567809 0 255 0
0.533372 0.464917 -0.621420 0 255 0
0.005721 -0.380387 0.403255 127 127 0
-0.321559 -0.332385 -0.729449 0 255 0
0.389332 -0.428346 0.042793 0 255 0
0.043791 0.283517 0.022288 76 153 0
0.479995 -0.234404 0.626637 153 0 76
-0.256938 0.242892 0.164418 76 153 0
0.533097 -0.014252 0.039509 0 255 0
-0.488586 0.321907 0.529643 127 0 127
0.302583 0.384450 0.626637 153 0 76
-0.186814 0.533497 0.678696 153 0 76
-0.547880 -0.516331 -0.123791 0 255 0
0.477875 -0.479898 0.678693 153 0 76
0.181468 -0.133023 -0.665524 0 255 0
0.533372 -0.189410 0.000488 0 255 0
-0.403415 0.119120 0.682791 0 0 255
0.100225 0.465250 -0.311158 0 255 0
-0.173320 0.052593 0.442492 127 0 127
0.143027 -0.069084 0.626637 153 0 76
-0.488586 0.189131 0.004210 127 0 127
0.301309 -0.291262 0.682791 0 0 255
-0.497810 -0.288112 -0.281561 0 255 0
0.533372 0.250910 -0.672626 0 255 0
0.481759 0.193575 -0.595019 0 255 0
-0.498135 0.058867 0.237658 127 0 127
0.527045 0.007036 -0.722622 0 255 0
0.473864 -0.530955 -0.118198 0 255 0
-0.051079 -0.004629 -0.729449 0 255 0
0.166847 0.394475 0.679454 153 0 76
0.461715 -0.212975 0.451436 127 127 0
-0.207273 -0.139242 0.626637 153 0 76
-0.058333 -0.427721 -0.290697 0 255 0
0.461715 0.313820 0.352799 127 0 127
-0.549302 -0.235932 -0.168114 0 255 0
0.140105 -0.530955 -0.617277 0 255 0
0.156852 -0.428623 -0.729449 0 255 0
0.139336 0.133055 -0.665522 0 255 0
-0.372343 0.062142 0.381248 127 0 127
0.166727 0.299529 0.177546 76 153 0
0.089857 0.410805 0.142501 76 153 0
-0.109955 -0.530955 -0.577168 0 255 0
0.166489 0.404583 -0.665522 0 255 0
-0.430161 0.062142 0.025351 127 0 127
-0.176124 -0.427721 -0.235084 0 255 0
0.281164 -0.527018 -0.722114 0 255 0
0.460537 -0.181428 -0.658599 0 255 0
0.094576 -0.260136 -0.729449 0 255 0
-0.254660 -0.360434 0.626637 153 0 76
0.022340 -0.046142 -0.666277 0 255 0
-0.108295 -0.075691 -0.729449 0 255 0
0.162385 0.062142 0.291857 127 0 127
0.008202 -0.428282 -0.247115 0 255 0
0.470865 -0.448478 0.289246 153 0 76
0.232638 0.497531 -0.729446 0 255 0
-0.073441 0.146950 -0.665522 0 255 0
-0.221789 0.036766 0.682791 0 0 255
0.226287 -0.530955 -0.368610 0 255 0
-0.121264 0.384253 0.225424 76 153 0
-0.070213 0.361535 -0.665522 0 255 0
0.456224 -0.074982 0.626637 153 0 76
-0.344577 0.537365 -0.360296 0 255 0
-0.549302 -0.432413 -0.093440 0 255 0
-0.549302 0.336271 -0.145383 0 255 0
-0.221862 0.485199 -0.117625 0 255 0
-0.499795 0.089257 -0.380316 0 255 0
0.156679 -0.428723 -0.035826 0 255 0
-0.099435 -0.044315 0.682791 0 0 255
-0.346124 0.401995 0.038201 76 153 0
-0.479204 0.465599 -0.361714 0 255 0
0.439177 0.001790 -0.665720 0 255 0
-0.109379 0.277096 -0.729449 0 255 0
-0.488586 -0.084805 0.209380 127 127 0
-0.425535 0.354567 -0.729449 0 255 0
0.503079 0.414721 0.626637 153 0 76
-0.381092 -0.360115 0.682791 0 0 255
-0.075952 0.048984 0.682791 0 0 255
-0.549302 -0.382853 -0.604366 0 255 0
-0.245119 -0.529384 -0.714608 0 255 0
-0.352813 0.062142 0.270583 127 0 127
0.366678 -0.152701 -0.665522 0 255 0
-0.037427 0.574591 0.647079 153 0 76
-0.375223 0.256760 -0.665522 0 255 0
0.367659 -0.092381 0.682791 0 0 255
0.197950 -0.280708 -0.729449 0 255 0
0.342009 -0.018668 -0.729449 0 255 0
0.114714 0.537365 -0.444684 0 255 0
0.293954 -0.428646 -0.019164 0 255 0
0.444743 -0.525718 0.055873 0 255 0
0.095339 0.485199 -0.208304 0 255 0
0.384728 0.143807 0.203674 76 153 0
0.214987 0.115471 0.682791 0 0 255
-0.505702 0.137959 -0.248008 0 255 0
-0.075525 0.062142 0.565086 127 0 127
0.104257 0.292794 0.119070 76 153 0
-0.488468 0.425821 -0.644772 0 255 0
-0.584151 -0.447438 0.629681 153 0 76
0.335615 0.062142 -0.013918 127 0 127
-0.377749 -0.285807 -0.665925 0 255 0
0.085306 0.505804 0.679029 153 0 76
0.402304 0.194228 0.626637 153 0 76
-0.488557 0.452874 -0.213117 0 255 0
0.224003 0.284336 0.117194 76 153 0
0.079114 0.537365 -0.602305 0 255 0
-0.486334 -0.467563 0.206388 153 0 76
0.249515 0.117400 -0.665522 0 255 0
-0.158801 0.141741 0.190926 76 153 0
0.564853 0.244948 0.678382 153 0 76
0.242312 -0.271796 0.626637 153 0 76
-0.549114 0.516208 -0.623208 0 255 0
-0.118616 0.073953 -0.729449 0 255 0
-0.054283 -0.530955 -0.498829 0 255 0
0.532932 0.081906 -0.348071 0 255 0
-0.520365 0.097202 0.681289 153 0 76
-0.332892 -0.530955 -0.584517 0 255 0
-0.497644 -0.255755 -0.594698 0 255 0
-0.014163 0.536609 -0.419721 0 255 0
-0.302282 0.117619 0.252535 76 153 0
-0.200142 0.313056 0.681594 0 0 255
-0.315269 0.537121 -0.540374 0 255 0
-0.549302 -0.208656 -0.540325 0 255 0
-0.497378 -0.346060 0.151471 127 127 0
0.110414 0.225282 0.254059 76 153 0
-0.044273 0.052593 0.367572 127 0 127
0.533078 -0.314485 -0.583214 0 255 0
-0.549302 -0.272814 -0.664261 0 255 0
-0.201342 0.537365 -0.237653 0 255 0
0.464573 -0.340315 -0.655610 0 255 0
-0.352771 0.340701 -0.665522 0 255 0
-0.152059 -0.464839 0.626637 153 0 76
-0.394844 0.536468 -0.642174 0 255 0
-0.520611 -0.133173 0.626637 153 0 76
-0.302865 0.317060 0.162163 76 153 0
-0.586734 0.049746 0.642134 153 0 76
0.428522 -0.387952 -0.015646 127 127 0
-0.319846 -0.380387 0.022995 127 127 0
0.480354 -0.359997 -0.188220 0 255 0
-0.278565 0.485199 -0.421673 0 255 0
-0.222481 0.265045 0.229412 76 153 0
0.486145 -0.022029 -0.547387 0 255 0
0.386884 -0.530955 -0.347833 0 255 0
0.461715 -0.091121 0.353306 127 127 0
0.281187 0.052593 0.554739 127 0 127
0.456584 0.464818 -0.291053 0 255 0
0.533372 0.088606 -0.024881 0 255 0
-0.549302 0.194636 -0.655207 0 255 0
0.405861 0.484579 0.043700 0 255 0
0.509380 -0.353314 0.061551 0 255 0
0.041581 0.370695 -0.729449 0 255 0
-0.498135 0.238497 0.499277 127 0 127
-0.397616 0.077523 -0.665523 0 255 0
-0.498135 -0.279790 0.548760 127 127 0
-0.219716 0.349830 0.043068 76 153 0
0.470022 -0.459079 -0.087688 153 0 76
0.365412 -0.530955 -0.014591 0 255 0
0.533372 0.277796 -0.051766 0 255 0
0.020564 -0.298723 -0.729449 0 255 0
0.532370 0.451836 -0.181748 0 255 0
0.298672 -0.406913 -0.729449 0 255 0
-0.236939 0.536363 -0.547542 0 255 0
0.461715 0.252975 0.199902 127 0 127
-0.460017 0.052593 0.160385 127 0 127
0.488943 0.203887 -0.458514 0 255 0
-0.488586 0.160977 0.369227 127 0 127
-0.388433 -0.530955 -0.390573 0 255 0
0.376984 0.228004 0.120992 76 153 0
-0.063683 0.237716 0.030575 76 153 0
-0.532291 0.278308 -0.727524 0 255 0
0.262413 0.000451 0.626637 153 0 76
0.452166 -0.110659 0.006541 127 127 0
0.189209 -0.530955 -0.042974 0 255 0
0.018895 -0.530955 -0.079681 0 255 0
-0.549302 0.061229 -0.651696 0 255 0
0.127586 0.413002 0.020253 76 153 0
0.344539 0.573476 0.632780 153 0 76
-0.058113 0.537365 -0.051702 0 255 0
0.479713 -0.496030 0.430120 153 0 76
-0.013052 0.485199 -0.504379 0 255 0
0.381559 0.052593 0.299867 127 0 127
-0.099843 0.537365 -0.128909 0 255 0
-0.374440 -0.191379 -0.666523 0 255 0
-0.024752 0.062142 0.093061 127 0 127
-0.316170 -0.492737 -0.729448 0 255 0
0.385613 0.273455 -0.665522 0 255 0
-0.488586 0.325363 0.076892 127 0 127
-0.011237 -0.395868 -0.729449 0 255 0
-0.056009 -0.428723 -0.578887 0 255 0
0.441702 0.537365 -0.073401 0 255 0
0.138394 0.269647 -0.003148 76 153 0
-0.245946 0.537364 0.013148 0 255 0
-0.488586 0.297649 0.370624 127 0 127
0.347040 0.450548 -0.665722 0 255 0
0.020851 0.318594 -0.665522 0 255 0
-0.505312 0.123602 -0.162712 0 255 0
-0.157513 -0.257901 0.682791 0 0 255
-0.009125 0.232410 -0.729449 0 255 0
0.488943 0.185408 -0.196652 0 255 0
-0.437268 0.524193 0.626637 153 0 76
-0.549302 0.118586 -0.312565 0 255 0
0.368784 0.266433 0.252343 76 153 0
-0.314190 -0.376634 -0.665854 0 255 0
-0.462493 0.038033 -0.664460 0 255 0
-0.452735 -0.171997 -0.729449 0 255 0
0.488943 -0.152836 -0.194793 0 255 0
0.519293 -0.262672 -0.726413 0 255 0
0.264738 -0.530772 0.031500 0 255 0
-0.113187 0.450836 0.679362 153 0 76
-0.549302 0.458183 -0.574872 0 255 0
-0.549301 -0.488963 -0.496247 0 255 0
-0.549302 0.305858 -0.400573 0 255 0
0.096355 0.052593 0.180176 127 0 127
0.284007 -0.465011 0.680558 153 0 76
-0.167038 -0.427721 -0.149130 0 255 0
-0.498135 -0.086183 0.477487 127 127 0
0.174468 -0.380387 0.211342 127 127 0
0.133432 0.363318 0.755266 204 51 127
0.266757 -0.288932 -0.665714 0 255 0
-0.263614 0.470958 -0.658069 0 255 0
-0.236787 0.425539 -0.729449 0 255 0
0.315482 0.485199 -0.191291 0 255 0
0.075371 0.361897 0.204646 76 153 0
0.533372 0.306236 -0.385658 0 255 0
0.480918 0.389482 -0.478358 0 255 0
-0.294414 0.291010 0.682765 0 0 255
0.533372 0.061387 -0.213247 0 255 0
-0.498135 -0.288286 0.387926 127 127 0
-0.549302 0.252576 -0.144093 0 255 0
0.236926 0.400117 -0.729449 0 255 0
0.522343 0.533901 -0.354355 0 255 0
-0.023345 -0.530954 -0.681967 0 255 0
-0.086692 -0.204469 0.626637 153 0 76
-0.517487 0.183673 0.626637 153 0 76
0.250458 0.485199 -0.427305 0 255 0
-0.362422 0.141946 -0.729449 0 255 0
0.354237 0.485199 -0.430750 0 255 0
0.360370 -0.389936 0.098947 127 127 0
0.452166 0.227106 0.568831 127 0 127
0.505166 -0.530690 -0.665675 0 255 0
0.376947 0.283946 0.066937 76 153 0
0.242975 0.402506 0.064941 76 153 0
0.327186 0.537365 -0.665579 0 255 0
-0.469947 0.537365 -0.539294 0 255 0
0.513457 0.224169 0.061040 0 255 0
-0.261020 0.356186 0.232509 76 153 0
-0.472944 -0.461051 0.061585 0 255 0
0.289065 -0.204106 -0.665522 0 255 0
0.116187 0.485199 -0.102812 0 255 0
-0.287534 -0.172490 -0.666351 0 255 0
-0.185067 -0.179729 -0.729449 0 255 0
-0.429631 0.537365 -0.173459 0 255 0
0.533371 -0.338740 -0.281960 0 255 0
0.456127 -0.530955 -0.307346 0 255 0
0.306492 0.452944 0.679508 153 0 76
-0.043809 0.062142 -0.025406 127 0 127
-0.074870 0.537365 -0.318479 0 255 0
-0.424588 -0.207353 0.626637 153 0 76
0.327568 0.377025 0.002266 76 153 0
-0.459608 -0.528197 -0.718372 0 255 0
0.370477 -0.389936 0.509358 127 127 0
0.533372 -0.039228 -0.089668 0 255 0
-0.089528 0.356186 0.679643 204 51 127
-0.351809 -0.427721 -0.470680 0 255 0
0.104207 0.062142 0.339326 127 0 127
0.476129 -0.530955 -0.234509 0 255 0
-0.001789 0.335093 0.750679 204 51 127
0.484157 0.341592 -0.144256 0 255 0
-0.226357 -0.088683 0.682791 0 0 255
0.219229 0.536837 -0.123466 0 255 0
0.276355 0.062142 0.041334 127 0 127
0.532370 0.464534 -0.100819 0 255 0
-0.474363 -0.251247 -0.729449 0 255 0
-0.168972 -0.306335 0.626637 153 0 76
0.043687 -0.389936 0.609375 127 127 0
0.194222 -0.530955 -0.521570 0 255 0
0.181459 -0.435440 0.056301 0 255 0
0.062314 -0.527615 0.051532 0 255 0
0.471931 -0.346046 -0.729449 0 255 0
-0.488586 0.189935 0.555917 127 0 127
-0.557324 -0.308919 0.678778 153 0 76
-0.549302 -0.208639 -0.405651 0 255 0
-0.397534 0.454024 -0.273887 0 255 0
0.203392 -0.427721 -0.554956 0 255 0
-0.549302 -0.287897 -0.440144 0 255 0
-0.292831 0.278975 -0.665522 0 255 0
0.533372 -0.226243 -0.604610 0 255 0
0.305217 -0.530955 -0.165028 0 255 0
0.532404 0.256767 -0.312410 0 255 0
-0.053846 -0.051835 0.626637 153 0 76
-0.380346 -0.528237 0.049874 0 255 0
-0.293641 0.105780 0.682791 0 0 255
0.533104 0.010674 -0.312041 0 255 0
0.470011 0.384446 0.683843 153 0 76
-0.056407 0.197988 0.108447 76 153 0
-0.319448 0.199467 0.043942 76 153 0
0.171815 -0.145431 0.682791 0 0 255
-0.284910 -0.069018 0.626637 153 0 76
0.153738 -0.357580 0.682791 0 0 255
-0.469721 0.537365 -0.004247 0 255 0
0.086874 0.189557 0.077406 76 153 0
0.049134 0.238392 0.626637 153 0 76
-0.266246 0.019607 0.626637 153 0 76
-0.218035 0.202816 0.099768 76 153 0
-0.331438 0.062142 -0.087951 127 0 127
0.452166 0.228980 0.124272 127 0 127
0.386307 0.052593 0.118337 127 0 127
0.533372 0.350481 -0.018099 0 255 0
-0.424509 0.255688 -0.729449 0 255 0
0.203997 0.062142 0.435969 127 0 127
-0.383673 0.485199 -0.500128 0 255 0
0.422458 0.537365 -0.172980 0 255 0
-0.422998 0.003593 -0.729449 0 255 0
-0.231564 -0.380387 -0.044152 127 127 0
0.221943 0.537365 -0.479439 0 255 0
-0.325340 0.052593 0.161527 127 0 127
0.406874 0.414963 0.626637 153 0 76
-0.125611 0.281390 0.171906 76 153 0
-0.266500 -0.212412 -0.729449 0 255 0
-0.203712 0.536930 -0.474397 0 255 0
0.391908 -0.322787 0.682791 0 0 255
-0.549302 -0.077934 -0.235028 0 255 0
-0.584595 -0.187498 0.676599 153 0 76
0.533296 -0.246547 -0.291750 0 255 0
0.117176 -0.530955 -0.371177 0 255 0
0.176735 0.263556 0.682791 0 0 255
0.453297 0.342218 -0.661400 0 255 0
0.169323 0.452807 0.272951 76 153 0
-0.549302 0.475779 -0.264847 0 255 0
0.271795 0.227939 -0.665522 0 255 0
0.140123 0.052593 0.594436 127 0 127
-0.003477 -0.284235 0.626637 153 0 76
-0.495451 0.537365 -0.282579 0 255 0
0.293983 0.205557 0.177758 76 153 0
0.425895 0.518470 0.679683 153 0 76
0.271714 0.513462 0.061452 0 255 0
0.544697 -0.108335 0.626638 153 0 76
-0.454427 -0.376825 -0.729449 0 255 0
0.042133 -0.459025 0.060643 0 255 0
-0.105323 0.485199 -0.518570 0 255 0
-0.421740 -0.380387 0.513127 127 127 0
0.532370 -0.348336 -0.485401 0 255 0
0.461715 -0.004784 -0.091216 127 127 0
0.249855 -0.030122 -0.729449 0 255 0
0.479475 -0.041697 -0.625792 0 255 0
0.423292 -0.263458 -0.665565 0 255 0
-0.488586 -0.244122 -0.035424 127 127 0
0.057387 0.182665 -0.729449 0 255 0
-0.030723 -0.476970 0.679877 153 0 76
0.533371 -0.401762 -0.671299 0 255 0
-0.169697 -0.016324 0.682791 0 0 255
0.045504 -0.182360 0.682791 0 0 255
0.091371 0.044204 -0.729449 0 255 0
-0.122871 -0.032832 -0.666524 0 255 0
-0.460621 -0.094607 0.626637 153 0 76
0.533372 0.276620 -0.476203 0 255 0
0.057680 0.372371 0.091874 76 153 0
-0.498135 0.272362 0.248259 127 0 127
-0.500563 0.093657 -0.522910 0 255 0
0.383648 -0.008523 0.626637 153 0 76
0.000023 -0.530955 -0.393752 0 255 0
0.452166 -0.303231 0.065765 127 127 0
-0.290047 -0.458001 0.060634 0 255 0
-0.498135 -0.322948 0.290763 127 127 0
0.332778 -0.386669 0.626637 153 0 76
-0.166477 0.062142 0.618773 127 0 127
-0.356424 0.537365 -0.127818 0 255 0
0.200671 0.169877 0.179593 76 153 0
0.481206 0.029685 -0.490199 0 255 0
0.482009 0.001866 -0.209732 0 255 0
-0.488586 0.389837 -0.012697 127 0 127
0.482080 0.355996 -0.267563 0 255 0
-0.206380 0.437784 0.679029 153 0 76
0.246820 0.369671 0.679695 204 51 127
-0.517907 -0.529810 0.664381 153 0 76
-0.240650 0.423560 0.025464 76 153 0
-0.020277 0.504827 0.626637 153 0 76
-0.157930 0.136503 -0.729449 0 255 0
0.501449 -0.522319 0.627294 153 0 76
-0.029571 0.485199 -0.173700 0 255 0
-0.381476 -0.317240 0.626637 153 0 76
-0.441389 -0.380387 0.054127 127 127 0
0.095035 -0.392358 -0.665784 0 255 0
-0.210677 0.536364 -0.667370 0 255 0
-0.460338 0.191476 -0.664843 0 255 0
-0.290012 0.429133 0.154387 76 153 0
0.014349 -0.069999 0.626637 153 0 76
-0.499670 0.345959 -0.516942 0 255 0
0.500260 0.537183 -0.209160 0 255 0
-0.188697 0.049804 -0.729449 0 255 0
-0.041904 0.485199 -0.006357 0 255 0
-0.499920 0.343742 -0.337348 0 255 0
-0.281280 0.485199 -0.188953 0 255 0
-0.314348 0.052593 0.484596 127 0 127
0.354940 -0.200924 0.626637 153 0 76
-0.180211 0.139613 0.626637 153 0 76
-0.218880 0.352256 -0.729449 0 255 0
0.468561 0.295110 0.682703 0 0 255
0.447835 0.471246 -0.037781 0 255 0
-0.058931 0.283721 0.231502 76 153 0
-0.498135 0.187598 0.149607 127 0 127
-0.388700 0.537365 0.001292 0 255 0
-0.214093 -0.025777 -0.729449 0 255 0
0.327464 0.105218 0.079060 76 153 0
-0.184457 0.364118 0.110927 76 153 0
0.286497 0.389513 0.121620 76 153 0
0.533372 0.351945 -0.623641 0 255 0
0.256374 -0.067427 0.682791 0 0 255
0.134575 -0.027757 0.682791 0 0 255
0.533372 0.255412 -0.592030 0 255 0
-0.315130 -0.027146 -0.666523 0 255 0
0.110977 0.485199 -0.009508 0 255 0
0.533372 -0.052570 -0.179597 0 255 0
0.386842 0.175948 0.266038 76 153 0
-0.177853 0.425170 0.232340 76 153 0
-0.549302 -0.064984 -0.107161 0 255 0
-0.537430 0.471810 0.679483 153 0 76
-0.442760 0.104428 0.626637 153 0 76
-0.232179 -0.530955 -0.112165 0 255 0
0.488826 -0.043192 -0.304658 0 255 0
0.386474 0.400658 0.203679 76 153 0
0.517241 -0.204342 0.679690 153 0 76
-0.552260 -0.064637 0.626637 153 0 76
0.280165 -0.031486 -0.665522 0 255 0
0.433256 0.272781 0.626637 153 0 76
0.371958 0.228076 0.682791 0 0 255
-0.118153 0.485200 -0.595579 0 255 0
-0.309287 -0.530955 -0.133202 0 255 0
-0.497752 0.023222 0.012728 0 255 0
0.452166 0.267039 -0.012938 127 0 127
-0.257784 0.485199 -0.320779 0 255 0
0.014139 0.171436 -0.665522 0 255 0
0.532370 -0.145312 -0.369842 0 255 0
0.479750 -0.365868 -0.317015 0 255 0
0.335440 -0.427721 -0.098582 0 255 0
-0.549302 0.076443 -0.583834 0 255 0
0.461715 0.104970 0.210009 127 0 127
0.481206 -0.303310 -0.498912 0 255 0
-0.354866 0.229161 0.236136 76 153 0
-0.476461 0.349888 -0.658705 0 255 0
-0.498135 -0.008220 0.219713 127 127 0
-0.251017 0.052593 0.285764 127 0 127
0.081253 0.052593 0.051103 127 0 127
-0.341579 -0.530955 -0.194612 0 255 0
-0.293417 0.537365 -0.055613 0 255 0
0.488943 -0.129815 -0.290503 0 255 0
-0.101055 0.453859 -0.729449 0 255 0
-0.549302 0.323587 -0.229411 0 255 0
0.272665 0.137961 0.254335 76 153 0
0.161241 -0.530955 -0.149455 0 255 0
0.461715 0.057428 0.009642 127 0 127
0.410573 -0.434286 0.626637 153 0 76
0.156889 0.365714 0.251236 76 153 0
0.300734 0.308632 0.000459 76 153 0
-0.465324 -0.386160 0.285005 127 127 0
0.064886 -0.179313 -0.729449 0 255 0
0.461715 -0.098242 0.561880 127 127 0
-0.407561 0.470567 -0.658238 0 255 0
0.488364 -0.237261 -0.190151 0 255 0
0.486235 0.196522 0.626637 153 0 76
0.171346 0.462340 0.146886 76 153 0
-0.144644 0.350516 0.000380 76 153 0
0.178341 0.225448 0.242556 76 153 0
-0.516537 -0.530860 -0.354118 0 255 0
0.026137 0.485199 -0.578256 0 255 0
-0.274459 0.492539 0.056773 0 255 0
-0.025379 -0.125322 0.682791 0 0 255
0.170964 -0.244555 0.626637 153 0 76
0.246931 0.377065 -0.665522 0 255 0
0.315766 -0.380387 0.233313 127 127 0
0.133354 0.152569 0.190456 76 153 0
-0.166997 -0.128104 0.682791 0 0 255
0.369082 -0.207752 -0.729449 0 255 0
0.218816 0.481459 0.679387 153 0 76
0.121543 0.485199 -0.399636 0 255 0
-0.199511 0.485199 -0.193117 0 255 0
0.030813 0.392257 0.626637 153 0 76
0.172179 0.537365 -0.228380 0 255 0
-0.050399 -0.521406 0.057958 0 255 0
-0.497324 0.360444 -0.439067 0 255 0
-0.549302 -0.420101 -0.260090 0 255 0
-0.092475 -0.342928 -0.666324 0 255 0
-0.335803 0.268680 0.050636 76 153 0
0.533372 -0.254045 -0.038512 0 255 0
-0.371379 0.062142 0.526459 127 0 127
0.188295 0.537365 -0.578480 0 255 0
-0.160020 -0.389936 0.400714 127 127 0
0.382734 0.039178 0.682791 0 0 255
-0.421521 -0.530955 -0.529500 0 255 0
-0.118785 0.193572 -0.001681 76 153 0
0.121746 0.363860 0.069526 76 153 0
0.247143 -0.427721 -0.273317 0 255 0
0.003648 0.052593 0.209900 127 0 127
0.451578 0.468897 -0.441719 0 255 0
0.182909 0.090437 0.142057 76 153 0
0.387914 0.474273 -0.729449 0 255 0
0.160998 0.253220 0.112551 76 153 0
-0.498135 -0.202632 0.276081 127 127 0
0.057719 0.176336 0.214019 76 153 0
0.238006 -0.427721 -0.418496 0 255 0
0.331989 0.100848 0.682791 0 0 255
-0.257892 -0.505843 0.679561 153 0 76
0.205088 0.459748 0.019641 76 153 0
-0.547725 -0.296919 0.044908 0 255 0
0.452166 -0.082868 0.420303 127 127 0
0.565784 0.523816 0.628614 153 0 76
-0.498135 -0.073750 -0.039215 127 127 0
-0.219364 0.327890 -0.665522 0 255 0
0.533372 0.038108 -0.543870 0 255 0
-0.146422 0.405312 -0.665522 0 255 0
-0.332715 0.335618 0.062423 76 153 0
0.078623 -0.428723 -0.117317 0 255 0
-0.392277 -0.499636 0.626637 153 0 76
0.452166 -0.093167 -0.083146 127 127 0
0.110278 0.485199 -0.519677 0 255 0
0.346643 0.423622 0.269366 76 153 0
0.374093 0.115207 0.030733 76 153 0
0.532370 -0.351342 -0.398857 0 255 0
-0.172147 0.242195 -0.024167 76 153 0
0.007137 0.536485 -0.146537 0 255 0
0.311129 0.052593 0.288297 127 0 127
0.243218 -0.459233 0.626637 153 0 76
-0.355418 -0.389936 0.416966 127 127 0
-0.021739 -0.389936 0.032391 127 127 0
-0.418404 0.306610 0.099142 76 153 0
-0.549302 0.462968 -0.479973 0 255 0
-0.498135 0.400535 0.166659 127 0 127
0.428860 0.324843 0.081695 76 153 0
-0.021577 0.418344 -0.729449 0 255 0
-0.118304 0.240069 0.626637 153 0 76
-0.131341 0.186145 0.110649 76 153 0
-0.011832 -0.389936 0.126677 127 127 0
0.362685 0.092515 -0.665522 0 255 0
-0.549302 0.464905 -0.358014 0 255 0
-0.494434 0.409927 0.617894 127 0 127
-0.296704 -0.240188 0.682791 0 0 255
0.419757 0.052593 -0.050128 127 0 127
0.481209 0.355509 -0.562718 0 255 0
-0.392162 -0.407251 0.626637 153 0 76
0.133355 -0.380387 0.059441 127 127 0
-0.549302 0.401290 -0.125736 0 255 0
0.028277 0.485199 -0.059083 0 255 0
-0.283974 0.243725 0.099438 76 153 0
0.488943 0.259436 -0.411839 0 255 0
0.300224 -0.347544 -0.665688 0 255 0
0.568397 0.011088 0.676918 153 0 76
-0.141129 0.335281 0.748839 204 51 127
-0.542793 0.340988 0.626637 153 0 76
0.461086 -0.409614 -0.392667 0 255 0
0.165227 0.042484 -0.665522 0 255 0
-0.302817 0.485199 -0.100524 0 255 0
-0.505400 0.221287 -0.249343 0 255 0
-0.362905 -0.427721 -0.141706 0 255 0
-0.549302 0.230416 -0.072748 0 255 0
-0.179544 -0.389936 0.541785 127 127 0
0.269876 0.537365 -0.176122 0 255 0
0.461715 -0.251486 -0.021515 127 127 0
0.142393 0.340275 0.003574 76 153 0
0.533372 0.347728 -0.484358 0 255 0
-0.186654 0.485199 -0.514401 0 255 0
-0.324869 0.111776 0.076379 76 153 0
-0.274301 0.311262 0.035328 76 153 0
-0.192177 0.537365 -0.325566 0 255 0
-0.062650 0.203934 0.217777 76 153 0
0.321286 0.537365 -0.522140 0 255 0
0.123124 0.445551 0.679362 153 0 76
-0.549302 0.168462 -0.116730 0 255 0
0.017194 0.052593 0.534140 127 0 127
-0.122636 -0.513013 0.679633 153 0 76
-0.488586 0.251332 0.053059 127 0 127
-0.263523 -0.102508 -0.666523 0 255 0
-0.549302 0.331689 -0.078386 0 255 0
-0.549302 -0.295170 -0.125067 0 255 0
-0.549302 0.345814 -0.562130 0 255 0
-0.143707 0.485199 -0.125327 0 255 0
-0.487973 -0.530955 -0.150233 0 255 0
0.533372 0.426524 -0.458957 0 255 0
-0.337757 0.240657 0.626637 153 0 76
-0.546744 -0.076889 0.046910 0 255 0
-0.338252 -0.297914 0.682791 0 0 255
0.104147 0.333141 -0.729449 0 255 0
0.418106 0.537365 -0.408964 0 255 0
0.452166 -0.155488 0.151838 127 127 0
-0.549302 0.179460 -0.022331 0 255 0
0.354764 -0.530955 -0.486059 0 255 0
-0.283475 -0.182308 0.626637 153 0 76
0.129417 -0.247085 -0.666523 0 255 0
-0.234680 -0.530034 0.044201 0 255 0
0.270126 0.485199 -0.041572 0 255 0
0.218011 0.414968 0.190393 76 153 0
0.027452 0.485199 -0.385768 0 255 0
-0.416627 0.485097 -0.331803 0 255 0
-0.498135 -0.197169 0.132247 127 127 0
-0.080446 -0.501702 -0.729298 0 255 0
-0.549302 -0.021642 -0.434822 0 255 0
0.293118 -0.175468 0.626637 153 0 76
-0.489772 0.448301 -0.532416 0 255 0
0.206271 0.308744 0.000459 76 153 0
0.417630 -0.530955 -0.167457 0 255 0
-0.232540 0.138991 0.682791 0 0 255
-0.180334 -0.530955 -0.666970 0 255 0
0.533372 0.125197 -0.559269 0 255 0
0.481208 0.379024 -0.349015 0 255 0
-0.495018 -0.530955 -0.252864 0 255 0
0.309600 0.346347 0.178614 76 153 0
0.532370 -0.443495 -0.403091 0 255 0
-0.331218 0.200517 -0.665522 0 255 0
-0.549302 -0.275897 -0.322159 0 255 0
-0.080332 -0.389936 0.473832 127 127 0
0.452166 0.157476 -0.096477 127 0 127
0.343925 0.328052 0.685523 204 51 127
0.238036 -0.530955 -0.294141 0 255 0
0.275662 0.471993 0.212449 76 153 0
-0.440882 0.062142 0.274994 127 0 127
0.452166 -0.303792 0.586316 127 127 0
-0.220150 -0.264772 -0.666523 0 255 0
-0.132192 -0.327321 -0.729449 0 255 0
0.481206 0.040724 -0.593405 0 255 0
0.483173 0.084699 -0.452793 0 255 0
0.071081 0.062142 0.615235 127 0 127
0.175599 0.100194 0.022525 76 153 0
-0.361181 -0.380387 -0.029786 127 127 0
0.457632 -0.004137 0.162951 127 127 0
0.262990 -0.427721 -0.587494 0 255 0
0.205846 -0.380387 -0.064041 127 127 0
0.235070 0.158205 0.626637 153 0 76
-0.161652 0.352558 0.177258 76 153 0
-0.497136 -0.305571 -0.493672 0 255 0
-0.549302 0.006839 -0.089710 0 255 0
-0.119919 0.315390 0.246220 76 153 0
-0.264664 0.181070 -0.729449 0 255 0
-0.092296 0.485199 -0.437100 0 255 0
-0.101040 0.485199 -0.059897 0 255 0
0.299292 0.533111 0.679093 153 0 76
0.242380 0.257085 0.626637 153 0 76
-0.523881 0.509449 0.626637 153 0 76
0.533372 -0.015856 -0.251308 0 255 0
0.409817 0.160459 0.091402 76 153 0
-0.450582 -0.389611 0.187815 127 127 0
0.271388 0.189064 -0.003821 76 153 0
-0.051910 0.231208 0.626637 153 0 76
-0.496875 -0.348623 -0.411280 0 255 0
0.356894 -0.367329 -0.729449 0 255 0
0.467975 0.450654 0.033624 0 255 0
-0.413783 -0.349411 -0.665837 0 255 0
-0.331446 0.537365 -0.193328 0 255 0
-0.387207 -0.427721 -0.541760 0 255 0
-0.216045 0.361876 0.626637 153 0 76
0.361099 -0.427596 -0.619914 0 255 0
-0.543225 0.168672 -0.722266 0 255 0
-0.364969 0.014610 0.626637 153 0 76
-0.488586 -0.029299 0.528862 127 127 0
0.252387 -0.389936 0.180191 127 127 0
0.108588 0.250259 0.060959 76 153 0
0.091919 -0.442795 0.626637 153 0 76
0.066952 -0.040453 0.682791 0 0 255
0.533372 0.077821 -0.670336 0 255 0
0.110473 0.210747 -0.665522 0 255 0
0.514106 0.049207 0.680515 153 0 76
0.239215 0.137929 0.061344 76 153 0
0.207606 0.485213 -0.615621 0 255 0
0.173315 0.328023 0.626637 153 0 76
-0.488586 0.117597 0.031519 127 0 127
-0.090014 -0.380387 0.177793 127 127 0
-0.012182 -0.389936 0.551381 127 127 0
-0.549302 -0.047305 -0.348938 0 255 0
-0.206286 0.052593 0.127479 127 0 127
-0.100609 -0.129082 0.682791 0 0 255
-0.488586 0.108113 0.111243 127 0 127
-0.231215 -0.284335 0.626637 153 0 76
-0.094802 -0.427721 -0.358018 0 255 0
-0.549134 -0.057776 -0.704420 0 255 0
-0.304954 0.052593 0.402055 127 0 127
0.139766 0.453182 0.208519 76 153 0
-0.522615 -0.346152 0.626637 153 0 76
0.533101 0.233706 -0.192976 0 255 0
-0.549302 0.407324 -0.031472 0 255 0
0.171823 0.188280 0.682791 0 0 255
0.031785 0.284323 0.274971 76 153 0
-0.099835 -0.138528 -0.666523 0 255 0
-0.073948 0.260208 0.091178 76 153 0
-0.549302 -0.118543 -0.656027 0 255 0
-0.479931 0.537365 -0.106932 0 255 0
-0.190717 0.195534 0.232218 76 153 0
0.418812 -0.380119 0.278396 127 127 0
-0.156855 -0.530955 -0.165865 0 255 0
0.533003 -0.410469 0.040514 0 255 0
-0.104230 -0.389936 0.319099 127 127 0
-0.111089 0.112276 0.289256 76 153 0
0.475216 -0.480641 -0.729449 0 255 0
0.041400 0.052593 -0.039007 127 0 127
-0.158864 -0.401849 -0.664636 0 255 0
-0.372237 -0.061903 -0.666523 0 255 0
0.124338 -0.530955 -0.267887 0 255 0
0.170131 0.287442 -0.729449 0 255 0
0.487039 -0.167569 -0.729449 0 255 0
-0.457699 0.243244 0.626637 153 0 76
-0.549302 0.070615 -0.226239 0 255 0
0.363488 0.439491 0.147791 76 153 0
0.318724 -0.389936 0.345345 127 127 0
0.318681 0.276823 -0.729449 0 255 0
-0.356940 0.286135 0.182719 76 153 0
0.276580 0.485199 -0.486909 0 255 0
0.452166 0.240246 0.370500 127 0 127
0.452166 0.347179 0.184042 127 0 127
-0.424143 0.204157 0.232702 76 153 0
-0.390555 -0.058935 0.626637 153 0 76
-0.549302 -0.435646 -0.420117 0 255 0
-0.139331 -0.380387 -0.039023 127 127 0
-0.549302 0.109860 -0.057116 0 255 0
0.037718 0.309704 0.213871 76 153 0
0.022949 0.029374 -0.665638 0 255 0
0.447923 -0.360534 0.405463 127 127 0
0.533372 0.188955 -0.063427 0 255 0
-0.185842 0.229413 0.626637 153 0 76
-0.058852 -0.428723 -0.485823 0 255 0
0.533372 0.474942 -0.687793 0 255 0
0.037364 0.062142 0.431614 127 0 127
0.533372 -0.051006 -0.425079 0 255 0
0.461715 -0.272495 0.197821 127 127 0
-0.446881 0.062142 0.431995 127 0 127
-0.440916 -0.425297 -0.596796 0 255 0
0.365841 0.485199 -0.008390 0 255 0
-0.058263 0.079637 0.626637 153 0 76
0.154177 0.485199 -0.341278 0 255 0
0.486888 -0.229124 -0.559382 0 255 0
0.204645 -0.380387 0.081565 127 127 0
-0.339893 0.420169 0.626637 153 0 76
0.424744 0.477240 0.626637 153 0 76
-0.027585 -0.424339 -0.645555 0 255 0
-0.227252 -0.364791 -0.729449 0 255 0
0.481206 -0.302781 -0.375190 0 255 0
-0.091176 0.481611 0.626637 153 0 76
-0.253325 0.264286 -0.017312 76 153 0
-0.213720 0.292121 0.164632 76 153 0
-0.119398 0.378921 0.626637 153 0 76
-0.133166 0.485199 -0.368649 0 255 0
-0.498135 0.085447 0.332370 127 0 127
0.139773 -0.426468 -0.633958 0 255 0
-0.549302 -0.395186 -0.535662 0 255 0
0.481243 0.120644 -0.604516 0 255 0
-0.202550 0.485199 -0.369850 0 255 0
0.303463 0.319789 0.626637 153 0 76
0.518955 0.103211 0.626637 153 0 76
0.051598 0.537365 -0.286593 0 255 0
0.164591 -0.057637 -0.665522 0 255 0
0.554009 -0.418403 0.679038 153 0 76
-0.373051 0.201508 0.682791 0 0 255
-0.269666 -0.530955 -0.596965 0 255 0
-0.549159 -0.170317 0.029242 0 255 0
0.487896 -0.530955 -0.445481 0 255 0
-0.160540 -0.415570 0.682791 0 0 255
0.004672 0.481299 -0.231184 0 255 0
0.481246 0.075367 -0.116287 0 255 0
-0.419345 0.199997 0.296750 76 153 0
-0.214356 0.141982 -0.665522 0 255 0
-0.488586 0.263313 0.185266 127 0 127
-0.415029 -0.427509 -0.055228 0 255 0
0.069993 -0.530955 -0.414913 0 255 0
0.457849 -0.413773 -0.475262 0 255 0
-0.213146 0.130244 -0.007630 76 153 0
0.095097 0.271279 0.682791 0 0 255
-0.218082 0.537365 -0.080291 0 255 0
0.401337 -0.427524 -0.068580 0 255 0
0.135878 -0.428161 -0.183267 0 255 0
0.532370 0.386527 -0.240571 0 255 0
0.533372 -0.419539 -0.042912 0 255 0
-0.200855 0.062142 0.499610 127 0 127
-0.307924 0.373521 0.127976 76 153 0
0.157405 0.172670 -0.729449 0 255 0
-0.389280 -0.443117 -0.729449 0 255 0
-0.485410 0.052593 0.589602 127 0 127
0.471185 0.573508 0.674940 153 0 76
0.532370 0.476800 -0.308364 0 255 0
-0.110667 0.214007 -0.665522 0 255 0
0.330782 0.062142 0.435909 127 0 127
0.158823 -0.389936 0.472268 127 127 0
-0.053585 0.072881 -0.729449 0 255 0
-0.490782 -0.496934 0.416454 153 0 76
0.524202 0.406435 -0.724525 0 255 0
0.457874 0.001354 0.626637 153 0 76
0.016729 0.523928 0.679527 153 0 76
0.514750 -0.201501 0.060277 0 255 0
0.026674 -0.529760 0.668995 153 0 76
0.156529 0.536364 -0.092070 0 255 0
-0.107756 0.125979 0.094183 76 153 0
-0.519868 -0.473755 0.625602 153 0 76
-0.544162 0.528845 0.048578 0 255 0
-0.430847 0.239151 0.104187 76 153 0
-0.394977 0.476594 0.626637 153 0 76
0.452166 0.344167 -0.074636 127 0 127
-0.234523 0.537365 -0.176790 0 255 0
0.533371 0.329144 -0.093055 0 255 0
0.398410 0.453995 0.679684 153 0 76
0.250746 0.062858 0.682791 0 0 255
0.070255 -0.338398 -0.729449 0 255 0
0.471284 -0.447146 0.165852 153 0 76
-0.144874 0.305599 0.045968 76 153 0
-0.497785 0.032732 -0.123744 0 255 0
-0.502574 -0.025643 -0.211632 0 255 0
0.231179 0.310886 0.059936 76 153 0
-0.114110 -0.428346 -0.448746 0 255 0
-0.501577 0.313348 0.681036 153 0 76
0.445954 0.033467 0.682791 0 0 255
0.028086 -0.046199 -0.729449 0 255 0
-0.454598 0.481979 -0.265964 0 255 0
0.482949 -0.101985 -0.587908 0 255 0
0.568553 0.306966 0.630713 153 0 76
0.497664 -0.158929 0.626637 153 0 76
0.105086 0.537365 -0.660034 0 255 0
0.107623 0.074086 -0.665522 0 255 0
0.304124 0.377682 0.251032 76 153 0
-0.476240 0.536164 0.679078 153 0 76
0.262152 0.113223 0.125930 76 153 0
0.348034 -0.529852 0.652545 153 0 76
-0.128901 0.536364 -0.476208 0 255 0
-0.417455 -0.100141 0.682791 0 0 255
0.239269 0.536363 -0.062166 0 255 0
-0.549302 0.211569 -0.432604 0 255 0
-0.422639 -0.389936 0.377270 127 127 0
0.084981 0.114547 0.682791 0 0 255
0.406389 0.062142 0.576011 127 0 127
0.235015 -0.078367 -0.665522 0 255 0
-0.549302 0.361445 -0.296645 0 255 0
-0.466475 0.537365 -0.427871 0 255 0
-0.488586 -0.191498 0.002295 127 127 0
-0.361225 0.178962 0.001436 76 153 0
0.452166 -0.254699 0.257509 127 127 0
0.181411 0.381135 0.058957 76 153 0
-0.022889 0.481743 -0.642578 0 255 0
0.056139 -0.530955 -0.130495 0 255 0
0.143961 0.181066 0.001339 76 153 0
0.532370 0.311865 -0.278751 0 255 0
-0.108143 0.384658 0.040891 76 153 0
0.441316 0.052593 0.250719 127 0 127
0.533372 -0.102037 -0.093825 0 255 0
0.488045 0.117155 -0.257409 0 255 0
-0.497524 0.410626 -0.160259 0 255 0
-0.488586 -0.262518 0.045309 127 127 0
0.488943 -0.179334 -0.408770 0 255 0
-0.323465 -0.123731 0.682791 0 0 255
0.246463 -0.209692 0.682791 0 0 255
0.106394 0.280985 0.187991 76 153 0
-0.365969 0.106524 0.228100 76 153 0
-0.454310 0.137375 -0.729449 0 255 0
-0.549302 -0.164435 -0.473340 0 255 0
0.350415 0.162350 0.066799 76 153 0
0.376007 0.336839 0.626637 153 0 76
-0.333313 -0.241515 -0.665990 0 255 0
-0.329155 0.402667 0.275102 76 153 0
-0.359187 0.392760 0.679633 153 0 76
-0.496788 -0.354693 -0.175718 0 255 0
-0.498135 -0.310641 0.092163 127 127 0
-0.549302 -0.072211 -0.532285 0 255 0
-0.015220 0.033668 0.682791 0 0 255
0.489087 0.270913 -0.541595 0 255 0
0.233679 0.295931 0.682690 0 0 255
0.510521 -0.409327 -0.729091 0 255 0
0.488943 0.196425 -0.330610 0 255 0
-0.230835 0.566113 0.626760 153 0 76
0.281598 0.273815 0.059936 76 153 0
-0.199381 0.058494 -0.098916 127 0 127
-0.318035 0.066412 0.626637 153 0 76
0.079319 -0.525966 0.628984 153 0 76
0.165231 0.153951 0.062594 76 153 0
0.461715 0.314005 0.466654 127 0 127
0.364260 0.537365 -0.293125 0 255 0
0.471977 -0.393561 -0.240290 0 255 0
0.533372 0.389322 -0.381826 0 255 0
-0.412670 -0.380716 -0.098916 127 127 0
-0.018605 0.536547 -0.562590 0 255 0
-0.456113 -0.388810 0.566615 127 127 0
-0.145117 0.032629 -0.666109 0 255 0
-0.004964 0.118663 0.626637 153 0 76
0.533372 0.128405 -0.208907 0 255 0
0.046787 0.485199 0.000415 0 255 0
-0.497395 0.006731 -0.279525 0 255 0
0.171022 -0.015989 -0.729449 0 255 0
0.023242 -0.428493 -0.145724 0 255 0
-0.236889 -0.389936 0.308042 127 127 0
-0.089621 -0.477129 0.626637 153 0 76
-0.424424 0.300484 0.626637 153 0 76
0.533372 0.086798 -0.489443 0 255 0
0.485497 0.537365 -0.430509 0 255 0
0.409371 -0.389936 0.137185 127 127 0
-0.310028 -0.380387 0.535643 127 127 0
-0.549302 -0.460638 -0.684243 0 255 0
-0.164271 -0.102643 -0.729449 0 255 0
-0.298947 0.145503 0.172553 76 153 0
-0.549302 -0.274765 -0.228511 0 255 0
0.460685 0.537365 -0.347648 0 255 0
0.205506 0.467952 -0.303731 0 255 0
-0.549302 0.420225 -0.434931 0 255 0
-0.490624 0.446240 0.024844 0 255 0
-0.096948 -0.530955 -0.147551 0 255 0
-0.498135 0.095295 0.487814 127 0 127
0.193530 -0.033110 0.626637 153 0 76
0.248265 -0.427721 -0.207543 0 255 0
-0.549302 -0.344056 -0.652684 0 255 0
-0.401251 -0.149993 0.626637 153 0 76
0.511298 -0.530582 -0.511294 0 255 0
0.297405 -0.243528 0.626637 153 0 76
-0.501681 -0.477174 -0.073504 153 0 76
0.479655 -0.496075 0.327786 153 0 76
-0.379819 0.509606 0.679249 153 0 76
-0.170111 0.485199 -0.248831 0 255 0
0.105774 -0.312195 0.682791 0 0 255
-0.195822 0.180064 0.046785 76 153 0
-0.393074 -0.530955 -0.268361 0 255 0
-0.497722 -0.189352 -0.068235 0 255 0
-0.090394 0.173644 0.682791 0 0 255
0.452131 0.244136 -0.661851 0 255 0
0.481206 0.034425 -0.335618 0 255 0
0.230066 -0.530955 -0.430242 0 255 0
-0.434905 -0.268273 0.626637 153 0 76
-0.083895 -0.345832 0.626637 153 0 76
-0.322294 0.176816 0.233361 76 153 0
0.102204 -0.403250 0.682791 0 0 255
-0.385312 0.062142 0.150713 127 0 127
-0.293016 0.356693 0.626637 153 0 76
-0.372793 -0.389936 0.173336 127 127 0
0.337187 -0.530955 -0.274830 0 255 0
-0.436087 -0.426163 -0.211523 0 255 0
-0.128673 0.537365 -0.206101 0 255 0
0.058481 0.406619 0.679695 153 0 76
-0.068429 0.326266 0.110492 76 153 0
-0.235493 -0.389936 0.491831 127 127 0
-0.141508 0.536364 -0.620366 0 255 0
-0.256539 0.352987 0.679695 204 51 127
-0.387007 0.207062 -0.729449 0 255 0
0.452166 0.115952 0.375901 127 0 127
0.377973 -0.123743 0.626637 153 0 76
0.452166 -0.221434 0.379383 127 127 0
0.327058 0.123293 0.199559 76 153 0
0.300484 0.153489 0.682791 0 0 255
-0.323583 0.052593 0.060280 127 0 127
-0.238866 -0.045034 -0.666523 0 255 0
-0.549302 -0.093794 -0.307130 0 255 0
-0.549302 0.166816 -0.599338 0 255 0
-0.545663 0.526982 -0.683482 0 255 0
-0.288530 0.537365 -0.335406 0 255 0
-0.488586 0.099731 -0.092803 127 0 127
0.437905 0.052593 0.407883 127 0 127
-0.344893 0.536364 -0.683059 0 255 0
-0.246041 0.242102 0.682791 0 0 255
-0.497439 -0.071968 -0.596508 0 255 0
-0.029416 0.489884 0.053439 0 255 0
-0.549302 -0.409801 -0.035923 0 255 0
-0.549302 -0.250090 -0.070123 0 255 0
0.439553 0.412272 -0.665729 0 255 0
-0.498135 -0.163903 0.371303 127 127 0
-0.342176 0.485199 -0.257003 0 255 0
0.452166 0.066237 0.069472 127 0 127
-0.373642 0.209514 0.117771 76 153 0
-0.498135 -0.209533 0.513724 127 127 0
0.352111 0.375040 0.065582 76 153 0
-0.355336 0.409589 -0.665522 0 255 0
0.288546 0.267923 0.182188 76 153 0
0.151004 0.473732 -0.654610 0 255 0
-0.367313 -0.228861 0.626637 153 0 76
0.180311 -0.084852 0.682791 0 0 255
-0.314552 -0.427721 -0.417280 0 255 0
-0.549302 0.030100 -0.167033 0 255 0
0.270069 -0.380387 0.614624 127 127 0
-0.397668 0.423677 -0.729449 0 255 0
0.227375 0.231691 0.059936 76 153 0
-0.339221 -0.011380 0.682791 0 0 255
0.079329 -0.096901 -0.729449 0 255 0
0.043350 0.062142 0.304558 127 0 127
-0.304066 0.330048 -0.729449 0 255 0
0.351020 0.209675 -0.665522 0 255 0
0.133619 -0.521418 0.057665 0 255 0
0.157951 0.052593 0.474729 127 0 127
-0.505521 -0.229379 -0.221605 0 255 0
0.208183 0.217756 -0.729449 0 255 0
0.251978 -0.327010 0.682791 0 0 255
0.304079 -0.530955 -0.601809 0 255 0
-0.513233 -0.433544 -0.729318 0 255 0
-0.462831 0.536211 -0.704645 0 255 0
-0.052640 0.480684 -0.313807 0 255 0
