ply
format ascii 1.0
element vertex 1290
property float x
property float y
property float z
property uchar red
property uchar green
property uchar blue
end_header
0.223213 0.534494 -0.407209 0 255 0
0.298847 -0.380388 0.613672 127 127 0
0.302864 0.254118 0.182188 76 153 0
-0.475986 0.534494 -0.682942 0 255 0
0.021395 0.534494 -0.517951 0 255 0
0.238791 0.062141 0.099644 127 0 127
-0.488541 -0.337804 -0.000016 127 127 0
-0.546431 0.344315 0.037017 0 255 0
0.463885 -0.199816 0.677926 0 0 255
0.244159 -0.430592 -0.668102 0 255 0
-0.308338 0.291079 0.233080 76 153 0
-0.298851 0.062141 0.288976 127 0 127
-0.400166 -0.380388 -0.092622 127 127 0
0.530213 -0.528084 -0.302977 0 255 0
0.143559 0.180722 0.252896 76 153 0
-0.340660 0.534494 -0.271480 0 255 0
-0.505710 -0.017562 -0.351189 0 255 0
0.387166 0.052593 0.116600 127 0 127
-0.094685 0.359868 0.628406 153 0 76
-0.347417 0.407268 0.628406 153 0 76
0.320599 0.364837 0.181287 76 153 0
-0.546431 0.124848 -0.038378 0 255 0
-0.546431 -0.169881 0.057136 0 255 0
0.231103 0.147112 0.628406 153 0 76
0.072887 0.392964 0.149004 76 153 0
-0.507744 0.103148 -0.272027 0 255 0
0.327095 0.062141 -0.045513 127 0 127
-0.487935 -0.368653 0.244275 127 127 0
0.484934 -0.082276 -0.580696 0 255 0
0.457281 -0.355095 0.681021 0 0 255
-0.237397 0.062141 -0.018009 127 0 127
0.139374 -0.479425 0.628406 153 0 76
-0.469975 -0.322419 0.677926 0 0 255
0.395335 -0.472307 0.628406 153 0 76
0.530501 0.290123 -0.668568 0 255 0
0.383118 0.062141 0.573792 127 0 127
0.452167 0.116489 -0.067994 127 0 127
-0.498135 0.320397 0.538947 127 0 127
0.166234 0.458383 0.140839 76 153 0
-0.181720 0.196221 0.168321 76 153 0
-0.417188 0.040840 0.681021 0 0 255
-0.180788 -0.389936 0.241053 127 127 0
-0.444785 0.052593 0.304740 127 0 127
-0.307447 0.534494 -0.153275 0 255 0
-0.144156 -0.155833 0.681021 0 0 255
0.348786 0.286619 0.681021 0 0 255
-0.140861 -0.234732 -0.726579 0 255 0
-0.216179 -0.380563 0.681021 0 0 255
-0.488586 0.300245 0.069943 127 0 127
0.003527 0.062141 0.474449 127 0 127
0.220266 -0.006083 -0.726579 0 255 0
0.461715 -0.280353 0.244434 127 127 0
0.484077 -0.351424 -0.230656 0 255 0
-0.161547 -0.380388 0.485354 127 127 0
-0.170871 0.131499 0.677926 0 0 255
0.505777 -0.140082 0.628406 153 0 76
-0.389033 0.337276 0.712979 204 51 127
0.530501 -0.135710 -0.693125 0 255 0
0.284271 -0.127061 0.628406 153 0 76
0.325153 0.460189 0.279133 76 153 0
-0.546431 0.413393 -0.162674 0 255 0
0.071921 0.117944 0.628406 153 0 76
0.355274 -0.430592 -0.165844 0 255 0
-0.331906 -0.528084 -0.164749 0 255 0
0.325729 0.052593 0.518179 127 0 127
0.358446 0.111369 0.271956 76 153 0
0.121965 0.171307 -0.726579 0 255 0
0.185481 0.488069 -0.471099 0 255 0
-0.338377 -0.528084 -0.653474 0 255 0
-0.079557 0.422243 0.677926 153 0 76
-0.254450 0.534494 -0.309183 0 255 0
0.388824 0.131303 -0.726579 0 255 0
-0.402800 0.488069 -0.352473 0 255 0
-0.375382 0.052593 0.012503 127 0 127
-0.064880 0.534494 -0.564963 0 255 0
-0.060042 -0.380388 -0.091862 127 127 0
0.260878 0.362226 -0.004184 76 153 0
-0.202565 -0.380388 0.159472 127 127 0
0.527593 -0.528084 -0.642552 0 255 0
-0.135702 0.534494 -0.637994 0 255 0
0.026695 -0.430592 -0.535871 0 255 0
0.211606 -0.249015 0.628406 153 0 76
-0.410665 -0.323549 0.628406 153 0 76
0.323789 -0.380388 0.115428 127 127 0
0.484077 -0.078200 -0.008080 0 255 0
0.484077 0.347565 -0.348874 0 255 0
-0.076306 -0.227069 0.628406 153 0 76
0.454937 0.472521 -0.196714 0 255 0
0.530501 0.345655 -0.207059 0 255 0
-0.478615 0.368254 -0.726579 0 255 0
0.461715 0.260066 0.204492 127 0 127
0.484077 -0.468706 -0.184327 0 255 0
0.491814 0.204312 -0.406210 0 255 0
-0.302468 -0.380388 0.427552 127 127 0
-0.412904 -0.528084 -0.227941 0 255 0
-0.546431 -0.232985 -0.072537 0 255 0
-0.291811 0.205323 0.035241 76 153 0
-0.201776 0.247214 -0.017312 76 153 0
0.249218 -0.380388 -0.017971 127 127 0
-0.411002 0.280867 -0.726579 0 255 0
0.154535 -0.430592 -0.436566 0 255 0
0.304644 0.111451 -0.668394 0 255 0
0.420957 0.534494 -0.154145 0 255 0
-0.362174 -0.043982 0.681021 0 0 255
-0.048693 -0.063774 0.628406 153 0 76
0.389528 -0.136880 -0.726579 0 255 0
0.006114 -0.067007 -0.726579 0 255 0
-0.500006 0.002844 -0.266856 0 255 0
-0.272761 0.091449 -0.668394 0 255 0
0.011882 -0.380388 0.073090 127 127 0
-0.546431 -0.124816 -0.663624 0 255 0
0.231786 -0.389936 0.483716 127 127 0
0.043704 -0.430592 -0.147721 0 255 0
0.225698 0.284611 0.681021 0 0 255
0.350897 -0.000505 0.628406 153 0 76
-0.196850 -0.430592 -0.215911 0 255 0
0.424445 -0.018347 -0.668394 0 255 0
0.108973 0.052593 0.091055 127 0 127
-0.364617 0.223661 0.241027 76 153 0
-0.022599 0.162125 -0.668394 0 255 0
-0.414109 -0.466826 -0.726579 0 255 0
-0.221355 0.364083 0.170649 76 153 0
-0.331680 -0.521999 0.058929 0 255 0
0.530501 -0.097523 -0.284862 0 255 0
-0.444767 -0.528084 -0.553564 0 255 0
0.378986 0.138625 0.080784 76 153 0
-0.038557 0.103342 0.628406 153 0 76
0.292950 0.532013 0.058929 0 255 0
0.530501 0.464988 -0.661928 0 255 0
-0.263727 0.454024 -0.308038 0 255 0
0.256417 -0.511052 0.058929 0 255 0
-0.325737 0.375234 -0.726579 0 255 0
0.179161 -0.450993 0.055834 0 255 0
-0.265825 -0.016467 -0.668394 0 255 0
0.200924 0.534494 -0.642906 0 255 0
-0.125850 0.207301 0.118400 76 153 0
0.358536 0.534494 -0.496154 0 255 0
-0.488586 -0.039177 0.252980 127 127 0
0.461715 -0.174434 0.127526 127 127 0
-0.235150 -0.373898 -0.668394 0 255 0
-0.480593 0.475256 -0.589422 0 255 0
-0.179763 0.353394 -0.668394 0 255 0
0.457594 0.534494 0.038923 0 255 0
-0.073361 0.341543 0.050277 76 153 0
-0.228441 -0.453551 0.628406 153 0 76
-0.326414 0.141156 0.183003 76 153 0
0.266258 0.213696 0.628406 153 0 76
-0.191861 0.196878 0.044635 76 153 0
-0.211891 0.417182 0.093559 76 153 0
0.484077 -0.295152 -0.495043 0 255 0
-0.500006 -0.467009 -0.332835 0 255 0
0.273943 -0.430592 -0.294076 0 255 0
-0.498135 0.379810 0.448319 127 0 127
-0.335746 -0.133255 0.681021 0 0 255
0.376220 0.534494 -0.396444 0 255 0
0.322477 -0.454190 0.628406 153 0 76
-0.546431 0.205694 -0.231446 0 255 0
0.096880 -0.020158 -0.668394 0 255 0
-0.432918 0.056176 -0.098916 127 0 127
0.477992 0.218628 -0.668394 0 255 0
0.491814 -0.054570 -0.406882 0 255 0
-0.196251 0.228785 0.681021 0 0 255
0.086490 0.122805 -0.668394 0 255 0
0.197071 -0.380388 -0.096393 127 127 0
0.313776 0.383290 0.628406 153 0 76
-0.004509 -0.380388 0.605177 127 127 0
0.267081 -0.205062 -0.726579 0 255 0
0.059223 -0.238701 -0.668394 0 255 0
-0.542300 -0.527706 0.628406 153 0 76
0.332843 0.270430 -0.668394 0 255 0
-0.187420 -0.528084 -0.323337 0 255 0
0.530501 0.497143 -0.227999 0 255 0
-0.546431 0.397181 -0.503376 0 255 0
-0.064341 0.488069 -0.025410 0 255 0
0.406485 -0.316301 0.628406 153 0 76
0.337767 -0.528084 -0.488661 0 255 0
0.164472 0.060298 0.681021 0 0 255
-0.118089 -0.528084 -0.649127 0 255 0
-0.262434 0.534494 -0.383275 0 255 0
-0.037877 -0.380388 0.189894 127 127 0
-0.008415 -0.324527 0.677926 0 0 255
-0.488586 -0.045976 0.005792 127 127 0
-0.562192 -0.067535 0.677926 153 0 76
-0.546431 0.196230 -0.001559 0 255 0
0.530501 0.408450 -0.263299 0 255 0
0.178038 0.266794 0.000458 76 153 0
-0.384171 0.062141 0.251077 127 0 127
-0.219272 0.301995 0.681021 0 0 255
-0.340468 -0.355543 -0.668394 0 255 0
0.530501 0.439183 -0.423008 0 255 0
-0.258929 -0.297278 -0.726579 0 255 0
0.203107 -0.393901 -0.726579 0 255 0
-0.434251 0.497760 0.677926 153 0 76
-0.500006 -0.359224 -0.293233 0 255 0
-0.483203 0.472967 -0.427461 0 255 0
-0.525870 -0.391133 0.677926 153 0 76
-0.499758 -0.497156 -0.159218 0 255 0
0.452167 -0.263658 0.152277 127 127 0
-0.193321 0.062141 0.567919 127 0 127
-0.498135 0.396096 -0.079275 127 0 127
0.058816 0.319523 0.077221 76 153 0
0.073644 -0.381973 -0.668394 0 255 0
0.474941 0.534494 -0.682405 0 255 0
0.461715 0.406830 0.242388 127 0 127
-0.446261 -0.211229 0.628406 153 0 76
0.491814 0.119767 -0.220787 0 255 0
-0.004984 0.373664 -0.668394 0 255 0
-0.254398 0.124067 0.250869 76 153 0
-0.498135 0.226859 0.256699 127 0 127
0.423736 -0.389063 0.353034 127 127 0
0.484077 0.360984 -0.499597 0 255 0
-0.546431 -0.148435 -0.413092 0 255 0
0.156188 -0.430592 -0.306833 0 255 0
-0.516695 -0.528084 -0.470379 0 255 0
0.235871 -0.109561 0.681021 0 0 255
-0.331555 -0.380388 0.075568 127 127 0
-0.455300 -0.528084 -0.386629 0 255 0
0.517904 -0.201308 0.058929 0 255 0
0.512916 -0.286059 0.677926 153 0 76
-0.307905 0.488069 -0.010583 0 255 0
0.484077 -0.494688 -0.417293 0 255 0
-0.093612 -0.380388 0.270065 127 127 0
-0.317839 -0.477893 0.628406 153 0 76
0.491814 -0.223680 -0.429583 0 255 0
-0.066656 -0.437610 0.628406 153 0 76
0.284119 -0.497546 0.677926 153 0 76
0.407076 -0.207884 0.628406 153 0 76
0.530501 0.418095 -0.093483 0 255 0
0.231827 0.449480 0.013994 76 153 0
0.322132 -0.325455 -0.668394 0 255 0
-0.283539 -0.014888 0.628406 153 0 76
-0.507744 -0.213410 -0.292609 0 255 0
-0.410209 -0.389936 0.328959 127 127 0
0.454697 0.534494 -0.289366 0 255 0
-0.162272 -0.380388 0.388994 127 127 0
0.230253 -0.528084 -0.216830 0 255 0
0.127048 -0.160415 0.628406 153 0 76
-0.273415 0.534494 0.056765 0 255 0
-0.487626 -0.452510 -0.578376 0 255 0
0.224273 0.315082 0.059936 76 153 0
0.323503 -0.366217 0.681021 0 0 255
0.404553 -0.380388 -0.007825 127 127 0
-0.275979 -0.430592 -0.037100 0 255 0
0.002233 -0.528084 -0.179552 0 255 0
-0.488586 0.319488 0.384968 127 0 127
-0.500006 0.039218 -0.579706 0 255 0
0.075388 -0.256544 0.681021 0 0 255
0.250385 0.455441 -0.258543 0 255 0
0.471697 -0.489339 0.018014 153 0 76
-0.408465 -0.013511 -0.668394 0 255 0
-0.188901 0.233510 -0.668394 0 255 0
0.461715 -0.224031 0.366689 127 127 0
-0.208320 0.488069 -0.198837 0 255 0
0.408247 -0.367882 -0.726579 0 255 0
0.297608 0.375704 -0.726579 0 255 0
0.130463 -0.528084 -0.345937 0 255 0
0.383613 0.480738 -0.726579 0 255 0
0.221868 0.310505 0.247183 76 153 0
0.186512 0.126881 0.193817 76 153 0
0.423811 -0.430592 -0.292638 0 255 0
0.211341 0.294413 -0.726579 0 255 0
0.530501 -0.413928 -0.471888 0 255 0
-0.187661 0.488069 -0.092222 0 255 0
-0.312678 0.052593 0.502141 127 0 127
-0.070837 0.061073 0.677926 0 0 255
0.461715 0.163695 0.092083 127 0 127
-0.132157 0.301691 0.246918 76 153 0
0.135356 0.449197 -0.668394 0 255 0
0.301708 0.119294 0.070117 76 153 0
-0.138445 -0.363518 -0.668394 0 255 0
0.196586 0.400548 0.670964 153 0 76
0.181132 0.097311 -0.726579 0 255 0
-0.205646 0.429180 0.216945 76 153 0
-0.038451 -0.366111 -0.668394 0 255 0
-0.310251 0.423620 0.222212 76 153 0
0.526699 0.035218 0.677926 153 0 76
0.122210 0.052593 0.520917 127 0 127
-0.327635 0.045673 0.681021 0 0 255
0.045229 0.265987 -0.668394 0 255 0
-0.413293 0.488069 0.010799 0 255 0
-0.090035 -0.528084 -0.308311 0 255 0
-0.321422 -0.141886 -0.668394 0 255 0
0.174295 0.550232 0.628406 153 0 76
0.319045 0.102335 0.206149 76 153 0
-0.484414 0.471825 -0.012986 0 255 0
0.550303 0.518450 0.677926 153 0 76
0.196345 -0.161328 -0.726579 0 255 0
0.420060 -0.250250 -0.668394 0 255 0
-0.498135 0.404768 0.303686 127 0 127
0.452167 0.357971 0.557825 127 0 127
0.399948 -0.064167 -0.726579 0 255 0
0.192552 0.286993 0.182188 76 153 0
-0.411718 -0.524190 0.628406 153 0 76
0.220122 0.534494 -0.562733 0 255 0
-0.519408 0.109921 0.677926 153 0 76
0.080998 -0.389936 0.102074 127 127 0
-0.265006 -0.134354 -0.726579 0 255 0
0.313657 0.116766 0.628406 153 0 76
-0.085128 -0.528084 -0.539696 0 255 0
0.378943 0.180791 0.677926 0 0 255
0.530501 0.084669 -0.062049 0 255 0
-0.008097 -0.106908 -0.668394 0 255 0
0.530501 0.126351 -0.436319 0 255 0
-0.546431 -0.492086 -0.257833 0 255 0
-0.300226 0.488069 -0.646609 0 255 0
-0.325459 0.257731 0.160667 76 153 0
0.397197 0.375396 0.200556 76 153 0
0.530501 0.120546 -0.293440 0 255 0
-0.513028 0.440775 0.677926 153 0 76
0.519565 0.003030 0.058929 0 255 0
0.083376 -0.380388 0.426613 127 127 0
0.452167 0.229046 0.333997 127 0 127
-0.105051 0.373154 -0.668394 0 255 0
-0.012452 -0.430592 -0.264312 0 255 0
-0.558402 0.164370 0.628406 153 0 76
-0.297714 -0.528084 -0.530381 0 255 0
-0.356448 -0.380388 0.210429 127 127 0
-0.258605 0.297281 0.033466 76 153 0
0.491814 0.123566 -0.522309 0 255 0
-0.140170 0.395772 0.276638 76 153 0
-0.066216 0.285511 0.224045 76 153 0
-0.142375 0.475009 0.677926 153 0 76
0.016792 -0.258902 -0.726579 0 255 0
0.451684 -0.195926 -0.726579 0 255 0
0.097314 0.426261 0.277044 76 153 0
-0.174879 0.134947 -0.002898 76 153 0
-0.344465 0.400877 0.036178 76 153 0
-0.425746 -0.380388 0.184070 127 127 0
-0.188029 0.056490 0.681021 0 0 255
0.022718 -0.008629 0.677926 0 0 255
-0.107807 0.052593 0.562121 127 0 127
-0.144323 -0.380388 -0.089614 127 127 0
0.285681 0.488069 -0.149708 0 255 0
-0.094893 0.534494 -0.259409 0 255 0
0.385419 -0.054851 0.681021 0 0 255
-0.450197 0.435030 -0.726579 0 255 0
-0.193032 -0.067807 -0.668394 0 255 0
0.518078 -0.528084 -0.055320 0 255 0
-0.388442 0.130930 0.226418 76 153 0
-0.208022 0.516142 -0.726579 0 255 0
-0.301145 -0.246386 0.681021 0 0 255
-0.273288 -0.430592 -0.350769 0 255 0
-0.062710 0.062141 0.232757 127 0 127
-0.546431 0.424461 -0.383476 0 255 0
0.094996 0.122391 0.088507 76 153 0
-0.330183 0.503737 0.677926 153 0 76
-0.399014 0.246357 0.628406 153 0 76
0.480481 -0.392031 -0.554338 0 255 0
-0.546431 0.205400 -0.454189 0 255 0
0.129230 0.534494 -0.231343 0 255 0
0.394576 0.052593 0.289250 127 0 127
0.344523 0.465206 -0.668394 0 255 0
0.291610 -0.091301 -0.668394 0 255 0
-0.396537 0.353119 0.297773 76 153 0
-0.333129 0.145004 -0.668394 0 255 0
0.471697 -0.482083 -0.283621 0 255 0
0.461715 0.269156 0.440974 127 0 127
-0.311202 0.283745 0.628406 153 0 76
0.437441 0.534494 -0.060617 0 255 0
0.370192 0.245254 -0.726579 0 255 0
-0.168068 0.267750 0.628406 153 0 76
0.452167 -0.011453 0.556930 127 127 0
0.283988 0.233424 0.117194 76 153 0
0.162874 0.311846 0.112725 76 153 0
-0.159943 0.062141 -0.059764 127 0 127
-0.074254 0.155100 0.165837 76 153 0
-0.304272 0.062141 -0.044720 127 0 127
0.113791 0.062141 0.393995 127 0 127
-0.546431 0.495589 -0.095067 0 255 0
-0.488586 0.244115 -0.012304 127 0 127
-0.277483 0.084645 0.151195 76 153 0
-0.515197 -0.019081 0.628406 153 0 76
0.373664 -0.153183 0.681021 0 0 255
0.264501 0.361917 0.117644 76 153 0
-0.403360 0.178668 0.681021 0 0 255
-0.370321 -0.420446 -0.668394 0 255 0
-0.463565 -0.424122 -0.160617 0 255 0
-0.530348 0.296258 0.677926 153 0 76
0.456956 0.052593 0.519874 127 0 127
0.287256 -0.389936 0.543887 127 127 0
0.047860 0.420013 0.677926 153 0 76
0.455501 0.052593 0.201648 127 0 127
-0.035391 -0.380388 0.464461 127 127 0
0.452167 0.181379 0.469083 127 0 127
-0.498135 -0.300781 0.546139 127 127 0
0.456639 0.004870 -0.726579 0 255 0
0.286563 0.469669 0.206815 76 153 0
0.518215 -0.368216 0.628406 153 0 76
0.530501 0.487856 -0.358572 0 255 0
0.086386 0.062141 0.183097 127 0 127
-0.445688 0.105147 0.681021 0 0 255
-0.362439 0.143314 0.076839 76 153 0
0.008733 0.376231 0.741957 204 51 127
-0.507744 0.327215 -0.456242 0 255 0
-0.382711 -0.430592 -0.362439 0 255 0
-0.138318 -0.004499 -0.668394 0 255 0
-0.122543 -0.305818 0.628406 153 0 76
-0.216898 -0.528084 -0.398822 0 255 0
0.185651 0.460311 -0.726579 0 255 0
-0.156550 -0.315780 -0.726579 0 255 0
-0.488586 0.121257 0.005975 127 0 127
0.150697 0.219668 -0.668394 0 255 0
-0.319601 -0.528084 -0.389318 0 255 0
-0.068363 0.534494 -0.154034 0 255 0
-0.422362 0.488069 -0.211671 0 255 0
0.018021 -0.170323 0.628406 153 0 76
-0.546431 -0.261805 -0.377254 0 255 0
-0.488586 0.396009 0.029951 127 0 127
0.460613 -0.353105 -0.039741 127 127 0
-0.247744 -0.380388 0.055237 127 127 0
-0.546431 0.136179 -0.675792 0 255 0
0.381889 0.325172 0.070436 76 153 0
0.342960 0.534494 -0.119045 0 255 0
-0.153890 -0.381839 0.628406 127 127 0
-0.428233 0.222416 0.160762 76 153 0
-0.231764 0.248310 0.229412 76 153 0
0.092405 0.307143 0.005695 76 153 0
0.143011 0.111637 0.265283 76 153 0
-0.498135 -0.320761 0.374310 127 127 0
-0.546431 -0.137506 -0.223341 0 255 0
-0.500006 0.408262 -0.590428 0 255 0
0.162584 0.218564 0.055294 76 153 0
0.530501 0.491463 -0.126475 0 255 0
-0.546431 -0.319747 -0.037335 0 255 0
0.530501 -0.351262 -0.403790 0 255 0
0.245379 0.534494 -0.010269 0 255 0
-0.212483 -0.098129 0.677926 0 0 255
-0.091809 0.006995 0.628406 153 0 76
-0.137489 0.134130 -0.726579 0 255 0
0.459636 0.269213 -0.726579 0 255 0
0.034943 0.297777 0.214102 76 153 0
-0.423969 -0.430592 -0.042759 0 255 0
-0.500006 0.376990 -0.257866 0 255 0
0.530501 -0.485109 -0.527752 0 255 0
0.379807 -0.283504 -0.726579 0 255 0
-0.015118 0.453858 -0.726579 0 255 0
-0.546431 0.191076 -0.572565 0 255 0
0.518734 -0.485646 0.677926 153 0 76
-0.288304 0.242944 0.681021 0 0 255
-0.546431 -0.432959 -0.392917 0 255 0
-0.048949 0.488069 -0.374027 0 255 0
-0.552120 -0.170496 0.677926 153 0 76
-0.500006 -0.448574 0.189976 153 0 76
0.339770 -0.000688 -0.668394 0 255 0
0.128616 0.357605 0.254430 76 153 0
-0.046778 0.229138 -0.668394 0 255 0
-0.546431 -0.009157 -0.065428 0 255 0
-0.099681 -0.178224 -0.726579 0 255 0
-0.340991 0.534494 -0.583577 0 255 0
0.092979 0.280114 0.251311 76 153 0
0.569189 -0.087547 0.629462 153 0 76
-0.119079 0.226315 0.052205 76 153 0
-0.231895 0.052593 0.065220 76 153 0
0.484077 0.382864 -0.171760 0 255 0
-0.342494 0.251729 0.043118 76 153 0
-0.062517 0.052593 -0.009724 127 0 127
-0.142696 0.327529 -0.726579 0 255 0
-0.546431 0.129525 -0.499805 0 255 0
0.461715 -0.105740 0.056852 127 127 0
-0.490542 -0.477483 -0.668394 0 255 0
-0.500006 -0.334468 -0.468250 0 255 0
0.448310 -0.409961 0.628406 153 0 76
-0.267686 -0.430592 -0.453314 0 255 0
-0.498135 0.052676 0.361476 127 0 127
0.530501 -0.187926 -0.313298 0 255 0
-0.514248 0.534494 -0.229328 0 255 0
0.242371 0.505368 0.628406 153 0 76
0.444502 -0.528084 -0.169697 0 255 0
-0.443323 0.087443 -0.726579 0 255 0
0.340826 -0.459123 -0.726579 0 255 0
0.050522 0.231639 0.628406 153 0 76
0.291405 -0.250000 0.628406 153 0 76
-0.485970 -0.371103 0.321780 127 127 0
-0.437889 0.362932 -0.668394 0 255 0
-0.546431 0.217534 -0.074814 0 255 0
0.444230 0.158849 0.681021 0 0 255
-0.456222 0.534494 -0.445281 0 255 0
-0.398896 0.352237 0.223260 76 153 0
-0.430979 0.062141 0.477042 127 0 127
-0.362909 -0.430592 -0.005550 0 255 0
0.484393 -0.263273 -0.327018 0 255 0
0.530501 -0.374435 -0.280161 0 255 0
-0.331007 0.077812 -0.726579 0 255 0
0.408121 0.169883 0.139898 76 153 0
0.159745 0.114076 0.131508 76 153 0
0.318735 0.174268 -0.726579 0 255 0
0.123383 -0.380388 -0.090529 127 127 0
0.104355 -0.146007 -0.726579 0 255 0
0.324452 0.457554 0.148011 76 153 0
-0.546431 0.437306 -0.275491 0 255 0
-0.445765 0.180175 -0.668394 0 255 0
-0.429443 -0.110626 0.681021 0 0 255
-0.509096 0.471528 -0.726579 0 255 0
-0.159208 0.534494 -0.515578 0 255 0
0.169091 0.370547 -0.668394 0 255 0
-0.026957 0.062141 0.127502 127 0 127
0.074749 0.534494 -0.698014 0 255 0
-0.500006 -0.316912 -0.134300 0 255 0
0.530501 -0.451970 -0.233338 0 255 0
0.200284 -0.380388 0.034720 127 127 0
-0.546431 0.111895 -0.142043 0 255 0
-0.546431 -0.212481 -0.717291 0 255 0
0.271094 -0.528084 -0.086391 0 255 0
-0.269754 -0.208909 -0.668394 0 255 0
0.118365 -0.380388 0.268341 127 127 0
0.368134 -0.528084 -0.725736 0 255 0
-0.164278 0.534494 -0.173374 0 255 0
0.009424 0.534494 0.006982 0 255 0
-0.334204 -0.528084 -0.316148 0 255 0
-0.541305 0.053088 0.628406 153 0 76
-0.500006 0.317590 -0.603816 0 255 0
0.347678 -0.450857 0.055834 0 255 0
-0.152809 0.464285 -0.311158 0 255 0
-0.546431 0.128641 -0.604041 0 255 0
0.470323 -0.528084 -0.686868 0 255 0
-0.394552 -0.057598 -0.726579 0 255 0
-0.437937 0.364137 0.628406 153 0 76
-0.352387 -0.430592 -0.150127 0 255 0
0.135161 -0.456669 -0.726579 0 255 0
0.134100 0.237690 0.179643 76 153 0
-0.065202 0.525985 -0.726579 0 255 0
0.530501 -0.278121 -0.443553 0 255 0
-0.123966 0.099811 0.045660 76 153 0
0.484077 0.211022 -0.009055 0 255 0
0.242750 -0.283356 -0.668394 0 255 0
-0.546431 0.524693 -0.545657 0 255 0
-0.167894 -0.528084 0.033842 0 255 0
-0.028420 0.488069 -0.514988 0 255 0
-0.174730 -0.492715 0.677926 153 0 76
0.313548 0.488069 -0.062228 0 255 0
0.239003 0.272292 -0.668394 0 255 0
0.114341 -0.380388 0.013049 127 127 0
-0.206626 -0.237557 0.681021 0 0 255
0.121382 0.488069 0.057059 0 255 0
-0.007535 0.338159 -0.726579 0 255 0
0.045539 0.052593 0.059122 127 0 127
-0.487626 -0.463275 -0.034809 153 0 76
0.530501 -0.501728 -0.368075 0 255 0
0.461715 -0.007749 -0.016966 127 127 0
-0.174731 0.088048 0.286864 76 153 0
-0.408859 -0.528084 -0.012687 0 255 0
-0.488586 0.184018 0.347895 127 0 127
-0.347506 -0.108041 -0.726579 0 255 0
0.164735 0.458128 0.628406 153 0 76
-0.099419 0.126569 -0.668394 0 255 0
-0.432319 -0.364307 -0.668394 0 255 0
0.418405 0.222553 0.082279 76 153 0
0.471700 -0.436147 -0.726579 0 255 0
-0.488586 -0.005184 0.490351 127 127 0
0.263797 0.488069 -0.436180 0 255 0
-0.112271 -0.389936 0.072372 127 127 0
0.311146 0.534494 -0.377696 0 255 0
0.530501 0.013227 -0.301595 0 255 0
-0.182409 -0.471875 -0.726579 0 255 0
-0.544783 0.518168 0.677926 153 0 76
-0.348164 0.407063 -0.668394 0 255 0
0.261801 0.052593 0.540196 127 0 127
0.491814 -0.120172 -0.129120 0 255 0
0.304910 -0.528084 -0.360368 0 255 0
0.367906 -0.176798 -0.668394 0 255 0
0.383945 -0.517962 0.677926 153 0 76
-0.077872 0.170513 0.628406 153 0 76
-0.252109 0.497741 0.677926 153 0 76
-0.488586 -0.121916 -0.061530 127 127 0
0.168082 0.399472 0.185747 76 153 0
-0.201109 0.009182 0.628406 153 0 76
0.084104 -0.064659 -0.726579 0 255 0
0.440131 -0.087496 -0.668394 0 255 0
-0.367386 0.298637 0.125654 76 153 0
-0.143054 -0.110257 0.628406 153 0 76
0.177848 -0.079572 0.628406 153 0 76
0.135830 -0.006598 -0.726579 0 255 0
0.530501 0.268830 -0.122982 0 255 0
0.452167 -0.198819 0.509400 127 127 0
-0.507744 0.320609 -0.304526 0 255 0
-0.546431 0.052813 -0.414478 0 255 0
-0.248278 -0.045365 -0.726579 0 255 0
0.530501 -0.083856 -0.473374 0 255 0
0.057632 0.363415 0.207525 76 153 0
-0.136717 0.376887 0.677926 153 0 76
0.080059 0.227375 -0.726579 0 255 0
0.527412 -0.528084 -0.173894 0 255 0
0.348090 0.110834 0.022356 76 153 0
0.145842 0.329980 -0.726579 0 255 0
0.253323 0.117393 0.189262 76 153 0
0.491814 0.229646 -0.225667 0 255 0
-0.500006 0.035354 -0.138370 0 255 0
0.416043 0.330900 -0.726579 0 255 0
-0.227492 0.104191 -0.726579 0 255 0
0.484077 0.169301 -0.605971 0 255 0
-0.546431 -0.396888 -0.215961 0 255 0
0.530501 -0.398717 -0.011882 0 255 0
-0.546431 0.287301 -0.669508 0 255 0
0.320722 0.390484 0.008505 76 153 0
0.290239 0.251844 0.677926 0 0 255
0.200045 -0.380388 0.180620 127 127 0
-0.404784 -0.389936 0.622504 127 127 0
0.462674 -0.528084 -0.501985 0 255 0
0.404346 0.393652 0.677926 153 0 76
-0.346675 -0.448096 0.681021 153 0 76
-0.402341 0.534494 -0.489515 0 255 0
-0.487626 -0.484889 -0.519434 0 255 0
-0.513391 0.185893 0.677926 153 0 76
0.270283 -0.407468 -0.726579 0 255 0
-0.498476 0.275793 -0.726579 0 255 0
-0.546431 -0.205542 -0.631963 0 255 0
0.285618 -0.430592 -0.142292 0 255 0
0.220971 -0.528084 -0.561973 0 255 0
-0.498135 0.123293 0.207402 127 0 127
-0.159947 0.248400 -0.726579 0 255 0
0.061127 0.165545 0.144899 76 153 0
-0.342502 0.052593 0.578663 127 0 127
0.161088 0.268481 0.677926 0 0 255
-0.445392 0.443301 0.628406 153 0 76
-0.210574 0.573181 0.633917 153 0 76
-0.546431 -0.291738 -0.659837 0 255 0
0.095089 0.411920 0.088683 76 153 0
-0.099534 0.276682 0.628406 153 0 76
-0.115225 0.192303 0.247343 76 153 0
0.525590 0.432672 0.628406 153 0 76
-0.182822 0.115477 0.187831 76 153 0
-0.244444 0.160461 -0.668394 0 255 0
0.420603 -0.379950 0.064334 127 127 0
0.233199 -0.430592 -0.415485 0 255 0
-0.099769 -0.430592 -0.580503 0 255 0
0.410717 0.155841 0.275855 76 153 0
-0.546431 -0.121517 -0.587799 0 255 0
-0.266166 -0.528084 -0.013179 0 255 0
-0.277499 0.102506 0.079104 76 153 0
0.295226 0.463844 0.088044 76 153 0
0.155606 0.362343 0.058928 76 153 0
0.375459 -0.380388 0.468863 127 127 0
-0.306435 0.052593 0.354336 127 0 127
0.530501 0.323528 -0.470249 0 255 0
0.220594 -0.140224 -0.668394 0 255 0
0.170075 -0.266621 0.681021 0 0 255
-0.127076 0.312480 0.112039 76 153 0
-0.498135 0.145628 0.558047 127 0 127
0.530501 0.041394 -0.607092 0 255 0
-0.519188 -0.093982 0.628406 127 127 0
-0.121997 0.488069 -0.220417 0 255 0
-0.500006 -0.283454 -0.199186 0 255 0
-0.493548 -0.358969 -0.062698 127 127 0
-0.073733 0.488069 -0.449781 0 255 0
-0.543058 -0.362939 -0.726579 0 255 0
0.537500 0.170533 0.677926 153 0 76
0.099589 -0.007707 0.681021 0 0 255
0.135275 0.393501 0.628406 153 0 76
-0.370701 -0.245728 -0.726579 0 255 0
-0.507744 0.225050 -0.303493 0 255 0
0.447908 -0.451032 0.681021 153 0 76
0.409448 -0.389936 0.226356 127 127 0
0.272144 0.406939 -0.668394 0 255 0
-0.289287 0.414325 0.668641 153 0 76
0.232416 -0.528084 -0.690986 0 255 0
0.077833 0.043182 -0.668394 0 255 0
0.192144 0.449660 0.080624 76 153 0
0.530501 0.084401 -0.699432 0 255 0
-0.268477 0.101025 0.681021 0 0 255
0.172664 -0.386809 -0.668394 0 255 0
-0.054180 -0.430592 -0.383523 0 255 0
0.569189 -0.254145 0.664739 153 0 76
-0.056553 -0.430592 -0.134535 0 255 0
-0.543555 0.248858 0.628406 153 0 76
-0.137655 0.337577 -0.001517 76 153 0
0.298582 0.052593 0.381840 127 0 127
-0.062847 0.187371 0.101818 76 153 0
0.034498 -0.380388 -0.003775 127 127 0
-0.546431 0.294571 -0.131146 0 255 0
0.461715 0.113397 0.049568 127 0 127
-0.448709 -0.389735 0.454191 127 127 0
0.040850 -0.127897 -0.726579 0 255 0
0.148451 0.488069 -0.108704 0 255 0
0.461715 0.391067 0.067380 127 0 127
0.530501 -0.277159 -0.554999 0 255 0
-0.546431 0.389484 -0.011227 0 255 0
0.491814 0.245521 -0.472873 0 255 0
0.409462 0.084598 0.677926 0 0 255
-0.339451 -0.430592 -0.242410 0 255 0
-0.226345 -0.028391 0.677926 0 0 255
-0.186380 0.534494 -0.396387 0 255 0
0.315341 -0.528084 -0.134875 0 255 0
-0.491632 0.462582 -0.521873 0 255 0
-0.252206 0.534494 -0.541306 0 255 0
0.068427 0.573181 0.638033 153 0 76
0.451783 0.052593 0.437530 127 0 127
-0.546431 0.106185 -0.327292 0 255 0
-0.227511 -0.326850 0.628406 153 0 76
-0.380758 -0.247016 0.628406 153 0 76
-0.163809 0.410918 0.147789 76 153 0
0.569189 0.060170 0.634714 153 0 76
0.410723 -0.528084 -0.293611 0 255 0
0.196492 0.196043 0.112551 76 153 0
-0.445052 0.488069 -0.642945 0 255 0
0.007450 -0.525235 0.677926 153 0 76
-0.117047 -0.112011 -0.726579 0 255 0
-0.507744 -0.045154 -0.197185 0 255 0
-0.342941 0.223526 -0.726579 0 255 0
0.234026 0.396374 0.181383 76 153 0
0.163409 0.200109 0.628406 153 0 76
0.530501 0.469380 -0.563366 0 255 0
-0.498135 -0.182177 0.542992 127 127 0
0.296299 0.137086 0.256628 76 153 0
0.314190 -0.380388 0.251989 127 127 0
0.115790 0.104782 0.677926 0 0 255
0.095689 -0.528084 -0.531331 0 255 0
0.305411 0.052593 0.112616 127 0 127
-0.361000 -0.528084 -0.080906 0 255 0
-0.085226 0.360221 0.225953 76 153 0
-0.029085 -0.307994 -0.726579 0 255 0
0.525446 0.534494 -0.725139 0 255 0
-0.129035 0.515332 0.628406 153 0 76
-0.546431 -0.484881 -0.061251 0 255 0
0.492929 0.236008 0.628406 153 0 76
-0.023768 -0.269182 -0.668394 0 255 0
0.008973 0.080130 0.681021 0 0 255
0.259286 0.052593 -0.009885 127 0 127
0.101603 -0.480991 0.055834 0 255 0
-0.488586 0.241214 0.120936 127 0 127
0.155759 -0.430592 -0.513844 0 255 0
-0.406765 0.345695 0.103799 76 153 0
0.516240 0.101352 0.628406 153 0 76
-0.488586 0.354969 0.185186 127 0 127
-0.487626 -0.490032 -0.095668 153 0 76
0.186830 0.148964 0.681021 0 0 255
-0.546431 0.520809 -0.035071 0 255 0
0.393881 0.290168 0.123974 76 153 0
0.235888 -0.360576 0.628406 153 0 76
0.484077 -0.472147 -0.075474 153 0 76
0.484077 -0.271933 -0.143409 0 255 0
-0.088753 -0.191060 0.681021 0 0 255
0.421225 -0.379826 -0.092462 127 127 0
0.148590 0.534494 -0.444651 0 255 0
0.127602 -0.528084 0.669701 153 0 76
-0.326063 0.488069 -0.194624 0 255 0
-0.540106 -0.528084 -0.409866 0 255 0
0.483948 0.415256 -0.461326 0 255 0
0.293833 0.336448 0.727459 204 51 127
0.508594 0.534494 -0.007398 0 255 0
-0.546431 -0.458531 -0.716654 0 255 0
0.463701 0.420128 -0.726579 0 255 0
0.530501 -0.037885 -0.568450 0 255 0
-0.233802 0.534494 -0.246465 0 255 0
-0.242630 0.203354 0.090851 76 153 0
-0.467935 0.534494 -0.566578 0 255 0
-0.490776 -0.399415 -0.626367 0 255 0
0.454840 0.052593 -0.098220 127 0 127
-0.546431 -0.368522 -0.524772 0 255 0
0.388037 0.534494 -0.010769 0 255 0
-0.500006 0.033505 -0.051121 0 255 0
-0.419938 -0.483453 0.677926 153 0 76
-0.033902 0.455396 -0.311158 0 255 0
0.045529 -0.430592 -0.400747 0 255 0
0.118789 -0.417889 0.628406 153 0 76
0.484077 -0.496009 0.490194 153 0 76
0.292461 -0.309608 0.681021 0 0 255
-0.498135 -0.114998 0.430739 127 127 0
-0.356180 -0.222053 -0.668394 0 255 0
0.069672 -0.168816 -0.668394 0 255 0
0.530501 0.306660 0.016338 0 255 0
0.055425 0.062141 -0.049267 127 0 127
-0.393632 0.534494 -0.396639 0 255 0
0.123281 0.498185 0.668641 153 0 76
0.530501 -0.106305 -0.383999 0 255 0
0.471308 0.454805 -0.337815 0 255 0
0.499330 0.173014 -0.726579 0 255 0
0.530501 -0.179805 -0.456350 0 255 0
-0.488586 -0.273682 0.004869 127 127 0
0.405071 0.488069 -0.274623 0 255 0
0.530501 -0.332720 -0.600616 0 255 0
0.530501 0.325263 -0.305069 0 255 0
-0.028995 0.518241 0.628406 153 0 76
-0.431270 0.534494 -0.090403 0 255 0
0.484077 -0.289142 -0.249596 0 255 0
0.530501 -0.172507 -0.390889 0 255 0
-0.117992 -0.389936 0.549390 127 127 0
0.318461 0.399296 0.121943 76 153 0
-0.546431 -0.086207 -0.087031 0 255 0
-0.546431 -0.523428 -0.195929 0 255 0
0.410008 0.070818 -0.726579 0 255 0
-0.304154 -0.247461 -0.726579 0 255 0
-0.429652 0.233295 0.225738 76 153 0
0.220749 0.062141 0.479212 127 0 127
0.104154 0.336687 0.126980 76 153 0
0.452167 0.124491 0.592873 127 0 127
0.142153 0.063515 -0.668394 0 255 0
-0.087460 0.052593 0.364521 127 0 127
0.290963 -0.386977 -0.668394 0 255 0
-0.138135 -0.389936 0.133035 127 127 0
0.242191 0.534494 -0.164712 0 255 0
-0.486642 0.109030 -0.668394 0 255 0
-0.487079 -0.511775 0.058929 0 255 0
0.131893 -0.354829 0.681021 0 0 255
0.186498 0.112789 0.011455 76 153 0
0.448319 -0.425999 0.015060 0 255 0
0.053898 0.488069 -0.484426 0 255 0
0.237555 0.056996 -0.726579 0 255 0
0.284646 -0.380388 0.059815 127 127 0
0.000024 0.062141 0.190307 127 0 127
0.530501 0.280597 -0.575062 0 255 0
-0.498135 -0.199270 0.427426 127 127 0
-0.234303 0.062141 0.192421 127 0 127
-0.507744 -0.040177 -0.483125 0 255 0
-0.546431 -0.188680 -0.008998 0 255 0
-0.491031 -0.017013 -0.668394 0 255 0
-0.108820 0.114889 0.288518 76 153 0
-0.379420 0.488069 -0.630061 0 255 0
-0.500006 0.384275 -0.366464 0 255 0
-0.311149 -0.363007 0.628406 153 0 76
0.420511 0.569106 0.628406 153 0 76
-0.084591 -0.430592 -0.481750 0 255 0
-0.546431 0.090838 -0.724384 0 255 0
-0.530581 -0.291654 0.628406 153 0 76
-0.498135 0.088372 0.591401 127 0 127
-0.345853 0.534494 -0.102378 0 255 0
0.127113 -0.100235 -0.668394 0 255 0
-0.263597 0.111453 0.012188 76 153 0
-0.072561 -0.133409 -0.668394 0 255 0
0.355694 -0.262820 -0.668394 0 255 0
-0.092037 0.486846 -0.668394 0 255 0
0.504453 0.335218 0.628406 153 0 76
-0.546431 -0.359226 -0.379780 0 255 0
0.354013 -0.430592 -0.565569 0 255 0
-0.494009 0.534494 -0.110436 0 255 0
-0.498135 -0.286048 0.225357 127 127 0
-0.232680 0.183803 0.628406 153 0 76
0.343873 -0.528084 -0.583730 0 255 0
-0.052436 0.218896 0.047814 76 153 0
0.283661 0.421755 0.677926 153 0 76
0.530501 0.318871 -0.384921 0 255 0
0.461715 0.370769 0.295276 127 0 127
0.009786 -0.380388 0.540425 127 127 0
-0.161207 0.534494 0.016198 0 255 0
-0.326321 0.370090 0.187967 76 153 0
-0.480291 0.233284 -0.668394 0 255 0
-0.319614 0.529783 -0.726579 0 255 0
-0.546431 -0.336460 -0.585008 0 255 0
-0.287873 -0.174663 0.681021 0 0 255
0.357738 0.192064 0.185699 76 153 0
-0.422377 0.191412 0.105921 76 153 0
0.325452 -0.180769 -0.726579 0 255 0
0.250082 -0.528084 0.634280 153 0 76
-0.546431 0.489158 -0.676017 0 255 0
-0.370734 0.299320 0.247921 76 153 0
0.484077 0.378347 -0.606438 0 255 0
-0.113344 -0.354025 0.681021 0 0 255
0.452167 -0.119683 0.472479 127 127 0
-0.546431 0.532265 -0.466779 0 255 0
0.467750 -0.412595 -0.426192 0 255 0
0.483745 0.534494 -0.484638 0 255 0
0.380848 0.424451 0.149004 76 153 0
0.486956 -0.014705 0.681021 0 0 255
0.301521 -0.171807 0.681021 0 0 255
-0.546431 0.479260 -0.204615 0 255 0
-0.498135 -0.207694 0.042552 127 127 0
-0.306506 0.327869 0.677926 204 51 127
0.471464 -0.134602 -0.726579 0 255 0
-0.290147 0.336119 0.099263 76 153 0
0.169476 -0.430592 -0.070157 0 255 0
-0.207682 0.117636 0.125934 76 153 0
0.290845 -0.381276 -0.098916 127 127 0
0.078115 0.444352 0.628406 153 0 76
-0.546431 0.436993 -0.621638 0 255 0
-0.546431 -0.046437 -0.311242 0 255 0
-0.325200 -0.087591 0.628406 153 0 76
0.025616 0.534494 -0.164368 0 255 0
-0.042207 -0.295088 0.628406 153 0 76
-0.488586 0.243757 0.465132 127 0 127
0.461715 0.270059 -0.028382 127 0 127
-0.150099 0.534494 -0.111761 0 255 0
-0.043245 0.397680 -0.726579 0 255 0
-0.432707 -0.149887 0.628406 153 0 76
0.296358 -0.153913 -0.668394 0 255 0
0.159693 0.246682 0.117336 76 153 0
0.142197 -0.528084 -0.612760 0 255 0
-0.225713 -0.380388 0.520006 127 127 0
-0.011461 0.488069 -0.665905 0 255 0
-0.011567 -0.430592 -0.585557 0 255 0
-0.546431 -0.338007 -0.249569 0 255 0
0.299551 0.283057 0.059936 76 153 0
0.090422 0.534494 -0.325110 0 255 0
-0.107170 0.488069 -0.349684 0 255 0
0.428899 0.189101 0.628406 153 0 76
-0.057194 0.459590 0.628406 153 0 76
-0.417875 0.534494 0.055499 0 255 0
0.346079 0.251524 -0.002295 76 153 0
0.022997 -0.528084 0.058087 0 255 0
0.053494 0.052593 0.302025 127 0 127
-0.096477 -0.430592 0.011813 0 255 0
0.431358 0.526846 -0.726579 0 255 0
0.092711 -0.220794 0.628406 153 0 76
-0.040678 0.093828 -0.668394 0 255 0
-0.056055 -0.060539 -0.726579 0 255 0
0.063774 -0.082345 0.681021 0 0 255
0.392067 -0.528084 -0.074646 0 255 0
0.461715 -0.105211 0.572200 127 127 0
0.569189 0.379146 0.628644 153 0 76
0.176640 0.534494 -0.359761 0 255 0
0.452167 -0.218959 -0.007852 127 127 0
0.183534 0.160973 -0.726579 0 255 0
0.216177 -0.393065 0.677926 0 0 255
-0.092446 0.130678 0.104770 76 153 0
-0.197336 0.534494 -0.050957 0 255 0
0.237778 0.251908 0.059936 76 153 0
-0.209119 -0.430592 -0.667786 0 255 0
-0.546431 -0.313075 0.028367 0 255 0
0.048312 0.052593 0.516799 127 0 127
0.089328 -0.430592 -0.308653 0 255 0
-0.074049 0.300476 0.681021 0 0 255
-0.498135 -0.324508 0.436532 127 127 0
0.461715 -0.099197 0.287074 127 127 0
-0.291023 0.488069 -0.513070 0 255 0
0.305810 0.573181 0.676719 153 0 76
-0.488706 -0.237658 -0.098916 0 255 0
-0.052711 -0.521926 0.058929 0 255 0
-0.208514 -0.430592 -0.472746 0 255 0
0.205256 0.534494 -0.083389 0 255 0
0.461532 -0.346049 0.377426 127 127 0
0.390277 0.340968 -0.668394 0 255 0
0.452167 -0.328368 0.472328 127 127 0
-0.207243 -0.236235 -0.668394 0 255 0
-0.036700 -0.469874 0.677926 153 0 76
-0.387695 -0.182238 -0.726579 0 255 0
-0.437421 0.190301 0.628406 153 0 76
-0.454795 -0.089603 0.628406 153 0 76
-0.418089 0.285629 0.677926 0 0 255
0.530501 -0.324479 -0.105571 0 255 0
0.048817 0.534494 -0.579602 0 255 0
-0.432298 0.148896 -0.726579 0 255 0
0.246295 -0.336523 -0.726579 0 255 0
0.484077 0.323143 -0.052380 0 255 0
-0.001310 -0.528084 -0.309027 0 255 0
-0.307235 -0.528084 -0.716112 0 255 0
-0.546431 0.290330 -0.029035 0 255 0
-0.174562 -0.470500 0.055834 0 255 0
-0.488586 0.114867 0.085148 127 0 127
0.469599 -0.311764 -0.668394 0 255 0
0.530501 0.472432 0.032255 0 255 0
0.461715 0.300211 0.252585 127 0 127
-0.498135 0.086444 0.309536 127 0 127
-0.113287 0.375077 0.147066 76 153 0
0.246757 -0.528084 -0.496638 0 255 0
-0.127298 0.133266 0.628406 153 0 76
0.351918 0.121415 0.677926 0 0 255
-0.182950 0.186098 0.104864 76 153 0
-0.546431 0.043104 -0.248267 0 255 0
0.054069 0.059642 -0.726579 0 255 0
0.491814 0.166570 -0.177879 0 255 0
-0.449012 -0.449118 0.628406 153 0 76
0.530501 -0.055053 0.040791 0 255 0
-0.500006 -0.275469 -0.308662 0 255 0
0.484077 0.069140 -0.564757 0 255 0
0.020802 -0.528084 -0.659311 0 255 0
-0.188694 0.534494 -0.670832 0 255 0
0.109916 -0.330883 0.628406 153 0 76
0.452167 0.287155 0.149468 127 0 127
-0.485336 0.534494 0.012936 0 255 0
0.042300 0.327720 -0.668394 0 255 0
-0.051565 0.268404 0.166585 76 153 0
-0.446095 0.550918 0.628406 153 0 76
-0.349493 0.443994 0.677926 153 0 76
-0.156225 -0.117295 -0.668394 0 255 0
-0.296737 0.190070 0.159991 76 153 0
0.452167 0.397655 0.411564 127 0 127
-0.237125 0.062141 0.509343 127 0 127
0.344531 0.364673 0.249698 76 153 0
0.568404 -0.043726 0.677926 153 0 76
0.014030 -0.065666 0.628406 153 0 76
-0.254094 -0.426623 -0.726579 0 255 0
0.142271 0.262907 -0.726579 0 255 0
0.066968 -0.528084 -0.040439 0 255 0
0.268526 -0.469023 -0.726579 0 255 0
0.530501 -0.299567 -0.345694 0 255 0
0.461715 -0.037202 0.109059 127 127 0
0.269268 0.182453 -0.004184 76 153 0
-0.212467 -0.134697 0.628406 153 0 76
0.394039 0.496664 0.628406 153 0 76
-0.261206 0.357542 0.045742 76 153 0
0.418177 0.254724 0.628406 153 0 76
0.215260 -0.430592 -0.028610 0 255 0
-0.164002 0.457696 -0.726579 0 255 0
0.496355 0.454512 0.677926 153 0 76
-0.388782 0.438472 -0.726579 0 255 0
-0.093444 0.077510 -0.726579 0 255 0
-0.293685 0.199350 0.628406 153 0 76
0.052444 0.182340 0.028635 76 153 0
0.530501 0.471699 -0.285444 0 255 0
-0.497592 0.534494 -0.324449 0 255 0
0.496701 -0.528084 0.628884 153 0 76
-0.233274 -0.353037 -0.726579 0 255 0
-0.354384 -0.380388 0.521514 127 127 0
0.127154 0.534494 -0.541910 0 255 0
0.091376 0.534494 -0.007583 0 255 0
0.231418 0.138986 -0.668394 0 255 0
-0.470640 -0.164993 -0.668394 0 255 0
-0.077534 -0.380388 -0.033096 127 127 0
0.471697 -0.449548 -0.335586 0 255 0
0.452167 -0.316175 0.537693 127 127 0
-0.498135 0.139300 0.493060 127 0 127
0.294358 -0.026956 0.628406 153 0 76
-0.474402 -0.267164 0.628406 127 127 0
0.452167 -0.072751 0.192739 127 127 0
-0.340959 0.266937 -0.668394 0 255 0
-0.498135 -0.267063 0.344825 127 127 0
-0.489559 -0.401237 -0.438147 0 255 0
0.014621 -0.389936 0.332691 127 127 0
0.471697 -0.466133 -0.565938 0 255 0
0.382293 -0.349392 0.677926 0 0 255
-0.234654 0.183681 0.231093 76 153 0
0.415441 0.205363 0.201184 76 153 0
0.025248 0.488069 -0.081751 0 255 0
-0.431903 0.488069 -0.047506 0 255 0
-0.503471 -0.259048 -0.548275 0 255 0
-0.496166 -0.258995 -0.726579 0 255 0
-0.547307 0.367728 0.628406 153 0 76
0.483545 0.421416 -0.660881 0 255 0
-0.498641 0.369963 -0.668394 0 255 0
0.296334 0.158262 0.117416 76 153 0
0.393768 0.534494 -0.612298 0 255 0
0.057361 0.172653 0.213775 76 153 0
-0.015243 -0.184064 -0.726579 0 255 0
0.530501 0.224655 -0.074579 0 255 0
-0.484262 -0.408283 -0.008393 0 255 0
-0.379941 0.121408 0.290064 76 153 0
-0.399197 0.134069 0.628406 153 0 76
0.157369 0.062141 0.592135 127 0 127
0.452167 -0.233231 0.448715 127 127 0
0.225645 0.062141 0.215815 127 0 127
-0.367895 -0.154716 0.628406 153 0 76
-0.282060 0.532318 0.628406 153 0 76
-0.343826 0.201369 -0.002154 76 153 0
0.569189 -0.382613 0.668093 153 0 76
-0.176290 -0.430592 -0.064731 0 255 0
-0.296025 0.488069 -0.360164 0 255 0
0.461715 -0.164413 0.273613 127 127 0
0.456523 0.409926 -0.004518 127 0 127
0.254255 0.502937 -0.726579 0 255 0
-0.335154 -0.042298 -0.668394 0 255 0
0.484077 0.013420 -0.196798 0 255 0
0.218286 0.251209 0.628406 153 0 76
0.484077 0.019090 -0.484622 0 255 0
0.490323 -0.314090 0.628406 153 0 76
0.229622 0.303205 0.000458 76 153 0
0.402161 0.488069 -0.426057 0 255 0
-0.513195 -0.173376 0.628406 153 0 76
-0.279743 -0.332487 -0.668394 0 255 0
-0.349416 0.309482 -0.007470 76 153 0
0.400236 0.041585 0.628406 127 0 127
0.484077 -0.006207 -0.136844 0 255 0
0.520317 -0.177170 0.677926 153 0 76
0.160818 0.488069 -0.262680 0 255 0
0.530501 0.005250 -0.661610 0 255 0
-0.169058 0.052593 0.335925 127 0 127
0.421323 -0.147961 0.628406 153 0 76
0.286961 -0.389936 0.179630 127 127 0
-0.096073 -0.528084 -0.224222 0 255 0
-0.498135 0.258845 0.526198 127 0 127
-0.405378 0.340978 0.040858 76 153 0
-0.160366 -0.446977 0.628406 153 0 76
-0.139687 -0.262194 0.681021 0 0 255
0.398631 0.488069 -0.487341 0 255 0
0.150670 0.187008 -0.000315 76 153 0
-0.193461 0.374349 0.253640 76 153 0
0.172443 -0.139659 0.681021 0 0 255
-0.311887 -0.389936 0.165641 127 127 0
-0.487626 -0.482684 -0.275556 0 255 0
-0.100350 -0.380388 0.490086 127 127 0
-0.011919 -0.528084 -0.442760 0 255 0
0.182392 0.052593 0.122011 127 0 127
0.287984 0.534494 -0.574481 0 255 0
-0.507744 0.255519 -0.533416 0 255 0
0.344327 -0.528084 -0.670030 0 255 0
-0.208109 0.488069 0.000438 0 255 0
-0.233420 0.449926 0.628406 153 0 76
-0.044610 0.534494 -0.424031 0 255 0
0.013242 0.220128 0.681021 0 0 255
0.096987 0.488069 -0.144098 0 255 0
0.206550 0.379035 0.114575 76 153 0
0.530501 0.220547 -0.362648 0 255 0
-0.514496 -0.528084 -0.600150 0 255 0
0.484077 0.151322 -0.028664 127 0 127
0.390063 0.313991 0.253767 76 153 0
0.184685 -0.389936 0.243849 127 127 0
-0.357646 -0.221429 0.677926 0 0 255
-0.546431 0.015927 -0.463112 0 255 0
0.240434 0.183805 -0.726579 0 255 0
0.068465 0.450835 -0.726579 0 255 0
-0.357050 0.534494 -0.444523 0 255 0
0.452167 0.131252 0.227610 127 0 127
0.202327 0.189031 0.242540 76 153 0
0.221177 0.488069 -0.519631 0 255 0
-0.369878 0.052593 0.152898 127 0 127
0.339515 0.174031 0.628406 153 0 76
0.338003 0.182750 0.061176 76 153 0
-0.151314 0.152314 0.056743 76 153 0
-0.274904 -0.528084 -0.214526 0 255 0
-0.557421 0.020490 0.677926 153 0 76
-0.272112 0.424689 0.089843 76 153 0
-0.507744 0.180481 -0.185418 0 255 0
0.452167 -0.011430 0.392914 127 127 0
0.489324 0.096171 -0.329920 0 255 0
0.338594 -0.102228 -0.726579 0 255 0
-0.546431 -0.432890 -0.095471 0 255 0
-0.399669 -0.380388 0.082069 127 127 0
-0.500006 -0.080682 -0.619012 0 255 0
0.155017 0.488069 -0.610988 0 255 0
-0.487882 0.052593 0.179504 127 0 127
-0.546431 0.423772 -0.103470 0 255 0
-0.380066 -0.380388 -0.033727 127 127 0
0.530501 0.059247 -0.401540 0 255 0
-0.546431 -0.153509 -0.340519 0 255 0
0.285721 0.007757 -0.726579 0 255 0
0.389677 -0.430592 -0.077618 0 255 0
-0.337984 0.098953 0.044738 76 153 0
0.408816 0.287226 0.677926 0 0 255
-0.061077 -0.518932 -0.726579 0 255 0
0.143098 0.488069 -0.029566 0 255 0
0.126599 -0.380388 0.139813 127 127 0
-0.085183 -0.430592 -0.206905 0 255 0
0.415480 0.200804 -0.668394 0 255 0
-0.488586 0.254232 0.186577 127 0 127
-0.397161 -0.528084 -0.614878 0 255 0
-0.017795 -0.430592 -0.088940 0 255 0
0.141869 -0.430592 -0.200296 0 255 0
-0.195321 0.534494 -0.295538 0 255 0
0.339586 0.247683 0.243824 76 153 0
0.044481 0.534494 -0.442425 0 255 0
-0.053553 0.534494 0.013837 0 255 0
-0.391056 0.187671 0.200021 76 153 0
0.350671 -0.430592 -0.232124 0 255 0
0.269012 0.323236 -0.726579 0 255 0
0.043605 -0.528084 -0.560578 0 255 0
0.077242 0.253667 0.069111 76 153 0
-0.475854 -0.097507 -0.726579 0 255 0
-0.201625 -0.528084 -0.615510 0 255 0
0.216735 0.431972 0.260289 76 153 0
-0.228657 -0.380388 -0.001252 127 127 0
-0.137531 -0.183086 0.628406 153 0 76
-0.260646 -0.430592 -0.238608 0 255 0
0.034433 0.238377 0.145826 76 153 0
-0.546431 -0.385483 -0.324136 0 255 0
-0.401706 -0.430592 -0.258072 0 255 0
0.474989 -0.403278 -0.279125 0 255 0
0.482855 0.425988 -0.221780 0 255 0
-0.169843 0.335061 0.177736 76 153 0
0.180150 -0.225691 -0.726579 0 255 0
-0.233035 -0.380388 0.277305 127 127 0
-0.326782 0.164833 0.677926 0 0 255
0.130655 0.488069 -0.345798 0 255 0
-0.348693 0.313365 0.184220 76 153 0
0.141224 -0.226687 -0.668394 0 255 0
-0.546431 0.347940 -0.571974 0 255 0
0.143068 0.488069 -0.196842 0 255 0
0.482605 -0.045901 -0.668394 0 255 0
-0.075421 0.284129 -0.668394 0 255 0
-0.075627 -0.405424 0.677926 0 0 255
0.491814 -0.215603 -0.121054 0 255 0
-0.400254 0.534494 -0.141289 0 255 0
-0.063576 0.321423 0.105323 76 153 0
-0.104670 0.062141 0.435413 127 0 127
-0.381636 0.488069 -0.570723 0 255 0
-0.143763 0.418178 -0.668394 0 255 0
-0.000354 0.488069 -0.212270 0 255 0
-0.498135 0.298413 0.011374 127 0 127
0.427385 0.485775 0.054707 0 255 0
-0.546431 0.221589 -0.634883 0 255 0
-0.043070 0.488069 -0.258042 0 255 0
0.077109 0.223075 0.263283 76 153 0
0.223930 0.119405 0.066437 76 153 0
-0.110568 -0.389936 0.361514 127 127 0
0.007084 0.280680 -0.726579 0 255 0
-0.045411 0.172978 0.677926 0 0 255
-0.500006 0.044923 -0.520655 0 255 0
0.530501 0.415335 -0.591526 0 255 0
0.058701 0.027133 0.628406 153 0 76
-0.101164 -0.291025 -0.726579 0 255 0
0.474587 -0.227249 -0.668394 0 255 0
0.149791 -0.528084 -0.215662 0 255 0
0.357215 0.385180 0.073515 76 153 0
0.530501 0.025254 -0.243681 0 255 0
0.180141 -0.473545 0.677926 153 0 76
0.481761 0.431489 -0.062782 0 255 0
-0.098626 -0.485490 0.677926 153 0 76
-0.468964 -0.393357 0.628406 153 0 76
0.484077 0.407358 -0.389154 0 255 0
0.363476 -0.372265 -0.668394 0 255 0
-0.443588 0.062141 0.547185 127 0 127
0.353304 -0.463530 0.677926 153 0 76
0.338231 0.534494 -0.243072 0 255 0
0.107140 0.200778 0.065128 76 153 0
-0.252874 0.460317 -0.668394 0 255 0
0.446054 -0.525663 0.058929 0 255 0
0.126325 0.356670 0.007990 76 153 0
-0.280027 0.336448 0.732709 204 51 127
0.447826 -0.058880 0.681021 0 0 255
0.300784 -0.380388 0.366121 127 127 0
-0.546431 -0.206562 -0.498543 0 255 0
0.097481 0.293401 -0.668394 0 255 0
0.484077 0.200314 0.048968 0 255 0
0.065518 -0.470173 0.628406 153 0 76
-0.126642 0.079965 0.681021 0 0 255
0.345813 -0.430592 -0.352902 0 255 0
-0.546431 0.060965 -0.173454 0 255 0
-0.417196 0.534494 -0.678290 0 255 0
0.353028 0.052593 -0.097606 127 0 127
-0.058650 -0.131474 0.677926 0 0 255
-0.043213 0.548809 0.677926 153 0 76
-0.488180 -0.368286 0.551807 127 127 0
-0.482812 0.473310 -0.291059 0 255 0
-0.342468 -0.430592 -0.557430 0 255 0
-0.088826 -0.216340 -0.668394 0 255 0
-0.412927 0.320238 0.156566 76 153 0
-0.219246 0.398756 -0.668394 0 255 0
0.484077 0.396869 -0.304918 0 255 0
0.328051 -0.244013 -0.726579 0 255 0
-0.017258 -0.528084 -0.516457 0 255 0
-0.488586 0.190460 0.017304 127 0 127
-0.373566 0.488069 -0.511441 0 255 0
0.530501 -0.040557 -0.702173 0 255 0
0.459733 0.007675 0.628406 153 0 76
-0.542635 0.209665 0.058929 0 255 0
-0.276792 0.534494 -0.619080 0 255 0
0.460639 -0.528084 -0.622379 0 255 0
-0.130803 0.175229 0.188971 76 153 0
-0.507744 -0.065831 -0.390620 0 255 0
-0.107897 0.488069 0.015693 0 255 0
-0.254963 0.534494 -0.084218 0 255 0
-0.499270 -0.375690 -0.134966 0 255 0
0.101459 0.488069 -0.449799 0 255 0
-0.274735 0.534494 -0.202116 0 255 0
-0.216507 -0.194485 0.628406 153 0 76
0.378408 -0.381949 0.628406 127 127 0
-0.137576 0.230302 0.677926 0 0 255
0.086795 0.362328 -0.726579 0 255 0
-0.507744 -0.114110 -0.457221 0 255 0
-0.272995 0.488069 -0.142810 0 255 0
-0.394055 -0.380388 0.388301 127 127 0
0.178800 0.038621 -0.726579 0 255 0
0.298811 0.534494 -0.446112 0 255 0
0.439147 0.048289 -0.668394 0 255 0
0.038101 0.165946 0.628406 153 0 76
-0.546431 0.171775 -0.724846 0 255 0
-0.497240 0.054807 -0.726579 0 255 0
0.484077 0.056339 -0.155439 0 255 0
-0.157914 0.062141 0.161679 127 0 127
0.491814 -0.184516 -0.502673 0 255 0
0.440969 0.356439 0.628406 153 0 76
0.246354 -0.073015 -0.726579 0 255 0
-0.300226 -0.430592 -0.122493 0 255 0
-0.546431 -0.329730 -0.178871 0 255 0
-0.245920 -0.430592 -0.087425 0 255 0
0.370543 0.573181 0.660782 153 0 76
-0.310017 0.018432 -0.726579 0 255 0
0.485160 0.243841 -0.580393 0 255 0
-0.220874 0.488069 -0.430101 0 255 0
-0.546431 0.079054 0.011255 0 255 0
-0.203137 -0.279459 -0.726579 0 255 0
0.141752 -0.430592 0.000514 0 255 0
0.260123 -0.307279 0.628406 153 0 76
-0.158945 -0.528084 -0.520059 0 255 0
0.035792 -0.528084 -0.255475 0 255 0
0.066074 0.476385 0.677926 153 0 76
-0.270427 0.487946 -0.726579 0 255 0
-0.075800 0.488069 -0.612213 0 255 0
0.474369 0.511088 0.677926 153 0 76
-0.397145 -0.528084 -0.284268 0 255 0
-0.259280 0.184397 -0.726579 0 255 0
-0.134421 0.488069 -0.487495 0 255 0
-0.057074 0.277591 -0.726579 0 255 0
-0.366986 0.071133 0.628406 153 0 76
-0.076865 -0.001854 -0.668394 0 255 0
0.491814 -0.164577 -0.191213 0 255 0
0.216400 0.177571 0.055294 76 153 0
-0.546431 -0.015663 -0.396399 0 255 0
0.197709 -0.528084 -0.084968 0 255 0
-0.182298 0.352911 0.058427 76 153 0
0.370101 0.488069 -0.044707 0 255 0
-0.014601 0.309001 0.681021 0 0 255
0.123560 -0.528084 -0.269465 0 255 0
0.484077 -0.259819 -0.040918 0 255 0
-0.491746 0.409926 0.166136 127 0 127
-0.506340 0.375896 0.678605 153 0 76
0.332147 0.052593 0.173369 127 0 127
-0.498135 -0.108463 0.524461 127 127 0
-0.488586 -0.179063 -0.077305 0 255 0
0.473966 -0.497156 0.161290 153 0 76
-0.490566 -0.004137 0.046224 127 127 0
0.280142 0.411600 0.063415 76 153 0
-0.406160 0.044636 -0.668394 0 255 0
-0.584023 -0.351128 0.677926 153 0 76
