ply
format ascii 1.0
element vertex 1261
property float x
property float y
property float z
property uchar red
property uchar green
property uchar blue
end_header
0.844241 0.359573 0.230369 0 0 255
0.569878 0.359573 0.208953 0 0 255
0.329157 0.334838 0.025905 0 0 255
-0.565032 0.359573 -0.147835 0 0 255
-0.143549 0.359573 -0.277134 0 0 255
0.110624 -0.106981 -0.365149 153 0 76
0.290437 0.359573 0.052276 0 0 255
0.474957 -0.123873 0.044733 76 0 153
0.435139 -0.034676 0.389259 127 0 127
0.571244 0.182685 0.372186 127 0 127
0.425331 -0.304776 0.389221 127 0 127
0.045191 -0.238043 0.011299 153 0 76
0.114936 0.334838 -0.197396 0 0 255
0.879892 -0.264234 -0.389884 127 127 0
0.212675 -0.019363 -0.346598 153 0 76
0.437855 -0.124929 -0.106160 76 0 153
0.095732 0.359573 0.284199 0 0 255
0.915317 -0.354770 0.352157 76 153 0
-0.465694 -0.332999 0.045580 204 51 127
0.337865 -0.234622 0.352119 127 0 127
0.096758 0.359573 0.062047 0 0 255
-0.791486 0.313322 0.315055 153 0 76
0.131638 0.045505 0.358180 127 0 127
0.636906 0.033795 0.358180 127 0 127
0.867620 0.072392 0.288900 76 0 153
-0.018802 -0.209402 -0.346598 153 0 76
-0.759689 -0.357734 -0.065923 204 51 127
0.382954 0.134671 -0.346598 153 0 76
0.121807 -0.011478 -0.365149 153 0 76
0.703835 -0.357734 0.147546 204 51 127
0.463036 -0.106073 -0.365149 153 0 76
-0.384574 -0.028770 -0.146781 204 51 127
0.189503 0.334838 0.203845 0 0 255
0.867620 -0.138339 -0.324146 76 0 153
-0.390880 -0.357734 -0.286101 204 51 127
0.241703 -0.164515 -0.365149 153 0 76
-0.766534 0.359573 -0.363226 0 0 255
-0.744942 0.359573 -0.227804 0 0 255
-0.009535 0.334838 0.016043 0 0 255
-0.384574 -0.329505 -0.019316 204 51 127
0.842886 -0.232780 0.328390 127 0 127
-0.691914 -0.357734 -0.030374 204 51 127
-0.839074 0.202088 -0.248280 153 76 0
0.867620 0.127720 -0.170871 76 0 153
0.684901 -0.097523 0.358180 127 0 127
-0.783742 -0.335819 0.352157 76 153 0
-0.263269 0.334838 0.176000 0 0 255
-0.506891 -0.064081 0.389259 127 0 127
0.892355 -0.027805 0.258527 76 0 153
0.045191 0.134238 0.198097 153 0 76
0.288375 0.334838 -0.278259 0 0 255
0.183533 0.359573 0.273237 0 0 255
0.054031 -0.012099 -0.365149 153 0 76
0.149744 -0.332999 -0.181622 204 51 127
0.728092 0.068430 -0.346598 153 0 76
-0.234763 -0.357734 -0.357071 204 51 127
0.437855 -0.195576 0.043894 76 0 153
0.464750 -0.233906 -0.346599 76 0 153
-0.673771 -0.094248 -0.346598 153 0 76
-0.034473 -0.332999 0.296898 204 51 127
-0.384574 -0.144639 -0.319285 204 51 127
0.437855 0.313530 -0.083873 76 0 153
0.008089 -0.109178 0.200635 153 0 76
0.808889 -0.332999 -0.230331 204 51 127
-0.045057 -0.295897 0.330680 76 153 0
-0.814340 -0.149883 0.015538 153 76 0
-0.135348 0.334838 -0.161345 0 0 255
-0.814340 -0.009272 0.221551 153 76 0
0.246653 -0.332999 0.147678 204 51 127
0.586344 -0.274339 0.352119 127 0 127
0.045191 -0.169106 0.283985 153 0 76
0.250275 0.287250 0.389221 127 0 127
-0.814340 -0.200161 0.121646 153 76 0
-0.185171 0.359573 -0.323768 0 0 255
-0.551988 -0.332999 0.275732 204 51 127
0.474957 -0.137757 -0.336336 76 0 153
-0.709551 0.359573 0.203392 0 0 255
-0.814340 -0.265418 0.124244 153 76 0
-0.287104 0.155230 -0.346598 153 0 76
0.775615 -0.131242 0.389221 127 0 127
-0.754412 -0.345400 0.315055 76 153 0
0.867620 0.213345 0.266602 76 0 153
0.038028 -0.269546 0.352119 127 0 127
0.238162 -0.058089 0.389259 127 0 127
0.504252 0.334838 0.138884 0 0 255
0.560408 -0.294712 0.352119 127 0 127
0.008089 0.204769 0.010133 153 0 76
0.008089 0.023987 0.259132 153 0 76
0.079780 0.359573 0.026070 0 0 255
-0.384574 -0.210514 -0.262003 204 51 127
0.823473 0.124579 -0.365149 127 127 0
-0.310144 0.223191 0.388313 127 0 127
-0.102852 0.359573 -0.111328 0 0 255
0.373386 0.334838 -0.303971 0 0 255
0.484174 0.120280 -0.365149 153 0 76
0.228972 -0.252158 -0.365149 153 0 76
-0.421676 -0.200910 -0.049620 204 51 127
-0.182728 0.359573 -0.357875 0 0 255
0.838850 -0.357734 -0.258228 204 51 127
0.008089 0.280448 -0.305587 153 0 76
0.437855 -0.303282 0.026472 76 0 153
0.094012 0.114652 -0.365149 153 0 76
0.342033 -0.357734 -0.322932 204 51 127
0.149968 -0.332999 0.164727 204 51 127
-0.814340 0.101982 0.105119 153 76 0
-0.851983 0.359573 0.185676 0 0 255
-0.046327 -0.357734 -0.160735 204 51 127
-0.824055 -0.135196 -0.365149 255 0 0
0.045191 -0.247614 0.287379 153 0 76
-0.035460 0.268973 -0.365149 153 0 76
-0.384574 0.193351 0.253170 204 51 127
0.057604 -0.105404 -0.365149 153 0 76
0.296607 0.359573 -0.198329 0 0 255
0.313197 -0.032995 -0.346598 153 0 76
-0.384574 0.150026 -0.105586 204 51 127
-0.814340 0.128306 0.300282 153 76 0
0.892355 -0.181279 0.092096 76 0 153
-0.317887 0.359573 -0.140815 0 0 255
-0.421676 0.083193 0.077053 204 51 127
-0.552072 0.316381 0.315055 153 0 76
-0.254331 -0.332999 0.272836 204 51 127
0.867620 -0.243200 0.179042 76 0 153
0.427868 0.171234 -0.365149 153 0 76
-0.006591 -0.357734 0.169498 204 51 127
0.626032 -0.231588 -0.365149 153 0 76
-0.124147 -0.332999 0.157956 204 51 127
-0.421676 0.189149 0.076228 204 51 127
0.039101 -0.332999 -0.014759 204 51 127
0.917090 0.338651 -0.374107 0 0 255
0.437855 -0.196279 -0.258035 76 0 153
0.816348 -0.178110 -0.389884 127 127 0
0.156024 0.334838 0.079740 0 0 255
0.472668 -0.207593 0.358180 127 0 127
-0.814340 0.276805 0.272498 153 76 0
-0.839074 0.284469 -0.155554 153 76 0
0.835919 -0.332999 0.176288 204 51 127
-0.542633 -0.357734 -0.237543 204 51 127
0.321899 -0.164689 -0.346598 153 0 76
-0.560293 0.248175 0.389221 127 0 127
-0.090413 -0.357734 -0.308851 204 51 127
0.008089 0.118197 -0.311928 153 0 76
-0.301325 0.359573 0.123820 0 0 255
0.474957 -0.255889 -0.212857 76 0 153
0.891101 -0.332999 0.222185 204 51 127
-0.384574 0.129393 -0.327045 204 51 127
0.867620 -0.285704 -0.303913 76 0 153
-0.096516 -0.153268 -0.365149 153 0 76
0.892355 0.332756 0.165914 76 0 153
-0.384574 -0.140620 0.066755 204 51 127
-0.130314 -0.311205 0.352119 127 0 127
-0.322805 -0.332999 -0.280740 204 51 127
0.845498 0.267525 -0.346598 153 0 76
-0.839074 0.069606 -0.275315 153 76 0
-0.691802 0.334838 -0.268031 0 0 255
0.008961 -0.332999 -0.138466 204 51 127
0.845974 -0.256545 -0.389884 127 127 0
0.052739 -0.357734 -0.094504 204 51 127
-0.839074 0.101562 0.307261 153 76 0
0.892355 0.331896 0.103945 76 0 153
0.592814 0.130765 0.358180 127 0 127
0.104358 0.332215 -0.365149 153 0 76
0.457433 0.334838 0.003491 0 0 255
0.101385 -0.357734 0.082750 204 51 127
0.916769 -0.332999 0.107975 204 51 127
-0.421676 -0.034986 -0.233029 204 51 127
-0.814340 -0.146170 0.204698 153 76 0
-0.340354 0.334838 0.270843 0 0 255
0.474957 -0.139862 -0.145357 76 0 153
0.437855 -0.192711 -0.005535 76 0 153
0.065876 0.359573 0.151629 0 0 255
-0.330386 -0.219223 0.352119 127 0 127
0.045191 0.309349 -0.048495 153 0 76
0.348137 0.029548 0.358180 127 0 127
0.749518 -0.366401 0.315055 76 153 0
-0.016465 0.041960 0.358180 127 0 127
0.045191 -0.092779 -0.155644 153 0 76
0.356723 0.359573 -0.258120 0 0 255
-0.606596 -0.103290 0.389259 127 0 127
0.081235 0.000393 -0.389884 0 255 0
-0.778890 -0.332999 0.120452 204 51 127
0.045191 -0.236263 -0.191867 153 0 76
0.008089 0.229108 0.039671 153 0 76
-0.293676 -0.064602 0.358180 127 0 127
0.323042 0.359573 0.197433 0 0 255
0.215050 0.310075 -0.365149 153 0 76
0.892355 0.285302 -0.351735 76 0 153
0.617696 0.300022 0.389221 127 0 127
0.587979 -0.357734 -0.353233 204 51 127
-0.317943 -0.357734 0.115529 204 51 127
-0.391680 -0.230779 -0.365149 153 0 76
0.659276 -0.295897 0.323105 76 153 0
-0.016684 0.334838 -0.226255 0 0 255
-0.019311 0.045157 -0.365149 153 0 76
0.232464 0.334838 0.103703 0 0 255
0.045191 0.058589 -0.194272 153 0 76
-0.219708 0.253328 -0.365149 153 0 76
-0.471721 0.359573 -0.386755 0 0 255
-0.195063 -0.332999 -0.362210 204 51 127
-0.475371 0.334838 -0.102300 0 0 255
0.013532 -0.208520 -0.365149 0 255 0
0.214207 -0.043250 -0.365149 153 0 76
-0.313759 0.171979 -0.365149 153 0 76
-0.839074 0.005202 -0.184972 153 76 0
-0.177704 -0.308373 0.384839 127 0 127
-0.164361 0.334838 -0.128303 0 0 255
0.467756 0.334838 -0.388592 0 0 255
-0.371458 0.289420 -0.365149 153 0 76
0.125794 0.359573 -0.116364 0 0 255
0.045191 -0.116784 0.212559 153 0 76
0.395704 0.334838 0.282313 0 0 255
0.619420 0.359573 0.163716 0 0 255
0.505188 0.334838 0.297336 0 0 255
-0.839074 -0.144990 0.083949 153 76 0
0.781064 0.334838 0.033140 0 0 255
-0.262121 0.334838 -0.250261 0 0 255
-0.174807 0.359573 -0.184385 0 0 255
0.867620 -0.165833 -0.203302 76 0 153
-0.254489 -0.253244 0.352119 127 0 127
0.437855 0.160490 0.050433 76 0 153
0.207984 -0.332999 -0.089742 204 51 127
-0.384574 -0.253468 -0.225839 204 51 127
-0.204268 0.228528 -0.346598 153 0 76
0.411701 0.239584 0.352119 127 0 127
-0.749900 0.334838 0.292342 0 0 255
0.617490 0.334838 0.265389 0 0 255
-0.265726 0.336895 0.315055 153 0 76
0.040134 0.305009 0.389221 127 0 127
-0.814340 0.160718 0.293744 153 76 0
-0.631003 -0.357734 0.062982 204 51 127
-0.247257 -0.332999 0.187010 204 51 127
0.867620 -0.294724 -0.145161 76 0 153
-0.459185 0.359573 0.038708 0 0 255
-0.181150 -0.357734 0.091448 204 51 127
-0.839074 0.151161 0.117867 153 76 0
0.791768 -0.208875 0.389221 127 0 127
-0.814340 -0.286165 0.062020 153 76 0
-0.029347 0.164417 0.358180 127 0 127
0.899028 -0.357734 -0.300567 204 51 127
-0.839074 -0.329585 -0.247405 153 76 0
0.008089 0.074138 0.313869 153 0 76
0.426561 0.359573 0.190857 0 0 255
-0.205965 0.359573 0.255002 0 0 255
0.867620 -0.064474 -0.284529 76 0 153
-0.741556 0.251968 -0.365149 153 0 76
-0.734004 -0.357734 -0.308977 204 51 127
-0.490304 -0.216290 -0.346598 153 0 76
0.389271 -0.357734 -0.196984 204 51 127
-0.356795 0.371940 0.326247 153 0 76
0.474957 0.248015 0.164805 76 0 153
-0.519070 0.359573 -0.171119 0 0 255
0.474957 -0.113286 0.165432 76 0 153
-0.768417 0.334838 -0.300503 0 0 255
0.874539 0.359573 -0.194995 0 0 255
-0.172109 -0.357734 0.290876 204 51 127
0.322996 0.359573 -0.003205 0 0 255
-0.039509 -0.332999 0.202606 204 51 127
-0.691059 0.334838 0.208370 0 0 255
0.045191 0.079739 0.154732 153 0 76
-0.588503 0.133539 -0.346598 153 0 76
-0.814340 0.216750 -0.051455 153 76 0
0.854263 -0.357734 -0.018542 204 51 127
0.892355 -0.259696 0.186573 76 0 153
0.741891 0.261408 -0.365149 153 0 76
-0.655995 -0.332999 -0.373032 204 51 127
0.892355 0.299427 0.224563 76 0 153
-0.421676 -0.191310 0.164652 204 51 127
0.917090 0.029361 0.346717 127 0 127
-0.466907 0.240285 0.352119 127 0 127
-0.638347 0.306996 0.352119 127 0 127
-0.421676 -0.232551 0.313153 204 51 127
-0.839074 -0.021888 0.175872 153 76 0
-0.418349 0.359573 0.069489 0 0 255
-0.839074 -0.174727 -0.316664 153 76 0
0.892355 0.285949 0.037051 76 0 153
0.474957 0.119105 0.033506 76 0 153
0.474957 0.223203 -0.041364 76 0 153
-0.022308 -0.319362 -0.365149 0 255 0
0.772607 -0.135659 0.352119 127 0 127
-0.636439 0.359573 -0.089391 0 0 255
0.686567 0.145681 -0.346598 153 0 76
-0.783720 0.280360 -0.389884 255 0 0
0.219758 -0.108333 -0.346598 153 0 76
-0.182863 0.359573 0.230712 0 0 255
0.373400 -0.296617 -0.346598 153 0 76
-0.567200 0.359573 -0.024406 0 0 255
-0.039121 0.319084 0.379583 127 0 127
0.437855 0.124906 -0.056771 76 0 153
-0.071949 0.196386 0.370062 127 0 127
0.904845 0.359573 -0.224874 0 0 255
0.455087 0.210135 -0.365149 153 0 76
0.008089 -0.138364 -0.337610 153 0 76
0.204981 0.371940 0.320765 153 0 76
0.867620 -0.189090 -0.108595 76 0 153
0.688362 0.092479 -0.346598 153 0 76
0.716673 0.334838 0.211686 0 0 255
-0.863809 -0.105223 0.349464 0 127 127
0.840380 0.321441 -0.365149 127 127 0
0.356972 0.359573 0.022664 0 0 255
-0.839074 0.169945 -0.100993 153 76 0
0.821449 -0.023478 0.454211 0 127 127
0.379445 -0.013111 -0.346598 153 0 76
0.566316 0.317897 -0.365149 153 0 76
-0.371863 -0.000280 -0.365149 153 0 76
-0.542736 0.334838 -0.077220 0 0 255
-0.794139 0.359573 0.180340 0 0 255
0.565654 0.359573 -0.014292 0 0 255
-0.284921 -0.199526 0.369923 127 0 127
0.892355 -0.090323 -0.185523 76 0 153
0.835382 -0.051262 -0.365149 153 0 76
0.045191 -0.253169 0.078844 153 0 76
0.867620 0.163232 -0.223379 76 0 153
-0.229913 0.334310 -0.346598 153 0 76
0.901013 0.359573 -0.388878 0 0 255
-0.769240 -0.332999 -0.191277 204 51 127
0.892355 -0.021577 0.079487 76 0 153
-0.642911 -0.332999 0.249246 204 51 127
-0.625012 -0.332999 -0.301177 204 51 127
-0.421676 0.122794 -0.204088 204 51 127
0.867620 -0.129077 -0.146462 76 0 153
0.615644 -0.357734 0.179381 204 51 127
0.437855 0.307558 -0.140778 76 0 153
0.045191 0.182373 -0.077491 153 0 76
0.867620 0.314019 -0.141530 76 0 153
-0.814340 0.009190 -0.049367 153 76 0
0.892355 -0.208724 0.250904 76 0 153
0.248485 -0.288449 -0.346598 153 0 76
-0.350076 0.107382 -0.346598 153 0 76
-0.470831 -0.332999 -0.164185 204 51 127
0.102087 -0.332999 -0.285496 204 51 127
-0.769825 -0.011201 0.389221 127 0 127
-0.817821 -0.357734 -0.220806 204 51 127
0.458337 -0.366310 0.352157 76 153 0
-0.814340 0.199584 0.236120 153 76 0
0.242576 0.066592 -0.365149 153 0 76
-0.152126 0.023800 -0.365149 153 0 76
-0.120720 0.334838 0.238404 0 0 255
0.648883 -0.114564 0.389259 127 0 127
-0.755705 -0.357734 0.005695 204 51 127
-0.403843 -0.026858 0.389259 127 0 127
0.472816 -0.076576 0.315055 76 0 153
-0.858805 -0.332999 0.302070 204 51 127
0.892355 -0.149549 -0.084581 76 0 153
0.798405 -0.332999 0.262692 204 51 127
-0.384574 0.228841 -0.207014 204 51 127
0.012767 -0.256418 0.389221 127 0 127
-0.384574 -0.258528 0.144789 204 51 127
0.272613 0.334838 0.277625 0 0 255
0.901647 0.118367 -0.365149 127 127 0
-0.744004 0.334838 -0.364785 0 0 255
0.709257 -0.262419 -0.365149 153 0 76
-0.384574 -0.131271 0.240294 204 51 127
0.532171 0.334838 -0.354536 0 0 255
0.012972 0.115048 -0.365149 153 0 76
-0.421676 0.078049 -0.323925 204 51 127
-0.172240 -0.332999 0.058354 204 51 127
0.437855 0.132513 -0.337750 76 0 153
-0.189218 0.359573 0.151694 0 0 255
-0.751273 0.351454 0.352157 153 0 76
-0.757330 0.060777 -0.365149 255 0 0
-0.196736 0.334838 -0.123824 0 0 255
-0.474077 -0.329777 0.315055 76 153 0
0.272074 -0.109390 0.358180 127 0 127
-0.133716 0.317791 0.352157 153 0 76
0.092292 -0.317737 0.352157 76 153 0
-0.759618 -0.357734 0.251433 204 51 127
-0.402664 -0.040194 -0.346598 153 0 76
0.008089 -0.166452 -0.131694 153 0 76
0.271787 -0.332999 0.261034 204 51 127
-0.254540 -0.246484 -0.346598 153 0 76
-0.462741 -0.094486 0.358180 127 0 127
0.474957 0.156987 -0.232983 76 0 153
0.867620 -0.213707 0.120984 76 0 153
-0.421676 -0.135320 -0.121397 204 51 127
0.908617 0.058429 0.315055 127 0 127
0.362040 0.072469 0.358180 127 0 127
0.008089 -0.323768 -0.276320 153 0 76
0.152847 -0.168848 -0.346598 153 0 76
0.015790 -0.332999 0.131063 204 51 127
0.045191 0.226614 -0.208997 153 0 76
0.360265 -0.332999 0.101444 204 51 127
-0.793940 -0.332999 0.016105 204 51 127
0.329782 0.127845 0.389259 127 0 127
0.892355 -0.262088 -0.306457 76 0 153
-0.814340 -0.198809 -0.113112 153 76 0
-0.105009 0.334838 0.077665 0 0 255
-0.839074 -0.066489 0.093632 153 76 0
-0.190764 0.334151 0.352157 153 0 76
-0.150433 0.205817 -0.346598 153 0 76
-0.814340 0.282839 0.227466 153 76 0
-0.562618 0.359162 -0.389884 0 0 255
0.566896 -0.203281 -0.346598 153 0 76
0.867620 -0.029454 0.172628 76 0 153
0.437855 0.049917 -0.277007 76 0 153
0.285435 0.092910 -0.346598 153 0 76
-0.735460 -0.357734 0.191873 204 51 127
0.437855 -0.140646 -0.040171 76 0 153
0.166529 -0.357734 -0.360027 204 51 127
0.383159 0.248265 0.352119 127 0 127
0.892355 -0.203113 0.000568 76 0 153
0.008089 0.164311 0.020445 153 0 76
0.615880 -0.332999 0.003433 204 51 127
-0.491719 0.359573 0.023177 0 0 255
0.867620 0.041392 0.193601 76 0 153
-0.677573 0.073813 0.358180 127 0 127
-0.632993 -0.244680 0.352119 127 0 127
-0.560345 -0.357734 -0.068891 204 51 127
-0.475411 0.090517 0.358180 127 0 127
-0.839074 0.029228 -0.322919 153 76 0
-0.468910 0.190872 0.370216 127 0 127
0.060401 -0.195512 -0.365149 153 0 76
-0.023007 -0.183379 -0.365149 153 0 76
0.606567 -0.368314 0.352157 76 153 0
-0.253154 0.097451 -0.365149 153 0 76
0.396149 -0.357734 -0.018701 204 51 127
-0.583104 -0.117108 0.358180 127 0 127
0.068826 -0.067717 -0.365149 0 255 0
-0.380548 -0.101211 -0.365149 153 0 76
0.867620 0.064205 0.161662 76 0 153
-0.814340 0.107307 -0.347922 153 76 0
0.867620 -0.280334 0.087330 76 0 153
-0.433280 -0.293548 0.389221 127 0 127
0.053837 -0.272215 -0.389884 0 255 0
0.185003 -0.219647 0.352119 127 0 127
0.437855 -0.308852 -0.019969 76 0 153
-0.597209 0.334838 0.014162 0 0 255
0.608658 -0.357734 0.072387 204 51 127
-0.814340 -0.296528 -0.091404 153 76 0
0.597477 0.359573 0.125545 0 0 255
0.374394 -0.219003 0.352119 127 0 127
0.446759 0.094827 0.315055 76 0 153
-0.283573 -0.332999 0.008616 204 51 127
0.166921 -0.091528 -0.346598 153 0 76
0.008089 -0.132778 0.017315 153 0 76
0.215128 0.334838 0.048912 0 0 255
-0.509129 0.334838 0.080343 0 0 255
-0.818634 0.359573 0.056078 0 0 255
0.892355 -0.131637 -0.128007 76 0 153
0.872778 -0.357734 -0.321268 204 51 127
0.371705 -0.309747 0.352119 127 0 127
0.892355 0.277945 -0.142195 76 0 153
-0.241377 -0.004334 0.389259 127 0 127
0.867620 0.290020 0.207232 76 0 153
0.474957 -0.178465 -0.104504 76 0 153
-0.259023 0.116643 0.389259 127 0 127
-0.384574 -0.288970 -0.088103 204 51 127
-0.532086 0.302776 -0.346598 153 0 76
0.892355 0.304292 0.266663 76 0 153
-0.161454 -0.006342 -0.365149 153 0 76
0.367112 0.211414 -0.346598 153 0 76
-0.227929 0.019469 -0.365149 153 0 76
0.892355 -0.279701 -0.210727 76 0 153
-0.196555 -0.332999 -0.236460 204 51 127
0.090259 0.334838 0.006592 0 0 255
0.917090 -0.227835 -0.368429 127 127 0
-0.203987 -0.357734 0.110835 204 51 127
-0.574470 -0.332999 -0.036592 204 51 127
0.670261 -0.357734 -0.239622 204 51 127
-0.668128 0.359573 0.031520 0 0 255
0.870191 -0.357734 0.118999 204 51 127
0.201634 -0.332999 -0.142131 204 51 127
0.041459 0.115738 -0.389884 0 255 0
-0.423983 -0.332999 -0.069658 204 51 127
-0.024390 0.359573 0.111387 0 0 255
-0.434767 0.359573 -0.210598 0 0 255
-0.384574 0.263346 -0.179425 204 51 127
0.492128 0.359573 0.072480 0 0 255
-0.384574 0.299501 -0.074255 204 51 127
0.045191 -0.103951 0.013831 153 0 76
0.624287 0.239305 0.352119 127 0 127
-0.314212 -0.357734 -0.061410 204 51 127
0.474957 0.016722 0.029678 76 0 153
-0.318852 -0.148886 -0.346598 153 0 76
0.192319 -0.332999 0.184894 204 51 127
-0.084189 0.359573 -0.211567 0 0 255
-0.217398 0.359573 -0.289585 0 0 255
-0.814340 -0.212101 -0.017566 153 76 0
-0.384574 0.098585 0.201938 204 51 127
0.789382 -0.190461 -0.389884 127 127 0
0.692369 0.359573 0.010911 0 0 255
0.437855 0.250914 -0.222483 76 0 153
0.892355 0.095773 -0.055614 76 0 153
-0.399878 0.334838 -0.282695 0 0 255
0.892355 -0.244584 0.115569 76 0 153
-0.676651 -0.332999 0.175880 204 51 127
0.326856 0.359573 -0.071350 0 0 255
-0.052969 -0.316524 0.380400 127 0 127
0.437855 0.066669 0.276020 76 0 153
-0.739982 0.203770 -0.365149 153 0 76
0.804175 0.359573 0.235227 0 0 255
0.867620 0.012350 -0.257951 76 0 153
-0.521524 -0.357734 -0.145407 204 51 127
0.256133 0.168639 0.376612 127 0 127
0.268601 0.359573 0.231308 0 0 255
-0.739895 0.281793 -0.346598 153 0 76
-0.598689 -0.332999 0.027064 204 51 127
-0.747639 -0.332999 0.211788 204 51 127
-0.413059 0.160730 -0.346598 153 0 76
0.300098 0.359573 0.277080 0 0 255
0.437855 0.166067 0.241200 76 0 153
-0.623974 0.359573 -0.117417 0 0 255
0.008089 0.224469 0.187354 153 0 76
0.045191 -0.035521 -0.251335 153 0 76
0.062933 -0.332999 -0.049489 204 51 127
-0.842622 0.334838 -0.041739 0 0 255
0.778539 0.359573 0.293570 0 0 255
0.120614 -0.332999 -0.109156 204 51 127
-0.307021 -0.357734 -0.180670 204 51 127
0.230289 0.359573 -0.346868 0 0 255
0.257612 0.359573 -0.366346 0 0 255
0.688863 -0.335038 -0.389884 204 51 127
0.045191 0.056205 0.003495 153 0 76
-0.153858 -0.357734 0.244198 204 51 127
-0.143330 -0.357734 0.158748 204 51 127
-0.814340 -0.048836 -0.266539 153 76 0
0.454586 0.026622 -0.365149 153 0 76
0.742259 0.089170 0.358180 127 0 127
-0.596296 0.334838 -0.085968 0 0 255
-0.421676 -0.215354 0.264380 204 51 127
-0.764974 -0.057811 -0.389884 255 0 0
0.055236 -0.332999 0.210699 204 51 127
-0.718915 0.102025 -0.389884 255 0 0
-0.603103 0.334338 0.315055 153 0 76
-0.792917 0.057343 -0.346598 153 0 76
0.892355 -0.265244 0.026247 76 0 153
-0.814340 -0.156789 0.141146 153 76 0
0.085289 -0.144794 0.389259 127 0 127
-0.493041 -0.357734 -0.277383 204 51 127
0.045191 0.110072 0.133990 153 0 76
0.867620 -0.006595 0.145692 76 0 153
-0.196552 0.012840 0.389259 127 0 127
0.892355 0.064565 0.180765 76 0 153
-0.505145 -0.357734 0.112047 204 51 127
-0.511195 0.271260 -0.365149 153 0 76
0.474957 0.331542 0.138293 76 0 153
-0.445114 -0.332999 0.108998 204 51 127
0.437855 0.092424 -0.315049 76 0 153
-0.839074 -0.269715 -0.119248 153 76 0
-0.814340 0.088433 -0.145531 153 76 0
0.647393 0.213541 0.353334 127 0 127
-0.064195 -0.357734 -0.132834 204 51 127
0.697076 0.298456 0.352157 153 0 76
0.102458 -0.357734 0.292643 204 51 127
-0.733425 -0.156890 -0.365149 255 0 0
0.147666 0.359573 0.192936 0 0 255
-0.839074 0.095665 -0.044387 153 76 0
0.666752 -0.320623 0.360216 127 0 127
0.338730 -0.357734 -0.034554 204 51 127
-0.820642 -0.029975 0.315055 0 127 127
-0.814340 0.110901 -0.034084 153 76 0
0.444408 0.359573 -0.039579 0 0 255
0.474957 0.015811 -0.194391 76 0 153
-0.278803 0.287092 -0.365149 153 0 76
-0.200998 -0.357734 -0.270726 204 51 127
0.782036 0.110712 0.389221 127 0 127
-0.498770 -0.357734 0.275862 204 51 127
-0.036671 0.334838 -0.194419 0 0 255
-0.814340 -0.079306 0.066237 153 76 0
-0.391032 0.334838 -0.337146 0 0 255
0.696623 0.094763 0.385757 127 0 127
-0.839074 -0.023668 0.209624 153 76 0
0.484217 0.043735 0.389259 127 0 127
-0.384574 -0.166308 0.210036 204 51 127
0.799880 -0.108813 0.435708 0 127 127
0.045191 -0.070193 -0.261479 153 0 76
0.474957 -0.021091 -0.279814 76 0 153
-0.033349 -0.357734 -0.107246 204 51 127
0.351940 -0.332999 -0.374065 204 51 127
0.371885 -0.100223 0.358180 127 0 127
0.008089 0.057015 0.132011 153 0 76
0.889114 -0.228137 -0.389884 127 127 0
-0.302146 -0.357734 -0.252869 204 51 127
0.759743 0.334838 -0.381373 0 0 255
0.308211 -0.251001 -0.365149 153 0 76
-0.839074 0.135264 -0.085649 153 76 0
0.008089 -0.001512 0.235867 153 0 76
-0.644224 -0.221349 0.387298 127 0 127
0.046840 -0.029509 -0.389884 0 255 0
-0.839074 -0.241886 -0.165836 153 76 0
-0.626333 -0.361277 0.352157 76 153 0
0.437855 0.040406 -0.195798 76 0 153
0.437855 0.077996 0.185268 76 0 153
0.474957 -0.204623 0.285747 76 0 153
0.474957 -0.326451 -0.208220 76 0 153
-0.254262 -0.357734 0.039681 204 51 127
0.009291 0.161508 0.315055 153 0 76
0.884748 -0.357734 -0.250869 204 51 127
-0.460436 0.334838 -0.277114 0 0 255
-0.693713 0.017175 -0.365149 153 0 76
0.181760 0.334838 0.149061 0 0 255
0.225269 -0.357734 -0.333718 204 51 127
-0.671117 -0.160429 -0.346598 153 0 76
0.783643 0.359573 0.077275 0 0 255
-0.153601 -0.357734 -0.280661 204 51 127
0.867620 0.195592 -0.184216 76 0 153
-0.204393 0.242833 0.389221 127 0 127
-0.301437 0.334838 -0.223140 0 0 255
0.892355 0.196246 0.135213 76 0 153
0.718356 -0.332999 -0.014454 204 51 127
0.671493 0.359573 -0.221361 0 0 255
0.326208 0.359573 -0.261147 0 0 255
0.892355 -0.237293 -0.130864 76 0 153
0.437855 -0.085982 0.175525 76 0 153
0.892355 -0.082972 0.071335 76 0 153
0.440271 0.359573 -0.224800 0 0 255
-0.439381 0.223081 -0.365149 153 0 76
0.045191 -0.114568 0.162155 153 0 76
0.045191 0.222098 0.252036 153 0 76
-0.814340 0.323119 0.166652 153 76 0
-0.035275 0.359573 -0.083093 0 0 255
-0.627953 -0.357734 -0.344696 204 51 127
-0.806699 0.334838 0.196082 0 0 255
0.474957 0.162292 0.181866 76 0 153
-0.384574 -0.124264 -0.286672 204 51 127
0.045191 -0.203195 0.030316 153 0 76
-0.136745 -0.328101 -0.346598 153 0 76
0.892355 0.078798 0.233545 76 0 153
0.577712 -0.357734 -0.210302 204 51 127
0.127434 0.023196 -0.365149 153 0 76
-0.775181 0.101085 -0.389884 255 0 0
-0.476114 -0.357734 0.244304 204 51 127
0.513391 -0.147042 -0.365149 153 0 76
0.584557 -0.332301 0.352157 76 153 0
0.293868 0.359573 -0.355258 0 0 255
0.443752 0.359573 0.277040 0 0 255
-0.384963 0.334838 -0.367900 0 0 255
0.768847 0.216864 0.352119 127 0 127
0.886178 0.274055 0.315055 127 0 127
0.892355 -0.085620 0.146490 76 0 153
-0.332312 -0.332999 -0.019412 204 51 127
-0.654309 0.334838 -0.111881 0 0 255
0.102862 0.271690 -0.365149 153 0 76
0.594273 0.254589 -0.365149 153 0 76
0.092669 -0.181316 -0.365149 153 0 76
0.191136 -0.149621 0.386569 127 0 127
-0.362041 -0.332999 0.065947 204 51 127
-0.839074 0.297287 0.210378 153 76 0
-0.354878 0.334838 0.192196 0 0 255
-0.427379 -0.357734 -0.027819 204 51 127
0.842886 -0.111106 0.348548 127 0 127
-0.280615 0.359573 0.170173 0 0 255
0.867620 0.110833 -0.048307 76 0 153
0.008457 0.322461 0.360528 127 0 127
0.027103 0.334838 0.160819 0 0 255
0.892355 -0.232349 -0.000803 76 0 153
0.826872 0.334838 -0.271068 0 0 255
0.892355 -0.014301 0.168744 76 0 153
-0.129564 0.359573 -0.196958 0 0 255
0.245634 -0.357734 -0.246763 204 51 127
-0.343546 0.359573 0.100963 0 0 255
0.771078 -0.301025 0.352119 127 0 127
-0.847210 -0.161982 -0.389884 255 0 0
0.850147 -0.140211 -0.389884 127 127 0
0.588974 -0.332999 -0.041563 204 51 127
-0.814340 0.256160 -0.062430 153 76 0
0.830544 -0.206244 -0.389884 127 127 0
0.152278 -0.024284 0.358180 127 0 127
0.867620 0.330385 -0.060385 76 0 153
-0.710393 0.296443 0.352119 127 0 127
-0.839074 0.074914 0.165970 153 76 0
0.474957 0.001076 0.063463 76 0 153
0.257874 0.346720 0.315055 153 0 76
-0.017957 -0.262539 -0.365149 153 0 76
-0.426772 -0.332999 -0.011003 204 51 127
0.179213 -0.298249 0.389221 127 0 127
-0.836517 -0.269351 0.315055 0 127 127
-0.228344 0.334838 -0.192740 0 0 255
-0.859769 -0.180631 -0.365149 255 0 0
0.233701 -0.332999 0.001746 204 51 127
0.136528 0.118654 0.358180 127 0 127
0.437855 -0.151067 -0.239777 76 0 153
-0.814340 -0.028758 0.243313 153 76 0
-0.483012 -0.196045 0.370021 127 0 127
-0.330381 -0.299098 0.389221 127 0 127
-0.644228 -0.332999 0.218085 204 51 127
0.437855 -0.201626 0.134544 76 0 153
-0.020756 -0.098536 -0.365149 153 0 76
0.111101 -0.357734 0.213236 204 51 127
-0.839074 -0.214612 -0.062099 153 76 0
0.008089 -0.150882 0.084746 153 0 76
-0.277111 -0.332999 0.218434 204 51 127
-0.583012 0.334838 -0.128245 0 0 255
0.053246 -0.332999 0.088418 204 51 127
-0.443067 -0.357734 0.281935 204 51 127
-0.476313 -0.357734 -0.206129 204 51 127
-0.499845 0.334838 0.185427 0 0 255
-0.083853 0.307454 0.352157 153 0 76
0.453556 0.109772 0.389259 127 0 127
-0.569984 0.050052 -0.346598 153 0 76
-0.698122 0.294218 -0.365149 153 0 76
-0.705173 -0.284096 -0.365149 153 0 76
-0.700314 -0.117601 -0.346598 153 0 76
0.051442 -0.332999 -0.236674 204 51 127
0.462662 0.359573 0.314438 0 0 255
0.891843 0.359573 -0.032432 0 0 255
-0.448024 -0.332999 -0.354858 204 51 127
0.411379 -0.357734 0.278692 204 51 127
0.867620 0.219634 -0.121116 76 0 153
0.553248 -0.357734 0.255390 204 51 127
0.225252 -0.332999 -0.241057 204 51 127
0.867620 0.266112 -0.113299 76 0 153
0.499582 0.359573 -0.381410 0 0 255
-0.421676 0.218229 0.292916 204 51 127
0.045886 -0.045261 -0.365149 0 255 0
-0.120436 -0.370101 0.329825 76 153 0
-0.110838 -0.002047 0.358180 127 0 127
-0.648257 0.359573 -0.304832 0 0 255
0.257472 -0.332999 -0.016619 204 51 127
-0.836733 0.334838 0.041738 0 0 255
0.066435 -0.041710 0.389259 127 0 127
-0.814340 0.176863 0.136991 153 76 0
0.364297 -0.357734 0.143514 204 51 127
0.601517 -0.319641 0.375596 127 0 127
-0.863809 -0.066382 0.324890 0 127 127
-0.421676 0.181501 0.155615 204 51 127
-0.491938 0.231060 -0.346598 153 0 76
-0.780924 -0.225623 -0.389884 255 0 0
0.537279 -0.105693 -0.365149 153 0 76
0.222580 0.220825 0.352119 127 0 127
0.442661 0.009687 0.315055 76 0 153
0.474957 -0.295610 0.215934 76 0 153
-0.355807 0.202503 -0.346598 153 0 76
-0.837991 0.359573 -0.299328 0 0 255
0.258268 0.129838 -0.365149 153 0 76
0.540489 -0.357734 0.056558 204 51 127
-0.591445 -0.045172 -0.346598 153 0 76
0.008089 -0.261104 0.302514 153 0 76
-0.784472 -0.357734 -0.271934 204 51 127
0.874098 0.334838 -0.313655 0 0 255
-0.096434 0.276426 -0.346598 153 0 76
-0.814340 -0.278275 -0.287548 153 76 0
0.867620 0.028645 -0.133075 76 0 153
0.427081 0.246014 -0.346598 153 0 76
0.558996 -0.357734 0.178943 204 51 127
-0.556346 -0.069466 0.358180 127 0 127
-0.464361 -0.357734 -0.315446 204 51 127
0.810076 0.334838 -0.005274 0 0 255
0.867613 -0.221340 0.371138 127 0 127
-0.692428 -0.357734 -0.135446 204 51 127
0.371786 -0.332999 0.033960 204 51 127
0.303767 0.072301 0.389259 127 0 127
-0.802923 -0.214646 0.384381 127 0 127
-0.034447 0.060068 0.389259 127 0 127
-0.777520 -0.332999 0.206262 204 51 127
-0.207983 0.196153 -0.346598 153 0 76
-0.814340 -0.108895 -0.064207 153 76 0
0.470536 0.359573 -0.127191 0 0 255
0.544282 0.359573 -0.071006 0 0 255
-0.360249 0.334838 0.231998 0 0 255
0.758051 0.359573 0.314145 0 0 255
0.644885 0.359573 -0.181572 0 0 255
0.783370 -0.332999 0.220140 204 51 127
-0.200637 0.334838 -0.289931 0 0 255
-0.769028 -0.060344 -0.346598 153 0 76
-0.106569 -0.332999 -0.104519 204 51 127
0.028422 0.105628 0.358180 127 0 127
-0.705410 -0.099718 0.352408 127 0 127
0.644212 0.125804 -0.365149 153 0 76
0.045191 -0.033603 0.083561 153 0 76
0.054089 -0.357734 0.059086 204 51 127
-0.131038 0.359573 -0.132094 0 0 255
-0.132863 -0.332999 0.046565 204 51 127
0.233386 -0.332999 -0.208502 204 51 127
0.852875 0.105859 0.352157 127 0 127
0.666143 -0.017782 0.358180 127 0 127
-0.235209 -0.213638 0.352119 127 0 127
-0.022874 -0.041773 -0.365149 0 255 0
0.406738 0.290333 0.389221 127 0 127
-0.581753 -0.272919 -0.365149 153 0 76
0.270457 -0.357734 0.020424 204 51 127
0.497997 0.334838 -0.157946 0 0 255
-0.122071 -0.214805 0.382141 127 0 127
-0.823009 0.359573 0.098320 0 0 255
-0.640105 0.359573 -0.244937 0 0 255
-0.062183 -0.163102 -0.365149 153 0 76
0.045191 0.164151 0.127727 153 0 76
0.373506 -0.053364 0.358180 127 0 127
-0.509712 0.359573 -0.087565 0 0 255
-0.118451 -0.304872 -0.346598 153 0 76
0.230835 -0.332999 0.066274 204 51 127
-0.814340 -0.181603 -0.264640 153 76 0
-0.602023 0.297736 0.347482 153 0 76
-0.726597 0.334838 -0.001069 0 0 255
-0.687062 0.334838 0.079766 0 0 255
0.611377 -0.057215 0.389259 127 0 127
0.437855 -0.139251 -0.069825 76 0 153
-0.641909 -0.156671 0.358180 127 0 127
0.867620 -0.251470 -0.022034 76 0 153
0.867620 0.260177 0.053365 76 0 153
-0.589245 -0.357734 -0.197801 204 51 127
0.045191 0.185991 -0.203980 153 0 76
-0.234148 0.023737 0.358180 127 0 127
0.259590 0.334838 -0.347572 0 0 255
-0.814340 -0.147296 -0.044251 153 76 0
-0.318460 -0.332999 -0.385408 204 51 127
0.892355 -0.090725 -0.073764 76 0 153
-0.613563 0.334838 0.129495 0 0 255
-0.391034 0.075241 -0.365149 153 0 76
-0.810399 -0.113622 0.380210 127 0 127
0.842886 0.267273 0.319024 127 0 127
-0.814340 -0.283868 0.012221 153 76 0
-0.643995 0.103869 0.358180 127 0 127
-0.452572 0.147725 -0.346598 153 0 76
-0.814340 -0.309917 0.038857 153 76 0
0.437855 -0.259066 0.179366 76 0 153
0.454018 -0.306818 0.315055 76 0 153
-0.137271 -0.050735 -0.365149 153 0 76
-0.814340 0.194895 -0.109376 153 76 0
0.045191 -0.241117 -0.343001 153 0 76
0.892355 0.197284 -0.108310 76 0 153
0.714972 0.033822 0.376426 127 0 127
0.155034 0.334838 0.043662 0 0 255
0.437855 -0.220278 0.099043 76 0 153
-0.317105 -0.055862 -0.365149 153 0 76
0.418433 -0.281094 0.352119 127 0 127
-0.047828 -0.370101 0.327336 76 153 0
0.575883 0.313134 0.352119 127 0 127
-0.540278 0.359573 -0.310316 0 0 255
0.058776 0.143753 -0.389884 0 255 0
-0.072680 -0.257950 -0.346598 153 0 76
-0.181249 -0.332999 0.149120 204 51 127
0.512490 0.334838 -0.328684 0 0 255
-0.822313 -0.363560 0.352157 76 153 0
-0.791344 0.137343 -0.346598 153 0 76
0.541685 -0.160354 -0.365149 153 0 76
0.406182 -0.186407 0.370290 127 0 127
-0.604905 -0.031743 0.358180 127 0 127
-0.702621 0.334838 0.313436 0 0 255
-0.421676 0.151304 0.291221 204 51 127
-0.384574 0.050742 -0.155256 204 51 127
0.430242 -0.239679 0.352119 127 0 127
0.892355 0.140052 0.194218 76 0 153
-0.384574 0.269623 0.226022 204 51 127
-0.560402 -0.332999 0.176409 204 51 127
-0.814340 -0.312880 0.180505 153 76 0
-0.073693 -0.332999 -0.074845 204 51 127
0.352521 -0.063028 -0.346598 153 0 76
0.282364 -0.357734 -0.180565 204 51 127
0.126300 -0.332999 -0.353799 204 51 127
0.784739 0.334838 -0.033124 0 0 255
0.707879 0.359573 -0.047309 0 0 255
0.045191 0.118455 0.024034 153 0 76
0.892355 0.135028 -0.136151 76 0 153
0.664669 0.334838 -0.353030 0 0 255
-0.356273 0.313398 -0.346598 153 0 76
-0.397308 0.094048 0.389259 127 0 127
-0.064293 -0.357734 -0.037372 204 51 127
-0.839077 0.334838 -0.316883 0 0 255
0.845115 0.359573 -0.172084 0 0 255
0.331558 -0.088707 0.389259 127 0 127
-0.584949 -0.357734 -0.145449 204 51 127
0.055744 -0.320178 -0.346598 153 0 76
-0.034674 -0.144288 0.389259 127 0 127
-0.357924 -0.332999 0.258451 204 51 127
0.140524 0.334838 0.252150 0 0 255
0.008089 0.130999 0.254935 153 0 76
-0.605285 0.359573 0.170574 0 0 255
0.020535 0.152795 0.358180 127 0 127
-0.017741 -0.332999 -0.325620 204 51 127
0.506808 0.334838 -0.043527 0 0 255
0.867620 -0.096451 -0.259030 76 0 153
0.254012 -0.171230 0.375908 127 0 127
-0.640076 -0.332999 0.143782 204 51 127
0.394768 0.334838 -0.215044 0 0 255
0.433726 0.359573 0.007402 0 0 255
0.530638 0.250450 0.352119 127 0 127
-0.839074 -0.145997 -0.318854 153 76 0
-0.293525 -0.250709 -0.346598 153 0 76
-0.506853 0.151388 0.358180 127 0 127
-0.497355 -0.332999 0.298395 204 51 127
-0.839074 -0.093107 -0.187720 153 76 0
-0.159566 0.359573 0.273646 0 0 255
-0.068744 -0.332999 -0.261990 204 51 127
-0.711252 -0.300276 0.352157 76 153 0
0.008089 0.102163 -0.078625 153 0 76
-0.011055 0.351413 -0.389884 0 0 255
-0.421676 0.152362 0.259498 204 51 127
-0.396288 0.268456 0.389221 127 0 127
-0.219016 0.359573 -0.355087 0 0 255
0.867620 -0.084956 -0.230452 76 0 153
0.554119 -0.259882 -0.365149 153 0 76
-0.611684 -0.357734 0.289663 204 51 127
-0.528892 0.326920 -0.365149 153 0 76
0.045595 0.296278 -0.365149 0 255 0
-0.814340 0.169933 0.264678 153 76 0
-0.775055 -0.328541 -0.346598 153 0 76
0.735199 0.333387 0.352157 153 0 76
0.790463 0.011602 0.352119 127 0 127
-0.857463 0.334838 0.119871 0 0 255
-0.409292 -0.357734 -0.059573 204 51 127
-0.385495 0.334838 -0.242154 0 0 255
0.047040 0.226914 -0.365149 153 0 76
-0.384574 0.287894 0.057481 204 51 127
0.506500 -0.357734 0.107888 204 51 127
0.045191 -0.042471 -0.082529 153 0 76
-0.814340 0.313473 0.032335 153 76 0
-0.421676 -0.229192 -0.134352 204 51 127
-0.775171 0.114713 0.352119 127 0 127
-0.814340 0.275224 -0.127705 153 76 0
0.624059 0.352960 0.352157 153 0 76
-0.421676 -0.153066 0.170734 204 51 127
0.326947 0.334838 -0.279235 0 0 255
-0.384574 -0.082476 0.278846 204 51 127
0.614350 0.359573 0.206768 0 0 255
-0.407197 -0.332999 0.272930 204 51 127
0.672324 -0.254497 -0.346598 153 0 76
-0.384574 0.258944 0.017830 204 51 127
0.045191 0.152622 -0.192829 153 0 76
0.879207 -0.357734 0.312527 204 51 127
0.255758 -0.357734 -0.168731 204 51 127
-0.814340 0.197472 0.201588 153 76 0
-0.382975 -0.357734 0.105730 204 51 127
-0.439107 0.334838 -0.164815 0 0 255
-0.023843 0.184201 -0.346598 153 0 76
-0.102279 0.070629 0.358180 127 0 127
0.495591 -0.149619 0.384308 127 0 127
0.892355 -0.087926 -0.298024 76 0 153
0.045191 -0.160417 -0.296857 153 0 76
-0.386072 0.334838 0.212402 0 0 255
0.285810 -0.332999 -0.293639 204 51 127
0.458573 0.359573 0.190036 0 0 255
-0.229731 -0.332999 -0.224743 204 51 127
0.355520 0.359573 -0.120046 0 0 255
-0.004026 0.095932 0.358180 127 0 127
0.111430 -0.357734 -0.254532 204 51 127
0.045191 -0.084280 0.236409 153 0 76
0.739933 -0.357734 -0.307128 204 51 127
0.352114 -0.357734 0.002552 204 51 127
-0.698236 0.146932 -0.365149 153 0 76
0.452126 0.334838 -0.117347 0 0 255
-0.581385 -0.357734 -0.049388 204 51 127
-0.360474 -0.332999 0.137168 204 51 127
-0.839074 -0.035905 0.281354 153 76 0
0.867620 0.173545 -0.283648 76 0 153
0.598944 0.359573 0.002257 0 0 255
0.835465 -0.085906 0.389221 127 0 127
-0.744095 -0.332999 -0.115332 204 51 127
-0.614379 0.097895 -0.365149 153 0 76
0.423302 0.359573 -0.196233 0 0 255
-0.728273 0.306642 0.389221 127 0 127
-0.395303 0.334838 -0.116071 0 0 255
-0.421676 -0.008526 -0.247939 204 51 127
-0.679273 -0.316940 0.352119 127 0 127
0.277186 -0.073680 0.389259 127 0 127
0.252267 -0.332999 -0.291166 204 51 127
0.221010 -0.332999 -0.282899 204 51 127
-0.097434 0.334838 -0.250551 0 0 255
-0.025512 0.334838 0.162613 0 0 255
-0.814340 -0.150490 -0.234594 153 76 0
0.362536 0.334838 0.293053 0 0 255
-0.504565 0.195916 0.370076 127 0 127
0.881477 -0.088519 -0.365149 127 127 0
-0.022728 0.229586 -0.346598 153 0 76
-0.718044 -0.285313 0.389221 127 0 127
-0.814340 -0.224324 0.049779 153 76 0
-0.319920 -0.299047 -0.365149 153 0 76
0.474957 0.214217 0.161070 76 0 153
-0.166470 -0.309601 -0.346598 153 0 76
0.601863 0.298286 0.352157 153 0 76
-0.112426 0.134228 -0.365149 153 0 76
-0.004784 0.028041 -0.346598 153 0 76
-0.421676 -0.305312 -0.335277 204 51 127
0.388954 0.359573 -0.260455 0 0 255
0.867612 -0.002830 0.361479 127 0 127
0.400815 -0.327326 -0.346598 153 0 76
0.867620 -0.246733 0.082669 76 0 153
-0.307352 -0.357734 0.085736 204 51 127
-0.421676 -0.040684 0.093442 204 51 127
-0.351081 -0.332999 -0.213675 204 51 127
-0.151102 -0.357734 -0.238971 204 51 127
0.437855 0.283798 0.019975 76 0 153
0.437855 0.163101 -0.101584 76 0 153
0.867620 -0.213519 -0.147837 76 0 153
0.035768 0.216448 0.352119 127 0 127
-0.663793 -0.332999 -0.007839 204 51 127
0.437855 -0.008994 -0.024795 76 0 153
0.867620 -0.013540 0.199395 76 0 153
0.441045 -0.357734 0.134228 204 51 127
-0.650261 -0.357734 -0.083846 204 51 127
0.902707 -0.357734 0.105008 204 51 127
-0.814340 -0.170801 0.219231 153 76 0
0.045191 0.215409 -0.117637 153 0 76
0.867620 -0.308805 0.173211 76 0 153
0.437855 -0.025305 0.227672 76 0 153
0.867620 -0.177849 0.281109 76 0 153
-0.847607 -0.357734 0.016915 204 51 127
0.502898 -0.357734 -0.084913 204 51 127
0.892355 0.107601 -0.001767 76 0 153
-0.409037 0.272052 0.352119 127 0 127
0.092587 0.334838 0.075729 0 0 255
-0.748865 -0.357734 -0.346669 204 51 127
-0.793536 0.176620 -0.346598 153 0 76
0.407338 -0.069259 -0.365149 153 0 76
0.169330 -0.226923 -0.365149 153 0 76
-0.686657 -0.044679 0.370107 127 0 127
-0.148310 -0.262310 -0.365149 153 0 76
-0.167924 -0.332999 -0.133221 204 51 127
0.437855 -0.172376 0.269570 76 0 153
0.441593 0.159870 0.358180 127 0 127
-0.384574 0.037022 0.244689 204 51 127
-0.185169 -0.357734 0.134971 204 51 127
0.064539 -0.209149 -0.389884 0 255 0
-0.585837 0.334838 0.288877 0 0 255
0.594499 -0.332999 -0.368817 204 51 127
-0.150418 0.137515 0.389259 127 0 127
0.008089 -0.207904 0.266747 153 0 76
0.715242 0.297371 -0.365149 153 0 76
0.008089 -0.272742 0.246298 153 0 76
0.760899 0.183962 0.381195 127 0 127
0.691877 -0.357734 -0.107644 204 51 127
-0.456860 -0.357734 -0.140146 204 51 127
0.156727 0.359573 -0.056681 0 0 255
-0.648049 -0.357734 -0.284234 204 51 127
-0.669598 -0.019311 -0.346598 153 0 76
0.008089 0.107691 0.214838 153 0 76
-0.814340 0.292830 -0.254873 153 76 0
0.008089 -0.193928 0.062838 153 0 76
0.437855 -0.087861 -0.189537 76 0 153
0.867620 0.058610 0.002008 76 0 153
-0.072507 0.041144 0.389259 127 0 127
-0.777706 0.334838 0.191363 0 0 255
-0.599607 -0.334381 -0.389884 204 51 127
-0.814340 -0.190617 0.163433 153 76 0
0.008089 0.248124 -0.273203 153 0 76
0.867620 0.283342 -0.264977 76 0 153
0.124912 -0.332999 -0.268442 204 51 127
-0.248003 -0.357734 0.240186 204 51 127
0.867620 0.094562 -0.362173 76 0 153
0.205212 -0.140255 0.358180 127 0 127
-0.615460 -0.332999 0.194438 204 51 127
0.892355 0.289463 -0.036817 76 0 153
0.328267 0.334838 -0.057193 0 0 255
0.240915 -0.197926 -0.346598 153 0 76
0.045191 0.237002 0.150778 153 0 76
-0.767340 -0.086163 -0.365149 153 0 76
0.431460 0.334838 -0.165878 0 0 255
0.370096 -0.370101 0.344547 76 153 0
0.785459 -0.020262 0.389221 127 0 127
-0.839074 0.060331 0.128890 153 76 0
-0.338319 -0.357888 0.352157 76 153 0
-0.771516 0.359573 0.051759 0 0 255
0.345072 -0.308374 0.385980 127 0 127
0.045191 -0.187130 -0.243087 153 0 76
-0.421676 -0.130370 0.211221 204 51 127
-0.825091 -0.332999 0.207496 204 51 127
0.842886 -0.133262 0.325347 127 0 127
0.008089 -0.111589 -0.101290 153 0 76
-0.431144 -0.305520 0.352157 76 153 0
-0.421676 0.328246 -0.138347 204 51 127
0.203953 -0.320625 0.363149 127 0 127
0.805319 0.334838 -0.103009 0 0 255
-0.658652 -0.332999 0.033727 204 51 127
-0.188971 0.041262 0.358180 127 0 127
0.428651 -0.332999 0.204617 204 51 127
0.045191 -0.028033 -0.305743 153 0 76
0.028446 -0.332999 -0.313619 204 51 127
-0.146121 0.249778 -0.365149 153 0 76
0.584193 -0.131565 -0.346598 153 0 76
0.867620 -0.307967 -0.254619 76 0 153
0.149851 -0.017482 -0.365149 153 0 76
0.273980 -0.357734 0.274885 204 51 127
-0.344919 -0.357734 0.130908 204 51 127
0.796063 0.164369 -0.365149 153 0 76
-0.579709 0.334838 0.105777 0 0 255
0.474957 0.132733 0.274349 76 0 153
-0.506673 0.371940 0.329543 153 0 76
-0.003212 -0.209935 -0.389884 0 255 0
-0.802083 -0.033869 0.387416 127 0 127
0.008089 0.211478 0.292459 153 0 76
-0.852393 -0.332999 0.248169 204 51 127
-0.550605 0.334838 -0.121142 0 0 255
-0.388867 -0.332999 -0.051035 204 51 127
-0.247464 0.359573 -0.306011 0 0 255
0.187394 -0.357734 -0.381823 204 51 127
0.076121 -0.332999 0.069411 204 51 127
0.008089 -0.140495 -0.218880 153 0 76
0.049448 0.182464 0.358180 127 0 127
-0.839074 0.087850 -0.236169 153 76 0
0.411781 0.359573 -0.154731 0 0 255
-0.706322 -0.357734 0.026705 204 51 127
-0.343399 -0.240134 -0.365149 153 0 76
0.511038 -0.341112 0.352157 76 153 0
0.867620 -0.282001 -0.172873 76 0 153
-0.731419 0.008324 -0.365149 255 0 0
-0.595225 0.206949 -0.346598 153 0 76
-0.839074 -0.259867 0.102981 153 76 0
-0.707044 0.359573 -0.272231 0 0 255
-0.746077 -0.084214 -0.389884 255 0 0
0.892355 -0.303423 -0.115059 76 0 153
-0.700609 -0.357734 0.265916 204 51 127
0.745919 0.359573 0.247876 0 0 255
0.437855 -0.185112 -0.036776 76 0 153
0.802222 0.359573 0.099955 0 0 255
-0.608210 0.334838 -0.296046 0 0 255
-0.797789 0.157933 -0.389884 255 0 0
0.045191 -0.106708 -0.261371 153 0 76
-0.524435 0.326292 0.315055 153 0 76
0.867620 0.137588 -0.338004 76 0 153
-0.200251 -0.370101 0.344275 76 153 0
-0.814340 0.230542 -0.228227 153 76 0
-0.364820 0.359573 0.253336 0 0 255
0.045191 -0.159090 0.127247 153 0 76
-0.839074 -0.169129 0.174122 153 76 0
-0.839074 -0.265532 -0.028362 153 76 0
-0.301867 -0.357734 0.285689 204 51 127
0.846435 0.334838 0.291480 0 0 255
0.684008 -0.357734 0.186603 204 51 127
0.830311 0.334838 0.198126 0 0 255
0.045191 -0.150195 -0.096201 153 0 76
-0.043547 -0.332999 -0.378051 204 51 127
0.612308 -0.077132 0.358180 127 0 127
-0.656369 -0.357734 0.195636 204 51 127
0.209937 0.359573 -0.259291 0 0 255
0.867620 0.065137 -0.196764 76 0 153
-0.259077 -0.077587 0.389259 127 0 127
0.012892 -0.332999 0.070123 204 51 127
-0.770548 0.281811 0.352119 127 0 127
0.008089 0.003767 -0.242475 153 0 76
-0.835662 -0.332999 0.051003 204 51 127
-0.839074 -0.134665 -0.268265 153 76 0
0.437855 -0.204149 -0.112245 76 0 153
0.660853 -0.357734 0.024609 204 51 127
-0.839074 -0.292035 -0.140593 153 76 0
0.150357 -0.019140 0.389259 127 0 127
0.359539 -0.332999 -0.071902 204 51 127
-0.038087 0.136455 -0.365149 153 0 76
-0.839074 0.124928 -0.198533 153 76 0
-0.593331 0.359573 -0.289329 0 0 255
0.867620 -0.249232 0.134872 76 0 153
-0.384574 0.271379 0.126142 204 51 127
-0.535941 0.128145 0.358180 127 0 127
-0.391273 -0.195222 0.358180 127 0 127
-0.483346 -0.296925 -0.346598 153 0 76
0.474957 -0.231438 -0.274538 76 0 153
-0.829012 -0.357734 0.141142 204 51 127
0.427025 0.208254 0.358180 127 0 127
-0.318541 -0.332999 -0.233921 204 51 127
-0.384574 0.125238 0.116278 204 51 127
0.505253 -0.357734 0.313667 204 51 127
-0.200728 -0.332999 0.298088 204 51 127
-0.631937 -0.357734 -0.240576 204 51 127
0.696623 -0.033085 0.385750 127 0 127
0.627693 0.306628 -0.365149 153 0 76
0.045191 0.189022 0.213577 153 0 76
0.539714 -0.332999 -0.001824 204 51 127
0.892355 0.042537 0.010761 76 0 153
0.079626 -0.162500 0.358180 127 0 127
0.903794 -0.357734 0.182539 204 51 127
0.426092 0.316342 0.352157 153 0 76
0.045191 0.110246 -0.303073 153 0 76
0.867620 0.048140 -0.162718 76 0 153
0.495832 -0.357015 -0.389884 204 51 127
-0.814340 0.036566 0.148112 153 76 0
-0.395147 -0.193743 0.315055 204 51 127
0.012820 0.188388 -0.389884 0 255 0
-0.332415 -0.357734 -0.124061 204 51 127
0.223486 0.020063 0.389259 127 0 127
0.867620 0.321348 0.056738 76 0 153
-0.814340 -0.029286 0.005349 153 76 0
-0.455925 0.334838 0.108361 0 0 255
0.686971 0.359573 0.288536 0 0 255
-0.694157 -0.357734 -0.293879 204 51 127
-0.653083 0.359573 0.276365 0 0 255
0.453454 -0.357734 0.053133 204 51 127
0.045191 0.221933 0.089925 153 0 76
-0.409936 0.053513 0.315055 204 51 127
0.034831 -0.066572 0.389259 127 0 127
0.851705 -0.357734 -0.176555 204 51 127
0.706584 0.371940 0.330786 153 0 76
-0.421676 -0.206474 0.237576 204 51 127
0.114791 -0.225578 0.352119 127 0 127
-0.137815 -0.050485 0.358180 127 0 127
0.710671 0.056214 -0.365149 153 0 76
0.819413 -0.357734 -0.179064 204 51 127
-0.814340 -0.141279 0.278750 153 76 0
0.867620 0.208803 0.068177 76 0 153
0.474957 -0.147466 -0.064614 76 0 153
0.045191 0.249798 -0.134943 153 0 76
0.867620 0.238889 -0.343801 76 0 153
0.795162 0.121684 -0.365149 127 127 0
-0.839074 -0.323106 0.281771 153 76 0
-0.529560 -0.283502 -0.346598 153 0 76
0.164356 -0.049090 0.389259 127 0 127
0.437855 0.188949 0.288621 76 0 153
0.008089 0.133729 -0.077390 153 0 76
0.508705 -0.357734 -0.360163 204 51 127
0.719189 -0.167858 0.375752 127 0 127
0.789611 0.258783 -0.346598 153 0 76
0.491497 0.287743 0.352119 127 0 127
0.008089 -0.076230 0.176334 153 0 76
0.045191 0.136865 -0.084979 153 0 76
0.912573 -0.043221 0.352157 127 0 127
0.283809 0.352803 -0.389884 0 0 255
0.696762 -0.357734 0.065884 204 51 127
-0.296756 0.334838 -0.002144 0 0 255
0.867620 -0.026339 -0.247624 76 0 153
0.193577 0.110780 0.358180 127 0 127
0.892355 0.012269 -0.274158 76 0 153
0.916762 -0.182242 0.315055 127 0 127
0.249669 0.359573 -0.230739 0 0 255
0.753455 -0.357734 0.058078 204 51 127
-0.067843 0.110347 0.389259 127 0 127
-0.122609 0.359573 -0.326766 0 0 255
-0.790203 0.334838 0.127238 0 0 255
0.768682 0.047316 -0.367006 127 127 0
-0.384574 -0.027834 0.269417 204 51 127
0.892355 -0.280313 -0.070075 76 0 153
-0.384574 0.143214 0.147717 204 51 127
-0.497289 -0.315502 -0.365149 153 0 76
0.112619 -0.357734 -0.364548 204 51 127
0.836975 0.334838 0.068091 0 0 255
-0.695722 0.359573 -0.215534 0 0 255
-0.839074 -0.025723 0.080881 153 76 0
0.781214 -0.004223 -0.365149 153 0 76
0.088041 -0.331767 -0.365149 153 0 76
0.892355 0.137189 0.119205 76 0 153
0.892355 -0.212258 -0.041809 76 0 153
0.008089 -0.007097 -0.066404 153 0 76
-0.545906 0.246812 -0.365149 153 0 76
-0.229839 -0.357734 -0.203387 204 51 127
-0.844086 -0.285325 0.352157 0 127 127
-0.473791 -0.357734 -0.115787 204 51 127
0.735356 -0.357734 -0.386033 204 51 127
-0.616943 -0.332999 -0.106938 204 51 127
-0.772193 -0.357734 -0.380949 204 51 127
-0.022332 0.076328 -0.365149 153 0 76
0.532019 -0.332999 -0.099027 204 51 127
0.867620 0.311486 0.140916 76 0 153
0.672090 0.359573 0.206508 0 0 255
0.867620 -0.284323 0.139495 76 0 153
0.309269 -0.332999 -0.127127 204 51 127
-0.191665 -0.332999 -0.106896 204 51 127
0.845559 -0.234213 -0.365149 153 0 76
-0.421676 -0.099226 -0.306231 204 51 127
0.877682 0.334838 -0.365920 0 0 255
-0.083940 -0.357734 -0.228517 204 51 127
-0.140490 0.334838 -0.384815 0 0 255
-0.360517 -0.087879 -0.346598 153 0 76
-0.806843 0.319657 -0.389884 255 0 0
-0.839074 0.037087 0.240319 153 76 0
0.008089 -0.207164 0.230413 153 0 76
0.410231 0.341236 0.352157 153 0 76
0.554761 0.158678 0.378196 127 0 127
-0.258055 0.169224 -0.365149 153 0 76
0.757071 0.359573 0.135248 0 0 255
-0.421676 -0.045781 0.256510 204 51 127
0.739877 -0.332999 -0.371965 204 51 127
0.751435 0.359573 -0.159594 0 0 255
0.637806 -0.357734 -0.383568 204 51 127
-0.273470 -0.357734 -0.093898 204 51 127
-0.384574 0.098890 0.037335 204 51 127
0.085303 0.060929 -0.346598 153 0 76
0.867620 -0.046614 -0.122670 76 0 153
0.008089 0.295806 0.136699 153 0 76
-0.172234 -0.104439 0.389259 127 0 127
-0.501927 0.359573 -0.117679 0 0 255
0.548542 -0.081388 0.358180 127 0 127
-0.383474 -0.357734 -0.146879 204 51 127
0.249386 -0.332999 -0.052876 204 51 127
-0.711172 -0.332999 0.144440 204 51 127
-0.707576 0.120602 0.381126 127 0 127
0.867620 0.223037 0.130613 76 0 153
