ply
format ascii 1.0
element vertex 1262
property float x
property float y
property float z
property uchar red
property uchar green
property uchar blue
end_header
-0.527656 0.359573 0.227119 0 0 255
-0.421676 -0.049250 -0.169928 204 51 127
0.867620 -0.211899 0.137515 76 0 153
-0.567036 -0.357734 -0.188955 204 51 127
-0.535423 0.334838 0.121362 0 0 255
-0.839074 -0.000572 0.030777 153 76 0
0.437855 0.043716 -0.008390 76 0 153
0.842886 0.257056 0.315346 127 0 127
0.045191 -0.083893 0.190885 153 0 76
0.536603 -0.332999 0.001697 204 51 127
0.309904 0.334838 -0.251432 0 0 255
0.892355 0.126652 -0.097055 76 0 153
0.045191 -0.221359 -0.126876 153 0 76
0.643441 -0.357734 -0.358364 204 51 127
0.801955 0.359573 -0.158387 0 0 255
0.474957 -0.242461 0.290515 76 0 153
0.640366 0.022590 0.389259 127 0 127
-0.384574 0.128858 0.267895 204 51 127
0.437855 -0.285133 -0.033702 76 0 153
0.820245 -0.042665 -0.389884 153 0 76
-0.565088 0.061768 0.358180 127 0 127
-0.690800 -0.332999 0.221293 204 51 127
-0.421676 -0.142514 0.190567 204 51 127
-0.744510 -0.247173 -0.365149 153 0 76
0.293612 0.096027 0.358180 127 0 127
-0.332788 -0.332999 0.146645 204 51 127
0.223775 0.334838 -0.197021 0 0 255
-0.707660 0.334838 0.243535 0 0 255
0.564537 0.047779 -0.365149 153 0 76
-0.386534 -0.098741 0.315055 204 51 127
-0.696743 -0.357734 -0.175081 204 51 127
0.283848 0.280476 -0.365149 153 0 76
0.008089 -0.266025 -0.192653 153 0 76
0.519231 -0.357734 0.165310 204 51 127
0.317997 -0.278255 -0.346598 153 0 76
0.307883 0.091920 -0.346598 153 0 76
0.204207 0.359573 -0.259860 0 0 255
-0.632035 0.213544 0.358008 127 0 127
-0.486687 -0.357734 0.241270 204 51 127
-0.839074 -0.301338 0.026024 153 76 0
-0.454075 0.334838 -0.126690 0 0 255
-0.839074 0.145768 -0.164130 153 76 0
0.474957 0.123637 -0.053218 76 0 153
0.474957 0.155002 0.102524 76 0 153
-0.097954 0.311210 -0.365149 153 0 76
0.008089 -0.086490 0.045039 153 0 76
0.820077 0.223261 -0.346598 153 0 76
-0.417082 0.334838 -0.136650 204 51 127
0.434923 0.224878 0.352119 127 0 127
0.474957 0.293732 0.026062 76 0 153
0.474957 -0.110919 -0.018406 76 0 153
0.894634 0.359573 0.283034 0 0 255
-0.421162 0.334838 0.035274 204 51 127
0.596426 -0.357734 -0.367346 204 51 127
0.892355 -0.282927 0.131059 76 0 153
-0.787215 0.076397 -0.346598 153 0 76
0.437855 0.230474 0.171309 76 0 153
0.008089 -0.163955 -0.039849 153 0 76
-0.591950 0.031748 0.358180 127 0 127
0.575867 -0.189494 -0.365149 153 0 76
-0.384574 0.054333 -0.137733 204 51 127
0.530698 -0.332999 -0.383591 204 51 127
0.474957 -0.069758 -0.297493 76 0 153
0.892355 0.173948 -0.098440 76 0 153
0.867620 0.281822 0.057620 76 0 153
-0.421676 -0.233067 0.166858 204 51 127
-0.753781 0.032627 0.352119 127 0 127
-0.814340 0.319416 0.054083 153 76 0
0.840732 -0.357734 0.182649 204 51 127
0.045191 -0.202290 -0.063122 153 0 76
-0.250413 -0.329635 -0.346598 153 0 76
-0.663435 0.334838 0.009541 0 0 255
0.084542 0.089077 0.389259 127 0 127
-0.421676 -0.030504 0.084209 204 51 127
-0.421676 -0.065589 -0.266592 204 51 127
-0.003129 -0.113221 0.358180 127 0 127
0.892355 0.023287 -0.281656 76 0 153
0.791976 -0.207803 0.352119 127 0 127
-0.384574 -0.029728 -0.023147 204 51 127
0.204552 -0.274204 -0.346598 153 0 76
0.485798 -0.332999 0.268028 204 51 127
-0.352701 0.334838 -0.018341 0 0 255
-0.110304 0.359573 0.063492 0 0 255
-0.484534 0.334838 -0.387347 0 0 255
-0.275366 0.059485 -0.346598 153 0 76
-0.457471 0.010012 0.389259 127 0 127
0.481766 0.359573 0.289786 0 0 255
0.437855 0.319839 0.263478 0 0 255
-0.839074 -0.270284 0.181636 153 76 0
0.449234 0.334838 -0.035248 76 0 153
-0.384574 0.069293 0.036479 204 51 127
-0.738221 -0.357734 0.068895 204 51 127
0.562281 0.218359 -0.365149 153 0 76
0.045191 -0.057199 0.040795 153 0 76
-0.292935 -0.290555 0.352119 127 0 127
-0.386678 0.359573 -0.356566 0 0 255
-0.168182 0.370969 0.315055 153 0 76
0.474957 -0.320999 0.144302 76 0 153
0.438857 -0.018041 0.315055 76 0 153
0.262831 -0.332999 -0.089237 204 51 127
-0.536792 -0.357734 -0.155223 204 51 127
-0.154401 0.267021 0.389221 127 0 127
-0.384574 -0.107234 0.149478 204 51 127
0.081412 -0.332999 -0.116895 204 51 127
0.327253 0.334838 0.025335 0 0 255
0.664636 0.223191 0.388054 127 0 127
0.749507 0.266100 -0.365149 153 0 76
0.867620 0.066365 -0.102414 76 0 153
-0.262943 -0.247073 0.352119 127 0 127
0.058872 0.094204 -0.365149 153 0 76
-0.814340 -0.186973 -0.266090 153 76 0
0.867620 -0.115637 -0.050956 76 0 153
-0.814340 0.152609 -0.286831 153 76 0
0.043728 -0.122263 -0.365149 153 0 76
0.142545 -0.039996 0.389259 127 0 127
0.045191 -0.160538 -0.122091 153 0 76
-0.421676 -0.202890 0.112523 204 51 127
0.474957 -0.267157 0.073949 76 0 153
0.867620 0.198199 0.252164 76 0 153
0.437855 -0.241542 -0.327434 76 0 153
-0.759205 -0.163983 0.389221 127 0 127
0.474850 0.359573 0.106997 0 0 255
-0.184801 0.334838 -0.119232 0 0 255
0.453734 -0.357734 -0.202545 204 51 127
-0.420265 -0.257031 0.315055 204 51 127
0.868967 0.334838 0.112340 0 0 255
0.892355 -0.072927 0.066223 76 0 153
0.045191 -0.023986 0.162212 153 0 76
-0.464507 -0.195651 -0.346598 255 0 0
-0.761957 0.281020 -0.365149 153 0 76
-0.856124 0.190950 0.352157 0 127 127
-0.147608 0.334838 0.254447 0 0 255
0.474957 0.169183 -0.252995 76 0 153
0.294008 0.359573 0.127404 0 0 255
0.670376 -0.053991 0.358180 127 0 127
0.232653 0.359573 0.271900 0 0 255
-0.863809 -0.163754 0.319457 0 127 127
-0.384574 0.116487 -0.308848 204 51 127
0.627525 0.334838 -0.212950 0 0 255
-0.764521 0.334838 -0.292777 0 0 255
-0.202940 -0.199410 -0.346598 153 0 76
0.437855 -0.067631 0.260389 76 0 153
-0.055453 0.359573 -0.059590 0 0 255
0.183215 -0.357734 -0.343276 204 51 127
-0.436937 0.137134 -0.346598 153 0 76
0.437855 0.111676 -0.317482 76 0 153
0.842025 0.359573 0.281367 0 0 255
0.474957 0.289384 0.215807 76 0 153
0.150053 -0.332999 -0.109317 204 51 127
0.045191 -0.324574 0.158167 204 51 127
-0.058344 -0.332999 -0.090889 204 51 127
0.314164 -0.253249 0.352119 127 0 127
0.174213 0.334838 0.241113 0 0 255
-0.421676 -0.045024 -0.328824 204 51 127
0.008089 -0.259833 0.243402 153 0 76
0.182971 -0.016178 -0.365149 153 0 76
0.659795 -0.357734 0.205634 204 51 127
0.474957 0.033385 -0.054799 76 0 153
-0.135164 -0.332999 0.045857 204 51 127
0.771284 0.194013 0.389221 127 0 127
0.008089 0.239285 -0.127054 153 0 76
0.027492 -0.245474 -0.389884 0 255 0
0.654338 0.334838 -0.103798 0 0 255
-0.318919 -0.072487 0.389259 127 0 127
0.809947 0.273085 -0.346598 153 0 76
0.867620 -0.039492 0.235520 76 0 153
-0.384574 -0.240245 -0.006583 204 51 127
-0.716696 -0.357734 0.154824 204 51 127
0.128850 0.042080 0.389259 127 0 127
-0.421676 0.027277 0.266735 204 51 127
0.783230 -0.046266 0.352119 127 0 127
0.056807 0.359573 0.275722 0 0 255
0.867620 0.024809 0.026003 76 0 153
-0.384306 -0.033677 -0.365149 153 0 76
-0.210452 -0.332999 0.314623 76 153 0
-0.814340 0.075432 -0.282396 153 76 0
0.491591 0.233605 -0.346598 153 0 76
0.045191 -0.001878 -0.000709 153 0 76
0.882544 -0.043548 -0.365149 76 0 153
-0.158203 -0.357734 0.009609 204 51 127
0.100227 0.359573 -0.275853 0 0 255
0.082060 -0.357734 0.124521 204 51 127
-0.157666 0.218107 0.352119 127 0 127
0.474957 0.329308 0.079081 0 0 255
0.387829 0.064106 0.358180 127 0 127
0.008089 0.262866 -0.060385 153 0 76
-0.814340 -0.316135 -0.279274 153 76 0
-0.839074 0.312229 -0.190770 153 76 0
-0.814340 -0.176261 -0.319854 153 76 0
0.431383 0.006636 0.389259 127 0 127
0.783044 -0.332999 0.029939 204 51 127
-0.839074 0.005419 -0.355984 153 76 0
-0.088373 0.008522 -0.346598 153 0 76
-0.051868 0.087224 0.358180 127 0 127
-0.839074 0.168189 -0.035824 153 76 0
0.867620 0.072037 -0.236166 76 0 153
0.874432 0.244659 -0.389884 127 127 0
-0.141855 -0.332999 -0.145115 204 51 127
0.045191 0.143353 0.065539 153 0 76
0.746630 -0.332999 0.237042 204 51 127
-0.309892 -0.332999 -0.277495 204 51 127
-0.530631 -0.332999 -0.077630 204 51 127
-0.763903 0.167818 0.352119 127 0 127
0.386452 -0.357734 0.037377 204 51 127
0.054526 0.359573 -0.080093 0 0 255
0.278117 -0.073488 0.358180 127 0 127
0.045191 0.007693 0.105841 153 0 76
0.816458 -0.130816 0.352119 127 0 127
0.474957 -0.205919 -0.337054 76 0 153
0.765121 0.034766 0.384984 127 0 127
0.782636 -0.332999 -0.057348 204 51 127
0.474957 0.045262 0.104103 76 0 153
0.798388 -0.357734 0.139002 204 51 127
-0.816744 0.309202 0.352157 153 0 76
-0.384574 0.146374 0.020562 204 51 127
0.456298 -0.370101 0.325215 76 153 0
0.296320 -0.214492 0.381836 127 0 127
-0.280759 0.036812 0.358180 127 0 127
0.123613 -0.357734 -0.170185 204 51 127
0.045191 -0.268277 0.078868 153 0 76
-0.423934 0.359573 -0.017593 0 0 255
0.045191 0.213387 -0.150172 153 0 76
-0.814340 -0.306049 0.127143 153 76 0
-0.421676 -0.277421 0.130226 204 51 127
0.437855 0.280055 0.058111 76 0 153
-0.396904 0.329135 0.315055 204 51 127
-0.783925 -0.295897 0.344457 127 0 127
-0.065394 0.262358 -0.346598 153 0 76
-0.096881 0.334838 -0.252895 0 0 255
-0.810207 -0.172165 -0.365149 153 76 0
0.322983 0.359573 -0.091994 0 0 255
0.328582 -0.014756 0.358180 127 0 127
0.827285 -0.332999 -0.008831 204 51 127
0.009682 0.334838 0.141889 0 0 255
-0.421676 -0.222682 -0.173353 204 51 127
-0.384574 0.312908 0.259584 204 51 127
0.008089 0.315081 0.072278 153 0 76
-0.421676 -0.074117 -0.097575 204 51 127
-0.675501 0.334838 -0.151454 0 0 255
0.008089 0.307743 -0.157451 153 0 76
-0.483885 -0.126972 0.389259 127 0 127
0.892355 -0.279129 -0.359972 76 0 153
0.484273 -0.099534 0.358180 127 0 127
0.287019 0.164549 0.358180 127 0 127
0.099874 0.233148 -0.346598 153 0 76
0.437855 -0.212321 -0.258834 76 0 153
0.892355 0.140472 -0.248740 76 0 153
0.008089 0.045555 0.287703 153 0 76
-0.839074 -0.083161 -0.207219 153 76 0
-0.839074 -0.240138 -0.161553 153 76 0
-0.625970 -0.036302 0.389259 127 0 127
0.867620 -0.195189 -0.079257 76 0 153
0.005583 -0.043887 -0.365149 0 255 0
-0.209893 0.334838 0.282202 0 0 255
-0.374162 0.083756 0.358180 127 0 127
0.079442 -0.296788 -0.346598 153 0 76
0.259423 0.359573 0.078928 0 0 255
0.437855 0.194783 -0.288076 76 0 153
0.569986 0.359573 0.067016 0 0 255
0.357511 -0.357734 -0.356338 204 51 127
0.045191 -0.101416 -0.106887 153 0 76
0.214409 -0.332999 -0.112442 204 51 127
0.661057 -0.331519 0.315055 204 51 127
-0.511981 -0.332999 0.024267 204 51 127
0.474957 0.047285 0.210259 76 0 153
-0.238528 0.070938 0.389259 127 0 127
0.437855 0.205410 -0.062567 76 0 153
0.753573 -0.252802 -0.365149 153 0 76
-0.793905 -0.332999 -0.312451 204 51 127
0.554299 -0.292303 -0.365149 153 0 76
-0.246663 -0.332999 0.038356 204 51 127
0.531787 -0.164699 -0.346598 153 0 76
0.862764 0.147864 0.381246 127 0 127
0.017448 -0.332999 0.097256 204 51 127
0.474957 0.098786 0.051857 76 0 153
-0.839074 0.088905 -0.022196 153 76 0
0.767736 -0.332999 -0.298715 204 51 127
0.045191 0.300697 -0.061990 153 0 76
0.836198 0.359573 0.207091 0 0 255
0.063875 0.330303 -0.365149 153 0 76
0.523824 0.313033 0.383925 127 0 127
0.045191 -0.283701 0.218910 153 0 76
-0.474301 0.112576 0.358180 127 0 127
-0.269276 0.297736 0.323369 153 0 76
0.438309 0.031120 0.315055 76 0 153
-0.785452 -0.332999 0.241419 204 51 127
-0.755159 0.359573 0.215835 0 0 255
0.873269 0.277512 -0.365149 127 127 0
-0.782388 -0.327770 -0.365149 153 0 76
0.226253 -0.332999 0.206631 204 51 127
-0.863809 -0.012636 0.347907 0 127 127
0.892355 0.120216 0.119843 76 0 153
0.474957 0.240544 -0.057172 76 0 153
-0.839074 -0.216006 -0.050768 153 76 0
-0.814340 -0.154546 -0.032693 153 76 0
0.474957 -0.324126 -0.055326 76 0 153
0.517366 0.247558 0.352119 127 0 127
0.118638 -0.332999 -0.331766 204 51 127
-0.814340 0.206698 -0.262389 153 76 0
-0.715401 0.048402 -0.377804 255 0 0
0.490848 -0.032824 0.358180 127 0 127
-0.839074 -0.137695 -0.177645 153 76 0
0.009263 0.359573 -0.247190 0 0 255
0.044729 0.359573 -0.313332 0 0 255
-0.320569 -0.332999 0.258011 204 51 127
0.537255 0.359573 -0.288730 0 0 255
0.322462 -0.069284 0.358180 127 0 127
-0.612182 0.107803 0.358180 127 0 127
0.162270 -0.145289 0.358180 127 0 127
0.874308 0.359573 -0.388568 0 0 255
-0.660073 -0.188847 -0.346598 153 0 76
0.008089 -0.006673 -0.078460 153 0 76
0.038117 -0.370101 0.315682 76 153 0
-0.634971 -0.280150 -0.365149 153 0 76
-0.647935 0.359573 -0.327497 0 0 255
0.867459 -0.171492 0.352157 127 0 127
0.796403 -0.207663 0.389221 127 0 127
-0.384574 0.173207 0.177120 204 51 127
-0.839074 -0.174667 -0.002163 153 76 0
-0.275329 0.359573 -0.288705 0 0 255
0.851959 -0.332999 0.083204 204 51 127
0.879296 0.359573 -0.164853 0 0 255
0.645820 0.359573 -0.039104 0 0 255
0.454156 -0.357734 0.250433 204 51 127
-0.205812 -0.357734 0.148442 204 51 127
-0.445163 -0.332999 -0.032170 204 51 127
0.128533 -0.332999 -0.043287 204 51 127
0.045191 -0.053786 -0.029005 153 0 76
0.167299 0.095091 0.389259 127 0 127
-0.649926 0.334838 -0.047374 0 0 255
-0.426497 -0.332999 -0.333402 204 51 127
0.416088 0.033989 0.358180 127 0 127
0.714786 -0.357734 0.197057 204 51 127
-0.792309 -0.259346 0.352119 127 0 127
-0.814340 -0.170731 0.290584 153 76 0
-0.000009 0.231005 -0.389884 0 255 0
0.045191 -0.191535 -0.317608 153 0 76
-0.018664 0.297736 0.351555 153 0 76
-0.112296 0.281287 -0.346598 153 0 76
0.008089 0.132636 -0.132540 153 0 76
-0.735576 -0.029860 0.352119 127 0 127
0.743120 -0.357734 -0.270097 204 51 127
-0.471331 0.334838 0.295026 153 0 76
0.414624 0.062183 -0.365149 153 0 76
-0.814340 0.264643 -0.248015 153 76 0
0.867620 -0.105478 0.263972 76 0 153
0.825387 -0.310580 0.384104 127 0 127
-0.652176 -0.332999 0.260174 204 51 127
0.008089 -0.177666 -0.122768 153 0 76
-0.790014 -0.332999 0.027395 204 51 127
0.768682 0.003103 -0.383461 127 127 0
-0.597243 0.359573 -0.133647 0 0 255
-0.435942 -0.157753 0.358180 127 0 127
0.045191 -0.042795 0.237147 153 0 76
0.596829 -0.247866 -0.346598 153 0 76
-0.814340 -0.300026 0.175368 153 76 0
-0.618488 -0.357734 -0.299891 204 51 127
-0.593029 -0.088784 0.358180 127 0 127
-0.421676 -0.014494 -0.214675 204 51 127
-0.605673 0.019836 -0.346598 153 0 76
0.320693 -0.216196 -0.365149 153 0 76
0.669338 -0.357734 -0.115425 204 51 127
0.557189 0.032625 0.389259 127 0 127
0.226202 -0.357734 -0.223391 204 51 127
0.405232 0.365996 0.315055 153 0 76
0.558900 -0.357734 -0.266842 204 51 127
-0.247089 0.334838 0.157087 0 0 255
0.348682 0.158959 -0.365149 153 0 76
-0.470097 -0.068857 0.389259 127 0 127
0.837433 0.334838 -0.271314 0 0 255
0.172050 0.359573 -0.076721 0 0 255
0.474957 -0.314465 0.050601 76 0 153
0.892355 0.179064 -0.275538 76 0 153
-0.076964 -0.361746 0.315055 76 153 0
0.437855 -0.188894 0.018392 76 0 153
0.019961 0.138274 -0.346598 153 0 76
-0.814340 -0.188781 -0.207729 153 76 0
0.817569 0.359573 -0.115077 0 0 255
-0.664528 -0.357734 0.296393 204 51 127
-0.384574 -0.095171 0.191780 204 51 127
0.316119 -0.357734 -0.097192 204 51 127
0.116066 -0.370101 0.343904 76 153 0
-0.518986 -0.357734 0.067170 204 51 127
-0.012533 0.075790 -0.365149 153 0 76
-0.619920 0.322470 0.372388 127 0 127
-0.450178 0.334838 0.209849 0 0 255
0.309506 0.334838 -0.159608 0 0 255
-0.222029 0.371940 0.347003 153 0 76
0.851313 -0.332999 0.139211 204 51 127
0.486745 0.177353 0.358180 127 0 127
0.045191 0.287468 -0.191178 153 0 76
-0.302676 0.334838 0.014841 0 0 255
0.831429 0.334838 -0.052635 0 0 255
-0.384574 0.212049 0.115015 204 51 127
0.474957 -0.097291 0.278243 76 0 153
0.867620 -0.305313 -0.230497 76 0 153
0.284056 0.231657 0.389221 127 0 127
-0.763759 -0.284533 -0.365149 153 0 76
-0.687534 -0.357734 0.264374 204 51 127
0.131624 -0.332999 0.206027 204 51 127
-0.431945 0.334838 -0.319582 0 0 255
0.841882 0.371940 0.315717 153 0 76
-0.814340 0.180661 0.034197 153 76 0
-0.421676 0.072391 0.106678 204 51 127
0.516890 0.334838 -0.035454 0 0 255
0.437855 0.267279 -0.228184 76 0 153
-0.463961 -0.332999 -0.082574 204 51 127
0.006300 -0.202086 -0.365149 0 255 0
0.696529 0.100843 0.386965 127 0 127
-0.524381 0.048477 0.389259 127 0 127
-0.404821 -0.357734 -0.003161 204 51 127
-0.421676 0.278580 -0.257233 204 51 127
0.474957 -0.223143 -0.105100 76 0 153
0.487177 -0.357734 0.102688 204 51 127
0.715442 -0.357734 0.281416 204 51 127
-0.839074 0.311729 -0.243627 0 0 255
0.360435 0.359573 -0.319601 0 0 255
-0.357411 -0.357734 -0.308505 204 51 127
-0.789605 0.184589 0.322637 0 127 127
0.856548 0.185799 0.315055 127 0 127
0.867620 0.289515 -0.129047 76 0 153
-0.036445 0.303234 0.389221 127 0 127
0.634884 0.334838 -0.011257 0 0 255
0.474957 0.136787 -0.126219 76 0 153
0.533756 0.334838 -0.120066 0 0 255
0.840299 0.334838 -0.362821 127 127 0
-0.603300 0.090955 0.389259 127 0 127
-0.310022 -0.120865 0.358180 127 0 127
0.437855 0.227529 0.298242 76 0 153
-0.299131 0.354951 0.352157 153 0 76
0.726593 0.111263 -0.346598 153 0 76
-0.075338 0.334838 -0.195578 0 0 255
-0.379875 -0.357734 -0.186152 204 51 127
-0.839074 -0.050355 0.129653 153 76 0
-0.076468 0.359573 0.113564 0 0 255
0.343763 0.036531 0.389259 127 0 127
-0.256523 -0.306750 0.389221 127 0 127
-0.732973 -0.332999 0.257591 204 51 127
0.465236 0.276809 0.389221 127 0 127
0.607900 -0.332999 -0.135718 204 51 127
0.603864 0.029661 0.358180 127 0 127
-0.652298 0.212714 -0.346598 153 0 76
-0.421676 0.271050 -0.019393 204 51 127
0.110805 -0.286811 0.352119 127 0 127
-0.753687 -0.265696 0.389221 127 0 127
-0.421676 0.293914 0.211573 204 51 127
0.848880 -0.189122 -0.346598 153 0 76
-0.421676 0.091654 0.248435 204 51 127
-0.716159 0.048166 0.352119 127 0 127
-0.839074 -0.048304 0.207852 153 76 0
-0.304899 -0.357734 0.057097 204 51 127
0.045191 0.104435 -0.053006 153 0 76
0.045191 0.069792 0.021273 153 0 76
-0.814340 0.241915 -0.330043 153 76 0
0.892355 0.268250 -0.321344 76 0 153
0.073688 -0.357734 0.086002 204 51 127
-0.576696 0.334838 0.090215 0 0 255
-0.269390 0.334838 -0.332746 0 0 255
0.008089 0.282395 0.301595 153 0 76
0.670488 0.149890 -0.346598 153 0 76
0.474957 -0.314722 0.207649 76 0 153
-0.506088 -0.357734 -0.249047 204 51 127
0.104573 -0.357734 0.173936 204 51 127
-0.055197 0.359573 0.245866 0 0 255
0.129316 -0.332999 -0.003034 204 51 127
-0.054344 -0.357734 -0.006314 204 51 127
-0.098287 0.359573 -0.356279 0 0 255
-0.388382 0.359573 0.068159 0 0 255
0.793203 0.334838 -0.063531 0 0 255
0.243232 -0.332999 0.071858 204 51 127
0.090119 -0.239818 0.389221 127 0 127
-0.071220 0.334838 -0.134966 0 0 255
0.872952 0.075733 -0.365149 76 0 153
-0.315902 0.334838 -0.291037 0 0 255
-0.384574 0.290415 0.030624 204 51 127
-0.634367 0.289776 -0.346598 153 0 76
-0.774565 -0.000474 -0.389884 255 0 0
-0.814340 0.000727 -0.111795 153 76 0
0.008089 0.234274 -0.259392 153 0 76
-0.250607 -0.357734 0.175823 204 51 127
-0.039039 0.159841 -0.346598 0 255 0
0.731225 0.298968 0.352157 153 0 76
0.177049 0.334838 0.035689 0 0 255
0.317604 -0.332999 0.080813 204 51 127
0.766970 -0.151364 0.385766 127 0 127
0.562327 0.104910 -0.365149 153 0 76
0.437855 -0.097695 -0.025552 76 0 153
-0.416072 -0.031652 0.358180 127 0 127
0.310694 0.334838 -0.049470 0 0 255
-0.293686 -0.010346 -0.365149 153 0 76
-0.442125 0.359573 -0.059448 0 0 255
-0.421676 0.097554 0.175321 204 51 127
0.836261 0.359573 0.093178 0 0 255
0.262067 0.299775 0.352119 153 0 76
-0.595872 -0.357734 -0.156337 204 51 127
-0.705441 -0.058260 -0.346598 153 0 76
0.437855 0.151469 0.290751 76 0 153
0.892355 -0.084173 -0.001809 76 0 153
0.086258 -0.332999 -0.278939 204 51 127
0.448894 0.258292 0.352119 127 0 127
0.474957 -0.010093 0.158639 76 0 153
-0.693672 -0.306143 0.315055 76 153 0
0.837126 0.334838 -0.093219 0 0 255
-0.272732 0.359573 0.039365 0 0 255
0.683278 -0.092197 -0.346598 153 0 76
0.008089 0.275199 -0.328441 153 0 76
0.467754 0.359573 -0.016421 0 0 255
0.642563 0.334838 0.196360 0 0 255
-0.478013 -0.357734 -0.352049 204 51 127
0.057231 -0.357734 -0.285894 204 51 127
-0.814340 0.316289 -0.084886 153 76 0
0.657124 -0.266513 0.352119 127 0 127
0.220512 -0.332999 0.023456 204 51 127
0.892355 0.302603 0.202353 76 0 153
0.910238 0.093071 0.352157 127 0 127
0.548827 0.305396 0.315055 153 0 76
0.395750 -0.059305 -0.346598 153 0 76
0.867620 0.066747 0.158558 76 0 153
-0.054355 0.046352 0.358180 127 0 127
-0.786102 -0.332999 -0.207306 204 51 127
0.867620 -0.266506 0.234640 76 0 153
0.474957 0.257324 0.089274 76 0 153
0.368085 0.359573 -0.121441 0 0 255
0.838354 -0.357734 -0.343913 204 51 127
-0.421676 -0.152619 -0.181598 204 51 127
-0.839074 -0.293676 -0.334983 153 76 0
0.478698 -0.332999 -0.145998 204 51 127
-0.398199 -0.332999 0.209456 204 51 127
0.016877 -0.318561 -0.389884 204 51 127
-0.389490 -0.332999 -0.384967 204 51 127
-0.186615 0.359573 0.144898 0 0 255
-0.839074 -0.322006 -0.218381 204 51 127
0.000740 0.113647 0.389259 127 0 127
-0.085633 -0.357734 -0.042906 204 51 127
-0.404565 -0.103810 -0.346598 204 51 127
-0.419268 -0.218268 0.315055 204 51 127
0.244664 0.210865 -0.346598 153 0 76
-0.154833 -0.357734 0.180262 204 51 127
-0.126613 -0.307012 -0.365149 153 0 76
-0.421676 -0.251532 0.079517 204 51 127
0.045191 0.010546 -0.294568 153 0 76
0.892355 0.116697 -0.210533 76 0 153
0.499951 0.359573 0.026777 0 0 255
-0.384574 -0.165840 -0.070600 204 51 127
-0.029512 0.334838 -0.321681 0 0 255
-0.602940 -0.357734 0.185664 204 51 127
-0.599717 0.330458 -0.365149 153 0 76
-0.839074 0.195720 -0.113087 153 76 0
0.496546 -0.332999 0.232224 204 51 127
-0.858931 0.100705 -0.389884 255 0 0
-0.863809 0.060788 0.350007 0 127 127
0.413336 0.359573 -0.050632 0 0 255
-0.384574 0.213327 0.232055 204 51 127
-0.863809 -0.254674 0.348384 0 127 127
-0.384574 -0.040507 -0.085371 204 51 127
0.852408 0.334838 -0.224131 0 0 255
-0.094839 0.359573 0.286501 0 0 255
0.110310 0.143410 -0.365149 153 0 76
0.574856 0.359573 -0.166388 0 0 255
-0.384574 0.242661 0.038715 204 51 127
0.628765 -0.049040 0.389259 127 0 127
0.090045 0.334838 -0.251744 0 0 255
-0.421676 0.038154 0.185805 204 51 127
-0.774526 0.104526 -0.365149 153 0 76
-0.814340 0.220056 0.214761 153 76 0
0.892355 0.117552 -0.335814 76 0 153
-0.250163 -0.295897 0.322591 76 153 0
0.045191 -0.065549 -0.156814 153 0 76
-0.715401 -0.176249 -0.389051 255 0 0
0.801284 0.334838 0.155014 0 0 255
0.867620 -0.060563 -0.303611 76 0 153
0.247734 0.334838 -0.322873 0 0 255
0.867620 -0.223615 -0.034856 76 0 153
0.197943 0.334838 0.085925 0 0 255
-0.839074 -0.027544 -0.315141 153 76 0
-0.752035 -0.348496 0.315055 76 153 0
0.474957 0.188543 -0.000592 76 0 153
0.892355 -0.066881 0.104558 76 0 153
0.833435 0.334838 0.179509 0 0 255
0.198728 -0.332999 -0.282937 204 51 127
0.131330 0.124323 0.358180 127 0 127
-0.820660 0.334838 0.274849 153 76 0
0.590392 0.334838 -0.312777 0 0 255
-0.839074 0.248085 0.271603 153 76 0
0.794316 0.359573 -0.256639 0 0 255
0.797233 0.230452 -0.389884 127 127 0
-0.397555 0.016966 0.358180 127 0 127
0.628527 0.027251 -0.346598 153 0 76
0.892355 0.180158 0.016898 76 0 153
0.111961 0.294254 -0.365149 153 0 76
-0.507089 0.359573 -0.326281 0 0 255
-0.122473 -0.249835 0.352119 127 0 127
-0.839074 -0.309037 0.230508 153 76 0
-0.384574 0.062674 -0.205027 204 51 127
0.008089 -0.251008 -0.153796 153 0 76
-0.639389 0.334838 0.100393 0 0 255
-0.215655 0.287827 -0.346598 153 0 76
0.203871 0.334838 -0.025396 0 0 255
0.867620 0.170510 -0.152081 76 0 153
-0.795575 0.034314 0.389221 127 0 127
0.889595 -0.344998 0.315055 204 51 127
0.278947 -0.357734 0.179360 204 51 127
-0.299024 0.371940 0.316270 153 0 76
0.305800 0.334838 -0.353457 0 0 255
-0.611152 -0.357734 -0.064422 204 51 127
-0.541330 -0.357734 0.127811 204 51 127
0.632606 -0.332999 0.225550 204 51 127
0.045191 0.215083 0.200108 153 0 76
-0.421676 0.283621 -0.098640 204 51 127
-0.737353 -0.357734 -0.106897 204 51 127
-0.173106 0.334838 0.099802 0 0 255
0.605252 0.297736 0.351244 153 0 76
0.535800 -0.270920 0.352119 127 0 127
0.377310 0.260017 -0.365149 153 0 76
0.333313 -0.044170 0.389259 127 0 127
0.045191 0.332869 -0.257156 0 0 255
-0.216178 -0.332999 -0.235108 204 51 127
0.595734 0.334838 -0.261021 0 0 255
0.474957 0.153016 -0.305138 76 0 153
-0.214724 -0.332999 0.209877 204 51 127
0.702908 -0.332999 0.090964 204 51 127
0.917090 0.223856 -0.367583 127 127 0
0.466208 0.074576 -0.365149 153 0 76
0.363057 0.225095 0.352119 127 0 127
0.505134 0.334838 -0.076070 0 0 255
-0.839074 0.330072 -0.054781 0 0 255
0.264740 -0.332999 0.107334 204 51 127
-0.421676 -0.163600 0.235982 204 51 127
-0.367165 0.334838 0.015480 0 0 255
-0.814340 -0.166120 0.198071 153 76 0
0.437855 -0.150342 -0.306904 76 0 153
0.892355 -0.139583 -0.308173 76 0 153
-0.716284 0.334838 -0.351097 153 0 76
-0.145701 -0.357734 -0.279106 204 51 127
0.019566 0.088535 -0.389884 0 255 0
-0.506996 0.334838 -0.144691 0 0 255
-0.063087 0.334838 -0.264731 0 0 255
0.390415 0.334838 0.220665 0 0 255
0.490721 0.334838 -0.189166 0 0 255
-0.814340 0.108560 -0.186217 153 76 0
0.437855 -0.051481 0.184913 76 0 153
0.009893 0.334838 0.221964 0 0 255
-0.384574 -0.142285 0.142283 204 51 127
-0.814340 0.261309 -0.286094 153 76 0
0.437855 -0.049211 -0.127019 76 0 153
-0.839074 0.170860 0.069525 153 76 0
-0.839074 -0.106229 0.222625 153 76 0
-0.093792 0.240289 0.389221 127 0 127
-0.430546 -0.357734 0.260081 204 51 127
0.540643 0.371940 0.337063 153 0 76
0.592698 -0.332999 -0.212780 204 51 127
-0.071878 0.036024 -0.365149 153 0 76
0.181838 0.318162 0.315055 0 0 255
-0.316049 0.334838 0.087755 0 0 255
-0.839074 0.059342 0.102287 153 76 0
-0.453292 0.359573 0.273924 0 0 255
0.892355 0.185315 0.276049 76 0 153
-0.149062 0.274198 0.352119 127 0 127
-0.219920 -0.332999 -0.074185 204 51 127
0.590054 -0.357734 0.022775 204 51 127
0.008089 -0.033712 0.000911 153 0 76
0.474957 -0.137789 0.153566 76 0 153
-0.778417 -0.332999 0.127263 204 51 127
0.011990 -0.222496 0.315055 153 0 76
-0.724341 0.098531 0.352119 127 0 127
0.823717 -0.347898 0.315055 76 153 0
-0.373951 0.334838 -0.330026 0 0 255
0.023198 0.334838 -0.022568 153 0 76
0.474957 -0.137558 0.294165 76 0 153
0.171465 0.224179 0.389221 127 0 127
0.437855 -0.126865 0.062124 76 0 153
-0.421676 0.119012 -0.203917 204 51 127
-0.212731 -0.124713 0.358180 127 0 127
0.264804 -0.357734 -0.257229 204 51 127
-0.384574 -0.297191 0.089614 204 51 127
0.874364 -0.219473 -0.389884 127 127 0
-0.672154 -0.357734 0.195303 204 51 127
-0.801995 0.197154 0.388141 127 0 127
-0.521812 -0.055286 0.358180 127 0 127
0.852764 -0.357734 -0.056016 204 51 127
-0.032199 -0.134985 0.389259 127 0 127
-0.605462 -0.332999 0.310474 204 51 127
0.886456 -0.357734 -0.231341 204 51 127
0.630619 0.359573 -0.363114 0 0 255
0.284104 0.138470 0.389259 127 0 127
-0.344866 -0.129555 -0.346598 153 0 76
0.474957 -0.274348 -0.012344 76 0 153
0.411507 -0.299324 -0.365149 153 0 76
0.437855 0.255261 0.001345 76 0 153
-0.677999 -0.332999 -0.306892 204 51 127
-0.439247 0.334838 -0.275511 0 0 255
0.802172 -0.332999 -0.313307 204 51 127
-0.345880 0.035985 0.389259 127 0 127
-0.554897 0.359573 -0.128880 0 0 255
-0.839074 0.106586 0.152450 153 76 0
0.233373 0.359573 0.230317 0 0 255
-0.668348 0.334838 0.126964 0 0 255
-0.419626 0.225345 0.389221 127 0 127
-0.482350 0.359573 0.236601 0 0 255
-0.153151 -0.117775 0.358180 127 0 127
0.464666 0.037935 -0.365149 153 0 76
-0.814340 -0.264103 0.151357 153 76 0
-0.814340 0.143281 0.259206 153 76 0
-0.456435 -0.120651 0.358180 127 0 127
-0.522208 0.359573 0.042302 0 0 255
0.579534 0.220201 0.385107 127 0 127
-0.023005 0.145424 0.389259 127 0 127
-0.814340 0.190333 -0.159065 153 76 0
0.437855 -0.207757 -0.316150 76 0 153
0.892355 -0.238161 0.313973 127 0 127
0.867620 -0.246184 0.011122 76 0 153
0.867620 -0.237822 -0.083056 76 0 153
-0.421676 0.109630 -0.273183 204 51 127
-0.136291 0.334838 0.094841 0 0 255
0.132731 0.334838 0.018278 0 0 255
-0.676811 0.039611 -0.365149 153 0 76
0.148987 0.050958 0.358180 127 0 127
0.030687 0.334838 0.288546 0 0 255
0.096192 0.037277 -0.365149 153 0 76
-0.180985 0.231544 -0.365149 153 0 76
-0.113169 0.016092 0.389259 127 0 127
-0.136150 0.334838 0.141171 0 0 255
-0.839074 0.206895 -0.071632 153 76 0
0.474957 -0.288837 -0.331285 76 0 153
-0.421676 0.218820 -0.132579 204 51 127
-0.019415 -0.343408 0.352157 76 153 0
-0.216639 -0.101516 -0.365149 153 0 76
0.155059 0.359573 0.111589 0 0 255
-0.079630 -0.357734 -0.184805 204 51 127
0.669024 0.334838 -0.318578 0 0 255
0.738913 0.194317 0.370120 127 0 127
-0.656694 -0.307973 0.388674 127 0 127
-0.426900 -0.332999 0.139701 204 51 127
0.529389 0.359573 0.060292 0 0 255
0.487884 0.128134 -0.365149 153 0 76
-0.597734 -0.294049 0.389221 127 0 127
-0.478250 -0.357734 -0.028452 204 51 127
-0.313038 -0.184416 -0.365149 153 0 76
-0.508839 -0.332999 0.181105 204 51 127
-0.262417 -0.357734 -0.021004 204 51 127
0.903111 0.334838 -0.056476 0 0 255
0.045191 0.055512 0.269318 153 0 76
0.338689 0.359573 0.251592 0 0 255
0.008089 0.101348 0.105688 153 0 76
-0.207122 0.359573 -0.156338 0 0 255
-0.143454 -0.332999 0.150633 204 51 127
-0.074149 0.108332 0.389259 127 0 127
0.474957 0.082185 -0.007748 76 0 153
0.474957 -0.012558 0.194048 76 0 153
0.883347 0.334838 0.309732 153 0 76
-0.627663 -0.108745 0.389259 127 0 127
0.867620 -0.233537 -0.291476 76 0 153
0.867620 0.241545 0.013087 76 0 153
0.753530 0.359573 0.281704 0 0 255
0.768682 0.076080 -0.370619 127 127 0
-0.472244 0.095598 0.389259 127 0 127
0.867620 -0.222840 -0.327067 76 0 153
0.437855 -0.257869 0.053211 76 0 153
-0.796692 0.218149 -0.365149 153 0 76
-0.814340 -0.173371 -0.129815 153 76 0
0.832664 -0.332999 -0.111449 204 51 127
-0.150279 0.334838 -0.016991 0 0 255
-0.324120 -0.357734 -0.188374 204 51 127
-0.706589 0.334838 -0.077475 0 0 255
-0.182774 -0.357734 0.083703 204 51 127
0.505626 -0.357734 -0.270099 204 51 127
0.128424 -0.263393 -0.365149 153 0 76
0.158097 -0.357734 0.146501 204 51 127
-0.082376 0.359573 -0.036569 0 0 255
-0.771174 0.343508 0.352157 153 0 76
-0.049351 0.359573 -0.374615 0 0 255
-0.581207 0.058585 -0.346598 153 0 76
-0.276394 -0.002291 0.389259 127 0 127
-0.475651 0.359573 0.006864 0 0 255
0.867620 -0.276730 -0.059275 76 0 153
0.019788 -0.357734 -0.269084 204 51 127
0.548034 -0.085113 -0.346598 153 0 76
0.892355 0.013528 -0.079383 76 0 153
0.072373 0.182136 -0.346598 153 0 76
0.116861 -0.146470 0.358180 127 0 127
-0.192884 -0.332999 -0.296265 204 51 127
0.500586 -0.050406 -0.346598 153 0 76
0.161344 0.371940 0.328293 153 0 76
0.892355 -0.125768 0.015794 76 0 153
-0.167651 -0.154669 0.358180 127 0 127
0.098090 -0.072453 0.358180 127 0 127
0.725940 0.359573 0.189194 0 0 255
0.408343 -0.331667 0.352157 76 153 0
0.008089 -0.327379 0.259073 204 51 127
0.258618 -0.357734 -0.052795 204 51 127
-0.162785 -0.332999 0.276468 204 51 127
-0.711517 0.334838 0.085563 0 0 255
-0.674439 0.022251 0.372234 127 0 127
0.022848 -0.227343 -0.346598 153 0 76
-0.685014 -0.021462 0.358180 127 0 127
-0.854638 -0.332999 0.020665 204 51 127
0.834623 0.334838 0.067984 0 0 255
0.289458 0.359573 0.229001 0 0 255
0.080361 0.140727 -0.346598 153 0 76
0.356168 -0.176144 -0.346598 153 0 76
0.113680 -0.332999 0.284507 204 51 127
-0.384574 -0.136882 0.275504 204 51 127
-0.629304 -0.332999 -0.084252 204 51 127
0.044263 0.175951 0.315055 153 0 76
0.693396 -0.357734 0.032458 204 51 127
0.474957 -0.123127 -0.242594 76 0 153
0.045191 0.188505 -0.250654 153 0 76
-0.839074 0.059154 -0.042110 153 76 0
0.897084 0.334838 0.010769 0 0 255
-0.013097 0.137109 -0.365149 0 255 0
-0.770789 0.359573 0.091642 0 0 255
0.609797 -0.097367 0.389259 127 0 127
-0.426290 0.331133 0.352157 127 0 127
-0.404506 0.088509 -0.346599 204 51 127
0.687399 -0.239809 0.389221 127 0 127
0.867620 0.240873 0.242004 76 0 153
0.892355 0.056179 0.269320 76 0 153
-0.350356 0.359573 0.174022 0 0 255
0.379712 -0.357734 0.078689 204 51 127
-0.630134 0.334838 -0.147051 0 0 255
-0.545020 -0.159716 -0.365149 153 0 76
-0.617632 0.334838 0.223167 0 0 255
0.882995 -0.129292 -0.365149 127 127 0
0.109364 -0.357734 -0.237453 204 51 127
-0.580751 -0.230012 -0.346598 153 0 76
-0.814340 0.046201 0.171035 153 76 0
-0.331199 0.113292 0.389259 127 0 127
0.514930 -0.332999 0.136144 204 51 127
0.474957 0.097883 -0.239668 76 0 153
0.863976 0.004198 0.379875 127 0 127
0.396645 -0.272204 0.389221 127 0 127
0.580668 -0.357734 0.075321 204 51 127
0.444933 -0.332999 -0.094423 204 51 127
-0.097586 0.342558 0.352157 153 0 76
-0.003704 -0.332999 0.211364 204 51 127
-0.214602 -0.357734 0.274012 204 51 127
-0.814340 -0.240403 0.021496 153 76 0
-0.748346 0.068008 0.389221 127 0 127
-0.132827 0.334838 -0.108819 0 0 255
-0.639216 0.014496 0.358180 127 0 127
-0.608686 0.359573 -0.025818 0 0 255
0.824290 0.359573 -0.292659 0 0 255
-0.438932 0.242336 -0.365149 153 0 76
0.413754 -0.332999 0.308848 76 153 0
0.140631 -0.332999 0.099512 204 51 127
0.892355 0.192159 -0.137508 76 0 153
-0.680556 -0.257290 -0.365149 153 0 76
-0.591479 0.261340 -0.365149 153 0 76
-0.204048 0.079971 0.389259 127 0 127
-0.402248 0.334838 0.190926 204 51 127
-0.209570 -0.329759 -0.365149 204 51 127
0.045191 -0.319985 -0.264336 153 0 76
0.524016 -0.357734 -0.222321 204 51 127
0.028788 0.088772 0.389259 127 0 127
-0.814340 0.140036 -0.007061 153 76 0
-0.200343 -0.059018 -0.365149 153 0 76
0.532365 -0.357734 0.067792 204 51 127
0.452013 0.359573 0.016156 0 0 255
-0.050464 -0.074301 0.389259 127 0 127
0.045191 0.026483 -0.148100 153 0 76
-0.863073 0.334838 -0.296206 0 0 255
-0.463654 -0.357734 -0.213315 204 51 127
-0.845198 -0.357734 -0.286223 204 51 127
-0.505315 0.042344 0.358180 127 0 127
0.867620 -0.074438 -0.260385 76 0 153
0.008089 -0.138338 -0.242183 153 0 76
0.551246 -0.049481 0.389259 127 0 127
-0.814340 -0.328195 -0.153931 153 76 0
0.151097 -0.026015 0.358180 127 0 127
0.059410 0.064123 -0.389884 0 255 0
0.892355 -0.009834 -0.239701 76 0 153
0.057111 0.334838 0.163874 153 0 76
-0.030972 -0.079549 0.358180 127 0 127
0.567137 0.359573 0.189691 0 0 255
0.045191 0.064469 0.146445 153 0 76
-0.384574 0.001073 0.052075 204 51 127
0.375349 -0.223345 0.389221 127 0 127
0.612205 -0.357734 0.186104 204 51 127
0.574979 0.359573 0.137737 0 0 255
-0.775944 -0.193141 0.352119 127 0 127
-0.176687 -0.357734 -0.233687 204 51 127
0.638299 0.057965 0.389259 127 0 127
0.134310 0.291884 0.389221 127 0 127
-0.601397 -0.118844 -0.346598 153 0 76
0.737621 -0.332999 -0.115857 204 51 127
-0.476637 0.150531 0.358180 127 0 127
-0.793048 0.359539 0.315055 0 0 255
0.170405 0.334838 0.145922 0 0 255
0.080416 -0.332999 0.236931 204 51 127
-0.384574 0.073088 0.216238 204 51 127
0.871302 -0.357734 -0.316683 204 51 127
-0.586303 0.359573 0.013263 0 0 255
0.892355 0.075924 -0.298478 76 0 153
-0.421676 0.218272 0.008196 204 51 127
-0.739694 0.359573 0.058557 0 0 255
-0.743925 -0.005498 -0.365149 153 0 76
-0.492162 0.371940 0.349084 153 0 76
0.132371 0.098519 -0.365149 153 0 76
0.047510 0.276882 0.352119 127 0 127
0.223393 -0.091233 -0.365149 153 0 76
0.867620 -0.326211 -0.029629 204 51 127
-0.185083 0.334838 0.209160 0 0 255
0.723862 -0.001259 0.373846 127 0 127
0.214846 -0.066061 0.358180 127 0 127
-0.010167 -0.025283 0.358180 127 0 127
0.812703 -0.102611 -0.365149 153 0 76
-0.839074 -0.083104 -0.157946 153 76 0
-0.445439 0.297736 0.317839 153 0 76
-0.298716 0.302729 0.389221 127 0 127
-0.195630 0.334838 -0.080074 0 0 255
-0.347113 0.061516 0.358180 127 0 127
0.193229 -0.357734 0.227768 204 51 127
0.410243 0.123492 0.358180 127 0 127
0.892355 0.291653 -0.194175 76 0 153
-0.633439 0.150773 0.388151 127 0 127
-0.014845 0.359573 -0.013178 0 0 255
-0.376532 -0.059144 0.389259 127 0 127
-0.559253 0.359573 -0.231890 0 0 255
-0.510548 0.359573 -0.046769 0 0 255
0.431566 -0.332999 -0.320393 204 51 127
0.374673 -0.332999 -0.311316 204 51 127
-0.047564 -0.161270 -0.388153 0 255 0
-0.045772 -0.295897 0.315083 76 153 0
0.008089 0.027823 -0.176471 153 0 76
0.823639 0.014057 0.352119 127 0 127
-0.729986 -0.357734 -0.019718 204 51 127
0.469945 0.355511 0.352157 153 0 76
-0.738940 -0.109600 0.352119 127 0 127
0.437855 -0.001952 0.110075 76 0 153
-0.814340 -0.020881 -0.247899 153 76 0
-0.073890 -0.332999 -0.333709 204 51 127
0.678020 -0.020056 -0.346598 153 0 76
-0.384574 0.016104 -0.080764 204 51 127
0.631590 -0.357734 -0.109883 204 51 127
-0.030112 -0.332999 0.076635 204 51 127
0.515283 0.359573 -0.186880 0 0 255
0.892355 -0.102378 -0.110399 76 0 153
0.045191 0.154968 0.101582 153 0 76
0.113492 0.334838 0.277390 0 0 255
-0.829337 0.359573 0.085880 0 0 255
0.699592 -0.332999 0.249106 204 51 127
-0.384574 -0.297532 0.013642 204 51 127
0.583325 0.334838 -0.040240 0 0 255
0.867620 0.001135 0.242594 76 0 153
0.867620 -0.230511 0.082302 76 0 153
-0.441352 0.021857 -0.365149 153 0 76
0.764139 0.334838 0.006156 0 0 255
-0.552603 0.147874 0.358180 127 0 127
0.437855 -0.225816 0.187354 76 0 153
0.868906 0.334838 -0.325192 0 0 255
-0.498254 0.359573 0.083302 0 0 255
0.784924 0.200216 -0.346598 153 0 76
-0.592728 0.111455 -0.346598 153 0 76
-0.232597 0.334838 -0.385204 0 0 255
-0.839074 -0.261625 0.082576 153 76 0
-0.788343 -0.332999 0.192828 204 51 127
-0.349651 0.359573 -0.295837 0 0 255
-0.839074 0.259137 0.002806 153 76 0
0.878217 0.227811 0.315055 127 0 127
0.892355 0.226369 -0.172453 76 0 153
-0.602181 0.359573 -0.097238 0 0 255
-0.143987 0.334838 0.023426 0 0 255
0.008089 0.177205 0.208385 153 0 76
0.474957 -0.038599 0.283377 76 0 153
0.008089 -0.207088 -0.209249 153 0 76
0.437855 -0.123641 0.239422 76 0 153
0.892355 -0.290186 -0.122186 76 0 153
-0.814340 0.043473 -0.309132 153 76 0
-0.421676 0.135422 0.295796 204 51 127
-0.332851 -0.357734 0.217512 204 51 127
-0.091796 -0.332999 0.277571 204 51 127
-0.859858 0.151501 -0.389884 255 0 0
-0.384574 -0.327997 -0.007470 204 51 127
-0.421676 0.040033 0.221347 204 51 127
-0.839074 -0.050762 0.071798 153 76 0
0.892355 -0.088070 -0.199723 76 0 153
-0.811389 0.277823 0.379107 127 0 127
-0.624690 -0.332999 -0.242509 204 51 127
0.008089 -0.100919 -0.207689 153 0 76
-0.037915 -0.332999 -0.234138 204 51 127
0.445143 -0.332999 0.127982 204 51 127
-0.839074 -0.224425 -0.110314 153 76 0
-0.347991 0.229794 -0.365149 153 0 76
-0.784205 0.334838 -0.148659 0 0 255
-0.215737 -0.186213 0.358180 127 0 127
-0.492709 -0.370101 0.317058 76 153 0
0.867620 0.251943 -0.234622 76 0 153
-0.414775 -0.214442 -0.346598 153 0 76
-0.814340 -0.027479 -0.037340 153 76 0
-0.288943 0.297854 0.352119 153 0 76
0.852681 0.036711 -0.365149 153 0 76
-0.546593 -0.266195 0.389221 127 0 127
-0.490407 0.334838 -0.233552 0 0 255
-0.814340 -0.020986 0.224004 153 76 0
0.306205 -0.332999 -0.324717 204 51 127
0.867620 0.130100 -0.019271 76 0 153
-0.515041 0.334838 0.183033 0 0 255
0.008089 0.105334 0.261923 153 0 76
0.008089 0.118777 0.222225 153 0 76
-0.839074 -0.225403 0.216210 153 76 0
-0.359302 -0.067775 -0.346598 153 0 76
-0.649708 0.334838 -0.269998 0 0 255
-0.741112 0.263920 -0.389884 255 0 0
-0.421676 -0.007631 -0.059994 204 51 127
0.730639 -0.257156 0.352119 127 0 127
-0.297381 -0.332999 0.080355 204 51 127
0.507845 0.334838 -0.322361 0 0 255
-0.839074 0.210964 -0.314705 153 76 0
-0.029276 -0.001264 0.389259 127 0 127
-0.731555 0.203185 0.389221 127 0 127
-0.839074 0.243061 0.194120 153 76 0
0.355106 0.334838 -0.237199 0 0 255
0.892355 -0.198686 -0.129328 76 0 153
0.892355 0.286942 0.266385 76 0 153
-0.795798 -0.357734 0.163393 204 51 127
-0.672331 0.108831 0.373112 127 0 127
-0.779135 -0.198184 -0.389884 153 0 76
0.768161 -0.092994 0.352119 127 0 127
-0.580260 -0.331060 -0.346598 204 51 127
0.474957 -0.180618 -0.205603 76 0 153
0.128504 -0.116340 0.389259 127 0 127
-0.253720 0.124981 -0.346598 153 0 76
-0.604902 0.359573 0.281339 0 0 255
0.683711 -0.332999 -0.327264 204 51 127
-0.421676 0.214684 -0.224948 204 51 127
0.381154 0.297736 0.349233 153 0 76
-0.843593 -0.370101 0.320697 76 153 0
-0.504790 -0.332999 0.261119 204 51 127
0.186770 0.026252 0.389259 127 0 127
-0.421676 0.030430 -0.162353 204 51 127
-0.540816 -0.332999 -0.180267 204 51 127
0.510385 -0.332999 -0.046735 204 51 127
-0.547859 0.214426 -0.346598 153 0 76
0.437855 0.265970 -0.307886 76 0 153
-0.012450 -0.172784 -0.365149 153 0 76
-0.029812 -0.332999 0.249506 204 51 127
0.854222 -0.035760 -0.389884 127 127 0
-0.283549 0.359573 -0.097076 0 0 255
-0.701318 0.101181 -0.365149 153 0 76
0.008089 -0.133168 -0.108476 153 0 76
0.288275 -0.295897 0.318069 76 153 0
0.008089 -0.184857 0.163826 153 0 76
0.804099 0.021561 -0.365149 153 0 76
-0.531392 0.359573 0.008884 0 0 255
0.663017 0.359573 -0.258163 0 0 255
0.397316 -0.357734 -0.237236 204 51 127
-0.217539 -0.357734 -0.011406 204 51 127
-0.334901 0.359573 0.065616 0 0 255
0.461680 0.297736 0.323691 76 0 153
-0.771064 -0.357734 -0.094878 204 51 127
-0.331735 -0.332999 -0.093298 204 51 127
0.854463 -0.308692 0.352157 127 0 127
-0.421676 -0.330122 -0.154770 204 51 127
0.369850 0.359573 0.068075 0 0 255
0.892355 -0.132328 0.216726 76 0 153
0.682697 -0.134951 -0.346598 153 0 76
0.892355 0.226810 -0.099388 76 0 153
-0.370403 -0.294395 -0.365149 153 0 76
-0.806498 -0.145345 0.315055 0 127 127
0.646332 -0.332999 -0.206187 204 51 127
0.877457 0.174305 -0.365149 153 0 76
0.528472 0.359573 0.245078 0 0 255
0.752395 0.325731 -0.346598 153 0 76
-0.687391 0.334838 0.192172 0 0 255
-0.118592 0.334838 0.228022 0 0 255
-0.213240 0.359573 -0.019719 0 0 255
-0.278907 -0.357734 0.205841 204 51 127
-0.787863 0.160760 -0.389884 255 0 0
0.892355 -0.324690 0.051075 76 0 153
0.685044 0.038934 0.358180 127 0 127
-0.324722 -0.332999 -0.053073 204 51 127
0.729045 -0.332999 -0.161248 204 51 127
-0.367642 -0.211703 0.354349 127 0 127
0.738660 0.359573 -0.041447 0 0 255
-0.475140 -0.357734 0.015280 204 51 127
-0.148076 -0.332999 -0.222831 204 51 127
-0.814340 0.103837 0.094496 153 76 0
0.346960 -0.332999 -0.010790 204 51 127
-0.309957 -0.065239 -0.346598 153 0 76
-0.515168 0.271686 0.389221 127 0 127
0.108232 0.258451 0.389221 127 0 127
0.692178 0.359573 -0.144391 0 0 255
-0.543080 0.271700 0.352119 127 0 127
0.889598 0.323547 -0.389884 127 127 0
0.069249 0.359573 0.023685 0 0 255
-0.416638 -0.357734 -0.283960 204 51 127
-0.758423 0.321930 0.315055 0 0 255
-0.058837 0.064537 0.389259 127 0 127
0.797239 0.051674 0.389221 127 0 127
0.000543 -0.332999 -0.363113 153 0 76
0.437855 -0.093497 -0.283986 76 0 153
-0.522561 -0.357734 -0.100315 204 51 127
-0.651460 0.334838 0.062359 0 0 255
-0.242329 0.334838 -0.050445 0 0 255
0.474957 -0.229754 0.027710 76 0 153
-0.372913 0.334838 -0.090557 0 0 255
-0.126621 0.359573 -0.307546 0 0 255
-0.863720 -0.242878 -0.389884 255 0 0
0.569463 -0.134550 0.358180 127 0 127
0.681264 -0.332999 -0.267618 204 51 127
0.474957 0.116877 0.260440 76 0 153
0.867620 0.063227 -0.176032 76 0 153
0.437855 0.207788 0.257308 76 0 153
-0.384574 -0.041764 -0.267433 204 51 127
-0.814340 -0.267949 -0.310016 153 76 0
0.867620 0.171783 0.154740 76 0 153
0.609389 0.170332 -0.365149 153 0 76
0.797847 -0.357734 0.058818 204 51 127
-0.022102 -0.357734 -0.353016 204 51 127
-0.242350 -0.357734 -0.096960 204 51 127
-0.522799 -0.357734 0.281043 204 51 127
-0.756633 0.334838 -0.246706 0 0 255
-0.306541 -0.321879 -0.346598 153 0 76
-0.839074 0.202530 -0.180524 153 76 0
-0.241626 0.173855 -0.365149 153 0 76
-0.334965 -0.015193 0.358180 127 0 127
0.130020 0.359573 -0.035977 0 0 255
0.606454 0.102700 -0.365149 153 0 76
0.867620 -0.047465 -0.029922 76 0 153
0.731359 0.359573 0.058993 0 0 255
0.386001 0.334838 -0.266091 0 0 255
-0.384574 -0.156615 0.213098 204 51 127
0.549095 0.130996 0.358180 127 0 127
-0.421676 0.037238 -0.005802 204 51 127
0.917090 0.144322 0.348104 127 0 127
-0.288608 -0.332999 -0.244179 204 51 127
-0.384574 0.189879 -0.108189 204 51 127
0.551127 -0.105261 0.358180 127 0 127
-0.848642 0.334334 -0.365149 0 0 255
-0.319733 0.334838 -0.118194 0 0 255
-0.841788 -0.185335 -0.389884 255 0 0
-0.367624 0.284818 -0.365149 153 0 76
0.474957 0.297298 -0.101330 76 0 153
0.278063 0.334838 -0.177129 0 0 255
-0.695342 0.190089 -0.346598 153 0 76
-0.409012 0.334838 0.139041 0 0 255
0.314229 0.297736 0.325270 153 0 76
0.892355 0.326484 0.081827 76 0 153
-0.421676 -0.277472 0.179957 204 51 127
-0.839074 -0.272704 0.115260 153 76 0
0.819460 -0.298416 0.315055 76 153 0
0.917090 -0.089068 0.351810 127 0 127
0.892355 0.014657 -0.032455 76 0 153
0.201221 -0.357734 -0.065116 204 51 127
0.774599 0.334838 -0.191326 0 0 255
-0.860306 0.334838 0.308641 0 0 255
0.045191 -0.163371 0.165951 153 0 76
0.437855 -0.165997 -0.235671 76 0 153
-0.384574 0.273118 -0.255706 204 51 127
-0.148840 0.334838 -0.209871 0 0 255
-0.536898 -0.332999 -0.025982 204 51 127
0.892355 -0.119466 0.062925 76 0 153
0.769145 0.334838 -0.250376 0 0 255
-0.839074 0.037492 0.253854 153 76 0
0.282068 -0.013894 -0.365149 153 0 76
-0.673911 0.322532 -0.346598 153 0 76
-0.814340 0.273045 -0.080096 153 76 0
0.549085 -0.332999 0.208758 204 51 127
0.578953 -0.061200 -0.365149 153 0 76
0.788975 0.334838 0.201554 0 0 255
-0.430412 -0.332999 0.186684 204 51 127
-0.738509 0.334838 -0.000148 0 0 255
0.284875 0.176161 -0.346598 153 0 76
-0.352033 -0.273311 0.389221 127 0 127
-0.037853 0.371940 0.346226 153 0 76
0.590827 0.213541 0.352875 127 0 127
0.892355 0.270324 0.119793 76 0 153
0.799774 -0.223940 -0.365149 127 127 0
0.432537 0.108060 0.389259 127 0 127
0.867620 -0.000245 0.125265 76 0 153
-0.715401 0.239609 -0.373724 255 0 0
-0.591363 -0.332999 0.031344 204 51 127
-0.583517 -0.357734 0.230564 204 51 127
-0.759286 0.310218 0.385917 127 0 127
0.882809 0.294294 0.352157 153 0 76
-0.572698 -0.122999 0.358180 127 0 127
-0.248483 -0.357734 -0.147897 204 51 127
-0.716431 0.334838 0.123827 0 0 255
0.008089 -0.046157 0.203616 153 0 76
-0.384574 0.145512 -0.195638 204 51 127
-0.384574 -0.256318 0.214504 204 51 127
-0.384574 0.233968 0.141326 204 51 127
-0.814340 -0.141247 0.104559 153 76 0
0.362672 0.334838 -0.060483 0 0 255
-0.863138 0.359573 -0.186089 0 0 255
0.587774 -0.262210 0.389221 127 0 127
0.867620 0.211875 0.033383 76 0 153
0.437855 0.211967 -0.101806 76 0 153
-0.384574 -0.171868 -0.171794 204 51 127
0.126567 0.195427 -0.365149 153 0 76
0.296929 -0.357734 -0.302953 204 51 127
0.045191 0.023019 0.169120 153 0 76
-0.253379 0.057333 0.358180 127 0 127
0.444628 -0.289794 -0.365149 153 0 76
0.008089 -0.031072 -0.280322 153 0 76
0.501859 0.005971 -0.346598 153 0 76
0.326796 0.136891 0.358180 127 0 127
-0.629646 -0.332999 0.018127 204 51 127
0.243775 -0.357734 -0.014282 204 51 127
0.437855 -0.238789 0.249378 76 0 153
-0.384574 -0.067621 0.164010 204 51 127
-0.339368 -0.155533 0.358180 127 0 127
-0.814340 0.151113 0.056614 153 76 0
0.871409 0.358750 0.352157 153 0 76
-0.742506 -0.052280 -0.365149 255 0 0
0.210498 -0.357734 -0.318732 204 51 127
-0.839074 -0.159328 -0.261625 153 76 0
-0.511820 0.180103 -0.365149 153 0 76
-0.737110 -0.357734 -0.224397 204 51 127
0.740963 -0.127912 -0.365149 153 0 76
0.437855 0.053467 -0.093095 76 0 153
0.347126 0.297736 0.343789 127 0 127
-0.035286 0.359573 0.080328 0 0 255
0.902223 -0.322960 -0.365149 204 51 127
-0.010332 0.193289 0.358180 127 0 127
-0.814328 0.098178 0.356788 127 0 127
0.721653 0.359573 -0.120107 0 0 255
0.892355 0.002862 -0.315906 76 0 153
0.058580 -0.030153 0.389259 127 0 127
0.128944 -0.046742 -0.365149 153 0 76
-0.439086 -0.358284 0.352157 76 153 0
0.191730 -0.072835 0.389259 127 0 127
0.129634 0.334838 0.227194 0 0 255
0.474957 -0.073377 -0.029616 76 0 153
0.905470 0.334838 -0.164736 76 0 153
0.523687 -0.146473 0.389259 127 0 127
-0.607108 0.359573 0.164013 0 0 255
0.437855 -0.099172 -0.241264 76 0 153
0.437855 0.124240 0.099862 76 0 153
0.842886 0.140943 0.315753 127 0 127
0.437855 0.056475 0.073269 76 0 153
0.146879 -0.357734 -0.215439 204 51 127
0.045191 -0.256532 -0.259606 153 0 76
-0.863809 0.337803 0.161823 0 0 255
0.011595 0.334838 0.041660 0 0 255
0.892355 -0.330430 -0.323515 76 0 153
-0.529924 -0.332999 0.224095 204 51 127
-0.729917 0.359573 -0.039307 0 0 255
0.045191 0.296662 0.183517 153 0 76
0.148168 -0.357734 -0.082263 204 51 127
0.334062 0.258372 0.389221 127 0 127
0.045191 0.102423 0.005421 153 0 76
0.867620 0.229492 -0.030546 76 0 153
-0.814340 0.331017 -0.319841 153 76 0
-0.321528 0.132650 0.358180 127 0 127
-0.458023 -0.075485 -0.346598 153 0 76
0.727940 -0.109704 0.372147 127 0 127
0.794924 0.230914 0.352119 127 0 127
0.054936 -0.357734 0.027448 204 51 127
0.235261 -0.155099 -0.346598 153 0 76
0.867620 -0.149151 -0.248831 76 0 153
-0.043222 -0.357734 -0.109622 204 51 127
-0.274810 0.323044 -0.365149 0 0 255
-0.814340 0.124340 -0.151712 153 76 0
0.205476 0.223665 0.389221 127 0 127
-0.265759 0.334838 -0.151525 0 0 255
-0.829569 -0.033970 0.315055 0 127 127
0.045191 -0.108193 -0.330167 153 0 76
0.857407 -0.294680 -0.389884 127 127 0
0.845970 0.334838 0.028315 0 0 255
-0.659889 -0.068406 0.376711 127 0 127
-0.456586 -0.357734 0.191151 204 51 127
