ply
format ascii 1.0
element vertex 1280
property float x
property float y
property float z
property uchar red
property uchar green
property uchar blue
end_header
0.300651 -0.063316 -0.301099 76 0 153
0.402367 -0.358957 0.420948 0 0 255
-0.320975 -0.044447 -0.488886 76 0 153
-0.765392 -0.171929 -0.471744 76 0 153
0.057775 0.439236 0.089437 76 0 153
0.799210 -0.283909 0.038314 76 0 153
0.064728 -0.137900 0.505554 255 0 0
-0.201910 -0.339149 0.146705 76 0 153
-0.347013 0.329868 -0.156214 76 0 153
-0.656157 0.025445 -0.091472 76 0 153
-0.765394 0.046130 0.372542 76 0 153
0.138835 -0.465439 0.163732 76 0 153
-0.391030 -0.467826 0.254787 76 0 153
-0.144274 0.439236 -0.240265 76 0 153
0.636919 -0.169953 -0.520417 76 0 153
0.154647 -0.340148 -0.264473 76 0 153
-0.268111 -0.465439 0.175228 76 0 153
-0.668357 0.438985 0.395284 76 0 153
0.204123 -0.365579 0.515707 0 0 255
-0.656026 -0.136161 0.020375 76 0 153
0.470075 -0.304054 -0.520417 76 0 153
-0.682638 -0.148717 0.515707 0 0 255
-0.504311 -0.159019 -0.488886 76 0 153
0.341971 0.438233 -0.116501 76 0 153
0.624939 0.438233 -0.127974 76 0 153
0.761386 0.435603 0.101364 76 0 153
0.476070 -0.478937 -0.082894 76 0 153
0.523361 0.227052 0.515707 76 0 153
-0.467847 0.077870 -0.571182 76 0 153
-0.720952 -0.450227 0.219489 76 0 153
0.018872 0.438717 -0.497860 76 0 153
-0.231870 -0.229962 0.505554 255 0 0
-0.654714 0.189106 -0.415903 76 0 153
0.778456 -0.441082 -0.212558 76 0 153
-0.765394 0.170825 -0.280782 76 0 153
0.386549 0.438533 -0.249267 76 0 153
-0.476736 -0.396226 0.515707 0 0 255
-0.656026 0.124729 0.158279 76 0 153
-0.524274 0.439236 -0.261851 76 0 153
-0.765313 0.332673 0.387662 76 0 153
0.275483 0.312864 0.042037 76 0 153
-0.356454 0.329889 -0.401216 76 0 153
-0.529951 0.329868 -0.174448 76 0 153
-0.448820 0.323743 0.515707 0 0 255
-0.518563 -0.340089 0.166974 76 0 153
0.290911 -0.277161 0.420948 0 0 255
0.654242 -0.444596 0.469389 76 0 153
0.425955 0.302907 -0.520417 76 0 153
-0.449098 -0.151878 0.505554 255 0 0
0.799134 0.030532 0.150376 76 0 153
-0.219424 0.439049 0.398434 76 0 153
0.785173 0.424642 -0.380867 76 0 153
0.785446 -0.073316 -0.516878 76 0 153
-0.186483 -0.465436 -0.418967 76 0 153
-0.532480 0.438569 -0.030564 76 0 153
0.063059 -0.455243 -0.491602 76 0 153
-0.765385 0.346979 -0.050422 76 0 153
-0.641618 -0.311431 -0.081664 76 0 153
0.190772 -0.465439 0.311515 76 0 153
0.747294 0.286801 -0.520270 76 0 153
0.538818 -0.207184 0.515707 76 0 153
0.104409 0.144526 0.505554 255 0 0
-0.245948 0.308942 0.515707 0 0 255
0.055253 -0.465439 -0.071603 76 0 153
0.719560 0.439085 0.374875 76 0 153
0.300651 0.159414 0.310889 76 0 153
-0.765394 -0.064270 0.295372 76 0 153
-0.342570 -0.162662 -0.571182 76 0 153
-0.224266 0.329868 -0.064958 76 0 153
-0.401403 -0.337964 -0.443553 76 0 153
-0.107802 0.329868 0.061236 76 0 153
-0.585910 -0.472087 -0.206950 76 0 153
-0.215046 -0.465439 -0.136910 76 0 153
0.219100 0.019173 0.505554 255 0 0
0.300651 0.138077 0.104691 76 0 153
-0.171359 0.103045 -0.489389 76 0 153
-0.656026 -0.074376 -0.261067 76 0 153
-0.753831 -0.431728 0.501084 0 0 255
0.077489 0.439236 0.233088 76 0 153
0.318255 0.266967 0.515707 0 0 255
-0.137391 -0.416348 0.515707 0 0 255
0.799210 0.271338 0.280321 76 0 153
0.296957 -0.300888 0.087583 76 0 153
-0.656026 0.152756 -0.005429 76 0 153
0.077301 0.439068 -0.059815 76 0 153
0.656627 0.439236 0.219324 76 0 153
-0.046351 -0.003026 0.505554 255 0 0
0.349229 0.136590 -0.521821 76 0 153
-0.115128 0.329868 0.231650 76 0 153
-0.765394 -0.362315 -0.229611 76 0 153
0.300651 -0.073126 0.287401 76 0 153
0.787232 -0.118540 0.515707 76 0 153
-0.475264 -0.287671 0.420948 0 0 255
-0.442587 0.438234 0.096078 76 0 153
-0.447164 0.329868 -0.282984 76 0 153
0.044593 -0.339149 0.323694 76 0 153
-0.656222 0.101288 -0.196437 76 0 153
-0.765394 -0.277176 0.190534 76 0 153
-0.205362 0.438489 0.005068 76 0 153
0.107758 -0.339149 0.072063 76 0 153
0.617714 0.003343 0.515707 76 0 153
0.233700 -0.340132 -0.161154 76 0 153
0.171848 -0.343047 -0.536612 76 0 153
0.390211 -0.023460 0.515707 0 0 255
-0.765394 0.247967 -0.159631 76 0 153
-0.630652 -0.324794 -0.314402 76 0 153
-0.367876 -0.466081 -0.354271 76 0 153
-0.166968 0.439236 0.272159 76 0 153
0.286407 0.429436 -0.516592 76 0 153
-0.592970 0.217043 0.420948 0 0 255
-0.167959 -0.465439 0.016655 76 0 153
0.183988 0.298527 -0.538009 76 0 153
0.300651 -0.151615 -0.038443 76 0 153
-0.288342 0.439236 -0.400071 76 0 153
0.280736 -0.327930 0.287191 76 0 153
0.719548 0.265110 0.515707 76 0 153
-0.380816 0.297298 -0.539277 76 0 153
-0.527665 -0.365688 -0.528798 76 0 153
-0.102621 -0.339600 -0.103794 76 0 153
-0.452545 -0.339149 -0.250486 76 0 153
0.553113 0.436722 -0.504843 76 0 153
-0.613665 0.438567 0.272745 76 0 153
0.690547 -0.462082 -0.448218 76 0 153
-0.471445 0.329868 0.155937 76 0 153
0.318655 -0.021069 -0.526946 76 0 153
0.796515 0.086878 0.394941 76 0 153
0.296169 -0.129618 0.505554 255 0 0
0.133348 0.439168 -0.180038 76 0 153
-0.463359 0.331085 0.392097 76 0 153
-0.367751 -0.466071 -0.206865 76 0 153
-0.536853 -0.038175 -0.488886 76 0 153
-0.765160 0.310103 -0.488765 76 0 153
-0.570496 -0.475671 -0.065859 76 0 153
0.300651 0.167292 -0.151496 76 0 153
-0.656034 0.219759 0.312249 76 0 153
0.377560 -0.208081 -0.520409 76 0 153
-0.713378 0.112020 0.515707 0 0 255
-0.765394 0.081597 -0.002492 76 0 153
-0.068336 -0.339149 0.092795 76 0 153
-0.656533 -0.015055 -0.406545 76 0 153
0.267052 -0.465439 0.190588 76 0 153
-0.280721 0.439236 -0.260188 76 0 153
-0.598239 0.438233 0.131727 76 0 153
0.135431 -0.128857 -0.488886 76 0 153
0.191639 0.329871 -0.228963 76 0 153
0.254704 -0.453176 0.414622 76 0 153
0.693001 -0.183751 0.441042 76 0 153
-0.069207 -0.007510 -0.488886 76 0 153
-0.060797 0.329868 -0.253652 76 0 153
-0.103717 -0.339149 -0.263981 76 0 153
0.093035 0.439236 -0.338183 76 0 153
0.799210 -0.295376 -0.189436 76 0 153
-0.765394 0.128059 -0.396177 76 0 153
-0.765394 0.201805 -0.031955 76 0 153
0.066630 0.329868 -0.249284 76 0 153
-0.761475 0.295180 0.513387 0 0 255
-0.048983 0.196955 -0.488886 76 0 153
-0.101298 -0.157676 -0.489708 76 0 153
-0.349296 0.329868 0.167399 76 0 153
0.010368 -0.465439 -0.195052 76 0 153
0.798211 -0.137526 0.249635 76 0 153
0.799070 0.012893 0.015728 76 0 153
0.082351 -0.026812 -0.571182 76 0 153
0.471034 0.439236 0.319791 76 0 153
-0.484209 -0.339149 -0.119950 76 0 153
0.511993 0.439192 -0.000617 76 0 153
0.545746 0.064952 -0.520417 76 0 153
0.300747 -0.157553 0.389383 76 0 153
-0.590600 0.330008 0.040190 76 0 153
-0.161836 0.325119 -0.434549 76 0 153
0.196455 0.329874 0.221415 76 0 153
0.316038 0.087640 0.515707 0 0 255
-0.111640 -0.254520 0.505554 255 0 0
-0.056114 0.439236 -0.137418 76 0 153
-0.569507 -0.476912 -0.396134 76 0 153
-0.656570 -0.017439 0.173042 76 0 153
-0.005455 0.331556 0.396795 76 0 153
0.477283 -0.308483 0.515707 76 0 153
-0.764435 -0.386704 -0.031419 76 0 153
-0.409151 0.435315 0.492975 0 0 255
0.054204 -0.214881 -0.571182 76 0 153
0.220303 0.042790 -0.488901 76 0 153
-0.659550 -0.223501 0.427535 76 0 153
-0.011255 -0.465439 0.197876 76 0 153
0.223356 -0.465439 -0.106081 76 0 153
-0.492523 0.439236 -0.375099 76 0 153
-0.347913 0.193057 0.505554 255 0 0
0.795439 0.047166 -0.505888 76 0 153
-0.565300 -0.222176 -0.566775 76 0 153
0.007297 0.435315 0.471566 0 0 255
0.798728 0.177010 -0.331270 76 0 153
0.607693 0.250586 0.437869 76 0 153
-0.565187 -0.135599 0.421446 0 0 255
-0.765394 0.038778 -0.305042 76 0 153
-0.509795 -0.482310 0.034032 76 0 153
0.420924 -0.464054 0.373586 76 0 153
0.230888 0.438998 0.403463 76 0 153
0.244913 -0.465439 -0.220879 76 0 153
-0.765394 -0.167737 -0.117298 76 0 153
0.487779 -0.430163 -0.520063 76 0 153
-0.297546 0.204284 -0.571182 76 0 153
0.799210 -0.114634 -0.368054 76 0 153
-0.765394 -0.233208 0.060054 76 0 153
-0.475866 0.439236 0.333977 76 0 153
0.542642 -0.058188 -0.520417 76 0 153
-0.264695 -0.339417 -0.439539 76 0 153
0.117267 -0.453140 0.414707 76 0 153
-0.037227 0.439236 0.223531 76 0 153
0.596911 -0.115338 0.441304 76 0 153
0.527307 0.353111 0.437869 76 0 153
-0.656026 -0.225626 -0.187898 76 0 153
-0.182129 -0.402926 -0.521001 76 0 153
0.300651 -0.229851 -0.123590 76 0 153
-0.390268 0.046583 -0.488902 76 0 153
0.300651 -0.028326 0.128618 76 0 153
0.109442 -0.300778 0.515707 0 0 255
0.633583 0.435315 0.455613 76 0 153
0.300651 0.046379 0.326644 76 0 153
-0.025021 -0.254008 -0.489905 76 0 153
-0.703529 0.438433 -0.078025 76 0 153
-0.391794 0.329868 -0.051705 76 0 153
0.269835 -0.150852 -0.547922 76 0 153
0.487273 0.073532 0.515707 76 0 153
0.333749 -0.328982 0.515707 0 0 255
-0.636573 0.429290 0.515707 0 0 255
0.694646 -0.342360 0.515707 76 0 153
0.580605 0.438233 -0.237111 76 0 153
0.051920 0.134790 -0.571182 76 0 153
0.396839 -0.465707 -0.266730 76 0 153
-0.476996 0.082412 0.505554 255 0 0
-0.191496 -0.268645 -0.489213 76 0 153
0.799210 -0.091443 -0.071704 76 0 153
0.085399 0.324046 -0.441012 76 0 153
0.799210 -0.324851 -0.402986 76 0 153
-0.224523 -0.339149 0.256752 76 0 153
-0.680038 -0.452083 0.411270 76 0 153
-0.765394 0.273411 0.217820 76 0 153
0.795291 0.183251 0.504843 76 0 153
-0.656035 0.221351 0.087177 76 0 153
0.168235 -0.095234 0.505554 255 0 0
0.799210 0.134017 -0.096033 76 0 153
-0.648008 0.189340 -0.529134 76 0 153
0.177190 0.439236 0.160340 76 0 153
0.707572 0.346990 0.441626 76 0 153
0.727318 -0.276959 -0.520417 76 0 153
-0.641979 -0.322631 0.515707 0 0 255
-0.267020 0.438808 0.097415 76 0 153
0.020359 -0.386814 0.420948 0 0 255
-0.248658 -0.339149 -0.077511 76 0 153
-0.235219 0.329868 0.201001 76 0 153
0.697678 0.052018 0.437869 76 0 153
0.064698 0.439236 0.342204 76 0 153
-0.402158 -0.204219 -0.488886 76 0 153
-0.764632 -0.078711 0.412419 76 0 153
0.459182 -0.126023 0.515707 76 0 153
0.165535 0.329868 -0.020991 76 0 153
0.328184 0.439236 0.238238 76 0 153
0.127797 -0.339149 0.252630 76 0 153
-0.195195 -0.106911 0.505554 255 0 0
0.250273 -0.340084 -0.353151 76 0 153
-0.633366 -0.039662 0.515707 0 0 255
-0.704119 0.437915 0.157671 76 0 153
-0.137233 -0.465439 -0.213257 76 0 153
-0.497105 -0.487258 0.270694 76 0 153
-0.207449 -0.004635 -0.489153 76 0 153
-0.037225 -0.071420 -0.571182 76 0 153
0.366148 0.435315 0.463240 0 0 255
0.265299 0.319616 -0.310346 76 0 153
-0.006371 0.439236 -0.390549 76 0 153
0.300651 0.021414 -0.106847 76 0 153
0.300651 -0.169220 -0.324560 76 0 153
0.788912 0.417781 -0.253821 76 0 153
-0.656907 -0.191993 0.321527 76 0 153
-0.682631 0.439110 -0.224953 76 0 153
0.799100 0.314294 -0.429391 76 0 153
-0.656225 -0.187654 0.154619 76 0 153
-0.101051 0.329868 0.346335 76 0 153
-0.733071 -0.445550 -0.417311 76 0 153
0.116938 -0.261869 -0.489333 76 0 153
-0.765394 -0.298708 0.318213 76 0 153
0.209073 -0.339166 0.036147 76 0 153
-0.029640 -0.380047 0.515707 0 0 255
-0.611189 0.153604 0.515707 0 0 255
0.415015 0.020370 0.420948 0 0 255
0.364042 0.176804 0.590273 0 255 0
-0.656026 -0.206687 -0.063904 76 0 153
-0.366308 0.329868 0.058277 76 0 153
-0.290119 0.362182 0.420948 0 0 255
-0.226649 0.329868 -0.187425 76 0 153
0.390511 -0.099649 -0.520415 76 0 153
-0.765394 -0.204834 -0.336934 76 0 153
0.385161 -0.107209 0.441252 76 0 153
0.434210 -0.469347 0.118541 76 0 153
0.315019 -0.465439 -0.045324 76 0 153
0.799210 0.187033 0.345037 76 0 153
0.404488 0.439187 -0.362661 76 0 153
-0.191502 -0.448917 0.425371 76 0 153
-0.637934 -0.314348 -0.429008 76 0 153
-0.765394 -0.191908 0.264494 76 0 153
0.013599 0.329868 -0.132263 76 0 153
0.798504 -0.252132 0.285417 76 0 153
0.298020 0.282678 0.285975 76 0 153
-0.665347 0.321402 0.420948 0 0 255
-0.523216 -0.394010 0.420948 0 0 255
-0.509980 0.128647 -0.488886 76 0 153
-0.371541 -0.402418 0.515707 0 0 255
0.347867 0.223941 0.420948 0 0 255
-0.341325 0.329868 -0.278017 76 0 153
0.799210 0.159177 0.131969 76 0 153
0.598204 -0.477213 -0.198707 76 0 153
-0.656026 0.187033 -0.130034 76 0 153
0.236847 0.438329 -0.121160 76 0 153
0.793937 -0.017620 0.406371 76 0 153
-0.227687 -0.336392 0.515707 0 0 255
-0.415771 -0.472618 -0.011915 76 0 153
-0.171776 -0.156671 -0.571182 76 0 153
-0.092961 -0.329445 -0.463156 76 0 153
0.272829 -0.372919 -0.521055 76 0 153
-0.545068 0.329868 0.230695 76 0 153
0.615541 0.438969 -0.023477 76 0 153
0.162990 0.376981 0.515707 0 0 255
0.554267 0.439236 0.241780 76 0 153
0.214653 0.200640 -0.488899 76 0 153
0.426765 0.338175 0.515707 0 0 255
-0.098013 0.432184 -0.513152 76 0 153
-0.005263 -0.465438 -0.413202 76 0 153
-0.298638 -0.339149 -0.222459 76 0 153
-0.696289 0.088485 -0.521066 76 0 153
-0.154900 0.439236 -0.100445 76 0 153
0.195932 0.439236 -0.323087 76 0 153
0.395076 -0.024952 0.625671 0 255 0
-0.322841 0.329868 0.325368 76 0 153
-0.653709 0.254866 -0.335632 76 0 153
-0.764997 0.375060 -0.287433 76 0 153
-0.292628 -0.282151 0.440398 0 0 255
0.230773 -0.465439 0.093938 76 0 153
-0.563351 0.342941 0.431100 0 0 255
0.423019 -0.444596 0.481355 0 0 255
-0.765394 0.016396 -0.105973 76 0 153
-0.068122 -0.339276 0.387928 76 0 153
-0.422246 -0.402431 -0.521092 76 0 153
-0.543013 -0.101104 -0.570112 76 0 153
0.798251 0.382940 0.340015 76 0 153
-0.310766 -0.421333 0.420948 0 0 255
0.628720 -0.470094 0.085313 76 0 153
-0.763425 0.390364 -0.418177 76 0 153
-0.263619 -0.098069 -0.571182 76 0 153
-0.399447 0.439207 0.266438 76 0 153
-0.626830 -0.186250 -0.473875 76 0 153
-0.765394 -0.000105 0.060069 76 0 153
0.729423 -0.457251 -0.124811 76 0 153
0.681094 0.384625 -0.520381 76 0 153
0.307725 -0.230184 0.515707 0 0 255
0.007174 0.272161 -0.553745 76 0 153
0.020069 0.219352 0.505554 255 0 0
-0.765393 -0.272851 -0.460720 76 0 153
-0.499132 0.329868 -0.077872 76 0 153
0.269263 0.066061 0.420948 0 0 255
-0.672465 -0.461486 -0.054206 76 0 153
0.300651 0.040731 -0.318968 76 0 153
-0.166619 0.299604 -0.538150 76 0 153
-0.134385 0.389442 0.420948 0 0 255
0.184594 -0.465439 -0.301749 76 0 153
-0.524367 -0.273404 -0.488281 76 0 153
0.799210 -0.184345 0.022839 76 0 153
0.531109 -0.351843 0.437869 76 0 153
0.797906 -0.391932 0.282346 76 0 153
-0.710711 -0.326415 0.431132 0 0 255
0.317267 0.339793 0.439310 76 0 153
-0.121003 0.329868 -0.038485 76 0 153
0.300651 -0.022618 -0.404085 76 0 153
0.300651 0.172205 0.199127 76 0 153
-0.610054 0.319898 -0.428616 76 0 153
-0.352044 0.350227 0.515707 0 0 255
-0.419985 -0.339446 -0.034119 76 0 153
-0.374745 -0.343068 0.425146 0 0 255
-0.765394 0.240622 0.348081 76 0 153
-0.678932 -0.460344 0.311493 76 0 153
-0.593007 0.439236 -0.390648 76 0 153
-0.564396 0.017440 -0.567421 76 0 153
-0.765394 -0.337256 -0.119767 76 0 153
0.361400 -0.310660 -0.520416 76 0 153
0.799210 -0.371317 0.086732 76 0 153
-0.045169 -0.171166 -0.571182 76 0 153
0.719435 0.438599 -0.159994 76 0 153
-0.299204 0.142108 -0.489848 76 0 153
-0.690696 -0.458266 0.124816 76 0 153
0.001626 0.107197 -0.488886 76 0 153
0.329724 -0.463853 -0.447574 76 0 153
0.443630 -0.471320 -0.177407 76 0 153
0.584587 0.222236 -0.520417 76 0 153
0.421683 0.207638 0.515707 0 0 255
-0.765394 0.279851 0.029039 76 0 153
-0.400462 -0.065622 0.505554 255 0 0
0.062037 -0.339421 -0.299503 76 0 153
-0.573787 -0.340228 0.085119 76 0 153
0.154707 0.044902 -0.571182 76 0 153
0.588333 -0.420115 -0.520202 76 0 153
0.136346 -0.027218 -0.488886 76 0 153
0.028669 -0.021024 -0.488886 76 0 153
0.553222 -0.246427 -0.520417 76 0 153
-0.120064 0.329868 -0.332004 76 0 153
0.094566 0.334388 0.431100 0 0 255
0.468503 0.439236 0.094080 76 0 153
-0.436336 0.208588 -0.571182 76 0 153
0.790684 -0.425060 0.408875 76 0 153
-0.632679 0.306509 -0.158380 76 0 153
-0.765394 0.228870 -0.425742 76 0 153
-0.282326 0.368875 -0.521565 76 0 153
0.040908 -0.340147 -0.103413 76 0 153
-0.467325 -0.340147 0.083765 76 0 153
-0.761475 -0.203963 0.481125 0 0 255
-0.152455 -0.465439 0.241494 76 0 153
-0.290707 0.439236 0.300113 76 0 153
-0.765394 0.100450 0.097992 76 0 153
-0.206921 0.439236 0.183288 76 0 153
-0.360658 -0.197814 0.505554 255 0 0
-0.410865 -0.102568 -0.488886 76 0 153
-0.656051 -0.045824 -0.025409 76 0 153
-0.373016 0.439236 -0.209419 76 0 153
-0.765394 0.143138 0.368409 76 0 153
0.612037 -0.473864 0.292649 76 0 153
0.183112 0.323501 -0.444229 76 0 153
0.089765 -0.309851 0.420948 0 0 255
-0.215965 0.439236 -0.332230 76 0 153
0.635628 -0.206213 0.515707 76 0 153
-0.765394 -0.079439 -0.441529 76 0 153
-0.456343 0.392317 -0.520313 76 0 153
-0.765394 -0.125513 -0.227735 76 0 153
-0.763820 -0.396058 -0.320213 76 0 153
-0.330756 -0.465438 -0.105213 76 0 153
-0.310252 -0.234082 -0.488886 76 0 153
0.358497 -0.218577 0.599354 0 255 0
-0.000484 0.329868 0.287862 76 0 153
0.210998 0.118332 0.505554 255 0 0
-0.591493 0.000084 0.420948 0 0 255
0.235316 0.257216 0.465123 0 0 255
-0.656038 0.224782 0.189759 76 0 153
0.567025 -0.487241 -0.349457 0 127 127
-0.164255 0.053246 -0.571182 76 0 153
-0.145388 0.130794 0.505554 255 0 0
-0.765394 0.088428 -0.210789 76 0 153
-0.007257 0.329868 0.090676 76 0 153
0.799210 -0.205924 -0.227369 76 0 153
0.798653 -0.006915 -0.213733 76 0 153
-0.402041 -0.339149 0.311780 76 0 153
-0.252602 -0.465439 0.070223 76 0 153
0.307222 -0.371490 0.420948 0 0 255
0.300651 0.219962 0.055438 76 0 153
-0.063011 0.439236 -0.290300 76 0 153
-0.765394 -0.128250 0.043830 76 0 153
0.413943 -0.466971 -0.011632 76 0 153
0.738741 -0.161584 -0.520375 76 0 153
0.149574 0.208646 -0.571182 76 0 153
0.795291 0.329791 0.493840 76 0 153
-0.073095 -0.465439 0.023096 76 0 153
-0.656383 -0.005221 -0.181409 76 0 153
0.705793 0.107108 0.515707 76 0 153
0.300757 0.260003 -0.188631 76 0 153
-0.191371 0.200867 -0.489584 76 0 153
0.300651 -0.229084 0.025558 76 0 153
0.572770 -0.315080 0.515707 76 0 153
-0.041160 -0.465439 0.289928 76 0 153
-0.653502 -0.109163 -0.418482 76 0 153
0.693040 -0.124365 0.524796 153 0 76
-0.258752 0.272870 0.424088 0 0 255
0.101956 0.329868 0.215196 76 0 153
-0.264921 0.074408 0.505554 255 0 0
-0.161201 -0.465439 -0.323111 76 0 153
0.715687 -0.459819 0.147682 76 0 153
-0.667772 0.236396 0.515707 0 0 255
0.300652 -0.238391 0.158474 76 0 153
-0.224047 -0.339149 -0.280567 76 0 153
0.799210 -0.134884 -0.156490 76 0 153
-0.548186 -0.333535 0.515707 0 0 255
0.504266 0.357489 -0.520417 76 0 153
-0.683053 0.011691 0.441011 76 0 153
-0.036450 0.439236 0.086228 76 0 153
0.504805 -0.153316 0.437869 76 0 153
-0.656744 -0.076021 0.099234 76 0 153
0.300651 0.186694 -0.363011 76 0 153
0.300651 -0.171747 -0.221731 76 0 153
0.479676 0.438233 -0.235704 76 0 153
0.798895 -0.031823 -0.310234 76 0 153
-0.129119 0.326973 0.515707 0 0 255
0.547386 -0.058719 0.515707 76 0 153
0.799210 -0.356469 -0.260594 76 0 153
0.683162 0.439236 0.041382 76 0 153
0.300651 -0.134738 0.214765 76 0 153
0.745659 -0.034579 0.515707 76 0 153
0.332060 0.335581 -0.520408 76 0 153
-0.244055 -0.231849 -0.571182 76 0 153
-0.653990 -0.008629 -0.528051 76 0 153
0.566921 0.130938 0.525860 204 51 127
-0.271030 -0.465439 -0.360190 76 0 153
-0.343203 0.439236 -0.116292 76 0 153
0.195347 -0.465439 -0.394453 76 0 153
-0.028880 -0.207528 0.505554 255 0 0
-0.506595 0.271673 0.450892 0 0 255
0.150048 0.133519 -0.488886 76 0 153
-0.665469 0.439233 -0.449162 76 0 153
-0.607228 0.324854 -0.254035 76 0 153
0.251566 -0.264282 -0.553792 76 0 153
0.478738 0.202555 0.437869 76 0 153
-0.656026 -0.202575 -0.284570 76 0 153
-0.372090 0.136135 -0.571182 76 0 153
-0.765394 0.128349 0.186434 76 0 153
0.562557 0.414250 0.515707 76 0 153
-0.412898 0.439236 -0.422540 76 0 153
0.799210 0.226529 -0.092225 76 0 153
0.555975 0.438844 -0.412432 76 0 153
-0.429642 -0.339278 0.220319 76 0 153
-0.577107 0.232841 -0.489295 76 0 153
0.300651 0.130766 -0.282751 76 0 153
-0.483184 0.329880 -0.388392 76 0 153
-0.470043 -0.181858 -0.571182 76 0 153
0.732253 -0.288474 0.437869 76 0 153
-0.648760 -0.299805 0.159801 76 0 153
-0.441859 0.438722 -0.046260 76 0 153
-0.724800 -0.448742 0.033582 76 0 153
-0.303890 -0.465439 0.283690 76 0 153
-0.656185 0.158966 -0.269727 76 0 153
0.799210 0.232739 0.197161 76 0 153
-0.765394 -0.074649 -0.116031 76 0 153
0.563675 0.001549 0.441790 76 0 153
0.104165 0.361707 -0.522274 76 0 153
-0.461609 -0.247261 0.505554 255 0 0
0.300651 0.078320 0.035455 76 0 153
-0.609183 0.052435 0.512799 0 0 255
-0.337082 0.007030 -0.571182 76 0 153
0.014395 0.074233 0.505554 255 0 0
0.510310 -0.263056 0.441751 76 0 153
-0.344671 -0.254122 -0.570824 76 0 153
0.052691 -0.123200 -0.571182 76 0 153
-0.628898 -0.362383 -0.522922 76 0 153
0.173877 -0.282151 0.442000 0 0 255
-0.285466 -0.339148 0.110611 76 0 153
-0.568614 -0.339996 0.247385 76 0 153
-0.765394 0.044929 0.281780 76 0 153
0.798211 0.080501 -0.364449 76 0 153
0.292980 0.162512 -0.454800 76 0 153
-0.765025 -0.377724 0.188400 76 0 153
-0.555179 -0.479437 0.115657 76 0 153
0.221509 -0.101670 -0.488902 76 0 153
-0.565664 0.107572 -0.567025 76 0 153
0.087830 0.439236 -0.428844 76 0 153
-0.094985 -0.465439 -0.406518 76 0 153
-0.610249 0.439236 -0.288289 76 0 153
-0.656026 0.136374 0.251216 76 0 153
0.738963 0.127446 -0.520372 76 0 153
0.168570 0.439236 0.068354 76 0 153
-0.753805 0.420598 0.416199 76 0 153
-0.084514 0.232772 0.505554 255 0 0
0.682086 -0.409227 -0.520353 76 0 153
0.160901 -0.444596 0.492690 0 0 255
-0.449712 -0.339149 -0.340204 76 0 153
0.787997 -0.430318 -0.443300 76 0 153
0.154383 0.439236 0.343801 76 0 153
0.515320 -0.442634 0.431035 76 0 153
-0.567714 -0.104619 0.505554 255 0 0
-0.728160 -0.447444 -0.247010 76 0 153
0.673865 0.235519 -0.520417 76 0 153
-0.147610 0.329868 0.148290 76 0 153
0.619853 0.438256 -0.343120 76 0 153
0.736354 -0.455331 0.255965 76 0 153
-0.765394 -0.054359 0.197680 76 0 153
-0.243340 -0.359989 0.427232 0 0 255
0.063473 0.381659 0.515707 0 0 255
0.377989 -0.175039 0.515707 0 0 255
-0.539593 0.370394 0.515707 0 0 255
-0.244142 0.329889 -0.400506 76 0 153
-0.300629 0.329868 -0.018867 76 0 153
-0.577012 -0.256465 0.420948 0 0 255
0.119583 -0.340147 -0.182540 76 0 153
0.069089 -0.333255 -0.454412 76 0 153
0.798509 -0.129121 0.159646 76 0 153
-0.109554 -0.339149 0.181257 76 0 153
0.309672 0.178439 0.515707 0 0 255
-0.357586 0.438602 0.127017 76 0 153
0.799210 0.068546 0.308010 76 0 153
-0.260999 -0.023155 0.505554 255 0 0
-0.321965 -0.339467 -0.027381 76 0 153
-0.647982 0.389156 -0.520344 76 0 153
0.365933 -0.465438 0.174872 76 0 153
-0.656026 0.102591 0.347485 76 0 153
-0.044947 -0.351761 -0.534015 76 0 153
0.019457 -0.339149 0.082564 76 0 153
0.213287 0.359448 0.441509 76 0 153
0.531844 0.439236 0.155620 76 0 153
0.799210 0.234886 0.055460 76 0 153
0.306893 0.439235 0.029245 76 0 153
0.629823 -0.463656 0.386869 76 0 153
-0.006205 -0.081490 0.505554 255 0 0
0.789446 0.399108 0.426169 76 0 153
-0.055583 0.324926 -0.435817 76 0 153
-0.173544 -0.339149 0.335752 76 0 153
-0.132826 -0.465439 0.327148 76 0 153
0.542048 0.436965 0.416362 76 0 153
0.381010 0.439236 0.115519 76 0 153
-0.181411 0.248616 0.505554 255 0 0
-0.656690 -0.029711 0.317039 76 0 153
0.286989 0.219358 -0.536117 76 0 153
0.798769 0.378238 0.167484 76 0 153
0.401561 -0.265044 0.522476 0 255 0
-0.751311 0.424716 -0.003062 76 0 153
-0.001262 0.009367 -0.571182 76 0 153
-0.036033 -0.339149 -0.319374 76 0 153
0.554071 -0.482269 -0.043591 76 0 153
-0.583765 0.329971 -0.056271 76 0 153
-0.301350 0.054807 -0.489163 76 0 153
-0.728772 -0.068864 -0.520071 76 0 153
0.344488 -0.450426 0.421264 76 0 153
0.203758 -0.187064 -0.488893 76 0 153
0.304572 -0.007624 0.515367 0 0 255
-0.124234 -0.056427 0.505554 255 0 0
-0.022297 0.187139 -0.571182 76 0 153
0.762331 -0.447292 -0.033049 76 0 153
0.577495 -0.204910 0.437869 76 0 153
0.795291 -0.205631 0.451518 76 0 153
0.532808 0.315179 0.515707 76 0 153
0.795291 -0.346078 0.452810 76 0 153
0.556409 -0.482261 0.144837 76 0 153
0.713787 0.439133 0.287249 76 0 153
0.686825 0.054275 -0.520417 76 0 153
-0.760943 -0.112167 0.515707 0 0 255
-0.765204 -0.265864 0.398045 76 0 153
0.688565 0.406769 0.515707 76 0 153
0.162193 -0.374555 0.440817 76 0 153
-0.497870 -0.482353 -0.212059 76 0 153
0.402288 0.365049 0.420948 0 0 255
-0.438801 0.438668 0.412100 76 0 153
-0.627043 -0.466082 -0.131451 76 0 153
0.244101 -0.340119 -0.259559 76 0 153
-0.761475 0.060113 0.457481 0 0 255
0.798211 -0.098330 0.356902 76 0 153
0.287278 0.065143 -0.538129 76 0 153
-0.759055 0.192355 0.515707 0 0 255
-0.765394 0.025396 -0.391246 76 0 153
-0.392830 0.353126 0.436135 76 0 153
0.319385 0.439225 -0.302989 76 0 153
0.799210 -0.286851 -0.047496 76 0 153
-0.183338 0.329868 0.020479 76 0 153
-0.338508 -0.465436 0.059968 76 0 153
0.548191 0.438435 -0.078167 76 0 153
-0.212758 0.435315 0.484703 0 0 255
-0.443524 0.329868 -0.142804 76 0 153
0.158647 0.438566 -0.086659 76 0 153
0.268602 0.317440 -0.395695 76 0 153
-0.656026 -0.122758 -0.334170 76 0 153
0.798885 0.369883 -0.075496 76 0 153
-0.132709 -0.332855 -0.543469 76 0 153
0.799210 0.075187 0.074057 76 0 153
-0.704468 -0.150775 0.420948 0 0 255
-0.324126 0.225562 -0.489888 76 0 153
-0.113903 0.252153 -0.488944 76 0 153
0.799210 -0.319829 0.160493 76 0 153
-0.467698 0.216344 -0.489454 76 0 153
0.410286 -0.365944 0.515707 0 0 255
-0.244367 -0.015289 -0.571182 76 0 153
-0.694426 0.356761 0.515707 0 0 255
0.799210 0.342754 0.048549 76 0 153
-0.487943 -0.482328 0.168468 76 0 153
0.064502 -0.465439 -0.260488 76 0 153
-0.016666 -0.339149 0.264905 76 0 153
0.069587 -0.226511 0.505554 255 0 0
0.377930 0.232904 -0.520409 76 0 153
0.798240 -0.061179 0.212514 76 0 153
-0.195866 -0.090564 -0.488978 76 0 153
-0.626355 0.313833 0.248447 76 0 153
0.657119 -0.366001 0.437869 76 0 153
0.109737 -0.339149 0.161910 76 0 153
0.107331 -0.465439 0.085157 76 0 153
-0.427258 0.153445 0.505554 255 0 0
-0.765394 -0.371741 0.275679 76 0 153
-0.656593 -0.006070 -0.310770 76 0 153
0.250402 -0.294938 0.515707 0 0 255
-0.513926 0.042991 -0.488886 76 0 153
-0.380220 -0.339149 -0.201418 76 0 153
-0.332484 -0.147896 -0.488886 76 0 153
0.037626 0.439236 -0.152426 76 0 153
0.799161 0.112560 -0.177418 76 0 153
0.171596 0.329868 0.311151 76 0 153
0.799210 -0.358238 -0.003487 76 0 153
-0.568006 -0.339178 -0.116816 76 0 153
0.090472 0.329868 0.048910 76 0 153
-0.637575 -0.316670 0.001732 76 0 153
-0.765394 0.309456 0.300589 76 0 153
0.148736 -0.122658 -0.571182 76 0 153
0.242285 -0.444596 0.512669 0 0 255
-0.656026 0.125664 0.074736 76 0 153
-0.199422 0.129003 -0.571182 76 0 153
-0.089887 0.121224 -0.488886 76 0 153
0.631430 0.226946 0.523428 204 51 127
-0.710711 0.121950 0.432971 0 0 255
0.767901 -0.125983 0.434952 76 0 153
0.526222 -0.482344 -0.149387 76 0 153
-0.733511 0.433512 0.336457 76 0 153
0.300016 -0.274821 -0.367417 76 0 153
0.174262 0.193069 0.505554 255 0 0
0.690676 0.259154 0.437869 76 0 153
0.234954 0.327628 0.129048 76 0 153
0.799210 -0.177629 -0.313831 76 0 153
0.618971 -0.385524 0.515707 76 0 153
0.142561 -0.465439 -0.087353 76 0 153
0.798676 0.240093 -0.385074 76 0 153
-0.375898 0.271473 0.505554 255 0 0
0.300651 0.234503 -0.061513 76 0 153
-0.538994 -0.444596 0.490065 0 0 255
0.500870 0.267586 -0.520417 76 0 153
-0.437723 -0.021274 -0.488886 76 0 153
-0.373551 -0.338237 -0.540069 76 0 153
-0.276794 0.438841 -0.058519 76 0 153
0.275242 0.439236 0.316158 76 0 153
-0.548821 0.329427 -0.526311 76 0 153
-0.602917 -0.427675 0.427763 0 0 255
-0.489858 -0.469080 0.387241 76 0 153
0.775911 0.208422 -0.518554 76 0 153
-0.524917 0.438233 0.091521 76 0 153
0.022217 0.353510 -0.523085 76 0 153
-0.656026 -0.143689 -0.200683 76 0 153
0.199436 0.329876 -0.103947 76 0 153
-0.106873 -0.340174 0.515707 0 0 255
0.406022 0.062089 0.515707 0 0 255
0.475613 -0.019059 0.515707 76 0 153
0.071933 0.054512 -0.571182 76 0 153
0.431687 0.089773 -0.520417 76 0 153
0.223642 -0.339920 -0.438424 76 0 153
-0.765394 -0.305286 0.104596 76 0 153
-0.040604 0.329868 -0.053929 76 0 153
-0.765394 0.248429 -0.254747 76 0 153
-0.656026 0.071446 -0.023781 76 0 153
0.136016 -0.462577 -0.455319 76 0 153
0.300651 -0.054207 -0.071127 76 0 153
-0.712671 0.253576 -0.520276 76 0 153
-0.646070 -0.306005 -0.177668 76 0 153
-0.185895 0.439147 0.088347 76 0 153
-0.204313 0.332145 0.410591 76 0 153
0.799153 0.032484 0.234830 76 0 153
-0.146191 0.329868 -0.215464 76 0 153
0.230192 0.329433 0.515707 0 0 255
0.084166 -0.339643 -0.012890 76 0 153
-0.530503 0.439236 -0.124826 76 0 153
0.439610 0.438815 -0.039277 76 0 153
0.300660 -0.254856 0.341600 76 0 153
0.108391 0.439236 -0.258270 76 0 153
-0.765394 -0.287481 -0.286650 76 0 153
-0.277048 -0.393823 -0.522679 76 0 153
0.300791 0.265218 0.369110 76 0 153
-0.386172 -0.339576 0.132791 76 0 153
-0.765394 -0.140793 -0.040669 76 0 153
-0.575589 -0.300693 -0.548800 76 0 153
-0.702393 -0.204950 -0.520393 76 0 153
-0.693410 -0.243799 0.515707 0 0 255
-0.076864 0.435315 0.458179 0 0 255
-0.690792 0.438276 0.247889 76 0 153
-0.765394 -0.329540 0.025981 76 0 153
-0.652566 0.108880 -0.426748 76 0 153
0.543431 -0.482777 0.229136 76 0 153
-0.584092 0.439140 0.348017 76 0 153
0.447960 0.432468 0.437869 0 0 255
0.799210 0.262303 -0.238887 76 0 153
0.298346 -0.196332 -0.444970 76 0 153
-0.294594 0.439111 -0.480452 76 0 153
0.376541 -0.278781 0.420948 0 0 255
0.479126 -0.474265 -0.453212 76 0 153
-0.310445 -0.349970 0.515707 0 0 255
0.071021 0.301498 0.515707 0 0 255
-0.171631 -0.465439 -0.069105 76 0 153
-0.625636 0.438833 -0.057659 76 0 153
0.030565 -0.460094 0.389256 76 0 153
0.608071 0.357696 0.437869 76 0 153
-0.435633 -0.279797 -0.487311 76 0 153
0.393248 -0.465441 -0.091916 76 0 153
0.129084 -0.465439 0.260004 76 0 153
-0.074530 -0.339366 -0.179053 76 0 153
0.297696 -0.294526 -0.177654 76 0 153
0.300651 -0.020076 -0.208879 76 0 153
-0.087529 0.073725 0.505554 255 0 0
-0.765300 0.353187 0.200596 76 0 153
0.798742 -0.379223 -0.163930 76 0 153
0.340258 0.105750 0.420948 0 0 255
-0.560900 -0.478031 -0.282679 76 0 153
0.798946 0.154454 -0.252459 76 0 153
-0.176671 -0.336022 -0.448009 76 0 153
0.075368 -0.465439 0.005674 76 0 153
0.300651 -0.043111 0.213441 76 0 153
0.246416 -0.061403 0.505554 255 0 0
0.694336 0.439236 0.144490 76 0 153
-0.152757 -0.339149 0.083953 76 0 153
-0.009586 0.272870 0.450575 0 0 255
-0.436456 0.439236 -0.257336 76 0 153
-0.016290 -0.444596 0.464830 0 0 255
0.219310 0.439236 -0.427782 76 0 153
0.233789 -0.342046 0.415992 76 0 153
0.754203 -0.441909 -0.516576 76 0 153
0.205342 0.372894 -0.521168 76 0 153
0.795998 -0.258543 0.392679 76 0 153
0.709493 -0.460915 -0.361934 76 0 153
0.413792 0.438233 -0.172024 76 0 153
0.489158 0.155984 0.515707 76 0 153
-0.270402 -0.339149 -0.344373 76 0 153
0.671876 -0.465084 -0.014050 76 0 153
0.798982 -0.270901 -0.488090 76 0 153
0.468003 -0.086143 -0.520417 76 0 153
0.586034 -0.408092 0.437869 76 0 153
0.382355 0.340468 0.587525 0 255 0
-0.081668 0.260854 -0.560078 76 0 153
0.567109 0.178219 0.437869 76 0 153
0.734004 -0.444596 0.459834 76 0 153
0.782490 0.198133 0.428786 76 0 153
-0.405481 -0.470452 0.331923 76 0 153
0.698630 0.187180 0.515707 76 0 153
0.143410 0.076542 0.505554 255 0 0
0.485667 0.047536 0.441790 76 0 153
-0.198008 -0.294901 -0.564128 76 0 153
0.401705 0.439236 0.283436 76 0 153
0.799210 -0.210462 0.105837 76 0 153
-0.664331 -0.462922 -0.204671 76 0 153
0.169602 0.297700 0.420948 0 0 255
-0.765394 0.181000 -0.199725 76 0 153
-0.162442 0.382502 -0.520391 76 0 153
-0.572003 -0.120324 -0.488936 76 0 153
0.300651 -0.103811 0.025876 76 0 153
0.303542 0.416394 0.420948 0 0 255
-0.276246 0.329868 -0.122933 76 0 153
0.115090 -0.272090 -0.569371 76 0 153
0.004995 -0.409813 -0.520320 76 0 153
0.361009 0.047864 -0.520397 76 0 153
-0.279650 0.233704 0.505554 255 0 0
-0.651278 0.266734 0.024243 76 0 153
-0.594991 0.438233 0.031072 76 0 153
0.203444 -0.339149 0.270295 76 0 153
-0.028004 -0.248009 -0.570940 76 0 153
-0.272723 -0.465439 -0.188835 76 0 153
-0.734039 -0.311818 -0.519971 76 0 153
-0.336680 0.433294 0.437869 0 0 255
0.260576 -0.179922 0.451792 0 0 255
-0.602526 0.409040 0.441308 76 0 153
-0.373305 -0.466490 0.171057 76 0 153
0.038945 0.439236 0.165872 76 0 153
-0.564541 0.239253 0.505554 255 0 0
0.799210 -0.085203 -0.441585 76 0 153
-0.656026 -0.215323 0.013020 76 0 153
-0.747757 0.427124 0.088344 76 0 153
-0.122788 0.118910 -0.571182 76 0 153
-0.577776 -0.473905 0.284724 76 0 153
0.248002 0.325347 -0.033854 76 0 153
0.084192 0.267072 -0.557126 76 0 153
-0.484956 0.266938 -0.557186 76 0 153
-0.361128 -0.066305 -0.571182 76 0 153
0.296701 0.438737 -0.047240 76 0 153
0.699492 0.438551 -0.367515 76 0 153
-0.127267 -0.397333 0.441679 76 0 153
0.003569 0.439236 -0.037301 76 0 153
-0.208579 0.439236 -0.408960 76 0 153
0.125529 0.278466 -0.488394 76 0 153
-0.424427 0.438696 0.170845 76 0 153
-0.048104 0.393100 0.515707 0 0 255
0.473227 -0.478229 -0.320986 76 0 153
-0.584841 -0.339721 0.322555 76 0 153
0.799210 0.277669 -0.162261 76 0 153
0.052049 0.398992 0.420948 0 0 255
-0.059785 -0.465439 0.109426 76 0 153
0.222004 -0.340147 -0.081521 76 0 153
0.570353 -0.132007 -0.520417 76 0 153
-0.229662 -0.465439 0.241496 76 0 153
-0.451726 -0.359989 0.429940 0 0 255
0.349552 0.336855 0.515707 0 0 255
0.095309 -0.383432 -0.524594 76 0 153
0.545767 -0.324039 -0.520417 76 0 153
0.272328 -0.465439 0.018043 76 0 153
-0.765394 0.280683 0.121932 76 0 153
-0.482858 0.439235 -0.453191 76 0 153
-0.166397 -0.190636 0.505554 255 0 0
0.509796 0.276214 0.437869 76 0 153
-0.765394 0.316868 -0.126777 76 0 153
-0.565187 0.110081 0.471330 0 0 255
0.300651 0.051861 0.106985 76 0 153
-0.249900 -0.339257 -0.001265 76 0 153
0.090673 0.439235 0.015249 76 0 153
0.631655 0.137813 0.441466 76 0 153
-0.086249 -0.282151 0.434933 0 0 255
-0.524960 0.329868 0.084884 76 0 153
-0.027030 -0.465439 -0.063806 76 0 153
0.048877 -0.356353 0.515707 0 0 255
-0.655215 -0.272722 -0.255438 76 0 153
0.723751 0.438844 -0.467851 76 0 153
0.385403 0.135069 0.515707 0 0 255
0.799210 0.342750 0.254937 76 0 153
-0.656485 -0.205216 0.228341 76 0 153
0.367844 -0.099966 0.515707 0 0 255
0.483736 -0.484052 0.300818 76 153 0
0.123557 0.329868 -0.195915 76 0 153
-0.144964 0.439236 0.344508 76 0 153
-0.236925 -0.453350 -0.498998 76 0 153
0.005747 -0.465439 -0.328175 76 0 153
0.133293 0.123587 -0.571182 76 0 153
0.663299 -0.465825 -0.160308 76 0 153
0.181782 -0.339149 0.108728 76 0 153
-0.654703 -0.276584 0.357233 76 0 153
0.454527 -0.201269 0.515707 0 0 255
0.360068 -0.465439 -0.332532 76 0 153
0.062681 -0.465439 0.212493 76 0 153
-0.492441 -0.086168 0.505554 255 0 0
-0.080510 -0.339149 -0.389589 76 0 153
-0.325552 0.309922 -0.466836 76 0 153
0.749686 -0.187466 0.515707 76 0 153
0.300651 -0.101776 -0.365641 76 0 153
-0.765394 -0.048463 -0.271691 76 0 153
-0.473807 -0.320684 0.515707 0 0 255
-0.765394 -0.066800 0.123675 76 0 153
-0.045624 -0.292304 0.512043 0 0 255
0.011903 0.292731 -0.480361 76 0 153
-0.075943 0.344063 0.432934 76 0 153
-0.656632 0.148330 -0.349219 76 0 153
-0.405102 0.316354 -0.456558 76 0 153
-0.487917 -0.482328 -0.037536 76 0 153
0.633578 -0.024843 0.437869 76 0 153
0.634509 0.084644 0.519041 204 51 127
-0.647059 0.165362 0.420948 0 0 255
-0.765394 -0.241819 -0.127495 76 0 153
-0.656193 0.242496 0.390231 76 0 153
0.259465 0.439236 0.201943 76 0 153
-0.306352 -0.339149 0.269524 76 0 153
-0.198616 0.366728 0.515707 0 0 255
-0.336736 -0.026687 0.505554 255 0 0
0.116547 0.435315 0.513263 0 0 255
-0.538925 -0.438618 -0.518115 76 0 153
-0.073056 0.329868 0.148649 76 0 153
-0.331452 -0.465438 -0.286623 76 0 153
0.648490 0.438233 -0.206360 76 0 153
-0.656026 0.058023 0.191506 76 0 153
-0.765394 -0.359574 -0.418853 76 0 153
0.263781 0.320622 -0.212942 76 0 153
-0.656026 0.096897 -0.112422 76 0 153
0.089675 0.329868 -0.051573 76 0 153
-0.129499 -0.459061 -0.475344 76 0 153
0.300651 0.086973 -0.063958 76 0 153
0.799193 -0.060638 -0.159599 76 0 153
0.258336 -0.026393 -0.483873 76 0 153
0.207538 0.435315 0.504194 0 0 255
-0.432216 0.272870 0.426009 0 0 255
0.795291 0.110429 0.465317 76 0 153
0.401175 -0.460182 -0.472013 76 0 153
-0.065939 -0.465439 -0.192736 76 0 153
0.072086 0.329868 0.146465 76 0 153
-0.408661 -0.129263 -0.571182 76 0 153
-0.656819 0.049133 -0.248935 76 0 153
-0.481174 0.430779 0.515707 0 0 255
0.199312 -0.288878 -0.486051 76 0 153
0.298049 -0.291586 0.209687 76 0 153
-0.283592 -0.177285 0.505554 255 0 0
-0.765394 0.315029 -0.210679 76 0 153
0.792291 0.344538 -0.511041 76 0 153
0.738674 -0.454689 -0.273085 76 0 153
-0.324903 -0.316386 -0.475203 76 0 153
0.719676 0.034798 0.515707 76 0 153
-0.133313 -0.043683 -0.488953 76 0 153
0.787976 0.419498 -0.128711 76 0 153
-0.478762 0.329868 0.318348 76 0 153
-0.765394 0.154511 0.046254 76 0 153
-0.133670 0.039899 -0.489021 76 0 153
-0.042850 0.439234 -0.458011 76 0 153
0.792609 0.410995 0.012079 76 0 153
-0.765312 0.352265 0.041168 76 0 153
0.799183 -0.332294 0.232824 76 0 153
-0.214264 0.250075 -0.563864 76 0 153
0.683276 0.438468 -0.083492 76 0 153
0.167615 -0.419906 -0.520196 76 0 153
-0.216760 0.439236 -0.201646 76 0 153
-0.313997 0.439236 -0.331407 76 0 153
-0.387658 0.329868 0.366895 76 0 153
0.689716 -0.255569 0.515707 76 0 153
-0.178932 -0.282151 0.497221 0 0 255
-0.765394 -0.159922 -0.394743 76 0 153
-0.688055 -0.401217 0.515707 0 0 255
-0.375260 -0.465126 -0.442934 76 0 153
0.333917 0.035836 0.441327 76 0 153
0.075418 -0.465437 -0.414561 76 0 153
0.798664 0.379916 -0.315556 76 0 153
-0.289974 -0.464605 0.355380 76 0 153
0.548993 0.028027 0.515707 76 0 153
-0.525001 -0.339148 0.372795 76 0 153
-0.646112 -0.464516 0.236810 76 0 153
-0.310941 0.278703 -0.549400 76 0 153
-0.575407 -0.329239 -0.463539 76 0 153
-0.100774 0.439162 0.051813 76 0 153
-0.727243 0.435649 -0.146956 76 0 153
0.439943 -0.297573 0.451601 0 0 255
-0.290493 -0.339149 -0.150058 76 0 153
-0.202553 -0.465439 0.143442 76 0 153
-0.608204 -0.051986 -0.483792 76 0 153
-0.302221 0.329868 -0.352584 76 0 153
-0.756733 0.273091 0.428883 76 0 153
-0.656693 -0.115433 0.163588 76 0 153
0.073373 0.329868 -0.355304 76 0 153
0.114181 -0.465438 0.343121 76 0 153
-0.713620 -0.451096 -0.487138 76 0 153
-0.316441 -0.255385 0.505554 255 0 0
-0.428853 -0.444596 0.490597 0 0 255
-0.585606 -0.339542 -0.043407 76 0 153
-0.519535 -0.339149 -0.278297 76 0 153
-0.609183 -0.163784 0.511950 0 0 255
-0.448438 -0.484103 -0.386540 76 0 153
0.326628 -0.465439 -0.221175 76 0 153
0.543122 -0.131051 0.515707 76 0 153
0.210635 -0.465439 0.236048 76 0 153
-0.119561 -0.260795 -0.489911 76 0 153
-0.545535 -0.480760 -0.147646 76 0 153
0.294074 0.438456 -0.174640 76 0 153
-0.593472 -0.150904 -0.556426 76 0 153
-0.441615 0.236774 0.505554 255 0 0
-0.761475 -0.368254 0.467617 0 0 255
0.282010 -0.327150 0.359336 76 0 153
-0.284465 0.329868 0.253661 76 0 153
0.004084 0.439236 -0.316672 76 0 153
-0.655110 -0.273156 -0.368026 76 0 153
0.188710 -0.460571 0.386722 76 0 153
0.799210 -0.304767 -0.118026 76 0 153
0.799210 0.216715 -0.020877 76 0 153
0.729414 -0.376166 0.437869 76 0 153
-0.367127 0.232919 -0.568478 76 0 153
0.124982 -0.339626 -0.340608 76 0 153
0.372926 0.439236 -0.442373 76 0 153
-0.565187 -0.065315 0.436513 0 0 255
0.720775 -0.348510 -0.520417 76 0 153
-0.696799 0.435315 0.461144 0 0 255
0.338414 -0.205740 0.426996 0 0 255
0.243638 0.120652 -0.485906 76 0 153
-0.657026 -0.101368 0.321431 76 0 153
-0.028886 -0.339914 -0.123677 76 0 153
-0.656026 -0.178933 0.077995 76 0 153
-0.521546 -0.159513 0.505554 255 0 0
-0.551604 0.439236 -0.329538 76 0 153
0.617155 0.049094 0.437869 76 0 153
0.300651 -0.022580 0.351189 76 0 153
0.091685 0.220363 0.505554 255 0 0
-0.276169 0.438292 0.015832 76 0 153
-0.639707 -0.464968 -0.389383 76 0 153
0.499660 0.134164 0.437869 76 0 153
-0.066046 -0.339456 0.006305 76 0 153
0.401420 0.372040 -0.520416 76 0 153
0.158403 -0.018598 0.505554 255 0 0
0.463768 -0.393824 0.437869 76 0 153
-0.497153 0.146966 -0.571182 76 0 153
0.461992 0.266386 0.515707 76 0 153
0.629576 -0.066630 0.521308 153 0 76
0.224265 0.243730 -0.559327 76 0 153
0.260576 -0.090034 0.441314 0 0 255
-0.607144 -0.261267 -0.484368 76 0 153
-0.765394 0.194123 -0.113191 76 0 153
-0.761475 0.363631 0.457954 0 0 255
0.300812 0.268544 -0.344574 76 0 153
-0.440520 0.114052 -0.488957 76 0 153
0.101156 -0.072520 0.505554 255 0 0
0.261870 0.327455 -0.524810 76 0 153
0.259015 -0.080527 -0.553986 76 0 153
-0.419495 0.329868 0.104978 76 0 153
0.601132 0.439236 0.169939 76 0 153
0.005379 0.329868 -0.284652 76 0 153
-0.635124 -0.131500 0.431100 0 0 255
0.799210 0.304611 0.345367 76 0 153
-0.244609 0.096830 -0.489682 76 0 153
-0.040482 0.329868 -0.177651 76 0 153
0.799210 0.089932 0.193864 76 0 153
-0.312624 0.126364 0.505554 255 0 0
-0.582054 0.162525 -0.489005 76 0 153
-0.023109 -0.181905 -0.489489 76 0 153
-0.471511 -0.335214 -0.449809 76 0 153
-0.480986 0.382134 0.441760 76 0 153
-0.765394 0.181921 -0.350868 76 0 153
0.791574 -0.424152 0.026597 76 0 153
-0.275270 -0.097859 -0.488886 76 0 153
0.300655 -0.243906 -0.051223 76 0 153
-0.423349 -0.474316 -0.249059 76 0 153
0.260199 -0.465439 0.324056 76 0 153
0.662141 -0.095403 -0.520417 76 0 153
-0.765394 -0.130584 0.207755 76 0 153
0.722978 -0.013848 -0.520417 76 0 153
-0.395900 0.329868 -0.206488 76 0 153
0.795291 -0.003561 0.475112 76 0 153
-0.528494 0.329868 -0.244543 76 0 153
0.055197 0.272870 0.424210 0 0 255
0.799210 -0.331664 -0.331835 76 0 153
-0.759781 -0.006890 0.437869 0 0 255
0.136833 -0.157606 0.505554 255 0 0
0.300651 -0.103847 -0.238036 76 0 153
-0.080211 -0.465439 0.208258 76 0 153
-0.115731 -0.115180 -0.571182 76 0 153
0.300651 -0.096444 0.355830 76 0 153
-0.656250 -0.385010 0.441713 76 0 153
0.758411 0.435978 0.171624 76 0 153
0.081816 0.147409 -0.488886 76 0 153
0.798733 -0.066471 0.014534 76 0 153
-0.045900 -0.381768 0.441559 76 0 153
0.563605 0.438233 -0.169721 76 0 153
0.093298 -0.196516 -0.489015 76 0 153
-0.695726 -0.070267 0.515707 0 0 255
-0.347673 -0.414729 -0.520257 76 0 153
0.473866 -0.229541 -0.520417 76 0 153
0.293802 0.290771 0.105236 76 0 153
0.366957 0.294970 0.420948 0 0 255
-0.032132 -0.069617 -0.488913 76 0 153
0.626087 -0.470682 -0.381862 76 0 153
-0.260822 -0.339149 0.183219 76 0 153
-0.353616 0.329868 0.249229 76 0 153
-0.512350 0.295460 0.515707 0 0 255
-0.673209 0.016918 0.515707 0 0 255
-0.620958 -0.466726 0.132765 76 0 153
0.799198 0.070092 -0.069678 76 0 153
0.766836 -0.343697 0.515707 76 0 153
-0.749075 0.426607 -0.239044 76 0 153
0.285968 -0.449696 -0.506766 76 0 153
-0.711663 0.340218 -0.520289 76 0 153
-0.656026 0.194107 -0.061391 76 0 153
0.042894 0.209759 -0.571144 76 0 153
-0.076500 -0.444596 0.499764 0 0 255
0.012504 0.439236 0.031100 76 0 153
0.243363 0.017772 -0.562238 76 0 153
0.625282 0.438783 -0.492397 76 0 153
-0.203299 -0.444596 0.497360 0 0 255
-0.765394 -0.116799 0.339899 76 0 153
-0.477907 -0.002474 -0.571182 76 0 153
0.389180 0.259494 0.547205 0 255 0
-0.009951 -0.465439 -0.261161 76 0 153
-0.697069 -0.371216 -0.520441 76 0 153
0.429816 -0.373199 -0.520416 76 0 153
0.799210 -0.210248 -0.374345 76 0 153
-0.011305 0.439018 0.401371 76 0 153
-0.173213 -0.339149 0.211090 76 0 153
0.363239 0.028008 0.591280 0 255 0
-0.762052 0.400452 -0.099478 76 0 153
0.300651 0.176439 -0.225333 76 0 153
0.799186 -0.016433 -0.046160 76 0 153
-0.745685 -0.432219 0.433095 76 0 153
-0.761114 -0.411490 -0.095157 76 0 153
0.799210 0.083683 0.006160 76 0 153
-0.296483 0.439236 -0.189685 76 0 153
-0.407341 0.438233 0.037517 76 0 153
-0.593767 -0.057534 -0.556247 76 0 153
-0.402960 -0.282151 0.437753 0 0 255
-0.381846 0.068532 -0.571182 76 0 153
-0.656346 0.005670 0.375452 76 0 153
-0.394310 0.252208 -0.489870 76 0 153
-0.765394 -0.296634 -0.211124 76 0 153
-0.765393 0.103148 -0.459690 76 0 153
0.386321 0.396758 0.515707 0 0 255
-0.437449 0.026907 0.505554 255 0 0
-0.214844 0.329868 0.135974 76 0 153
0.300651 0.207622 0.122449 76 0 153
0.684747 0.328853 0.515707 76 0 153
-0.520322 -0.277649 0.471022 0 0 255
0.300651 0.233586 0.229071 76 0 153
-0.648127 0.254456 -0.433765 76 0 153
-0.759135 -0.418992 -0.192470 76 0 153
-0.501772 -0.246429 -0.570787 76 0 153
-0.560741 -0.196880 -0.488886 76 0 153
-0.036408 0.404620 -0.520215 76 0 153
0.768284 -0.444999 0.094366 76 0 153
-0.634639 0.016814 -0.464916 76 0 153
-0.107658 -0.465439 -0.046833 76 0 153
-0.765394 0.322712 -0.420966 76 0 153
0.167983 -0.340147 -0.130472 76 0 153
-0.568498 0.431615 0.515707 0 0 255
0.156013 0.439236 -0.403762 76 0 153
-0.599317 0.286525 0.420948 0 0 255
-0.656026 -0.140200 -0.051707 76 0 153
-0.225957 -0.465439 -0.018061 76 0 153
0.001031 -0.465439 0.005683 76 0 153
-0.540878 0.439033 0.296067 76 0 153
-0.728177 -0.136276 -0.520079 76 0 153
0.600162 0.015123 -0.520417 76 0 153
-0.077977 0.439236 0.277163 76 0 153
-0.349586 -0.339148 -0.400559 76 0 153
0.453375 0.439236 -0.408932 76 0 153
0.708019 0.435315 0.441073 76 0 153
-0.662256 0.438233 0.099427 76 0 153
0.639568 0.439179 0.385542 76 0 153
0.133198 -0.465439 -0.258484 76 0 153
-0.219212 -0.282151 0.422730 0 0 255
0.300651 -0.098389 0.158318 76 0 153
-0.274166 0.329868 -0.234846 76 0 153
-0.543748 0.439236 -0.190637 76 0 153
0.508895 0.008859 -0.520417 76 0 153
-0.627915 -0.465990 -0.260927 76 0 153
-0.313590 0.294107 0.515707 0 0 255
-0.765394 -0.211008 -0.010725 76 0 153
0.799210 0.328827 -0.246950 76 0 153
0.413386 -0.043417 0.441252 76 0 153
0.085617 0.425799 -0.517291 76 0 153
-0.238022 -0.339149 0.353609 76 0 153
0.707370 -0.419220 0.515707 76 0 153
-0.753844 0.420164 -0.359063 76 0 153
0.626845 0.156666 0.509305 204 51 127
0.456864 0.338732 0.455978 76 0 153
0.300651 -0.156166 -0.105099 76 0 153
-0.455929 0.322981 -0.529257 76 0 153
-0.467203 -0.427675 0.434646 0 0 255
0.037798 0.148255 0.505554 255 0 0
-0.290336 0.439132 0.390248 76 0 153
-0.716409 0.020893 -0.520265 76 0 153
0.798280 0.080167 -0.448071 76 0 153
0.285898 0.148329 -0.538880 76 0 153
-0.203498 -0.465439 -0.219780 76 0 153
-0.656026 -0.040397 -0.101301 76 0 153
0.529305 0.439236 0.063635 76 0 153
-0.677051 0.167771 0.515707 0 0 255
0.798289 -0.056172 0.139176 76 0 153
0.579756 0.122088 -0.520417 76 0 153
-0.264658 0.374443 0.515707 0 0 255
0.133415 -0.388645 0.515707 0 0 255
-0.765394 -0.032289 0.353584 76 0 153
0.362811 0.438680 -0.053046 76 0 153
-0.623594 0.438234 0.193001 76 0 153
-0.476352 0.438233 0.039045 76 0 153
0.777745 -0.441361 0.321597 76 0 153
-0.395780 0.365491 -0.521900 76 0 153
0.247484 0.325438 0.288741 76 0 153
-0.193547 0.329868 -0.343444 76 0 153
0.314678 -0.264056 -0.526128 76 0 153
0.757715 0.435986 -0.321710 76 0 153
0.217348 -0.139530 0.505554 255 0 0
-0.036052 0.049694 -0.488886 76 0 153
-0.752054 -0.432994 0.154533 76 0 153
0.439943 -0.150484 0.450282 0 0 255
-0.035732 -0.339149 0.196457 76 0 153
-0.361684 0.117133 -0.489365 76 0 153
0.795291 0.249266 0.504585 76 0 153
-0.252950 -0.444596 0.452632 0 0 255
0.069324 -0.465439 -0.164917 76 0 153
-0.637364 -0.216620 -0.532731 76 0 153
0.418056 0.221696 0.420948 0 0 255
-0.124841 0.439236 -0.312848 76 0 153
-0.393772 -0.468032 -0.086539 76 0 153
0.005561 -0.325300 -0.469418 76 0 153
0.521191 -0.493637 -0.399852 0 127 127
-0.309743 -0.357186 0.434957 76 0 153
0.479058 0.439139 -0.479203 76 0 153
0.623473 -0.234143 -0.520417 76 0 153
0.355574 0.423481 -0.517736 76 0 153
0.611539 -0.142520 0.517714 153 0 76
0.227950 -0.465439 -0.030160 76 0 153
0.300651 -0.005327 0.266969 76 0 153
0.148736 -0.339414 0.010645 76 0 153
-0.173999 0.329868 -0.130582 76 0 153
0.290986 0.037363 -0.458452 76 0 153
-0.368140 -0.444596 0.462196 0 0 255
0.157287 0.060297 -0.488886 76 0 153
-0.230662 -0.339148 0.074918 76 0 153
-0.161263 0.329868 0.281649 76 0 153
0.250317 -0.249860 0.464259 0 0 255
0.706193 -0.461499 -0.216815 76 0 153
-0.765394 0.105669 -0.285467 76 0 153
-0.498050 -0.094040 -0.488886 76 0 153
0.598161 -0.477223 0.028099 76 0 153
0.097000 -0.377007 0.440815 76 0 153
-0.656026 -0.179290 -0.142001 76 0 153
0.280315 -0.391731 0.515707 0 0 255
-0.765394 0.075707 -0.070595 76 0 153
-0.653745 0.254698 0.248387 76 0 153
0.012064 -0.465439 0.136418 76 0 153
-0.448798 -0.339148 0.368346 76 0 153
-0.065522 -0.012874 -0.571182 76 0 153
0.260041 0.439236 0.074329 76 0 153
0.452700 -0.473225 0.052601 76 0 153
-0.018848 -0.458816 -0.476387 76 0 153
-0.104004 0.439236 0.217685 76 0 153
-0.693013 0.380134 0.420948 0 0 255
0.297790 -0.293754 0.020786 76 0 153
0.247832 0.325377 -0.150212 76 0 153
-0.222492 0.330758 -0.527297 76 0 153
0.412710 -0.270948 -0.520417 76 0 153
-0.418177 0.329868 0.192942 76 0 153
-0.140167 0.198560 0.505554 255 0 0
-0.657692 -0.289081 0.429955 76 0 153
0.300651 0.074819 -0.143583 76 0 153
0.450736 0.438633 -0.293699 76 0 153
0.799210 0.310361 0.184960 76 0 153
0.300651 0.152942 0.041619 76 0 153
-0.761475 0.136477 0.479846 0 0 255
