ply
format ascii 1.0
element vertex 1281
property float x
property float y
property float z
property uchar red
property uchar green
property uchar blue
end_header
0.407115 0.374806 -0.172363 0 255 0
-0.448600 0.004752 0.054727 0 0 255
0.356650 0.837637 0.008317 127 0 127
0.000434 0.393091 0.197069 153 76 0
0.026156 0.509916 -0.172363 0 255 0
0.511157 0.837637 0.153282 127 0 127
-0.439180 0.576959 -0.150459 0 255 0
0.449467 -0.489196 -0.073820 255 0 0
0.367671 -0.472448 0.155677 76 0 153
-0.427818 -0.670093 -0.088288 204 51 127
0.449467 -0.612211 -0.003098 255 0 0
-0.448600 -0.673130 -0.120973 204 51 127
0.437188 -0.761360 0.183217 127 127 0
0.272527 -0.184553 -0.116721 127 127 0
0.064323 0.449520 0.189383 153 76 0
0.212348 0.110561 0.180282 76 0 153
-0.342171 0.684309 0.141538 153 0 76
0.202968 -0.309653 -0.172363 0 255 0
0.319226 0.521744 -0.172363 0 255 0
0.493275 0.205547 -0.156585 255 0 0
-0.247211 -0.129700 0.176312 76 0 153
-0.466687 0.381378 0.126200 153 0 76
-0.175117 0.539768 -0.172363 0 255 0
0.247786 -0.187629 0.135926 127 127 0
0.413226 0.786528 0.132447 153 76 0
0.006294 -0.604362 0.177451 153 0 76
0.311092 0.329168 -0.172363 0 255 0
0.071424 0.678755 -0.172363 0 255 0
0.449467 0.480270 0.053298 255 0 0
0.425128 -0.184553 -0.079765 127 127 0
0.096695 -0.250347 0.193132 76 0 153
0.493275 -0.720199 0.095288 255 0 0
0.383343 0.837637 -0.133064 127 0 127
0.342475 0.271972 0.158477 76 0 153
-0.193330 -0.812469 0.194685 127 127 0
0.012972 -0.654217 0.176709 204 51 127
-0.447668 0.405056 -0.172363 0 255 0
-0.413229 -0.183863 0.154727 153 0 76
0.234937 -0.812469 0.137625 127 127 0
0.362197 0.504987 -0.150459 0 255 0
-0.262233 -0.317025 -0.150459 0 255 0
0.149356 0.615336 -0.150459 0 255 0
0.495038 0.837637 -0.163186 127 0 127
-0.113188 -0.623554 -0.172363 0 255 0
-0.492408 -0.705312 0.112524 153 0 76
0.255175 0.099613 0.175523 76 0 153
0.449467 0.659475 -0.121999 255 0 0
0.493275 -0.065759 -0.080263 255 0 0
-0.072596 -0.761360 -0.003874 127 127 0
0.449467 0.763075 -0.022392 255 0 0
-0.349577 0.253532 0.072910 127 0 127
0.293648 -0.199155 0.125007 127 127 0
-0.463183 0.099925 -0.154129 0 0 255
0.162844 0.488135 0.185782 76 0 153
-0.448600 0.132681 -0.126809 0 0 255
-0.243988 -0.812469 0.186436 127 127 0
0.219089 -0.812469 -0.141528 127 127 0
-0.046106 0.596505 0.191311 153 0 76
-0.100203 -0.171631 -0.150459 127 127 0
-0.430642 -0.177804 0.130205 153 0 76
-0.163659 0.654510 -0.194267 0 255 0
-0.409504 -0.471563 0.158266 153 0 76
0.228624 -0.320137 0.171127 76 0 153
0.120889 -0.812469 -0.128835 127 127 0
0.146663 0.303106 0.180234 76 0 153
0.079489 0.461809 -0.172363 0 255 0
-0.211120 -0.428347 -0.150459 0 255 0
-0.346377 -0.614692 0.165293 76 0 153
0.410947 0.754803 -0.172363 0 255 0
-0.066846 -0.761360 0.164820 127 127 0
-0.110504 0.680178 -0.150459 0 255 0
-0.492408 0.078871 0.024460 0 0 255
0.082562 -0.587013 -0.150459 0 255 0
-0.137206 -0.256730 -0.150459 0 255 0
-0.398064 0.730079 -0.172363 0 255 0
0.406373 -0.194786 0.158710 76 0 153
-0.448600 0.599071 0.012414 0 0 255
0.404592 0.612872 -0.194267 0 255 0
0.236932 0.238929 0.011728 127 0 127
0.440856 0.253532 -0.123094 255 0 0
0.449467 0.073634 0.026148 255 0 0
0.143129 0.120507 -0.150459 0 255 0
-0.211133 0.019227 -0.150459 0 255 0
-0.201979 -0.096079 -0.172363 0 255 0
-0.021592 -0.342828 0.212386 153 0 76
-0.175130 0.706879 0.176975 153 0 76
0.493275 -0.340684 0.102833 255 0 0
0.523221 -0.784004 0.088083 127 127 0
0.298531 -0.044749 0.163360 76 0 153
0.386277 0.313031 0.135769 153 76 0
0.354037 0.406469 -0.172363 0 255 0
-0.130088 0.687725 0.207678 153 0 76
0.482939 0.803563 -0.182646 127 0 127
-0.110118 -0.700753 0.209896 153 0 76
-0.258631 0.243588 -0.172363 0 255 0
0.011471 -0.099501 0.176876 153 76 0
0.493275 -0.258375 -0.067297 255 0 0
-0.441201 -0.708427 -0.172363 0 255 0
0.351069 -0.539720 -0.172363 0 255 0
-0.371445 0.837637 0.198228 127 0 127
-0.435306 0.711738 -0.150459 0 0 255
0.293300 -0.169331 -0.150459 0 255 0
0.051527 -0.662431 -0.172363 0 255 0
0.136372 -0.780374 -0.194267 127 127 0
-0.310832 0.575989 -0.150459 0 255 0
-0.492408 0.062119 -0.050183 0 0 255
-0.349225 -0.462542 -0.150459 0 255 0
0.351043 0.192645 -0.150459 0 255 0
-0.382678 0.452901 -0.172363 0 255 0
0.165949 0.253532 0.120573 127 0 127
0.147452 -0.730715 0.205845 153 76 0
0.228080 0.385680 0.171188 76 0 153
0.438233 0.786528 -0.058794 255 0 0
0.325969 0.239445 -0.172363 0 255 0
-0.338212 0.044242 -0.172363 0 255 0
0.476798 -0.812469 -0.113844 127 127 0
0.069231 0.610102 -0.150459 0 255 0
0.201248 -0.269154 -0.150459 0 255 0
0.278604 -0.670093 0.088102 204 51 127
-0.217941 -0.371967 -0.172363 0 255 0
0.006755 -0.199155 0.152821 127 127 0
0.282507 0.786528 -0.087371 127 0 127
0.449467 -0.053593 0.052785 255 0 0
-0.411837 0.238929 0.112780 127 0 127
0.493275 -0.386678 -0.082872 255 0 0
-0.233086 -0.345315 -0.150459 0 255 0
-0.158363 0.238929 -0.093681 127 0 127
-0.112005 -0.280306 -0.150459 0 255 0
0.271156 0.837637 0.209441 127 0 127
-0.269287 0.617808 -0.194267 0 255 0
-0.113641 0.747352 -0.150459 0 255 0
-0.297356 0.786528 0.181683 153 0 76
-0.144595 0.786528 0.090114 127 0 127
0.259404 0.128140 0.167707 76 0 153
0.325885 0.547542 -0.172363 0 255 0
-0.492408 -0.187262 -0.166615 0 0 255
-0.009147 -0.654755 0.221116 153 0 76
-0.269644 -0.555615 0.166473 76 0 153
0.449467 0.135975 -0.014718 255 0 0
-0.269893 0.553006 -0.172363 0 255 0
-0.171583 0.037232 -0.172363 0 255 0
-0.269315 0.147905 0.173856 76 0 153
-0.144669 -0.812469 -0.155770 127 127 0
0.029726 0.238929 -0.024141 127 0 127
-0.192237 -0.670093 0.016394 204 51 127
-0.191944 -0.596710 -0.172363 0 255 0
-0.448600 0.480261 0.083689 0 0 255
-0.463202 0.183083 -0.153199 0 255 0
-0.094119 0.612947 -0.172363 0 255 0
-0.325862 -0.670093 0.040092 204 51 127
0.333927 0.786528 0.183820 127 0 127
0.252787 0.709863 0.151696 153 76 0
-0.492408 -0.329334 -0.044973 0 0 255
-0.363284 0.253532 0.114009 127 0 127
0.434726 -0.166771 0.129848 153 76 0
-0.444962 0.837637 -0.103190 127 0 127
-0.182703 -0.703802 -0.172363 0 255 0
0.422582 0.699746 -0.172363 0 255 0
0.373955 -0.223301 -0.150459 127 127 0
0.208029 0.764583 -0.150459 0 255 0
0.157107 -0.761360 0.043424 127 127 0
0.065942 0.489208 0.196549 76 0 153
0.214096 0.639243 -0.150459 0 255 0
0.014397 0.739409 -0.172363 0 255 0
0.438802 -0.359012 -0.150459 0 255 0
-0.429189 0.362419 0.130366 153 0 76
0.229236 -0.543342 -0.172363 0 255 0
0.493275 0.100159 0.145190 153 76 0
-0.426691 -0.196085 0.174722 153 0 76
0.526131 -0.806316 -0.076124 127 127 0
-0.293866 -0.440798 -0.150459 0 255 0
0.279027 0.837637 -0.038270 127 0 127
-0.168228 -0.649765 0.185074 153 0 76
-0.285938 0.042487 0.172009 76 0 153
-0.131359 0.786528 -0.099209 127 0 127
0.150684 0.241109 -0.172363 0 255 0
0.393043 0.170231 -0.172363 0 255 0
0.110884 -0.683888 -0.150459 0 255 0
-0.313722 -0.761360 0.029846 127 127 0
0.074832 0.253532 0.125875 127 0 127
-0.448600 0.220065 -0.098131 0 0 255
-0.385119 0.311380 -0.150459 0 255 0
-0.351350 -0.645864 -0.150459 204 51 127
-0.046362 0.253532 -0.049239 127 0 127
0.045024 -0.449466 0.189665 153 76 0
0.169076 0.369879 0.185090 76 0 153
0.493275 -0.136611 -0.005144 255 0 0
0.242806 0.721008 0.195250 153 76 0
0.414870 0.238929 -0.049117 127 0 127
-0.133053 -0.184553 0.008467 127 127 0
-0.492408 0.306192 -0.030468 0 0 255
-0.141085 0.238929 0.052017 127 0 127
-0.485679 0.736321 -0.194267 0 0 255
-0.065909 0.756563 -0.194267 0 255 0
0.328446 0.685253 -0.193323 0 255 0
0.493275 0.732790 -0.161327 255 0 0
0.463923 -0.132368 0.126603 153 76 0
-0.034856 -0.095841 -0.150459 0 255 0
0.241018 0.690931 -0.194267 0 255 0
-0.428289 -0.437133 -0.150459 0 255 0
0.343308 -0.204514 0.158384 76 0 153
0.136263 -0.453182 0.181390 76 0 153
-0.274517 0.253532 0.112207 127 0 127
-0.240328 -0.287518 0.177077 76 0 153
0.007043 0.837637 0.145463 127 0 127
-0.230473 0.723891 -0.194267 0 255 0
0.449467 -0.369022 -0.083024 255 0 0
-0.082382 0.271567 0.194626 153 0 76
-0.310833 -0.772699 -0.172363 127 127 0
-0.415315 -0.604736 0.175986 153 0 76
-0.032645 0.803773 0.260984 127 0 127
-0.079072 0.253532 -0.052761 127 0 127
0.200109 -0.199155 0.069231 127 127 0
0.120207 0.489610 -0.172363 0 255 0
-0.492408 -0.697504 0.052802 0 0 255
0.464050 0.352437 -0.177182 0 255 0
0.426533 -0.184553 -0.118484 127 127 0
-0.250071 0.801130 -0.150598 0 255 0
0.493275 -0.160065 0.057275 255 0 0
-0.492408 0.552908 -0.176909 0 0 255
-0.119105 0.380922 0.183200 76 0 153
-0.061646 0.555355 -0.172363 0 255 0
-0.307009 -0.812469 -0.181448 127 127 0
0.343452 -0.424203 -0.172363 0 255 0
0.449467 0.266382 -0.028616 255 0 0
0.436511 0.253532 0.045518 255 0 0
0.449467 -0.085222 -0.063504 255 0 0
-0.492408 -0.517296 -0.050645 0 0 255
-0.289593 -0.398738 -0.172363 0 255 0
-0.425469 0.837637 -0.184863 127 0 127
0.493275 -0.244630 0.162804 153 76 0
-0.279611 0.117128 -0.172363 0 255 0
-0.492408 -0.479845 -0.148165 0 0 255
0.402106 -0.282480 0.159198 76 0 153
-0.347282 0.705573 -0.194267 0 255 0
-0.426695 0.541846 -0.150459 0 255 0
-0.437711 0.160895 -0.172363 0 255 0
-0.383639 -0.184553 0.031629 127 127 0
-0.438495 -0.589196 0.129332 0 0 255
0.179597 0.157399 0.183921 76 0 153
0.257368 0.786528 0.185449 127 0 127
-0.448600 0.492009 -0.053001 0 0 255
0.436156 0.675242 -0.150459 255 0 0
-0.002171 -0.733364 -0.150459 0 255 0
0.220637 0.436800 0.172015 76 0 153
0.096478 0.519320 -0.150459 0 255 0
0.432889 -0.703241 0.174129 153 76 0
0.523362 0.809313 -0.172103 127 0 127
0.414241 -0.043735 0.156032 76 0 153
-0.200482 -0.508676 -0.172363 0 255 0
-0.340289 0.586024 0.165970 76 0 153
-0.448600 -0.521145 0.108498 0 0 255
0.295164 -0.812469 0.093919 127 127 0
-0.448600 -0.506756 0.075288 0 0 255
0.414208 0.357741 0.155735 153 76 0
-0.329288 -0.583107 0.167192 76 0 153
-0.160241 -0.318533 0.178629 76 0 153
0.068302 0.075391 -0.172363 0 255 0
0.151598 -0.745345 -0.172363 0 255 0
0.436344 0.801130 -0.175203 127 0 127
-0.194310 0.101165 -0.172363 0 255 0
0.403408 0.552800 -0.150459 0 255 0
0.493275 -0.323941 -0.057301 255 0 0
0.109591 -0.590143 -0.172363 0 255 0
0.341114 0.145455 0.165975 76 0 153
0.246388 0.770112 -0.194267 0 255 0
0.172276 -0.199155 -0.145246 127 127 0
-0.430220 0.385534 -0.172363 0 255 0
0.320718 0.757709 -0.194267 0 255 0
0.304512 -0.812469 0.217935 127 127 0
-0.357102 -0.036656 -0.172363 0 255 0
-0.445912 -0.393305 -0.172363 0 255 0
-0.448600 0.631522 -0.056329 0 0 255
-0.346395 0.837637 -0.021594 127 0 127
-0.076705 0.687470 -0.150459 0 255 0
-0.348863 0.761306 0.139291 153 0 76
0.470103 0.203906 -0.194267 255 0 0
0.128009 -0.129946 -0.172363 0 255 0
-0.396294 -0.600958 -0.150459 0 255 0
-0.184803 -0.305344 -0.150459 0 255 0
0.464050 0.739914 -0.172560 255 0 0
-0.350426 0.767048 -0.172363 0 255 0
0.280061 -0.629935 0.186941 153 76 0
0.475458 0.468796 -0.194267 255 0 0
0.311588 0.366152 -0.150459 0 255 0
-0.128591 0.664276 -0.194267 0 255 0
-0.448600 -0.167934 -0.095649 0 0 255
0.485641 0.814399 0.008814 127 0 127
0.099438 -0.419962 -0.172363 0 255 0
-0.080030 0.581168 0.194888 76 0 153
-0.079943 0.399058 -0.172363 0 255 0
0.493275 0.156656 0.002033 255 0 0
0.487984 -0.649523 0.138623 153 76 0
0.015779 -0.775962 -0.159742 127 127 0
-0.291681 -0.534314 -0.150459 0 255 0
-0.148451 0.316917 -0.150459 0 255 0
0.354595 0.837637 0.099806 127 0 127
-0.216333 -0.651517 0.198095 76 0 153
0.273777 -0.761360 0.216779 127 127 0
0.332622 -0.199155 -0.042240 127 127 0
-0.492408 0.648920 0.141947 153 0 76
-0.119728 -0.670093 -0.088440 204 51 127
-0.169892 -0.274318 -0.172363 0 255 0
-0.492408 0.055436 0.145966 153 0 76
0.135635 0.086014 -0.150459 0 255 0
0.390174 0.654281 -0.172363 0 255 0
0.016122 0.225330 -0.150459 0 255 0
-0.363045 -0.199155 0.022597 127 127 0
0.445752 -0.703228 -0.150459 255 0 0
0.449467 0.304740 -0.065342 255 0 0
-0.156856 -0.531499 -0.150459 0 255 0
0.091968 0.494619 -0.172363 0 255 0
0.493275 0.255053 -0.127720 255 0 0
0.464050 0.305016 -0.153781 255 0 0
0.402280 0.135740 -0.150459 0 255 0
0.481400 -0.795746 0.219579 127 127 0
-0.035089 0.656785 0.210887 76 0 153
0.072221 0.243670 -0.150459 0 255 0
0.360632 -0.670093 0.068968 204 51 127
-0.205101 0.640884 0.180991 76 0 153
0.056899 -0.787163 0.266746 127 127 0
0.044871 0.075312 0.188290 153 76 0
-0.349694 0.253532 -0.090996 127 0 127
-0.033473 -0.513121 -0.150459 0 255 0
-0.221665 -0.304166 -0.172363 0 255 0
-0.492408 0.035050 0.097452 0 0 255
-0.009523 0.786528 0.152028 127 0 127
0.449467 -0.226441 -0.019224 255 0 0
0.234040 -0.668166 -0.150459 204 51 127
0.099442 -0.199155 0.134918 127 127 0
0.145534 0.141949 -0.172363 0 255 0
0.248843 0.778740 0.150501 127 0 127
0.173908 -0.577722 0.177207 76 0 153
0.349500 -0.103692 -0.150459 0 255 0
-0.317109 0.658084 -0.194267 0 255 0
-0.236355 -0.812469 0.064295 127 127 0
-0.386857 -0.705867 0.148794 153 0 76
-0.448600 -0.031755 -0.034008 0 0 255
-0.127631 0.767753 0.207951 153 0 76
0.449467 0.515956 0.056645 255 0 0
0.430824 -0.064101 -0.150459 0 255 0
-0.429196 -0.130237 -0.150459 0 255 0
0.449467 -0.168175 -0.022369 255 0 0
-0.345020 0.709863 0.146837 153 0 76
0.231904 -0.184553 -0.066877 127 127 0
-0.435788 0.104438 0.129633 0 0 255
-0.042939 -0.195029 -0.150459 0 255 0
0.493275 0.302902 -0.037189 255 0 0
0.422443 -0.467425 0.175290 153 76 0
0.049285 -0.283397 -0.150459 0 255 0
0.173706 0.578418 -0.172363 0 255 0
0.154196 0.238929 -0.011580 127 0 127
-0.174374 0.837637 0.067198 127 0 127
-0.396748 0.571765 0.178049 153 0 76
0.191473 -0.668298 0.156876 204 51 127
-0.400549 0.079743 0.151928 153 0 76
0.121518 -0.499594 -0.172363 0 255 0
-0.426695 -0.812469 -0.137870 127 127 0
0.074672 -0.761360 -0.045031 127 127 0
-0.044702 0.493445 0.194574 76 0 153
0.301587 0.837637 0.162857 127 0 127
-0.370861 -0.761360 0.008421 127 127 0
0.057129 -0.273222 -0.172363 0 255 0
0.026438 0.837637 0.072350 127 0 127
0.100108 0.211226 -0.150459 0 255 0
-0.392854 0.801130 -0.167044 0 255 0
0.352357 -0.670093 0.000625 204 51 127
-0.024732 0.776623 -0.172363 0 255 0
0.436691 0.683037 0.129629 153 76 0
0.019320 -0.669976 0.205389 153 76 0
0.237976 0.837637 0.065162 127 0 127
-0.372709 0.573482 -0.172363 0 255 0
0.431834 -0.191788 -0.172363 0 255 0
-0.265628 0.486720 -0.172363 0 255 0
-0.473430 -0.668853 -0.194267 0 0 255
0.212652 0.375074 -0.172363 0 255 0
-0.492408 0.094420 -0.135506 0 0 255
0.063537 -0.451299 -0.150459 0 255 0
0.298096 -0.812469 -0.061762 127 127 0
-0.004223 0.621272 -0.150459 0 255 0
0.340408 0.589391 -0.193337 0 255 0
-0.386557 -0.184553 0.087002 127 127 0
0.040883 0.443179 -0.172363 0 255 0
-0.056678 0.345739 -0.150459 0 255 0
0.493275 0.131722 0.088263 255 0 0
-0.093610 0.353728 -0.150459 0 255 0
-0.120303 -0.108517 0.190413 76 0 153
0.003253 0.763917 0.177789 153 76 0
-0.225092 0.684309 0.189611 153 0 76
-0.359298 0.132835 -0.172363 0 255 0
-0.492408 -0.567341 -0.091866 0 0 255
-0.321942 -0.670093 -0.041882 204 51 127
0.007858 -0.158055 0.177277 153 76 0
0.056266 0.559872 -0.150459 0 255 0
-0.250864 -0.546006 -0.172363 0 255 0
-0.457029 0.612653 -0.172363 0 255 0
-0.492408 0.456198 -0.172910 0 0 255
-0.264547 0.684309 0.157378 153 0 76
0.258093 0.314212 -0.172363 0 255 0
-0.296441 -0.199155 0.075925 127 127 0
-0.437374 -0.565801 0.173535 153 0 76
0.493275 0.162247 -0.119127 255 0 0
0.194345 -0.812469 -0.089909 127 127 0
0.241955 -0.605448 -0.150459 0 255 0
0.493275 0.375564 0.112185 255 0 0
0.047621 0.315104 -0.150459 0 255 0
-0.415342 0.238929 0.062117 127 0 127
0.277734 0.069899 -0.150459 0 255 0
0.498792 0.837637 0.120458 127 0 127
-0.210340 -0.761360 -0.061458 127 127 0
0.023320 0.043643 -0.150459 0 255 0
-0.174911 -0.313334 -0.172363 0 255 0
0.197469 0.146871 -0.150459 0 255 0
-0.463183 0.654670 -0.194231 0 0 255
0.407576 0.837637 -0.081994 127 0 127
-0.492408 0.620834 -0.013001 0 0 255
-0.057709 0.837637 -0.124067 127 0 127
-0.370548 0.462163 -0.150459 0 255 0
-0.193756 0.837637 0.219218 127 0 127
0.423619 0.451599 -0.172363 0 255 0
-0.047222 0.786528 -0.018945 127 0 127
0.254654 -0.579214 -0.150459 0 255 0
0.280634 -0.812469 0.166484 127 127 0
-0.492408 -0.342506 0.112997 153 0 76
0.075826 0.270705 -0.172363 0 255 0
-0.492408 0.587039 0.125756 0 0 255
-0.159325 -0.102655 -0.150459 0 255 0
0.493275 0.675560 -0.158480 255 0 0
-0.254299 0.470886 0.168178 76 0 153
0.482168 -0.775300 -0.070538 255 0 0
-0.143911 -0.630922 -0.150459 0 255 0
0.051900 0.550778 0.190763 76 0 153
-0.085201 0.786528 -0.144435 0 255 0
0.235510 -0.670093 0.077763 204 51 127
-0.262736 0.692459 -0.150459 0 255 0
-0.174935 0.704553 -0.194267 0 255 0
-0.151442 -0.164118 -0.150459 0 255 0
-0.127377 -0.629935 -0.004998 204 51 127
0.099365 0.079104 -0.172363 0 255 0
0.160077 0.583077 -0.150459 0 255 0
-0.045122 0.225207 0.198351 76 0 153
-0.370386 -0.043596 -0.150459 0 255 0
-0.426179 -0.068617 0.130701 153 0 76
0.449467 -0.112835 0.049416 255 0 0
-0.081216 0.837637 0.002720 127 0 127
-0.028627 -0.540790 -0.150459 0 255 0
0.107912 -0.295710 -0.150459 0 255 0
0.078867 -0.113681 -0.150459 0 255 0
0.489179 -0.812469 -0.090038 127 127 0
0.229512 0.471342 -0.150459 0 255 0
-0.016264 -0.812469 -0.120673 127 127 0
-0.114447 -0.761360 -0.083548 127 127 0
0.493275 0.643860 0.081749 255 0 0
-0.409013 -0.734162 0.147301 153 0 76
0.115277 -0.610990 -0.150459 0 255 0
-0.244839 -0.812469 0.144186 127 127 0
-0.474988 -0.531964 0.169355 153 0 76
-0.492408 0.360708 -0.026686 0 0 255
-0.328887 -0.754863 -0.172363 127 127 0
0.079658 0.220686 -0.172363 0 255 0
-0.437711 -0.375758 -0.150459 0 255 0
0.262650 0.317341 0.167347 76 0 153
0.281253 0.639466 -0.194267 0 255 0
-0.492408 -0.632131 -0.039048 0 0 255
0.212643 0.513683 -0.150459 0 255 0
0.048239 0.369550 -0.150459 0 255 0
0.472785 0.686863 0.140311 153 76 0
0.357452 -0.301574 -0.172363 0 255 0
0.358733 0.158440 -0.150459 0 255 0
0.097974 0.624715 -0.150459 0 255 0
0.493275 0.036140 -0.000131 255 0 0
0.493275 -0.275930 -0.159119 255 0 0
-0.009812 0.543504 0.176964 153 76 0
0.447802 -0.628841 0.128395 204 51 127
-0.492408 0.421885 -0.194008 0 0 255
0.287494 0.209494 -0.150459 0 255 0
0.008184 0.116303 -0.172363 0 255 0
0.493275 0.244670 0.100052 255 0 0
0.068219 0.126510 0.170571 153 76 0
-0.270323 -0.695138 0.192096 153 0 76
-0.463183 -0.050559 -0.190089 0 0 255
0.276719 -0.636451 -0.172363 0 255 0
0.374998 -0.261657 -0.172363 0 255 0
0.354741 -0.670093 -0.086204 204 51 127
0.492613 0.553208 0.167493 153 76 0
0.449467 0.499023 -0.048662 255 0 0
0.210763 0.617647 -0.172363 0 255 0
0.331349 -0.363750 -0.172363 0 255 0
0.152842 -0.184553 0.091108 127 127 0
-0.448600 -0.096841 0.110167 153 0 76
-0.385339 0.688528 -0.150459 0 255 0
-0.307690 0.837637 -0.154034 127 0 127
-0.178957 0.786528 -0.095190 127 0 127
0.248477 -0.087395 -0.172363 0 255 0
-0.425445 -0.629935 -0.036787 204 51 127
0.111562 0.624612 -0.172363 0 255 0
-0.501489 0.788307 0.044745 127 0 127
-0.468505 -0.455985 0.170076 153 0 76
0.364949 -0.394003 -0.150459 0 255 0
0.236608 0.743937 -0.172363 0 255 0
0.057237 0.613661 -0.172363 0 255 0
0.449467 -0.662401 -0.012178 255 0 0
0.026441 -0.761360 -0.039731 127 127 0
0.449467 -0.203998 -0.048013 127 127 0
-0.058708 -0.812469 -0.122550 127 127 0
-0.054188 -0.057504 -0.172363 0 255 0
0.266167 0.768368 -0.150459 127 0 127
-0.334064 -0.629935 0.054635 204 51 127
-0.213012 -0.184553 -0.089767 127 127 0
-0.424336 -0.184553 0.099962 127 127 0
-0.288957 -0.788199 -0.194267 127 127 0
-0.368861 0.300263 0.155449 76 0 153
-0.147379 -0.183853 0.180058 76 0 153
0.485094 -0.616956 -0.194267 255 0 0
-0.344656 -0.014895 0.158138 76 0 153
-0.345561 0.679852 -0.194267 0 255 0
0.264241 -0.678447 -0.150459 0 255 0
-0.367371 0.735977 -0.194267 0 255 0
0.449467 0.637637 -0.069019 255 0 0
-0.492408 -0.718408 -0.133496 0 0 255
-0.113789 0.253532 -0.058458 127 0 127
-0.295936 -0.191641 0.163552 76 0 153
0.375598 -0.775962 -0.156960 0 255 0
-0.391928 -0.424738 0.178584 153 0 76
0.188385 -0.662499 -0.172363 0 255 0
-0.123859 0.800941 0.247999 127 0 127
-0.063851 0.641736 -0.194267 0 255 0
-0.448600 -0.273878 -0.086989 0 0 255
-0.169056 0.766998 0.203348 153 0 76
-0.492408 -0.083116 -0.049053 0 0 255
-0.440698 -0.079204 -0.150459 0 255 0
0.390834 0.326596 0.176780 76 0 153
-0.478186 -0.450827 -0.194267 0 0 255
-0.237331 0.694243 -0.194267 0 255 0
-0.104779 0.471531 0.184791 76 0 153
0.479524 0.789866 -0.057622 127 0 127
-0.492408 -0.063710 -0.121588 0 0 255
0.275513 -0.729468 -0.172363 0 255 0
0.387719 -0.713842 0.148747 153 76 0
0.331325 -0.184553 0.100080 127 127 0
0.493275 0.307418 0.106559 255 0 0
0.019746 -0.761360 0.123206 127 127 0
-0.035971 0.364519 -0.150459 0 255 0
0.383265 0.433843 -0.150459 0 255 0
0.074024 -0.381023 -0.172363 0 255 0
-0.492408 0.106230 -0.185030 0 0 255
-0.220100 0.551347 0.179324 76 0 153
0.410117 0.772673 0.176660 153 76 0
0.477036 -0.684527 0.169224 153 76 0
-0.252891 0.683884 -0.172363 0 255 0
0.430480 -0.229653 0.174397 153 76 0
-0.492408 0.349409 -0.002547 0 0 255
-0.471475 0.429632 0.125668 0 0 255
0.273162 -0.098279 -0.150459 0 255 0
0.493275 0.276021 0.069403 255 0 0
-0.448600 0.530616 0.076211 0 0 255
0.000912 0.232676 -0.172363 0 255 0
0.029328 0.790329 -0.194267 0 255 0
0.524102 -0.812469 0.066152 127 127 0
0.443415 0.554628 -0.172363 0 255 0
0.286654 -0.523434 -0.150459 0 255 0
0.189985 0.279169 0.182767 76 0 153
0.311850 0.820758 -0.194267 127 0 127
-0.072740 0.672637 -0.172363 0 255 0
-0.113126 0.837637 -0.044220 127 0 127
0.180253 -0.812469 0.016287 127 127 0
-0.059024 -0.812469 -0.149510 127 127 0
0.236190 -0.812469 0.179742 127 127 0
0.449467 -0.414960 0.092290 255 0 0
0.137829 -0.202416 -0.172363 0 255 0
-0.086051 0.057328 -0.150459 0 255 0
-0.448600 0.575154 -0.098425 0 0 255
0.197603 0.750232 -0.172363 0 255 0
0.347294 -0.005690 -0.150459 0 255 0
-0.448600 -0.437807 -0.035749 0 0 255
-0.222732 0.705258 -0.150459 0 255 0
0.336406 -0.810874 0.235690 127 127 0
-0.227227 -0.017398 -0.150459 0 255 0
0.146710 0.693614 -0.184962 0 255 0
-0.235231 0.129227 -0.172363 0 255 0
0.132013 -0.670093 -0.008425 204 51 127
-0.448600 -0.392564 0.106287 0 0 255
-0.400263 -0.643118 -0.150459 204 51 127
-0.109418 0.545152 -0.150459 0 255 0
-0.100981 0.691249 -0.172363 0 255 0
0.386359 0.238929 0.000801 127 0 127
0.339418 -0.522952 0.166163 76 0 153
0.493275 -0.113344 0.058284 255 0 0
-0.185714 -0.761360 0.047706 127 127 0
0.512515 -0.812469 -0.132359 127 127 0
0.445336 -0.279959 -0.172363 0 255 0
0.362430 0.059527 0.156260 76 0 153
-0.435788 -0.510675 0.173711 153 0 76
-0.400023 0.401214 -0.172363 0 255 0
-0.126177 0.837637 0.073823 127 0 127
0.145774 0.837637 0.168419 127 0 127
-0.063145 -0.542070 0.171038 76 0 153
-0.002187 -0.772383 0.258108 127 127 0
-0.395644 -0.104760 0.152473 76 0 153
0.199949 0.463436 -0.172363 0 255 0
-0.387585 -0.191228 -0.172363 0 255 0
-0.381025 0.435595 -0.150459 0 255 0
0.493275 0.770372 0.102281 127 0 127
-0.451611 -0.748489 0.127875 153 0 76
-0.044385 -0.137948 0.191719 153 0 76
-0.428184 0.671811 0.174556 153 0 76
0.324399 -0.629935 0.151146 76 0 153
-0.097680 -0.004386 -0.172363 0 255 0
-0.105258 -0.199155 -0.057269 127 127 0
-0.100004 -0.451591 -0.150459 0 255 0
-0.448600 0.661706 -0.120060 0 0 255
0.028054 -0.184553 -0.019412 127 127 0
-0.344254 0.786528 0.110711 127 0 127
0.386508 -0.629935 0.053004 204 51 127
-0.348101 -0.101438 -0.172363 0 255 0
-0.288523 0.584945 0.164375 76 0 153
-0.333651 -0.014236 -0.172363 0 255 0
0.000434 -0.245455 0.188319 153 76 0
-0.230878 -0.194866 -0.150459 127 127 0
0.353707 -0.153444 -0.150459 0 255 0
0.191128 0.837637 -0.132814 127 0 127
-0.380047 0.738093 0.179904 153 0 76
0.091418 0.780061 -0.194267 0 255 0
-0.448600 0.557787 0.063915 0 0 255
-0.411498 0.637497 -0.172363 0 255 0
0.149721 -0.397487 0.187241 76 0 153
0.142424 -0.324731 -0.172363 0 255 0
-0.331827 -0.091717 0.166910 76 0 153
0.207676 -0.379399 -0.172363 0 255 0
-0.353342 0.804134 0.225715 127 0 127
0.434958 0.768239 -0.150459 255 0 0
0.158625 -0.812469 -0.074014 127 127 0
0.329483 -0.712451 0.141541 153 76 0
-0.143757 -0.155313 0.180460 76 0 153
0.373715 -0.175907 -0.150459 0 255 0
0.362665 -0.629935 0.068781 204 51 127
0.493275 -0.125239 0.095156 255 0 0
-0.428899 0.152557 -0.150459 0 255 0
0.052111 -0.629935 -0.121699 204 51 127
0.213376 0.712296 -0.194267 0 255 0
-0.059581 0.837637 -0.056947 127 0 127
-0.145049 0.549100 -0.172363 0 255 0
-0.066754 -0.626952 -0.150459 204 51 127
0.318141 -0.754866 -0.172363 0 255 0
-0.410602 -0.409026 0.132432 153 0 76
-0.448600 -0.200311 0.073820 127 127 0
0.416789 -0.403140 -0.150459 0 255 0
0.218874 -0.078477 -0.150459 0 255 0
-0.063218 -0.702395 -0.172363 0 255 0
-0.199958 0.199391 -0.172363 0 255 0
0.385272 0.036449 0.153722 76 0 153
0.112448 0.786528 0.002594 127 0 127
-0.291651 0.305561 0.164028 76 0 153
0.417171 -0.432473 -0.150459 0 255 0
0.387264 0.624156 -0.172363 0 255 0
0.493275 -0.267373 0.095212 255 0 0
-0.373133 -0.345367 0.154974 153 0 76
0.464050 0.072025 -0.193328 255 0 0
0.493275 -0.559489 -0.148500 255 0 0
-0.025080 -0.520746 0.175267 153 0 76
-0.121382 0.341758 0.182947 76 0 153
0.449467 -0.514812 0.095099 255 0 0
-0.305552 -0.349695 -0.150459 0 255 0
0.091000 0.544619 0.186419 76 0 153
0.413983 0.607652 0.153713 76 0 153
0.256072 0.263787 0.168077 76 0 153
-0.472983 0.837637 0.147861 127 0 127
0.487913 0.221898 -0.194267 255 0 0
0.493275 -0.677698 0.083441 255 0 0
0.101601 0.379348 0.192587 76 0 153
0.254941 -0.445979 -0.172363 0 255 0
0.104487 -0.392317 -0.172363 0 255 0
-0.067567 -0.464334 -0.172363 0 255 0
0.493275 -0.530663 -0.156787 255 0 0
0.449467 -0.244709 -0.045983 255 0 0
0.496756 -0.812469 -0.159104 127 127 0
-0.236039 0.837637 -0.163816 127 0 127
0.127800 0.209477 -0.150459 0 255 0
0.458108 0.127476 0.171327 153 76 0
-0.412091 0.589391 -0.173359 0 255 0
-0.118022 0.176824 -0.172363 0 255 0
-0.173508 -0.180006 -0.150459 0 255 0
-0.332985 -0.761360 0.047703 127 127 0
-0.391250 -0.035210 0.160308 153 0 76
-0.237256 0.837637 0.151794 127 0 127
0.165500 -0.103054 0.185487 76 0 153
-0.266489 0.807425 -0.194267 127 0 127
-0.426316 0.253532 -0.124485 127 0 127
0.474044 0.056106 0.125479 153 76 0
-0.321731 -0.547591 0.168032 76 0 153
0.225843 -0.720814 -0.172363 0 255 0
-0.053323 -0.199155 0.049372 127 127 0
0.006215 0.678909 -0.172363 0 255 0
-0.504854 0.837637 -0.031844 127 0 127
-0.448600 -0.653541 -0.019174 0 0 255
-0.197626 -0.670093 0.062021 204 51 127
-0.130789 0.171638 -0.150459 0 255 0
0.011616 -0.637372 -0.150459 204 51 127
-0.448600 -0.396309 -0.132139 0 0 255
0.493275 0.089983 -0.165827 255 0 0
-0.221289 0.555145 -0.172363 0 255 0
0.456790 0.320232 0.171474 153 76 0
0.263255 0.837357 -0.194267 127 0 127
-0.492408 -0.245899 -0.102370 0 0 255
0.416341 -0.683401 -0.150459 0 255 0
0.283770 -0.184553 0.076449 127 127 0
-0.064327 -0.670093 0.054595 204 51 127
0.360640 -0.080229 -0.172363 0 255 0
0.449467 0.662592 0.091987 255 0 0
-0.429020 0.442864 0.174463 153 0 76
0.130851 -0.571465 -0.150459 0 255 0
-0.306932 0.262460 -0.150459 0 255 0
0.026317 0.189475 0.175226 153 76 0
0.493275 0.370605 -0.005693 255 0 0
-0.476538 -0.235733 -0.194267 0 0 255
0.099242 -0.151162 -0.172363 0 255 0
-0.185796 0.761406 0.157410 153 0 76
0.428494 0.727702 -0.194267 0 255 0
0.375765 -0.280207 0.154778 76 0 153
0.493275 0.348948 -0.061785 255 0 0
0.449467 0.313926 -0.020050 255 0 0
0.285336 -0.404839 -0.172363 0 255 0
-0.353795 0.003247 -0.150459 0 255 0
-0.350262 -0.812469 0.173108 127 127 0
-0.329374 0.200385 0.167183 76 0 153
0.471056 0.397146 0.125811 153 76 0
0.391004 -0.491295 0.178311 153 76 0
0.086067 0.657567 -0.172363 0 255 0
-0.484596 0.813687 -0.006098 0 0 255
-0.458709 0.804471 0.094113 0 0 255
0.104226 -0.635134 0.192295 76 0 153
0.449467 0.701989 -0.102786 255 0 0
-0.463183 0.328230 -0.163103 0 255 0
-0.019785 -0.243189 -0.172363 0 255 0
-0.084606 0.837637 -0.105855 127 0 127
0.241486 -0.718737 0.151319 153 76 0
0.057373 0.238929 -0.119353 127 0 127
-0.202478 0.571408 0.181282 76 0 153
0.493275 0.684530 0.020482 255 0 0
-0.448600 -0.359172 -0.007648 0 0 255
-0.229261 0.171189 -0.172363 0 255 0
-0.448600 0.447967 -0.092244 0 0 255
0.091052 -0.297636 0.193759 76 0 153
-0.140568 0.238929 0.119845 127 0 127
-0.130649 -0.761360 0.043298 127 127 0
-0.074433 0.082592 -0.150459 0 255 0
-0.362272 0.253532 -0.003544 127 0 127
-0.223966 -0.199155 0.134124 127 127 0
0.201169 0.722738 0.199876 153 76 0
-0.314230 0.505604 -0.150459 0 255 0
0.408767 0.837637 0.016573 127 0 127
0.158886 -0.761360 0.190442 127 127 0
0.126957 0.472104 -0.150459 0 255 0
0.464050 -0.325460 -0.157040 0 255 0
0.071724 -0.184553 -0.128370 127 127 0
-0.075237 0.801130 -0.162422 127 0 127
-0.127527 0.837637 0.147192 127 0 127
0.229949 -0.748708 0.152601 153 76 0
-0.448600 0.361311 0.053493 0 0 255
-0.385457 0.361310 0.136193 153 0 76
0.002190 -0.741869 0.177907 153 76 0
0.493275 -0.303004 -0.162693 255 0 0
0.449467 0.616224 0.095773 255 0 0
-0.109326 -0.155612 -0.172363 0 255 0
0.493275 0.121423 -0.140063 255 0 0
0.234990 0.229032 -0.150459 0 255 0
-0.421811 0.054854 -0.172363 0 255 0
-0.088103 0.463057 -0.150459 0 255 0
-0.390366 0.640457 0.153059 153 0 76
-0.116865 0.278290 0.183449 76 0 153
0.241499 0.635549 0.169697 76 0 153
0.449467 -0.646544 0.051472 255 0 0
-0.218723 0.512557 -0.150459 0 255 0
-0.110740 0.692451 0.165750 153 0 76
-0.436797 0.414372 -0.150459 0 0 255
-0.263767 -0.764495 0.221107 127 127 0
0.211618 -0.544122 0.180363 76 0 153
-0.464533 -0.388321 0.126439 0 0 255
0.454792 0.718658 0.171696 153 76 0
-0.357698 -0.629935 0.106024 204 51 127
0.493275 0.166941 -0.046181 255 0 0
-0.400450 0.279518 -0.150459 0 255 0
-0.448600 0.588548 -0.015339 0 0 255
0.467357 -0.668413 0.140914 255 0 0
0.319661 -0.298708 -0.172363 0 255 0
0.493275 -0.061904 0.036910 255 0 0
-0.262792 -0.199155 0.052240 127 127 0
0.367830 0.066188 -0.172363 0 255 0
-0.050681 -0.669659 -0.150459 204 51 127
0.011440 0.441801 0.213611 153 76 0
-0.492408 -0.599957 0.025071 0 0 255
0.470651 0.272974 0.125856 153 76 0
-0.492408 -0.293592 0.131526 153 0 76
0.275229 0.550750 -0.172363 0 255 0
0.449467 0.048372 0.072870 255 0 0
-0.446534 -0.506165 0.128439 153 0 76
0.510128 -0.812469 0.186882 127 127 0
-0.463183 -0.260205 -0.190570 0 0 255
0.025540 -0.076724 -0.172363 0 255 0
-0.396544 0.606116 -0.150459 0 255 0
-0.080515 -0.184553 0.020747 127 127 0
-0.072519 0.182632 0.188376 76 0 153
-0.410969 -0.493229 0.134389 153 0 76
0.493275 0.136351 0.044760 255 0 0
-0.466894 0.462021 0.126177 0 0 255
0.198442 -0.461347 -0.150459 0 255 0
-0.317220 -0.761360 0.085173 127 127 0
0.234552 -0.120734 -0.150459 0 255 0
-0.115040 -0.050391 0.183651 76 0 153
0.047556 0.034318 -0.150459 0 255 0
-0.209975 0.837637 -0.049129 127 0 127
0.512967 0.798918 -0.126702 127 0 127
-0.455355 0.551979 -0.172363 0 0 255
-0.103073 0.837637 0.228801 127 0 127
-0.492408 -0.043185 -0.075703 0 0 255
0.193487 0.405766 -0.172363 0 255 0
-0.476694 0.764874 0.125088 153 0 76
0.471481 0.837637 0.024440 127 0 127
-0.168718 0.278221 -0.172363 0 255 0
-0.492408 -0.131908 -0.036659 0 0 255
0.449467 -0.350895 0.035769 255 0 0
0.056815 -0.587916 -0.150459 0 255 0
-0.296590 0.702473 -0.176103 0 255 0
-0.020271 0.275378 0.175802 153 0 76
-0.400183 0.332330 0.177667 153 0 76
-0.315628 -0.117619 -0.150459 0 255 0
-0.085419 -0.812469 0.144660 127 127 0
0.429196 0.837637 -0.029965 127 0 127
-0.492408 -0.721727 0.006513 0 0 255
0.450988 0.715355 -0.172363 0 255 0
0.449467 -0.405130 -0.013320 255 0 0
0.105563 0.226008 -0.172363 0 255 0
0.327593 0.253532 0.071036 127 0 127
0.232013 -0.199155 -0.112377 127 127 0
0.493275 0.032353 -0.082998 255 0 0
0.044278 0.385326 0.182952 153 76 0
-0.375723 0.786528 0.147999 153 0 76
0.493275 0.050405 0.084242 255 0 0
-0.043587 0.382563 0.184542 153 0 76
0.478572 0.545728 0.124976 153 76 0
-0.056353 0.312795 -0.172363 0 255 0
0.015637 0.786528 0.058714 127 0 127
-0.377036 0.786528 0.015653 127 0 127
0.042323 0.837637 -0.032548 127 0 127
0.080684 0.178071 -0.172363 0 255 0
0.027151 -0.312051 -0.172363 0 255 0
0.153337 -0.676733 0.205191 153 76 0
0.265593 -0.812469 -0.022370 127 127 0
-0.064308 -0.451634 -0.150459 0 255 0
-0.004338 0.341108 0.214304 153 0 76
-0.492408 -0.696956 -0.024173 0 0 255
-0.376030 0.786528 -0.107627 127 0 127
-0.284298 -0.812469 -0.117157 127 127 0
-0.159994 0.282015 0.186003 76 0 153
-0.492408 -0.375722 0.152788 153 0 76
-0.387190 0.488265 0.135033 153 0 76
-0.405866 0.808507 0.224278 127 0 127
0.307167 0.837637 0.092047 127 0 127
-0.231946 0.465947 -0.150459 0 255 0
-0.315615 0.445742 -0.172363 0 255 0
-0.415569 0.668984 -0.172363 0 255 0
0.244896 0.218762 0.176665 76 0 153
-0.053496 0.786528 -0.048326 127 0 127
-0.213833 -0.744953 0.154295 153 0 76
-0.147367 -0.644760 0.161680 153 0 76
0.493275 -0.353089 -0.013200 255 0 0
0.449229 -0.354418 0.172314 153 76 0
0.251050 0.367279 -0.172363 0 255 0
-0.114541 -0.337955 0.183707 76 0 153
-0.164344 -0.812469 0.147548 127 127 0
-0.492408 -0.528347 0.147801 153 0 76
0.393566 0.837637 -0.175330 127 0 127
-0.236636 0.736433 0.195839 153 0 76
-0.068011 0.837637 0.188379 127 0 127
0.078564 0.709336 0.169421 153 76 0
0.476854 0.364891 -0.194267 255 0 0
-0.483628 -0.761360 0.034133 0 0 255
-0.025102 0.643364 -0.190141 0 255 0
0.045984 -0.082783 0.198304 76 0 153
-0.329455 0.118166 -0.172363 0 255 0
-0.362797 -0.164014 -0.172363 0 255 0
0.493275 0.356559 0.031445 255 0 0
-0.492408 -0.002950 -0.062310 0 0 255
0.509923 -0.770706 0.134276 127 127 0
0.399019 0.084641 -0.172363 0 255 0
-0.525264 0.820511 0.149517 127 0 127
0.096260 -0.670093 -0.066862 204 51 127
0.118446 0.837637 -0.018053 127 0 127
0.412816 0.445915 0.132282 153 76 0
-0.012530 -0.660744 0.176662 204 51 127
-0.120898 0.003725 -0.150459 0 255 0
0.469592 -0.101564 0.170051 153 76 0
-0.345973 0.769079 0.183690 153 0 76
0.449467 -0.547627 -0.076826 255 0 0
0.136685 0.253532 0.032324 127 0 127
-0.051909 -0.629935 0.012927 204 51 127
-0.448600 0.510308 0.054758 0 0 255
-0.046662 -0.196345 0.158177 127 127 0
0.371481 0.762471 -0.194267 0 255 0
0.184385 0.422581 -0.150459 0 255 0
0.299994 0.741191 0.144818 153 76 0
-0.457109 -0.785721 -0.116191 127 127 0
-0.322736 0.253532 -0.122833 127 0 127
-0.012566 0.270257 -0.150459 0 255 0
-0.056763 0.586731 -0.150459 0 255 0
-0.394322 0.169037 -0.150459 0 255 0
0.065240 -0.240746 0.170902 153 76 0
-0.154312 0.837637 0.225338 127 0 127
-0.194046 0.783140 -0.172363 0 255 0
0.146760 0.769355 0.205922 153 76 0
0.353513 -0.228267 -0.172363 0 255 0
-0.245200 -0.655490 0.170346 76 0 153
0.009277 -0.184553 -0.098030 127 127 0
0.288923 -0.629935 -0.105454 204 51 127
-0.049162 0.712281 0.172592 153 0 76
-0.492408 0.214936 -0.110065 0 0 255
-0.289809 0.222449 -0.150459 0 255 0
-0.223027 0.253532 -0.012080 127 0 127
0.312364 0.828336 0.238361 127 0 127
-0.148691 -0.431841 -0.150459 0 255 0
-0.168513 -0.058826 0.185056 76 0 153
-0.492408 0.504145 -0.005704 0 0 255
0.000434 -0.081535 0.192458 153 76 0
-0.202324 -0.480063 0.173953 76 0 153
-0.200338 -0.468984 -0.172363 0 255 0
-0.435659 -0.812469 0.023697 127 127 0
0.163363 0.837637 0.015246 127 0 127
-0.448600 0.397428 0.091779 0 0 255
-0.295443 -0.100000 -0.172363 0 255 0
0.493275 -0.506392 -0.142121 255 0 0
-0.095056 0.253532 -0.023006 127 0 127
-0.436628 -0.184553 0.018490 127 127 0
-0.132537 -0.192016 -0.172363 0 255 0
-0.116963 -0.662070 -0.172363 0 255 0
-0.261013 0.644993 0.174778 76 0 153
0.497048 -0.761360 -0.116079 127 127 0
0.184863 -0.156037 0.183336 76 0 153
-0.313298 0.018388 -0.172363 0 255 0
0.295873 -0.184553 -0.125545 127 127 0
-0.000864 -0.812469 -0.005676 127 127 0
0.183038 0.837637 -0.181654 127 0 127
0.044176 0.837637 0.174575 127 0 127
0.032070 0.122370 -0.172363 0 255 0
0.449467 0.672886 -0.098436 255 0 0
0.442613 -0.035760 -0.150459 0 255 0
-0.294830 0.334802 -0.172363 0 255 0
0.235308 0.616076 -0.194267 0 255 0
-0.434826 -0.464956 -0.150459 0 255 0
0.010269 -0.589862 -0.150459 0 255 0
0.385364 -0.534536 -0.172363 0 255 0
0.299648 0.312728 -0.150459 0 255 0
0.485298 0.815733 -0.047584 255 0 0
-0.088371 -0.026912 -0.150459 0 255 0
0.040524 -0.123792 -0.172363 0 255 0
0.298456 -0.121079 -0.150459 0 255 0
0.359910 0.087464 -0.150459 0 255 0
-0.086750 0.716989 -0.172363 0 255 0
0.129534 -0.761360 0.085417 127 127 0
0.382499 0.734108 -0.172363 0 255 0
-0.293080 0.499372 0.171215 76 0 153
0.177910 -0.812469 0.174290 127 127 0
-0.089405 -0.422278 -0.172363 0 255 0
-0.045035 0.186767 0.197572 153 0 76
0.129317 0.741141 -0.172363 0 255 0
0.064896 -0.199342 -0.172363 0 255 0
0.449467 0.475282 0.014191 255 0 0
-0.122761 -0.198855 0.190140 76 0 153
-0.467539 0.837637 0.016349 127 0 127
-0.448600 -0.709403 0.092170 0 0 255
0.493275 0.083733 0.035839 255 0 0
0.449467 0.760161 -0.047897 255 0 0
0.363494 -0.673961 -0.172363 0 255 0
0.493275 0.616010 0.026257 255 0 0
0.389036 -0.668668 -0.172363 0 255 0
-0.448600 -0.652965 0.117559 204 51 127
0.409940 0.122044 0.150981 76 0 153
-0.212649 -0.622714 -0.150459 0 255 0
-0.456479 0.813417 0.029727 0 0 255
0.437802 0.322681 -0.172363 0 255 0
-0.440104 -0.781137 -0.194267 127 127 0
0.486528 -0.302721 0.168169 153 76 0
0.493275 0.227344 0.079220 255 0 0
0.493275 -0.616721 0.008216 255 0 0
-0.448600 -0.380116 0.039495 0 0 255
-0.071660 0.092498 0.195818 76 0 153
0.449467 -0.675767 -0.083357 204 51 127
0.189995 -0.749572 -0.150459 0 255 0
0.320875 0.775124 -0.150459 0 255 0
-0.199010 -0.670093 -0.009869 204 51 127
-0.492408 0.031274 0.032277 0 0 255
0.177243 -0.706933 -0.150459 0 255 0
0.048322 0.566280 0.209513 76 0 153
0.368179 0.238929 -0.056167 127 0 127
-0.410299 -0.597204 -0.172363 0 255 0
0.493275 0.150117 0.164306 153 76 0
-0.366659 -0.199155 -0.032940 127 127 0
0.029093 0.786528 0.038143 127 0 127
-0.416886 -0.762464 0.202050 127 127 0
0.391244 0.762395 0.149371 153 76 0
0.260619 0.238929 -0.102876 127 0 127
-0.280376 -0.650108 0.190979 153 0 76
-0.138934 -0.736057 -0.172363 0 255 0
0.177928 0.084965 -0.172363 0 255 0
-0.210372 0.253532 -0.114887 127 0 127
0.229312 -0.393066 -0.150459 0 255 0
0.523448 0.837637 -0.042068 127 0 127
-0.008989 -0.467014 -0.150459 0 255 0
-0.018054 -0.707084 -0.172363 0 255 0
-0.272672 -0.743095 0.191835 153 0 76
-0.201349 -0.812469 0.066747 127 127 0
0.109597 0.713783 0.210051 153 76 0
-0.471013 0.286578 0.125719 153 0 76
0.285014 0.786528 0.015653 127 0 127
-0.398713 -0.756899 -0.150459 0 255 0
-0.186535 0.049133 0.175707 76 0 153
0.457170 -0.788952 -0.017436 255 0 0
0.116129 -0.707824 -0.172363 0 255 0
0.183233 0.279369 -0.172363 0 255 0
-0.021855 0.517850 0.175626 153 0 76
-0.448600 -0.238856 0.101888 0 0 255
-0.085201 0.659631 -0.194267 0 255 0
0.431097 -0.761360 -0.057079 127 127 0
0.464050 0.135567 -0.159449 255 0 0
0.147104 0.749052 -0.194267 0 255 0
0.156393 0.483261 -0.150459 0 255 0
0.061627 0.425452 -0.150459 0 255 0
-0.216300 0.756248 0.198098 153 0 76
-0.309693 0.726257 0.143644 153 0 76
-0.210616 -0.812469 0.109058 127 127 0
-0.086604 -0.700483 0.168431 153 0 76
0.322219 0.418402 -0.150459 0 255 0
0.307088 -0.476978 -0.172363 0 255 0
0.449467 -0.303742 0.103579 255 0 0
0.133379 -0.208435 0.189056 76 0 153
-0.374064 0.056031 0.154871 76 0 153
0.034300 0.636290 -0.172363 0 255 0
-0.463183 -0.290518 -0.153452 0 0 255
0.035885 -0.447882 -0.150459 0 255 0
-0.419164 0.055369 0.131480 153 0 76
-0.223838 -0.067315 -0.172363 0 255 0
-0.466003 0.229450 0.126276 153 0 76
0.135762 -0.812469 -0.010110 127 127 0
-0.492408 -0.326597 0.151004 153 0 76
-0.099941 -0.761360 0.095967 127 127 0
0.472844 -0.566378 0.125612 255 0 0
0.024558 -0.361795 -0.172363 0 255 0
-0.178837 -0.761360 -0.128974 127 127 0
-0.368353 -0.002530 -0.172363 0 255 0
0.436705 -0.775962 -0.189323 127 127 0
0.086909 -0.761360 0.130940 127 127 0
-0.291317 0.786528 0.044102 127 0 127
-0.407896 -0.388654 -0.172363 0 255 0
0.097781 0.193195 0.193012 76 0 153
-0.468179 -0.098175 0.126034 153 0 76
-0.395930 -0.670093 -0.028020 204 51 127
-0.480074 -0.770382 0.090855 0 0 255
-0.394239 -0.450231 0.134250 153 0 76
-0.292810 -0.138021 0.171245 76 0 153
-0.492408 0.724044 -0.168714 0 0 255
-0.463183 -0.101346 -0.193439 0 0 255
0.146886 -0.208590 -0.150459 0 255 0
0.161228 0.786528 0.224775 127 0 127
-0.149789 0.837637 -0.006745 127 0 127
0.449467 0.047740 -0.051561 255 0 0
0.274621 0.170725 -0.172363 0 255 0
-0.416721 -0.337743 0.175829 153 0 76
-0.253181 0.207945 0.175649 76 0 153
-0.350117 -0.651293 0.157532 76 0 153
0.492255 0.470409 0.123455 153 76 0
0.085459 0.020960 -0.172363 0 255 0
0.356296 0.542215 0.164288 76 0 153
0.117755 0.796121 -0.150459 0 255 0
0.270907 0.786528 0.093244 127 0 127
-0.056831 -0.761360 0.234640 127 127 0
0.069461 -0.421174 0.178192 153 76 0
0.493275 -0.345563 0.146218 153 76 0
-0.337784 -0.199155 -0.131449 127 127 0
-0.448600 0.141673 0.063408 0 0 255
0.179360 -0.301760 -0.172363 0 255 0
0.439985 0.756383 0.158648 153 76 0
0.463427 -0.072266 0.170736 153 76 0
0.387560 -0.670093 -0.054430 204 51 127
0.385985 -0.788492 0.230181 127 127 0
0.161843 0.311685 -0.150459 0 255 0
-0.213231 0.305173 -0.150459 0 255 0
0.200212 -0.699130 -0.172363 0 255 0
-0.172802 0.458565 -0.150459 0 255 0
0.464050 0.018981 -0.193184 255 0 0
0.026313 0.837637 0.194246 127 0 127
0.024067 0.238929 0.017176 127 0 127
-0.021058 0.601641 -0.150459 0 255 0
-0.250038 0.120812 -0.150459 0 255 0
0.493275 -0.690906 -0.041871 255 0 0
-0.431658 -0.722056 -0.150459 0 255 0
-0.300967 0.105920 0.170339 76 0 153
0.034429 0.673017 -0.172363 0 255 0
-0.038192 -0.583374 0.173811 153 0 76
0.449467 0.205240 -0.095207 255 0 0
-0.461016 -0.812469 0.105348 127 127 0
0.490430 -0.544477 0.167736 153 76 0
0.230352 0.140444 0.178282 76 0 153
-0.081103 0.307487 0.194768 76 0 153
0.126147 -0.641696 0.182514 153 76 0
-0.405083 -0.629935 -0.012411 204 51 127
-0.300203 0.837637 0.042697 127 0 127
0.449467 0.004651 0.042716 255 0 0
0.286263 0.837637 0.057648 127 0 127
0.382712 -0.184553 0.042840 127 127 0
-0.193783 0.837637 -0.170134 127 0 127
0.449467 0.485983 -0.108204 255 0 0
-0.261806 -0.166144 0.174690 76 0 153
-0.424766 -0.632828 0.130858 153 0 76
-0.128717 -0.629935 -0.104779 204 51 127
0.196434 0.655638 -0.172363 0 255 0
0.276007 0.219024 0.165862 76 0 153
0.493275 -0.280915 -0.052851 255 0 0
0.129142 -0.167696 -0.150459 0 255 0
0.142619 0.786528 -0.067050 127 0 127
-0.011578 0.051050 -0.172363 0 255 0
0.114259 0.050723 0.183834 76 0 153
-0.445358 0.763885 0.172648 153 0 76
-0.193922 0.786528 0.209840 153 0 76
0.217151 -0.774536 -0.172363 127 127 0
0.060539 -0.761360 0.101210 127 127 0
0.256850 0.594735 0.175337 76 0 153
0.257144 -0.364280 -0.172363 0 255 0
0.388710 0.536826 0.134960 153 76 0
0.148151 -0.598409 -0.150459 0 255 0
-0.295081 0.740947 -0.194267 0 255 0
-0.246879 -0.159134 -0.150459 0 255 0
0.443947 -0.645182 -0.150459 204 51 127
0.214959 0.042242 -0.172363 0 255 0
0.500231 0.837637 -0.006537 127 0 127
-0.166889 -0.184553 0.126579 127 127 0
-0.430169 -0.663055 0.159643 153 0 76
0.005648 0.696268 -0.150459 0 255 0
0.463998 -0.761568 0.070616 127 127 0
0.493275 -0.675011 -0.124283 255 0 0
-0.148126 -0.355579 0.179975 76 0 153
0.381967 0.224822 -0.172363 0 255 0
0.438846 -0.100274 -0.150459 255 0 0
0.025730 0.408240 0.212023 153 76 0
0.470358 -0.054581 0.125888 255 0 0
-0.525264 0.832369 0.049939 127 0 127
0.012265 0.786528 0.234019 127 0 127
-0.057681 0.786528 0.035288 127 0 127
0.071436 -0.678248 0.195965 153 76 0
0.379785 -0.812469 0.111248 127 127 0
0.411943 -0.592888 0.135352 153 76 0
0.376011 0.749429 0.180449 153 76 0
-0.457642 0.808753 -0.016737 0 0 255
-0.053091 0.238929 -0.090364 127 0 127
0.349278 0.436213 -0.150459 0 255 0
-0.218317 0.655336 -0.194267 0 255 0
-0.154190 -0.670093 -0.103616 204 51 127
-0.050755 -0.398788 -0.150459 0 255 0
0.472876 -0.379852 0.125609 255 0 0
-0.069735 -0.152900 0.188462 76 0 153
-0.308239 -0.761360 0.129526 153 0 76
-0.171470 -0.761360 0.070538 127 127 0
0.476584 0.647823 0.125197 153 76 0
0.449467 -0.693709 -0.007180 255 0 0
0.449467 -0.207543 0.078411 127 127 0
0.067211 -0.402696 -0.150459 0 255 0
-0.011198 -0.064801 0.176810 153 0 76
0.255990 0.238929 0.073791 127 0 127
-0.343227 -0.435175 0.165643 76 0 153
0.336862 0.655496 -0.194267 0 255 0
-0.448600 -0.678656 0.066366 0 0 255
0.174330 -0.323326 0.184506 76 0 153
-0.158054 -0.694990 0.160493 153 0 76
0.473977 0.583622 -0.194267 255 0 0
-0.308359 0.337054 -0.150459 0 255 0
-0.492408 -0.243741 -0.046297 0 0 255
0.119950 0.684309 0.193299 76 0 153
0.482683 0.786528 -0.084583 255 0 0
-0.204853 -0.664021 0.155293 153 0 76
-0.118713 0.776057 -0.194267 0 255 0
0.369017 0.813549 -0.194267 127 0 127
-0.073614 0.250626 0.155182 127 0 127
-0.429136 -0.536389 -0.172363 0 255 0
-0.412239 -0.371253 0.145821 76 0 153
-0.193632 -0.539398 -0.172363 0 255 0
-0.392896 -0.323478 -0.172363 0 255 0
0.493275 -0.468639 0.130533 153 76 0
-0.448600 0.028746 -0.033445 0 0 255
0.385507 -0.199155 -0.081488 127 127 0
0.428978 -0.175250 -0.150459 127 127 0
0.231702 0.786528 -0.122400 127 0 127
0.310985 0.715041 -0.150459 0 255 0
-0.237754 -0.288252 -0.150459 0 255 0
0.318717 -0.761360 -0.127501 127 127 0
-0.448600 -0.465154 0.025766 0 0 255
-0.293732 0.083211 -0.150459 0 255 0
0.043959 -0.105302 0.180086 153 76 0
0.216370 -0.657858 0.154109 204 51 127
0.192877 0.264754 -0.150459 0 255 0
-0.448600 0.109293 -0.026403 0 0 255
0.073951 -0.629935 0.091114 204 51 127
-0.492408 0.696731 -0.064020 0 0 255
0.261269 -0.645138 0.174846 153 76 0
-0.384916 0.699082 -0.172363 0 255 0
0.202207 -0.761360 0.130487 127 127 0
0.025880 -0.184553 -0.050293 127 127 0
0.036498 -0.330116 -0.150459 0 255 0
0.243849 -0.199155 -0.082216 127 127 0
0.469597 0.347986 0.125973 255 0 0
-0.391842 0.603875 0.178594 153 0 76
-0.151669 -0.601614 0.179581 76 0 153
-0.018466 -0.761360 -0.086681 127 127 0
-0.463183 -0.719271 -0.194048 0 0 255
0.449467 0.113849 -0.052124 255 0 0
0.105066 0.465340 0.184856 76 0 153
-0.448600 0.284625 -0.091684 0 0 255
0.045453 0.283069 0.191480 76 0 153
-0.003336 -0.812469 0.159480 127 127 0
0.408330 -0.490562 -0.172363 0 255 0
-0.434848 -0.761360 -0.097904 0 0 255
-0.164668 0.188449 -0.172363 0 255 0
0.182660 -0.721565 0.157855 153 76 0
0.469860 -0.023945 0.170022 153 76 0
-0.352189 -0.066160 -0.172363 0 255 0
-0.421303 0.611764 -0.150459 0 255 0
-0.109055 -0.313321 -0.172363 0 255 0
-0.492408 0.275085 0.108472 0 0 255
-0.144299 -0.698045 0.206099 153 0 76
-0.077602 0.709863 0.173725 153 0 76
-0.251181 0.837637 0.131905 127 0 127
0.076443 0.612117 -0.194267 0 255 0
-0.397556 0.837637 0.042819 127 0 127
0.243318 -0.419469 -0.172363 0 255 0
0.151795 0.668219 0.179664 76 0 153
0.001103 -0.812469 -0.068329 127 127 0
0.334937 0.837637 0.051969 127 0 127
-0.232688 -0.407066 -0.172363 0 255 0
-0.351650 -0.515585 -0.172363 0 255 0
-0.448600 0.271154 0.010686 0 0 255
0.493275 -0.178157 0.025830 255 0 0
-0.013979 -0.629935 0.074766 204 51 127
-0.347247 -0.812469 -0.097632 127 127 0
0.062924 -0.045230 -0.172363 0 255 0
-0.288792 -0.812469 -0.165419 127 127 0
-0.376973 0.774455 0.180246 127 0 127
-0.492408 -0.603921 -0.019048 0 0 255
0.004470 -0.337392 0.177654 153 76 0
0.031315 -0.812469 0.022236 127 127 0
-0.448600 -0.027155 0.067362 0 0 255
-0.246265 0.037687 0.176417 76 0 153
0.182756 -0.070447 -0.150459 0 255 0
0.053360 -0.570704 0.190601 153 76 0
-0.242242 0.328347 -0.172363 0 255 0
-0.156385 0.384602 -0.150459 0 255 0
0.411270 0.485208 -0.150459 0 255 0
0.120860 0.136155 -0.150459 0 255 0
-0.215315 -0.031950 0.172510 76 0 153
0.026030 -0.119085 -0.150459 0 255 0
0.146912 -0.199155 -0.028824 127 127 0
0.256497 -0.761360 0.053000 127 127 0
0.422256 -0.634758 0.160618 153 76 0
0.493275 0.727546 0.077305 255 0 0
0.476554 0.216536 0.125200 153 76 0
-0.492408 0.264501 0.062391 0 0 255
-0.242612 0.180130 0.169477 76 0 153
-0.414875 -0.029621 0.131957 153 0 76
0.063871 0.216175 0.171054 153 76 0
0.430496 -0.199155 0.028404 127 127 0
0.119294 -0.484281 -0.150459 0 255 0
-0.273312 0.253532 0.072015 127 0 127
-0.187186 0.735736 -0.172363 0 255 0
-0.202882 0.238929 0.091879 127 0 127
0.449467 -0.084503 -0.025389 255 0 0
0.493275 -0.587726 0.107667 255 0 0
-0.447571 0.670217 -0.172363 0 255 0
-0.046471 0.560922 0.191270 153 0 76
-0.194946 -0.184553 0.039613 127 127 0
0.247743 -0.760091 -0.150459 127 127 0
-0.048620 0.670484 -0.172363 0 255 0
0.369233 0.253532 0.057141 127 0 127
-0.262978 0.352534 -0.150459 0 255 0
0.159594 -0.812469 0.084876 127 127 0
-0.018765 0.786528 0.021923 127 0 127
