ply
format ascii 1.0
element vertex 1266
property float x
property float y
property float z
property uchar red
property uchar green
property uchar blue
end_header
-0.168516 -0.250930 -0.249992 204 51 127
-0.231628 0.715010 -0.185707 255 0 0
-0.370301 -0.230757 -0.233841 204 51 127
0.111502 0.038941 0.276822 153 0 76
0.206403 -0.729864 -0.159113 76 0 153
-0.472069 0.715528 0.245318 0 127 127
0.193399 0.284119 -0.249992 204 51 127
0.238706 0.465097 0.211023 76 0 153
0.238706 0.502760 0.110006 76 0 153
-0.582716 0.503057 0.245318 0 255 0
0.225015 -0.275897 0.259058 153 0 76
0.619162 0.349065 0.117725 153 76 0
0.295197 0.636439 0.247017 153 0 76
-0.608347 -0.148064 0.108660 76 0 153
-0.586811 -0.420837 0.129429 76 0 153
0.619162 -0.735522 0.030469 153 76 0
0.079803 -0.144661 0.268873 153 0 76
-0.295503 0.715010 0.111544 255 0 0
-0.083986 0.632310 -0.249992 204 51 127
0.087149 -0.179785 -0.233841 204 51 127
0.659626 0.645033 -0.249992 0 127 127
-0.256952 -0.608410 -0.233841 204 51 127
-0.606164 0.736546 0.150722 255 0 0
0.468003 -0.068079 -0.233841 204 51 127
-0.409204 -0.547459 -0.233841 204 51 127
0.572218 0.510231 0.245318 153 0 76
-0.500670 0.611048 -0.253567 127 127 0
-0.447397 0.104141 0.247017 0 127 127
0.334445 -0.279820 -0.233841 204 51 127
-0.578325 -0.313037 0.245318 0 255 0
-0.294763 0.736546 0.061400 255 0 0
-0.453941 -0.296473 -0.249992 204 51 127
-0.608347 0.622075 -0.074891 76 0 153
-0.538203 -0.292579 0.245318 0 127 127
-0.206355 0.659832 0.038208 153 0 76
-0.174052 0.331403 0.075891 153 0 76
-0.045256 0.739237 0.260754 0 127 127
0.430570 0.100905 0.247017 153 0 76
0.662233 -0.264139 0.238534 153 0 76
-0.395479 -0.770921 0.150692 0 0 255
0.640697 0.122864 -0.205820 153 76 0
-0.269915 -0.770921 0.143792 0 0 255
-0.097960 -0.792457 -0.029102 0 0 255
0.640697 0.398117 -0.231091 153 76 0
-0.174052 -0.036062 0.112118 153 0 76
-0.008109 0.364784 -0.271527 76 153 0
-0.206355 0.150142 0.076461 153 0 76
0.619162 0.584180 0.151088 153 76 0
-0.206458 0.284106 0.247017 0 127 127
0.375442 0.574918 0.247017 153 0 76
0.238706 0.328084 -0.047911 76 0 153
-0.361405 -0.590276 -0.249992 204 51 127
0.581956 -0.191256 -0.271527 0 127 127
-0.390804 -0.294232 -0.249992 204 51 127
-0.206355 0.061854 -0.022736 153 0 76
-0.608347 -0.382408 0.056498 76 0 153
-0.426789 0.734760 -0.271527 255 0 0
0.044855 0.014816 0.245318 153 0 76
-0.586811 0.568056 -0.131952 76 0 153
-0.608347 0.417460 -0.173178 76 0 153
-0.206355 0.099512 0.085153 153 0 76
0.025307 -0.158463 0.269083 153 0 76
0.109121 -0.416955 -0.249992 204 51 127
-0.174052 0.563168 0.065454 153 0 76
0.597627 -0.550257 0.242956 127 0 127
0.206403 -0.193568 0.014276 76 0 153
0.566245 -0.246532 0.277091 153 0 76
-0.586811 -0.300915 0.185180 76 0 153
0.598027 -0.383964 0.213015 127 0 127
0.238706 -0.682303 -0.205467 76 0 153
-0.203253 0.396617 0.213015 153 0 76
-0.455870 -0.554607 0.247017 0 127 127
-0.174052 -0.540282 0.149177 153 0 76
-0.095564 -0.758990 0.268582 0 127 127
0.640697 -0.102681 0.209675 153 76 0
-0.522464 -0.551654 -0.271527 127 127 0
-0.247214 0.736546 -0.056077 255 0 0
-0.174052 0.458113 -0.044302 153 0 76
0.096308 0.551434 -0.233841 204 51 127
-0.214460 -0.323294 -0.249992 204 51 127
-0.558249 -0.770921 0.001176 0 0 255
0.640697 -0.639051 0.124520 153 76 0
-0.608347 -0.248414 -0.194349 76 0 153
-0.174621 0.574008 0.213015 153 0 76
-0.351763 0.449855 0.259058 0 127 127
0.448641 0.715010 0.158725 255 0 0
0.624058 -0.749590 -0.271527 0 127 127
-0.480210 -0.317921 0.259057 0 127 127
0.206403 -0.136847 0.144393 76 0 153
0.206403 -0.231859 -0.116637 76 0 153
0.382516 -0.109752 -0.233841 204 51 127
0.565343 -0.689850 -0.233841 204 51 127
0.133944 0.736546 -0.202796 255 0 0
-0.206355 -0.436764 0.176198 153 0 76
0.450836 0.715010 0.063984 255 0 0
0.238706 0.682189 0.016818 255 0 0
-0.066861 -0.738618 0.216372 153 0 76
0.049874 -0.398444 0.245318 153 0 76
-0.608347 0.676813 -0.232180 76 0 153
-0.323760 -0.792457 -0.241961 0 0 255
-0.601700 -0.030963 0.213015 0 255 0
0.243213 -0.800820 0.213015 153 0 76
0.623269 0.646926 0.213015 127 0 127
-0.174052 -0.040639 -0.201840 153 0 76
-0.114566 -0.113665 -0.249992 204 51 127
-0.586811 -0.328332 -0.041792 76 0 153
-0.608347 -0.312233 -0.108523 76 0 153
0.069948 -0.245050 0.245318 153 0 76
-0.289381 -0.027021 0.259058 0 127 127
0.165899 -0.084332 0.259058 153 0 76
0.206403 -0.037919 -0.165244 76 0 153
-0.009386 0.354330 0.268588 0 127 127
0.073553 0.376782 0.268575 153 0 76
-0.629882 0.707073 -0.256951 255 0 0
-0.219413 -0.772789 0.245318 0 127 127
0.206403 -0.732538 0.014285 76 0 153
-0.174052 0.312860 -0.221070 204 51 127
-0.206355 0.685444 -0.217924 153 0 76
0.516195 -0.217648 -0.249992 204 51 127
-0.608347 0.077001 -0.165647 76 0 153
-0.045892 -0.520693 0.245318 0 127 127
0.265644 0.715010 -0.015180 255 0 0
-0.465928 0.506004 0.259058 0 127 127
-0.240795 -0.792457 -0.052080 0 0 255
-0.451490 -0.792457 0.150084 0 0 255
0.640697 -0.169554 -0.153594 153 76 0
0.662233 -0.458334 0.225571 127 0 127
0.619162 0.569101 -0.014641 153 76 0
0.619162 0.076513 -0.093140 153 76 0
0.206403 0.541815 -0.050065 76 0 153
0.206403 0.566892 -0.201274 76 0 153
0.650887 -0.795148 0.263337 153 0 76
-0.275553 -0.687478 -0.233841 204 51 127
0.551808 -0.792457 -0.067567 0 0 255
-0.608347 0.595677 0.001383 76 0 153
0.538213 -0.724178 0.245318 153 0 76
0.045044 -0.646583 0.268590 153 0 76
-0.534278 0.446580 0.273875 0 127 127
0.201915 0.599295 -0.249992 76 0 153
0.612391 0.354108 -0.249992 0 127 127
-0.206355 -0.070836 -0.007504 153 0 76
-0.608347 0.144021 -0.008664 76 0 153
0.231677 0.332722 -0.233841 76 0 153
-0.586811 -0.001638 0.150224 76 0 153
-0.608347 0.377216 -0.223910 76 0 153
0.238706 -0.010104 -0.146353 76 0 153
0.032064 -0.037952 -0.249992 204 51 127
0.046627 0.208724 0.245318 153 0 76
-0.620306 0.531523 -0.271527 127 127 0
0.640697 -0.464689 -0.068935 153 76 0
-0.539388 -0.067930 -0.271527 127 127 0
-0.610001 0.259511 0.213015 0 255 0
-0.113951 0.430072 -0.249992 204 51 127
-0.471639 -0.770921 -0.034714 0 0 255
-0.175186 -0.222374 -0.233841 204 51 127
0.206403 0.423442 -0.106589 76 0 153
-0.206355 0.669217 0.147543 153 0 76
0.579129 -0.591504 -0.271527 0 127 127
0.413320 -0.461138 0.259058 153 0 76
0.619162 -0.626599 -0.007319 153 76 0
-0.206355 -0.633903 0.010259 153 0 76
0.238706 -0.012005 -0.039019 76 0 153
0.003704 -0.062739 0.245318 0 127 127
0.381674 0.736546 -0.041114 255 0 0
-0.174052 0.503327 -0.194557 153 0 76
0.156611 0.715010 -0.010746 255 0 0
0.619162 0.553871 0.194092 153 76 0
0.115131 0.003504 -0.233841 204 51 127
0.447974 0.736546 -0.000759 255 0 0
0.549709 -0.099431 0.247017 153 0 76
-0.174052 -0.010637 -0.084753 153 0 76
-0.206355 0.145340 -0.126408 153 0 76
-0.586811 -0.233747 0.067768 76 0 153
-0.519423 0.531100 0.245318 0 127 127
0.640697 0.673194 -0.022337 153 76 0
-0.037439 0.553279 0.268717 0 127 127
0.437356 -0.792457 -0.229140 0 0 255
0.238706 0.712682 0.072546 255 0 0
0.596639 0.207179 -0.249992 204 51 127
0.656208 0.342291 0.213015 127 0 127
0.252867 0.739517 0.213015 255 0 0
-0.608347 -0.151738 -0.190231 76 0 153
0.405625 0.206352 -0.233841 204 51 127
0.238706 0.327733 -0.202317 76 0 153
0.120592 0.000197 0.245715 153 0 76
0.268437 -0.437763 -0.233841 204 51 127
0.533321 -0.511425 -0.271527 0 127 127
-0.048430 -0.419434 -0.250507 76 153 0
0.117915 -0.241197 -0.249992 204 51 127
-0.508274 0.230628 -0.233841 204 51 127
0.417479 -0.394292 0.259058 153 0 76
-0.174052 0.444119 0.157031 153 0 76
-0.206355 -0.089825 0.098087 153 0 76
-0.586811 0.704632 -0.047786 255 0 0
0.619162 -0.045170 0.083078 153 76 0
-0.452180 -0.792457 0.040239 0 0 255
-0.006030 0.000460 -0.249992 76 153 0
0.078192 -0.792457 0.052826 0 0 255
-0.200159 -0.792457 -0.218144 0 0 255
-0.206355 0.111965 0.202994 153 0 76
0.101736 -0.792457 -0.061687 0 0 255
-0.586811 0.685728 -0.008002 76 0 153
0.638654 -0.792457 0.158060 0 0 255
-0.608347 -0.291466 0.134393 76 0 153
0.322948 0.186694 -0.249992 204 51 127
0.131989 -0.443532 0.247017 153 0 76
0.388715 0.435054 0.247017 153 0 76
0.631183 -0.803224 0.227785 153 0 76
-0.056791 0.661342 0.271923 0 127 127
0.238706 0.040259 0.137108 76 0 153
-0.586811 0.580235 -0.219595 76 0 153
0.109573 0.396227 0.245318 153 0 76
0.102662 0.736546 -0.168589 255 0 0
-0.586811 -0.384386 0.156544 76 0 153
-0.533075 0.715010 -0.094907 255 0 0
-0.552667 -0.034793 0.269506 0 127 127
0.661804 -0.792457 -0.173371 0 0 255
-0.116677 -0.669097 -0.233841 204 51 127
-0.523592 0.736546 0.083454 255 0 0
-0.408583 0.489769 0.259058 0 127 127
-0.307810 -0.770921 -0.018705 0 0 255
0.001877 -0.670061 0.245318 0 127 127
0.131680 -0.792457 0.012905 0 0 255
0.632255 0.301868 0.245318 127 0 127
-0.017998 0.715010 -0.049489 255 0 0
-0.604840 0.243156 -0.271527 127 127 0
0.206403 -0.609267 0.205226 76 0 153
0.376776 0.080140 0.259058 153 0 76
-0.425550 0.357135 -0.249992 204 51 127
0.619162 -0.423260 0.004159 153 76 0
0.575559 -0.515174 0.273594 153 0 76
-0.206355 -0.656260 0.139834 153 0 76
0.019409 0.058491 -0.233841 204 51 127
-0.006884 -0.644067 -0.249992 204 51 127
-0.206355 -0.747361 0.188088 153 0 76
-0.229461 -0.734310 0.245318 153 0 76
0.238706 0.167000 0.117910 76 0 153
-0.174052 0.096355 0.138054 153 0 76
-0.214833 0.410953 -0.249992 204 51 127
0.357240 -0.257986 0.247017 153 0 76
0.454510 -0.398132 -0.233841 204 51 127
-0.601346 0.019797 -0.271527 127 127 0
-0.174052 -0.089903 -0.155633 153 0 76
0.619162 -0.156245 -0.068361 153 76 0
-0.280954 0.715010 -0.046001 255 0 0
-0.356146 -0.792457 0.088716 0 0 255
0.605430 -0.002477 0.245318 127 0 127
0.188651 0.536378 -0.233841 76 0 153
-0.308329 -0.520444 0.259058 0 127 127
0.446002 -0.470242 -0.233841 204 51 127
-0.083469 -0.792457 -0.072962 0 0 255
-0.243026 -0.645864 0.247017 0 127 127
-0.618643 -0.062894 -0.249992 127 127 0
0.035761 0.715010 -0.155551 255 0 0
0.619162 0.090299 -0.028192 153 76 0
0.322942 -0.738618 0.220810 153 0 76
0.619162 0.079035 -0.228235 204 51 127
0.053353 0.281589 0.268586 153 0 76
0.178195 -0.349110 -0.249992 204 51 127
-0.174052 -0.129800 -0.220978 153 0 76
-0.614010 -0.792457 0.005861 0 0 255
0.039157 -0.117018 0.245318 153 0 76
-0.629882 0.254280 0.235552 0 255 0
0.619162 0.305009 0.052397 153 76 0
-0.038003 -0.770921 0.001875 0 0 255
0.619162 0.143937 -0.229819 204 51 127
-0.115466 0.167865 -0.233841 204 51 127
-0.101434 0.715010 0.061703 255 0 0
0.238706 0.448793 -0.167199 76 0 153
0.640697 -0.607529 -0.224116 153 76 0
-0.608347 -0.526325 0.151976 76 0 153
0.238706 -0.218730 0.091009 76 0 153
0.238706 -0.528272 -0.037001 76 0 153
0.428514 0.682707 0.213109 76 0 153
0.584851 -0.273100 -0.233841 204 51 127
0.472927 0.453922 0.259058 153 0 76
-0.586811 0.369474 0.024949 76 0 153
0.401189 -0.770921 -0.018606 0 0 255
-0.586811 -0.622545 -0.079673 76 0 153
-0.206200 -0.242589 0.247017 0 127 127
0.640697 -0.262349 -0.094716 153 76 0
0.577166 0.715010 -0.003985 255 0 0
-0.590870 -0.092378 -0.271527 127 127 0
0.374073 -0.792457 -0.129255 0 0 255
-0.611125 -0.094552 0.269579 0 127 127
-0.586449 0.055495 0.245318 0 127 127
-0.542424 0.187273 0.245318 0 127 127
-0.174052 0.369432 0.042105 153 0 76
-0.586811 -0.516321 -0.035746 76 0 153
0.138902 0.736546 -0.263107 255 0 0
-0.320786 -0.104271 -0.249992 204 51 127
-0.174052 0.159758 0.112233 153 0 76
0.044071 -0.543455 -0.271527 76 153 0
-0.019870 -0.664200 0.268582 0 127 127
0.640697 -0.099926 0.120106 153 76 0
-0.608347 -0.041396 0.086996 76 0 153
0.238706 0.033916 -0.211930 76 0 153
0.640697 -0.512906 -0.070140 153 76 0
0.349290 -0.619398 0.247017 153 0 76
0.640697 -0.478235 0.048610 153 76 0
-0.585166 0.194516 0.213015 0 255 0
0.206403 -0.189542 -0.205075 76 0 153
0.206403 -0.225394 0.116575 76 0 153
-0.586811 -0.269482 0.149699 76 0 153
-0.605456 -0.770278 -0.271527 0 0 255
0.660412 -0.792457 -0.117674 0 0 255
0.619162 0.287961 -0.072227 153 76 0
-0.174052 0.068907 0.154950 153 0 76
0.238706 -0.248283 -0.012318 76 0 153
0.317696 -0.185141 -0.233841 204 51 127
-0.050250 0.489052 -0.249992 76 153 0
0.059720 0.234322 0.268583 153 0 76
0.660704 -0.382188 -0.271527 0 127 127
0.238706 0.264705 -0.173744 76 0 153
-0.174052 -0.321788 0.094899 153 0 76
0.238706 -0.389967 0.107604 76 0 153
0.105298 -0.770921 0.003830 0 0 255
-0.188979 -0.739556 0.268876 0 127 127
0.290339 -0.564966 0.259058 153 0 76
0.206403 0.071096 -0.071273 76 0 153
0.647927 -0.217297 0.269597 153 0 76
-0.206355 -0.705178 0.158505 153 0 76
-0.586811 0.362514 0.135400 76 0 153
0.238706 0.139709 -0.046059 76 0 153
0.657705 -0.432719 0.245318 153 0 76
0.278742 0.190720 -0.233841 204 51 127
-0.629882 0.207170 0.227597 0 255 0
-0.039092 -0.579492 0.268850 0 127 127
-0.590392 0.280360 -0.271527 127 127 0
0.618367 0.412025 0.268582 127 0 127
-0.224632 0.715010 -0.119824 255 0 0
-0.345899 0.715010 0.125959 255 0 0
0.301191 0.715010 -0.214811 255 0 0
-0.282742 -0.717281 0.245318 153 0 76
0.497883 -0.012997 -0.233841 204 51 127
-0.337832 0.689334 0.213015 76 0 153
-0.467429 0.715010 -0.113350 255 0 0
-0.341121 -0.726022 0.245318 0 127 127
0.089271 0.309150 0.270129 153 0 76
-0.608347 0.599476 0.055805 76 0 153
0.557816 -0.293779 0.245854 153 0 76
-0.609493 -0.671133 -0.271527 127 127 0
-0.036065 0.460754 -0.271527 76 153 0
0.099301 -0.770921 -0.125000 0 0 255
-0.323563 -0.683923 -0.249992 204 51 127
-0.174052 -0.152477 -0.034670 153 0 76
0.141492 0.550988 0.259057 153 0 76
0.047502 -0.578055 -0.271527 76 153 0
-0.093849 -0.289072 0.259057 0 127 127
0.640697 -0.570661 0.164903 153 76 0
-0.407684 -0.756670 0.268581 0 127 127
-0.206355 0.379138 -0.141369 153 0 76
-0.299469 0.715010 -0.165152 255 0 0
0.417850 -0.578612 -0.249992 204 51 127
-0.218184 -0.693886 0.247017 0 127 127
0.586106 0.513535 -0.271527 0 127 127
0.640697 -0.711890 0.196888 153 76 0
-0.595378 -0.044544 0.245318 0 255 0
-0.517431 -0.206924 0.271857 0 127 127
-0.608347 0.295142 -0.172928 76 0 153
0.361380 0.712527 0.213015 76 0 153
0.426103 0.715052 0.245318 76 0 153
0.275268 -0.107121 -0.233841 204 51 127
-0.586811 0.346238 0.179587 76 0 153
0.238706 -0.091332 0.129475 76 0 153
-0.586811 0.435242 -0.040287 76 0 153
0.128136 -0.031442 0.247017 153 0 76
-0.174052 -0.735533 0.134794 153 0 76
-0.206355 0.519873 0.051237 153 0 76
0.640697 0.504826 0.050494 153 76 0
-0.517390 -0.058233 0.245878 0 127 127
-0.629882 -0.138125 -0.255301 127 127 0
-0.206355 0.390254 0.143074 153 0 76
0.635170 0.453260 0.213015 153 76 0
0.640697 -0.031373 0.210583 127 0 127
-0.038316 0.313353 0.245318 0 127 127
0.076637 -0.745412 0.268575 153 0 76
0.033104 0.498556 0.245318 153 0 76
0.636893 -0.277877 -0.271527 0 127 127
0.662233 -0.727518 0.244339 127 0 127
-0.398711 0.411910 -0.249992 204 51 127
-0.120158 -0.770921 -0.145217 0 0 255
0.619162 -0.177362 0.081436 153 76 0
-0.608347 0.154040 -0.215308 76 0 153
0.302538 0.568635 -0.233841 204 51 127
0.087713 0.715010 -0.258331 255 0 0
0.640697 0.524109 0.079447 153 76 0
0.206403 -0.556768 -0.204599 76 0 153
-0.608347 -0.064016 -0.181338 76 0 153
0.531972 -0.772253 0.245318 153 0 76
0.206403 -0.723796 0.163954 76 0 153
0.532235 0.244429 -0.233841 204 51 127
-0.530012 -0.782588 0.213015 153 0 76
0.316210 -0.325799 0.247017 153 0 76
-0.310391 -0.625340 0.247017 0 127 127
-0.206355 0.308371 -0.032725 153 0 76
-0.451425 0.250948 0.247017 0 127 127
0.619162 -0.210819 0.076219 153 76 0
0.028993 0.572575 0.245318 153 0 76
-0.206355 0.256326 -0.160622 153 0 76
0.307529 0.715010 0.043264 255 0 0
0.619162 -0.713568 -0.043348 153 76 0
0.308760 0.736546 -0.160129 255 0 0
0.640697 0.464212 -0.115657 153 76 0
-0.586811 0.263990 0.043253 76 0 153
-0.608347 0.666370 0.071262 76 0 153
0.206403 -0.019051 0.168934 76 0 153
-0.174052 -0.447781 0.009891 153 0 76
0.094727 -0.007857 0.271265 153 0 76
0.538618 0.527524 -0.271527 0 127 127
-0.629882 0.595155 -0.256701 127 127 0
-0.379674 -0.755465 -0.249992 0 0 255
0.640697 0.020723 0.162225 153 76 0
0.035154 -0.285737 -0.233841 204 51 127
0.012872 -0.792457 -0.045177 0 0 255
0.206403 -0.614905 -0.158198 76 0 153
-0.151553 -0.291381 0.247017 0 127 127
-0.206355 0.123706 0.029357 153 0 76
-0.481572 -0.517641 -0.249992 204 51 127
0.050024 -0.792457 0.173352 0 0 255
-0.608347 0.419608 -0.220073 76 0 153
0.643496 0.715010 -0.133914 255 0 0
-0.174052 -0.561606 -0.130221 153 0 76
0.008327 -0.330038 -0.249992 204 51 127
0.045795 0.102618 0.245318 153 0 76
0.571570 -0.738618 0.235142 153 0 76
-0.608347 -0.625743 -0.197916 76 0 153
-0.310014 0.014275 -0.249992 204 51 127
0.238706 0.562426 0.061952 76 0 153
-0.017259 0.715010 0.160429 255 0 0
-0.174052 0.076690 0.049835 153 0 76
-0.206355 0.707544 0.131619 255 0 0
0.324329 -0.770921 -0.154728 0 0 255
-0.299858 0.696566 0.268579 0 127 127
-0.174052 -0.263214 0.051229 153 0 76
0.194059 -0.065538 -0.249992 204 51 127
0.042552 -0.212358 0.268592 153 0 76
0.101885 -0.687420 -0.233841 204 51 127
-0.174052 0.592407 0.080182 153 0 76
0.662233 0.358551 -0.262526 0 127 127
-0.174052 0.625737 -0.106380 153 0 76
0.238706 -0.246192 0.141776 76 0 153
-0.052639 -0.793287 0.269480 0 127 127
-0.204723 0.359303 -0.249992 153 0 76
0.442112 -0.141504 -0.233841 204 51 127
-0.608347 -0.121734 0.025107 76 0 153
0.264167 -0.650233 0.247017 153 0 76
-0.440006 0.715010 0.148074 255 0 0
0.087601 -0.792457 0.155359 0 0 255
-0.222577 0.462761 0.247017 0 127 127
0.123441 0.736546 0.067202 255 0 0
-0.627263 -0.049519 0.245318 0 255 0
0.238706 -0.540457 0.211140 76 0 153
-0.547408 -0.444352 -0.271527 127 127 0
-0.315330 -0.099999 0.259058 0 127 127
-0.297409 -0.376324 0.247017 0 127 127
-0.174052 0.704867 0.046322 255 0 0
-0.323287 0.109298 -0.249992 204 51 127
0.642611 -0.792457 -0.053018 0 0 255
0.399604 0.736546 -0.207198 255 0 0
-0.206355 -0.730569 -0.173991 153 0 76
-0.613341 -0.782705 0.268356 0 127 127
0.181843 -0.683835 0.259057 153 0 76
0.574509 0.005411 0.245318 153 0 76
-0.126194 0.736546 0.083278 255 0 0
0.439859 0.736546 -0.031485 255 0 0
-0.148112 0.736546 0.044289 255 0 0
-0.373258 -0.770921 -0.125054 0 0 255
0.351161 -0.770921 0.185252 0 0 255
0.623457 0.715010 -0.199886 153 76 0
-0.057879 0.192428 0.245318 0 127 127
-0.074651 -0.544626 -0.249992 204 51 127
0.018383 0.747313 0.227773 76 0 153
-0.361331 -0.769836 0.245318 0 127 127
0.546888 -0.395612 -0.271527 0 127 127
-0.174052 -0.630762 0.024209 153 0 76
-0.194304 0.028456 0.259058 0 127 127
-0.141866 0.736546 -0.097775 255 0 0
-0.174052 0.087340 0.015571 153 0 76
0.571832 0.164790 0.245318 153 0 76
0.096173 -0.378560 -0.233841 204 51 127
0.640697 -0.164509 0.129597 153 76 0
0.238706 -0.198234 0.062303 76 0 153
-0.504075 0.736546 -0.200533 255 0 0
-0.613730 0.632102 0.264727 0 127 127
-0.490178 0.736546 -0.040973 255 0 0
0.325956 -0.715222 -0.249992 204 51 127
0.606936 0.564247 0.245318 153 0 76
-0.586811 0.653664 -0.088333 76 0 153
-0.527512 -0.253839 -0.271527 127 127 0
-0.629882 0.352815 0.241147 0 255 0
0.619162 0.354679 0.043219 153 76 0
-0.206355 0.024473 0.152851 153 0 76
-0.559228 -0.792457 0.053024 0 0 255
-0.608347 -0.187654 -0.237487 127 127 0
-0.569971 0.557092 -0.271527 204 51 127
-0.174052 -0.184977 -0.016917 153 0 76
0.619162 -0.391887 0.039502 153 76 0
0.612946 0.702923 -0.233841 255 0 0
0.588729 0.715010 -0.117123 255 0 0
-0.608347 -0.659085 -0.216329 76 0 153
-0.500670 -0.465137 -0.264530 127 127 0
0.272129 0.736546 -0.266493 255 0 0
-0.608347 -0.278904 -0.033513 76 0 153
-0.405464 -0.190602 -0.249992 204 51 127
0.343255 0.388918 -0.249992 204 51 127
-0.174052 -0.349831 -0.179457 153 0 76
-0.349632 -0.792457 -0.009203 0 0 255
-0.206355 0.015550 0.192738 153 0 76
0.102882 0.461785 0.245318 153 0 76
0.417359 -0.235808 -0.233841 204 51 127
-0.483293 -0.792457 0.207184 0 0 255
-0.427059 0.412525 0.247017 0 127 127
-0.608347 0.062395 0.053055 76 0 153
-0.035634 -0.315834 0.268574 0 127 127
-0.596064 -0.541487 0.213015 0 255 0
0.619162 0.211354 -0.144314 153 76 0
-0.108744 0.147415 0.259057 0 127 127
-0.543766 0.215202 -0.233841 204 51 127
-0.093522 -0.426850 -0.249992 204 51 127
-0.062956 0.183474 -0.249992 204 51 127
-0.586576 -0.191310 0.245318 0 127 127
0.458700 -0.520463 -0.233841 204 51 127
0.152326 0.214847 -0.233841 204 51 127
-0.260238 0.193074 -0.249992 204 51 127
-0.586811 0.463887 0.069215 76 0 153
0.238706 -0.599459 -0.140328 76 0 153
-0.174052 0.537016 0.112182 153 0 76
-0.007735 0.089840 -0.271527 76 153 0
-0.174052 -0.434394 0.135551 153 0 76
-0.586811 0.042828 0.115356 76 0 153
0.619162 0.550141 -0.170936 153 76 0
-0.399521 0.635762 0.259057 0 127 127
0.137099 -0.770921 -0.007700 0 0 255
-0.266230 0.296876 -0.249992 204 51 127
0.578087 -0.454577 0.245318 153 0 76
-0.019103 -0.163707 0.245318 0 127 127
0.352350 0.736546 -0.088895 255 0 0
-0.063606 0.715010 0.078761 255 0 0
0.651538 -0.089731 0.245381 153 0 76
0.207298 0.705599 0.213015 76 0 153
-0.174052 0.088256 -0.030493 153 0 76
0.282711 0.143017 0.247017 153 0 76
0.443279 -0.317384 -0.233841 204 51 127
0.042387 -0.451145 0.268592 153 0 76
0.238706 0.491042 -0.032583 76 0 153
0.502416 0.022753 0.259058 153 0 76
0.640697 -0.196220 0.139360 153 76 0
-0.003710 -0.770921 0.170101 0 0 255
-0.606149 0.161478 -0.271527 127 127 0
-0.009214 -0.253809 -0.249992 76 153 0
0.640697 -0.600498 -0.072099 153 76 0
0.329447 -0.570071 0.247017 153 0 76
-0.524624 0.055599 0.245318 0 127 127
0.238706 -0.321674 0.076580 76 0 153
-0.087806 0.727511 0.213015 255 0 0
0.238706 0.136245 -0.096732 76 0 153
0.206403 0.537405 0.058050 76 0 153
0.206403 -0.092668 0.095626 76 0 153
-0.174052 0.296905 -0.101699 153 0 76
-0.112987 0.303924 -0.249992 204 51 127
-0.206355 -0.003204 0.100851 153 0 76
0.206403 0.081498 0.034765 76 0 153
0.206403 0.539791 0.023602 76 0 153
0.552212 0.546924 0.247017 153 0 76
-0.612086 -0.178359 -0.271527 127 127 0
0.238706 -0.215388 -0.051825 76 0 153
-0.296452 0.715010 -0.004662 255 0 0
-0.458438 0.121323 -0.233841 204 51 127
0.206403 -0.547191 0.176441 76 0 153
0.463115 0.252157 0.247017 153 0 76
0.112488 0.736546 0.112012 255 0 0
-0.206355 0.272881 -0.108000 153 0 76
0.612816 -0.640101 -0.233841 153 76 0
-0.521125 -0.649621 0.277106 0 127 127
-0.207348 0.736546 0.053189 255 0 0
0.619162 0.423421 -0.132181 153 76 0
-0.585610 0.308599 0.268586 0 127 127
0.468557 0.347015 0.259058 153 0 76
-0.608347 -0.441060 -0.186786 76 0 153
-0.520227 -0.792457 -0.113426 0 0 255
0.204493 0.239056 -0.249992 204 51 127
-0.228053 -0.537399 0.247017 0 127 127
-0.395383 -0.209605 0.247017 0 127 127
-0.362135 -0.577920 0.247017 0 127 127
0.442619 0.359915 -0.249992 204 51 127
-0.446242 -0.598401 0.247017 0 127 127
0.266245 0.059654 -0.233841 204 51 127
-0.406436 0.274800 -0.249992 204 51 127
0.194162 -0.792457 -0.038176 0 0 255
-0.566001 0.294031 0.313689 76 153 0
-0.539591 0.280345 0.245318 0 127 127
0.640697 -0.488454 0.078913 153 76 0
0.468005 0.715010 -0.019052 255 0 0
0.554880 0.349228 -0.249992 0 127 127
-0.206355 -0.132181 -0.040196 153 0 76
0.509384 0.117511 -0.249992 204 51 127
0.640697 0.336873 -0.239458 0 127 127
0.640697 -0.230147 -0.073199 153 76 0
-0.508659 0.561688 -0.233841 204 51 127
-0.429368 -0.770921 0.173130 0 0 255
-0.206355 -0.418611 0.050156 153 0 76
0.662233 0.718331 0.175396 255 0 0
0.640075 0.418838 -0.271527 0 127 127
-0.013313 -0.360517 0.245318 0 127 127
0.619162 0.098904 0.114156 153 76 0
-0.586811 -0.243063 -0.241421 76 0 153
-0.538007 -0.025901 -0.233841 204 51 127
-0.138100 0.547515 0.247017 0 127 127
0.588053 -0.792457 -0.085565 0 0 255
0.238706 -0.337793 -0.206970 76 0 153
-0.260170 -0.768600 0.245318 0 127 127
-0.219307 -0.409262 -0.233841 204 51 127
0.133067 0.436015 0.259057 153 0 76
0.573423 0.682707 0.244015 76 0 153
0.220871 -0.776680 0.245318 153 0 76
0.597627 0.175190 0.223347 127 0 127
0.100852 0.715010 0.158626 255 0 0
0.206403 -0.583782 -0.095129 76 0 153
-0.174052 -0.096093 -0.113980 153 0 76
-0.608347 0.425366 0.009398 76 0 153
-0.586811 -0.635516 0.015981 76 0 153
0.080781 0.499683 -0.262791 76 153 0
0.281818 -0.080555 0.259058 153 0 76
0.501105 -0.489788 -0.249992 204 51 127
0.082139 -0.240856 -0.249992 204 51 127
-0.507924 0.736546 -0.123385 255 0 0
-0.390650 0.747313 0.234576 76 0 153
-0.174052 0.531136 -0.156397 153 0 76
0.160794 0.681835 0.269022 153 0 76
-0.069781 0.457027 0.245318 0 127 127
0.661392 -0.770921 0.067180 0 0 255
-0.586811 0.276996 0.148743 76 0 153
0.016175 -0.255192 0.249877 153 0 76
-0.620628 -0.730662 0.245318 0 255 0
0.144360 -0.612016 -0.233841 204 51 127
0.330242 -0.100000 -0.233841 204 51 127
0.050851 0.354257 0.245318 153 0 76
0.320400 0.020389 -0.249992 204 51 127
0.206403 0.614267 -0.123023 76 0 153
0.619162 -0.298701 -0.019694 153 76 0
0.238706 0.492526 -0.067745 76 0 153
-0.186354 -0.578739 0.247017 0 127 127
-0.174052 -0.262879 -0.024359 153 0 76
0.041535 -0.770921 0.093925 0 0 255
0.619162 0.240810 -0.122164 153 76 0
-0.154955 0.108453 0.259058 0 127 127
0.644175 0.330060 0.265775 153 0 76
-0.008330 0.715010 -0.112835 255 0 0
-0.586811 0.283477 -0.085417 76 0 153
0.238706 0.005028 -0.201773 76 0 153
0.206403 -0.540235 -0.073199 76 0 153
0.501785 0.715010 -0.186147 255 0 0
0.566513 -0.324832 -0.249992 204 51 127
0.640697 -0.767020 0.115044 153 76 0
-0.206355 -0.200776 0.036351 153 0 76
-0.223311 0.090139 0.247017 0 127 127
0.078918 0.034324 0.268802 153 0 76
0.547560 0.227352 -0.271527 204 51 127
-0.336442 0.736546 0.052277 255 0 0
-0.372043 -0.792457 0.171123 0 0 255
-0.599752 0.212444 -0.271527 127 127 0
-0.174052 0.419028 0.044242 153 0 76
0.356293 0.747313 0.231813 76 0 153
-0.566935 0.250126 -0.271527 127 127 0
0.226105 -0.770921 -0.243126 76 0 153
-0.091010 -0.724530 0.245318 153 0 76
0.511555 0.651858 -0.249992 204 51 127
0.307416 -0.792457 0.123057 0 0 255
-0.189877 0.671400 0.270697 0 127 127
-0.224081 -0.269872 -0.249992 204 51 127
-0.608347 0.440909 0.171554 76 0 153
0.238706 0.684613 0.062691 76 0 153
0.471294 0.715010 0.024007 255 0 0
-0.100360 0.348302 0.247017 0 127 127
0.593687 -0.741210 0.213015 153 0 76
-0.482892 0.575179 -0.249992 204 51 127
-0.206355 -0.500687 0.156765 153 0 76
-0.321528 0.596342 -0.233841 204 51 127
-0.368675 0.305254 0.247017 0 127 127
-0.174052 0.390263 0.193828 153 0 76
-0.577047 0.014068 -0.249992 127 127 0
0.234818 0.658159 0.213015 76 0 153
0.619162 -0.354741 -0.146467 153 76 0
0.238706 -0.305960 0.124044 76 0 153
0.246079 -0.792457 -0.022126 0 0 255
0.640697 0.654697 0.038155 153 76 0
0.051668 -0.503914 -0.233841 204 51 127
0.125127 0.052055 -0.249992 204 51 127
0.018932 -0.193363 -0.249992 76 153 0
-0.174052 -0.109802 0.158369 153 0 76
0.215865 0.715010 -0.192381 255 0 0
-0.078225 -0.070634 0.245318 0 127 127
-0.073292 -0.770921 -0.183573 0 0 255
0.619162 0.033012 -0.043753 153 76 0
-0.128936 -0.794652 0.268524 0 127 127
0.174513 -0.770921 -0.133712 0 0 255
0.432188 0.146579 0.259058 153 0 76
-0.301309 -0.346838 -0.249992 204 51 127
-0.608347 -0.440428 -0.128561 76 0 153
0.555932 0.145089 -0.271527 0 127 127
-0.528764 -0.532198 -0.249992 204 51 127
0.619162 -0.716476 -0.216038 153 76 0
0.191386 -0.633540 -0.249992 204 51 127
0.500766 0.244375 0.247017 153 0 76
-0.267058 -0.558026 -0.249992 204 51 127
-0.567453 0.095470 0.213015 0 255 0
0.640697 0.706846 -0.010807 153 76 0
-0.608347 -0.600377 0.185732 76 0 153
0.238706 0.587675 -0.026838 76 0 153
-0.352400 -0.770921 0.199132 153 0 76
0.143977 -0.305146 -0.233841 204 51 127
0.518482 0.736546 -0.232210 255 0 0
-0.206355 -0.742964 0.149295 153 0 76
0.584256 -0.370506 -0.271527 0 127 127
0.652188 0.183476 -0.271527 0 127 127
-0.618693 0.412129 -0.271527 127 127 0
0.640697 -0.542293 -0.050366 153 76 0
0.084665 0.683268 0.213015 76 0 153
0.619162 -0.539153 -0.127678 153 76 0
0.619162 0.280737 0.012235 153 76 0
-0.608347 -0.308676 -0.076317 76 0 153
0.206403 0.531580 0.140016 76 0 153
0.206403 0.451919 0.092207 76 0 153
-0.608347 0.228783 -0.008097 76 0 153
0.423000 0.736546 0.032294 255 0 0
0.342788 0.736546 0.190210 255 0 0
-0.230428 0.715010 0.063278 255 0 0
0.043838 0.181199 -0.249992 76 153 0
-0.608347 -0.542839 -0.206438 76 0 153
-0.475864 0.338107 -0.249992 204 51 127
0.083013 0.516974 0.269183 153 0 76
-0.463348 0.715010 0.046037 255 0 0
0.164610 0.133514 -0.249992 204 51 127
0.602543 -0.681768 0.245318 153 0 76
-0.120510 0.324921 0.259058 0 127 127
0.482975 0.463484 -0.233841 204 51 127
-0.178277 -0.446420 0.259058 0 127 127
-0.220605 -0.703335 -0.233841 204 51 127
-0.479672 0.423865 -0.249992 204 51 127
0.279388 -0.792457 -0.088273 0 0 255
-0.586811 -0.299478 0.085361 76 0 153
0.206403 0.027489 -0.196163 76 0 153
0.640697 0.675302 -0.167241 153 76 0
0.245139 -0.701579 0.276616 153 0 76
0.059463 -0.697526 0.245318 153 0 76
-0.068542 -0.463164 -0.249992 204 51 127
0.619162 -0.411280 -0.086088 153 76 0
0.345311 0.715010 -0.198942 255 0 0
-0.608347 0.239127 -0.188653 76 0 153
0.323714 0.371146 0.259058 153 0 76
-0.586811 0.389233 -0.163999 76 0 153
0.640697 -0.439839 0.025830 153 76 0
0.019434 0.715010 -0.042340 255 0 0
0.619162 0.099769 0.045464 153 76 0
0.191389 0.357233 -0.233841 204 51 127
0.606505 -0.657553 0.268576 153 0 76
-0.066024 0.736546 -0.052196 255 0 0
0.468487 -0.608383 0.247017 153 0 76
0.246261 -0.162021 -0.233841 76 0 153
0.662233 -0.313812 0.215377 127 0 127
-0.146406 0.731873 0.245318 0 127 127
0.066924 0.736546 -0.114856 255 0 0
-0.206355 -0.192165 -0.080690 153 0 76
0.386815 -0.322181 -0.233841 204 51 127
0.170979 0.028725 -0.249992 204 51 127
-0.132142 -0.550498 -0.249992 204 51 127
0.111413 0.649052 0.276786 153 0 76
0.238706 -0.708994 -0.006852 76 0 153
0.105493 -0.298805 0.274463 153 0 76
-0.031343 -0.595834 -0.233841 204 51 127
-0.012041 0.525479 0.245318 0 127 127
0.247209 0.715010 -0.121160 76 0 153
0.045751 -0.354934 0.268590 153 0 76
-0.586811 -0.516418 -0.249175 127 127 0
0.238706 -0.241276 -0.119976 76 0 153
-0.123799 -0.770921 0.016555 0 0 255
0.640697 -0.760246 -0.061091 0 0 255
-0.295235 -0.785395 0.245318 0 127 127
-0.608347 -0.425184 0.186296 76 0 153
0.014248 0.093882 0.269509 0 127 127
0.619162 0.607864 0.077204 153 76 0
-0.586811 0.376463 -0.059914 76 0 153
0.449020 -0.794145 0.245318 153 0 76
-0.241602 0.715010 0.143453 255 0 0
-0.174052 0.710639 -0.225922 255 0 0
0.619162 0.184789 0.014870 153 76 0
0.285535 0.190310 0.247017 153 0 76
0.574445 -0.503774 -0.271527 0 127 127
-0.523692 0.327057 0.245318 0 127 127
-0.608347 -0.505420 -0.137666 76 0 153
0.116080 0.395167 -0.249992 204 51 127
0.374762 -0.675457 -0.233841 204 51 127
0.503592 -0.369515 -0.249992 204 51 127
0.488613 -0.738618 0.217956 153 0 76
-0.063989 -0.177712 -0.233841 204 51 127
-0.350059 0.022759 -0.233841 204 51 127
0.619162 0.487543 0.039968 153 76 0
0.640697 0.220640 0.124039 153 76 0
0.048151 -0.285165 0.245318 153 0 76
0.206403 -0.336302 -0.168946 76 0 153
0.640697 0.339553 -0.082140 153 76 0
0.569149 -0.019271 -0.249992 0 127 127
0.409773 -0.098431 -0.233841 204 51 127
0.619162 0.459494 0.057070 153 76 0
0.653660 -0.647688 0.246716 153 0 76
0.170063 -0.228493 -0.249992 204 51 127
-0.076302 0.546474 -0.249992 204 51 127
0.098096 -0.157472 0.245318 153 0 76
-0.570795 -0.062359 -0.233841 204 51 127
-0.032847 -0.374548 0.268575 0 127 127
-0.006163 0.736546 0.206573 76 0 153
0.597627 -0.253850 0.215176 127 0 127
0.547023 0.715010 -0.053887 255 0 0
-0.174052 -0.215592 0.066123 153 0 76
0.206403 -0.455806 -0.011581 76 0 153
-0.174052 0.645039 -0.202153 153 0 76
0.071579 -0.097324 -0.271527 76 153 0
0.451868 -0.588684 -0.233841 204 51 127
0.513663 -0.068230 0.259058 153 0 76
-0.052609 -0.770921 0.157396 0 0 255
0.054751 0.069615 -0.271527 76 153 0
0.619162 -0.416189 0.120347 153 76 0
-0.269242 -0.685267 0.259057 0 127 127
-0.137252 0.715010 0.025045 255 0 0
0.640697 0.650618 0.151380 153 76 0
-0.230602 0.736546 -0.234003 255 0 0
0.619162 0.401884 -0.055773 153 76 0
-0.174052 -0.010265 0.009150 153 0 76
-0.240325 -0.153110 -0.233841 204 51 127
0.620423 -0.217087 -0.271527 0 127 127
0.409052 0.636389 0.247017 153 0 76
0.120946 0.715010 0.011739 255 0 0
-0.447867 0.161470 -0.249992 204 51 127
0.075367 -0.792457 -0.045624 0 0 255
-0.586811 0.654575 0.210715 0 255 0
-0.586811 -0.716720 0.190800 76 0 153
0.640697 0.628175 -0.102730 153 76 0
0.619162 -0.069220 0.111166 153 76 0
0.409497 0.700465 -0.249992 255 0 0
0.619162 -0.532333 0.049186 153 76 0
0.507475 0.715010 0.156698 255 0 0
0.150481 0.392590 -0.249992 76 0 153
0.619162 -0.308260 -0.090993 153 76 0
-0.398930 0.343840 0.259058 0 127 127
-0.586811 -0.112039 0.194559 76 0 153
0.626739 -0.792457 0.191214 0 0 255
-0.088036 0.045381 0.247017 0 127 127
0.161270 0.331990 0.247017 153 0 76
0.238706 0.529653 -0.114427 76 0 153
0.550668 0.337753 0.259057 153 0 76
-0.611278 0.546900 0.213015 0 255 0
0.183355 0.075108 -0.233841 204 51 127
-0.218673 -0.353075 0.247017 0 127 127
-0.586811 0.708666 0.055964 255 0 0
-0.608347 0.122336 0.184707 76 0 153
-0.608347 -0.597584 -0.028197 76 0 153
0.640697 0.049449 0.189556 153 76 0
-0.142600 -0.034666 0.259058 0 127 127
0.238706 0.628664 0.183753 76 0 153
-0.134172 -0.255993 -0.249992 204 51 127
0.206403 0.114429 0.090329 76 0 153
-0.179554 -0.285449 -0.249992 204 51 127
-0.364689 0.239365 -0.233841 204 51 127
0.238706 -0.358981 -0.045775 76 0 153
0.237337 -0.792457 -0.178128 0 0 255
0.619162 0.011783 -0.110505 153 76 0
0.119603 0.304238 -0.249992 204 51 127
-0.206355 0.583809 0.060937 153 0 76
0.474371 -0.770921 -0.110841 0 0 255
-0.206355 -0.703124 0.096288 153 0 76
-0.206355 -0.127896 -0.178748 153 0 76
-0.078799 -0.372762 0.275351 0 127 127
0.238706 -0.213151 0.122246 76 0 153
-0.586811 0.218584 0.021093 76 0 153
-0.206355 -0.382897 -0.082304 153 0 76
-0.054764 -0.792457 -0.009987 0 0 255
0.319762 -0.770921 -0.119582 0 0 255
0.060656 -0.674258 -0.249992 76 153 0
-0.095978 -0.776933 0.245318 0 127 127
0.238706 0.410366 0.027382 76 0 153
-0.346565 0.522871 -0.233841 204 51 127
0.126589 0.524840 0.247017 153 0 76
0.023147 -0.727681 -0.271527 76 153 0
-0.609385 -0.271531 0.269597 0 127 127
0.102617 -0.482278 0.273517 153 0 76
-0.522986 0.124756 -0.233841 204 51 127
-0.020143 0.618833 -0.233841 204 51 127
-0.122937 -0.770921 -0.062950 0 0 255
0.370210 -0.219027 -0.233841 204 51 127
0.410115 -0.770921 -0.161527 0 0 255
-0.000588 -0.050650 -0.249992 204 51 127
-0.016402 0.685536 -0.271527 255 0 0
-0.500670 0.402257 -0.270287 127 127 0
-0.174052 0.613423 0.100675 153 0 76
0.357670 0.635893 -0.249992 204 51 127
0.632733 0.041902 -0.271527 0 127 127
-0.592416 0.385036 0.268590 0 127 127
0.272914 -0.771684 0.213015 0 0 255
0.470933 0.555102 -0.233841 204 51 127
0.180652 0.381811 0.247017 153 0 76
0.467821 -0.618094 -0.233841 204 51 127
-0.283680 0.662590 0.245318 0 127 127
-0.351073 -0.534385 -0.233841 204 51 127
-0.539577 0.220909 0.245318 0 127 127
-0.440431 -0.770921 0.009812 0 0 255
0.547543 0.715010 0.011603 255 0 0
0.465211 0.704408 -0.233841 204 51 127
0.640697 0.004249 0.118235 153 76 0
-0.586811 0.533758 0.104821 76 0 153
0.309617 0.623960 -0.249992 204 51 127
-0.608347 -0.738830 0.197501 76 0 153
-0.608347 0.168449 0.180522 76 0 153
-0.048430 0.516746 -0.261818 76 153 0
-0.608347 0.697250 -0.143345 76 0 153
-0.206355 0.406779 0.011688 153 0 76
-0.384296 0.470944 -0.249992 204 51 127
-0.143849 -0.760753 0.213015 153 0 76
0.045527 -0.160313 -0.233841 204 51 127
0.551009 0.107080 -0.233841 204 51 127
0.180655 -0.792457 -0.088578 0 0 255
-0.184588 -0.052799 0.247017 0 127 127
0.210739 -0.690049 0.213015 76 0 153
0.565533 0.574144 0.277380 153 0 76
-0.596671 0.176257 0.245318 0 255 0
0.440845 0.280128 -0.249992 204 51 127
-0.098950 0.633733 0.259057 0 127 127
-0.174052 0.401517 0.104384 153 0 76
0.179021 0.715010 -0.183677 255 0 0
-0.577499 0.224883 0.245318 0 255 0
-0.174052 0.169116 0.084386 153 0 76
0.640697 0.048009 -0.056775 153 76 0
0.619162 0.344911 0.191335 153 76 0
0.238706 -0.460844 -0.111748 76 0 153
-0.442485 -0.138106 0.259058 0 127 127
-0.629882 0.735999 -0.225919 255 0 0
0.024207 -0.451584 -0.249992 76 153 0
-0.352752 0.736546 -0.149710 255 0 0
0.164548 -0.770921 0.212772 0 0 255
0.640697 -0.387306 -0.124885 153 76 0
0.436200 -0.428533 -0.249992 204 51 127
-0.629882 -0.382180 0.222138 0 255 0
-0.298803 0.736546 0.198446 76 0 153
-0.048715 -0.672687 -0.233841 204 51 127
0.619162 0.628389 0.113031 153 76 0
0.287568 0.233835 -0.233841 204 51 127
0.238706 0.469604 0.100441 76 0 153
-0.550243 -0.770921 -0.042875 0 0 255
-0.159482 -0.792457 -0.251871 0 0 255
-0.274521 -0.477244 0.259058 0 127 127
-0.408797 0.715010 -0.093524 255 0 0
-0.206355 0.089539 -0.166677 153 0 76
0.509219 0.414562 -0.233841 204 51 127
-0.206355 -0.683508 -0.171196 153 0 76
0.619162 0.109816 -0.005915 153 76 0
0.560114 0.433146 -0.249992 0 127 127
-0.586811 -0.308914 0.143729 76 0 153
-0.608347 -0.617849 0.006563 76 0 153
-0.116765 -0.717050 -0.249992 204 51 127
0.239724 0.736546 -0.102580 255 0 0
0.500781 0.682707 0.241615 153 0 76
0.619162 0.141627 0.055176 153 76 0
-0.206355 0.543091 -0.116050 153 0 76
0.560524 0.612591 0.245318 153 0 76
-0.565276 -0.671773 0.230579 0 255 0
-0.586811 -0.725580 0.116951 76 0 153
-0.174052 0.664179 -0.004790 153 0 76
0.020750 0.715010 0.125124 255 0 0
-0.430874 -0.423044 0.247017 0 127 127
-0.153779 -0.009378 -0.249992 204 51 127
-0.386563 0.564972 -0.249992 204 51 127
-0.586811 0.419718 0.064901 76 0 153
-0.608347 -0.575426 0.081951 76 0 153
0.068901 0.629133 -0.249992 204 51 127
0.219090 0.000813 0.259058 153 0 76
-0.343933 0.485228 0.247017 0 127 127
-0.191477 0.715010 -0.097131 255 0 0
-0.174052 0.397656 -0.056386 153 0 76
-0.206355 -0.234097 -0.128102 153 0 76
-0.244849 0.608460 -0.233841 204 51 127
0.236202 0.715010 0.123905 76 0 153
0.446885 -0.096946 0.247017 153 0 76
-0.000893 0.547191 0.268592 0 127 127
-0.149691 0.281614 -0.249992 204 51 127
-0.405256 -0.665273 -0.233841 204 51 127
-0.608347 -0.140419 -0.091363 76 0 153
0.656324 -0.150847 0.245318 127 0 127
0.640697 0.321301 -0.151819 153 76 0
0.494458 0.715010 0.077206 255 0 0
0.619162 -0.189493 0.160296 153 76 0
-0.543421 0.715010 0.161997 255 0 0
0.640697 0.404009 0.050182 153 76 0
-0.206355 -0.756791 0.084537 153 0 76
0.640697 0.712668 0.097447 255 0 0
0.619162 0.124225 0.089056 153 76 0
0.185750 0.736546 -0.164047 255 0 0
-0.174052 -0.221229 0.098422 153 0 76
0.206403 0.345812 0.002083 76 0 153
0.640697 0.667763 -0.108494 153 76 0
-0.176619 0.566089 -0.249992 204 51 127
-0.206355 -0.107048 0.025482 153 0 76
0.632105 0.736546 -0.165211 255 0 0
0.457093 -0.792457 -0.258080 0 0 255
0.451428 0.715010 -0.149134 255 0 0
0.122150 -0.770921 0.136549 0 0 255
0.238706 -0.159513 -0.081819 76 0 153
0.076630 0.093069 0.268617 153 0 76
-0.253335 -0.721230 -0.249992 204 51 127
-0.608347 -0.399035 -0.203600 76 0 153
0.640697 -0.002571 -0.008948 153 76 0
-0.048430 0.205603 -0.270808 76 153 0
0.164990 0.040222 0.247017 153 0 76
-0.608347 -0.210695 0.187646 76 0 153
-0.174052 0.270857 0.072891 153 0 76
-0.000183 0.682707 0.217254 76 0 153
-0.586811 0.614336 -0.055268 76 0 153
-0.302461 0.132922 0.259058 0 127 127
-0.462528 -0.083121 0.259058 0 127 127
-0.586811 0.269111 -0.039793 76 0 153
0.320585 -0.770921 -0.057048 0 0 255
-0.206355 0.605521 -0.068312 153 0 76
-0.607751 0.545814 0.269597 0 127 127
0.457465 0.414414 -0.249992 204 51 127
0.619162 0.048053 -0.133504 153 76 0
0.253189 -0.770921 -0.163966 0 0 255
-0.586811 0.161036 0.042775 76 0 153
-0.206355 -0.018305 -0.193823 153 0 76
-0.554021 -0.341973 -0.249992 127 127 0
0.618580 0.461360 0.245318 153 0 76
-0.015932 -0.021408 0.268584 0 127 127
-0.174052 -0.753591 -0.033754 153 0 76
-0.359496 0.544576 0.259058 0 127 127
0.550398 -0.035936 0.247017 153 0 76
0.548900 0.266252 0.247017 153 0 76
-0.608347 -0.708631 -0.138463 76 0 153
0.185530 0.275642 0.247017 153 0 76
-0.577528 0.727125 0.265585 0 127 127
0.516263 0.715010 0.030577 255 0 0
0.509457 0.715010 -0.036906 255 0 0
-0.533646 -0.754497 0.268580 0 127 127
0.238706 -0.180928 -0.045050 76 0 153
-0.583894 0.261483 0.245318 0 255 0
-0.003823 0.240427 -0.271527 76 153 0
-0.353975 0.719792 0.245318 0 127 127
-0.502602 -0.792457 0.180347 0 0 255
0.202661 -0.169723 0.247017 153 0 76
0.129872 0.202446 -0.249992 204 51 127
0.367921 -0.792457 -0.067639 0 0 255
-0.082997 -0.120074 -0.233841 204 51 127
-0.038406 0.736546 0.175145 255 0 0
-0.393086 0.736546 -0.065644 255 0 0
-0.174052 0.014912 -0.178709 153 0 76
0.387188 -0.532461 -0.233841 204 51 127
0.238706 0.218530 0.066183 76 0 153
-0.577161 0.596424 0.213015 0 255 0
-0.586811 0.192045 -0.214567 76 0 153
0.505900 0.227318 -0.233841 204 51 127
-0.036974 0.736546 -0.150782 255 0 0
0.240355 -0.306358 -0.233841 76 0 153
-0.190769 -0.723789 0.213015 153 0 76
0.640697 0.111321 -0.142154 153 76 0
-0.454469 -0.770921 -0.190411 0 0 255
-0.206355 0.099585 -0.014105 153 0 76
-0.505377 0.535459 -0.249992 127 127 0
-0.066543 0.715010 -0.025163 255 0 0
-0.412573 0.715010 0.186956 255 0 0
0.573156 0.736546 -0.039284 255 0 0
-0.586811 0.510757 -0.150549 76 0 153
-0.525344 0.387291 0.245318 0 127 127
-0.206355 -0.300873 -0.164936 153 0 76
0.415437 0.747313 0.217267 76 0 153
0.640697 -0.695399 0.101935 153 76 0
0.206403 -0.343297 -0.058046 76 0 153
-0.445803 -0.770921 -0.070508 0 0 255
0.206403 0.675364 -0.002751 76 0 153
0.238706 0.059531 0.162328 76 0 153
0.640697 0.230229 0.052894 153 76 0
-0.174052 -0.505120 -0.206923 153 0 76
0.053275 0.470944 -0.249992 204 51 127
-0.582819 0.524959 -0.233841 76 0 153
0.112656 0.269927 0.245318 153 0 76
0.262008 0.736546 0.043974 255 0 0
0.054851 -0.271821 -0.249992 204 51 127
-0.027584 -0.770921 0.109850 0 0 255
0.198921 0.736546 0.128899 255 0 0
0.640697 0.254088 -0.080145 153 76 0
0.238706 -0.292486 0.067641 76 0 153
0.238706 0.159980 -0.024912 76 0 153
0.471466 0.034732 0.259058 153 0 76
-0.518217 -0.432407 0.274500 0 127 127
0.031966 -0.309631 -0.249992 204 51 127
-0.216396 -0.770921 -0.254533 0 0 255
-0.351131 0.264595 0.259058 0 127 127
0.547221 -0.785166 0.266349 153 0 76
0.206403 -0.632838 0.052544 76 0 153
0.238706 -0.081842 -0.025910 76 0 153
0.518446 0.144486 -0.233841 204 51 127
0.146940 0.736546 -0.033884 255 0 0
-0.007628 -0.305260 0.268589 0 127 127
0.098614 0.739237 0.258994 153 0 76
-0.613289 -0.409644 0.268469 0 127 127
-0.123480 0.066615 -0.233841 204 51 127
0.072026 -0.562884 0.268576 153 0 76
-0.608347 0.419521 -0.138392 76 0 153
-0.497555 -0.187863 0.259057 0 127 127
0.238706 -0.262310 -0.093358 76 0 153
0.031381 -0.548235 0.245318 153 0 76
0.071764 0.262129 -0.271527 204 51 127
0.002417 -0.539755 -0.233841 204 51 127
-0.020519 -0.720178 -0.271527 76 153 0
0.206403 -0.645315 -0.063124 76 0 153
0.485444 -0.770921 -0.048089 0 0 255
0.607131 -0.769720 0.245318 153 0 76
0.622997 -0.301783 0.268585 153 0 76
0.640697 0.419086 0.190337 153 76 0
-0.240942 0.247687 -0.249992 204 51 127
0.206403 0.577431 -0.229636 76 0 153
0.284334 -0.131064 0.259058 153 0 76
-0.513977 -0.000884 0.247017 0 127 127
0.625657 0.526599 0.245318 127 0 127
-0.608347 0.242316 0.088332 76 0 153
-0.206355 0.660320 -0.112931 153 0 76
0.390875 -0.013905 -0.249992 204 51 127
0.619162 -0.730258 0.173705 153 76 0
-0.586811 -0.701378 -0.099424 76 0 153
-0.174052 -0.252639 -0.179531 153 0 76
0.619162 -0.553724 0.089308 153 76 0
-0.294426 -0.057804 0.247017 0 127 127
-0.158002 0.736546 -0.128274 255 0 0
0.206403 0.314351 -0.118000 76 0 153
-0.019476 -0.551742 0.268582 0 127 127
-0.586811 -0.123278 -0.132583 76 0 153
0.098247 -0.466456 -0.249992 204 51 127
0.321815 0.691348 0.213015 76 0 153
0.130768 0.601050 -0.233841 204 51 127
-0.174052 -0.235575 -0.110560 153 0 76
-0.608347 0.127721 -0.184357 76 0 153
-0.174052 -0.698901 -0.209685 204 51 127
-0.608347 -0.459569 -0.098779 76 0 153
-0.586811 0.040455 -0.243216 204 51 127
0.532234 0.643627 0.274309 153 0 76
-0.537353 0.028720 -0.249992 204 51 127
0.215987 -0.734661 -0.249992 204 51 127
0.480969 -0.794346 0.245318 153 0 76
-0.586811 0.011507 0.015250 76 0 153
-0.608347 -0.145765 0.177121 76 0 153
0.003746 0.400134 -0.233841 204 51 127
0.206403 -0.408103 -0.052402 76 0 153
-0.332904 0.195909 -0.249992 204 51 127
0.206403 0.392443 0.055494 76 0 153
-0.036475 0.105316 0.268639 0 127 127
-0.137807 0.712035 0.213015 76 0 153
-0.206355 0.609615 0.019384 153 0 76
0.517911 0.073477 0.247017 153 0 76
0.238706 -0.693891 0.159435 76 0 153
0.035966 0.129845 -0.271527 76 153 0
-0.350900 0.736546 -0.005495 255 0 0
0.619162 -0.342709 0.065361 153 76 0
-0.600431 0.747313 0.221786 76 0 153
-0.102691 0.583594 -0.233841 204 51 127
0.238706 -0.150425 0.109049 76 0 153
0.619162 0.671137 0.115103 153 76 0
0.238706 0.710904 -0.163487 255 0 0
0.187413 0.701471 0.268581 153 0 76
-0.206355 -0.164312 -0.129617 153 0 76
-0.629882 0.108543 0.237660 0 255 0
-0.452837 0.468421 0.247017 0 127 127
0.121885 0.644731 -0.233841 204 51 127
0.449655 -0.494968 0.247017 153 0 76
-0.025447 0.074127 0.245318 0 127 127
0.238706 0.600537 0.100982 76 0 153
0.507598 0.196204 -0.249992 204 51 127
0.059861 0.736546 -0.020461 255 0 0
-0.206355 -0.597457 -0.203580 153 0 76
0.597627 0.021159 0.230684 127 0 127
0.238706 -0.737442 -0.171200 76 0 153
-0.174052 0.363892 -0.125141 153 0 76
-0.500670 0.195221 -0.256147 127 127 0
-0.012528 -0.163206 -0.233841 204 51 127
0.357408 -0.792457 0.034314 0 0 255
0.025001 0.091510 -0.233841 204 51 127
0.619162 -0.227785 0.116418 153 76 0
-0.401319 -0.742694 -0.233841 204 51 127
0.238706 0.335137 0.119168 76 0 153
0.619162 -0.146875 0.027133 153 76 0
0.611192 -0.564821 0.268579 153 0 76
-0.258247 -0.770921 -0.241400 204 51 127
-0.579076 0.320740 -0.249992 76 0 153
0.189154 -0.792457 0.185316 0 0 255
0.183869 -0.320817 -0.249992 204 51 127
0.206403 -0.539987 -0.002099 76 0 153
-0.608347 0.455207 -0.146792 76 0 153
-0.574364 -0.282795 0.307887 76 153 0
0.469152 0.610654 0.247017 153 0 76
0.599847 -0.033300 0.268773 153 0 76
-0.586811 0.236531 -0.036947 76 0 153
-0.626007 0.050158 -0.271527 127 127 0
0.209926 0.061734 0.213015 76 0 153
-0.260486 0.715010 -0.225614 255 0 0
-0.608347 0.085096 -0.012580 76 0 153
0.597627 0.063650 0.240292 127 0 127
0.182614 0.715010 0.080406 255 0 0
-0.610593 0.108984 -0.271527 127 127 0
-0.301585 0.495156 -0.249992 204 51 127
0.238706 -0.202503 0.019303 76 0 153
0.015498 0.012663 -0.271527 76 153 0
-0.235749 -0.090927 -0.233841 204 51 127
-0.185812 0.588160 -0.233841 204 51 127
0.146819 -0.551231 0.259057 153 0 76
-0.324810 -0.046277 0.259058 0 127 127
-0.120655 -0.477114 0.247017 0 127 127
-0.500664 -0.721362 0.245318 0 127 127
-0.523055 -0.710481 -0.233841 204 51 127
0.576834 -0.209366 -0.233841 204 51 127
0.036865 0.368408 -0.271527 76 153 0
-0.608347 -0.274361 0.057529 76 0 153
0.065636 0.637688 0.245318 153 0 76
0.488378 -0.733888 0.269534 153 0 76
-0.569014 0.558549 0.268578 0 127 127
-0.356496 -0.792457 0.128399 0 0 255
0.111861 -0.770921 -0.232075 204 51 127
0.619162 -0.191010 -0.046522 153 76 0
-0.135403 0.131424 0.247017 0 127 127
0.541196 -0.770921 -0.083945 0 0 255
-0.586811 -0.294065 -0.226443 204 51 127
0.238706 -0.113511 -0.182393 76 0 153
-0.037817 -0.770921 -0.202282 0 0 255
-0.629882 -0.640596 0.216805 0 255 0
0.460546 0.715010 -0.087782 255 0 0
0.097255 0.200138 -0.249992 204 51 127
0.452317 -0.407620 0.247017 153 0 76
-0.559341 0.715010 0.063662 255 0 0
0.238706 -0.479718 -0.033540 76 0 153
0.193296 0.640302 0.259057 153 0 76
-0.206355 -0.367724 -0.187254 153 0 76
-0.012864 0.185970 -0.249992 76 153 0
0.640697 0.177448 -0.018173 153 76 0
0.154222 -0.770921 -0.252601 0 0 255
-0.582556 -0.696430 0.245318 0 255 0
-0.456437 0.368798 0.259058 0 127 127
-0.586811 0.501737 -0.182190 76 0 153
-0.608347 0.346696 0.150017 76 0 153
0.640697 0.498566 -0.225900 153 76 0
-0.249099 0.736546 -0.094157 255 0 0
0.044920 -0.060524 0.268590 153 0 76
0.006635 -0.530866 0.268089 0 127 127
-0.338012 0.736546 -0.233775 255 0 0
0.345042 0.553727 -0.249992 204 51 127
0.319695 0.715010 -0.258376 255 0 0
0.206403 0.283119 -0.123665 76 0 153
-0.199326 -0.803224 0.229411 153 0 76
0.640697 -0.688189 0.044644 153 76 0
-0.024996 0.715010 -0.020727 255 0 0
0.481175 -0.770921 0.068756 0 0 255
0.238706 -0.419982 0.054322 76 0 153
0.549775 -0.792457 -0.170660 0 0 255
-0.188166 0.034296 -0.249992 204 51 127
-0.174052 -0.065324 -0.222452 153 0 76
-0.305753 -0.770921 0.022906 0 0 255
0.020906 0.735828 -0.271527 255 0 0
-0.608347 -0.030060 -0.095194 76 0 153
0.007398 0.318246 -0.249992 204 51 127
0.640697 -0.697004 -0.053176 153 76 0
-0.206355 -0.227154 -0.046159 153 0 76
-0.403558 0.715010 0.063531 255 0 0
-0.432506 0.193534 0.247017 0 127 127
