ply
format ascii 1.0
element vertex 1263
property float x
property float y
property float z
property uchar red
property uchar green
property uchar blue
end_header
0.533902 0.375105 0.309483 0 127 127
0.396417 -0.511033 -0.138294 153 0 76
0.120644 0.551796 0.073656 204 51 127
-0.461265 0.551796 -0.218624 204 51 127
0.470416 -0.512907 0.309446 0 127 127
-0.213868 0.098594 -0.264203 76 0 153
-0.132517 0.527641 0.020426 204 51 127
0.068041 0.442252 -0.264203 76 0 153
0.043024 0.527641 0.160948 204 51 127
-0.168095 0.208401 0.243647 153 76 0
-0.247540 0.026420 0.022091 127 127 0
0.257814 0.557173 0.304429 0 127 127
-0.206684 -0.169753 0.273213 0 127 127
0.621211 -0.269056 -0.282320 76 0 153
0.239863 -0.219949 -0.282320 76 0 153
-0.704020 -0.511033 -0.132836 153 0 76
0.360939 0.527641 -0.089160 204 51 127
-0.637522 -0.255012 -0.264203 76 0 153
-0.210326 0.527641 -0.243899 204 51 127
-0.465306 -0.336159 0.273250 153 76 0
-0.778523 -0.269457 0.237017 153 76 0
0.397211 0.527641 0.236346 204 51 127
0.595804 0.566895 0.287901 0 127 127
0.197986 -0.009813 -0.132418 127 127 0
0.062848 -0.151121 0.279132 0 127 127
-0.232486 0.044556 0.237017 153 76 0
-0.617101 0.463174 -0.306475 0 255 0
-0.784052 -0.239468 0.081154 76 0 153
0.761881 0.083738 0.161014 153 0 76
-0.555213 0.014419 -0.282320 76 0 153
-0.141420 0.469496 -0.282320 76 0 153
-0.554578 -0.352245 0.255547 153 76 0
-0.497579 0.527641 -0.067375 204 51 127
0.408709 0.229399 0.279132 0 127 127
-0.022011 0.396055 -0.282320 76 0 153
-0.808207 -0.239577 -0.091498 76 0 153
-0.509474 0.551796 0.058046 204 51 127
0.529375 0.026420 -0.258617 127 127 0
-0.789751 0.301764 0.237017 153 76 0
0.302223 -0.511033 0.086651 153 0 76
-0.717447 0.267516 -0.264203 76 0 153
0.737725 0.090368 -0.214015 153 0 76
0.331432 -0.490592 -0.306475 0 0 255
-0.113116 0.451296 -0.264203 76 0 153
0.761881 -0.509010 -0.153323 153 0 76
-0.120242 0.413818 -0.264203 76 0 153
0.737725 -0.512570 0.112011 153 0 76
-0.554578 0.271501 0.246115 153 76 0
0.624257 -0.511033 0.139762 153 0 76
-0.618297 0.575951 0.258788 153 76 0
0.438404 -0.212627 0.309483 0 127 127
0.406842 -0.172196 -0.282320 76 0 153
0.617314 0.527641 0.188302 204 51 127
-0.380314 0.085264 -0.282320 76 0 153
-0.216914 -0.210251 -0.264203 76 0 153
0.329246 -0.291605 0.279132 0 127 127
0.265583 0.555907 -0.306475 0 255 0
0.675013 0.026420 0.204229 127 127 0
0.033707 0.024940 -0.306475 255 0 0
0.737725 -0.351859 0.226356 153 0 76
0.344713 -0.331055 -0.282320 76 0 153
-0.338270 0.527641 0.015932 204 51 127
-0.077162 -0.299961 0.279132 0 127 127
-0.702225 0.571829 0.273250 153 76 0
-0.313898 0.527088 -0.264203 76 0 153
-0.412512 0.527641 -0.230099 204 51 127
0.162399 -0.511033 -0.227200 153 0 76
-0.202135 0.155936 0.237017 153 76 0
-0.510895 0.527641 -0.159099 204 51 127
0.114786 0.006852 -0.306475 255 0 0
-0.713455 0.527641 -0.121853 204 51 127
-0.609403 0.048215 -0.306475 255 0 0
-0.808207 0.530418 -0.269962 76 0 153
0.015495 -0.535188 -0.204574 153 0 76
-0.214077 0.279148 -0.264203 76 0 153
-0.672883 -0.390604 -0.282320 76 0 153
0.331640 -0.009813 -0.204400 127 127 0
0.187260 0.551796 -0.158814 204 51 127
0.048204 -0.003268 0.309483 0 127 127
0.761881 0.127401 0.063262 153 0 76
0.737725 -0.170397 -0.126741 153 0 76
0.323344 0.160964 0.309483 0 127 127
-0.173803 0.551796 -0.256744 204 51 127
-0.185395 0.258523 0.273250 153 76 0
0.561738 -0.009813 -0.034907 127 127 0
-0.031083 0.049222 -0.282320 255 0 0
0.207827 0.004248 -0.282320 76 0 153
0.307272 -0.009813 -0.049399 127 127 0
0.761881 0.180563 0.180946 153 0 76
0.377281 -0.245576 0.279132 0 127 127
0.685676 0.067721 -0.264203 76 0 153
-0.352889 -0.535188 0.092171 153 0 76
0.761881 -0.164990 0.049762 153 0 76
0.473191 0.527641 -0.243542 204 51 127
-0.544873 0.109843 -0.264203 76 0 153
0.209174 -0.452409 -0.264203 76 0 153
0.737725 -0.012930 0.098180 153 0 76
-0.323133 -0.227427 -0.264203 76 0 153
-0.167116 -0.072234 -0.264203 76 0 153
0.761881 0.138409 0.012393 153 0 76
0.761881 0.454016 0.142637 153 0 76
0.435008 -0.535188 0.139106 153 0 76
-0.046692 0.105781 0.309483 0 127 127
-0.243721 0.129053 0.273250 153 76 0
-0.487386 0.557098 0.237017 153 76 0
-0.278020 -0.009813 -0.241354 127 127 0
0.635689 -0.511033 -0.169420 153 0 76
-0.358307 0.527641 -0.114155 204 51 127
0.737382 -0.263481 -0.264203 76 0 153
-0.527856 -0.207995 0.273250 153 76 0
0.761881 -0.054288 -0.159623 153 0 76
0.722095 0.026420 -0.138927 127 127 0
0.449890 -0.122405 -0.282320 76 0 153
-0.050917 -0.535188 -0.135906 153 0 76
0.710961 0.446052 -0.264203 76 0 153
-0.231499 -0.426214 0.289336 0 127 127
0.761881 -0.346081 0.057368 153 0 76
0.682313 -0.155948 0.273213 0 127 127
-0.044784 -0.524005 -0.306475 0 0 255
-0.475780 -0.238249 0.237017 153 76 0
-0.555026 0.527641 0.205409 204 51 127
0.737725 0.117844 -0.244117 153 0 76
-0.299552 -0.325304 -0.264203 76 0 153
0.508901 -0.541047 0.304283 0 127 127
0.327757 0.238739 -0.264203 76 0 153
-0.699833 -0.535188 -0.240849 153 0 76
-0.377730 -0.176228 -0.282320 76 0 153
0.029471 -0.009813 -0.259813 127 127 0
0.633033 -0.490347 -0.306475 0 0 255
0.737725 -0.507184 -0.300490 153 0 76
0.664811 0.184732 0.273213 0 127 127
0.114349 0.551796 0.149959 204 51 127
-0.142558 -0.511033 -0.256372 153 0 76
0.343364 -0.511033 -0.260927 153 0 76
-0.488460 -0.188424 0.237017 153 76 0
-0.326240 0.032030 0.237017 153 76 0
0.737725 -0.358114 -0.262414 153 0 76
-0.365281 0.149487 -0.264203 76 0 153
0.615680 -0.128430 -0.264203 76 0 153
-0.672554 -0.535188 -0.047855 153 0 76
-0.660753 0.527641 0.096714 204 51 127
-0.415671 0.173734 0.273250 153 76 0
-0.099995 -0.535188 -0.029738 153 0 76
0.761881 -0.042872 -0.279609 153 0 76
-0.808207 -0.139743 -0.304894 76 0 153
0.737725 -0.465861 -0.250238 153 0 76
0.476950 0.374919 -0.264203 76 0 153
0.114392 0.551796 -0.075989 204 51 127
-0.005495 0.026420 -0.030830 127 127 0
-0.784052 -0.473177 -0.089039 76 0 153
-0.662314 -0.303845 -0.264203 76 0 153
0.358266 0.026420 0.122330 127 127 0
0.446866 0.031538 -0.282320 76 0 153
-0.607760 0.527641 0.180800 204 51 127
-0.808207 -0.244797 0.100107 76 0 153
-0.820285 -0.481123 0.245540 153 76 0
0.773958 0.208352 0.265837 153 76 0
-0.219531 -0.337844 0.306533 0 127 127
0.641957 -0.466613 -0.282320 0 0 255
-0.398564 -0.009813 0.107248 127 127 0
0.737725 -0.235137 -0.221403 153 0 76
0.425480 0.538252 0.237017 153 76 0
-0.176974 0.026420 -0.170870 127 127 0
-0.644283 0.544342 -0.306475 0 255 0
-0.245782 0.012972 -0.282320 255 0 0
0.686824 0.012768 0.237017 127 127 0
0.493111 0.026420 -0.151978 127 127 0
0.749661 0.426966 -0.306475 153 0 76
0.737725 0.245066 -0.152897 153 0 76
-0.614671 -0.516623 0.237017 153 76 0
-0.808207 -0.220378 -0.224785 76 0 153
0.473971 -0.009813 -0.242080 127 127 0
0.303583 0.026420 -0.041285 127 127 0
0.268413 -0.009813 0.125834 127 127 0
-0.720066 0.551796 0.051096 204 51 127
0.185404 0.551796 0.034569 204 51 127
0.737725 -0.517373 0.156563 153 0 76
-0.563438 0.145333 -0.264203 76 0 153
-0.648529 0.551796 -0.162390 204 51 127
0.761881 0.443160 -0.125579 153 0 76
-0.805191 -0.099846 0.273250 153 76 0
-0.325076 0.552608 0.237017 153 76 0
-0.416114 -0.497323 -0.306475 0 0 255
-0.744590 0.080769 -0.293695 255 0 0
0.491398 -0.009813 -0.147127 127 127 0
-0.299933 -0.511033 -0.245077 153 0 76
0.206622 -0.009813 0.109780 127 127 0
-0.513722 -0.414412 -0.291726 0 0 255
0.678383 0.551796 0.163015 204 51 127
0.567039 0.173699 -0.264203 76 0 153
-0.165156 -0.416069 -0.282320 76 0 153
-0.329341 -0.535188 -0.124648 153 0 76
-0.784052 0.345447 -0.282963 76 0 153
0.360521 -0.383575 -0.282320 76 0 153
0.386831 -0.535188 -0.006762 153 0 76
-0.043754 0.527641 -0.058342 204 51 127
0.737725 0.501838 0.054836 153 0 76
-0.371756 0.527882 0.273250 153 76 0
0.047625 -0.394380 0.279132 0 127 127
-0.145113 -0.272316 -0.282320 76 0 153
-0.467363 0.333103 -0.282320 76 0 153
0.354136 0.527641 0.071661 204 51 127
-0.808207 0.113685 0.085562 76 0 153
0.075535 -0.193286 -0.282320 76 0 153
0.761881 -0.156250 -0.109569 153 0 76
0.273980 0.357449 0.279132 0 127 127
-0.286947 -0.088210 0.273250 153 76 0
-0.780301 -0.151471 -0.264203 76 0 153
0.733449 0.063210 -0.282320 255 0 0
0.620606 0.551796 -0.067006 204 51 127
-0.528381 -0.511033 -0.245825 153 0 76
0.609933 -0.535188 -0.126534 153 0 76
0.468319 -0.116252 0.309483 0 127 127
0.736368 0.470606 -0.282320 0 255 0
0.761881 -0.309194 -0.055927 153 0 76
-0.467917 -0.009813 0.015107 127 127 0
0.761881 0.261359 0.121633 153 0 76
0.616612 -0.335868 -0.282320 76 0 153
-0.784052 -0.531860 0.052720 76 0 153
-0.808207 -0.236613 0.027226 76 0 153
-0.737903 -0.009813 -0.239927 127 127 0
-0.180408 -0.455038 0.273213 0 127 127
0.675421 0.551796 0.015592 204 51 127
0.251215 0.070508 -0.282320 76 0 153
0.678884 -0.511033 -0.131142 153 0 76
0.761881 0.417506 -0.142174 153 0 76
-0.711203 0.124277 -0.282320 76 0 153
-0.240999 0.439040 0.273250 153 76 0
0.188705 0.116235 -0.282320 76 0 153
0.635036 -0.257435 0.279132 0 127 127
0.695124 -0.475736 -0.264203 76 0 153
-0.808207 -0.164170 0.200654 76 0 153
-0.268393 0.551796 -0.263383 204 51 127
0.737725 0.151259 0.164410 153 0 76
-0.655793 0.523245 -0.282320 0 255 0
-0.075635 -0.009813 -0.013206 127 127 0
-0.747155 0.527641 0.168199 204 51 127
-0.808207 0.507507 0.200765 76 0 153
-0.351425 -0.511033 -0.063608 153 0 76
0.345113 0.289239 0.279132 0 127 127
-0.339683 0.462687 -0.264203 76 0 153
0.157462 0.527641 -0.265406 204 51 127
0.737725 0.302628 0.150036 153 0 76
-0.806669 -0.559344 -0.109396 76 0 153
0.006152 -0.511033 0.184669 153 0 76
-0.146376 0.242569 -0.282320 76 0 153
-0.466796 0.308047 0.273250 153 76 0
-0.447314 -0.535188 -0.211954 153 0 76
-0.576654 -0.009813 -0.231095 127 127 0
-0.729791 0.026420 0.133447 127 127 0
0.150418 0.527641 -0.214632 204 51 127
0.265735 0.518215 0.237017 153 76 0
0.761881 0.529448 -0.066386 153 0 76
-0.543705 0.213384 -0.282320 76 0 153
0.389749 -0.143420 -0.264203 76 0 153
-0.214776 -0.446783 0.237017 153 76 0
-0.784052 -0.206070 0.186503 76 0 153
0.737725 -0.553082 0.029129 153 0 76
-0.512269 0.481328 0.273250 153 76 0
0.761881 -0.533282 -0.006443 153 0 76
0.459889 -0.009813 -0.033046 127 127 0
-0.248931 -0.460261 0.237017 153 76 0
0.659066 0.026420 0.177675 127 127 0
-0.110948 -0.527267 -0.282320 0 0 255
0.040380 0.026420 -0.241235 127 127 0
-0.495586 -0.535188 -0.194994 153 0 76
0.395694 0.527641 -0.039652 204 51 127
0.208993 0.265088 0.279132 0 127 127
-0.306041 0.303645 0.237017 153 76 0
0.761881 -0.462521 0.195695 153 0 76
-0.020968 0.527641 -0.260511 204 51 127
-0.180291 0.467108 0.273213 0 127 127
0.058570 0.551796 0.085484 204 51 127
0.630342 -0.074596 0.291996 0 127 127
0.495048 0.533091 0.273213 0 127 127
-0.314188 0.527641 -0.123921 204 51 127
-0.458455 -0.511033 -0.047584 153 0 76
0.410665 0.527641 0.155508 204 51 127
0.609162 0.551796 -0.039785 204 51 127
-0.280648 0.103414 -0.282320 76 0 153
0.566661 0.445364 0.290691 0 127 127
0.761881 -0.049532 -0.009235 153 0 76
0.105445 -0.009813 -0.117175 127 127 0
-0.680432 -0.507421 -0.282320 76 0 153
-0.808207 0.044455 -0.159665 76 0 153
0.761881 -0.493561 0.182761 153 0 76
0.436800 -0.511033 0.218553 153 0 76
0.317927 -0.511033 0.161515 153 0 76
-0.498411 0.314259 -0.264203 76 0 153
0.151058 -0.486348 -0.282320 0 0 255
0.592530 -0.009813 0.166224 127 127 0
-0.681845 -0.009813 -0.214519 127 127 0
-0.808207 -0.229040 -0.130083 76 0 153
-0.232924 -0.511033 -0.171904 153 0 76
-0.001135 -0.559344 0.243147 153 76 0
0.574029 -0.486878 0.239155 153 76 0
-0.808207 -0.185696 0.140970 76 0 153
-0.133478 -0.535188 -0.109138 153 0 76
0.737725 0.476717 0.146508 153 0 76
-0.641184 -0.440502 -0.282320 0 0 255
-0.307054 -0.535188 0.201506 153 0 76
0.397796 0.200167 -0.264203 76 0 153
0.176244 -0.457222 -0.282320 76 0 153
-0.692851 -0.535188 -0.121830 153 0 76
-0.808207 0.355887 0.120509 76 0 153
-0.775202 0.503812 0.273250 153 76 0
-0.023784 0.132372 -0.264203 76 0 153
-0.474738 0.168446 -0.282320 76 0 153
-0.661211 -0.511033 0.184721 153 0 76
-0.387725 0.431950 -0.282320 76 0 153
0.006543 -0.535188 0.068195 153 0 76
0.176473 -0.232046 -0.282320 76 0 153
-0.808207 0.206140 0.204224 76 0 153
0.412221 -0.025354 0.309483 0 127 127
-0.071162 -0.511033 -0.247888 153 0 76
-0.292202 -0.006880 -0.282320 76 0 153
0.333724 0.463020 -0.264203 76 0 153
0.057859 0.527641 0.191845 204 51 127
-0.784052 0.120350 0.165220 76 0 153
-0.585992 -0.511033 -0.105618 153 0 76
-0.575461 -0.078420 -0.282320 76 0 153
-0.349507 0.077155 0.273250 153 76 0
0.000300 -0.535188 -0.160236 153 0 76
0.445308 -0.511033 -0.045536 153 0 76
0.114451 -0.535188 -0.117364 153 0 76
0.360994 0.551796 0.098813 204 51 127
-0.289749 0.527641 -0.245805 204 51 127
-0.220689 -0.535188 0.079227 153 0 76
-0.808207 -0.062389 -0.024541 76 0 153
0.577412 0.500722 -0.264203 76 0 153
-0.259811 0.031261 -0.306475 255 0 0
0.059872 -0.492424 0.309446 0 127 127
-0.784052 0.319179 0.168547 76 0 153
0.393142 0.458704 -0.282320 0 255 0
-0.231498 0.065123 0.288621 0 127 127
-0.043892 0.258766 0.279132 0 127 127
-0.123125 -0.511033 -0.146151 153 0 76
0.737725 0.194890 0.153181 153 0 76
-0.421463 0.026299 -0.282320 255 0 0
0.756324 0.457450 0.273250 153 76 0
0.626551 0.566897 0.290639 0 127 127
-0.286195 -0.299826 0.237017 153 76 0
-0.808207 -0.063202 -0.140941 76 0 153
-0.579497 0.057368 -0.282320 76 0 153
0.085560 -0.034239 -0.264203 76 0 153
0.495342 0.451564 -0.282320 76 0 153
0.050893 0.026420 -0.047476 127 127 0
0.761881 0.178667 -0.030132 153 0 76
0.505966 -0.535188 0.088474 153 0 76
0.761881 0.114659 -0.288296 153 0 76
-0.493867 0.255623 -0.282320 76 0 153
-0.436475 0.026420 -0.211987 127 127 0
0.545930 -0.471308 -0.306475 0 0 255
0.737725 -0.383471 0.108275 153 0 76
0.228800 -0.559344 0.256139 153 76 0
0.447861 -0.290083 -0.264203 76 0 153
0.588327 -0.420489 -0.282320 0 0 255
0.401149 0.504916 -0.282320 0 255 0
0.466596 -0.411703 0.279132 0 127 127
-0.720819 -0.535188 -0.272511 153 0 76
0.379943 -0.511033 0.014373 153 0 76
-0.591501 0.026420 -0.164063 127 127 0
-0.784052 -0.020972 -0.268884 76 0 153
0.619370 -0.152197 -0.282320 76 0 153
0.238428 -0.140362 -0.282320 76 0 153
-0.168131 0.026420 0.086187 127 127 0
-0.023087 -0.479263 -0.282320 76 0 153
-0.438198 0.550597 0.237017 153 76 0
-0.175909 -0.423057 0.309446 0 127 127
0.737725 -0.219867 -0.085135 153 0 76
0.528291 0.380863 0.279132 0 127 127
0.702624 -0.550285 0.292980 0 127 127
0.761881 0.031141 0.205274 153 0 76
-0.784052 0.278491 -0.189215 76 0 153
-0.608087 -0.499806 -0.306475 0 0 255
-0.784052 -0.157765 -0.184860 76 0 153
0.761881 0.501384 -0.079773 153 0 76
0.761881 -0.236970 0.035657 153 0 76
-0.820285 -0.321069 0.241968 153 76 0
0.338591 -0.516628 0.309446 0 127 127
0.220208 0.551796 0.185624 204 51 127
-0.114879 -0.486878 0.247888 153 76 0
0.761881 -0.240534 -0.046984 153 0 76
-0.355969 -0.533326 -0.306475 0 0 255
0.761881 0.343594 0.078055 153 0 76
0.193802 0.260569 0.309483 0 127 127
0.558467 0.527641 0.201043 204 51 127
0.090401 -0.009813 0.215316 127 127 0
0.528978 -0.401587 0.296889 0 127 127
-0.135166 -0.377303 0.309446 0 127 127
-0.058474 0.503485 0.245784 153 76 0
-0.252368 -0.511033 -0.197997 153 0 76
-0.307293 -0.548204 0.273250 153 76 0
-0.250028 0.364317 0.237017 153 76 0
0.737725 0.274067 0.190554 153 0 76
-0.441618 -0.511033 0.196480 153 0 76
0.422960 0.527641 -0.119752 204 51 127
-0.711044 0.472256 -0.264203 76 0 153
-0.553866 -0.511033 0.223369 153 0 76
-0.784052 0.071096 0.216373 76 0 153
0.503535 0.529574 -0.306475 0 255 0
0.393129 0.026420 -0.086622 127 127 0
-0.339905 0.527641 0.127248 204 51 127
0.093410 0.057145 0.279132 0 127 127
0.643919 0.223247 -0.264203 76 0 153
0.002407 0.404155 0.299278 0 127 127
-0.808207 0.340173 0.048813 76 0 153
-0.067460 0.554112 -0.282320 0 255 0
-0.808207 -0.315151 0.209053 76 0 153
0.099375 -0.064162 -0.298212 255 0 0
-0.164184 -0.516243 -0.282320 0 0 255
0.048645 0.033639 -0.282320 255 0 0
0.737725 0.452307 0.026882 153 0 76
0.761881 -0.116700 -0.206373 153 0 76
-0.808207 0.378780 -0.134111 76 0 153
0.264658 0.465407 -0.306475 0 255 0
-0.120345 -0.057645 -0.306475 255 0 0
0.198407 -0.511033 -0.004900 153 0 76
-0.808207 0.029018 0.100294 76 0 153
-0.472983 0.575951 -0.286914 0 255 0
-0.784052 0.008667 0.210147 76 0 153
-0.617920 -0.533530 -0.282320 0 0 255
-0.784052 0.047578 -0.272240 76 0 153
-0.609178 0.551796 0.030041 204 51 127
0.030354 0.527641 0.110165 204 51 127
-0.461079 0.532898 0.237017 153 76 0
0.620193 0.248801 0.296224 0 127 127
0.397782 0.551796 -0.070672 204 51 127
-0.778136 0.557090 -0.306475 0 255 0
0.134122 -0.535188 0.176052 153 0 76
0.391433 0.362907 -0.282320 76 0 153
0.700790 -0.191552 0.309446 0 127 127
0.274078 0.527641 0.024786 204 51 127
-0.808207 0.316129 -0.143187 76 0 153
-0.016064 0.480485 -0.306475 0 255 0
-0.425963 0.503012 -0.282320 0 255 0
-0.808207 0.211270 0.084559 76 0 153
0.460639 0.321612 0.279132 0 127 127
-0.808207 -0.421426 0.215165 76 0 153
0.033841 0.026420 -0.111045 127 127 0
-0.520687 -0.202738 0.237017 153 76 0
0.761881 -0.215105 -0.256191 153 0 76
0.660734 0.089972 0.301672 0 127 127
0.027093 0.551796 0.179671 204 51 127
0.761881 -0.009428 0.159071 153 0 76
-0.001449 0.539542 0.309446 0 127 127
0.279128 -0.535188 0.064869 153 0 76
-0.387397 -0.210432 -0.264203 76 0 153
-0.347816 -0.456736 0.273250 153 76 0
0.764896 -0.172217 0.288585 0 127 127
0.737725 -0.017729 0.037007 153 0 76
0.773958 0.525199 0.259683 153 76 0
-0.130271 -0.559344 0.271472 153 76 0
0.761881 -0.270364 -0.203655 153 0 76
-0.385493 0.551796 0.034926 204 51 127
-0.176760 0.551796 0.072806 204 51 127
-0.808207 0.359893 -0.278823 76 0 153
0.218251 0.551796 -0.072903 204 51 127
0.176987 0.527641 -0.244422 204 51 127
-0.172126 -0.535188 0.031855 153 0 76
0.638178 0.551796 0.075297 204 51 127
0.121513 0.541666 0.273213 0 127 127
0.737725 0.421603 0.066725 153 0 76
-0.097385 0.026420 0.082878 127 127 0
-0.511784 0.068349 -0.306475 255 0 0
0.391342 -0.535188 0.178135 153 0 76
0.401568 -0.535188 -0.162991 153 0 76
0.353171 0.575951 0.244267 153 76 0
-0.553533 0.454391 0.237017 153 76 0
-0.784052 -0.434080 -0.120994 76 0 153
0.546497 -0.535188 0.184529 153 0 76
0.169699 0.332299 -0.264203 76 0 153
0.737725 -0.404808 -0.157797 153 0 76
-0.705329 -0.009813 0.195228 127 127 0
0.529970 -0.508385 -0.264203 76 0 153
-0.141003 -0.345117 0.273213 0 127 127
0.250299 -0.007635 0.237017 127 127 0
-0.422933 -0.463543 -0.282320 0 0 255
0.680709 -0.419317 -0.306475 0 0 255
-0.812728 0.519418 0.273250 153 76 0
0.242448 -0.535188 0.058726 153 0 76
0.612634 -0.511033 0.101085 153 0 76
-0.108464 0.551796 0.153126 204 51 127
-0.535237 -0.511033 0.101735 153 0 76
0.405652 -0.339939 -0.264203 76 0 153
-0.458439 -0.511033 0.164384 153 0 76
0.350533 0.026420 -0.065091 127 127 0
0.294389 0.139296 0.279132 0 127 127
0.761881 -0.244643 0.233833 153 0 76
-0.747819 -0.221353 0.241108 153 76 0
-0.062758 -0.176590 -0.282320 76 0 153
-0.250985 0.527641 -0.063083 204 51 127
-0.546111 0.026420 -0.026072 127 127 0
-0.175540 0.353233 0.237017 153 76 0
-0.808207 0.514513 0.145870 76 0 153
0.669645 -0.551591 0.273250 153 76 0
-0.555013 -0.486878 0.252922 153 76 0
0.157937 -0.426972 -0.282320 0 0 255
-0.808207 0.183284 0.229401 76 0 153
-0.199426 0.030792 -0.282320 76 0 153
-0.091367 -0.025732 0.279132 0 127 127
0.065026 -0.511033 0.056127 153 0 76
0.078605 0.311793 -0.264203 76 0 153
0.003076 -0.463802 -0.282320 76 0 153
-0.808207 -0.057738 -0.173877 76 0 153
-0.653324 0.503485 0.246183 153 76 0
0.476591 0.551796 -0.170610 204 51 127
0.512613 0.527641 -0.023444 204 51 127
0.092534 0.473594 0.273213 0 127 127
-0.709626 -0.027535 -0.282320 255 0 0
0.737725 0.387903 -0.234707 153 0 76
0.285538 -0.191358 0.309483 0 127 127
-0.537212 -0.391499 -0.282320 76 0 153
-0.784052 0.092605 -0.285448 76 0 153
0.397975 -0.384688 -0.282320 76 0 153
0.687587 0.527641 -0.072546 204 51 127
-0.344895 -0.499521 -0.282320 76 0 153
0.654197 0.551796 -0.073024 204 51 127
0.535352 -0.419679 -0.282320 0 0 255
-0.138654 0.037138 -0.306475 255 0 0
-0.482736 0.539597 0.273250 153 76 0
0.291062 0.527641 0.152027 204 51 127
-0.152008 -0.370474 -0.282320 76 0 153
0.582996 0.527641 -0.064305 204 51 127
-0.016628 0.253960 0.309483 0 127 127
0.737725 0.299191 0.207815 153 0 76
-0.175697 0.068651 0.273213 0 127 127
0.416124 -0.189262 0.309483 0 127 127
0.514659 0.551796 -0.266615 204 51 127
-0.748618 0.527641 -0.198955 204 51 127
-0.784052 -0.215895 -0.136845 76 0 153
-0.037589 0.026082 0.237017 127 127 0
0.105278 0.522396 -0.306475 0 255 0
-0.320636 -0.009813 -0.020896 127 127 0
-0.487426 0.397649 0.273250 153 76 0
-0.524533 -0.140606 0.237017 153 76 0
0.701425 -0.041414 -0.282320 255 0 0
-0.784052 0.290766 -0.067682 76 0 153
0.737725 -0.241705 0.175759 153 0 76
0.751204 -0.547864 0.273250 153 76 0
-0.653768 0.552729 0.273250 153 76 0
-0.784052 0.440650 -0.010301 76 0 153
-0.298947 -0.009813 -0.169274 127 127 0
-0.384148 -0.009813 -0.000906 127 127 0
-0.808207 0.530682 -0.213903 76 0 153
0.403141 -0.535188 -0.125205 153 0 76
0.129327 -0.535188 0.000854 153 0 76
0.737725 0.565015 -0.175585 153 0 76
0.229608 0.527641 -0.171423 204 51 127
0.093402 0.042399 -0.264203 76 0 153
0.740408 0.479815 0.237017 153 76 0
0.486823 -0.535188 0.218714 153 0 76
-0.144571 -0.262664 0.309446 0 127 127
0.717185 -0.136026 0.309446 0 127 127
-0.758260 0.551796 -0.186477 204 51 127
-0.057778 -0.535188 0.200810 153 0 76
-0.369183 -0.046893 0.237017 153 76 0
-0.297499 -0.511033 -0.167052 153 0 76
0.308068 0.527641 -0.139042 204 51 127
-0.612375 0.563730 -0.306475 0 255 0
0.008176 -0.151421 0.309483 0 127 127
0.226748 0.527641 -0.245844 204 51 127
-0.291536 -0.511033 -0.017724 153 0 76
0.573627 -0.400024 0.297137 0 127 127
0.485520 0.428609 0.293548 0 127 127
0.030709 0.226318 -0.264203 76 0 153
-0.784052 -0.200527 -0.226251 76 0 153
-0.601632 0.487081 -0.282320 76 0 153
-0.447275 -0.292824 -0.282320 76 0 153
-0.808207 -0.394599 0.183595 76 0 153
0.326418 -0.511033 -0.069443 153 0 76
0.135769 0.009040 0.309483 0 127 127
0.447064 -0.239943 0.309483 0 127 127
0.567572 0.196613 0.279132 0 127 127
0.507826 -0.213919 -0.264203 76 0 153
0.272167 -0.511033 0.201346 153 0 76
-0.156913 0.568224 -0.306475 0 255 0
0.761881 0.532043 -0.128437 153 0 76
0.761881 -0.122197 -0.045141 153 0 76
0.671354 0.543667 0.273213 0 127 127
-0.779119 -0.336397 0.237017 153 76 0
-0.488651 0.026420 -0.202114 127 127 0
-0.808207 0.575752 -0.021213 76 0 153
0.366975 0.026420 0.195882 127 127 0
0.761881 0.000252 -0.028391 153 0 76
-0.761860 -0.535188 0.081062 153 0 76
0.762521 0.285940 0.237017 153 76 0
-0.522697 -0.331518 -0.282320 76 0 153
0.737725 -0.527675 0.069884 153 0 76
-0.682483 -0.535188 -0.266376 153 0 76
0.195622 -0.303772 -0.282320 76 0 153
-0.815933 -0.270720 0.273250 153 76 0
0.737725 0.207455 0.083440 153 0 76
0.234566 0.472246 0.273213 0 127 127
-0.784052 -0.029755 0.103768 76 0 153
0.461992 0.167822 0.279132 0 127 127
-0.808207 -0.023330 0.118750 76 0 153
-0.354998 0.258485 -0.264203 76 0 153
-0.242507 -0.009813 -0.063024 127 127 0
-0.002797 -0.056148 0.279132 0 127 127
-0.808207 -0.353943 -0.232505 76 0 153
0.589694 0.286968 0.279132 0 127 127
0.406653 -0.281582 0.279132 0 127 127
0.263269 -0.342365 0.309483 0 127 127
-0.227059 -0.493502 -0.282320 0 0 255
-0.808207 0.331477 0.016010 76 0 153
-0.036709 -0.511033 0.069535 153 0 76
-0.316966 -0.535188 -0.216813 153 0 76
0.632725 -0.009813 -0.140847 127 127 0
0.749922 -0.245283 0.273213 0 127 127
-0.078372 0.026420 -0.084122 127 127 0
-0.300271 -0.009813 -0.129646 127 127 0
-0.784052 0.303857 -0.024500 76 0 153
0.540031 -0.062558 -0.264203 76 0 153
0.596990 0.280702 -0.282320 76 0 153
0.392797 -0.009813 0.179307 127 127 0
-0.177420 0.214011 0.309446 0 127 127
0.761881 -0.265175 0.201797 153 0 76
-0.522943 0.524651 -0.264203 76 0 153
-0.404801 0.486939 0.237017 153 76 0
0.287207 0.489534 -0.264203 76 0 153
0.542314 -0.535188 -0.122228 153 0 76
0.600745 0.551796 -0.088492 204 51 127
0.460592 0.026420 0.092782 127 127 0
0.601098 -0.129100 0.279132 0 127 127
0.527405 0.046579 -0.306475 255 0 0
0.072485 0.575951 -0.306241 0 255 0
0.049970 0.551796 -0.131775 204 51 127
-0.423683 -0.338980 0.237017 153 76 0
0.082042 0.026420 0.206963 127 127 0
-0.407254 0.551796 -0.160415 204 51 127
0.105285 -0.414412 -0.290286 0 0 255
-0.118147 -0.043394 -0.282320 76 0 153
-0.654950 -0.009813 -0.022460 127 127 0
0.476660 -0.159042 -0.282320 76 0 153
-0.504555 -0.142596 0.273250 153 76 0
-0.808207 0.478914 0.130225 76 0 153
-0.102862 0.078464 -0.306475 255 0 0
-0.028425 0.195018 -0.264203 76 0 153
0.141170 0.527641 0.134324 204 51 127
-0.058995 -0.491674 -0.264203 76 0 153
0.182121 0.400245 0.303038 0 127 127
0.744288 -0.151348 -0.306475 153 0 76
-0.205350 -0.092108 0.237017 153 76 0
-0.784052 0.192170 0.199848 76 0 153
-0.179952 0.237057 -0.282320 76 0 153
0.534524 -0.493847 0.273213 0 127 127
-0.124116 -0.535188 0.205658 153 0 76
-0.000303 -0.060767 0.309483 0 127 127
-0.746265 -0.511033 0.157641 153 0 76
-0.495786 0.551796 0.111651 204 51 127
0.735424 0.215489 0.273250 153 76 0
-0.808207 -0.159766 0.033919 76 0 153
-0.299848 -0.107914 0.237017 153 76 0
-0.372110 -0.029790 -0.306475 255 0 0
-0.308941 -0.462336 -0.282320 76 0 153
0.621686 -0.009813 -0.027622 127 127 0
0.208080 -0.006606 0.309483 0 127 127
0.425819 -0.069653 -0.264203 76 0 153
0.135696 0.105178 0.309483 0 127 127
-0.301979 -0.511033 -0.079927 153 0 76
0.307634 -0.140753 0.279132 0 127 127
-0.125074 0.490025 -0.306475 0 255 0
-0.419001 -0.535188 -0.195998 153 0 76
-0.054726 -0.401052 -0.282320 76 0 153
-0.147007 0.099651 0.309446 0 127 127
-0.497851 -0.511033 -0.041774 153 0 76
-0.283625 -0.348488 -0.264203 76 0 153
0.487107 -0.009813 0.077131 127 127 0
0.053569 -0.009813 0.078458 127 127 0
-0.101722 -0.511033 -0.194483 153 0 76
-0.184169 0.026420 0.166453 127 127 0
-0.786319 -0.559344 -0.063291 76 0 153
0.273409 0.261273 -0.264203 76 0 153
-0.242526 0.330155 -0.282320 76 0 153
-0.808207 0.402535 0.139449 76 0 153
0.348702 -0.511033 0.160679 153 0 76
0.384780 -0.414412 -0.303273 0 0 255
-0.311895 0.551796 -0.080242 204 51 127
-0.186328 0.272811 -0.264203 76 0 153
0.078935 0.375530 -0.282320 76 0 153
0.580241 0.372751 0.279132 0 127 127
0.508604 -0.486878 0.263095 153 76 0
0.027714 0.084145 0.279132 0 127 127
0.701493 0.497905 0.240699 153 76 0
-0.014467 0.234537 -0.282320 76 0 153
0.004665 -0.552822 0.273250 153 76 0
0.211938 0.280435 -0.264203 76 0 153
-0.344255 -0.264341 -0.282320 76 0 153
-0.247134 0.249403 0.273250 153 76 0
0.541526 0.177732 0.279132 0 127 127
0.206491 -0.535188 -0.028506 153 0 76
-0.364972 -0.245115 0.273250 153 76 0
-0.491513 0.139405 0.237017 153 76 0
0.344914 -0.559023 0.237017 153 76 0
0.671552 -0.535188 0.037652 153 0 76
0.241272 0.527641 -0.075244 204 51 127
0.633160 0.575951 0.262032 153 76 0
-0.554578 -0.448566 0.261217 153 76 0
0.180929 -0.530729 0.273213 0 127 127
-0.808207 0.042425 -0.299021 76 0 153
-0.440962 -0.211065 0.237017 153 76 0
-0.160140 0.394446 -0.264203 76 0 153
-0.168095 0.046738 0.246546 153 76 0
-0.526135 -0.085259 -0.282320 76 0 153
-0.635652 0.551796 0.229134 204 51 127
-0.222108 0.175960 -0.264203 76 0 153
-0.521663 0.293125 -0.264203 76 0 153
0.418228 0.476567 -0.282320 0 255 0
-0.598564 0.527641 0.125799 204 51 127
0.235454 0.566883 0.279667 0 127 127
0.619081 0.137522 0.296431 0 127 127
0.429931 0.065558 0.309483 0 127 127
-0.438812 0.457383 0.237017 153 76 0
-0.530469 0.425316 -0.282320 76 0 153
-0.635435 -0.059051 -0.264203 76 0 153
-0.605287 -0.535188 -0.112879 153 0 76
0.411791 -0.498300 0.237017 153 76 0
-0.575538 -0.166672 -0.282320 76 0 153
-0.264633 -0.450048 -0.282320 0 0 255
-0.799217 0.102982 -0.306475 76 0 153
0.576178 -0.120489 -0.282320 76 0 153
-0.500262 0.527056 -0.306475 0 255 0
0.737725 0.315345 -0.204886 153 0 76
-0.400954 0.072774 0.273250 153 76 0
0.674338 0.278501 -0.282320 76 0 153
-0.808207 -0.290868 -0.172149 76 0 153
-0.330901 0.055766 -0.282320 255 0 0
0.364751 0.026420 -0.236026 127 127 0
-0.513525 0.277435 0.237017 153 76 0
-0.016848 0.026420 0.123880 127 127 0
0.574004 0.574226 -0.282320 0 255 0
0.667289 -0.140351 -0.282320 76 0 153
-0.280379 0.150187 -0.264203 76 0 153
-0.703280 -0.462349 -0.306475 0 0 255
0.764899 -0.371437 0.291675 0 127 127
0.483517 -0.322173 -0.264203 76 0 153
-0.208371 -0.009813 -0.174243 127 127 0
0.684915 0.442572 -0.282320 0 255 0
0.371341 -0.514431 0.237017 153 76 0
0.657994 0.551796 0.217364 204 51 127
-0.784809 0.004683 0.273250 153 76 0
0.737725 0.296787 -0.073608 153 0 76
0.597896 -0.275255 0.306898 0 127 127
0.640688 -0.543316 0.303303 0 127 127
-0.186420 0.564690 0.273250 153 76 0
-0.287903 0.416015 -0.264203 76 0 153
0.737725 -0.411423 -0.297975 153 0 76
-0.478208 0.527641 0.212813 204 51 127
0.761881 0.182808 0.121561 153 0 76
-0.166910 0.026420 0.025782 127 127 0
0.572343 0.551796 -0.192670 204 51 127
0.688268 -0.229589 -0.282320 76 0 153
-0.208933 -0.535188 -0.169460 153 0 76
-0.784052 0.521026 0.207055 76 0 153
0.349161 0.432647 -0.306475 0 255 0
0.319497 0.419941 -0.264203 76 0 153
0.330276 -0.535188 -0.036368 153 0 76
-0.376966 -0.511033 0.042209 153 0 76
0.587641 -0.535188 0.083995 153 0 76
-0.784052 0.559918 -0.244782 76 0 153
-0.050904 0.092357 0.279132 0 127 127
0.420592 -0.511033 0.177629 153 0 76
0.577176 -0.443909 0.276333 0 127 127
0.737725 -0.014486 0.134054 153 0 76
-0.207110 -0.411665 0.273250 153 76 0
0.392049 -0.299149 -0.282320 76 0 153
-0.641244 -0.535188 0.075870 153 0 76
0.182739 0.470006 -0.306475 0 255 0
0.761881 0.393943 -0.096858 153 0 76
-0.784052 0.495317 0.014838 76 0 153
0.121018 -0.508039 -0.282320 76 0 153
-0.401859 -0.535188 -0.116912 153 0 76
-0.510465 0.503485 0.245115 153 76 0
0.520526 -0.176954 -0.264203 76 0 153
0.426127 -0.423455 0.279132 0 127 127
-0.678464 0.527641 -0.099971 204 51 127
0.130274 0.163996 -0.282320 76 0 153
-0.784052 -0.452227 -0.170786 76 0 153
0.494129 -0.538236 0.273213 0 127 127
0.713762 0.026420 0.023961 127 127 0
0.686118 -0.009813 -0.158620 127 127 0
-0.084356 0.122358 -0.264203 76 0 153
-0.687442 0.484952 -0.282320 0 255 0
-0.152178 -0.470289 0.309446 0 127 127
-0.430707 0.201195 0.237017 153 76 0
-0.784052 0.252114 0.034960 76 0 153
0.061483 -0.090874 -0.264203 76 0 153
-0.256299 -0.009813 0.070813 127 127 0
0.176722 -0.511033 -0.058512 153 0 76
-0.808207 0.295309 -0.002348 76 0 153
0.191237 -0.511033 0.181995 153 0 76
-0.076778 0.026420 0.205097 127 127 0
0.272870 0.492552 -0.306475 0 255 0
0.628299 -0.400017 -0.264203 76 0 153
-0.808207 -0.422320 -0.114073 76 0 153
0.331120 0.551796 -0.225128 204 51 127
0.184920 0.127233 0.279132 0 127 127
0.193478 0.551796 0.149265 204 51 127
0.761881 0.548628 -0.004169 153 0 76
0.546443 -0.512504 -0.306475 0 0 255
0.167338 0.161134 0.279132 0 127 127
-0.140388 0.014248 0.237017 127 127 0
-0.724678 -0.009813 0.046344 127 127 0
-0.808207 -0.232322 0.128998 76 0 153
0.219052 0.575951 0.246809 153 76 0
-0.060774 0.551796 0.164873 204 51 127
0.737725 0.127605 -0.147542 153 0 76
-0.243388 0.404734 0.273250 153 76 0
0.358639 0.016932 -0.264203 76 0 153
0.477195 -0.511033 -0.189562 153 0 76
0.723797 -0.176934 -0.264203 76 0 153
-0.808207 -0.070883 0.090073 76 0 153
-0.512670 0.329442 0.237017 153 76 0
-0.302384 0.024457 -0.264203 127 127 0
-0.567234 -0.005648 -0.306475 255 0 0
0.344418 -0.511033 0.230463 153 0 76
0.296400 -0.535188 0.137031 153 0 76
0.737725 0.194823 -0.235961 153 0 76
-0.184171 0.527641 0.057570 204 51 127
-0.784052 0.205221 0.233972 76 0 153
-0.808207 -0.265723 -0.220831 76 0 153
0.520261 0.527641 -0.132490 204 51 127
0.059256 -0.528365 -0.282320 0 0 255
0.014627 0.103240 0.309483 0 127 127
-0.025256 -0.042341 -0.282320 255 0 0
0.737725 0.112276 -0.046893 153 0 76
-0.178930 -0.511033 -0.168786 153 0 76
0.264574 -0.511033 0.173453 153 0 76
-0.782444 0.238412 0.273250 153 76 0
-0.318821 0.551796 -0.012044 204 51 127
0.570218 0.185986 0.309483 0 127 127
0.004372 -0.535188 0.009225 153 0 76
-0.081931 -0.535188 -0.278303 153 0 76
0.521172 0.551796 0.019602 204 51 127
-0.537164 0.337870 -0.264203 76 0 153
-0.140794 -0.535188 -0.280228 153 0 76
-0.808207 -0.458207 -0.087502 76 0 153
0.465126 0.026420 -0.144153 127 127 0
-0.784052 -0.468215 -0.283259 76 0 153
-0.001199 0.050269 -0.282320 76 0 153
0.761881 -0.012569 -0.219028 153 0 76
0.032299 -0.009813 0.198588 127 127 0
0.384025 -0.535188 0.210959 153 0 76
-0.478221 0.411175 -0.264203 76 0 153
0.004852 -0.511033 0.104220 153 0 76
0.199599 -0.535188 0.080402 153 0 76
-0.168095 0.178343 0.258912 153 76 0
0.072520 0.094920 0.309483 0 127 127
0.761881 0.276647 0.052089 153 0 76
0.239319 -0.522701 0.237017 153 76 0
0.512808 -0.009813 -0.079907 127 127 0
-0.758343 0.380727 -0.264203 76 0 153
0.281708 0.044760 -0.306475 255 0 0
-0.808207 0.400056 0.077574 76 0 153
0.194884 0.551796 -0.197225 204 51 127
0.693402 0.114074 0.309446 0 127 127
-0.713114 -0.507726 0.237017 153 76 0
0.669108 -0.475231 -0.306475 0 0 255
0.757269 -0.198156 0.303628 0 127 127
-0.808207 -0.465885 -0.226583 76 0 153
-0.188526 -0.544829 0.273213 0 127 127
-0.299550 0.026420 0.232720 127 127 0
-0.394470 -0.068913 -0.282320 76 0 153
0.148449 0.471436 -0.282320 76 0 153
0.737725 -0.370016 0.058692 153 0 76
-0.008755 -0.522889 0.273213 0 127 127
0.595385 0.527641 0.219861 204 51 127
0.284860 -0.176590 -0.282320 76 0 153
-0.557068 0.554248 0.273250 153 76 0
0.259553 -0.511033 -0.227183 153 0 76
0.737725 0.359763 -0.199504 153 0 76
0.737725 -0.449146 -0.219167 153 0 76
0.761881 0.069419 0.102153 153 0 76
0.338760 0.216969 -0.282320 76 0 153
0.458000 0.383160 0.309483 0 127 127
-0.721341 -0.511033 0.076920 153 0 76
-0.601953 0.346682 -0.264203 76 0 153
0.569729 -0.535188 -0.185109 153 0 76
0.460989 0.116533 -0.282320 76 0 153
0.594514 0.207791 -0.282320 76 0 153
0.266862 0.046722 -0.264203 76 0 153
-0.308177 -0.535188 -0.042793 153 0 76
-0.820285 -0.038826 0.255640 153 76 0
0.134719 -0.535188 0.029844 153 0 76
-0.003444 -0.098746 0.279132 0 127 127
0.661197 0.527641 -0.019057 204 51 127
0.144432 0.097729 0.279132 0 127 127
0.668591 -0.191507 0.273213 0 127 127
0.343428 0.019909 0.279132 0 127 127
0.587300 0.551796 -0.261927 204 51 127
0.134515 -0.535188 -0.172561 153 0 76
0.733447 -0.064162 -0.293728 255 0 0
-0.323469 0.551796 0.170116 204 51 127
-0.058514 0.061697 0.279132 0 127 127
0.737725 0.572622 -0.015865 153 0 76
0.605942 -0.535188 -0.056088 153 0 76
-0.808207 0.239933 -0.038138 76 0 153
0.429255 -0.089161 0.309483 0 127 127
-0.685341 -0.442626 -0.282320 0 0 255
0.737725 0.245239 0.188418 153 0 76
0.403846 -0.559344 0.257431 153 76 0
-0.487675 -0.209145 -0.264203 76 0 153
-0.761950 -0.535188 -0.230059 153 0 76
-0.129672 0.073644 0.304012 0 127 127
0.761881 0.520948 -0.010729 153 0 76
0.604669 -0.001892 0.237017 127 127 0
-0.447414 -0.092561 -0.264203 76 0 153
-0.051586 0.471937 0.309446 0 127 127
-0.784052 -0.350033 0.175216 76 0 153
0.167140 0.026420 0.079298 127 127 0
-0.792251 0.289157 -0.306475 76 0 153
-0.784052 -0.318928 0.190341 76 0 153
-0.341843 -0.009813 -0.133737 127 127 0
-0.337457 0.141124 -0.282320 76 0 153
-0.562162 0.523511 -0.306475 0 255 0
0.263981 0.117754 -0.282320 76 0 153
-0.784052 -0.076201 -0.213133 76 0 153
0.598126 0.503485 0.238566 153 76 0
0.584448 0.026420 -0.119878 127 127 0
-0.630542 0.551796 -0.261235 204 51 127
-0.330342 -0.511033 0.189336 153 0 76
-0.784052 0.138387 -0.105068 76 0 153
-0.734853 0.507524 0.237017 153 76 0
0.492674 0.527641 0.067177 204 51 127
-0.281908 0.524611 -0.306475 0 255 0
0.360622 0.545372 -0.282320 0 255 0
-0.103514 0.551796 -0.186794 204 51 127
0.344759 0.460839 -0.306475 0 255 0
0.432664 0.527641 -0.093296 204 51 127
-0.784052 -0.060842 0.158412 76 0 153
-0.170081 -0.535188 0.142083 153 0 76
0.599439 -0.161555 0.279132 0 127 127
0.270052 0.489587 0.273213 0 127 127
-0.607397 -0.535188 -0.016043 153 0 76
-0.034312 -0.559344 0.251789 153 76 0
-0.626687 0.551796 0.064681 204 51 127
0.665287 -0.486878 0.247498 153 76 0
0.478790 -0.442502 -0.282320 76 0 153
-0.808207 0.139203 -0.232926 76 0 153
-0.090827 0.527641 0.021106 204 51 127
0.429746 -0.471251 0.309446 0 127 127
0.737725 -0.524620 -0.107771 153 0 76
-0.177702 0.074078 -0.264203 76 0 153
0.274058 0.091005 -0.282320 76 0 153
-0.138700 0.551796 -0.116714 204 51 127
-0.803359 -0.493927 -0.306475 76 0 153
0.563838 0.350937 -0.264203 76 0 153
0.188196 -0.511033 -0.093480 153 0 76
0.164321 -0.349117 -0.282320 76 0 153
-0.746902 -0.535188 -0.048576 153 0 76
0.430560 -0.511033 -0.229764 153 0 76
0.761881 -0.247057 0.158944 153 0 76
-0.504226 -0.429862 0.237017 153 76 0
-0.560610 0.527641 0.000620 204 51 127
0.169018 -0.511627 0.309446 0 127 127
0.304586 -0.273400 -0.264203 76 0 153
-0.298053 -0.494284 -0.306475 0 0 255
-0.010872 -0.163600 0.279132 0 127 127
-0.583935 -0.535188 -0.182594 153 0 76
-0.784052 -0.311050 -0.290835 76 0 153
0.215308 -0.559344 -0.290239 0 0 255
-0.784052 0.471407 -0.147785 76 0 153
0.000003 -0.277914 -0.282320 76 0 153
0.255754 -0.178150 -0.264203 76 0 153
0.761881 0.089288 -0.147940 153 0 76
0.737725 0.513857 -0.197373 153 0 76
-0.808207 -0.394460 0.110836 76 0 153
0.151686 -0.161099 -0.282320 76 0 153
0.217353 0.545530 0.273250 153 76 0
-0.422329 0.169107 -0.282320 76 0 153
0.580046 -0.009813 -0.217303 127 127 0
0.343099 0.428056 0.279132 0 127 127
-0.009860 -0.270903 0.279132 0 127 127
0.275259 -0.405375 -0.264203 76 0 153
-0.612923 -0.511033 0.202696 153 0 76
-0.126414 -0.125825 0.300402 0 127 127
0.379428 -0.009813 0.151430 127 127 0
0.729778 0.335386 0.237017 153 76 0
-0.784052 -0.388584 0.058710 76 0 153
0.093761 -0.549956 -0.282320 0 0 255
0.455462 -0.465292 -0.306475 0 0 255
-0.808207 0.345795 -0.210917 76 0 153
0.451731 -0.535188 -0.093953 153 0 76
0.080627 0.493412 -0.306475 0 255 0
-0.313901 -0.270836 -0.264203 76 0 153
-0.447117 0.026420 0.097893 127 127 0
0.167474 0.503485 0.261062 153 76 0
-0.784052 -0.410604 0.038779 76 0 153
0.046573 0.526883 0.237017 153 76 0
-0.199302 0.527641 -0.148497 204 51 127
0.350045 -0.511033 -0.003183 153 0 76
-0.808207 -0.298140 0.008741 76 0 153
-0.768592 -0.535188 0.207232 153 0 76
0.056325 -0.129883 -0.264203 76 0 153
0.246969 -0.511033 -0.071956 153 0 76
0.191124 0.566884 0.281378 0 127 127
0.671292 0.575951 -0.293743 0 255 0
-0.039891 -0.081620 -0.282320 76 0 153
0.081806 -0.057392 0.279132 0 127 127
0.657591 0.489490 -0.282320 76 0 153
-0.481115 0.551796 -0.020308 204 51 127
-0.631345 0.527641 -0.223216 204 51 127
-0.779765 -0.552208 -0.282320 0 0 255
-0.115214 -0.009813 -0.232342 127 127 0
0.196598 0.527641 0.010725 204 51 127
-0.784052 0.130063 0.112781 76 0 153
0.761881 -0.085948 -0.035104 153 0 76
-0.339229 -0.478318 -0.264203 76 0 153
0.136860 0.068476 -0.264203 76 0 153
0.749197 -0.559344 0.194779 153 0 76
0.112461 -0.163773 -0.282320 76 0 153
0.675602 -0.535188 -0.143496 153 0 76
-0.633539 -0.535188 -0.005099 153 0 76
-0.210860 0.026420 -0.210148 127 127 0
0.620770 0.189767 0.295983 0 127 127
0.737725 0.365407 -0.025553 153 0 76
0.761881 0.268030 -0.234373 153 0 76
0.473523 -0.489969 -0.282320 0 0 255
0.573598 0.527641 0.162192 204 51 127
-0.634692 0.076201 -0.282320 76 0 153
0.437741 0.527641 0.027504 204 51 127
-0.452661 -0.538297 -0.306475 0 0 255
-0.099025 -0.522662 -0.306475 0 0 255
0.085279 -0.511033 0.191422 153 0 76
0.625372 -0.188194 0.294066 0 127 127
0.205498 0.218209 0.279132 0 127 127
0.285735 -0.104714 -0.282320 76 0 153
0.322027 -0.009813 0.104048 127 127 0
-0.508947 0.353750 -0.282320 76 0 153
-0.808207 -0.476009 -0.170332 76 0 153
0.385048 0.551796 -0.265909 204 51 127
0.663027 0.046611 -0.282320 255 0 0
0.386194 -0.045142 -0.282320 255 0 0
0.068273 0.026420 -0.192726 127 127 0
0.452419 0.273722 -0.282320 76 0 153
0.592628 0.399393 0.308050 0 127 127
0.085519 -0.511033 -0.251780 153 0 76
0.103133 -0.456169 -0.306475 0 0 255
0.761881 0.469729 -0.218882 153 0 76
-0.784052 0.269223 0.066228 76 0 153
0.240495 -0.535188 -0.225532 153 0 76
0.659945 -0.347754 0.273213 0 127 127
0.271192 0.026420 -0.149128 127 127 0
0.524109 0.013983 -0.282320 76 0 153
0.439528 -0.511033 -0.001563 153 0 76
-0.717823 0.080769 -0.288441 255 0 0
-0.724782 -0.511033 -0.246538 153 0 76
0.737725 0.011805 -0.011433 153 0 76
0.646326 0.551796 -0.110986 204 51 127
0.737725 -0.244308 -0.289444 153 0 76
-0.784052 0.537096 0.063195 76 0 153
0.082219 -0.279580 0.279132 0 127 127
0.737725 0.503880 -0.008512 153 0 76
0.761881 0.134712 -0.018435 153 0 76
0.567407 0.026420 0.124003 127 127 0
-0.458553 -0.029368 0.237017 153 76 0
0.676090 0.333939 -0.282320 76 0 153
-0.236530 -0.511033 -0.141727 153 0 76
0.476136 0.026420 -0.018175 127 127 0
0.638673 -0.174014 -0.282320 76 0 153
0.705132 -0.495228 0.237017 153 76 0
0.181133 0.340801 0.279132 0 127 127
0.638947 -0.535188 -0.157230 153 0 76
-0.431671 -0.024626 0.273250 153 76 0
0.606126 -0.208100 -0.282320 76 0 153
-0.276814 -0.423663 0.237017 153 76 0
0.737725 0.304305 -0.172723 153 0 76
-0.537648 0.551796 0.056541 204 51 127
0.304183 -0.322938 -0.282320 76 0 153
0.635191 0.341357 0.290919 0 127 127
0.594180 -0.535188 0.145628 153 0 76
-0.784052 -0.026104 -0.005933 76 0 153
-0.308973 -0.132801 -0.282320 76 0 153
-0.417290 -0.511033 -0.263317 153 0 76
0.387858 -0.212467 -0.282320 76 0 153
0.184511 0.408764 -0.264203 76 0 153
0.761881 0.021300 -0.296788 153 0 76
-0.066815 0.255973 0.300206 0 127 127
-0.609710 0.551796 -0.082811 204 51 127
0.269584 0.267218 0.309483 0 127 127
-0.650806 0.492441 -0.264203 76 0 153
-0.789335 0.476775 0.237017 153 76 0
0.761881 0.040690 0.136511 153 0 76
-0.808207 0.157673 0.173875 76 0 153
0.258967 0.026420 0.161287 127 127 0
0.047465 0.513012 0.309446 0 127 127
-0.187291 0.527641 0.016765 204 51 127
0.448381 0.551796 -0.038823 204 51 127
-0.560574 -0.009813 0.009956 127 127 0
0.220896 0.528403 -0.306475 0 255 0
0.746823 0.251955 0.309446 0 127 127
-0.346959 -0.535188 -0.075315 153 0 76
-0.784052 -0.046243 0.048771 76 0 153
0.007315 0.182707 0.279132 0 127 127
0.533677 -0.539806 0.237017 153 76 0
0.773958 0.418894 0.251770 153 76 0
-0.168095 -0.218910 0.257756 153 76 0
-0.787593 0.575950 0.146462 76 0 153
0.339442 0.527641 -0.255306 204 51 127
0.737725 0.515010 -0.240771 153 0 76
-0.787301 0.429908 -0.306475 76 0 153
-0.808207 0.204387 -0.252825 76 0 153
-0.808207 0.022685 -0.233363 76 0 153
-0.459901 -0.070227 -0.282320 76 0 153
-0.784052 -0.192408 0.151504 76 0 153
0.737725 0.165289 0.114982 153 0 76
0.701493 0.172173 0.252034 153 76 0
-0.413210 -0.385261 -0.282320 76 0 153
0.761881 -0.280993 -0.261192 153 0 76
0.773958 0.131102 0.241789 153 76 0
0.105774 -0.071401 0.279132 0 127 127
0.193306 0.537154 0.237017 153 76 0
0.748857 0.575950 0.141332 153 0 76
0.737725 0.422022 0.124555 153 0 76
0.109156 0.551796 0.014312 204 51 127
-0.416508 -0.082099 0.273250 153 76 0
0.219925 0.026420 0.226410 127 127 0
-0.405351 -0.140749 -0.282320 76 0 153
-0.588970 0.575951 -0.300115 0 255 0
-0.256934 -0.535188 -0.024921 153 0 76
-0.713807 0.551796 -0.224280 204 51 127
-0.613657 0.026420 0.058021 127 127 0
0.330427 -0.415510 -0.306475 0 0 255
0.541947 -0.133336 -0.264203 76 0 153
0.549006 0.467521 -0.264203 76 0 153
0.282616 0.527641 -0.240775 204 51 127
-0.733496 -0.275496 -0.264203 76 0 153
-0.343642 -0.486998 -0.306475 0 0 255
-0.646852 0.551796 0.180949 204 51 127
-0.302575 0.469884 -0.306475 0 255 0
-0.808207 0.519822 -0.087401 76 0 153
-0.719532 0.527641 0.008125 204 51 127
0.279265 -0.511033 -0.060681 153 0 76
0.761881 0.214789 -0.144401 153 0 76
0.477052 0.316374 -0.264203 76 0 153
0.582974 -0.347078 0.279132 0 127 127
0.730965 0.551796 -0.248637 204 51 127
-0.784052 -0.544653 0.173739 76 0 153
0.390121 -0.535188 -0.267039 153 0 76
-0.784052 -0.502760 0.207591 76 0 153
-0.186472 0.440658 0.309446 0 127 127
-0.012595 -0.525256 -0.282320 0 0 255
-0.171822 0.077567 0.309446 0 127 127
-0.518902 -0.511033 0.140513 153 0 76
-0.294587 0.079455 -0.282320 76 0 153
-0.546042 -0.037722 0.273250 153 76 0
0.116180 -0.511033 0.030725 153 0 76
-0.277625 0.551796 -0.185906 204 51 127
-0.808207 -0.144820 -0.024190 76 0 153
0.122119 -0.535188 0.217334 153 0 76
-0.084538 0.450965 -0.264203 76 0 153
-0.336130 -0.203646 -0.264203 76 0 153
-0.617896 0.551796 -0.140751 204 51 127
-0.125126 -0.242018 0.275892 0 127 127
-0.377227 0.551796 -0.153837 204 51 127
0.737725 0.298106 -0.132730 153 0 76
-0.359250 0.054841 -0.282320 255 0 0
0.761881 -0.057735 0.114658 153 0 76
-0.344876 -0.041436 -0.306475 255 0 0
0.661248 -0.511033 -0.274884 153 0 76
-0.173099 0.503485 0.254838 153 76 0
-0.289593 0.026420 0.011733 127 127 0
-0.808207 -0.128206 -0.132686 76 0 153
-0.338445 -0.297105 -0.264203 76 0 153
0.737725 0.261143 0.096593 153 0 76
-0.784052 0.190924 -0.206294 76 0 153
0.008240 0.026420 -0.119866 127 127 0
0.729476 -0.099099 -0.282320 76 0 153
0.322498 0.422864 0.295941 0 127 127
-0.312421 0.024522 -0.306475 255 0 0
-0.808207 -0.402097 -0.273665 76 0 153
0.696242 0.262207 0.309446 0 127 127
-0.182396 -0.535188 0.212321 153 0 76
-0.549125 0.551796 -0.048958 204 51 127
-0.668792 -0.511033 0.132431 153 0 76
-0.693623 0.026420 -0.026928 127 127 0
0.312115 0.551796 -0.095720 204 51 127
0.187800 0.381516 0.279132 0 127 127
0.761881 0.325499 -0.005324 153 0 76
-0.714081 -0.373614 -0.264203 76 0 153
0.128843 0.527641 -0.033744 204 51 127
0.400447 -0.322129 0.309483 0 127 127
0.737725 -0.376125 -0.051806 153 0 76
0.037330 0.026420 -0.192756 127 127 0
-0.043189 -0.535188 0.159802 153 0 76
0.538490 0.527641 0.220354 204 51 127
0.671876 0.527641 -0.110624 204 51 127
-0.053675 -0.502595 0.237017 153 76 0
0.665130 -0.535188 -0.215639 153 0 76
-0.131129 0.575951 0.241807 153 76 0
0.737725 -0.455998 0.166340 153 0 76
0.279575 0.317855 0.279132 0 127 127
-0.043368 0.443801 -0.264203 76 0 153
0.737725 0.441512 -0.103919 153 0 76
-0.764980 0.527641 -0.061977 204 51 127
0.307995 0.527641 -0.039508 204 51 127
0.761881 0.200453 0.093402 153 0 76
-0.547455 -0.511033 -0.035847 153 0 76
-0.158622 -0.490046 -0.264203 76 0 153
-0.745506 -0.009813 0.147168 127 127 0
-0.376846 0.026420 0.038280 127 127 0
-0.632577 0.026420 -0.197043 127 127 0
0.006914 0.551796 0.050399 204 51 127
-0.101075 -0.009813 0.166498 127 127 0
-0.522898 0.159098 -0.264203 76 0 153
-0.135721 0.527641 -0.186134 204 51 127
0.761881 0.227930 -0.219870 153 0 76
-0.215372 0.541701 0.273250 153 76 0
0.020631 0.445654 -0.282320 0 255 0
0.516703 0.463336 -0.264203 76 0 153
0.409489 -0.535188 -0.098082 153 0 76
0.390569 0.026420 0.152129 127 127 0
0.029232 -0.511033 -0.281248 153 0 76
0.241622 0.034571 0.309483 0 127 127
0.761881 0.474544 -0.190436 153 0 76
-0.422522 -0.535188 -0.022186 153 0 76
-0.048915 0.531427 -0.306475 0 255 0
0.272962 -0.470539 0.309446 0 127 127
-0.667418 -0.535188 0.024905 153 0 76
0.654901 -0.532447 0.237017 153 76 0
0.477443 0.478767 -0.282320 0 255 0
-0.784052 0.374760 -0.158127 76 0 153
-0.239452 0.077516 -0.282320 76 0 153
-0.091037 -0.535188 0.143481 153 0 76
-0.223736 -0.009813 0.173142 127 127 0
0.609615 -0.511033 0.216022 153 0 76
0.465341 -0.528503 -0.306475 0 0 255
-0.102073 -0.070590 -0.264203 76 0 153
-0.624362 -0.384421 -0.282320 76 0 153
-0.742590 -0.535188 -0.198684 153 0 76
-0.731575 -0.056897 -0.282320 76 0 153
-0.386428 0.026420 -0.065362 127 127 0
-0.321607 -0.554915 0.237017 153 76 0
0.568469 -0.304983 -0.282320 76 0 153
-0.784052 0.511324 -0.201457 76 0 153
0.737091 -0.479815 -0.282320 0 0 255
-0.784052 0.399277 0.203181 76 0 153
0.114606 -0.390410 -0.282320 76 0 153
0.011255 -0.177313 -0.264203 76 0 153
0.737725 0.379435 -0.100816 153 0 76
-0.307421 0.026420 -0.188518 127 127 0
0.729800 0.133800 -0.282320 76 0 153
0.565620 0.551796 -0.156535 204 51 127
-0.494141 0.341546 0.273250 153 76 0
-0.784052 0.430021 -0.255090 76 0 153
0.382211 0.237889 -0.264203 76 0 153
-0.808207 0.380569 0.050140 76 0 153
0.137591 -0.151184 0.309483 0 127 127
0.291691 0.551796 -0.016957 204 51 127
0.284317 -0.019261 0.279132 0 127 127
0.295536 -0.131776 -0.282320 76 0 153
-0.010681 0.551796 -0.102632 204 51 127
0.737725 -0.113660 0.195635 153 0 76
0.761881 -0.387644 -0.084513 153 0 76
0.608093 0.527641 0.121671 204 51 127
0.651993 -0.531263 0.273213 0 127 127
0.225552 0.412497 0.297795 0 127 127
-0.199900 0.026420 0.098867 127 127 0
-0.430418 0.080530 -0.264203 76 0 153
0.737725 -0.489751 -0.128559 153 0 76
0.544421 -0.009813 -0.165652 127 127 0
0.761881 -0.131959 0.125627 153 0 76
