-0.077802 -0.493853 -0.167150 0.600000 0.000000 0.300000
-0.012242 0.667778 0.015725 0.300000 0.000000 0.600000
-0.089213 0.660234 0.497485 0.300000 0.000000 0.600000
0.267284 -0.379005 -0.235432 0.000000 1.000000 0.000000
-0.108481 -0.628868 -0.332449 0.600000 0.000000 0.300000
-0.053906 -0.584485 -0.361679 0.600000 0.000000 0.300000
-0.074556 0.672317 -0.169973 0.300000 0.000000 0.600000
-0.016627 0.638613 0.470530 0.300000 0.000000 0.600000
0.294406 -0.421821 -0.268993 0.000000 1.000000 0.000000
-0.127371 -0.431524 -0.304273 0.600000 0.000000 0.300000
0.025703 0.752547 0.470867 0.300000 0.000000 0.600000
-0.089640 -0.325413 -0.256272 0.600000 0.000000 0.300000
-0.095229 0.709584 -0.030771 0.300000 0.000000 0.600000
-0.005016 0.729749 0.226125 0.300000 0.000000 0.600000
-0.082010 0.125013 -0.221043 0.300000 0.000000 0.600000
-0.061718 -0.707845 -0.360132 0.600000 0.000000 0.300000
-0.128755 -0.663610 -0.301699 0.600000 0.000000 0.300000
-0.067062 -0.330120 -0.163888 0.600000 0.000000 0.300000
-0.086424 0.768746 0.006211 0.300000 0.000000 0.600000
-0.105229 -0.776320 -0.335696 0.600000 0.000000 0.300000
0.032516 0.797495 0.158960 0.300000 0.000000 0.600000
-0.126848 -0.336562 -0.216208 0.600000 0.000000 0.300000
-0.087505 0.173234 -0.299077 0.300000 0.000000 0.600000
-0.023570 0.695503 0.377075 0.300000 0.000000 0.600000
-0.021092 -0.204534 -0.321608 0.300000 0.000000 0.600000
0.043306 -0.325307 -0.300787 0.600000 0.000000 0.300000
0.050000 -0.929956 -0.329451 0.300000 0.000000 0.600000
-0.077769 -0.288360 -0.220089 0.300000 0.000000 0.600000
-0.056217 0.326872 -0.319101 0.300000 0.000000 0.600000
0.031077 0.374661 -0.276620 0.300000 0.000000 0.600000
-0.045725 0.652445 0.455822 0.300000 0.000000 0.600000
-0.096846 0.758911 0.307078 0.300000 0.000000 0.600000
-0.097047 0.800516 0.162966 0.300000 0.000000 0.600000
-0.069775 0.153390 0.739270 0.600000 0.300000 0.000000
0.259745 -0.270637 -0.237586 0.000000 1.000000 0.000000
0.033987 0.470697 0.708576 0.300000 0.000000 0.600000
0.302682 -0.607389 -0.200140 0.000000 1.000000 0.000000
0.016149 -0.795562 -0.352355 0.600000 0.000000 0.300000
-0.074190 0.690420 0.412416 0.300000 0.000000 0.600000
0.249816 -0.102404 -0.249118 0.000000 1.000000 0.000000
0.039027 -0.900693 -0.147443 0.300000 0.000000 0.600000
-0.025970 -0.469351 -0.156588 0.600000 0.000000 0.300000
-0.129115 -0.827444 -0.302868 0.600000 0.000000 0.300000
-0.090560 -0.718054 -0.346112 0.600000 0.000000 0.300000
0.025297 0.348717 -0.223582 0.300000 0.000000 0.600000
0.026624 0.418423 0.633390 0.300000 0.000000 0.600000
-0.105604 -0.497285 -0.185438 0.600000 0.000000 0.300000
-0.079776 0.729386 0.339496 0.300000 0.000000 0.600000
0.032799 0.439945 -0.225325 0.300000 0.000000 0.600000
-0.066194 0.838160 0.198336 0.300000 0.000000 0.600000
-0.089436 0.190217 -0.224940 0.300000 0.000000 0.600000
-0.088357 0.616532 -0.203247 0.300000 0.000000 0.600000
-0.094977 -0.420293 -0.177633 0.600000 0.000000 0.300000
0.009828 0.045929 -0.307151 0.300000 0.000000 0.600000
-0.091123 -0.325562 -0.325463 0.600000 0.000000 0.300000
-0.048631 -0.516473 -0.158690 0.600000 0.000000 0.300000
0.086527 -0.567048 -0.347080 0.800000 0.200000 0.500000
0.043883 0.426766 0.689773 0.300000 0.000000 0.600000
0.063866 -0.860414 -0.168391 0.300000 0.000000 0.600000
-0.136282 -0.664908 -0.264095 0.600000 0.000000 0.300000
-0.125080 -0.522512 -0.212612 0.600000 0.000000 0.300000
-0.053311 -0.622942 -0.159000 0.600000 0.000000 0.300000
-0.001694 0.202109 -0.320335 0.300000 0.000000 0.600000
0.016087 -0.405946 -0.168433 0.600000 0.000000 0.300000
0.032429 0.645213 0.521761 0.300000 0.000000 0.600000
0.099498 -0.915280 -0.279365 0.300000 0.000000 0.600000
-0.097456 0.251951 -0.243487 0.300000 0.000000 0.600000
0.001503 0.156267 -0.313968 0.300000 0.000000 0.600000
-0.119897 -0.840175 -0.195161 0.600000 0.000000 0.300000
-0.060552 -0.019267 -0.199377 0.300000 0.000000 0.600000
0.017805 -0.841268 -0.358535 0.600000 0.000000 0.300000
-0.015645 0.091528 -0.321919 0.300000 0.000000 0.600000
-0.108883 -0.664962 -0.189178 0.600000 0.000000 0.300000
-0.085987 0.822929 0.297590 0.300000 0.000000 0.600000
-0.080165 0.380050 0.759060 0.300000 0.000000 0.600000
0.011204 0.475896 -0.277872 0.300000 0.000000 0.600000
0.001976 0.649544 -0.205501 0.300000 0.000000 0.600000
0.026997 0.397105 0.640569 0.300000 0.000000 0.600000
-0.039941 -0.061382 -0.323392 0.300000 0.000000 0.600000
0.042689 0.200740 0.743570 0.600000 0.300000 0.000000
-0.001304 0.530959 -0.149294 0.300000 0.000000 0.600000
0.022925 0.601856 0.536023 0.300000 0.000000 0.600000
-0.095148 0.549405 -0.193903 0.300000 0.000000 0.600000
-0.026343 0.635476 -0.040510 0.300000 0.000000 0.600000
-0.030518 0.638269 -0.219624 0.300000 0.000000 0.600000
0.226452 -0.627255 -0.240687 0.000000 1.000000 0.000000
-0.136338 -0.506839 -0.257590 0.600000 0.000000 0.300000
0.001882 -0.326111 -0.351026 0.600000 0.000000 0.300000
-0.089595 -0.348979 -0.346757 0.600000 0.000000 0.300000
-0.010207 0.413708 -0.314768 0.300000 0.000000 0.600000
-0.058859 0.226782 0.648845 0.300000 0.000000 0.600000
-0.096068 0.443459 -0.217841 0.300000 0.000000 0.600000
0.021095 0.404400 -0.293757 0.300000 0.000000 0.600000
-0.093076 0.742133 0.395594 0.300000 0.000000 0.600000
-0.080140 -0.795632 -0.167798 0.600000 0.000000 0.300000
0.295117 -0.409083 -0.253385 0.000000 1.000000 0.000000
-0.029644 0.446557 0.694714 0.300000 0.000000 0.600000
-0.095198 0.769621 0.097701 0.300000 0.000000 0.600000
0.066761 -0.809826 -0.229439 0.600000 0.000000 0.300000
0.048151 -0.635549 -0.324662 0.600000 0.000000 0.300000
-0.071231 0.522423 0.575660 0.300000 0.000000 0.600000
-0.092745 0.751194 0.152676 0.300000 0.000000 0.600000
-0.029020 0.186316 -0.323483 0.300000 0.000000 0.600000
0.291138 -0.121303 -0.238086 0.000000 1.000000 0.000000
0.253119 -0.154976 -0.243352 0.000000 1.000000 0.000000
0.266069 -0.408134 -0.280304 0.000000 1.000000 0.000000
0.069799 -0.721443 -0.244884 0.600000 0.000000 0.300000
-0.099366 -0.209201 -0.264963 0.300000 0.000000 0.600000
-0.099176 0.404557 0.648580 0.300000 0.000000 0.600000
0.026520 0.707298 0.000931 0.300000 0.000000 0.600000
-0.087186 -0.219948 -0.292874 0.300000 0.000000 0.600000
-0.000140 0.429612 0.629874 0.300000 0.000000 0.600000
0.043734 0.352778 0.699585 0.300000 0.000000 0.600000
-0.090931 0.299610 -0.284317 0.300000 0.000000 0.600000
0.157503 -0.503081 -0.177440 0.800000 0.200000 0.500000
0.007402 -0.361001 -0.356971 0.600000 0.000000 0.300000
-0.025598 -0.201393 -0.197950 0.300000 0.000000 0.600000
-0.097056 -0.928911 -0.372993 0.300000 0.000000 0.600000
0.034407 -0.073043 -0.264606 0.300000 0.000000 0.600000
0.032647 0.777062 0.406806 0.300000 0.000000 0.600000
-0.089069 -0.562317 -0.174338 0.600000 0.000000 0.300000
0.032326 0.570367 -0.169405 0.300000 0.000000 0.600000
-0.067168 0.004635 -0.317972 0.300000 0.000000 0.600000
0.208762 -0.478364 -0.323516 0.000000 1.000000 0.000000
-0.073804 0.146012 0.723361 0.600000 0.300000 0.000000
-0.030292 -0.734584 -0.156255 0.600000 0.000000 0.300000
0.103098 -0.624220 -0.221511 0.800000 0.200000 0.500000
-0.035560 0.542575 -0.279197 0.300000 0.000000 0.600000
-0.071343 0.729492 0.143520 0.300000 0.000000 0.600000
-0.018350 0.846835 0.280404 0.300000 0.000000 0.600000
-0.052369 0.838290 0.090872 0.300000 0.000000 0.600000
-0.050555 -0.929956 -0.147079 0.300000 0.000000 0.600000
-0.033556 0.167400 -0.197505 0.300000 0.000000 0.600000
0.024992 -0.302003 -0.269661 0.300000 0.000000 0.600000
0.034738 0.716454 -0.024341 0.300000 0.000000 0.600000
-0.096310 -0.178874 -0.281575 0.300000 0.000000 0.600000
0.000004 -0.726525 -0.161376 0.600000 0.000000 0.300000
-0.095581 0.600209 -0.172187 0.300000 0.000000 0.600000
-0.075825 0.478712 0.731971 0.300000 0.000000 0.600000
-0.047280 0.228307 -0.325832 0.300000 0.000000 0.600000
0.009285 0.756962 0.506486 0.300000 0.000000 0.600000
-0.136487 -0.706934 -0.260985 0.600000 0.000000 0.300000
0.014015 0.652829 -0.191686 0.300000 0.000000 0.600000
-0.016614 -0.929956 -0.248039 0.300000 0.000000 0.600000
-0.011916 -0.002109 -0.324245 0.300000 0.000000 0.600000
0.030564 0.627705 -0.114889 0.300000 0.000000 0.600000
-0.042338 0.779190 -0.053752 0.300000 0.000000 0.600000
0.301158 -0.585074 -0.340303 0.000000 1.000000 0.000000
-0.035575 -0.695015 -0.364729 0.600000 0.000000 0.300000
-0.126920 -0.596650 -0.305113 0.600000 0.000000 0.300000
0.050183 -0.325503 -0.230718 0.600000 0.000000 0.300000
0.013740 -0.847372 -0.147514 0.300000 0.000000 0.600000
-0.043134 0.598662 -0.088773 0.300000 0.000000 0.600000
0.005650 0.551593 0.562189 0.300000 0.000000 0.600000
-0.027045 0.524283 -0.140112 0.300000 0.000000 0.600000
-0.088205 0.806260 0.109759 0.300000 0.000000 0.600000
-0.091848 -0.145176 -0.291412 0.300000 0.000000 0.600000
-0.012408 0.609661 0.501010 0.300000 0.000000 0.600000
0.185414 -0.626397 -0.230255 0.800000 0.200000 0.500000
-0.007229 0.850172 0.236350 0.300000 0.000000 0.600000
0.019368 -0.679443 -0.350224 0.600000 0.000000 0.300000
-0.023721 -0.101420 -0.198098 0.300000 0.000000 0.600000
-0.094040 0.192116 -0.275491 0.300000 0.000000 0.600000
-0.001856 0.079224 -0.320431 0.300000 0.000000 0.600000
-0.059041 -0.105891 -0.202835 0.300000 0.000000 0.600000
-0.051950 0.508644 -0.151458 0.300000 0.000000 0.600000
0.020879 -0.783964 -0.171884 0.600000 0.000000 0.300000
0.041832 -0.437886 -0.334089 0.600000 0.000000 0.300000
-0.035140 -0.799782 -0.364770 0.600000 0.000000 0.300000
-0.010790 0.653141 0.648459 0.300000 0.000000 0.600000
-0.043069 0.826737 0.388127 0.300000 0.000000 0.600000
-0.097827 0.795263 0.141862 0.300000 0.000000 0.600000
0.321351 -0.551009 -0.210484 0.000000 1.000000 0.000000
0.015788 0.000604 -0.301816 0.300000 0.000000 0.600000
-0.067984 0.536381 -0.149787 0.300000 0.000000 0.600000
0.033866 0.234987 -0.252671 0.300000 0.000000 0.600000
-0.094141 0.794989 0.365348 0.300000 0.000000 0.600000
0.020033 0.489606 0.596425 0.300000 0.000000 0.600000
0.267375 -0.552542 -0.349823 0.000000 1.000000 0.000000
-0.088335 0.445222 0.684756 0.300000 0.000000 0.600000
-0.023160 0.590625 -0.249587 0.300000 0.000000 0.600000
-0.100763 0.446845 0.715470 0.300000 0.000000 0.600000
-0.065368 -0.131916 -0.319095 0.300000 0.000000 0.600000
-0.003170 -0.281658 -0.199925 0.300000 0.000000 0.600000
-0.014191 0.170661 0.814125 0.600000 0.300000 0.000000
-0.036416 0.707300 -0.159883 0.300000 0.000000 0.600000
-0.011257 0.318689 -0.200271 0.300000 0.000000 0.600000
0.000214 0.715466 0.102648 0.300000 0.000000 0.600000
0.321368 -0.464299 -0.287841 0.000000 1.000000 0.000000
-0.070250 -0.355171 -0.162988 0.600000 0.000000 0.300000
-0.016320 -0.330908 -0.360606 0.600000 0.000000 0.300000
0.031139 0.608123 0.635900 0.300000 0.000000 0.600000
0.033711 0.335024 0.668713 0.300000 0.000000 0.600000
-0.031078 -0.553834 -0.156588 0.600000 0.000000 0.300000
-0.125699 -0.629831 -0.213540 0.600000 0.000000 0.300000
-0.088526 0.130276 -0.297377 0.300000 0.000000 0.600000
0.028135 0.808561 0.303724 0.300000 0.000000 0.600000
0.214625 -0.544471 -0.170409 0.000000 1.000000 0.000000
-0.096901 0.720701 0.026853 0.300000 0.000000 0.600000
-0.115389 -0.612074 -0.322710 0.600000 0.000000 0.300000
-0.126268 -0.759188 -0.214473 0.600000 0.000000 0.300000
-0.018788 -0.681164 -0.158051 0.600000 0.000000 0.300000
-0.090000 0.191496 0.698119 0.600000 0.300000 0.000000
-0.018243 -0.608390 -0.158418 0.600000 0.000000 0.300000
-0.107429 -0.470629 -0.333711 0.600000 0.000000 0.300000
-0.016172 0.614165 -0.066892 0.300000 0.000000 0.600000
0.073803 -0.458130 -0.305851 0.800000 0.200000 0.500000
-0.156999 -0.904434 -0.313612 0.300000 0.000000 0.600000
-0.095728 0.290868 -0.252699 0.300000 0.000000 0.600000
-0.000725 -0.349364 -0.161264 0.600000 0.000000 0.300000
-0.052827 0.285203 -0.324337 0.300000 0.000000 0.600000
0.321647 -0.580627 -0.186876 0.000000 1.000000 0.000000
-0.053424 0.494967 0.578416 0.300000 0.000000 0.600000
-0.045570 0.183837 0.683146 0.600000 0.300000 0.000000
-0.067241 -0.142527 -0.207259 0.300000 0.000000 0.600000
0.042905 0.284711 0.734950 0.300000 0.000000 0.600000
-0.053967 0.182099 -0.196858 0.300000 0.000000 0.600000
0.038627 0.521367 0.655335 0.300000 0.000000 0.600000
0.028480 0.434123 -0.258998 0.300000 0.000000 0.600000
-0.017698 0.744214 0.564563 0.300000 0.000000 0.600000
-0.054260 0.444434 0.601078 0.300000 0.000000 0.600000
0.002538 0.142121 0.709378 0.600000 0.300000 0.000000
0.008464 0.474719 0.735608 0.300000 0.000000 0.600000
-0.077114 0.646856 -0.060633 0.300000 0.000000 0.600000
-0.033005 -0.856835 -0.392790 0.300000 0.000000 0.600000
-0.075593 -0.851401 -0.383405 0.300000 0.000000 0.600000
-0.107714 -0.703905 -0.187846 0.600000 0.000000 0.300000
-0.091586 0.346510 0.654403 0.300000 0.000000 0.600000
0.024592 -0.179687 -0.234070 0.300000 0.000000 0.600000
-0.042246 -0.210779 -0.194098 0.300000 0.000000 0.600000
0.225974 -0.590744 -0.184230 0.000000 1.000000 0.000000
0.008222 -0.554642 -0.357613 0.600000 0.000000 0.300000
0.011863 0.810285 0.412634 0.300000 0.000000 0.600000
0.099441 -0.874482 -0.278908 0.300000 0.000000 0.600000
-0.002371 0.362853 0.775235 0.300000 0.000000 0.600000
-0.132314 -0.570025 -0.231627 0.600000 0.000000 0.300000
0.054936 -0.558657 -0.349456 0.800000 0.200000 0.500000
-0.078766 0.627015 0.510205 0.300000 0.000000 0.600000
0.086372 -0.929936 -0.247893 0.300000 0.000000 0.600000
-0.090554 -0.656383 -0.346116 0.600000 0.000000 0.300000
0.030716 -0.035352 -0.253344 0.300000 0.000000 0.600000
0.083249 -0.483122 -0.190509 0.800000 0.200000 0.500000
-0.129798 -0.629008 -0.298772 0.600000 0.000000 0.300000
0.118728 -0.509956 -0.345635 0.800000 0.200000 0.500000
0.292180 -0.443096 -0.244404 0.000000 1.000000 0.000000
-0.107200 -0.686828 -0.333918 0.600000 0.000000 0.300000
0.088793 -0.855889 -0.312720 0.300000 0.000000 0.600000
0.011198 0.168470 -0.305833 0.300000 0.000000 0.600000
-0.041154 0.665594 0.006526 0.300000 0.000000 0.600000
-0.003220 0.275909 -0.320977 0.300000 0.000000 0.600000
0.013935 0.280571 -0.217718 0.300000 0.000000 0.600000
-0.017984 0.273061 0.804578 0.600000 0.300000 0.000000
-0.019613 0.050642 -0.326292 0.300000 0.000000 0.600000
0.249104 -0.309696 -0.250894 0.000000 1.000000 0.000000
-0.067532 -0.929956 -0.282829 0.300000 0.000000 0.600000
-0.026534 -0.325641 -0.299752 0.600000 0.000000 0.300000
-0.065330 0.544650 0.702568 0.300000 0.000000 0.600000
0.060520 -0.929956 -0.208975 0.300000 0.000000 0.600000
-0.060786 0.616710 -0.069328 0.300000 0.000000 0.600000
-0.084311 0.477822 0.605731 0.300000 0.000000 0.600000
-0.041222 0.441586 0.758737 0.300000 0.000000 0.600000
-0.003848 0.157492 0.753811 0.600000 0.300000 0.000000
0.003228 0.302911 0.639160 0.300000 0.000000 0.600000
-0.061145 -0.194968 -0.203878 0.300000 0.000000 0.600000
0.128430 -0.471002 -0.203384 0.800000 0.200000 0.500000
0.299512 -0.632158 -0.262784 0.000000 1.000000 0.000000
-0.136378 -0.626069 -0.258198 0.600000 0.000000 0.300000
-0.105477 0.335189 0.684422 0.300000 0.000000 0.600000
-0.062920 -0.745792 -0.359839 0.600000 0.000000 0.300000
-0.020149 -0.766652 -0.363436 0.600000 0.000000 0.300000
0.024311 0.727874 0.377529 0.300000 0.000000 0.600000
0.035348 0.222628 0.776953 0.600000 0.300000 0.000000
-0.007176 -0.466337 -0.159941 0.600000 0.000000 0.300000
-0.093079 0.224217 -0.278969 0.300000 0.000000 0.600000
0.006075 -0.142969 -0.315425 0.300000 0.000000 0.600000
-0.076505 -0.929956 -0.244055 0.300000 0.000000 0.600000
0.013042 0.602545 -0.103002 0.300000 0.000000 0.600000
-0.015083 0.153104 0.738578 0.600000 0.300000 0.000000
0.024461 0.362854 0.647242 0.300000 0.000000 0.600000
0.300742 -0.089593 -0.254415 0.000000 1.000000 0.000000
-0.008053 0.757981 -0.082542 0.300000 0.000000 0.600000
-0.069781 -0.036181 -0.204805 0.300000 0.000000 0.600000
-0.095456 -0.211977 -0.237048 0.300000 0.000000 0.600000
-0.012115 0.685548 0.409152 0.300000 0.000000 0.600000
-0.088921 0.594733 0.665633 0.300000 0.000000 0.600000
0.025571 0.338597 0.760426 0.300000 0.000000 0.600000
0.302011 -0.104216 -0.265372 0.000000 1.000000 0.000000
0.034627 -0.850445 -0.150333 0.300000 0.000000 0.600000
-0.034787 0.060468 -0.197605 0.300000 0.000000 0.600000
-0.074484 0.719896 -0.115506 0.300000 0.000000 0.600000
-0.095347 0.720687 -0.013195 0.300000 0.000000 0.600000
0.127703 -0.576994 -0.176971 0.800000 0.200000 0.500000
-0.133735 -0.812682 -0.282216 0.600000 0.000000 0.300000
0.031609 -0.031316 -0.278497 0.300000 0.000000 0.600000
-0.051906 0.424997 -0.183372 0.300000 0.000000 0.600000
0.091809 -0.546323 -0.169057 0.800000 0.200000 0.500000
-0.131170 -0.836709 -0.217465 0.600000 0.000000 0.300000
0.033553 0.521994 0.601754 0.300000 0.000000 0.600000
-0.095052 0.161115 0.786453 0.600000 0.300000 0.000000
0.030762 0.799573 0.125001 0.300000 0.000000 0.600000
-0.128774 -0.691317 -0.219148 0.600000 0.000000 0.300000
-0.058787 -0.628122 -0.360712 0.600000 0.000000 0.300000
0.020841 -0.586305 -0.170340 0.600000 0.000000 0.300000
0.139825 -0.468802 -0.315860 0.800000 0.200000 0.500000
-0.078594 0.273466 -0.304022 0.300000 0.000000 0.600000
-0.140435 -0.929956 -0.270636 0.300000 0.000000 0.600000
0.257975 -0.504934 -0.177572 0.000000 1.000000 0.000000
0.021242 0.019679 -0.293760 0.300000 0.000000 0.600000
-0.003080 0.042001 -0.199961 0.300000 0.000000 0.600000
0.022448 -0.163483 -0.291748 0.300000 0.000000 0.600000
0.039315 0.655776 0.559870 0.300000 0.000000 0.600000
-0.099866 0.764616 0.386922 0.300000 0.000000 0.600000
0.253128 -0.359837 -0.243338 0.000000 1.000000 0.000000
-0.041490 0.685073 -0.177543 0.300000 0.000000 0.600000
0.263404 -0.629034 -0.277799 0.000000 1.000000 0.000000
0.032238 0.209768 -0.277961 0.300000 0.000000 0.600000
0.029846 0.732472 0.032932 0.300000 0.000000 0.600000
0.183081 -0.454257 -0.283362 0.800000 0.200000 0.500000
0.004906 0.727214 0.306925 0.300000 0.000000 0.600000
-0.034490 0.162727 0.772080 0.600000 0.300000 0.000000
-0.030297 -0.126953 -0.197579 0.300000 0.000000 0.600000
0.022091 0.031101 -0.221829 0.300000 0.000000 0.600000
-0.004870 -0.325533 -0.252312 0.600000 0.000000 0.300000
-0.094028 0.419059 0.635847 0.300000 0.000000 0.600000
-0.107250 0.557501 0.616833 0.300000 0.000000 0.600000
-0.057956 -0.101724 -0.319020 0.300000 0.000000 0.600000
-0.100982 0.619545 0.596968 0.300000 0.000000 0.600000
-0.092175 -0.325307 -0.228265 0.600000 0.000000 0.300000
0.027083 -0.058643 -0.280762 0.300000 0.000000 0.600000
-0.002713 0.702931 -0.148199 0.300000 0.000000 0.600000
-0.093767 0.302775 0.670201 0.300000 0.000000 0.600000
-0.070090 0.370925 -0.205067 0.300000 0.000000 0.600000
0.033175 0.572850 -0.203383 0.300000 0.000000 0.600000
-0.019991 -0.929956 -0.186208 0.300000 0.000000 0.600000
-0.135485 -0.472343 -0.248607 0.600000 0.000000 0.300000
-0.043589 0.487483 0.741405 0.300000 0.000000 0.600000
-0.063526 0.214897 0.814709 0.600000 0.300000 0.000000
0.114243 -0.547964 -0.351595 0.800000 0.200000 0.500000
0.292421 -0.385622 -0.241853 0.000000 1.000000 0.000000
0.000170 0.111282 -0.201603 0.300000 0.000000 0.600000
-0.033201 0.426785 0.600756 0.300000 0.000000 0.600000
0.270437 -0.124970 -0.287086 0.000000 1.000000 0.000000
0.029996 0.784158 0.269168 0.300000 0.000000 0.600000
-0.002050 0.368358 0.625114 0.300000 0.000000 0.600000
-0.089922 0.818785 0.191518 0.300000 0.000000 0.600000
-0.088983 0.506882 -0.258423 0.300000 0.000000 0.600000
0.012709 0.657089 0.468819 0.300000 0.000000 0.600000
-0.000662 0.437195 0.603496 0.300000 0.000000 0.600000
-0.053486 -0.190119 -0.324188 0.300000 0.000000 0.600000
0.012015 -0.256388 -0.305045 0.300000 0.000000 0.600000
0.010884 0.464343 0.599560 0.300000 0.000000 0.600000
0.023861 0.771341 0.458875 0.300000 0.000000 0.600000
0.029419 0.717316 -0.058101 0.300000 0.000000 0.600000
-0.093531 0.222269 -0.244065 0.300000 0.000000 0.600000
0.031159 0.169316 -0.258012 0.300000 0.000000 0.600000
-0.062372 0.162850 0.772319 0.600000 0.300000 0.000000
-0.018191 0.716531 0.587029 0.300000 0.000000 0.600000
-0.117538 -0.588947 -0.201312 0.600000 0.000000 0.300000
-0.010201 0.772156 -0.052197 0.300000 0.000000 0.600000
0.015168 0.822236 0.303468 0.300000 0.000000 0.600000
-0.121543 -0.342667 -0.313482 0.600000 0.000000 0.300000
-0.015705 0.816246 0.434989 0.300000 0.000000 0.600000
-0.098456 0.266891 -0.272691 0.300000 0.000000 0.600000
-0.098024 0.803427 0.255688 0.300000 0.000000 0.600000
-0.090697 0.685020 0.466208 0.300000 0.000000 0.600000
-0.015799 -0.849163 -0.135599 0.300000 0.000000 0.600000
0.034320 -0.158594 -0.265662 0.300000 0.000000 0.600000
-0.098177 0.104189 -0.274613 0.300000 0.000000 0.600000
0.002151 0.723566 -0.127375 0.300000 0.000000 0.600000
0.005521 0.624663 -0.213225 0.300000 0.000000 0.600000
0.033617 0.669944 0.527246 0.300000 0.000000 0.600000
-0.093115 0.750143 0.092407 0.300000 0.000000 0.600000
-0.021815 0.136040 -0.194172 0.300000 0.000000 0.600000
0.040041 0.498842 0.680115 0.300000 0.000000 0.600000
0.017948 -0.139453 -0.215684 0.300000 0.000000 0.600000
0.249505 -0.568952 -0.345507 0.000000 1.000000 0.000000
-0.025381 0.550442 -0.122637 0.300000 0.000000 0.600000
-0.045727 0.802336 0.452550 0.300000 0.000000 0.600000
0.032421 0.761299 0.123564 0.300000 0.000000 0.600000
0.021287 0.707548 0.570734 0.300000 0.000000 0.600000
0.196698 -0.604773 -0.198286 0.000000 1.000000 0.000000
-0.056876 -0.674478 -0.159706 0.600000 0.000000 0.300000
0.028778 0.266124 -0.244955 0.300000 0.000000 0.600000
-0.020496 0.032653 -0.323131 0.300000 0.000000 0.600000
-0.036190 -0.617860 -0.156124 0.600000 0.000000 0.300000
0.027484 0.717171 0.020179 0.300000 0.000000 0.600000
-0.050796 0.722636 0.184273 0.300000 0.000000 0.600000
0.064963 -0.348724 -0.297406 0.600000 0.000000 0.300000
-0.045802 0.171786 0.804665 0.600000 0.300000 0.000000
-0.063869 -0.398152 -0.161286 0.600000 0.000000 0.300000
-0.095284 0.718573 -0.082257 0.300000 0.000000 0.600000
-0.014607 -0.827448 -0.363102 0.600000 0.000000 0.300000
-0.017999 0.575025 -0.259201 0.300000 0.000000 0.600000
0.026154 0.336003 -0.281144 0.300000 0.000000 0.600000
-0.005913 -0.264890 -0.198799 0.300000 0.000000 0.600000
0.248569 -0.131215 -0.268562 0.000000 1.000000 0.000000
-0.067404 -0.845949 -0.151172 0.600000 0.000000 0.300000
0.065528 -0.690811 -0.294541 0.600000 0.000000 0.300000
-0.095550 -0.159497 -0.250849 0.300000 0.000000 0.600000
0.107798 -0.456619 -0.226944 0.800000 0.200000 0.500000
-0.052054 0.074701 -0.196534 0.300000 0.000000 0.600000
0.268011 -0.335031 -0.234278 0.000000 1.000000 0.000000
0.007353 0.619403 0.667608 0.300000 0.000000 0.600000
-0.051935 0.720210 0.154601 0.300000 0.000000 0.600000
-0.123979 -0.560761 -0.309839 0.600000 0.000000 0.300000
-0.022221 -0.528022 -0.157084 0.600000 0.000000 0.300000
0.039988 0.556926 0.649054 0.300000 0.000000 0.600000
-0.033988 -0.589362 -0.364839 0.600000 0.000000 0.300000
-0.136421 -0.800205 -0.258857 0.600000 0.000000 0.300000
-0.075739 0.240020 0.669040 0.300000 0.000000 0.600000
0.321151 -0.533009 -0.210600 0.000000 1.000000 0.000000
-0.061921 0.588428 0.527093 0.300000 0.000000 0.600000
0.022584 0.741536 0.146617 0.300000 0.000000 0.600000
-0.055688 0.037855 -0.197726 0.300000 0.000000 0.600000
-0.101226 -0.380209 -0.338967 0.600000 0.000000 0.300000
-0.131739 -0.453365 -0.291830 0.600000 0.000000 0.300000
-0.032748 -0.551152 -0.364793 0.600000 0.000000 0.300000
0.270623 -0.477346 -0.198181 0.000000 1.000000 0.000000
-0.040484 0.764349 -0.088199 0.300000 0.000000 0.600000
0.042611 0.229866 0.730991 0.600000 0.300000 0.000000
0.022820 0.554986 -0.154173 0.300000 0.000000 0.600000
-0.058712 0.140872 -0.198812 0.300000 0.000000 0.600000
0.068522 -0.644562 -0.233168 0.600000 0.000000 0.300000
0.089919 -0.523375 -0.349253 0.800000 0.200000 0.500000
0.111901 -0.482305 -0.328058 0.800000 0.200000 0.500000
0.112762 -0.487411 -0.186712 0.800000 0.200000 0.500000
0.045668 -0.802758 -0.328920 0.600000 0.000000 0.300000
0.021268 0.188203 -0.300692 0.300000 0.000000 0.600000
-0.056779 0.389078 -0.317457 0.300000 0.000000 0.600000
-0.093099 0.777101 0.064479 0.300000 0.000000 0.600000
-0.020642 0.455621 0.593884 0.300000 0.000000 0.600000
-0.065201 0.261745 -0.319200 0.300000 0.000000 0.600000
-0.105815 -0.645240 -0.186075 0.600000 0.000000 0.300000
-0.106269 0.184376 0.769103 0.600000 0.300000 0.000000
0.024854 0.228009 -0.294891 0.300000 0.000000 0.600000
-0.056225 0.466241 0.747921 0.300000 0.000000 0.600000
-0.023395 0.851269 0.243962 0.300000 0.000000 0.600000
-0.029571 -0.323977 -0.198673 0.300000 0.000000 0.600000
0.278774 -0.222956 -0.233917 0.000000 1.000000 0.000000
-0.021962 -0.118021 -0.322959 0.300000 0.000000 0.600000
0.039362 0.498988 0.647470 0.300000 0.000000 0.600000
-0.098892 0.628445 0.549059 0.300000 0.000000 0.600000
-0.045046 0.202030 -0.198408 0.300000 0.000000 0.600000
0.025043 0.794642 0.062877 0.300000 0.000000 0.600000
-0.045455 0.322994 -0.197666 0.300000 0.000000 0.600000
-0.015382 0.266274 0.613856 0.300000 0.000000 0.600000
-0.014115 0.826409 0.403460 0.300000 0.000000 0.600000
0.067483 -0.896676 -0.169945 0.300000 0.000000 0.600000
-0.084793 -0.325312 -0.188987 0.600000 0.000000 0.300000
-0.094531 0.242601 0.689282 0.300000 0.000000 0.600000
0.032950 0.763475 0.042165 0.300000 0.000000 0.600000
0.018203 0.580084 0.546535 0.300000 0.000000 0.600000
-0.041112 0.446545 -0.174234 0.300000 0.000000 0.600000
0.164568 -0.583003 -0.178354 0.800000 0.200000 0.500000
0.026906 0.564152 0.570391 0.300000 0.000000 0.600000
-0.093817 0.726258 0.506566 0.300000 0.000000 0.600000
0.024929 0.454288 0.695527 0.300000 0.000000 0.600000
0.301848 -0.444072 -0.262246 0.000000 1.000000 0.000000
0.149835 -0.453439 -0.281516 0.800000 0.200000 0.500000
0.029295 0.230980 -0.235223 0.300000 0.000000 0.600000
-0.133227 -0.371390 -0.236049 0.600000 0.000000 0.300000
-0.051462 -0.929956 -0.199316 0.300000 0.000000 0.600000
0.158716 -0.620532 -0.307948 0.800000 0.200000 0.500000
-0.073657 0.606105 0.516188 0.300000 0.000000 0.600000
0.174803 -0.455561 -0.230765 0.800000 0.200000 0.500000
0.015204 0.676557 0.454741 0.300000 0.000000 0.600000
0.039656 0.573937 0.642793 0.300000 0.000000 0.600000
-0.108727 -0.929956 -0.279269 0.300000 0.000000 0.600000
0.051764 -0.325315 -0.260309 0.600000 0.000000 0.300000
-0.062112 0.740466 0.551998 0.300000 0.000000 0.600000
0.033193 0.540132 -0.192193 0.300000 0.000000 0.600000
0.010769 -0.488715 -0.355420 0.600000 0.000000 0.300000
0.321364 -0.505725 -0.213734 0.000000 1.000000 0.000000
-0.070972 0.039792 -0.310574 0.300000 0.000000 0.600000
0.304722 -0.538339 -0.351103 0.000000 1.000000 0.000000
-0.052762 0.504440 -0.283628 0.300000 0.000000 0.600000
-0.091309 0.364253 -0.278430 0.300000 0.000000 0.600000
0.040759 -0.726240 -0.334780 0.600000 0.000000 0.300000
-0.008055 0.145751 -0.322913 0.300000 0.000000 0.600000
-0.094976 0.783729 0.162201 0.300000 0.000000 0.600000
0.195458 -0.539932 -0.169393 0.800000 0.200000 0.500000
0.299277 -0.183983 -0.273906 0.000000 1.000000 0.000000
0.020402 0.152377 0.744717 0.600000 0.300000 0.000000
0.062042 -0.740651 -0.303808 0.600000 0.000000 0.300000
-0.058669 0.296579 -0.198530 0.300000 0.000000 0.600000
0.012021 0.622964 -0.087495 0.300000 0.000000 0.600000
-0.006062 0.163274 -0.202825 0.300000 0.000000 0.600000
-0.082488 0.734717 -0.084930 0.300000 0.000000 0.600000
-0.134345 -0.628001 -0.241676 0.600000 0.000000 0.300000
0.025996 -0.709117 -0.175502 0.600000 0.000000 0.300000
0.186248 -0.488152 -0.334504 0.800000 0.200000 0.500000
-0.102016 0.302783 0.751699 0.300000 0.000000 0.600000
-0.090157 0.755851 0.291558 0.300000 0.000000 0.600000
-0.096582 -0.340889 -0.178715 0.600000 0.000000 0.300000
-0.087657 0.685410 -0.025449 0.300000 0.000000 0.600000
-0.086297 0.695621 0.573899 0.300000 0.000000 0.600000
0.048475 -0.417832 -0.325470 0.600000 0.000000 0.300000
-0.032532 0.700860 0.603365 0.300000 0.000000 0.600000
0.016709 0.419989 -0.205918 0.300000 0.000000 0.600000
-0.094859 -0.910208 -0.379424 0.300000 0.000000 0.600000
-0.044107 0.832759 0.071507 0.300000 0.000000 0.600000
0.095517 -0.527171 -0.170534 0.800000 0.200000 0.500000
-0.087895 0.007069 -0.290862 0.300000 0.000000 0.600000
-0.000744 0.424307 0.757188 0.300000 0.000000 0.600000
-0.044789 0.453066 0.712217 0.300000 0.000000 0.600000
0.004890 0.642015 0.488535 0.300000 0.000000 0.600000
-0.082159 0.789508 0.428987 0.300000 0.000000 0.600000
-0.056661 0.846962 0.286735 0.300000 0.000000 0.600000
0.032922 -0.100483 -0.274482 0.300000 0.000000 0.600000
0.033301 -0.874328 -0.376573 0.300000 0.000000 0.600000
0.003703 -0.325641 -0.322381 0.600000 0.000000 0.300000
0.029427 0.396645 -0.261547 0.300000 0.000000 0.600000
-0.094952 0.750422 0.478060 0.300000 0.000000 0.600000
-0.041299 0.832635 0.356642 0.300000 0.000000 0.600000
-0.030723 -0.498185 -0.364754 0.600000 0.000000 0.300000
0.029711 -0.669504 -0.177845 0.600000 0.000000 0.300000
0.012124 0.682207 0.438893 0.300000 0.000000 0.600000
-0.116327 -0.621085 -0.199494 0.600000 0.000000 0.300000
0.233804 -0.458955 -0.221847 0.000000 1.000000 0.000000
-0.093617 0.687544 -0.054382 0.300000 0.000000 0.600000
0.276375 -0.444701 -0.283458 0.000000 1.000000 0.000000
0.041498 0.255933 0.714112 0.300000 0.000000 0.600000
-0.104423 -0.556933 -0.336423 0.600000 0.000000 0.300000
-0.095273 0.768054 0.027264 0.300000 0.000000 0.600000
0.104769 -0.621531 -0.306103 0.800000 0.200000 0.500000
-0.101821 0.177084 0.785389 0.600000 0.300000 0.000000
-0.033795 0.397265 -0.188730 0.300000 0.000000 0.600000
-0.093390 0.518051 -0.198622 0.300000 0.000000 0.600000
-0.076461 -0.205895 -0.305623 0.300000 0.000000 0.600000
0.020480 0.722851 0.544191 0.300000 0.000000 0.600000
0.301842 -0.209533 -0.267382 0.000000 1.000000 0.000000
0.008577 0.679914 -0.169967 0.300000 0.000000 0.600000
0.029492 0.741966 0.091809 0.300000 0.000000 0.600000
-0.098697 -0.288540 -0.249567 0.300000 0.000000 0.600000
-0.121886 -0.727688 -0.207825 0.600000 0.000000 0.300000
-0.045976 0.778368 0.504051 0.300000 0.000000 0.600000
0.021975 0.430699 0.623226 0.300000 0.000000 0.600000
0.032578 0.745861 0.423090 0.300000 0.000000 0.600000
0.050194 -0.344472 -0.322904 0.600000 0.000000 0.300000
0.067074 -0.398202 -0.235453 0.600000 0.000000 0.300000
0.034249 0.749345 0.028382 0.300000 0.000000 0.600000
-0.076617 -0.929956 -0.223214 0.300000 0.000000 0.600000
-0.087318 0.710337 -0.105033 0.300000 0.000000 0.600000
-0.136190 -0.595079 -0.265486 0.600000 0.000000 0.300000
-0.032157 0.473548 0.748880 0.300000 0.000000 0.600000
-0.133473 -0.746517 -0.283535 0.600000 0.000000 0.300000
-0.019613 0.194922 -0.198465 0.300000 0.000000 0.600000
0.004442 0.840614 0.286163 0.300000 0.000000 0.600000
0.042020 -0.698205 -0.187702 0.600000 0.000000 0.300000
0.125537 -0.514854 -0.173849 0.800000 0.200000 0.500000
0.279481 -0.296975 -0.287166 0.000000 1.000000 0.000000
0.048454 -0.452473 -0.195628 0.600000 0.000000 0.300000
0.083159 -0.845718 -0.264286 0.300000 0.000000 0.600000
-0.106851 0.237596 0.720313 0.300000 0.000000 0.600000
-0.020777 0.819547 0.041063 0.300000 0.000000 0.600000
-0.032967 0.713964 0.312514 0.300000 0.000000 0.600000
-0.062866 0.432573 0.619303 0.300000 0.000000 0.600000
-0.042508 -0.929956 -0.239990 0.300000 0.000000 0.600000
0.263853 -0.585173 -0.340257 0.000000 1.000000 0.000000
-0.096515 -0.188356 -0.262519 0.300000 0.000000 0.600000
-0.027189 -0.074133 -0.193807 0.300000 0.000000 0.600000
-0.030405 0.817201 0.427526 0.300000 0.000000 0.600000
-0.016554 0.590942 -0.098534 0.300000 0.000000 0.600000
-0.096595 0.734381 0.472618 0.300000 0.000000 0.600000
0.254921 -0.479408 -0.325177 0.000000 1.000000 0.000000
0.008874 -0.929956 -0.278303 0.300000 0.000000 0.600000
0.055612 -0.325472 -0.284535 0.600000 0.000000 0.300000
-0.049174 -0.070802 -0.195498 0.300000 0.000000 0.600000
-0.046301 0.815677 0.043490 0.300000 0.000000 0.600000
0.023819 0.609968 -0.206573 0.300000 0.000000 0.600000
0.017500 0.464660 0.715403 0.300000 0.000000 0.600000
0.004965 0.733490 0.563750 0.300000 0.000000 0.600000
-0.035259 0.007368 -0.197662 0.300000 0.000000 0.600000
-0.089830 0.682294 -0.127956 0.300000 0.000000 0.600000
-0.133993 -0.492444 -0.239904 0.600000 0.000000 0.300000
0.025330 -0.250226 -0.294037 0.300000 0.000000 0.600000
-0.083565 -0.929956 -0.276442 0.300000 0.000000 0.600000
0.001559 0.719664 0.333646 0.300000 0.000000 0.600000
0.030905 -0.003650 -0.254729 0.300000 0.000000 0.600000
-0.088955 0.768378 0.465051 0.300000 0.000000 0.600000
0.057391 -0.929956 -0.311381 0.300000 0.000000 0.600000
-0.059674 0.154880 0.693611 0.600000 0.300000 0.000000
-0.034698 -0.145822 -0.327249 0.300000 0.000000 0.600000
0.023248 0.307934 0.771468 0.300000 0.000000 0.600000
-0.043624 -0.888846 -0.126556 0.300000 0.000000 0.600000
0.018601 0.536487 -0.166288 0.300000 0.000000 0.600000
-0.085599 0.694980 0.435907 0.300000 0.000000 0.600000
0.009377 0.545519 0.697255 0.300000 0.000000 0.600000
-0.099419 0.307163 -0.261669 0.300000 0.000000 0.600000
0.032365 0.264863 -0.277494 0.300000 0.000000 0.600000
0.030048 0.294808 -0.236623 0.300000 0.000000 0.600000
-0.087486 0.825598 0.228801 0.300000 0.000000 0.600000
-0.080702 0.039725 -0.213414 0.300000 0.000000 0.600000
-0.019541 -0.532202 -0.363315 0.600000 0.000000 0.300000
-0.102895 0.460389 0.704858 0.300000 0.000000 0.600000
-0.097713 0.637015 -0.114120 0.300000 0.000000 0.600000
-0.095999 0.137972 -0.265244 0.300000 0.000000 0.600000
0.010453 0.328873 -0.310997 0.300000 0.000000 0.600000
-0.075798 0.787935 0.458921 0.300000 0.000000 0.600000
0.041756 0.418427 0.664578 0.300000 0.000000 0.600000
-0.091691 0.424466 -0.268949 0.300000 0.000000 0.600000
0.043109 -0.929956 -0.344757 0.300000 0.000000 0.600000
0.014003 0.789229 0.451057 0.300000 0.000000 0.600000
-0.053171 -0.833508 -0.361953 0.600000 0.000000 0.300000
0.256536 -0.428766 -0.270976 0.000000 1.000000 0.000000
-0.034743 -0.231638 -0.327206 0.300000 0.000000 0.600000
-0.109467 -0.815281 -0.331187 0.600000 0.000000 0.300000
0.005902 0.403523 0.759126 0.300000 0.000000 0.600000
-0.095391 0.752717 0.057378 0.300000 0.000000 0.600000
-0.063103 0.558105 0.551595 0.300000 0.000000 0.600000
-0.010522 0.261222 -0.319899 0.300000 0.000000 0.600000
0.024432 0.716687 -0.089450 0.300000 0.000000 0.600000
0.031605 0.383459 0.739605 0.300000 0.000000 0.600000
-0.095373 0.734246 0.017721 0.300000 0.000000 0.600000
0.009015 0.697336 0.055598 0.300000 0.000000 0.600000
0.053292 -0.718791 -0.318151 0.600000 0.000000 0.300000
-0.141619 -0.910187 -0.337603 0.300000 0.000000 0.600000
-0.083669 -0.160328 -0.304316 0.300000 0.000000 0.600000
0.292165 -0.338829 -0.238699 0.000000 1.000000 0.000000
-0.113967 -0.775170 -0.195953 0.600000 0.000000 0.300000
-0.095176 0.078175 -0.272539 0.300000 0.000000 0.600000
-0.063735 0.645136 -0.204851 0.300000 0.000000 0.600000
-0.007245 0.453949 0.751662 0.300000 0.000000 0.600000
0.036897 0.545050 0.614438 0.300000 0.000000 0.600000
-0.090792 0.601180 -0.208405 0.300000 0.000000 0.600000
0.032139 0.688784 0.552572 0.300000 0.000000 0.600000
-0.057762 0.430457 0.650984 0.300000 0.000000 0.600000
-0.158807 -0.923060 -0.307847 0.300000 0.000000 0.600000
0.066307 -0.495843 -0.340919 0.800000 0.200000 0.500000
0.271942 -0.172756 -0.233707 0.000000 1.000000 0.000000
-0.127841 -0.657228 -0.217409 0.600000 0.000000 0.300000
0.014732 -0.622369 -0.353294 0.600000 0.000000 0.300000
0.023684 0.801556 0.094940 0.300000 0.000000 0.600000
-0.074816 0.219399 -0.213581 0.300000 0.000000 0.600000
-0.081885 -0.025920 -0.220262 0.300000 0.000000 0.600000
-0.099244 0.695765 0.552710 0.300000 0.000000 0.600000
-0.091153 0.426104 -0.221623 0.300000 0.000000 0.600000
-0.098231 -0.248313 -0.274183 0.300000 0.000000 0.600000
-0.052373 0.852345 0.256372 0.300000 0.000000 0.600000
-0.082870 0.383036 0.634274 0.300000 0.000000 0.600000
0.028519 -0.011274 -0.287409 0.300000 0.000000 0.600000
0.026925 0.767206 0.266154 0.300000 0.000000 0.600000
-0.012460 -0.601027 -0.361907 0.600000 0.000000 0.300000
0.016790 0.764243 0.478016 0.300000 0.000000 0.600000
-0.012626 0.204402 0.671449 0.300000 0.000000 0.600000
0.014556 0.174145 0.693740 0.600000 0.300000 0.000000
-0.040178 -0.617834 -0.364295 0.600000 0.000000 0.300000
-0.022809 -0.929956 -0.170125 0.300000 0.000000 0.600000
-0.052197 0.793042 0.474695 0.300000 0.000000 0.600000
0.276509 -0.498595 -0.340954 0.000000 1.000000 0.000000
-0.095918 0.054599 -0.266854 0.300000 0.000000 0.600000
0.026126 -0.286649 -0.292327 0.300000 0.000000 0.600000
-0.017318 0.697746 0.077892 0.300000 0.000000 0.600000
-0.021009 0.546393 0.710322 0.300000 0.000000 0.600000
-0.121154 -0.543098 -0.314070 0.600000 0.000000 0.300000
0.002168 0.407387 0.616623 0.300000 0.000000 0.600000
0.284558 -0.245579 -0.285854 0.000000 1.000000 0.000000
-0.080587 -0.258917 -0.307581 0.300000 0.000000 0.600000
0.047231 -0.524667 -0.171129 0.800000 0.200000 0.500000
0.072479 -0.649441 -0.259892 0.600000 0.000000 0.300000
-0.077485 0.733539 0.127614 0.300000 0.000000 0.600000
0.293523 -0.478919 -0.324689 0.000000 1.000000 0.000000
-0.015201 0.779231 0.493124 0.300000 0.000000 0.600000
-0.031881 0.283062 -0.197522 0.300000 0.000000 0.600000
-0.074921 -0.781080 -0.355937 0.600000 0.000000 0.300000
-0.010274 0.108321 -0.323801 0.300000 0.000000 0.600000
-0.096498 0.447194 0.666533 0.300000 0.000000 0.600000
-0.001576 0.577063 0.537187 0.300000 0.000000 0.600000
0.247867 -0.215528 -0.263186 0.000000 1.000000 0.000000
-0.093931 0.700444 -0.000850 0.300000 0.000000 0.600000
0.026437 0.658685 -0.065890 0.300000 0.000000 0.600000
0.301393 -0.164804 -0.268792 0.000000 1.000000 0.000000
0.023587 0.438490 0.735611 0.300000 0.000000 0.600000
0.029182 -0.125184 -0.246110 0.300000 0.000000 0.600000
-0.064469 -0.294711 -0.310930 0.300000 0.000000 0.600000
-0.074802 0.780752 -0.015080 0.300000 0.000000 0.600000
-0.070842 -0.704035 -0.163226 0.600000 0.000000 0.300000
0.027998 0.466326 -0.251291 0.300000 0.000000 0.600000
-0.099996 0.208996 0.781291 0.600000 0.300000 0.000000
-0.076519 0.627399 0.657053 0.300000 0.000000 0.600000
0.006295 -0.738494 -0.357354 0.600000 0.000000 0.300000
-0.091085 0.605362 -0.123103 0.300000 0.000000 0.600000
0.115358 -0.455244 -0.289005 0.800000 0.200000 0.500000
-0.025098 0.454358 -0.171783 0.300000 0.000000 0.600000
0.149033 -0.632576 -0.252739 0.800000 0.200000 0.500000
0.023082 0.782159 0.425709 0.300000 0.000000 0.600000
-0.130458 -0.490450 -0.224016 0.600000 0.000000 0.300000
-0.043171 0.214344 0.649650 0.300000 0.000000 0.600000
-0.037389 -0.403999 -0.364558 0.600000 0.000000 0.300000
0.002859 0.383057 -0.312483 0.300000 0.000000 0.600000
0.033559 0.497983 -0.235806 0.300000 0.000000 0.600000
-0.045596 0.593437 0.688305 0.300000 0.000000 0.600000
-0.094635 0.650501 0.598622 0.300000 0.000000 0.600000
0.034208 0.456511 -0.230768 0.300000 0.000000 0.600000
0.024448 -0.879248 -0.138085 0.300000 0.000000 0.600000
-0.127877 -0.592628 -0.217477 0.600000 0.000000 0.300000
0.007197 0.623708 0.508024 0.300000 0.000000 0.600000
-0.015111 -0.228734 -0.199604 0.300000 0.000000 0.600000
0.017284 0.671791 0.602008 0.300000 0.000000 0.600000
-0.094054 -0.440686 -0.343777 0.600000 0.000000 0.300000
-0.054277 -0.275199 -0.323948 0.300000 0.000000 0.600000
0.041625 0.464440 0.690945 0.300000 0.000000 0.600000
-0.051557 0.645693 -0.216477 0.300000 0.000000 0.600000
-0.099318 0.394957 -0.261532 0.300000 0.000000 0.600000
0.028918 0.690451 0.472678 0.300000 0.000000 0.600000
0.071859 -0.340649 -0.260772 0.600000 0.000000 0.300000
0.216554 -0.545046 -0.350609 0.000000 1.000000 0.000000
-0.093334 0.756701 0.343460 0.300000 0.000000 0.600000
-0.086399 0.255332 -0.294151 0.300000 0.000000 0.600000
-0.075155 0.329251 -0.207127 0.300000 0.000000 0.600000
-0.041583 0.842596 0.150350 0.300000 0.000000 0.600000
-0.049670 -0.642735 -0.158276 0.600000 0.000000 0.300000
0.158346 -0.449511 -0.262715 0.800000 0.200000 0.500000
-0.104005 0.437765 0.648578 0.300000 0.000000 0.600000
0.012185 0.827691 0.112491 0.300000 0.000000 0.600000
-0.072112 0.437282 0.748373 0.300000 0.000000 0.600000
-0.137231 -0.904152 -0.176556 0.300000 0.000000 0.600000
0.036049 0.194265 0.782935 0.600000 0.300000 0.000000
0.027153 0.197185 -0.240301 0.300000 0.000000 0.600000
-0.036481 0.154608 0.743996 0.600000 0.300000 0.000000
0.233143 -0.629707 -0.274790 0.000000 1.000000 0.000000
-0.063121 -0.071111 -0.316818 0.300000 0.000000 0.600000
0.009438 0.634560 0.646406 0.300000 0.000000 0.600000
0.132921 -0.450690 -0.250472 0.800000 0.200000 0.500000
-0.060801 -0.856875 -0.388224 0.300000 0.000000 0.600000
-0.001680 -0.897185 -0.130490 0.300000 0.000000 0.600000
-0.024954 0.656898 -0.014299 0.300000 0.000000 0.600000
-0.109105 0.414803 0.694159 0.300000 0.000000 0.600000
-0.077749 0.807906 0.416293 0.300000 0.000000 0.600000
-0.038806 -0.906312 -0.394999 0.300000 0.000000 0.600000
-0.011402 -0.705783 -0.159381 0.600000 0.000000 0.300000
0.002398 0.445244 0.690669 0.300000 0.000000 0.600000
-0.099295 0.353156 -0.250594 0.300000 0.000000 0.600000
-0.071851 0.818414 0.067477 0.300000 0.000000 0.600000
-0.010886 0.631846 0.668050 0.300000 0.000000 0.600000
0.001454 0.089953 -0.202412 0.300000 0.000000 0.600000
-0.085338 -0.814955 -0.349602 0.600000 0.000000 0.300000
0.026342 0.658093 -0.162584 0.300000 0.000000 0.600000
-0.089667 -0.744180 -0.346709 0.600000 0.000000 0.300000
-0.069563 0.095898 -0.311831 0.300000 0.000000 0.600000
0.208034 -0.558537 -0.347819 0.000000 1.000000 0.000000
0.112513 -0.466924 -0.207391 0.800000 0.200000 0.500000
-0.080526 0.815777 0.335018 0.300000 0.000000 0.600000
-0.081439 -0.325962 -0.270096 0.600000 0.000000 0.300000
-0.103159 0.496398 0.686074 0.300000 0.000000 0.600000
0.285579 -0.588770 -0.182541 0.000000 1.000000 0.000000
0.239169 -0.450673 -0.248517 0.000000 1.000000 0.000000
0.022515 0.002333 -0.221945 0.300000 0.000000 0.600000
-0.003527 0.363186 -0.200563 0.300000 0.000000 0.600000
-0.056406 -0.652855 -0.361183 0.600000 0.000000 0.300000
-0.087026 0.150343 -0.221117 0.300000 0.000000 0.600000
0.021385 0.519934 -0.251427 0.300000 0.000000 0.600000
-0.136191 -0.724262 -0.265473 0.600000 0.000000 0.300000
0.002443 -0.312997 -0.205098 0.300000 0.000000 0.600000
0.004126 0.831940 0.332303 0.300000 0.000000 0.600000
0.026986 0.561845 -0.219976 0.300000 0.000000 0.600000
0.012754 -0.165097 -0.304415 0.300000 0.000000 0.600000
-0.110095 -0.571405 -0.330386 0.600000 0.000000 0.300000
0.002454 0.685741 0.423090 0.300000 0.000000 0.600000
0.020464 -0.389352 -0.349494 0.600000 0.000000 0.300000
-0.099679 0.371802 -0.256880 0.300000 0.000000 0.600000
-0.005247 0.221387 -0.199074 0.300000 0.000000 0.600000
0.022369 0.169550 -0.222252 0.300000 0.000000 0.600000
-0.101068 0.721994 0.490039 0.300000 0.000000 0.600000
-0.153697 -0.871244 -0.318395 0.300000 0.000000 0.600000
0.164409 -0.464592 -0.209302 0.800000 0.200000 0.500000
0.020267 -0.325318 -0.249229 0.600000 0.000000 0.300000
0.321819 -0.571623 -0.266999 0.000000 1.000000 0.000000
-0.070052 0.665952 0.620100 0.300000 0.000000 0.600000
-0.011425 -0.788320 -0.361701 0.600000 0.000000 0.300000
0.290219 -0.104805 -0.237536 0.000000 1.000000 0.000000
0.213239 -0.617463 -0.212557 0.000000 1.000000 0.000000
-0.094672 -0.002630 -0.245706 0.300000 0.000000 0.600000
-0.050330 0.254656 0.808412 0.600000 0.300000 0.000000
-0.070811 0.507458 -0.167315 0.300000 0.000000 0.600000
0.025914 0.635804 0.621850 0.300000 0.000000 0.600000
-0.093480 0.210309 -0.288170 0.300000 0.000000 0.600000
-0.122055 -0.630018 -0.312721 0.600000 0.000000 0.300000
-0.001599 0.655898 0.461332 0.300000 0.000000 0.600000
-0.023053 -0.929899 -0.382510 0.300000 0.000000 0.600000
-0.091158 0.398132 -0.275790 0.300000 0.000000 0.600000
0.012031 0.365979 -0.211908 0.300000 0.000000 0.600000
0.017291 0.732144 0.342088 0.300000 0.000000 0.600000
-0.077851 0.750376 0.510918 0.300000 0.000000 0.600000
0.016856 -0.356766 -0.169316 0.600000 0.000000 0.300000
0.026478 -0.929956 -0.287950 0.300000 0.000000 0.600000
-0.063763 0.829308 0.097578 0.300000 0.000000 0.600000
0.011111 0.690070 -0.147380 0.300000 0.000000 0.600000
-0.094368 0.778746 0.248660 0.300000 0.000000 0.600000
0.001849 0.783264 0.480139 0.300000 0.000000 0.600000
0.063287 -0.431198 -0.219208 0.600000 0.000000 0.300000
0.023449 0.614110 -0.119559 0.300000 0.000000 0.600000
-0.053645 -0.512543 -0.361731 0.600000 0.000000 0.300000
-0.063250 -0.460833 -0.161093 0.600000 0.000000 0.300000
-0.056018 0.764996 0.520981 0.300000 0.000000 0.600000
-0.027420 0.233617 0.614631 0.300000 0.000000 0.600000
-0.124791 -0.685465 -0.308624 0.600000 0.000000 0.300000
-0.066219 -0.149038 -0.318565 0.300000 0.000000 0.600000
-0.063868 0.691165 0.608009 0.300000 0.000000 0.600000
0.002074 -0.529404 -0.161898 0.600000 0.000000 0.300000
0.026551 -0.071930 -0.229012 0.300000 0.000000 0.600000
-0.089973 0.760502 0.215324 0.300000 0.000000 0.600000
0.321372 -0.476136 -0.227241 0.000000 1.000000 0.000000
0.321482 -0.489709 -0.316409 0.000000 1.000000 0.000000
0.008646 0.464816 -0.183759 0.300000 0.000000 0.600000
-0.006695 0.527113 0.719865 0.300000 0.000000 0.600000
-0.056655 0.478452 0.587031 0.300000 0.000000 0.600000
-0.054915 0.591803 -0.250512 0.300000 0.000000 0.600000
0.032781 0.770749 0.205811 0.300000 0.000000 0.600000
-0.003958 0.190739 0.823532 0.600000 0.300000 0.000000
-0.086134 0.507312 0.703167 0.300000 0.000000 0.600000
0.006337 -0.234683 -0.315228 0.300000 0.000000 0.600000
-0.003183 0.499245 -0.285494 0.300000 0.000000 0.600000
-0.091442 0.730521 0.058197 0.300000 0.000000 0.600000
-0.095525 0.020816 -0.249133 0.300000 0.000000 0.600000
-0.067392 0.289470 0.792536 0.300000 0.000000 0.600000
-0.102470 0.679951 0.553334 0.300000 0.000000 0.600000
-0.103250 0.147510 0.740470 0.600000 0.300000 0.000000
-0.005019 -0.391165 -0.360423 0.600000 0.000000 0.300000
-0.094154 0.756348 0.446931 0.300000 0.000000 0.600000
0.021532 0.785377 0.028191 0.300000 0.000000 0.600000
-0.108300 -0.791408 -0.188096 0.600000 0.000000 0.300000
0.037468 0.213715 0.712945 0.600000 0.300000 0.000000
0.029704 0.674968 0.496940 0.300000 0.000000 0.600000
0.051795 -0.685961 -0.320502 0.600000 0.000000 0.300000
-0.134837 -0.854987 -0.178427 0.300000 0.000000 0.600000
0.029563 -0.604296 -0.176723 0.600000 0.000000 0.300000
0.282213 -0.417375 -0.240167 0.000000 1.000000 0.000000
0.231631 -0.606178 -0.199431 0.000000 1.000000 0.000000
-0.080725 0.662671 -0.036158 0.300000 0.000000 0.600000
-0.041557 0.092758 -0.326773 0.300000 0.000000 0.600000
-0.076517 -0.325695 -0.317620 0.600000 0.000000 0.300000
0.309638 -0.470962 -0.316690 0.000000 1.000000 0.000000
0.057982 -0.595553 -0.335953 0.800000 0.200000 0.500000
-0.034101 0.511117 -0.147537 0.300000 0.000000 0.600000
0.010961 0.681876 0.017389 0.300000 0.000000 0.600000
-0.115996 -0.882587 -0.365365 0.300000 0.000000 0.600000
-0.075042 0.407605 0.754717 0.300000 0.000000 0.600000
-0.104142 0.647955 0.577237 0.300000 0.000000 0.600000
-0.002236 0.766474 0.514610 0.300000 0.000000 0.600000
-0.062176 0.186360 0.823708 0.600000 0.300000 0.000000
-0.024417 0.405984 -0.319946 0.300000 0.000000 0.600000
-0.058188 0.709526 0.336541 0.300000 0.000000 0.600000
0.292136 -0.341197 -0.282113 0.000000 1.000000 0.000000
0.282244 -0.187635 -0.286501 0.000000 1.000000 0.000000
0.286404 -0.411830 -0.278835 0.000000 1.000000 0.000000
-0.068992 0.514086 0.714970 0.300000 0.000000 0.600000
-0.080686 0.558373 0.690797 0.300000 0.000000 0.600000
-0.021867 -0.292327 -0.194719 0.300000 0.000000 0.600000
-0.033859 0.250131 -0.193525 0.300000 0.000000 0.600000
-0.096067 0.665503 0.512197 0.300000 0.000000 0.600000
-0.059914 0.647627 -0.033428 0.300000 0.000000 0.600000
-0.096918 -0.311992 -0.252177 0.300000 0.000000 0.600000
-0.096789 0.324654 -0.239378 0.300000 0.000000 0.600000
0.085415 -0.577852 -0.176651 0.800000 0.200000 0.500000
-0.015477 0.657077 -0.209077 0.300000 0.000000 0.600000
0.063540 -0.396057 -0.220206 0.600000 0.000000 0.300000
-0.103466 -0.849414 -0.364812 0.300000 0.000000 0.600000
-0.090003 0.338243 -0.223766 0.300000 0.000000 0.600000
-0.095308 0.152364 -0.271717 0.300000 0.000000 0.600000
0.208689 -0.450874 -0.261262 0.000000 1.000000 0.000000
