-0.563950 -0.037387 -0.146027 0.000000 1.000000 0.000000
0.128267 0.463670 0.456444 0.000000 1.000000 0.000000
-0.448619 0.363892 0.041408 0.000000 1.000000 0.000000
-0.105421 -0.273318 -0.667703 0.000000 1.000000 0.000000
0.009269 -0.425859 0.244035 0.000000 1.000000 0.000000
-0.111830 0.363892 0.398117 0.000000 1.000000 0.000000
-0.425675 -0.425871 -0.089414 0.000000 1.000000 0.000000
-0.119796 0.265138 0.561211 0.600000 0.000000 0.300000
-0.563950 -0.171376 -0.079180 0.000000 1.000000 0.000000
-0.238387 0.395619 0.584273 0.300000 0.600000 0.000000
-0.435698 0.463670 -0.628270 0.000000 1.000000 0.000000
-0.375972 0.363892 -0.144525 0.000000 1.000000 0.000000
0.293774 0.269296 -0.150439 0.000000 1.000000 0.000000
0.654141 -0.159196 0.261529 0.000000 1.000000 0.000000
0.292245 -0.109563 0.639684 0.300000 0.000000 0.600000
0.548666 -0.425878 -0.256909 0.000000 1.000000 0.000000
0.528777 -0.220166 0.574389 0.000000 0.500000 0.500000
0.654141 -0.118274 -0.042351 0.000000 1.000000 0.000000
-0.663729 -0.184076 -0.278847 0.000000 1.000000 0.000000
0.284987 0.462880 0.531558 0.300000 0.600000 0.000000
0.251676 -0.376330 0.531558 0.300000 0.600000 0.000000
-0.284973 -0.326070 0.143593 0.000000 1.000000 0.000000
0.200836 0.463670 -0.506923 0.000000 1.000000 0.000000
-0.459847 0.463670 -0.195704 0.000000 1.000000 0.000000
0.413552 0.004387 0.561211 0.000000 0.500000 0.500000
0.096214 -0.326070 0.439779 0.000000 1.000000 0.000000
0.497056 0.066935 0.574389 0.000000 0.500000 0.500000
0.259080 -0.203334 0.561211 0.600000 0.000000 0.300000
-0.182069 -0.326379 -0.667703 0.000000 1.000000 0.000000
-0.380914 0.463670 0.479048 0.000000 1.000000 0.000000
-0.663729 -0.356677 -0.050199 0.000000 1.000000 0.000000
0.124774 0.307815 0.574389 0.300000 0.600000 0.000000
-0.649406 0.220809 -0.667703 0.000000 1.000000 0.000000
-0.050640 -0.326070 0.434010 0.000000 1.000000 0.000000
-0.245996 -0.326070 0.193283 0.000000 1.000000 0.000000
-0.663729 0.217473 0.349254 0.000000 1.000000 0.000000
0.600396 -0.228765 -0.667703 0.000000 1.000000 0.000000
0.313912 0.320340 0.017612 0.000000 1.000000 0.000000
-0.165471 0.030748 0.561211 0.600000 0.000000 0.300000
-0.162985 -0.326070 -0.109612 0.000000 1.000000 0.000000
0.072304 0.369842 0.531558 0.300000 0.600000 0.000000
-0.466500 0.363892 0.199829 0.000000 1.000000 0.000000
0.387745 0.433138 0.584273 0.000000 1.000000 0.000000
0.614424 -0.323009 0.531558 0.000000 1.000000 0.000000
0.616762 0.018877 -0.667703 0.000000 1.000000 0.000000
0.654141 0.223720 0.235713 0.000000 1.000000 0.000000
0.161071 -0.425872 -0.112623 0.000000 1.000000 0.000000
-0.663729 -0.425604 -0.543568 0.000000 1.000000 0.000000
-0.375251 -0.425885 -0.450721 0.000000 1.000000 0.000000
0.048125 0.363892 0.171541 0.000000 1.000000 0.000000
-0.461670 0.463670 -0.416092 0.000000 1.000000 0.000000
-0.663729 0.108705 -0.225281 0.000000 1.000000 0.000000
0.018910 -0.335007 -0.667703 0.000000 1.000000 0.000000
0.216114 -0.331074 0.531558 0.000000 1.000000 0.000000
-0.473709 -0.326070 0.144164 0.000000 1.000000 0.000000
0.654141 0.320254 -0.546234 0.000000 1.000000 0.000000
0.654141 -0.115973 -0.653208 0.000000 1.000000 0.000000
-0.296393 0.027034 -0.667703 0.000000 1.000000 0.000000
-0.663729 -0.071978 -0.480083 0.000000 1.000000 0.000000
0.171098 0.153352 -0.150439 0.000000 1.000000 0.000000
0.474793 0.463670 -0.287432 0.000000 1.000000 0.000000
0.427520 -0.002920 -0.667703 0.000000 1.000000 0.000000
0.311941 0.363892 -0.136158 0.000000 1.000000 0.000000
-0.663729 -0.146839 0.289734 0.000000 1.000000 0.000000
0.016836 -0.425869 -0.014053 0.000000 1.000000 0.000000
0.526332 -0.346744 0.531558 0.000000 1.000000 0.000000
0.209397 -0.425881 -0.360999 0.000000 1.000000 0.000000
0.284000 -0.425869 -0.028899 0.000000 1.000000 0.000000
-0.663729 -0.372394 0.042538 0.000000 1.000000 0.000000
-0.135979 0.363892 0.309353 0.000000 1.000000 0.000000
0.479025 -0.087570 0.574389 0.000000 0.500000 0.500000
0.024659 0.463670 0.036776 0.000000 1.000000 0.000000
0.106809 -0.425877 -0.238758 0.000000 1.000000 0.000000
-0.663729 0.223215 -0.477741 0.000000 1.000000 0.000000
-0.392010 0.363892 -0.021049 0.000000 1.000000 0.000000
-0.124351 -0.320358 0.541500 0.300000 0.600000 0.000000
0.654141 0.185212 -0.356375 0.000000 1.000000 0.000000
-0.013191 -0.425881 -0.344318 0.000000 1.000000 0.000000
-0.081364 -0.058387 -0.667703 0.000000 1.000000 0.000000
-0.562019 0.363892 0.203034 0.000000 1.000000 0.000000
0.654141 -0.034141 -0.280196 0.000000 1.000000 0.000000
-0.048010 0.463670 0.524931 0.000000 1.000000 0.000000
0.446068 0.128311 0.561211 0.000000 0.500000 0.500000
-0.324933 -0.326070 0.432427 0.000000 1.000000 0.000000
-0.480701 -0.326070 0.229472 0.000000 1.000000 0.000000
0.232688 0.463670 0.355434 0.000000 1.000000 0.000000
-0.387195 0.287631 -0.150439 0.000000 1.000000 0.000000
-0.032124 -0.347762 -0.667703 0.000000 1.000000 0.000000
-0.663729 0.260124 -0.602960 0.000000 1.000000 0.000000
-0.393916 0.463670 -0.032834 0.000000 1.000000 0.000000
0.202911 -0.326070 0.196605 0.000000 1.000000 0.000000
-0.044595 0.267196 -0.667703 0.000000 1.000000 0.000000
0.180043 -0.425855 0.363321 0.000000 1.000000 0.000000
-0.437422 0.297025 -0.667703 0.000000 1.000000 0.000000
0.654141 0.015213 -0.427615 0.000000 1.000000 0.000000
-0.563950 0.028451 0.150955 0.000000 1.000000 0.000000
0.082180 0.463670 0.042030 0.000000 1.000000 0.000000
-0.563950 -0.216145 0.091707 0.000000 1.000000 0.000000
0.654141 -0.370839 0.059882 0.000000 1.000000 0.000000
0.318233 0.315053 -0.667703 0.000000 1.000000 0.000000
0.141333 0.463082 -0.658344 0.000000 1.000000 0.000000
-0.329573 0.250569 -0.667703 0.000000 1.000000 0.000000
-0.663729 0.209131 0.068525 0.000000 1.000000 0.000000
0.328752 0.463670 -0.217741 0.000000 1.000000 0.000000
0.450550 -0.277620 0.561211 0.000000 0.500000 0.500000
0.294361 -0.326070 0.249906 0.000000 1.000000 0.000000
-0.269755 -0.425869 -0.018959 0.000000 1.000000 0.000000
-0.046689 -0.326070 0.350809 0.000000 1.000000 0.000000
-0.525426 -0.425849 0.517446 0.000000 1.000000 0.000000
0.064892 0.463623 0.534568 0.300000 0.600000 0.000000
-0.301957 0.463670 0.122964 0.000000 1.000000 0.000000
0.003501 0.211542 0.564505 0.600000 0.000000 0.300000
-0.563950 0.034742 0.424197 0.000000 1.000000 0.000000
-0.530766 -0.133433 -0.150439 0.000000 1.000000 0.000000
0.287051 -0.425887 -0.529986 0.000000 1.000000 0.000000
0.654141 -0.038967 -0.235439 0.000000 1.000000 0.000000
-0.229722 -0.425886 -0.477637 0.000000 1.000000 0.000000
-0.563950 0.007243 0.335904 0.000000 1.000000 0.000000
0.615169 -0.158265 0.531558 0.000000 1.000000 0.000000
-0.444176 -0.425868 0.000734 0.000000 1.000000 0.000000
-0.067735 -0.425860 0.215326 0.000000 1.000000 0.000000
-0.073617 0.252164 0.564505 0.600000 0.000000 0.300000
0.390194 -0.425853 0.407731 0.000000 1.000000 0.000000
0.139887 0.365400 -0.667703 0.000000 1.000000 0.000000
0.313912 0.066731 0.152898 0.000000 1.000000 0.000000
-0.282517 0.463670 -0.470341 0.000000 1.000000 0.000000
-0.488309 0.355700 0.531558 0.300000 0.600000 0.000000
-0.387113 -0.425875 -0.172580 0.000000 1.000000 0.000000
0.639654 0.351680 0.584273 0.000000 1.000000 0.000000
-0.632196 0.432837 0.584273 0.300000 0.600000 0.000000
-0.258564 -0.425856 0.334353 0.000000 1.000000 0.000000
-0.532060 0.291307 -0.667703 0.000000 1.000000 0.000000
-0.563950 0.189069 0.443725 0.000000 1.000000 0.000000
0.639092 -0.425891 -0.634043 0.000000 1.000000 0.000000
-0.326941 0.136939 -0.667703 0.000000 1.000000 0.000000
-0.663729 -0.236810 0.497087 0.000000 1.000000 0.000000
0.654141 0.460013 -0.250664 0.000000 1.000000 0.000000
0.059601 0.034633 -0.667703 0.000000 1.000000 0.000000
-0.280675 -0.326070 -0.046627 0.000000 1.000000 0.000000
0.063364 0.363892 0.343101 0.000000 1.000000 0.000000
-0.597112 0.463670 -0.004521 0.000000 1.000000 0.000000
0.477079 0.118472 0.531558 0.000000 1.000000 0.000000
-0.654172 0.327478 -0.667703 0.000000 1.000000 0.000000
-0.663729 -0.033493 -0.638721 0.000000 1.000000 0.000000
0.171229 -0.356613 -0.667703 0.000000 1.000000 0.000000
-0.066669 0.318091 -0.150439 0.000000 1.000000 0.000000
-0.620076 0.003250 0.573322 0.300000 0.600000 0.000000
-0.069070 -0.326070 0.038632 0.000000 1.000000 0.000000
-0.663729 0.088345 -0.030783 0.000000 1.000000 0.000000
0.654141 0.399194 0.280574 0.000000 1.000000 0.000000
0.241136 -0.425850 0.497939 0.000000 1.000000 0.000000
0.654141 0.162483 -0.020945 0.000000 1.000000 0.000000
0.214627 0.363892 0.319208 0.000000 1.000000 0.000000
0.332635 0.143574 -0.667703 0.000000 1.000000 0.000000
-0.359473 -0.425890 -0.591204 0.000000 1.000000 0.000000
0.199499 -0.170645 -0.150439 0.000000 1.000000 0.000000
0.469484 -0.283397 -0.667703 0.000000 1.000000 0.000000
0.167415 -0.425859 0.248095 0.000000 1.000000 0.000000
-0.446486 0.365105 -0.667703 0.000000 1.000000 0.000000
0.243358 0.424590 0.531558 0.000000 1.000000 0.000000
0.654141 -0.224202 -0.422672 0.000000 1.000000 0.000000
-0.231530 -0.425862 0.185109 0.000000 1.000000 0.000000
0.654141 -0.021516 -0.509693 0.000000 1.000000 0.000000
-0.232089 -0.326070 0.088669 0.000000 1.000000 0.000000
0.448458 -0.070626 0.531558 0.000000 1.000000 0.000000
0.463773 -0.425875 -0.174913 0.000000 1.000000 0.000000
-0.150456 -0.425859 0.243250 0.000000 1.000000 0.000000
0.612050 -0.425867 0.044179 0.000000 1.000000 0.000000
-0.663729 -0.170068 0.122187 0.000000 1.000000 0.000000
0.343713 0.024227 0.531558 0.000000 1.000000 0.000000
0.310732 0.166049 0.574389 0.300000 0.600000 0.000000
-0.563950 0.228791 0.120666 0.000000 1.000000 0.000000
-0.462527 0.194827 -0.667703 0.000000 1.000000 0.000000
-0.620526 0.463670 -0.631928 0.000000 1.000000 0.000000
-0.598399 0.463670 0.251083 0.000000 1.000000 0.000000
0.457661 0.463670 0.511293 0.000000 1.000000 0.000000
0.374547 -0.254539 0.574389 0.000000 0.500000 0.500000
-0.410487 -0.247734 -0.150439 0.000000 1.000000 0.000000
0.375324 -0.421232 -0.664545 0.000000 1.000000 0.000000
0.406635 -0.425867 0.031435 0.000000 1.000000 0.000000
-0.076348 0.226958 -0.150439 0.000000 1.000000 0.000000
0.654141 -0.340421 -0.401755 0.000000 1.000000 0.000000
0.449948 -0.328740 0.531558 0.000000 1.000000 0.000000
0.149952 -0.023172 0.564505 0.600000 0.000000 0.300000
0.114958 0.463670 -0.391530 0.000000 1.000000 0.000000
0.313912 0.268808 0.001178 0.000000 1.000000 0.000000
-0.597336 -0.425873 -0.135688 0.000000 1.000000 0.000000
0.029622 -0.326070 0.158873 0.000000 1.000000 0.000000
0.136306 0.463670 0.128352 0.000000 1.000000 0.000000
0.654141 0.416705 -0.588593 0.000000 1.000000 0.000000
-0.240373 -0.425939 0.550817 0.300000 0.600000 0.000000
-0.139150 -0.425891 -0.616700 0.000000 1.000000 0.000000
0.072691 0.365274 0.574389 0.300000 0.600000 0.000000
0.533608 -0.167766 0.531558 0.000000 1.000000 0.000000
-0.563950 -0.295442 0.070383 0.000000 1.000000 0.000000
0.022983 -0.326070 0.336160 0.000000 1.000000 0.000000
-0.652340 0.463670 -0.086749 0.000000 1.000000 0.000000
-0.498483 -0.246903 -0.667703 0.000000 1.000000 0.000000
0.198226 -0.425869 -0.030779 0.000000 1.000000 0.000000
0.654141 0.408910 0.019591 0.000000 1.000000 0.000000
0.545613 0.463670 0.354410 0.000000 1.000000 0.000000
-0.250209 0.463670 -0.304608 0.000000 1.000000 0.000000
-0.508304 0.463670 0.231104 0.000000 1.000000 0.000000
0.104302 -0.275680 -0.150439 0.000000 1.000000 0.000000
-0.088182 0.168651 -0.667703 0.000000 1.000000 0.000000
0.017589 0.353733 0.584273 0.300000 0.600000 0.000000
0.313912 0.017575 -0.128943 0.000000 1.000000 0.000000
0.534021 -0.425856 0.328480 0.000000 1.000000 0.000000
-0.568974 -0.089584 -0.667703 0.000000 1.000000 0.000000
0.428351 0.463670 -0.385399 0.000000 1.000000 0.000000
0.654141 -0.263729 0.326248 0.000000 1.000000 0.000000
0.469677 -0.425854 0.385453 0.000000 1.000000 0.000000
-0.563950 0.040284 -0.120750 0.000000 1.000000 0.000000
0.221880 0.363892 0.131810 0.000000 1.000000 0.000000
-0.471495 0.463670 0.116945 0.000000 1.000000 0.000000
-0.365145 0.033750 -0.667703 0.000000 1.000000 0.000000
-0.245411 0.463670 -0.093333 0.000000 1.000000 0.000000
-0.241149 0.001328 -0.150439 0.000000 1.000000 0.000000
-0.157788 0.463670 -0.575936 0.000000 1.000000 0.000000
0.434766 0.463670 0.219463 0.000000 1.000000 0.000000
-0.163345 -0.425885 -0.461189 0.000000 1.000000 0.000000
-0.123366 0.390823 -0.667703 0.000000 1.000000 0.000000
-0.663729 0.363314 -0.094746 0.000000 1.000000 0.000000
-0.657534 -0.186553 -0.667703 0.000000 1.000000 0.000000
0.654141 0.032189 -0.356217 0.000000 1.000000 0.000000
-0.398859 0.363892 0.499674 0.000000 1.000000 0.000000
-0.547291 -0.425875 -0.199408 0.000000 1.000000 0.000000
-0.414255 -0.326070 0.391472 0.000000 1.000000 0.000000
-0.591058 0.409029 0.531558 0.300000 0.600000 0.000000
-0.663729 0.025225 0.047210 0.000000 1.000000 0.000000
0.654141 -0.155351 -0.259699 0.000000 1.000000 0.000000
0.313912 0.168431 -0.142853 0.000000 1.000000 0.000000
0.076871 -0.425887 -0.520092 0.000000 1.000000 0.000000
0.055113 -0.326070 0.376464 0.000000 1.000000 0.000000
-0.401318 0.241772 0.564505 0.600000 0.000000 0.300000
0.166275 0.363614 0.574389 0.300000 0.600000 0.000000
0.454215 -0.154299 -0.667703 0.000000 1.000000 0.000000
0.645235 0.463670 0.056565 0.000000 1.000000 0.000000
0.269276 -0.326070 0.098834 0.000000 1.000000 0.000000
0.067566 0.250494 -0.150439 0.000000 1.000000 0.000000
-0.563950 0.084609 0.294696 0.000000 1.000000 0.000000
-0.136136 0.189916 0.561211 0.600000 0.000000 0.300000
-0.663729 0.204516 0.190025 0.000000 1.000000 0.000000
0.654141 -0.419391 -0.398756 0.000000 1.000000 0.000000
-0.563950 0.070820 0.366934 0.000000 1.000000 0.000000
0.505497 -0.425876 -0.213746 0.000000 1.000000 0.000000
-0.663729 0.365660 0.478563 0.000000 1.000000 0.000000
-0.663729 -0.236288 -0.275854 0.000000 1.000000 0.000000
0.249512 0.463670 0.468020 0.000000 1.000000 0.000000
-0.663729 -0.298241 0.346957 0.000000 1.000000 0.000000
0.272788 0.363892 0.397625 0.000000 1.000000 0.000000
0.319065 -0.425890 -0.610288 0.000000 1.000000 0.000000
0.059113 0.193057 -0.667703 0.000000 1.000000 0.000000
-0.663030 0.463670 -0.280892 0.000000 1.000000 0.000000
-0.124238 0.207082 -0.667703 0.000000 1.000000 0.000000
0.397550 -0.425872 -0.114948 0.000000 1.000000 0.000000
0.654141 0.049940 -0.174484 0.000000 1.000000 0.000000
0.214874 -0.425887 -0.503006 0.000000 1.000000 0.000000
-0.663729 0.335451 0.000989 0.000000 1.000000 0.000000
0.267811 0.463670 -0.094582 0.000000 1.000000 0.000000
-0.663729 0.414979 -0.501071 0.000000 1.000000 0.000000
0.362830 0.399194 -0.667703 0.000000 1.000000 0.000000
-0.563950 -0.284986 0.129372 0.000000 1.000000 0.000000
0.654141 0.357234 -0.218823 0.000000 1.000000 0.000000
0.268286 0.049328 -0.667703 0.000000 1.000000 0.000000
0.416929 -0.425887 -0.525770 0.000000 1.000000 0.000000
-0.663729 0.160181 -0.487854 0.000000 1.000000 0.000000
-0.064623 -0.425939 0.578112 0.300000 0.600000 0.000000
-0.282028 0.463670 -0.566011 0.000000 1.000000 0.000000
-0.623751 -0.425851 0.478107 0.000000 1.000000 0.000000
0.645737 -0.425861 0.187415 0.000000 1.000000 0.000000
-0.563950 -0.163169 0.404084 0.000000 1.000000 0.000000
-0.124628 0.463670 0.406234 0.000000 1.000000 0.000000
-0.490704 0.254765 0.561211 0.600000 0.000000 0.300000
-0.223591 -0.196105 0.564505 0.600000 0.000000 0.300000
-0.447043 -0.425880 -0.312799 0.000000 1.000000 0.000000
-0.663729 0.070641 -0.106981 0.000000 1.000000 0.000000
-0.663729 -0.073905 0.476862 0.000000 1.000000 0.000000
0.238271 -0.425858 0.288809 0.000000 1.000000 0.000000
0.020943 -0.273901 -0.667703 0.000000 1.000000 0.000000
-0.563950 0.353318 0.493108 0.000000 1.000000 0.000000
-0.353572 -0.425867 0.026809 0.000000 1.000000 0.000000
0.141615 0.363892 0.499412 0.000000 1.000000 0.000000
-0.280653 0.363892 0.488202 0.000000 1.000000 0.000000
-0.006191 -0.425873 -0.125940 0.000000 1.000000 0.000000
0.124025 0.428434 0.584273 0.300000 0.600000 0.000000
-0.441701 0.423270 0.584273 0.300000 0.600000 0.000000
-0.563950 0.331416 0.013647 0.000000 1.000000 0.000000
-0.388313 -0.425851 0.483548 0.000000 1.000000 0.000000
0.313912 0.019651 0.425470 0.000000 1.000000 0.000000
-0.323427 -0.326070 0.528491 0.000000 1.000000 0.000000
0.654141 -0.140793 -0.594088 0.000000 1.000000 0.000000
-0.563950 0.114987 0.444537 0.000000 1.000000 0.000000
-0.452695 -0.425891 -0.631076 0.000000 1.000000 0.000000
0.599088 0.088468 -0.667703 0.000000 1.000000 0.000000
0.240058 -0.425878 -0.268337 0.000000 1.000000 0.000000
-0.083746 0.463670 -0.593189 0.000000 1.000000 0.000000
-0.343286 -0.383438 0.584273 0.300000 0.600000 0.000000
0.419755 -0.425871 -0.064423 0.000000 1.000000 0.000000
-0.368781 -0.326070 0.018461 0.000000 1.000000 0.000000
0.169860 0.303105 -0.667703 0.000000 1.000000 0.000000
-0.506700 -0.425854 0.397462 0.000000 1.000000 0.000000
0.654141 0.040427 -0.655663 0.000000 1.000000 0.000000
-0.172857 0.463670 0.242532 0.000000 1.000000 0.000000
0.313912 -0.215924 0.154835 0.000000 1.000000 0.000000
-0.458887 -0.037780 0.561211 0.600000 0.000000 0.300000
-0.228009 0.463670 -0.344454 0.000000 1.000000 0.000000
-0.352217 0.364981 0.531558 0.000000 1.000000 0.000000
0.100265 0.463670 -0.564365 0.000000 1.000000 0.000000
-0.019004 0.463670 -0.092717 0.000000 1.000000 0.000000
-0.289817 0.341001 -0.150439 0.000000 1.000000 0.000000
-0.507190 0.081034 0.561211 0.600000 0.000000 0.300000
0.143177 0.252620 -0.667703 0.000000 1.000000 0.000000
-0.663729 0.068593 0.319853 0.000000 1.000000 0.000000
-0.453683 0.421886 -0.667703 0.000000 1.000000 0.000000
0.128039 0.463670 -0.239905 0.000000 1.000000 0.000000
0.440281 -0.425891 -0.616418 0.000000 1.000000 0.000000
-0.582651 -0.225913 0.574389 0.300000 0.600000 0.000000
0.044104 -0.323799 0.561211 0.300000 0.600000 0.000000
0.051183 -0.425863 0.156370 0.000000 1.000000 0.000000
-0.594485 0.022006 -0.667703 0.000000 1.000000 0.000000
-0.563950 0.306174 0.324474 0.000000 1.000000 0.000000
0.164122 -0.425889 -0.574140 0.000000 1.000000 0.000000
0.190885 0.463670 0.216826 0.000000 1.000000 0.000000
0.263207 -0.425884 -0.438374 0.000000 1.000000 0.000000
-0.241496 -0.002017 -0.667703 0.000000 1.000000 0.000000
-0.663729 -0.061893 -0.064578 0.000000 1.000000 0.000000
-0.663729 -0.197552 0.000384 0.000000 1.000000 0.000000
0.627321 -0.425884 -0.439573 0.000000 1.000000 0.000000
-0.486876 -0.392920 0.584273 0.300000 0.600000 0.000000
0.550993 -0.425872 -0.092949 0.000000 1.000000 0.000000
-0.085425 -0.335269 0.561211 0.300000 0.600000 0.000000
0.654141 0.247019 -0.016110 0.000000 1.000000 0.000000
0.600656 -0.425870 -0.044307 0.000000 1.000000 0.000000
-0.503899 -0.425873 -0.138505 0.000000 1.000000 0.000000
0.343481 0.463670 0.156891 0.000000 1.000000 0.000000
-0.565417 0.116895 0.574389 0.300000 0.600000 0.000000
0.654141 -0.152943 -0.077599 0.000000 1.000000 0.000000
-0.472397 -0.425857 0.312514 0.000000 1.000000 0.000000
-0.663729 0.228825 -0.041269 0.000000 1.000000 0.000000
-0.169354 0.463670 0.161458 0.000000 1.000000 0.000000
-0.237000 0.352663 0.572119 0.300000 0.600000 0.000000
0.654141 0.009120 0.134886 0.000000 1.000000 0.000000
-0.153517 0.463670 0.326167 0.000000 1.000000 0.000000
-0.663729 -0.160324 0.208087 0.000000 1.000000 0.000000
-0.155546 -0.204768 0.564505 0.600000 0.000000 0.300000
0.167319 0.463670 0.043604 0.000000 1.000000 0.000000
-0.448125 0.463670 -0.352831 0.000000 1.000000 0.000000
0.256599 0.164553 0.564505 0.600000 0.000000 0.300000
-0.237125 0.363892 0.091602 0.000000 1.000000 0.000000
-0.366074 -0.326070 0.082125 0.000000 1.000000 0.000000
-0.269118 -0.425887 -0.512405 0.000000 1.000000 0.000000
0.401703 -0.207020 0.531558 0.000000 1.000000 0.000000
-0.138304 -0.012615 -0.667703 0.000000 1.000000 0.000000
-0.465124 -0.184149 -0.150439 0.000000 1.000000 0.000000
-0.663729 -0.277774 -0.431363 0.000000 1.000000 0.000000
-0.511062 -0.425939 0.570617 0.300000 0.600000 0.000000
0.256393 0.363892 -0.028513 0.000000 1.000000 0.000000
0.364778 0.269982 0.574389 0.000000 0.500000 0.500000
0.317121 0.109581 0.531558 0.000000 1.000000 0.000000
0.313912 -0.228020 0.262592 0.000000 1.000000 0.000000
-0.120625 0.375659 0.531558 0.300000 0.600000 0.000000
-0.083224 0.363892 0.241096 0.000000 1.000000 0.000000
-0.663729 -0.135785 -0.030925 0.000000 1.000000 0.000000
0.034229 0.363892 0.309277 0.000000 1.000000 0.000000
-0.630844 -0.033590 -0.667703 0.000000 1.000000 0.000000
-0.374057 -0.425886 -0.494302 0.000000 1.000000 0.000000
-0.140353 0.463670 0.492555 0.000000 1.000000 0.000000
-0.281222 0.463670 -0.427753 0.000000 1.000000 0.000000
-0.013292 0.363892 0.129222 0.000000 1.000000 0.000000
0.654141 -0.068214 0.318146 0.000000 1.000000 0.000000
-0.469246 0.020635 -0.150439 0.000000 1.000000 0.000000
-0.663729 0.431306 0.316611 0.000000 1.000000 0.000000
0.654141 0.317133 0.029049 0.000000 1.000000 0.000000
0.654141 0.217717 0.047782 0.000000 1.000000 0.000000
-0.563950 -0.257126 0.522223 0.000000 1.000000 0.000000
-0.563950 -0.127485 0.220004 0.000000 1.000000 0.000000
0.582357 -0.127101 -0.667703 0.000000 1.000000 0.000000
-0.538741 0.301074 0.564505 0.600000 0.000000 0.300000
-0.254794 -0.425875 -0.198783 0.000000 1.000000 0.000000
0.654141 0.343744 -0.030947 0.000000 1.000000 0.000000
0.654141 -0.151056 -0.413875 0.000000 1.000000 0.000000
-0.663729 -0.383542 -0.542626 0.000000 1.000000 0.000000
-0.004827 -0.425885 -0.466004 0.000000 1.000000 0.000000
-0.563950 0.113943 0.498344 0.000000 1.000000 0.000000
-0.023895 0.198439 -0.667703 0.000000 1.000000 0.000000
-0.171762 0.363892 -0.025459 0.000000 1.000000 0.000000
-0.663729 0.330052 0.093425 0.000000 1.000000 0.000000
-0.050119 0.055910 0.564505 0.600000 0.000000 0.300000
-0.083843 -0.424719 0.531558 0.000000 1.000000 0.000000
0.376686 -0.425886 -0.495616 0.000000 1.000000 0.000000
-0.246289 -0.289360 -0.150439 0.000000 1.000000 0.000000
-0.531289 0.053467 -0.150439 0.000000 1.000000 0.000000
-0.663729 0.387021 -0.170495 0.000000 1.000000 0.000000
-0.245156 -0.326070 0.461988 0.000000 1.000000 0.000000
0.155778 -0.326070 0.472414 0.000000 1.000000 0.000000
0.501429 0.463670 -0.226419 0.000000 1.000000 0.000000
-0.563950 -0.246439 0.408121 0.000000 1.000000 0.000000
0.565970 0.463670 0.080339 0.000000 1.000000 0.000000
-0.663729 0.263399 -0.199187 0.000000 1.000000 0.000000
0.039191 0.463670 -0.287363 0.000000 1.000000 0.000000
0.140478 -0.425860 0.214665 0.000000 1.000000 0.000000
0.313912 -0.168469 0.357807 0.000000 1.000000 0.000000
-0.563950 0.079955 0.236344 0.000000 1.000000 0.000000
-0.366142 0.463670 -0.562295 0.000000 1.000000 0.000000
0.453989 0.463670 -0.575124 0.000000 1.000000 0.000000
-0.422573 -0.332098 0.584273 0.300000 0.600000 0.000000
0.654141 -0.298170 0.001973 0.000000 1.000000 0.000000
-0.045957 0.463670 -0.526678 0.000000 1.000000 0.000000
0.313912 0.180147 0.221705 0.000000 1.000000 0.000000
0.622371 0.278646 0.584273 0.000000 1.000000 0.000000
-0.288689 -0.425854 0.385166 0.000000 1.000000 0.000000
0.313912 0.056699 -0.147700 0.000000 1.000000 0.000000
-0.293936 0.463670 0.056726 0.000000 1.000000 0.000000
0.654141 -0.355647 -0.165065 0.000000 1.000000 0.000000
-0.011342 0.363892 -0.104962 0.000000 1.000000 0.000000
0.654141 0.103630 -0.620130 0.000000 1.000000 0.000000
0.592181 -0.425875 -0.185638 0.000000 1.000000 0.000000
-0.143073 -0.425879 -0.295486 0.000000 1.000000 0.000000
-0.215557 -0.188534 -0.667703 0.000000 1.000000 0.000000
-0.638024 0.463670 0.157197 0.000000 1.000000 0.000000
0.632575 0.409216 -0.667703 0.000000 1.000000 0.000000
0.654141 0.137851 0.077855 0.000000 1.000000 0.000000
-0.263141 0.435011 0.531558 0.300000 0.600000 0.000000
-0.092157 0.281316 -0.667703 0.000000 1.000000 0.000000
-0.614684 -0.194082 0.531558 0.300000 0.600000 0.000000
-0.620076 0.263429 0.571540 0.300000 0.600000 0.000000
0.429580 -0.375952 -0.667703 0.000000 1.000000 0.000000
0.520980 0.097556 -0.667703 0.000000 1.000000 0.000000
-0.563950 -0.109711 -0.114297 0.000000 1.000000 0.000000
-0.622729 -0.425886 -0.493261 0.000000 1.000000 0.000000
0.526108 -0.425887 -0.519159 0.000000 1.000000 0.000000
-0.291051 -0.425864 0.119931 0.000000 1.000000 0.000000
-0.093309 -0.368308 -0.667703 0.000000 1.000000 0.000000
-0.290651 -0.425882 -0.377901 0.000000 1.000000 0.000000
0.613218 -0.425879 -0.292427 0.000000 1.000000 0.000000
-0.261577 -0.336694 0.574389 0.300000 0.600000 0.000000
0.383505 -0.162452 0.574389 0.000000 0.500000 0.500000
-0.032404 -0.025908 0.564505 0.600000 0.000000 0.300000
0.647552 0.071675 0.541877 0.000000 1.000000 0.000000
0.375116 -0.425862 0.160472 0.000000 1.000000 0.000000
-0.259743 -0.051924 0.564505 0.600000 0.000000 0.300000
-0.371505 0.463670 -0.637180 0.000000 1.000000 0.000000
-0.563950 0.144206 -0.104192 0.000000 1.000000 0.000000
-0.515379 -0.425882 -0.391540 0.000000 1.000000 0.000000
0.647552 0.431662 0.575497 0.000000 1.000000 0.000000
0.372143 0.460520 0.531558 0.000000 1.000000 0.000000
-0.663729 -0.303043 -0.058281 0.000000 1.000000 0.000000
-0.001644 0.463670 0.445408 0.000000 1.000000 0.000000
0.313912 0.168284 0.001007 0.000000 1.000000 0.000000
-0.184197 0.411135 0.531558 0.300000 0.600000 0.000000
0.654141 -0.312934 0.527896 0.000000 1.000000 0.000000
0.313912 0.340591 -0.068362 0.000000 1.000000 0.000000
-0.144507 -0.425856 0.339750 0.000000 1.000000 0.000000
-0.563950 0.320151 0.149681 0.000000 1.000000 0.000000
-0.013236 -0.183147 -0.150439 0.000000 1.000000 0.000000
0.310768 0.232442 0.623075 0.300000 0.000000 0.600000
0.047252 0.427636 -0.667703 0.000000 1.000000 0.000000
-0.252591 0.340511 -0.667703 0.000000 1.000000 0.000000
0.095558 -0.326070 0.190519 0.000000 1.000000 0.000000
0.654141 -0.043130 -0.170468 0.000000 1.000000 0.000000
-0.306198 -0.326070 0.251894 0.000000 1.000000 0.000000
0.520559 -0.210842 -0.667703 0.000000 1.000000 0.000000
-0.488918 0.352663 0.577936 0.300000 0.600000 0.000000
0.173529 0.463670 -0.572653 0.000000 1.000000 0.000000
0.654141 -0.108092 -0.342657 0.000000 1.000000 0.000000
-0.592630 -0.425939 0.576863 0.300000 0.600000 0.000000
-0.266514 -0.326070 0.358382 0.000000 1.000000 0.000000
0.445422 0.120312 -0.667703 0.000000 1.000000 0.000000
-0.493832 0.102304 -0.667703 0.000000 1.000000 0.000000
0.260307 -0.103533 0.564505 0.600000 0.000000 0.300000
0.166895 0.275125 0.561211 0.600000 0.000000 0.300000
0.558708 0.052527 0.531558 0.000000 1.000000 0.000000
-0.001152 0.463670 0.106063 0.000000 1.000000 0.000000
0.654141 0.234072 -0.456417 0.000000 1.000000 0.000000
0.238858 0.463670 -0.647670 0.000000 1.000000 0.000000
0.313912 0.156432 0.108306 0.000000 1.000000 0.000000
-0.491660 0.013760 -0.667703 0.000000 1.000000 0.000000
0.654141 0.355944 0.244399 0.000000 1.000000 0.000000
0.654141 -0.333127 0.358107 0.000000 1.000000 0.000000
0.013205 0.463670 -0.624329 0.000000 1.000000 0.000000
-0.165769 0.254384 -0.150439 0.000000 1.000000 0.000000
0.101202 0.410999 -0.667703 0.000000 1.000000 0.000000
-0.563950 0.212790 0.196338 0.000000 1.000000 0.000000
0.281286 -0.017394 0.561211 0.300000 0.600000 0.000000
0.360458 -0.066814 0.531558 0.000000 1.000000 0.000000
0.275567 -0.326070 -0.102002 0.000000 1.000000 0.000000
-0.068594 0.363892 0.301896 0.000000 1.000000 0.000000
-0.663729 -0.192174 0.087777 0.000000 1.000000 0.000000
0.495891 -0.425858 0.283804 0.000000 1.000000 0.000000
0.572208 0.217014 0.531558 0.000000 1.000000 0.000000
-0.663729 -0.418317 0.266585 0.000000 1.000000 0.000000
0.654141 0.277996 -0.045842 0.000000 1.000000 0.000000
0.227078 -0.425860 0.215366 0.000000 1.000000 0.000000
-0.425879 -0.326070 0.213803 0.000000 1.000000 0.000000
-0.260125 0.352663 0.538279 0.300000 0.600000 0.000000
0.092338 0.083930 0.561211 0.600000 0.000000 0.300000
0.436037 0.463670 0.467432 0.000000 1.000000 0.000000
0.499667 -0.425889 -0.578161 0.000000 1.000000 0.000000
-0.552043 -0.326070 -0.146025 0.000000 1.000000 0.000000
-0.546574 -0.320358 0.550140 0.300000 0.600000 0.000000
0.645651 0.463623 0.548048 0.000000 1.000000 0.000000
0.326408 -0.425870 -0.059890 0.000000 1.000000 0.000000
-0.563950 0.291475 0.219499 0.000000 1.000000 0.000000
0.261513 -0.425890 -0.591863 0.000000 1.000000 0.000000
-0.367273 0.426144 -0.667703 0.000000 1.000000 0.000000
-0.429670 -0.326070 -0.102333 0.000000 1.000000 0.000000
-0.162505 -0.326070 0.217832 0.000000 1.000000 0.000000
0.326307 -0.201466 0.646553 0.300000 0.000000 0.600000
0.527774 0.463670 0.135892 0.000000 1.000000 0.000000
-0.563950 0.357989 0.402368 0.000000 1.000000 0.000000
0.313912 -0.315757 0.168063 0.000000 1.000000 0.000000
-0.663729 -0.414996 0.055248 0.000000 1.000000 0.000000
0.594700 0.433743 0.584273 0.000000 1.000000 0.000000
-0.213493 0.363892 0.350239 0.000000 1.000000 0.000000
0.654141 -0.291289 -0.492322 0.000000 1.000000 0.000000
0.602918 -0.281906 0.574389 0.000000 0.500000 0.500000
0.558698 0.137658 0.531558 0.000000 1.000000 0.000000
-0.122346 -0.425858 0.273282 0.000000 1.000000 0.000000
0.313912 -0.142822 0.263208 0.000000 1.000000 0.000000
-0.065507 0.363892 0.045011 0.000000 1.000000 0.000000
0.297332 0.463670 0.048025 0.000000 1.000000 0.000000
-0.524212 0.120033 -0.150439 0.000000 1.000000 0.000000
0.272266 -0.425877 -0.238574 0.000000 1.000000 0.000000
-0.633569 0.058585 0.531558 0.000000 1.000000 0.000000
0.654141 -0.152167 0.118838 0.000000 1.000000 0.000000
-0.582799 0.283204 -0.667703 0.000000 1.000000 0.000000
0.030820 -0.164749 -0.667703 0.000000 1.000000 0.000000
-0.209270 -0.326070 -0.099444 0.000000 1.000000 0.000000
0.654141 -0.374080 -0.584991 0.000000 1.000000 0.000000
-0.528965 -0.178122 -0.150439 0.000000 1.000000 0.000000
-0.248424 0.463670 0.058101 0.000000 1.000000 0.000000
0.151702 0.363892 0.390184 0.000000 1.000000 0.000000
-0.663729 -0.045055 -0.380506 0.000000 1.000000 0.000000
-0.420888 0.463670 -0.207256 0.000000 1.000000 0.000000
-0.119683 0.014042 -0.150439 0.000000 1.000000 0.000000
-0.563950 -0.199337 0.302573 0.000000 1.000000 0.000000
0.278972 -0.425862 0.162045 0.000000 1.000000 0.000000
0.012743 -0.097245 -0.150439 0.000000 1.000000 0.000000
-0.453097 -0.425864 0.115649 0.000000 1.000000 0.000000
-0.036381 0.463670 -0.372203 0.000000 1.000000 0.000000
0.312446 -0.346716 0.561729 0.300000 0.600000 0.000000
-0.566292 0.283266 0.531558 0.000000 1.000000 0.000000
0.487068 -0.313198 0.574389 0.000000 0.500000 0.500000
0.643199 0.463350 -0.657285 0.000000 1.000000 0.000000
0.248010 -0.245073 -0.150439 0.000000 1.000000 0.000000
-0.228558 -0.251732 -0.667703 0.000000 1.000000 0.000000
0.391651 0.463670 -0.457160 0.000000 1.000000 0.000000
0.223812 -0.063553 0.561211 0.600000 0.000000 0.300000
-0.663729 0.300205 0.250427 0.000000 1.000000 0.000000
-0.663729 -0.123895 -0.166322 0.000000 1.000000 0.000000
0.654141 -0.255306 -0.329924 0.000000 1.000000 0.000000
-0.663729 0.076250 -0.276919 0.000000 1.000000 0.000000
-0.227879 0.078401 -0.667703 0.000000 1.000000 0.000000
-0.501948 -0.425868 0.011101 0.000000 1.000000 0.000000
0.654141 0.375850 0.353867 0.000000 1.000000 0.000000
0.057726 -0.405319 -0.667703 0.000000 1.000000 0.000000
0.313912 -0.295890 0.388404 0.000000 1.000000 0.000000
0.313912 -0.000561 0.013616 0.000000 1.000000 0.000000
0.242531 -0.425855 0.365890 0.000000 1.000000 0.000000
-0.663729 0.413908 -0.649237 0.000000 1.000000 0.000000
-0.663729 0.235332 -0.565143 0.000000 1.000000 0.000000
-0.054668 -0.060990 -0.150439 0.000000 1.000000 0.000000
-0.029933 0.334320 -0.667703 0.000000 1.000000 0.000000
0.051247 0.363892 0.042407 0.000000 1.000000 0.000000
0.504619 0.463670 0.204631 0.000000 1.000000 0.000000
-0.663729 0.364320 -0.245796 0.000000 1.000000 0.000000
-0.399477 0.159671 0.561211 0.600000 0.000000 0.300000
-0.096359 -0.015397 0.564505 0.600000 0.000000 0.300000
0.231010 -0.335762 0.574389 0.300000 0.600000 0.000000
0.530075 0.463670 -0.305557 0.000000 1.000000 0.000000
0.654141 -0.264412 -0.081794 0.000000 1.000000 0.000000
-0.466288 0.463670 0.470535 0.000000 1.000000 0.000000
-0.356282 -0.393100 0.531558 0.300000 0.600000 0.000000
-0.663729 -0.077894 0.567171 0.300000 0.600000 0.000000
0.214494 -0.323114 -0.667703 0.000000 1.000000 0.000000
0.088875 0.184482 -0.150439 0.000000 1.000000 0.000000
-0.357226 0.220202 0.561211 0.600000 0.000000 0.300000
0.654141 0.329504 -0.331443 0.000000 1.000000 0.000000
0.607109 0.065396 0.531558 0.000000 1.000000 0.000000
0.207270 0.069291 0.574389 0.300000 0.600000 0.000000
-0.506661 -0.326070 0.370348 0.000000 1.000000 0.000000
0.216481 0.107574 -0.150439 0.000000 1.000000 0.000000
0.506430 0.006371 -0.667703 0.000000 1.000000 0.000000
0.573774 -0.425883 -0.418981 0.000000 1.000000 0.000000
0.226796 0.425097 0.584273 0.300000 0.600000 0.000000
-0.254943 -0.185180 -0.150439 0.000000 1.000000 0.000000
-0.663729 0.205105 -0.391537 0.000000 1.000000 0.000000
-0.663729 -0.038788 -0.244348 0.000000 1.000000 0.000000
-0.015266 -0.083741 0.561211 0.600000 0.000000 0.300000
-0.311757 0.463670 0.358602 0.000000 1.000000 0.000000
0.297300 0.463670 -0.599284 0.000000 1.000000 0.000000
-0.663729 -0.300311 -0.499233 0.000000 1.000000 0.000000
-0.623749 0.349932 0.531558 0.300000 0.600000 0.000000
0.654141 0.420803 0.174808 0.000000 1.000000 0.000000
-0.663729 0.022097 0.316545 0.000000 1.000000 0.000000
0.654141 0.056895 -0.413980 0.000000 1.000000 0.000000
-0.663729 -0.176492 -0.126323 0.000000 1.000000 0.000000
-0.567409 -0.425863 0.150506 0.000000 1.000000 0.000000
0.654141 0.296776 -0.087996 0.000000 1.000000 0.000000
0.610661 -0.425881 -0.355237 0.000000 1.000000 0.000000
-0.644966 0.463670 -0.168383 0.000000 1.000000 0.000000
0.654141 0.239100 0.528395 0.000000 1.000000 0.000000
0.654141 -0.230197 -0.499383 0.000000 1.000000 0.000000
-0.321840 0.463670 -0.278752 0.000000 1.000000 0.000000
-0.318975 -0.374884 -0.667703 0.000000 1.000000 0.000000
-0.381047 -0.326070 -0.048458 0.000000 1.000000 0.000000
0.199922 -0.425867 0.043100 0.000000 1.000000 0.000000
0.379331 0.463670 -0.305647 0.000000 1.000000 0.000000
0.240026 0.463670 0.114799 0.000000 1.000000 0.000000
-0.663729 0.244658 0.189548 0.000000 1.000000 0.000000
-0.194448 -0.002567 0.561211 0.600000 0.000000 0.300000
0.654141 0.252697 0.484926 0.000000 1.000000 0.000000
0.313912 0.098317 -0.004389 0.000000 1.000000 0.000000
-0.288004 0.417701 0.584273 0.300000 0.600000 0.000000
-0.563950 -0.002707 0.287842 0.000000 1.000000 0.000000
-0.663729 0.360345 -0.551635 0.000000 1.000000 0.000000
0.098273 0.284430 -0.667703 0.000000 1.000000 0.000000
0.634384 -0.425877 -0.253294 0.000000 1.000000 0.000000
0.016120 0.463670 0.250885 0.000000 1.000000 0.000000
-0.035940 0.463670 0.386660 0.000000 1.000000 0.000000
0.643923 -0.174969 -0.667703 0.000000 1.000000 0.000000
-0.000966 -0.425867 0.034025 0.000000 1.000000 0.000000
-0.411525 -0.422175 -0.663680 0.000000 1.000000 0.000000
0.654141 0.039114 0.241208 0.000000 1.000000 0.000000
0.313912 -0.040607 0.037714 0.000000 1.000000 0.000000
0.241574 0.269090 0.564505 0.600000 0.000000 0.300000
0.204003 0.127716 -0.667703 0.000000 1.000000 0.000000
0.498145 0.348252 -0.667703 0.000000 1.000000 0.000000
-0.663729 0.189087 0.413313 0.000000 1.000000 0.000000
-0.477965 0.143611 -0.667703 0.000000 1.000000 0.000000
-0.644080 -0.115609 -0.667703 0.000000 1.000000 0.000000
0.545249 -0.425869 -0.013493 0.000000 1.000000 0.000000
-0.261765 0.010281 0.561211 0.600000 0.000000 0.300000
-0.168592 0.463670 -0.125906 0.000000 1.000000 0.000000
-0.557189 0.363892 -0.088829 0.000000 1.000000 0.000000
0.256431 0.363892 0.031678 0.000000 1.000000 0.000000
0.654141 0.050576 -0.507022 0.000000 1.000000 0.000000
-0.616928 0.463670 0.088514 0.000000 1.000000 0.000000
-0.228473 -0.326070 0.323446 0.000000 1.000000 0.000000
-0.609211 -0.323282 0.561211 0.300000 0.600000 0.000000
-0.062909 0.352663 0.550228 0.300000 0.600000 0.000000
0.475303 0.423482 -0.667703 0.000000 1.000000 0.000000
-0.521365 -0.002529 0.564505 0.600000 0.000000 0.300000
-0.373293 0.363892 -0.104732 0.000000 1.000000 0.000000
0.286472 0.065640 0.574389 0.300000 0.600000 0.000000
0.053776 -0.313606 -0.150439 0.000000 1.000000 0.000000
-0.563950 0.087217 0.027493 0.000000 1.000000 0.000000
0.313912 0.282206 0.345344 0.000000 1.000000 0.000000
0.045893 -0.326070 0.256797 0.000000 1.000000 0.000000
0.130552 0.168126 -0.150439 0.000000 1.000000 0.000000
-0.563950 -0.279601 0.236444 0.000000 1.000000 0.000000
-0.178846 -0.326070 0.045415 0.000000 1.000000 0.000000
0.408883 0.154750 -0.667703 0.000000 1.000000 0.000000
-0.620076 0.123590 0.565142 0.300000 0.600000 0.000000
-0.263688 -0.326070 0.034387 0.000000 1.000000 0.000000
-0.663729 0.362331 0.571942 0.300000 0.600000 0.000000
-0.663729 0.175508 0.047176 0.000000 1.000000 0.000000
0.451896 0.463670 0.420308 0.000000 1.000000 0.000000
0.654141 -0.079549 0.231011 0.000000 1.000000 0.000000
0.613712 -0.425886 -0.488942 0.000000 1.000000 0.000000
0.191290 -0.326070 0.350538 0.000000 1.000000 0.000000
-0.526017 -0.326070 0.072571 0.000000 1.000000 0.000000
0.445351 -0.104243 -0.667703 0.000000 1.000000 0.000000
-0.025100 -0.271147 -0.150439 0.000000 1.000000 0.000000
-0.576518 0.463670 0.526514 0.000000 1.000000 0.000000
-0.019575 -0.367617 0.584273 0.300000 0.600000 0.000000
0.313912 0.088259 0.072236 0.000000 1.000000 0.000000
0.283908 -0.425880 -0.330466 0.000000 1.000000 0.000000
-0.563950 -0.318180 -0.044733 0.000000 1.000000 0.000000
-0.544299 -0.131645 0.568882 0.300000 0.600000 0.000000
0.313912 -0.213698 0.115160 0.000000 1.000000 0.000000
0.397986 0.078302 0.531558 0.000000 1.000000 0.000000
0.654141 0.114142 0.028255 0.000000 1.000000 0.000000
0.270088 -0.425852 0.436850 0.000000 1.000000 0.000000
-0.423739 -0.425939 0.561733 0.300000 0.600000 0.000000
0.060340 0.463670 0.107017 0.000000 1.000000 0.000000
0.612852 -0.425850 0.495584 0.000000 1.000000 0.000000
-0.663729 -0.144707 0.341182 0.000000 1.000000 0.000000
0.475571 -0.425851 0.486209 0.000000 1.000000 0.000000
-0.400773 0.363892 0.271136 0.000000 1.000000 0.000000
0.584046 0.197462 -0.667703 0.000000 1.000000 0.000000
-0.663729 0.411080 -0.013578 0.000000 1.000000 0.000000
-0.617454 -0.254101 0.561211 0.300000 0.600000 0.000000
0.654141 0.125025 -0.353507 0.000000 1.000000 0.000000
-0.647825 -0.425889 -0.579869 0.000000 1.000000 0.000000
-0.663729 0.098117 0.095582 0.000000 1.000000 0.000000
0.268254 -0.117283 -0.667703 0.000000 1.000000 0.000000
0.654141 0.408007 -0.478616 0.000000 1.000000 0.000000
0.313912 -0.200725 0.328555 0.000000 1.000000 0.000000
0.045737 0.463670 0.332947 0.000000 1.000000 0.000000
0.319473 0.099907 0.662336 0.300000 0.000000 0.600000
-0.563950 0.254534 0.385442 0.000000 1.000000 0.000000
-0.568073 -0.425880 -0.331674 0.000000 1.000000 0.000000
0.654141 0.366612 -0.475921 0.000000 1.000000 0.000000
-0.663729 0.269785 -0.545649 0.000000 1.000000 0.000000
0.059030 -0.004945 -0.667703 0.000000 1.000000 0.000000
-0.663729 0.302508 -0.485698 0.000000 1.000000 0.000000
-0.563950 -0.295777 0.480376 0.000000 1.000000 0.000000
0.023180 0.463670 0.377692 0.000000 1.000000 0.000000
-0.663729 -0.274305 0.088147 0.000000 1.000000 0.000000
-0.404081 -0.425870 -0.036888 0.000000 1.000000 0.000000
-0.563950 -0.073449 -0.021600 0.000000 1.000000 0.000000
-0.044658 -0.210448 -0.667703 0.000000 1.000000 0.000000
0.548126 0.463623 0.551787 0.000000 1.000000 0.000000
-0.663729 0.369457 -0.318466 0.000000 1.000000 0.000000
0.393215 0.463670 -0.623753 0.000000 1.000000 0.000000
0.561102 -0.196153 0.531558 0.000000 1.000000 0.000000
-0.630423 -0.425875 -0.172478 0.000000 1.000000 0.000000
-0.607630 -0.306944 -0.667703 0.000000 1.000000 0.000000
-0.058130 -0.309046 -0.150439 0.000000 1.000000 0.000000
0.131077 -0.425884 -0.422570 0.000000 1.000000 0.000000
0.555562 -0.041878 0.561211 0.000000 0.500000 0.500000
-0.563950 -0.113920 0.058755 0.000000 1.000000 0.000000
0.654141 0.334713 -0.447285 0.000000 1.000000 0.000000
-0.063567 -0.425853 0.411568 0.000000 1.000000 0.000000
0.654141 -0.396752 -0.317536 0.000000 1.000000 0.000000
0.034819 -0.222959 -0.150439 0.000000 1.000000 0.000000
0.122436 -0.425867 0.027680 0.000000 1.000000 0.000000
-0.459963 0.356891 -0.150439 0.000000 1.000000 0.000000
-0.402859 -0.326070 0.477878 0.000000 1.000000 0.000000
-0.451234 -0.194175 0.564505 0.600000 0.000000 0.300000
0.540799 -0.425939 0.579126 0.000000 1.000000 0.000000
0.285688 -0.425882 -0.384388 0.000000 1.000000 0.000000
0.307291 -0.049557 0.574389 0.300000 0.600000 0.000000
-0.663729 0.423690 -0.225442 0.000000 1.000000 0.000000
-0.133005 -0.425939 0.553781 0.300000 0.600000 0.000000
-0.004871 0.387918 0.531558 0.000000 1.000000 0.000000
-0.563950 -0.073327 -0.071169 0.000000 1.000000 0.000000
0.282241 -0.326070 0.008633 0.000000 1.000000 0.000000
0.067937 0.142060 -0.150439 0.000000 1.000000 0.000000
0.535507 0.149297 0.561211 0.000000 0.500000 0.500000
0.098350 -0.046741 -0.150439 0.000000 1.000000 0.000000
-0.085213 -0.213768 0.561211 0.600000 0.000000 0.300000
-0.296091 0.328610 0.574389 0.300000 0.600000 0.000000
0.510350 0.226762 0.574389 0.000000 0.500000 0.500000
0.512846 0.103428 0.561211 0.000000 0.500000 0.500000
0.037920 0.463670 -0.248024 0.000000 1.000000 0.000000
0.044599 -0.425874 -0.161991 0.000000 1.000000 0.000000
0.235849 0.062444 -0.150439 0.000000 1.000000 0.000000
-0.663729 -0.335515 -0.424055 0.000000 1.000000 0.000000
0.041194 -0.425888 -0.540154 0.000000 1.000000 0.000000
-0.599982 -0.057937 -0.667703 0.000000 1.000000 0.000000
-0.531903 0.363892 0.072078 0.000000 1.000000 0.000000
0.116888 0.463670 0.282509 0.000000 1.000000 0.000000
-0.190927 -0.280888 0.561211 0.300000 0.600000 0.000000
-0.168174 0.463670 -0.308103 0.000000 1.000000 0.000000
-0.429558 0.105318 0.561211 0.600000 0.000000 0.300000
-0.625312 -0.425865 0.099006 0.000000 1.000000 0.000000
-0.569191 0.213976 0.564505 0.600000 0.000000 0.300000
-0.050763 0.132052 0.564505 0.600000 0.000000 0.300000
0.232288 0.463670 -0.346012 0.000000 1.000000 0.000000
0.233030 0.031538 0.574389 0.300000 0.600000 0.000000
-0.663729 0.211577 0.122325 0.000000 1.000000 0.000000
-0.504968 -0.179365 -0.667703 0.000000 1.000000 0.000000
-0.359236 -0.334035 0.574389 0.300000 0.600000 0.000000
0.654141 -0.399414 0.096808 0.000000 1.000000 0.000000
0.313912 -0.062729 0.347570 0.000000 1.000000 0.000000
-0.582988 -0.425889 -0.566954 0.000000 1.000000 0.000000
0.629132 -0.380606 0.531558 0.000000 1.000000 0.000000
-0.406234 0.463670 -0.341479 0.000000 1.000000 0.000000
-0.112978 0.463670 -0.414571 0.000000 1.000000 0.000000
0.637770 -0.052107 -0.667703 0.000000 1.000000 0.000000
0.065159 -0.425871 -0.073024 0.000000 1.000000 0.000000
-0.156435 0.463670 0.055326 0.000000 1.000000 0.000000
0.313912 -0.098980 -0.085412 0.000000 1.000000 0.000000
-0.530597 -0.326070 0.122706 0.000000 1.000000 0.000000
0.380830 -0.425857 0.321156 0.000000 1.000000 0.000000
-0.563950 0.008058 0.111021 0.000000 1.000000 0.000000
-0.236427 0.287636 0.564505 0.600000 0.000000 0.300000
0.120019 -0.326070 0.221070 0.000000 1.000000 0.000000
-0.516460 0.463670 -0.620226 0.000000 1.000000 0.000000
0.207073 -0.258827 0.574389 0.300000 0.600000 0.000000
-0.234693 0.363892 0.281159 0.000000 1.000000 0.000000
-0.126142 0.463670 0.178819 0.000000 1.000000 0.000000
0.132401 -0.036536 -0.667703 0.000000 1.000000 0.000000
-0.248740 -0.385605 -0.667703 0.000000 1.000000 0.000000
-0.663729 0.304661 0.539340 0.300000 0.600000 0.000000
-0.663729 -0.219622 -0.441945 0.000000 1.000000 0.000000
-0.289923 0.395470 -0.667703 0.000000 1.000000 0.000000
-0.663729 -0.258409 -0.509808 0.000000 1.000000 0.000000
0.432569 0.463670 -0.538080 0.000000 1.000000 0.000000
0.654141 -0.096282 0.495122 0.000000 1.000000 0.000000
0.427071 0.411767 -0.667703 0.000000 1.000000 0.000000
-0.663729 0.131753 0.474320 0.000000 1.000000 0.000000
-0.084042 0.432170 0.531558 0.000000 1.000000 0.000000
-0.290386 -0.425879 -0.302245 0.000000 1.000000 0.000000
-0.028660 0.363892 0.087422 0.000000 1.000000 0.000000
-0.353181 0.463670 -0.515134 0.000000 1.000000 0.000000
-0.541515 0.073725 -0.667703 0.000000 1.000000 0.000000
0.313912 -0.016177 0.462899 0.000000 1.000000 0.000000
-0.586390 0.356415 0.574389 0.300000 0.600000 0.000000
0.294280 0.463670 0.375116 0.000000 1.000000 0.000000
-0.241403 0.083987 -0.150439 0.000000 1.000000 0.000000
-0.589916 0.463670 -0.231088 0.000000 1.000000 0.000000
0.299564 0.306039 0.631269 0.300000 0.000000 0.600000
-0.258127 -0.143488 0.564505 0.600000 0.000000 0.300000
-0.488922 0.348451 -0.667703 0.000000 1.000000 0.000000
0.654141 0.024038 -0.135395 0.000000 1.000000 0.000000
-0.663729 -0.103820 0.217521 0.000000 1.000000 0.000000
0.654141 0.422176 -0.428265 0.000000 1.000000 0.000000
-0.421033 -0.326070 0.108469 0.000000 1.000000 0.000000
0.654141 0.336427 0.355660 0.000000 1.000000 0.000000
-0.663729 -0.094838 -0.563585 0.000000 1.000000 0.000000
0.217347 -0.425939 0.580254 0.300000 0.600000 0.000000
-0.205821 0.463670 0.475150 0.000000 1.000000 0.000000
-0.378344 0.363892 0.199429 0.000000 1.000000 0.000000
-0.619068 0.154839 0.531558 0.300000 0.600000 0.000000
0.392152 0.205580 0.574389 0.000000 0.500000 0.500000
0.160126 0.408605 0.531558 0.300000 0.600000 0.000000
0.295361 -0.171975 0.574389 0.300000 0.600000 0.000000
-0.663729 0.416363 -0.139430 0.000000 1.000000 0.000000
-0.016134 -0.262228 -0.667703 0.000000 1.000000 0.000000
-0.663729 -0.227108 0.552822 0.300000 0.600000 0.000000
0.316257 -0.425859 0.264785 0.000000 1.000000 0.000000
0.321866 0.463670 0.337702 0.000000 1.000000 0.000000
0.008670 -0.425872 -0.090052 0.000000 1.000000 0.000000
-0.336738 -0.425939 0.540379 0.300000 0.600000 0.000000
0.654141 0.095837 -0.428474 0.000000 1.000000 0.000000
-0.212207 -0.326070 0.526497 0.000000 1.000000 0.000000
0.571506 -0.333942 -0.667703 0.000000 1.000000 0.000000
0.011337 0.200100 -0.150439 0.000000 1.000000 0.000000
-0.198880 0.463670 -0.096810 0.000000 1.000000 0.000000
0.628812 -0.315653 0.584273 0.000000 1.000000 0.000000
0.132171 -0.425875 -0.190061 0.000000 1.000000 0.000000
0.427602 -0.385277 0.584273 0.000000 1.000000 0.000000
0.453802 -0.425877 -0.245221 0.000000 1.000000 0.000000
-0.663729 -0.353616 -0.511769 0.000000 1.000000 0.000000
-0.031585 0.463670 -0.293945 0.000000 1.000000 0.000000
-0.271280 -0.406612 0.531558 0.000000 1.000000 0.000000
0.654141 0.071556 -0.115357 0.000000 1.000000 0.000000
-0.586777 0.463670 -0.607728 0.000000 1.000000 0.000000
-0.502376 0.463670 -0.343796 0.000000 1.000000 0.000000
-0.663729 0.342744 0.210131 0.000000 1.000000 0.000000
0.378630 -0.258031 -0.667703 0.000000 1.000000 0.000000
0.151503 0.363892 0.264676 0.000000 1.000000 0.000000
0.147437 0.463670 -0.330887 0.000000 1.000000 0.000000
-0.040039 0.463670 -0.435164 0.000000 1.000000 0.000000
-0.347343 -0.223894 -0.667703 0.000000 1.000000 0.000000
-0.091159 0.463670 -0.458508 0.000000 1.000000 0.000000
0.292201 -0.375734 0.588827 0.300000 0.000000 0.600000
0.351899 -0.122528 0.531558 0.000000 1.000000 0.000000
-0.663729 -0.365361 0.391407 0.000000 1.000000 0.000000
0.484149 0.326560 0.531558 0.000000 1.000000 0.000000
-0.462876 -0.349204 -0.667703 0.000000 1.000000 0.000000
-0.410201 -0.326070 0.330498 0.000000 1.000000 0.000000
0.654141 0.422030 -0.311944 0.000000 1.000000 0.000000
-0.366322 -0.172744 -0.667703 0.000000 1.000000 0.000000
0.631871 -0.402617 0.584273 0.000000 1.000000 0.000000
0.502843 0.463670 -0.577701 0.000000 1.000000 0.000000
0.120811 -0.131170 0.564505 0.600000 0.000000 0.300000
0.472279 -0.388798 -0.667703 0.000000 1.000000 0.000000
-0.230858 0.363892 0.037106 0.000000 1.000000 0.000000
0.313912 0.127797 0.138185 0.000000 1.000000 0.000000
0.313912 -0.092504 0.494112 0.000000 1.000000 0.000000
0.472275 0.463670 -0.363253 0.000000 1.000000 0.000000
-0.357602 0.173377 -0.667703 0.000000 1.000000 0.000000
-0.568468 -0.168191 -0.667703 0.000000 1.000000 0.000000
-0.531145 0.463670 0.030159 0.000000 1.000000 0.000000
-0.113141 -0.425863 0.153342 0.000000 1.000000 0.000000
0.208745 -0.177654 -0.667703 0.000000 1.000000 0.000000
-0.283013 0.363892 0.154571 0.000000 1.000000 0.000000
0.654141 -0.299721 -0.316017 0.000000 1.000000 0.000000
-0.434106 0.225564 -0.667703 0.000000 1.000000 0.000000
-0.663729 -0.407449 -0.634903 0.000000 1.000000 0.000000
