-0.349543 0.595039 0.426645 1.000000 0.000000 0.000000
-0.621964 -0.090480 -0.046574 0.000000 0.500000 0.500000
0.623025 -0.395146 -0.396750 0.000000 0.500000 0.500000
0.641412 -0.396131 -0.300401 0.000000 0.500000 0.500000
-0.042003 0.249690 -0.345226 0.500000 0.000000 0.500000
0.601073 0.277272 -0.141334 0.500000 0.000000 0.500000
-0.085343 -0.366326 -0.428377 0.300000 0.600000 0.000000
0.231998 -0.441933 -0.414587 0.300000 0.600000 0.000000
0.642662 0.446737 0.454226 0.300000 0.000000 0.600000
0.596292 -0.430650 -0.083028 0.600000 0.000000 0.300000
0.623025 -0.308889 0.341151 0.000000 0.500000 0.500000
0.623025 -0.267406 -0.006606 0.000000 0.500000 0.500000
-0.498582 -0.104378 -0.428377 0.300000 0.600000 0.000000
0.078585 0.448243 0.454226 0.300000 0.000000 0.600000
0.385374 0.578844 -0.414587 0.300000 0.600000 0.000000
0.641412 0.084504 0.346693 0.000000 0.500000 0.500000
0.623025 -0.194911 0.036655 0.000000 0.500000 0.500000
0.028821 0.605406 -0.428377 0.300000 0.600000 0.000000
0.641412 0.225999 0.192328 0.000000 0.500000 0.500000
-0.546902 -0.090480 -0.355410 0.000000 0.500000 0.500000
-0.664105 -0.518136 0.134849 0.000000 1.000000 0.000000
-0.560581 0.248520 -0.428377 0.300000 0.600000 0.000000
-0.293226 -0.159788 -0.428377 0.300000 0.600000 0.000000
-0.287914 -0.223058 -0.428377 0.300000 0.600000 0.000000
0.619311 -0.300099 -0.414587 0.300000 0.600000 0.000000
-0.512838 0.626636 0.399429 1.000000 0.000000 0.000000
-0.055443 0.249690 0.067256 0.500000 0.000000 0.500000
-0.645718 0.235050 0.286592 0.500000 0.000000 0.500000
0.588678 -0.430650 -0.215893 0.600000 0.000000 0.300000
0.017482 0.174913 0.399063 0.600000 0.300000 0.000000
-0.331811 -0.640319 -0.455959 1.000000 0.000000 0.000000
0.284911 0.277272 -0.315060 0.500000 0.000000 0.500000
0.009218 -0.430650 0.222006 0.600000 0.000000 0.300000
-0.528298 0.534021 0.426645 0.300000 0.000000 0.600000
0.641412 0.521497 -0.334300 0.000000 0.500000 0.500000
-0.199068 -0.090480 -0.009125 0.000000 0.500000 0.500000
-0.255513 0.561556 0.454226 0.300000 0.000000 0.600000
0.093570 0.277272 -0.268213 0.500000 0.000000 0.500000
0.595443 0.464556 0.410947 0.300000 0.000000 0.600000
0.455410 -0.249293 0.426645 0.300000 0.000000 0.600000
0.006769 -0.014281 -0.414587 0.300000 0.600000 0.000000
0.538920 -0.142773 -0.414587 0.300000 0.600000 0.000000
-0.091714 0.249690 0.135097 0.500000 0.000000 0.500000
-0.125078 0.581150 -0.455959 0.300000 0.600000 0.000000
-0.563033 0.277272 -0.234258 0.500000 0.000000 0.500000
0.377826 0.249690 0.349006 0.500000 0.000000 0.500000
0.598916 0.599054 0.324151 0.600000 0.000000 0.300000
0.031272 -0.090480 0.352277 0.000000 0.500000 0.500000
-0.240283 -0.118061 0.338125 0.000000 0.500000 0.500000
0.623025 -0.114700 0.231731 0.000000 0.500000 0.500000
-0.169492 -0.090480 0.101146 0.000000 0.500000 0.500000
0.224220 0.402591 0.426645 0.300000 0.000000 0.600000
-0.478711 0.249690 0.306207 0.500000 0.000000 0.500000
-0.378915 0.532387 0.426645 0.300000 0.000000 0.600000
-0.150789 0.066572 0.426645 0.300000 0.000000 0.600000
-0.516583 -0.090480 0.012605 0.000000 0.500000 0.500000
0.261185 -0.238250 0.426645 0.300000 0.000000 0.600000
0.175979 -0.638571 -0.455959 1.000000 0.000000 0.000000
0.214121 0.024167 -0.414587 0.300000 0.600000 0.000000
-0.664105 0.445380 0.156096 0.500000 0.000000 0.500000
0.278342 -0.090480 0.340609 0.000000 0.500000 0.500000
0.022088 -0.078004 0.399063 0.600000 0.300000 0.000000
-0.565961 0.277272 0.335927 0.500000 0.000000 0.500000
0.626545 0.055258 -0.455959 0.000000 0.500000 0.500000
-0.118319 -0.430650 0.125334 0.600000 0.000000 0.300000
0.216196 0.277272 -0.329733 0.500000 0.000000 0.500000
0.598954 0.114434 0.426645 0.300000 0.000000 0.600000
0.232857 -0.430650 -0.000061 0.600000 0.000000 0.300000
0.270938 -0.428359 0.399063 0.000000 0.000000 1.000000
-0.673299 0.579349 0.417739 0.300000 0.000000 0.600000
-0.664105 -0.071146 -0.184786 0.500000 0.000000 0.500000
-0.180899 -0.458423 -0.455959 1.000000 0.000000 0.000000
-0.645718 0.162641 0.339758 0.500000 0.000000 0.500000
0.623025 0.426104 0.254721 0.000000 0.500000 0.500000
-0.664105 0.008314 0.396280 0.500000 0.000000 0.500000
-0.378151 -0.171942 0.454226 0.300000 0.000000 0.600000
0.335312 0.249690 -0.382816 0.500000 0.000000 0.500000
-0.377991 -0.118061 -0.211949 0.000000 0.500000 0.500000
0.401150 -0.090480 -0.376347 0.000000 0.500000 0.500000
0.641412 -0.097879 -0.371872 0.000000 0.500000 0.500000
0.234170 -0.095203 -0.428377 0.300000 0.600000 0.000000
0.641412 0.510848 0.214779 0.000000 0.500000 0.500000
0.530498 0.580667 0.112128 0.600000 0.000000 0.300000
-0.208308 -0.430650 0.134200 0.600000 0.000000 0.300000
-0.471776 -0.090480 0.088626 0.000000 0.500000 0.500000
0.595623 -0.316109 0.399063 0.300000 0.000000 0.600000
0.169076 -0.118061 0.300794 0.000000 0.500000 0.500000
-0.609814 0.580667 0.258257 0.800000 0.200000 0.500000
-0.431564 -0.620965 0.311722 0.500000 0.500000 0.000000
0.641412 0.285581 0.349827 0.000000 0.500000 0.500000
-0.540686 -0.430650 0.253108 0.600000 0.000000 0.300000
-0.405952 -0.430650 0.226154 0.600000 0.000000 0.300000
0.057640 -0.472285 0.311722 0.500000 0.500000 0.000000
-0.271763 -0.430650 -0.343481 0.600000 0.000000 0.300000
-0.239674 0.249690 0.136350 0.500000 0.000000 0.500000
0.076759 0.216594 0.426645 0.300000 0.000000 0.600000
0.453211 -0.060186 0.426645 0.300000 0.000000 0.600000
-0.068171 -0.090480 -0.392869 0.000000 0.500000 0.500000
-0.664105 -0.514794 -0.224065 0.000000 1.000000 0.000000
-0.382960 -0.118061 0.164530 0.000000 0.500000 0.500000
0.641412 0.217337 -0.325668 0.000000 0.500000 0.500000
0.055661 0.588396 0.426645 0.300000 0.000000 0.600000
0.130691 -0.131196 0.426645 0.300000 0.000000 0.600000
-0.169603 -0.090480 -0.220282 0.000000 0.500000 0.500000
-0.528899 0.277272 0.112718 0.500000 0.000000 0.500000
-0.159835 -0.607433 -0.455959 1.000000 0.000000 0.000000
-0.664105 0.442454 -0.089054 0.500000 0.000000 0.500000
-0.664105 0.383641 -0.321518 0.500000 0.000000 0.500000
0.603925 0.277272 -0.090960 0.500000 0.000000 0.500000
0.456123 -0.237223 -0.428377 0.300000 0.600000 0.000000
-0.121969 0.277272 0.174653 0.500000 0.000000 0.500000
-0.009650 -0.413336 -0.414587 0.300000 0.600000 0.000000
0.420914 -0.296156 0.426645 0.300000 0.000000 0.600000
0.448773 0.346140 0.454226 0.300000 0.000000 0.600000
0.581798 -0.118061 -0.098849 0.000000 0.500000 0.500000
-0.082283 0.618973 0.426645 0.300000 0.000000 0.600000
0.024379 0.249690 0.272004 0.500000 0.000000 0.500000
-0.029248 -0.090480 -0.264988 0.000000 0.500000 0.500000
-0.114736 0.277272 -0.096463 0.500000 0.000000 0.500000
-0.546044 -0.323364 -0.428377 0.300000 0.600000 0.000000
-0.621865 0.591177 -0.428377 0.300000 0.600000 0.000000
0.559775 -0.327773 -0.414587 0.300000 0.600000 0.000000
0.456121 -0.090480 0.285042 0.000000 0.500000 0.500000
-0.179956 -0.283890 0.454226 0.300000 0.000000 0.600000
0.532431 0.277272 0.009418 0.500000 0.000000 0.500000
0.384494 -0.482903 0.311722 0.500000 0.500000 0.000000
-0.535828 -0.118061 0.153540 0.000000 0.500000 0.500000
0.563162 -0.090480 -0.032704 0.000000 0.500000 0.500000
-0.098363 0.399972 0.426645 0.300000 0.000000 0.600000
-0.645718 -0.314471 -0.444283 0.500000 0.000000 0.500000
0.404596 -0.090480 -0.128027 0.000000 0.500000 0.500000
-0.510465 -0.197854 -0.428377 0.300000 0.600000 0.000000
-0.673299 0.622607 0.405168 0.300000 0.000000 0.600000
-0.439626 -0.090480 0.261725 0.000000 0.500000 0.500000
-0.421982 0.312948 0.454226 0.300000 0.000000 0.600000
0.168977 0.249690 -0.134163 0.500000 0.000000 0.500000
-0.070758 0.198597 0.454226 0.300000 0.000000 0.600000
-0.664105 0.194730 -0.146122 0.500000 0.000000 0.500000
0.269884 -0.118061 0.241852 0.000000 0.500000 0.500000
-0.554049 -0.008900 -0.428377 0.300000 0.600000 0.000000
0.494397 0.449538 0.426645 0.300000 0.000000 0.600000
0.506995 0.212959 -0.414587 0.300000 0.600000 0.000000
0.641412 0.455800 0.190293 0.000000 0.500000 0.500000
-0.417954 0.249690 0.367565 0.500000 0.000000 0.500000
-0.572867 0.580667 0.293356 0.800000 0.200000 0.500000
0.379876 -0.118061 -0.011628 0.000000 0.500000 0.500000
0.059156 -0.090480 -0.249937 0.000000 0.500000 0.500000
0.623025 -0.440026 0.365754 0.000000 0.500000 0.500000
-0.179467 0.189691 -0.428377 0.300000 0.600000 0.000000
-0.065030 0.580667 -0.416565 0.300000 0.600000 0.000000
0.231648 0.199159 -0.428377 0.300000 0.600000 0.000000
0.570857 0.023685 0.454226 0.300000 0.000000 0.600000
-0.229585 -0.592903 0.311722 0.500000 0.500000 0.000000
0.221261 0.249952 0.454226 0.300000 0.000000 0.600000
0.094269 -0.246766 0.454226 0.300000 0.000000 0.600000
-0.645718 0.195118 -0.093029 0.500000 0.000000 0.500000
0.311200 0.277272 -0.248150 0.500000 0.000000 0.500000
-0.431859 0.441050 -0.414587 0.300000 0.600000 0.000000
-0.052624 0.075985 0.454226 0.300000 0.000000 0.600000
0.243400 -0.125162 0.426645 0.300000 0.000000 0.600000
0.319129 -0.476619 0.406707 0.000000 0.000000 1.000000
0.506378 0.003385 0.454226 0.300000 0.000000 0.600000
0.067804 -0.118061 0.188050 0.000000 0.500000 0.500000
-0.645718 -0.199744 0.070527 0.500000 0.000000 0.500000
-0.615306 -0.430650 -0.018642 0.600000 0.000000 0.300000
-0.388968 -0.307300 -0.414587 0.300000 0.600000 0.000000
-0.101312 -0.430650 -0.160307 0.600000 0.000000 0.300000
0.099899 -0.118061 0.219709 0.000000 0.500000 0.500000
0.005973 0.314282 0.454226 0.300000 0.000000 0.600000
0.623025 0.164784 -0.328066 0.000000 0.500000 0.500000
0.345111 -0.043876 -0.428377 0.300000 0.600000 0.000000
-0.022229 0.058790 -0.414587 0.300000 0.600000 0.000000
0.153923 0.626636 0.404981 1.000000 0.000000 0.000000
-0.280818 0.360362 0.454226 0.300000 0.000000 0.600000
0.641412 0.111479 0.081009 0.000000 0.500000 0.500000
0.372082 -0.233314 0.454226 0.300000 0.000000 0.600000
-0.297271 -0.090480 0.236677 0.000000 0.500000 0.500000
-0.293844 -0.489872 -0.455959 1.000000 0.000000 0.000000
-0.219330 -0.124537 0.454226 0.300000 0.000000 0.600000
-0.288764 0.277272 0.275525 0.500000 0.000000 0.500000
0.230729 -0.118061 -0.376377 0.000000 0.500000 0.500000
-0.359594 0.325940 0.426645 0.300000 0.000000 0.600000
0.433653 0.009808 0.426645 0.300000 0.000000 0.600000
0.604888 -0.118061 0.375122 0.000000 0.500000 0.500000
0.140054 0.421242 0.454226 0.300000 0.000000 0.600000
0.354304 -0.430650 -0.025672 0.600000 0.000000 0.300000
-0.408439 0.564918 -0.455959 0.300000 0.600000 0.000000
-0.314133 -0.321559 0.454226 0.300000 0.000000 0.600000
-0.645718 0.114951 -0.142568 0.500000 0.000000 0.500000
0.152894 0.526585 0.426645 0.300000 0.000000 0.600000
0.637765 -0.565230 0.311722 0.000000 0.000000 1.000000
0.113219 -0.430650 -0.218589 0.600000 0.000000 0.300000
0.507866 0.277272 0.368089 0.500000 0.000000 0.500000
0.641412 0.315441 0.289177 0.000000 0.500000 0.500000
-0.291854 0.592554 0.426645 0.300000 0.000000 0.600000
-0.589221 0.360001 0.426645 0.300000 0.000000 0.600000
0.641412 -0.507524 -0.274360 0.000000 0.000000 1.000000
-0.524063 0.072905 0.426645 0.300000 0.000000 0.600000
-0.214355 0.277272 0.091520 0.500000 0.000000 0.500000
-0.665193 0.122524 0.426645 0.300000 0.000000 0.600000
0.049026 -0.118061 -0.305169 0.000000 0.500000 0.500000
0.600155 -0.582287 -0.455959 1.000000 0.000000 0.000000
-0.645718 0.365153 0.188953 0.500000 0.000000 0.500000
0.364433 -0.281773 -0.414587 0.300000 0.600000 0.000000
-0.645718 0.542678 0.193557 0.500000 0.000000 0.500000
-0.645718 -0.179187 -0.006237 0.500000 0.000000 0.500000
-0.367511 -0.248364 0.454226 0.300000 0.000000 0.600000
0.516376 -0.118061 -0.166799 0.000000 0.500000 0.500000
-0.577503 0.580667 -0.209503 0.800000 0.200000 0.500000
0.355413 0.553257 0.454226 0.300000 0.000000 0.600000
-0.556061 0.154583 0.426645 0.300000 0.000000 0.600000
-0.314142 0.074632 -0.414587 0.300000 0.600000 0.000000
0.408800 -0.118061 0.042395 0.000000 0.500000 0.500000
-0.508445 -0.090480 -0.185003 0.000000 0.500000 0.500000
0.055152 -0.431159 0.426645 0.300000 0.000000 0.600000
-0.376423 0.277272 0.021258 0.500000 0.000000 0.500000
-0.327762 0.277272 -0.238728 0.500000 0.000000 0.500000
0.038580 -0.118061 -0.160475 0.000000 0.500000 0.500000
0.108169 0.277272 0.381906 0.500000 0.000000 0.500000
0.592537 -0.430650 0.093385 0.600000 0.000000 0.300000
0.623025 -0.110636 -0.179802 0.000000 0.500000 0.500000
0.531547 0.476939 0.454226 0.300000 0.000000 0.600000
-0.548321 0.573918 0.426645 0.300000 0.000000 0.600000
-0.631537 0.349536 -0.428377 0.300000 0.600000 0.000000
-0.338332 -0.090480 0.151557 0.000000 0.500000 0.500000
0.641412 0.002191 -0.003412 0.000000 0.500000 0.500000
0.610975 0.277272 0.307966 0.500000 0.000000 0.500000
-0.645718 -0.233866 -0.172631 0.500000 0.000000 0.500000
0.614594 -0.021070 0.454226 0.300000 0.000000 0.600000
0.623025 -0.416314 -0.337324 0.000000 0.500000 0.500000
0.513275 0.249690 -0.262339 0.500000 0.000000 0.500000
-0.479000 -0.445354 -0.414587 0.300000 0.600000 0.000000
-0.055906 -0.235710 0.399063 0.600000 0.300000 0.000000
-0.409416 -0.430650 -0.067008 0.600000 0.000000 0.300000
0.325736 -0.183134 0.454226 0.300000 0.000000 0.600000
0.543933 0.536634 0.426645 0.300000 0.000000 0.600000
0.487403 -0.090480 -0.271959 0.000000 0.500000 0.500000
0.513419 0.106719 0.426645 0.300000 0.000000 0.600000
-0.628656 0.599054 0.136785 0.800000 0.200000 0.500000
0.124989 -0.468712 -0.455959 1.000000 0.000000 0.000000
0.348529 -0.430650 0.294697 0.600000 0.000000 0.300000
-0.645718 0.186172 0.098261 0.500000 0.000000 0.500000
-0.439084 0.522634 0.426645 0.300000 0.000000 0.600000
0.250319 0.576526 -0.428377 0.300000 0.600000 0.000000
0.327891 0.436125 -0.414587 0.300000 0.600000 0.000000
0.000838 0.277272 0.386940 0.500000 0.000000 0.500000
-0.310385 -0.430650 0.220593 0.600000 0.000000 0.300000
-0.214317 0.277272 -0.321489 0.500000 0.000000 0.500000
-0.282693 0.249690 0.398799 0.500000 0.000000 0.500000
0.390058 0.174834 0.426645 0.300000 0.000000 0.600000
0.178864 -0.166561 0.454226 0.300000 0.000000 0.600000
-0.027114 -0.118061 0.330539 0.000000 0.500000 0.500000
0.113731 -0.442807 -0.414587 0.300000 0.600000 0.000000
0.238757 -0.026217 0.426645 0.300000 0.000000 0.600000
-0.171700 0.277272 -0.240173 0.500000 0.000000 0.500000
-0.136492 -0.430650 0.084661 0.600000 0.000000 0.300000
-0.207294 -0.430650 -0.110672 0.600000 0.000000 0.300000
0.079113 0.277272 -0.089028 0.500000 0.000000 0.500000
-0.664105 -0.581927 0.267887 0.000000 1.000000 0.000000
0.641412 0.024228 -0.407062 0.000000 0.500000 0.500000
-0.664105 0.218104 0.176361 0.500000 0.000000 0.500000
-0.269367 -0.430650 -0.128503 0.600000 0.000000 0.300000
0.332089 -0.467933 0.311722 0.500000 0.500000 0.000000
0.130509 -0.370486 -0.428377 0.300000 0.600000 0.000000
0.425607 -0.426053 -0.453768 1.000000 0.000000 0.000000
-0.557151 -0.430650 0.197701 0.600000 0.000000 0.300000
-0.080984 -0.290020 0.454226 0.300000 0.000000 0.600000
-0.005410 -0.536543 0.311722 0.500000 0.500000 0.000000
0.076959 -0.430650 0.012952 0.600000 0.000000 0.300000
-0.418758 -0.118061 -0.314560 0.000000 0.500000 0.500000
-0.203415 0.277272 -0.103979 0.500000 0.000000 0.500000
0.641412 0.530300 0.089958 0.000000 0.500000 0.500000
0.416229 0.548127 0.454226 0.300000 0.000000 0.600000
-0.266205 -0.090480 -0.017050 0.000000 0.500000 0.500000
0.086925 0.249690 0.111687 0.500000 0.000000 0.500000
0.549474 -0.452538 0.399063 0.000000 0.000000 1.000000
-0.631729 -0.408861 0.454226 0.300000 0.000000 0.600000
0.352907 -0.430650 0.201994 0.600000 0.000000 0.300000
-0.582668 -0.485814 -0.455959 1.000000 0.000000 0.000000
0.174011 -0.444121 -0.414587 0.300000 0.600000 0.000000
-0.277291 0.249690 0.106903 0.500000 0.000000 0.500000
-0.528029 0.277272 -0.005261 0.500000 0.000000 0.500000
-0.664105 -0.215236 0.015851 0.500000 0.000000 0.500000
0.641412 -0.168953 -0.321640 0.000000 0.500000 0.500000
-0.038620 0.277272 0.263273 0.500000 0.000000 0.500000
-0.600010 0.577893 0.426645 1.000000 0.000000 0.000000
-0.150043 -0.090480 0.232273 0.000000 0.500000 0.500000
0.190238 0.249690 0.274559 0.500000 0.000000 0.500000
0.152656 0.277272 -0.220270 0.500000 0.000000 0.500000
0.067162 -0.387255 0.454226 0.300000 0.000000 0.600000
0.595443 -0.216636 0.416449 0.300000 0.000000 0.600000
-0.248426 -0.118061 -0.228618 0.000000 0.500000 0.500000
-0.439990 -0.094386 0.454226 0.300000 0.000000 0.600000
-0.106186 0.277272 -0.027342 0.500000 0.000000 0.500000
-0.604904 0.580667 0.368039 0.800000 0.200000 0.500000
-0.068015 -0.190425 0.454226 0.300000 0.000000 0.600000
-0.645718 -0.439564 0.239062 0.500000 0.000000 0.500000
0.140716 -0.090480 0.067891 0.000000 0.500000 0.500000
-0.452902 0.249690 0.130051 0.500000 0.000000 0.500000
0.047042 0.277272 -0.394716 0.500000 0.000000 0.500000
-0.555986 0.277272 0.226502 0.500000 0.000000 0.500000
-0.168125 -0.090480 0.150722 0.000000 0.500000 0.500000
-0.386986 -0.328428 0.454226 0.300000 0.000000 0.600000
0.049677 0.423278 0.426645 0.300000 0.000000 0.600000
0.161355 -0.090334 0.454226 0.300000 0.000000 0.600000
-0.578020 0.516310 -0.436642 0.300000 0.600000 0.000000
0.598179 0.599054 -0.017207 0.600000 0.000000 0.300000
0.147681 -0.460216 0.454226 0.300000 0.000000 0.600000
-0.207982 -0.118061 -0.099951 0.000000 0.500000 0.500000
0.004848 0.249690 -0.033735 0.500000 0.000000 0.500000
0.623025 -0.350477 -0.301199 0.000000 0.500000 0.500000
0.262374 0.565097 0.487797 0.600000 0.000000 0.300000
0.335997 -0.287082 0.454226 0.300000 0.000000 0.600000
-0.114216 -0.259942 0.454226 0.300000 0.000000 0.600000
0.641412 -0.183094 0.324356 0.000000 0.500000 0.500000
-0.117077 -0.469723 0.442714 0.300000 0.000000 0.600000
-0.243542 0.401274 0.426645 0.300000 0.000000 0.600000
-0.210922 0.252790 0.426645 0.300000 0.000000 0.600000
0.592948 0.580667 -0.407958 0.600000 0.000000 0.300000
0.641412 -0.555599 -0.019235 0.000000 0.000000 1.000000
-0.212772 -0.429239 -0.414587 0.300000 0.600000 0.000000
-0.645718 0.064414 -0.207574 0.500000 0.000000 0.500000
-0.627656 -0.578675 0.311722 0.500000 0.500000 0.000000
-0.155620 0.285697 -0.414587 0.300000 0.600000 0.000000
0.641412 -0.054688 -0.122884 0.000000 0.500000 0.500000
-0.188390 -0.263599 -0.428377 0.300000 0.600000 0.000000
0.641412 0.386910 0.095313 0.000000 0.500000 0.500000
0.623025 0.534165 -0.097732 0.000000 0.500000 0.500000
0.365816 -0.118061 0.266013 0.000000 0.500000 0.500000
-0.500309 -0.118061 0.210767 0.000000 0.500000 0.500000
0.207596 -0.090480 -0.205179 0.000000 0.500000 0.500000
0.331519 -0.431357 0.426645 0.000000 0.000000 1.000000
0.613598 -0.514582 -0.455959 1.000000 0.000000 0.000000
-0.480050 0.316378 0.454226 0.300000 0.000000 0.600000
-0.191168 -0.121803 -0.414587 0.300000 0.600000 0.000000
0.028234 0.515726 -0.414587 0.300000 0.600000 0.000000
-0.077294 0.522953 -0.414587 0.300000 0.600000 0.000000
-0.203822 0.516825 -0.414587 0.300000 0.600000 0.000000
-0.664105 0.257087 0.008922 0.500000 0.000000 0.500000
-0.645718 -0.358854 0.180058 0.500000 0.000000 0.500000
0.148911 -0.046494 0.454226 0.300000 0.000000 0.600000
-0.474489 0.249690 0.183788 0.500000 0.000000 0.500000
-0.227931 0.616310 0.426645 0.300000 0.000000 0.600000
-0.555603 0.599054 -0.359733 0.800000 0.200000 0.500000
-0.664105 -0.508888 0.181414 0.000000 1.000000 0.000000
-0.105910 -0.090480 0.156232 0.000000 0.500000 0.500000
-0.645718 0.411200 -0.167257 0.500000 0.000000 0.500000
0.122626 0.249690 0.197255 0.500000 0.000000 0.500000
-0.603920 -0.430650 -0.113286 0.600000 0.000000 0.300000
0.623025 0.423662 -0.410790 0.000000 0.500000 0.500000
0.450645 0.277272 0.398533 0.500000 0.000000 0.500000
-0.179433 -0.339170 0.426645 0.300000 0.000000 0.600000
0.641412 0.097436 0.215496 0.000000 0.500000 0.500000
-0.241199 0.249690 -0.294440 0.500000 0.000000 0.500000
-0.645718 -0.131718 -0.210247 0.500000 0.000000 0.500000
0.571950 0.327123 -0.414587 0.300000 0.600000 0.000000
0.401651 -0.349977 0.454226 0.300000 0.000000 0.600000
0.230064 -0.430650 -0.334914 0.600000 0.000000 0.300000
0.357989 0.085574 -0.428377 0.300000 0.600000 0.000000
-0.664105 -0.107201 0.278064 0.500000 0.000000 0.500000
0.040827 -0.090480 -0.077655 0.000000 0.500000 0.500000
-0.349474 -0.090480 0.242038 0.000000 0.500000 0.500000
-0.234856 -0.118061 -0.170377 0.000000 0.500000 0.500000
0.127198 0.618572 -0.428377 0.300000 0.600000 0.000000
-0.197666 0.345717 0.454226 0.300000 0.000000 0.600000
-0.664105 0.031978 -0.376531 0.500000 0.000000 0.500000
-0.172726 -0.118061 0.311786 0.000000 0.500000 0.500000
0.641412 0.393228 0.165098 0.000000 0.500000 0.500000
-0.065161 -0.090480 0.180733 0.000000 0.500000 0.500000
0.641412 -0.360924 0.015810 0.000000 0.500000 0.500000
-0.624257 0.070837 -0.428377 0.300000 0.600000 0.000000
0.586843 0.249690 -0.275359 0.500000 0.000000 0.500000
-0.623580 0.290502 0.399063 0.300000 0.000000 0.600000
0.641412 -0.501487 -0.325896 0.000000 0.000000 1.000000
-0.645718 -0.157525 0.384673 0.500000 0.000000 0.500000
0.012271 -0.090480 -0.333664 0.000000 0.500000 0.500000
-0.467449 -0.355374 0.454226 0.300000 0.000000 0.600000
-0.664105 0.297834 -0.248450 0.500000 0.000000 0.500000
0.601241 0.580667 0.242706 0.600000 0.000000 0.300000
-0.336598 -0.430650 0.265351 0.600000 0.000000 0.300000
-0.645718 0.469536 -0.328488 0.500000 0.000000 0.500000
0.623025 0.067427 -0.032620 0.000000 0.500000 0.500000
0.641412 0.110845 -0.360159 0.000000 0.500000 0.500000
-0.446382 0.569357 -0.428377 0.300000 0.600000 0.000000
-0.021074 -0.166645 0.399063 0.600000 0.300000 0.000000
0.021095 0.277272 -0.271473 0.500000 0.000000 0.500000
0.156066 0.249690 0.037520 0.500000 0.000000 0.500000
-0.511436 0.486351 -0.414587 0.300000 0.600000 0.000000
0.524555 -0.090480 0.237236 0.000000 0.500000 0.500000
0.010583 0.476920 0.426645 0.600000 0.300000 0.000000
0.623025 -0.079702 -0.092610 0.000000 0.500000 0.500000
0.003577 0.431654 0.399063 0.600000 0.300000 0.000000
0.063891 -0.430650 0.375022 0.600000 0.000000 0.300000
-0.645718 0.472605 -0.036239 0.500000 0.000000 0.500000
-0.109457 -0.118061 -0.373829 0.000000 0.500000 0.500000
0.301919 -0.156783 0.426645 0.300000 0.000000 0.600000
-0.664105 0.394406 -0.080915 0.500000 0.000000 0.500000
0.606313 -0.445661 -0.414587 0.300000 0.600000 0.000000
-0.664105 -0.291848 -0.045380 0.500000 0.000000 0.500000
0.310443 0.343893 -0.428377 0.300000 0.600000 0.000000
0.317334 0.277272 0.207894 0.500000 0.000000 0.500000
0.361550 -0.118061 0.352231 0.000000 0.500000 0.500000
0.613898 -0.430650 0.246721 0.600000 0.000000 0.300000
0.388421 0.074714 0.454226 0.300000 0.000000 0.600000
0.526314 -0.512183 -0.455959 1.000000 0.000000 0.000000
-0.232153 0.249909 -0.428377 0.300000 0.600000 0.000000
0.115590 -0.430650 -0.064236 0.600000 0.000000 0.300000
-0.076504 -0.458997 0.454226 0.300000 0.000000 0.600000
-0.526432 0.249690 -0.393482 0.500000 0.000000 0.500000
0.552486 -0.047444 -0.428377 0.300000 0.600000 0.000000
0.239420 -0.294891 -0.428377 0.300000 0.600000 0.000000
-0.645718 -0.006364 -0.062467 0.500000 0.000000 0.500000
-0.354289 -0.090480 0.308064 0.000000 0.500000 0.500000
0.388313 0.300293 -0.414587 0.300000 0.600000 0.000000
0.159098 -0.118061 0.356078 0.000000 0.500000 0.500000
0.093213 -0.430650 0.304432 0.600000 0.000000 0.300000
0.389152 -0.238142 -0.428377 0.300000 0.600000 0.000000
0.159722 0.567391 -0.455959 0.300000 0.600000 0.000000
-0.271250 0.249690 0.236877 0.500000 0.000000 0.500000
-0.118531 -0.117556 0.426645 0.300000 0.000000 0.600000
0.536477 0.251462 0.426645 0.300000 0.000000 0.600000
-0.466662 -0.430650 -0.071365 0.600000 0.000000 0.300000
-0.611657 -0.118061 -0.014379 0.000000 0.500000 0.500000
0.297273 -0.090480 -0.230398 0.000000 0.500000 0.500000
-0.038702 -0.168672 -0.414587 0.300000 0.600000 0.000000
0.175532 -0.118061 -0.049007 0.000000 0.500000 0.500000
-0.486512 0.591543 -0.455959 0.300000 0.600000 0.000000
0.650606 0.028635 0.405361 0.300000 0.000000 0.600000
0.505811 -0.197343 0.426645 0.300000 0.000000 0.600000
0.623025 -0.406316 0.142351 0.000000 0.500000 0.500000
0.405846 -0.430650 -0.210993 0.600000 0.000000 0.300000
0.568071 0.249690 -0.138039 0.500000 0.000000 0.500000
-0.369503 -0.430650 0.185632 0.600000 0.000000 0.300000
-0.003445 -0.586273 -0.455959 1.000000 0.000000 0.000000
0.623025 0.452001 -0.283957 0.000000 0.500000 0.500000
-0.645718 0.278881 -0.454056 0.500000 0.000000 0.500000
0.623025 -0.210759 -0.300596 0.000000 0.500000 0.500000
0.604542 -0.090480 -0.266243 0.000000 0.500000 0.500000
-0.664105 0.254668 -0.074947 0.500000 0.000000 0.500000
0.004855 0.190108 0.454226 0.300000 0.000000 0.600000
-0.221637 0.193031 0.454226 0.300000 0.000000 0.600000
0.641412 -0.184617 -0.243575 0.000000 0.500000 0.500000
0.424078 0.277272 0.047580 0.500000 0.000000 0.500000
-0.532966 -0.430650 0.035940 0.600000 0.000000 0.300000
0.241367 0.401180 -0.414587 0.300000 0.600000 0.000000
-0.135078 0.277272 0.321929 0.500000 0.000000 0.500000
0.098665 -0.558217 -0.455959 1.000000 0.000000 0.000000
0.197239 0.249690 -0.058693 0.500000 0.000000 0.500000
0.510410 -0.430650 0.222461 0.600000 0.000000 0.300000
-0.095099 0.277272 -0.171795 0.500000 0.000000 0.500000
0.231163 0.501388 0.454226 0.300000 0.000000 0.600000
-0.645718 -0.465161 0.039853 0.500000 0.000000 0.500000
0.489944 -0.194426 -0.414587 0.300000 0.600000 0.000000
-0.645718 -0.142747 0.067958 0.500000 0.000000 0.500000
-0.645718 -0.189744 -0.083180 0.500000 0.000000 0.500000
-0.399785 0.277272 -0.284334 0.500000 0.000000 0.500000
-0.072494 -0.118061 -0.211070 0.000000 0.500000 0.500000
0.485674 -0.056210 -0.414587 0.300000 0.600000 0.000000
0.641412 0.044774 0.126232 0.000000 0.500000 0.500000
0.623025 -0.399121 -0.094463 0.000000 0.500000 0.500000
-0.142465 0.277272 0.086629 0.500000 0.000000 0.500000
-0.576689 0.578450 -0.428377 0.300000 0.600000 0.000000
0.206799 0.249690 -0.195949 0.500000 0.000000 0.500000
-0.352883 -0.430650 -0.366328 0.600000 0.000000 0.300000
0.183106 0.222425 0.454226 0.300000 0.000000 0.600000
-0.604308 -0.476619 0.416586 0.000000 0.000000 1.000000
0.460842 0.383484 -0.428377 0.300000 0.600000 0.000000
0.641412 0.024834 -0.326639 0.000000 0.500000 0.500000
-0.593143 -0.430650 0.349639 0.600000 0.000000 0.300000
-0.599430 0.249690 -0.001611 0.500000 0.000000 0.500000
0.623025 0.015037 -0.078984 0.000000 0.500000 0.500000
0.543018 -0.090480 -0.378589 0.000000 0.500000 0.500000
0.627197 -0.111309 0.426645 0.300000 0.000000 0.600000
0.540121 -0.118061 0.052093 0.000000 0.500000 0.500000
0.514243 0.571715 0.454226 0.300000 0.000000 0.600000
-0.664105 -0.613013 0.204531 0.000000 1.000000 0.000000
0.057766 0.564724 -0.414587 0.300000 0.600000 0.000000
0.206914 -0.371349 0.454226 0.300000 0.000000 0.600000
0.245907 0.366327 0.454226 0.300000 0.000000 0.600000
-0.421277 0.163729 0.426645 0.300000 0.000000 0.600000
-0.415866 -0.090480 0.379395 0.000000 0.500000 0.500000
-0.502544 -0.523591 -0.455959 1.000000 0.000000 0.000000
0.564658 0.583219 0.426645 1.000000 0.000000 0.000000
0.611615 0.599054 -0.301331 0.600000 0.000000 0.300000
-0.332092 -0.430650 -0.125131 0.600000 0.000000 0.300000
0.098856 0.277272 -0.020873 0.500000 0.000000 0.500000
0.641412 0.409932 -0.364432 0.000000 0.500000 0.500000
-0.277934 0.277272 -0.134753 0.500000 0.000000 0.500000
0.641412 0.129439 0.346360 0.000000 0.500000 0.500000
-0.212388 0.249690 -0.003963 0.500000 0.000000 0.500000
-0.373804 -0.118061 -0.396608 0.000000 0.500000 0.500000
0.088017 0.088389 -0.428377 0.300000 0.600000 0.000000
-0.664105 -0.229185 -0.103316 0.500000 0.000000 0.500000
-0.311414 0.453004 0.454226 0.300000 0.000000 0.600000
-0.108374 -0.118061 0.076832 0.000000 0.500000 0.500000
0.641412 -0.385908 0.191675 0.000000 0.500000 0.500000
-0.526984 0.249690 0.245271 0.500000 0.000000 0.500000
-0.645718 -0.265817 0.176476 0.500000 0.000000 0.500000
-0.379056 -0.430650 -0.114916 0.600000 0.000000 0.300000
0.306956 -0.430650 -0.320534 0.600000 0.000000 0.300000
0.377049 0.328865 0.426645 0.300000 0.000000 0.600000
-0.465815 0.208325 0.454226 0.300000 0.000000 0.600000
-0.453252 -0.118061 0.318738 0.000000 0.500000 0.500000
-0.633399 -0.324954 0.399063 0.300000 0.000000 0.600000
-0.664105 -0.029505 0.173763 0.500000 0.000000 0.500000
0.322318 -0.090480 0.164608 0.000000 0.500000 0.500000
0.431381 -0.430650 -0.319708 0.600000 0.000000 0.300000
-0.650918 0.626636 -0.185265 0.500000 0.000000 0.500000
-0.645718 -0.171271 -0.357712 0.500000 0.000000 0.500000
-0.154510 -0.620134 0.311722 0.500000 0.500000 0.000000
-0.562491 0.249690 -0.151776 0.500000 0.000000 0.500000
-0.619641 -0.430650 0.124909 0.600000 0.000000 0.300000
0.623025 -0.025870 0.056719 0.000000 0.500000 0.500000
0.002354 -0.430650 0.072368 0.600000 0.000000 0.300000
-0.664105 -0.523030 0.225407 0.000000 1.000000 0.000000
-0.664105 -0.012569 0.355065 0.500000 0.000000 0.500000
0.602047 0.014750 0.426645 0.300000 0.000000 0.600000
0.623025 0.418976 0.368748 0.000000 0.500000 0.500000
0.014325 0.329042 -0.428377 0.300000 0.600000 0.000000
0.411186 -0.090480 0.118487 0.000000 0.500000 0.500000
-0.294092 -0.023747 -0.428377 0.300000 0.600000 0.000000
-0.641731 -0.361386 0.454226 0.300000 0.000000 0.600000
-0.295927 0.249690 -0.103963 0.500000 0.000000 0.500000
-0.645718 0.207121 0.245238 0.500000 0.000000 0.500000
0.641412 -0.299021 0.294329 0.000000 0.500000 0.500000
0.199536 -0.430650 0.299606 0.600000 0.000000 0.300000
-0.238128 -0.238467 -0.428377 0.300000 0.600000 0.000000
-0.664105 0.567026 0.373447 0.500000 0.000000 0.500000
-0.018242 -0.048192 0.452338 0.300000 0.000000 0.600000
0.623025 0.101433 -0.179308 0.000000 0.500000 0.500000
0.292884 -0.281044 0.454226 0.300000 0.000000 0.600000
0.225188 0.320310 0.454226 0.300000 0.000000 0.600000
-0.173568 -0.430650 -0.347264 0.600000 0.000000 0.300000
0.579356 -0.430650 -0.126960 0.600000 0.000000 0.300000
-0.403969 0.277272 -0.152901 0.500000 0.000000 0.500000
0.127831 0.408536 -0.414587 0.300000 0.600000 0.000000
-0.006017 -0.388759 0.399063 0.600000 0.300000 0.000000
-0.400568 -0.345741 -0.428377 0.500000 0.500000 0.000000
0.302506 0.227609 0.454226 0.300000 0.000000 0.600000
-0.591247 0.035205 0.454226 0.300000 0.000000 0.600000
0.492237 -0.084138 0.454226 0.300000 0.000000 0.600000
-0.479543 0.277272 -0.029779 0.500000 0.000000 0.500000
0.641412 0.243464 -0.288866 0.000000 0.500000 0.500000
0.257309 0.219110 0.426645 0.300000 0.000000 0.600000
-0.540985 0.529956 -0.455959 0.300000 0.600000 0.000000
0.186852 0.116586 0.454226 0.300000 0.000000 0.600000
0.435451 -0.118061 -0.138078 0.000000 0.500000 0.500000
-0.066509 0.006200 0.414807 0.600000 0.300000 0.000000
0.442907 0.199292 0.426645 0.300000 0.000000 0.600000
-0.618792 0.599054 -0.352892 0.800000 0.200000 0.500000
0.592149 0.516310 -0.453065 0.300000 0.600000 0.000000
-0.015237 0.277272 0.104097 0.500000 0.000000 0.500000
0.464509 0.512819 -0.414587 0.300000 0.600000 0.000000
-0.528089 0.026673 -0.428377 0.300000 0.600000 0.000000
0.474916 -0.011524 -0.414587 0.300000 0.600000 0.000000
0.200775 -0.118061 0.186878 0.000000 0.500000 0.500000
0.364859 0.436521 0.426645 0.300000 0.000000 0.600000
-0.282593 -0.118061 -0.085725 0.000000 0.500000 0.500000
-0.673299 -0.219122 0.425556 0.300000 0.000000 0.600000
0.455743 0.062295 -0.428377 0.300000 0.600000 0.000000
-0.645718 0.193717 -0.192478 0.500000 0.000000 0.500000
-0.664105 0.614700 -0.298423 0.500000 0.000000 0.500000
-0.459272 -0.430650 0.035965 0.600000 0.000000 0.300000
-0.664105 0.394567 -0.411707 0.500000 0.000000 0.500000
0.641412 0.571004 0.322915 0.000000 0.500000 0.500000
-0.441059 -0.430650 -0.270752 0.600000 0.000000 0.300000
0.641412 0.584529 -0.172975 0.000000 0.500000 0.500000
-0.207417 -0.351769 -0.414587 0.300000 0.600000 0.000000
0.641412 -0.411280 -0.195986 0.000000 0.500000 0.500000
-0.664105 -0.140879 -0.014516 0.500000 0.000000 0.500000
-0.554736 0.359755 0.454226 0.300000 0.000000 0.600000
-0.666404 -0.058753 0.432320 0.300000 0.000000 0.600000
0.289949 -0.425387 -0.428377 0.300000 0.600000 0.000000
-0.191460 0.148584 0.454226 0.300000 0.000000 0.600000
-0.440058 0.277272 0.260577 0.500000 0.000000 0.500000
0.461676 0.277272 -0.038295 0.500000 0.000000 0.500000
0.183415 0.249690 -0.327953 0.500000 0.000000 0.500000
0.086159 -0.138052 -0.414587 0.300000 0.600000 0.000000
0.556040 0.599054 -0.196477 0.600000 0.000000 0.300000
-0.595137 -0.430650 0.307144 0.600000 0.000000 0.300000
-0.572627 -0.389217 0.426645 0.300000 0.000000 0.600000
-0.645718 0.264813 -0.155659 0.500000 0.000000 0.500000
-0.664105 -0.412481 -0.196421 0.500000 0.000000 0.500000
0.641412 0.153159 -0.180066 0.000000 0.500000 0.500000
0.650606 0.253374 0.399451 0.300000 0.000000 0.600000
-0.097503 -0.118061 -0.066471 0.000000 0.500000 0.500000
-0.349149 0.249690 0.231415 0.500000 0.000000 0.500000
0.264328 0.249690 -0.040269 0.500000 0.000000 0.500000
0.196115 0.277272 -0.026826 0.500000 0.000000 0.500000
0.533424 -0.482030 0.311722 0.500000 0.500000 0.000000
-0.349814 -0.430650 -0.221241 0.600000 0.000000 0.300000
0.063082 -0.118061 0.303924 0.000000 0.500000 0.500000
-0.661498 0.496962 0.454226 0.300000 0.000000 0.600000
0.204722 0.366439 -0.414587 0.300000 0.600000 0.000000
-0.220705 0.072967 -0.414587 0.300000 0.600000 0.000000
0.641412 0.349738 -0.452281 0.000000 0.500000 0.500000
0.552877 0.392387 0.426645 0.300000 0.000000 0.600000
-0.379802 0.249690 0.169432 0.500000 0.000000 0.500000
0.641412 -0.081563 -0.413352 0.000000 0.500000 0.500000
0.342412 -0.528135 0.311722 0.500000 0.500000 0.000000
0.386777 -0.118061 -0.256126 0.000000 0.500000 0.500000
-0.025085 0.003819 0.426645 0.300000 0.000000 0.600000
-0.664105 -0.420575 -0.290122 0.500000 0.000000 0.500000
-0.664105 0.315860 0.315940 0.500000 0.000000 0.500000
0.641412 0.095779 -0.115915 0.000000 0.500000 0.500000
-0.411336 -0.118061 -0.047770 0.000000 0.500000 0.500000
0.243618 0.249690 -0.098954 0.500000 0.000000 0.500000
-0.414787 -0.430650 0.327397 0.600000 0.000000 0.300000
0.641412 0.589354 0.110284 0.000000 0.500000 0.500000
0.071045 0.017561 -0.428377 0.300000 0.600000 0.000000
0.162018 0.563619 0.487915 0.600000 0.000000 0.300000
-0.664105 -0.577562 -0.157195 0.000000 1.000000 0.000000
0.295672 -0.218597 -0.428377 0.300000 0.600000 0.000000
0.641412 -0.315889 -0.097106 0.000000 0.500000 0.500000
0.554480 0.059783 -0.414587 0.300000 0.600000 0.000000
-0.645718 0.007062 -0.286166 0.500000 0.000000 0.500000
-0.265143 -0.448945 -0.428377 0.300000 0.600000 0.000000
0.542507 0.277272 0.158814 0.500000 0.000000 0.500000
-0.006174 0.321713 0.399063 0.600000 0.300000 0.000000
-0.097068 -0.471554 0.311722 0.500000 0.500000 0.000000
-0.061348 -0.159531 0.426645 0.300000 0.000000 0.600000
-0.324346 -0.614509 0.311722 0.500000 0.500000 0.000000
0.641412 0.486702 -0.419549 0.000000 0.500000 0.500000
-0.155109 -0.494966 -0.455959 1.000000 0.000000 0.000000
0.167794 -0.090480 -0.372377 0.000000 0.500000 0.500000
-0.664105 -0.359452 -0.226983 0.500000 0.000000 0.500000
-0.498516 0.249690 -0.211000 0.500000 0.000000 0.500000
-0.310162 0.404739 0.426645 0.300000 0.000000 0.600000
0.280086 0.277272 0.349778 0.500000 0.000000 0.500000
0.597968 -0.314992 0.454226 0.300000 0.000000 0.600000
0.561806 0.277272 -0.214288 0.500000 0.000000 0.500000
-0.420114 0.277272 -0.114286 0.500000 0.000000 0.500000
0.641412 0.080577 0.254122 0.000000 0.500000 0.500000
0.349358 0.249690 -0.221874 0.500000 0.000000 0.500000
0.300372 -0.435718 0.454226 0.300000 0.000000 0.600000
0.054155 0.277272 0.244467 0.500000 0.000000 0.500000
0.520965 0.064013 0.454226 0.300000 0.000000 0.600000
-0.664105 -0.049295 -0.318148 0.500000 0.000000 0.500000
-0.645718 -0.329690 -0.364325 0.500000 0.000000 0.500000
-0.333814 0.568909 0.488854 0.600000 0.300000 0.000000
0.187750 -0.365444 -0.428377 0.300000 0.600000 0.000000
-0.042291 0.284509 -0.414587 0.300000 0.600000 0.000000
-0.465794 -0.118061 -0.275272 0.000000 0.500000 0.500000
-0.603744 0.277272 -0.386151 0.500000 0.000000 0.500000
-0.282104 -0.430650 -0.086099 0.600000 0.000000 0.300000
-0.645718 -0.066776 -0.265852 0.500000 0.000000 0.500000
0.623025 0.143220 0.307185 0.000000 0.500000 0.500000
0.121590 0.541425 -0.414587 0.300000 0.600000 0.000000
-0.192363 0.436494 0.426645 0.300000 0.000000 0.600000
0.063144 -0.430650 -0.285450 0.600000 0.000000 0.300000
-0.522089 -0.118061 -0.380615 0.000000 0.500000 0.500000
0.623025 0.560727 -0.007766 0.000000 0.500000 0.500000
0.230670 0.249690 0.068211 0.500000 0.000000 0.500000
0.623025 -0.369354 0.367386 0.000000 0.500000 0.500000
-0.311472 0.277272 -0.318096 0.500000 0.000000 0.500000
-0.161946 0.249690 -0.288158 0.500000 0.000000 0.500000
-0.264148 -0.062483 0.426645 0.300000 0.000000 0.600000
-0.224194 0.249690 -0.359867 0.500000 0.000000 0.500000
0.607173 0.249690 0.193182 0.500000 0.000000 0.500000
0.202520 0.294229 -0.414587 0.300000 0.600000 0.000000
0.540938 -0.333907 0.426645 0.300000 0.000000 0.600000
-0.520180 -0.266408 0.426645 0.300000 0.000000 0.600000
-0.464712 -0.206591 -0.428377 0.300000 0.600000 0.000000
-0.596750 0.226688 -0.414587 0.300000 0.600000 0.000000
-0.137575 -0.544745 0.311722 0.500000 0.500000 0.000000
0.623025 0.432891 0.026581 0.000000 0.500000 0.500000
0.623025 0.187142 -0.407071 0.000000 0.500000 0.500000
0.231870 0.249690 -0.001874 0.500000 0.000000 0.500000
0.641412 0.012524 0.296116 0.000000 0.500000 0.500000
0.641412 -0.633463 -0.182607 0.000000 0.000000 1.000000
0.641412 0.436456 -0.214709 0.000000 0.500000 0.500000
-0.298700 -0.443673 0.399063 0.000000 0.000000 1.000000
0.639428 0.453196 -0.455959 0.000000 0.500000 0.500000
0.419328 -0.118061 0.349589 0.000000 0.500000 0.500000
0.641412 -0.463769 0.147968 0.000000 0.500000 0.500000
-0.556877 0.283705 0.454226 0.300000 0.000000 0.600000
0.003448 -0.139908 0.426645 0.600000 0.300000 0.000000
-0.664105 0.118635 0.228409 0.500000 0.000000 0.500000
0.280611 0.249690 -0.078458 0.500000 0.000000 0.500000
0.641412 0.344458 0.383319 0.000000 0.500000 0.500000
-0.333311 -0.426053 -0.434118 1.000000 0.000000 0.000000
-0.502587 0.277272 0.037522 0.500000 0.000000 0.500000
-0.662722 0.562634 0.454226 0.300000 0.000000 0.600000
-0.603604 0.249690 -0.183258 0.500000 0.000000 0.500000
-0.100346 0.538231 -0.455959 0.300000 0.600000 0.000000
-0.607070 0.277272 0.125192 0.500000 0.000000 0.500000
-0.313284 0.200157 0.426645 0.300000 0.000000 0.600000
0.065822 0.513328 0.426645 0.300000 0.000000 0.600000
-0.425694 -0.049084 -0.414587 0.300000 0.600000 0.000000
0.641412 0.348034 -0.108793 0.000000 0.500000 0.500000
-0.387818 -0.118061 -0.346516 0.000000 0.500000 0.500000
-0.664105 -0.574240 0.143466 0.000000 1.000000 0.000000
-0.540718 -0.090480 0.320237 0.000000 0.500000 0.500000
0.205704 -0.234601 0.454226 0.300000 0.000000 0.600000
-0.037159 -0.240855 0.454226 0.300000 0.000000 0.600000
-0.645718 -0.046114 -0.076912 0.500000 0.000000 0.500000
-0.589315 -0.600382 0.311722 0.500000 0.500000 0.000000
-0.664105 -0.600385 -0.438124 0.000000 1.000000 0.000000
-0.041385 -0.478338 -0.455959 1.000000 0.000000 0.000000
-0.645718 0.429662 0.268236 0.500000 0.000000 0.500000
-0.083068 -0.430650 -0.013815 0.600000 0.000000 0.300000
-0.645718 -0.309840 -0.235172 0.500000 0.000000 0.500000
0.629112 0.578500 -0.455959 0.000000 0.500000 0.500000
-0.618136 0.218998 0.424210 0.300000 0.000000 0.600000
0.045581 -0.090480 0.116184 0.000000 0.500000 0.500000
-0.127563 -0.118061 -0.097387 0.000000 0.500000 0.500000
0.103634 0.097904 0.454226 0.300000 0.000000 0.600000
-0.130239 -0.054940 0.454226 0.300000 0.000000 0.600000
-0.508460 0.015165 0.454226 0.300000 0.000000 0.600000
0.452073 0.249690 0.162302 0.500000 0.000000 0.500000
-0.535132 -0.090480 -0.031189 0.000000 0.500000 0.500000
-0.122592 -0.090480 -0.187090 0.000000 0.500000 0.500000
-0.618136 0.505833 0.402632 0.300000 0.000000 0.600000
-0.625019 -0.442436 -0.428377 0.300000 0.600000 0.000000
-0.043294 0.277272 -0.265443 0.500000 0.000000 0.500000
-0.597912 0.499382 0.454226 0.300000 0.000000 0.600000
-0.565298 -0.430650 -0.019308 0.600000 0.000000 0.300000
-0.315335 0.141891 0.426645 0.300000 0.000000 0.600000
0.623025 0.463148 0.272775 0.000000 0.500000 0.500000
-0.436968 0.277272 0.190923 0.500000 0.000000 0.500000
-0.247379 0.295578 0.426645 0.300000 0.000000 0.600000
-0.550070 -0.118061 0.099046 0.000000 0.500000 0.500000
-0.027596 -0.274836 0.426645 0.300000 0.000000 0.600000
0.628760 0.268151 -0.455959 0.000000 0.500000 0.500000
0.276011 0.026189 0.426645 0.300000 0.000000 0.600000
0.320130 -0.090480 0.333288 0.000000 0.500000 0.500000
0.650606 0.371607 0.416537 0.300000 0.000000 0.600000
-0.265064 -0.430650 0.039605 0.600000 0.000000 0.300000
0.431997 0.277272 -0.007005 0.500000 0.000000 0.500000
0.562019 0.225000 0.454226 0.300000 0.000000 0.600000
0.541662 -0.118061 -0.348070 0.000000 0.500000 0.500000
-0.664105 -0.413912 0.387536 0.500000 0.000000 0.500000
-0.013974 0.277272 -0.369044 0.500000 0.000000 0.500000
0.512699 0.596839 -0.143644 0.600000 0.000000 0.300000
-0.365263 0.249690 -0.253359 0.500000 0.000000 0.500000
0.403570 0.132851 -0.414587 0.300000 0.600000 0.000000
-0.273741 0.543298 -0.414587 0.300000 0.600000 0.000000
-0.208682 -0.090480 -0.052829 0.000000 0.500000 0.500000
-0.664105 -0.097792 -0.342947 0.500000 0.000000 0.500000
0.130838 -0.368730 0.454226 0.300000 0.000000 0.600000
0.641412 -0.096885 -0.236158 0.000000 0.500000 0.500000
-0.385898 -0.129679 0.426645 0.300000 0.000000 0.600000
0.217276 -0.430650 0.113315 0.600000 0.000000 0.300000
-0.440514 -0.118061 -0.017748 0.000000 0.500000 0.500000
0.281897 -0.430650 -0.211175 0.600000 0.000000 0.300000
0.080512 -0.538727 0.311722 0.500000 0.500000 0.000000
0.081233 0.277272 -0.132861 0.500000 0.000000 0.500000
0.126897 0.249690 -0.236542 0.500000 0.000000 0.500000
0.615600 0.249690 -0.399469 0.500000 0.000000 0.500000
-0.566257 0.443809 0.454226 0.300000 0.000000 0.600000
-0.659739 -0.397946 -0.455959 0.500000 0.000000 0.500000
-0.641167 -0.167886 -0.414587 0.300000 0.600000 0.000000
-0.462474 -0.090480 -0.184687 0.000000 0.500000 0.500000
0.273467 0.519611 0.426645 0.300000 0.000000 0.600000
0.017784 -0.047863 0.426645 0.300000 0.000000 0.600000
0.623025 0.281143 -0.360852 0.000000 0.500000 0.500000
0.520234 0.599054 -0.035480 0.600000 0.000000 0.300000
-0.617581 -0.577261 -0.455959 1.000000 0.000000 0.000000
-0.574359 -0.225107 0.426645 0.300000 0.000000 0.600000
0.314754 -0.118061 -0.313005 0.000000 0.500000 0.500000
0.420895 0.277272 0.319950 0.500000 0.000000 0.500000
-0.259825 -0.430650 -0.043340 0.600000 0.000000 0.300000
-0.597562 0.249690 -0.101210 0.500000 0.000000 0.500000
0.641412 0.542982 -0.413566 0.000000 0.500000 0.500000
-0.252147 -0.071225 -0.414587 0.300000 0.600000 0.000000
0.593020 -0.090480 0.246620 0.000000 0.500000 0.500000
-0.606349 -0.090480 -0.314890 0.000000 0.500000 0.500000
-0.545918 -0.090480 -0.308721 0.000000 0.500000 0.500000
-0.006152 -0.104810 -0.428377 0.300000 0.600000 0.000000
-0.571926 0.599054 -0.015221 0.800000 0.200000 0.500000
0.213381 0.131334 0.426645 0.300000 0.000000 0.600000
-0.189276 -0.118061 -0.325790 0.000000 0.500000 0.500000
0.079120 -0.090480 -0.308772 0.000000 0.500000 0.500000
-0.077575 -0.430650 -0.249586 0.600000 0.000000 0.300000
-0.544436 -0.430650 -0.279230 0.600000 0.000000 0.300000
0.650606 0.104349 0.416752 0.300000 0.000000 0.600000
-0.022105 -0.090480 -0.307901 0.000000 0.500000 0.500000
0.511948 -0.601593 -0.455959 1.000000 0.000000 0.000000
-0.126432 0.486284 -0.428377 0.300000 0.600000 0.000000
0.177705 0.249690 0.202118 0.500000 0.000000 0.500000
-0.282315 0.490912 -0.414587 0.300000 0.600000 0.000000
0.417225 -0.090480 0.383040 0.000000 0.500000 0.500000
-0.086781 0.249690 0.265394 0.500000 0.000000 0.500000
0.492087 -0.638467 0.311722 0.500000 0.500000 0.000000
-0.520438 0.248515 0.426645 0.300000 0.000000 0.600000
0.107135 -0.052896 -0.428377 0.300000 0.600000 0.000000
-0.466793 -0.331758 -0.428377 0.500000 0.500000 0.000000
0.076533 -0.090480 0.076162 0.000000 0.500000 0.500000
-0.566409 -0.279725 0.426645 0.300000 0.000000 0.600000
0.361122 0.277272 0.374216 0.500000 0.000000 0.500000
-0.040112 -0.555645 -0.455959 1.000000 0.000000 0.000000
0.344147 -0.090480 -0.173713 0.000000 0.500000 0.500000
-0.479562 0.142629 0.454226 0.300000 0.000000 0.600000
-0.552034 0.249690 -0.024887 0.500000 0.000000 0.500000
-0.373999 0.490661 -0.414587 0.300000 0.600000 0.000000
-0.619223 0.145089 0.426645 0.300000 0.000000 0.600000
-0.664105 0.605023 0.317612 0.500000 0.000000 0.500000
-0.144031 0.249111 -0.428377 0.300000 0.600000 0.000000
0.623025 0.505843 -0.220888 0.000000 0.500000 0.500000
0.513909 -0.430650 0.057863 0.600000 0.000000 0.300000
-0.322061 0.108508 0.454226 0.300000 0.000000 0.600000
-0.645718 0.179245 -0.426497 0.500000 0.000000 0.500000
-0.598022 0.249690 -0.272734 0.500000 0.000000 0.500000
-0.102537 0.277272 0.041071 0.500000 0.000000 0.500000
-0.557076 -0.090480 -0.216407 0.000000 0.500000 0.500000
-0.289884 -0.365180 -0.414587 0.300000 0.600000 0.000000
-0.334584 -0.118061 0.216047 0.000000 0.500000 0.500000
-0.625064 0.599054 -0.148716 0.800000 0.200000 0.500000
-0.417356 -0.118061 -0.147425 0.000000 0.500000 0.500000
-0.514697 0.492098 0.454226 0.300000 0.000000 0.600000
-0.045870 0.123344 0.426645 0.300000 0.000000 0.600000
-0.436433 -0.423796 0.454226 0.300000 0.000000 0.600000
0.543103 0.599054 0.392014 0.600000 0.000000 0.300000
0.607136 -0.243985 -0.428377 0.300000 0.600000 0.000000
0.641412 -0.123927 0.315057 0.000000 0.500000 0.500000
0.623025 -0.210899 0.185823 0.000000 0.500000 0.500000
0.384909 -0.260283 0.426645 0.300000 0.000000 0.600000
0.605864 0.599054 -0.374091 0.600000 0.000000 0.300000
-0.519109 -0.090480 0.277744 0.000000 0.500000 0.500000
-0.241399 0.249690 0.398745 0.500000 0.000000 0.500000
-0.147519 -0.090480 0.291874 0.000000 0.500000 0.500000
0.043433 -0.378123 -0.428377 0.300000 0.600000 0.000000
-0.355309 0.277272 0.376234 0.500000 0.000000 0.500000
-0.664105 -0.110469 0.029712 0.500000 0.000000 0.500000
0.442646 -0.302277 -0.428377 0.300000 0.600000 0.000000
0.578014 -0.620302 0.311722 0.500000 0.500000 0.000000
-0.525607 -0.139133 -0.428377 0.300000 0.600000 0.000000
-0.544289 -0.376806 0.454226 0.300000 0.000000 0.600000
-0.389024 0.400144 -0.414587 0.300000 0.600000 0.000000
0.132497 -0.422608 0.454226 0.300000 0.000000 0.600000
0.125786 0.596913 0.426645 1.000000 0.000000 0.000000
0.503412 0.619259 -0.455959 0.300000 0.600000 0.000000
0.017228 -0.236321 0.426645 0.300000 0.000000 0.600000
0.573269 0.624543 0.426645 1.000000 0.000000 0.000000
-0.463147 -0.590657 -0.455959 1.000000 0.000000 0.000000
0.623025 -0.276211 -0.335147 0.000000 0.500000 0.500000
-0.643099 -0.026118 0.426645 0.300000 0.000000 0.600000
-0.645718 -0.404437 -0.371056 0.500000 0.000000 0.500000
0.256059 0.249690 -0.256952 0.500000 0.000000 0.500000
0.074916 0.212228 -0.428377 0.300000 0.600000 0.000000
-0.110179 -0.307591 0.426645 0.300000 0.000000 0.600000
-0.645718 -0.210868 -0.219819 0.500000 0.000000 0.500000
0.331263 0.249690 0.301367 0.500000 0.000000 0.500000
-0.003413 -0.118061 -0.090972 0.000000 0.500000 0.500000
0.191570 -0.118061 0.120322 0.000000 0.500000 0.500000
0.464941 0.249690 0.363019 0.500000 0.000000 0.500000
0.063762 0.249690 -0.196428 0.500000 0.000000 0.500000
0.009154 -0.434661 0.454226 0.300000 0.000000 0.600000
-0.476277 0.619740 0.444505 0.300000 0.000000 0.600000
0.094715 -0.014377 0.454226 0.300000 0.000000 0.600000
0.483088 -0.118061 0.159693 0.000000 0.500000 0.500000
-0.051532 -0.430650 -0.412192 0.600000 0.000000 0.300000
0.386315 0.277272 -0.073795 0.500000 0.000000 0.500000
-0.664105 -0.315074 0.164066 0.500000 0.000000 0.500000
-0.349693 0.277272 -0.089306 0.500000 0.000000 0.500000
0.088866 -0.223880 -0.428377 0.300000 0.600000 0.000000
-0.504267 0.152834 -0.414587 0.300000 0.600000 0.000000
-0.645718 0.351157 0.235955 0.500000 0.000000 0.500000
0.384763 0.556005 -0.455959 0.300000 0.600000 0.000000
-0.540743 -0.066165 0.426645 0.300000 0.000000 0.600000
-0.388839 -0.090480 -0.259187 0.000000 0.500000 0.500000
0.647861 -0.366022 0.399063 0.300000 0.000000 0.600000
-0.573924 0.249690 0.201004 0.500000 0.000000 0.500000
0.210688 0.277272 0.121398 0.500000 0.000000 0.500000
