ply
format ascii 1.0
element vertex 1251
property float x
property float y
property float z
property uchar red
property uchar green
property uchar blue
end_header
0.388586 0.821245 -0.165627 153 0 76
0.035162 -0.236718 -0.465866 0 127 127
-0.333464 -0.465780 0.347282 0 127 127
-0.370880 -0.086255 0.303868 0 127 127
0.235609 -0.489131 -0.403592 0 127 127
0.282108 -0.397851 0.375222 0 127 127
0.212865 0.234086 -0.414960 0 127 127
-0.274589 -0.902193 0.290058 0 127 127
-0.190658 -0.644587 -0.430348 0 127 127
0.323207 0.466831 0.343685 0 127 127
-0.339999 0.919215 0.027695 153 0 76
0.038482 -0.443075 -0.465429 0 127 127
0.451604 0.218917 -0.118315 0 127 127
0.447670 0.052724 0.135807 0 127 127
0.457080 0.303736 -0.076720 0 127 127
-0.467323 0.474226 0.119740 0 127 127
-0.474060 -0.755599 -0.061258 0 127 127
-0.063214 -0.629631 -0.464140 0 127 127
-0.248443 0.622035 0.390871 0 127 127
0.032303 -0.892566 -0.174132 0 127 127
-0.191917 0.919215 0.036938 153 0 76
-0.212048 0.789193 0.377446 153 0 76
0.397034 0.129881 0.250307 0 127 127
0.256603 -0.154682 -0.387483 0 127 127
-0.389986 -0.843019 -0.244086 0 127 127
-0.210460 0.206127 0.429456 0 127 127
-0.338204 0.393755 -0.336335 0 127 127
-0.254236 -0.249289 -0.400766 0 127 127
0.324639 0.639628 -0.288638 0 127 127
-0.213569 0.857926 0.384464 153 0 76
-0.480441 -0.557281 -0.012792 0 127 127
-0.199819 -0.899470 -0.066304 0 127 127
-0.435366 -0.683298 -0.194281 0 127 127
0.404531 0.856762 -0.127133 153 0 76
-0.401890 0.333304 0.263456 0 127 127
0.407737 -0.717151 0.232214 0 127 127
-0.197563 0.919215 0.085958 153 0 76
0.008399 -0.913444 0.312558 0 127 127
0.283786 -0.669749 0.373934 0 127 127
0.106131 0.722261 0.364504 76 153 0
-0.450314 -0.340669 -0.158193 0 127 127
0.457708 -0.765193 -0.071951 0 127 127
0.134048 -0.421210 0.454917 0 127 127
-0.467100 -0.447436 0.121438 0 127 127
0.163083 0.717533 -0.333604 76 153 0
0.174461 -0.913444 -0.175636 0 127 127
0.195561 0.919215 -0.184603 153 0 76
0.039722 0.919215 0.351738 153 0 76
0.334651 0.562489 -0.324044 0 127 127
0.278455 0.483375 0.378025 0 127 127
-0.244030 -0.850415 -0.381821 0 127 127
-0.428579 0.888683 -0.087359 153 0 76
0.006244 0.919215 -0.132195 153 0 76
0.218269 0.528408 -0.412721 0 127 127
-0.068626 0.886269 0.429173 153 0 76
0.143010 0.301361 0.451205 0 127 127
-0.362737 -0.135613 -0.307170 0 127 127
-0.318707 0.912041 -0.269248 153 0 76
0.369877 -0.468696 0.285699 0 127 127
0.259979 -0.687197 -0.384891 0 127 127
-0.450867 -0.425910 0.164167 0 127 127
0.006379 0.915367 -0.405305 153 0 76
-0.453477 -0.760685 -0.150557 0 127 127
0.038564 0.919215 0.065672 153 0 76
0.217051 -0.647479 0.420536 0 127 127
-0.066145 -0.884421 -0.078978 0 127 127
-0.475584 0.299368 0.056992 0 127 127
-0.417504 -0.774510 0.243107 0 127 127
0.405169 0.904147 0.099296 153 0 76
-0.359613 -0.043726 -0.311241 0 127 127
0.445975 -0.796012 0.136581 0 127 127
-0.048138 -0.597166 -0.466125 0 127 127
0.221987 -0.886818 0.352314 0 127 127
0.439637 0.594677 0.141581 0 127 127
-0.389335 -0.103183 -0.272507 0 127 127
0.176797 -0.429728 -0.429899 0 127 127
0.258093 -0.740766 -0.386339 0 127 127
0.101938 0.668274 -0.389484 0 127 127
0.268643 -0.656380 -0.378244 0 127 127
-0.124598 -0.886496 -0.031609 0 127 127
-0.043913 0.919215 0.257750 153 0 76
-0.475896 -0.726623 -0.047315 0 127 127
0.409292 -0.513870 0.228460 0 127 127
0.332263 -0.861848 -0.279556 0 127 127
-0.293055 -0.875620 0.325841 0 127 127
0.434599 -0.042697 0.167364 0 127 127
-0.371481 0.729801 0.144801 76 153 0
-0.257525 0.411819 0.405552 0 127 127
-0.423763 0.806557 -0.116560 153 0 76
-0.017962 -0.604328 0.477408 0 127 127
-0.327476 0.111267 0.351877 0 127 127
0.014075 0.211877 0.475952 0 127 127
0.381685 0.779756 -0.030715 153 0 76
-0.011578 -0.913444 -0.323166 0 127 127
0.464013 0.321744 0.031372 0 127 127
0.321211 -0.913179 -0.092563 0 127 127
0.264187 -0.102505 -0.381663 0 127 127
-0.408065 0.509338 -0.248098 0 127 127
0.441349 -0.481891 -0.143756 0 127 127
0.041828 0.919215 -0.211202 153 0 76
0.304293 -0.019190 -0.350888 0 127 127
-0.039527 0.489195 -0.467259 0 127 127
0.142463 -0.889552 -0.020350 0 127 127
0.458453 0.598978 -0.015701 0 127 127
-0.078659 0.340659 0.469417 0 127 127
-0.014858 -0.887269 0.133110 0 127 127
-0.259776 0.919215 -0.206514 153 0 76
0.386645 0.782959 0.009001 153 0 76
-0.306180 0.724874 0.233424 76 153 0
0.177832 0.919215 -0.207834 153 0 76
-0.040508 0.919215 -0.028320 153 0 76
0.386063 0.919155 0.011699 153 0 76
0.168237 -0.913444 0.215182 0 127 127
-0.101970 0.919215 -0.121761 153 0 76
0.272945 0.446883 -0.374943 0 127 127
-0.039248 0.918630 -0.392348 153 0 76
0.461905 0.479685 0.047382 0 127 127
-0.334115 -0.832829 -0.324594 0 127 127
-0.382703 -0.664052 -0.281150 0 127 127
0.249295 -0.413518 0.400400 0 127 127
-0.316215 0.352764 0.360518 0 127 127
0.015634 0.919215 0.039660 153 0 76
0.366592 0.619350 0.264497 0 127 127
-0.416505 0.589361 0.237115 0 127 127
0.290980 -0.913444 0.029119 0 127 127
0.439610 -0.021899 -0.147955 0 127 127
-0.338374 0.150607 -0.336205 0 127 127
-0.376088 0.781920 -0.186297 153 0 76
-0.445999 -0.259909 0.175920 0 127 127
0.292542 -0.913444 0.079380 0 127 127
0.435079 0.217191 0.166205 0 127 127
0.401389 0.599215 -0.222742 0 127 127
-0.454111 -0.097275 -0.149027 0 127 127
0.046338 0.919215 0.006491 153 0 76
0.086444 0.870646 -0.418389 153 0 76
0.247292 -0.863047 0.363905 0 127 127
0.397746 -0.046542 0.249379 0 127 127
0.329799 -0.910922 -0.124989 0 127 127
0.256415 0.917834 -0.298966 153 0 76
0.128591 0.089165 -0.449867 0 127 127
0.248441 0.315579 0.401055 0 127 127
0.099417 -0.786653 0.464129 0 127 127
0.438640 -0.220516 -0.150297 0 127 127
-0.385691 0.437676 -0.277256 0 127 127
-0.329078 0.890701 -0.281524 153 0 76
-0.170868 0.919215 0.189247 153 0 76
0.452852 -0.032815 0.116147 0 127 127
-0.304937 -0.842425 -0.341070 0 127 127
0.110211 0.919215 -0.002224 153 0 76
-0.421347 -0.283678 -0.228126 0 127 127
-0.324939 0.265588 0.353824 0 127 127
0.075910 -0.139946 -0.460501 0 127 127
0.243373 0.919215 0.098284 153 0 76
0.428369 0.646881 0.022163 76 153 0
0.418232 -0.639424 0.206876 0 127 127
-0.109917 -0.913444 -0.244205 0 127 127
-0.474923 0.351347 0.062010 0 127 127
-0.391693 -0.283598 0.276745 0 127 127
0.136734 -0.675623 0.453804 0 127 127
0.391530 0.498618 0.257481 0 127 127
-0.375473 0.508251 0.297883 0 127 127
-0.122826 0.805105 -0.414514 153 0 76
-0.251167 0.671514 0.318736 0 127 127
-0.408938 0.843399 -0.152572 153 0 76
0.191295 0.919215 0.224825 153 0 76
0.122371 -0.498378 -0.452443 0 127 127
0.247807 -0.850360 -0.367502 0 127 127
-0.323095 -0.066481 0.355239 0 127 127
-0.424430 -0.846961 -0.171151 0 127 127
0.272151 -0.836909 0.365470 0 127 127
0.453366 -0.535790 0.112240 0 127 127
0.138691 -0.618598 -0.445683 0 127 127
0.347408 0.276242 0.314982 0 127 127
0.419986 -0.763329 -0.195331 0 127 127
-0.433930 0.360210 0.205059 0 127 127
0.360454 0.729161 0.125998 76 153 0
0.047189 -0.258065 0.471593 0 127 127
0.341192 0.368090 0.323082 0 127 127
0.230027 0.781619 0.341127 153 0 76
-0.261523 -0.389184 0.402484 0 127 127
0.449163 -0.832432 0.055226 0 127 127
0.323904 -0.538851 -0.335840 0 127 127
0.288328 -0.132666 -0.363139 0 127 127
-0.314559 0.702011 -0.228599 76 153 0
0.440309 -0.296651 0.153577 0 127 127
-0.293812 -0.731612 0.377708 0 127 127
-0.384613 0.217615 0.285971 0 127 127
0.296621 -0.696221 -0.356776 0 127 127
0.380227 0.472728 -0.264901 0 127 127
0.055267 0.419095 -0.463219 0 127 127
0.273803 -0.781445 -0.373977 0 127 127
0.145406 0.919215 0.038822 153 0 76
-0.427968 -0.833630 0.187584 0 127 127
0.353667 -0.577905 -0.299514 0 127 127
0.432428 -0.328073 0.172605 0 127 127
-0.200815 -0.468401 0.433451 0 127 127
0.455996 0.186963 0.092261 0 127 127
0.462319 0.045213 0.044237 0 127 127
-0.154113 -0.889024 0.012915 0 127 127
0.416537 -0.085965 -0.203659 0 127 127
0.090447 -0.906136 -0.365873 0 127 127
0.342193 0.353505 -0.314467 0 127 127
0.416150 0.883231 -0.075910 153 0 76
0.218176 0.919215 0.277217 153 0 76
0.419533 0.337235 0.203736 0 127 127
0.252739 0.637643 0.362333 0 127 127
0.031319 -0.770398 0.473682 0 127 127
-0.433837 -0.125981 -0.197973 0 127 127
0.129143 -0.201933 0.456948 0 127 127
0.415504 -0.872321 -0.099581 0 127 127
0.184605 0.919215 0.094775 153 0 76
0.242074 0.584814 -0.395290 0 127 127
0.147746 0.639236 0.417481 0 127 127
0.453511 -0.275591 -0.103829 0 127 127
-0.482558 0.111574 0.004019 0 127 127
0.092839 0.919215 -0.192375 153 0 76
-0.132558 -0.165126 0.461724 0 127 127
0.361058 0.919215 -0.108851 153 0 76
0.304169 -0.233670 0.358294 0 127 127
-0.320561 -0.207677 -0.349873 0 127 127
0.391062 -0.620755 0.258090 0 127 127
0.452539 -0.506002 0.118523 0 127 127
-0.452025 0.124080 0.161373 0 127 127
0.056454 0.747950 0.388921 76 153 0
0.280477 -0.572551 0.376473 0 127 127
-0.082399 -0.898494 -0.387174 0 127 127
-0.109602 0.919215 0.324279 153 0 76
0.063666 0.295775 0.469423 0 127 127
-0.145801 -0.891657 0.106765 0 127 127
-0.001262 0.729161 0.384650 76 153 0
-0.473127 -0.122699 0.075656 0 127 127
0.138190 -0.434570 -0.445891 0 127 127
-0.262789 -0.530264 -0.394203 0 127 127
0.236536 -0.315251 -0.402880 0 127 127
0.352432 0.652424 -0.231131 0 127 127
0.162887 -0.859507 -0.406149 0 127 127
0.284954 -0.913444 0.165436 0 127 127
0.070077 -0.910102 0.215110 0 127 127
-0.145276 0.782604 0.369048 76 153 0
0.236716 0.420936 -0.402742 0 127 127
-0.073773 -0.361097 0.470060 0 127 127
0.112657 -0.012783 0.462973 0 127 127
0.336007 -0.297799 0.329840 0 127 127
0.041258 -0.438390 0.472373 0 127 127
0.211609 0.917161 0.343153 153 0 76
0.366584 -0.815371 -0.273741 0 127 127
-0.296245 0.683195 0.268481 76 153 0
0.347379 0.666781 -0.203816 0 127 127
-0.224091 0.719692 0.312454 76 153 0
-0.129840 0.144624 -0.455369 0 127 127
0.460462 0.506341 -0.051027 0 127 127
0.460884 -0.714606 -0.047828 0 127 127
-0.335005 0.217016 0.346100 0 127 127
0.103336 0.919215 0.295764 153 0 76
0.134307 0.572233 -0.446771 0 127 127
-0.195110 0.919215 -0.149956 153 0 76
-0.186916 -0.913444 0.227163 0 127 127
-0.295901 0.286767 -0.368795 0 127 127
0.052612 -0.913444 -0.311995 0 127 127
0.400910 0.808325 -0.135875 153 0 76
0.293593 0.030022 0.366409 0 127 127
-0.480309 -0.103802 0.021100 0 127 127
0.187932 -0.135798 -0.425287 0 127 127
-0.406390 0.459305 0.257591 0 127 127
0.456209 -0.356821 -0.083336 0 127 127
-0.455715 0.291475 0.152464 0 127 127
-0.221990 0.919215 0.309825 153 0 76
-0.060741 0.674607 -0.383625 76 153 0
0.348882 -0.137654 0.313061 0 127 127
0.014661 0.541676 -0.468565 0 127 127
0.459337 -0.282746 0.066889 0 127 127
0.459483 -0.140704 0.065780 0 127 127
0.073564 -0.473561 -0.460810 0 127 127
-0.423270 -0.117276 0.230793 0 127 127
0.444835 0.618254 0.062319 0 127 127
-0.181832 0.593882 -0.428587 0 127 127
-0.137667 0.919215 -0.354502 153 0 76
0.100866 0.209011 0.464526 0 127 127
-0.126087 0.833204 0.420700 153 0 76
0.428147 0.640175 -0.065752 0 127 127
0.018281 -0.883055 0.088053 0 127 127
-0.284913 0.919215 0.048903 153 0 76
-0.479360 -0.245809 -0.021003 0 127 127
-0.477521 -0.195443 -0.034969 0 127 127
0.148815 0.196674 0.448800 0 127 127
-0.471121 -0.620878 -0.083579 0 127 127
0.324771 0.406040 0.342485 0 127 127
0.096501 -0.055235 -0.457790 0 127 127
0.193417 0.236373 0.430325 0 127 127
-0.016097 0.783394 -0.415094 153 0 76
0.207204 0.901594 -0.365384 153 0 76
0.399044 0.330628 -0.240378 0 127 127
0.413385 -0.559719 -0.211267 0 127 127
0.255370 0.919215 -0.187195 153 0 76
-0.163672 -0.215462 -0.441526 0 127 127
-0.332263 0.369581 0.348204 0 127 127
-0.065727 -0.701849 0.471120 0 127 127
0.430074 0.328524 0.178286 0 127 127
-0.235750 0.164508 0.418981 0 127 127
-0.121057 0.919215 -0.090957 153 0 76
0.163691 0.919215 0.298218 153 0 76
0.335914 -0.500114 -0.322650 0 127 127
0.306887 0.919215 0.146748 153 0 76
0.262964 0.919215 -0.033348 153 0 76
0.193793 0.870338 -0.379155 153 0 76
-0.386838 -0.029140 -0.275761 0 127 127
0.308294 -0.912338 -0.157017 0 127 127
-0.105462 0.083453 0.465888 0 127 127
-0.481278 0.186322 0.013743 0 127 127
0.397263 0.840966 0.151990 153 0 76
-0.251839 0.919215 -0.104479 153 0 76
0.086226 0.371376 0.466453 0 127 127
-0.469936 0.521745 0.099891 0 127 127
-0.438056 0.528389 0.195097 0 127 127
0.004405 0.454072 -0.469915 0 127 127
-0.164507 0.674525 -0.354640 76 153 0
0.115450 -0.886890 -0.024770 0 127 127
-0.017030 -0.907380 -0.373843 0 127 127
0.343852 0.160917 -0.312306 0 127 127
-0.406869 -0.892482 0.094912 0 127 127
-0.466837 0.074918 0.123436 0 127 127
-0.437043 0.337337 -0.190232 0 127 127
-0.220727 -0.096908 0.425203 0 127 127
0.354733 0.412633 0.305436 0 127 127
-0.432224 0.306072 0.209176 0 127 127
0.133076 0.014823 -0.448009 0 127 127
0.044181 -0.062674 -0.464678 0 127 127
0.107902 -0.318973 0.463600 0 127 127
0.430980 -0.856538 -0.081141 0 127 127
-0.273482 -0.515070 0.393308 0 127 127
-0.215295 -0.913444 -0.143850 0 127 127
-0.476525 -0.532220 -0.042539 0 127 127
0.101254 -0.429293 0.464475 0 127 127
-0.376576 -0.587942 0.296445 0 127 127
0.454678 -0.691590 -0.094968 0 127 127
0.124924 -0.913444 -0.186673 0 127 127
0.352411 -0.726136 -0.301152 0 127 127
-0.389203 0.760352 0.094434 76 153 0
-0.303750 0.490712 -0.362772 0 127 127
0.464810 0.373551 0.025314 0 127 127
0.221692 -0.913444 -0.050970 0 127 127
-0.263425 0.002096 0.401025 0 127 127
0.426307 0.469632 -0.180070 0 127 127
-0.480702 -0.681030 0.018120 0 127 127
0.151103 -0.033165 -0.440542 0 127 127
0.256347 0.007774 0.394989 0 127 127
-0.068014 0.919215 0.215259 153 0 76
0.256011 -0.272344 -0.387936 0 127 127
-0.275019 -0.886990 -0.315455 0 127 127
0.450534 -0.807352 -0.099580 0 127 127
-0.197795 0.627910 0.412128 0 127 127
-0.368895 0.624444 0.275762 0 127 127
-0.337474 0.004868 0.344205 0 127 127
0.311200 -0.045105 0.352899 0 127 127
-0.242854 0.409560 -0.408728 0 127 127
0.087018 0.132432 -0.459039 0 127 127
0.399211 -0.817139 -0.229712 0 127 127
-0.283137 -0.812084 -0.372994 0 127 127
0.368658 0.919030 0.122827 153 0 76
0.201263 -0.014496 0.427075 0 127 127
0.297430 0.535722 -0.356154 0 127 127
-0.468594 -0.428643 -0.102774 0 127 127
-0.192814 0.919215 -0.294567 153 0 76
0.088201 -0.751719 -0.458883 0 127 127
-0.032784 0.431531 0.475456 0 127 127
0.136289 -0.895637 0.380322 0 127 127
-0.470139 0.029722 0.098353 0 127 127
-0.290306 0.641949 0.340296 0 127 127
0.079134 0.245756 -0.460077 0 127 127
0.223773 0.634348 -0.380484 0 127 127
-0.478922 0.357205 0.031636 0 127 127
-0.121419 0.688477 0.378930 76 153 0
-0.373101 0.919215 0.019371 153 0 76
0.237452 0.270610 -0.402177 0 127 127
0.151575 0.140994 0.447657 0 127 127
0.452235 -0.026542 -0.113521 0 127 127
-0.329363 -0.215963 0.350429 0 127 127
-0.180385 -0.519564 -0.434603 0 127 127
-0.043601 0.753182 0.392581 76 153 0
0.426309 0.885096 0.003820 153 0 76
0.314150 -0.794747 -0.341928 0 127 127
-0.085597 -0.069521 -0.461193 0 127 127
-0.197488 -0.590768 -0.427519 0 127 127
-0.471219 -0.073169 -0.082836 0 127 127
0.004807 -0.913444 -0.287314 0 127 127
-0.351509 -0.895649 -0.209963 0 127 127
-0.087709 -0.913444 -0.213894 0 127 127
0.160596 0.005640 -0.436610 0 127 127
-0.354119 0.116857 0.325712 0 127 127
0.457637 0.364561 0.079797 0 127 127
-0.190365 -0.192182 -0.430470 0 127 127
0.059809 0.919215 0.385346 153 0 76
-0.099876 0.819396 -0.418588 153 0 76
-0.338417 0.616418 0.323063 0 127 127
0.339206 0.677512 0.186641 76 153 0
0.293699 0.880349 0.315281 153 0 76
0.017300 -0.887645 -0.127249 0 127 127
0.329806 -0.897632 0.219531 0 127 127
-0.093653 -0.912654 -0.336429 0 127 127
-0.151843 0.235446 -0.446426 0 127 127
0.261698 -0.424979 -0.383573 0 127 127
-0.370982 -0.031568 0.303736 0 127 127
0.241169 0.163751 0.406635 0 127 127
-0.098330 -0.808100 0.463142 0 127 127
-0.232196 0.919215 -0.289030 153 0 76
0.399325 -0.871209 -0.147822 0 127 127
0.360879 0.808589 0.231099 153 0 76
-0.009284 0.266894 0.478550 0 127 127
0.409909 0.644270 0.138019 0 127 127
0.334966 0.732051 0.196877 76 153 0
0.232609 0.180671 -0.405894 0 127 127
-0.302983 0.903512 0.309006 153 0 76
-0.029844 0.919215 0.290109 153 0 76
-0.405141 0.574000 -0.250357 0 127 127
-0.310922 -0.432392 -0.357269 0 127 127
-0.395820 0.912828 0.142405 153 0 76
-0.368777 0.914793 0.198650 153 0 76
0.367498 -0.564185 0.288800 0 127 127
-0.379857 0.199514 -0.284859 0 127 127
-0.426319 0.795895 0.101314 153 0 76
-0.252155 0.236171 -0.402363 0 127 127
0.095590 0.617814 0.450336 0 127 127
-0.473206 -0.529967 0.075056 0 127 127
-0.141514 0.919215 0.356235 153 0 76
-0.420356 -0.151748 0.237828 0 127 127
-0.354336 0.874218 0.259102 153 0 76
0.301586 0.874442 -0.301061 153 0 76
0.296098 0.780458 -0.270402 153 0 76
-0.428849 0.654899 -0.055919 0 127 127
0.022516 -0.837009 -0.453564 0 127 127
-0.434097 -0.665564 0.204655 0 127 127
0.022337 -0.888129 0.138695 0 127 127
-0.458767 0.453254 -0.137786 0 127 127
0.076296 0.700990 0.386309 76 153 0
-0.456931 -0.615245 -0.142218 0 127 127
-0.346661 -0.845472 0.305888 0 127 127
-0.422670 0.578533 -0.220644 0 127 127
0.181501 0.165122 0.435261 0 127 127
0.200683 -0.910951 -0.291254 0 127 127
0.403339 0.782833 -0.056391 153 0 76
0.415422 -0.678795 -0.206349 0 127 127
0.458910 0.212297 0.070133 0 127 127
-0.026068 -0.200017 0.476341 0 127 127
-0.074172 -0.887275 -0.108233 0 127 127
-0.360542 -0.892350 0.213883 0 127 127
0.187428 0.085489 -0.425496 0 127 127
-0.115957 -0.367927 0.464507 0 127 127
0.453074 -0.052615 -0.107151 0 127 127
0.420174 0.808860 0.055013 153 0 76
0.376997 0.091781 0.276420 0 127 127
-0.261588 0.782134 -0.293335 76 153 0
-0.346800 0.201723 -0.327939 0 127 127
-0.286669 -0.569563 -0.375880 0 127 127
-0.172550 -0.899658 -0.117699 0 127 127
-0.355802 -0.867008 0.268297 0 127 127
0.090751 -0.913444 -0.233010 0 127 127
0.057371 -0.160136 0.470252 0 127 127
-0.065340 -0.510581 0.471171 0 127 127
0.154230 -0.898776 -0.358749 0 127 127
-0.251151 0.324491 0.410443 0 127 127
-0.471877 -0.274567 0.085149 0 127 127
-0.422947 -0.800891 -0.218429 0 127 127
0.091946 0.143826 0.465700 0 127 127
-0.063906 -0.913444 -0.264016 0 127 127
-0.159847 -0.913444 -0.219737 0 127 127
0.014827 0.599116 0.469141 0 127 127
0.212194 -0.513181 0.422548 0 127 127
0.417782 -0.014473 0.207964 0 127 127
0.460438 -0.231598 0.058522 0 127 127
0.021206 -0.913444 -0.243969 0 127 127
0.361150 0.521108 -0.289762 0 127 127
-0.435937 -0.008520 0.200212 0 127 127
0.371149 -0.896974 0.135673 0 127 127
-0.176424 0.347786 0.443554 0 127 127
0.121860 0.919215 0.054936 153 0 76
-0.097468 0.919215 -0.320729 153 0 76
0.237444 0.091183 0.409494 0 127 127
0.397969 0.170080 0.249089 0 127 127
-0.175128 0.827263 0.400387 153 0 76
-0.047626 0.643483 0.439929 0 127 127
0.132275 0.479765 0.455651 0 127 127
-0.092370 -0.624432 0.467612 0 127 127
-0.288943 0.641642 -0.334402 0 127 127
-0.451496 -0.813551 -0.142718 0 127 127
-0.096811 0.725455 -0.364690 76 153 0
0.205282 0.422930 0.425411 0 127 127
-0.473789 0.428225 0.070625 0 127 127
-0.426350 -0.725232 0.223357 0 127 127
-0.096835 0.780162 -0.392887 153 0 76
0.278501 0.835379 0.327095 153 0 76
0.105428 -0.910773 -0.340942 0 127 127
0.311429 -0.697410 0.352723 0 127 127
0.456893 -0.237784 0.085453 0 127 127
0.099938 0.919215 0.087835 153 0 76
-0.037806 0.705004 -0.372458 76 153 0
0.273011 -0.707230 -0.374892 0 127 127
-0.479722 -0.162692 -0.018253 0 127 127
0.201641 0.919215 0.132413 153 0 76
0.289556 -0.063126 -0.362197 0 127 127
0.343092 -0.432250 0.320606 0 127 127
0.453684 -0.169858 0.109823 0 127 127
-0.141523 -0.801808 0.455399 0 127 127
-0.349277 -0.874971 -0.257565 0 127 127
-0.413132 0.630266 0.196843 0 127 127
0.007809 -0.881707 -0.069538 0 127 127
0.220098 -0.251763 0.419274 0 127 127
0.068663 -0.887034 -0.405886 0 127 127
0.361827 -0.413568 0.296191 0 127 127
-0.382946 -0.193877 0.288143 0 127 127
-0.184411 -0.068296 -0.432936 0 127 127
0.014868 -0.534176 -0.468538 0 127 127
0.052415 -0.805881 0.467660 0 127 127
-0.244380 0.799256 -0.355742 153 0 76
-0.289116 -0.029372 0.381311 0 127 127
0.134595 0.659753 -0.391104 0 127 127
0.010661 -0.174928 0.476402 0 127 127
0.294560 0.301253 0.365667 0 127 127
-0.346649 -0.795921 -0.326080 0 127 127
-0.173753 0.764688 -0.349943 76 153 0
-0.026441 0.919215 -0.356650 153 0 76
0.214852 0.393123 -0.414137 0 127 127
-0.016248 -0.357171 -0.470323 0 127 127
0.429352 -0.711446 -0.172719 0 127 127
0.216623 0.889107 0.372809 153 0 76
-0.373995 0.810739 -0.226172 153 0 76
0.000590 -0.037367 0.477727 0 127 127
0.408472 0.662206 0.027539 76 153 0
0.123811 0.898616 -0.402412 153 0 76
0.305329 -0.895467 0.258582 0 127 127
-0.447764 -0.312780 -0.164349 0 127 127
0.403720 0.482554 0.241595 0 127 127
0.453301 0.526831 -0.105423 0 127 127
0.281073 -0.909231 -0.226879 0 127 127
-0.305601 -0.853628 0.339204 0 127 127
0.295304 0.161464 -0.357786 0 127 127
0.402018 -0.884653 0.105238 0 127 127
-0.183268 0.919215 0.278839 153 0 76
-0.352598 -0.905710 0.164461 0 127 127
-0.481938 -0.198550 -0.001418 0 127 127
0.102111 -0.583888 -0.457052 0 127 127
-0.233266 -0.568618 -0.412699 0 127 127
0.025305 -0.897922 -0.393884 0 127 127
-0.452458 -0.591000 0.160326 0 127 127
0.122262 -0.803552 -0.449505 0 127 127
0.114571 0.814357 0.419280 153 0 76
-0.288067 0.280307 0.382117 0 127 127
0.429206 0.525505 -0.173072 0 127 127
0.042131 -0.913444 -0.288629 0 127 127
0.457111 0.553789 -0.076486 0 127 127
0.292521 -0.913444 -0.081189 0 127 127
-0.126904 -0.517894 0.463065 0 127 127
-0.322666 0.919215 0.001478 153 0 76
0.441760 -0.167472 -0.142764 0 127 127
0.178738 0.466633 -0.429096 0 127 127
-0.359956 0.520438 -0.310794 0 127 127
0.088998 -0.663228 0.466088 0 127 127
-0.362706 0.706223 -0.123504 76 153 0
-0.182929 -0.412466 0.440860 0 127 127
-0.465573 0.157262 -0.121354 0 127 127
-0.353924 0.919215 0.125447 153 0 76
-0.389993 0.006119 0.278959 0 127 127
0.455944 -0.365614 0.092660 0 127 127
0.464580 -0.408639 -0.019751 0 127 127
0.066289 0.566656 -0.461400 0 127 127
0.003880 -0.409411 -0.469984 0 127 127
0.456974 0.009739 0.084835 0 127 127
0.318775 0.576831 -0.338037 0 127 127
0.251903 -0.344492 -0.391088 0 127 127
-0.436223 -0.862749 -0.114045 0 127 127
-0.165348 0.727414 -0.338856 76 153 0
-0.335811 -0.049470 -0.338171 0 127 127
-0.468763 -0.741760 -0.101491 0 127 127
0.083648 0.901776 0.418657 153 0 76
0.392684 -0.084848 -0.248666 0 127 127
0.014650 0.806038 0.435020 153 0 76
0.225340 -0.913444 0.044605 0 127 127
0.420785 0.309832 -0.193404 0 127 127
-0.255963 -0.812646 -0.393705 0 127 127
-0.207305 -0.290469 0.430763 0 127 127
0.456426 -0.551178 -0.081690 0 127 127
-0.020962 0.780553 0.413971 153 0 76
0.243481 -0.197192 0.404861 0 127 127
0.319699 0.919215 0.014260 153 0 76
0.106439 0.513964 -0.456482 0 127 127
0.371450 0.868524 -0.206997 153 0 76
0.467116 -0.461828 -0.000487 0 127 127
0.297391 -0.619586 0.363495 0 127 127
-0.290064 -0.055657 -0.373274 0 127 127
-0.393353 -0.294402 -0.267271 0 127 127
-0.161144 0.910431 -0.382221 153 0 76
0.319078 -0.500692 0.346854 0 127 127
-0.045814 0.771051 -0.384979 153 0 76
0.197084 -0.566655 -0.421496 0 127 127
-0.038556 -0.888102 -0.130958 0 127 127
-0.437418 0.224758 -0.189327 0 127 127
0.176028 -0.837200 -0.415129 0 127 127
-0.425711 0.284511 -0.217590 0 127 127
0.285224 -0.884973 -0.299744 0 127 127
0.279470 0.457902 0.377246 0 127 127
-0.372865 -0.879459 -0.218489 0 127 127
-0.395655 -0.638712 -0.264271 0 127 127
-0.156140 0.803927 0.407916 153 0 76
0.443220 -0.827676 0.115882 0 127 127
-0.040872 0.264061 -0.467082 0 127 127
0.417391 -0.015565 -0.201597 0 127 127
-0.335488 0.797437 0.280419 153 0 76
-0.308796 0.332238 -0.358900 0 127 127
0.425067 -0.408950 0.190376 0 127 127
-0.184451 0.538610 0.440229 0 127 127
-0.043850 0.856290 0.433274 153 0 76
-0.376371 -0.494404 -0.289402 0 127 127
-0.462780 -0.458086 -0.128096 0 127 127
0.288863 0.400420 -0.362728 0 127 127
-0.076136 0.173367 -0.462439 0 127 127
-0.403108 0.211270 -0.254557 0 127 127
-0.316497 -0.767898 0.360301 0 127 127
-0.121227 -0.221870 -0.456503 0 127 127
0.304581 0.378084 -0.350668 0 127 127
0.243173 0.919215 -0.270860 153 0 76
-0.034010 0.147450 0.475295 0 127 127
0.176285 0.919215 -0.119947 153 0 76
0.322525 0.283133 0.344208 0 127 127
-0.064888 0.050231 -0.463920 0 127 127
0.452619 -0.443173 0.117915 0 127 127
-0.430698 0.833105 -0.081287 153 0 76
-0.226431 0.919215 0.259966 153 0 76
0.077122 0.337933 0.467652 0 127 127
0.312990 -0.377837 0.351525 0 127 127
-0.438994 0.827466 -0.018271 153 0 76
0.462436 -0.551197 0.043343 0 127 127
0.348460 0.055906 0.313611 0 127 127
0.120696 -0.913444 0.248826 0 127 127
-0.014975 -0.266409 -0.470491 0 127 127
-0.192467 -0.003090 -0.429599 0 127 127
0.157327 -0.366734 0.445274 0 127 127
-0.156159 -0.236136 0.451948 0 127 127
0.462230 0.210249 0.044912 0 127 127
0.335057 -0.063963 0.331077 0 127 127
0.301254 -0.342773 0.360531 0 127 127
-0.468778 0.260109 -0.101378 0 127 127
0.287946 0.715741 0.237710 76 153 0
0.425360 0.052950 -0.182359 0 127 127
-0.224842 0.503326 0.423499 0 127 127
-0.202533 0.086382 -0.425430 0 127 127
-0.105512 -0.770458 0.465882 0 127 127
-0.127052 -0.913444 -0.295509 0 127 127
0.244492 0.321669 -0.396776 0 127 127
-0.282409 -0.913444 -0.051932 0 127 127
0.336100 -0.907110 0.157526 0 127 127
0.431248 -0.243309 0.175454 0 127 127
-0.410578 -0.064212 -0.244822 0 127 127
0.222613 0.385255 0.418232 0 127 127
-0.320096 0.700146 0.237397 76 153 0
0.442811 0.287156 0.147537 0 127 127
-0.398592 0.702011 0.001303 76 153 0
0.463039 -0.795411 0.029946 0 127 127
-0.370824 -0.258545 -0.296631 0 127 127
-0.000820 0.051785 -0.470603 0 127 127
-0.206449 0.847881 -0.380103 153 0 76
-0.281726 -0.623240 -0.379672 0 127 127
0.445958 -0.748359 -0.132630 0 127 127
0.126351 -0.188071 -0.450795 0 127 127
-0.185427 0.111286 0.439825 0 127 127
-0.473054 -0.794458 -0.060555 0 127 127
0.008906 0.771323 0.395181 76 153 0
0.390004 0.631900 -0.205963 0 127 127
0.055539 -0.878406 0.425347 0 127 127
0.189085 0.219590 -0.424810 0 127 127
0.464396 0.399218 0.028457 0 127 127
0.423789 0.864406 -0.020249 153 0 76
0.389037 -0.900471 0.004981 0 127 127
-0.097112 0.020286 -0.459677 0 127 127
-0.433425 0.135023 0.206276 0 127 127
0.294160 -0.607552 -0.358664 0 127 127
0.262470 -0.910763 0.245886 0 127 127
0.132387 -0.302066 0.455605 0 127 127
0.325998 0.053545 0.341543 0 127 127
-0.408457 0.382242 0.254897 0 127 127
0.457898 0.087596 -0.070505 0 127 127
0.266416 0.508819 -0.379953 0 127 127
-0.350909 0.541852 -0.322585 0 127 127
-0.057087 -0.755264 0.472257 0 127 127
0.198591 0.762340 0.337518 76 153 0
0.354907 0.782555 -0.204782 153 0 76
0.280681 0.029983 -0.369007 0 127 127
-0.019121 -0.832600 0.465463 0 127 127
0.408826 -0.400737 0.229584 0 127 127
-0.469050 0.216490 -0.099317 0 127 127
-0.413880 0.916207 -0.016003 153 0 76
-0.397014 0.669966 -0.106325 0 127 127
0.180404 0.843163 0.392011 153 0 76
-0.036235 -0.236026 -0.467692 0 127 127
-0.233483 -0.063845 -0.412610 0 127 127
-0.199785 -0.042017 -0.426568 0 127 127
0.330480 0.012443 0.337042 0 127 127
0.326704 0.757660 -0.202000 76 153 0
0.194288 0.705375 -0.316544 76 153 0
0.180444 0.687492 0.348291 76 153 0
-0.365484 0.737023 -0.151969 76 153 0
-0.227039 0.233018 -0.415279 0 127 127
-0.068335 -0.858831 -0.436417 0 127 127
0.405633 -0.066190 -0.229983 0 127 127
0.405034 -0.193862 0.238740 0 127 127
-0.088727 0.661264 0.413430 76 153 0
0.066740 -0.546083 0.469019 0 127 127
-0.031401 0.289155 -0.468329 0 127 127
-0.468342 -0.180903 -0.104688 0 127 127
-0.434119 -0.862450 0.127113 0 127 127
-0.264165 -0.095648 -0.393147 0 127 127
0.464568 0.022060 0.027153 0 127 127
0.331662 -0.412395 -0.328191 0 127 127
-0.226724 0.919215 0.079132 153 0 76
-0.358921 0.389650 -0.312143 0 127 127
-0.073386 0.919215 -0.202656 153 0 76
-0.266828 -0.230155 0.398414 0 127 127
0.405760 -0.393724 -0.229676 0 127 127
-0.110864 -0.220407 0.465177 0 127 127
0.005574 0.919215 0.170206 153 0 76
-0.140053 0.465029 -0.451310 0 127 127
0.362910 0.780851 0.147882 153 0 76
0.463077 -0.331078 0.038479 0 127 127
0.273382 -0.784431 0.381365 0 127 127
0.187327 0.034881 -0.425538 0 127 127
0.417339 -0.601738 -0.201722 0 127 127
0.433901 0.245077 -0.161737 0 127 127
-0.168808 -0.618981 -0.439399 0 127 127
-0.047705 0.318180 -0.466182 0 127 127
0.104071 -0.887290 0.071058 0 127 127
-0.363206 0.351841 0.313869 0 127 127
0.337085 0.783247 0.193025 153 0 76
-0.320343 0.919215 0.164163 153 0 76
-0.381012 -0.129878 -0.283353 0 127 127
-0.010793 0.192634 -0.471042 0 127 127
-0.283765 -0.844298 -0.356162 0 127 127
0.317136 0.752214 0.221779 76 153 0
0.372820 -0.238531 -0.274554 0 127 127
0.289165 -0.739366 0.369807 0 127 127
-0.183438 0.868135 -0.389635 153 0 76
-0.233439 0.649232 0.375063 0 127 127
0.245153 -0.041832 0.403578 0 127 127
-0.437782 -0.737860 -0.188448 0 127 127
-0.305498 -0.243261 0.368741 0 127 127
-0.468018 -0.687451 -0.107152 0 127 127
-0.375810 0.663195 -0.189098 76 153 0
-0.214141 0.660674 -0.362894 0 127 127
-0.010436 -0.068893 0.478399 0 127 127
-0.459580 -0.029142 -0.135823 0 127 127
0.055167 0.702011 -0.375186 76 153 0
-0.250432 0.131753 -0.403685 0 127 127
-0.422550 0.240832 0.232530 0 127 127
-0.152481 0.278258 0.453472 0 127 127
0.426283 -0.118417 0.187439 0 127 127
-0.426992 0.474156 0.221807 0 127 127
-0.324782 0.650562 0.297552 0 127 127
-0.478487 0.064142 -0.027630 0 127 127
0.453887 -0.458591 -0.100972 0 127 127
0.360286 0.362758 0.298199 0 127 127
-0.160168 -0.325242 -0.442978 0 127 127
0.361301 0.752702 -0.125988 76 153 0
-0.234178 0.677040 -0.314368 0 127 127
-0.109981 -0.899655 0.182906 0 127 127
0.304004 0.036797 -0.351110 0 127 127
0.072899 0.919215 0.030448 153 0 76
0.404723 0.871452 0.133979 153 0 76
-0.469800 -0.134352 -0.093618 0 127 127
0.161668 -0.327741 -0.436166 0 127 127
-0.238072 -0.884869 -0.347540 0 127 127
-0.251630 -0.188535 -0.402766 0 127 127
-0.109362 0.624264 -0.439332 0 127 127
0.040607 0.530983 -0.465149 0 127 127
0.306712 -0.740863 -0.349032 0 127 127
-0.312813 -0.913444 0.097167 0 127 127
0.178958 -0.903195 0.346117 0 127 127
0.127099 0.252397 -0.450485 0 127 127
-0.409498 0.247518 -0.246230 0 127 127
0.138157 0.919215 -0.105071 153 0 76
-0.023546 0.919215 -0.097980 153 0 76
0.376351 0.395052 0.277263 0 127 127
-0.049409 -0.286976 -0.465958 0 127 127
0.463306 -0.046205 -0.029426 0 127 127
0.056660 0.825341 0.429620 153 0 76
-0.122709 0.725137 0.363828 76 153 0
-0.478075 -0.620275 0.038071 0 127 127
-0.302993 0.094058 -0.363353 0 127 127
0.331764 -0.412604 0.335370 0 127 127
0.013910 -0.750236 -0.468664 0 127 127
-0.006827 0.888171 0.436761 153 0 76
0.352485 -0.687426 0.308365 0 127 127
0.188826 -0.626287 -0.424917 0 127 127
-0.189558 0.262155 -0.430804 0 127 127
-0.476459 -0.381725 0.050344 0 127 127
-0.388215 -0.259720 -0.273966 0 127 127
0.350136 -0.327631 0.311427 0 127 127
0.453476 -0.392065 -0.104097 0 127 127
0.091319 -0.325683 -0.458473 0 127 127
-0.281649 -0.913444 -0.174017 0 127 127
-0.214065 -0.336133 0.427963 0 127 127
0.260145 -0.459684 0.392074 0 127 127
0.417591 -0.882124 -0.001544 0 127 127
0.046003 -0.913444 0.335185 0 127 127
-0.107959 0.919215 0.090920 153 0 76
-0.356586 0.160984 -0.315187 0 127 127
0.449372 -0.258121 0.131698 0 127 127
0.461094 0.535037 -0.046227 0 127 127
0.314487 0.434451 -0.343066 0 127 127
0.284754 -0.011600 -0.365881 0 127 127
-0.208226 -0.913444 0.184326 0 127 127
-0.310188 -0.483003 -0.357832 0 127 127
-0.393702 -0.247216 0.274125 0 127 127
-0.218772 0.898400 -0.369383 153 0 76
0.173901 -0.909614 -0.128084 0 127 127
-0.055390 -0.879098 0.014158 0 127 127
-0.080614 0.919215 0.279102 153 0 76
-0.425154 0.126063 -0.218933 0 127 127
-0.289225 0.919215 0.167610 153 0 76
0.045714 -0.888119 -0.123341 0 127 127
0.269321 -0.400983 -0.377723 0 127 127
0.195726 -0.457959 -0.422059 0 127 127
-0.390298 -0.905930 0.002134 0 127 127
0.454290 -0.189150 -0.097908 0 127 127
0.064504 0.919215 0.297138 153 0 76
-0.372069 0.130718 -0.295008 0 127 127
0.215187 -0.294332 -0.413998 0 127 127
0.294069 -0.821278 -0.349368 0 127 127
0.158317 0.701780 0.357456 76 153 0
-0.087447 0.868966 -0.420224 153 0 76
-0.262840 -0.855568 0.370395 0 127 127
0.432817 0.173638 0.171665 0 127 127
-0.131285 0.781842 0.399493 153 0 76
0.407092 0.080817 0.233771 0 127 127
0.370664 -0.030218 -0.277364 0 127 127
-0.176337 0.780765 0.376743 153 0 76
-0.476593 0.207838 0.049329 0 127 127
0.090974 0.291130 -0.458518 0 127 127
0.462484 0.172752 0.042983 0 127 127
-0.072137 -0.907476 -0.366303 0 127 127
0.415558 0.186871 0.213333 0 127 127
0.226637 -0.913444 0.091740 0 127 127
-0.323864 0.062838 0.354648 0 127 127
-0.474737 -0.068383 0.063424 0 127 127
0.256427 0.919215 0.015786 153 0 76
0.167654 0.114489 0.440997 0 127 127
-0.267730 -0.565683 0.397722 0 127 127
0.017826 0.919215 -0.351754 153 0 76
0.357653 -0.750110 0.301630 0 127 127
0.460502 0.131382 -0.050726 0 127 127
-0.253554 -0.587959 -0.401289 0 127 127
-0.259393 0.106008 0.404119 0 127 127
0.460285 -0.178151 -0.052374 0 127 127
0.310186 0.919215 -0.187112 153 0 76
-0.299239 -0.105031 0.373544 0 127 127
-0.473264 0.175816 -0.067307 0 127 127
-0.389975 0.843026 0.205663 153 0 76
-0.199429 0.507790 -0.426715 0 127 127
-0.085399 0.919215 0.194419 153 0 76
0.404503 0.410590 0.240022 0 127 127
-0.115811 -0.342679 -0.457216 0 127 127
-0.117043 -0.907435 -0.188953 0 127 127
0.418264 0.835544 -0.062217 153 0 76
0.427815 -0.382188 0.183740 0 127 127
-0.069642 -0.176914 0.470604 0 127 127
0.380722 -0.633166 -0.264256 0 127 127
-0.308215 0.551769 -0.359347 0 127 127
-0.286834 -0.749978 -0.375752 0 127 127
0.360874 -0.807484 0.291630 0 127 127
-0.062586 -0.086172 -0.464223 0 127 127
0.268015 0.674803 0.284418 76 153 0
-0.289768 -0.913444 -0.019810 0 127 127
-0.341955 -0.266073 0.340767 0 127 127
-0.275164 0.919215 0.095087 153 0 76
0.187216 -0.906883 -0.322108 0 127 127
-0.285517 0.857019 -0.325869 153 0 76
0.232939 0.233803 0.412950 0 127 127
0.013270 0.819298 -0.428022 153 0 76
0.269994 -0.051455 -0.377207 0 127 127
-0.347383 0.843067 -0.260853 153 0 76
-0.392795 0.823600 -0.191546 153 0 76
0.099524 -0.483020 0.464703 0 127 127
0.460337 0.439191 0.059288 0 127 127
0.170138 0.646038 -0.393979 0 127 127
0.239847 -0.098270 -0.400340 0 127 127
0.155872 0.701539 -0.351159 76 153 0
-0.031106 -0.473646 0.475677 0 127 127
-0.432932 0.870953 -0.064313 153 0 76
0.273755 0.354165 -0.374321 0 127 127
-0.247564 0.658826 0.349363 0 127 127
-0.083305 -0.913444 0.226289 0 127 127
-0.418943 0.458371 -0.233921 0 127 127
0.315355 0.919022 -0.221584 153 0 76
0.220848 0.848608 0.371334 153 0 76
0.378852 0.751811 -0.052235 76 153 0
0.384427 0.616064 0.243912 0 127 127
0.069780 0.909845 -0.405737 153 0 76
-0.241670 -0.487511 0.416528 0 127 127
-0.364811 -0.440870 0.311777 0 127 127
-0.143983 0.570426 -0.449079 0 127 127
0.253973 -0.874214 -0.339055 0 127 127
0.447845 0.454588 0.135386 0 127 127
0.000908 0.103981 -0.470375 0 127 127
-0.436462 0.569962 -0.190240 0 127 127
-0.466769 -0.591378 -0.116641 0 127 127
-0.210393 -0.897848 0.004846 0 127 127
0.205693 0.919215 -0.237707 153 0 76
0.300304 -0.020593 0.361260 0 127 127
0.202732 0.021577 0.426467 0 127 127
0.152028 -0.225626 -0.440159 0 127 127
0.181155 0.753475 -0.340686 76 153 0
-0.438005 0.650784 0.030787 0 127 127
0.107816 0.671449 0.387211 76 153 0
-0.035208 -0.541761 -0.467827 0 127 127
0.218464 0.670604 0.335110 76 153 0
0.185086 -0.473207 0.433776 0 127 127
-0.323641 -0.022123 -0.347510 0 127 127
-0.328000 0.393957 0.351475 0 127 127
-0.083986 -0.912397 0.348936 0 127 127
0.389275 -0.341415 0.260419 0 127 127
0.175236 0.919215 -0.320265 153 0 76
0.128221 0.745295 -0.362612 76 153 0
0.165694 0.919215 -0.269059 153 0 76
0.224007 0.919215 0.061199 153 0 76
-0.446018 -0.794448 -0.165719 0 127 127
0.301246 0.378344 0.360536 0 127 127
0.391192 0.669221 -0.058321 0 127 127
0.273814 0.653555 -0.318891 0 127 127
-0.080669 -0.872661 0.430288 0 127 127
0.145414 0.919215 0.327958 153 0 76
-0.134967 -0.651017 -0.453416 0 127 127
-0.475556 -0.597493 -0.049894 0 127 127
0.231790 -0.913444 -0.208220 0 127 127
0.317040 0.918007 0.237596 153 0 76
0.140655 -0.858818 0.423162 0 127 127
-0.354649 0.595681 0.316033 0 127 127
0.400033 0.895380 -0.128292 153 0 76
-0.338139 -0.566088 -0.336385 0 127 127
0.022885 -0.852462 0.451998 0 127 127
0.451514 -0.556239 0.126306 0 127 127
0.242867 -0.689212 0.405332 0 127 127
0.209406 -0.913444 0.206593 0 127 127
0.050418 0.021564 -0.463857 0 127 127
0.411981 -0.111272 -0.214657 0 127 127
0.144470 -0.637589 0.450600 0 127 127
-0.481929 -0.458552 -0.001490 0 127 127
0.207915 0.158739 -0.417010 0 127 127
0.075295 -0.085326 0.467892 0 127 127
-0.025461 -0.811221 -0.464804 0 127 127
-0.478661 -0.476872 0.033622 0 127 127
-0.349525 0.156535 0.331699 0 127 127
0.419302 0.511978 -0.196984 0 127 127
0.076694 0.256281 0.467708 0 127 127
0.043961 -0.787390 -0.464072 0 127 127
-0.145562 -0.601668 -0.449028 0 127 127
0.004158 -0.875333 0.005818 0 127 127
0.261834 -0.913444 -0.167783 0 127 127
-0.037762 0.105440 0.474801 0 127 127
-0.313556 0.241126 0.362558 0 127 127
-0.230224 -0.281827 0.421270 0 127 127
0.196361 -0.901561 0.052919 0 127 127
-0.419843 -0.281754 0.239066 0 127 127
-0.478814 -0.034025 -0.025151 0 127 127
-0.057151 0.536189 -0.464938 0 127 127
0.405086 -0.636392 -0.231303 0 127 127
-0.247363 0.733696 0.311561 76 153 0
0.253531 0.610794 0.382906 0 127 127
0.195161 0.627895 0.407039 0 127 127
-0.366409 -0.151492 0.309695 0 127 127
0.073002 -0.458480 0.468194 0 127 127
-0.402875 0.419388 -0.254861 0 127 127
0.333791 -0.678118 -0.325418 0 127 127
-0.376886 0.117733 0.296042 0 127 127
0.464908 0.383061 -0.017257 0 127 127
0.135628 -0.900845 -0.147630 0 127 127
-0.117402 0.919215 -0.009250 153 0 76
-0.391205 -0.748184 -0.270070 0 127 127
-0.285579 0.425196 0.384026 0 127 127
0.106913 0.384408 0.463730 0 127 127
-0.056449 -0.740620 -0.465031 0 127 127
-0.482154 0.398796 0.000223 0 127 127
0.256371 0.288256 0.394970 0 127 127
0.404342 -0.717899 -0.233099 0 127 127
0.212582 -0.177830 -0.415077 0 127 127
0.285261 0.919215 -0.173380 153 0 76
0.356805 0.872597 0.236408 153 0 76
-0.177949 -0.244758 -0.435613 0 127 127
0.395610 -0.359659 -0.244854 0 127 127
-0.227960 -0.338538 -0.414897 0 127 127
0.021964 0.919215 -0.083645 153 0 76
-0.468960 0.107811 -0.099994 0 127 127
-0.419277 -0.574230 0.240433 0 127 127
0.462570 -0.739192 -0.035016 0 127 127
0.352825 0.104128 -0.300612 0 127 127
0.023013 0.325510 0.474775 0 127 127
-0.473797 -0.099208 -0.063258 0 127 127
-0.150145 0.919215 -0.265752 153 0 76
0.145410 0.919215 0.008395 153 0 76
-0.165264 0.110717 -0.440867 0 127 127
-0.050661 0.196696 0.473103 0 127 127
-0.146605 -0.913444 -0.260651 0 127 127
-0.443286 -0.696494 -0.175161 0 127 127
-0.264483 0.919215 0.066068 153 0 76
-0.007333 0.919215 -0.314068 153 0 76
0.067770 -0.552306 -0.461573 0 127 127
-0.382353 -0.884912 0.193393 0 127 127
-0.079432 0.919215 0.359324 153 0 76
-0.480320 -0.761573 -0.013707 0 127 127
0.269171 0.201714 0.385149 0 127 127
-0.237109 -0.913444 0.150707 0 127 127
-0.097466 0.347941 -0.459631 0 127 127
-0.470225 -0.546901 -0.090390 0 127 127
-0.271512 0.735635 -0.285720 76 153 0
0.292857 0.699751 -0.246110 76 153 0
0.360823 -0.623935 0.297499 0 127 127
-0.457448 -0.829908 -0.107950 0 127 127
0.257819 0.462767 -0.386549 0 127 127
0.071180 0.830394 -0.420398 153 0 76
0.019901 0.919215 0.300782 153 0 76
0.404482 -0.143270 0.240071 0 127 127
0.428768 -0.451135 0.181441 0 127 127
0.462435 -0.420662 0.043357 0 127 127
0.241241 0.017620 -0.399270 0 127 127
-0.162891 -0.264511 0.449160 0 127 127
0.296929 0.730336 -0.240802 76 153 0
-0.216169 0.919215 0.233305 153 0 76
-0.147907 0.919215 0.073011 153 0 76
0.207495 -0.704810 -0.417184 0 127 127
-0.001315 -0.808819 0.474150 0 127 127
0.315095 -0.913444 0.069841 0 127 127
0.412616 -0.434359 0.220436 0 127 127
-0.128202 -0.913444 0.253482 0 127 127
0.027895 -0.019502 -0.466823 0 127 127
-0.360321 0.251792 0.317629 0 127 127
-0.159063 -0.913149 0.309903 0 127 127
0.338687 0.225006 -0.319037 0 127 127
0.077614 -0.900063 0.190977 0 127 127
0.370235 -0.562915 -0.277923 0 127 127
0.425607 -0.290274 -0.181762 0 127 127
0.273598 0.077253 -0.374442 0 127 127
0.007127 -0.908993 -0.368064 0 127 127
-0.353254 0.012573 0.326839 0 127 127
-0.142063 0.657171 0.405582 0 127 127
0.222601 -0.913444 -0.124692 0 127 127
-0.458421 -0.730306 -0.138621 0 127 127
-0.116565 0.393225 -0.457116 0 127 127
-0.258209 -0.349549 0.405028 0 127 127
-0.169619 0.919215 -0.008070 153 0 76
-0.436960 -0.867702 -0.080890 0 127 127
0.416045 0.851697 0.086377 153 0 76
0.361828 -0.769502 -0.288879 0 127 127
0.456736 0.303638 0.086643 0 127 127
-0.478534 -0.554250 0.034584 0 127 127
-0.413632 0.871122 0.148551 153 0 76
-0.219166 -0.237677 0.425850 0 127 127
0.358233 0.581933 0.297321 0 127 127
-0.400925 0.608948 0.247644 0 127 127
0.432417 0.037549 0.172630 0 127 127
-0.409630 0.910831 -0.109499 153 0 76
-0.110174 0.287307 0.465268 0 127 127
-0.366762 0.314426 -0.301925 0 127 127
-0.203070 0.405996 -0.425207 0 127 127
-0.000599 -0.848598 -0.450362 0 127 127
-0.287633 -0.898421 -0.282298 0 127 127
-0.047963 0.385852 0.473458 0 127 127
-0.372317 0.573243 -0.293325 0 127 127
-0.113511 -0.566797 -0.457519 0 127 127
0.439645 -0.108977 -0.147871 0 127 127
0.105848 -0.140468 0.463870 0 127 127
-0.154015 0.146042 -0.445526 0 127 127
0.454548 0.209594 -0.095954 0 127 127
-0.169231 0.185695 0.446534 0 127 127
-0.420779 0.085586 0.236808 0 127 127
-0.217377 -0.905009 -0.317333 0 127 127
-0.336744 -0.849992 -0.306611 0 127 127
-0.389738 0.048075 -0.271981 0 127 127
0.293223 0.855965 0.315798 153 0 76
-0.059662 0.919215 -0.307659 153 0 76
0.307281 -0.163580 0.355906 0 127 127
0.267339 0.677287 -0.277455 0 127 127
0.396306 0.370295 0.251256 0 127 127
0.089094 0.180155 0.466076 0 127 127
0.437166 0.574858 -0.151042 0 127 127
0.454168 0.428746 -0.098841 0 127 127
0.034774 0.361738 0.473227 0 127 127
0.454088 -0.114532 -0.099449 0 127 127
-0.233347 0.919215 -0.003681 153 0 76
-0.213191 0.452603 -0.421015 0 127 127
-0.359382 0.055400 0.318853 0 127 127
0.333168 -0.239935 0.333539 0 127 127
0.011529 0.128835 -0.468977 0 127 127
0.159766 0.403005 0.444264 0 127 127
-0.284155 0.919215 -0.074157 153 0 76
0.380151 -0.897406 0.111671 0 127 127
-0.135095 -0.020148 0.460673 0 127 127
0.005560 0.186937 0.477073 0 127 127
-0.396514 0.322254 -0.263152 0 127 127
0.016307 0.416865 0.475658 0 127 127
-0.466479 -0.306918 -0.118846 0 127 127
0.223426 0.919215 -0.092767 153 0 76
0.449826 -0.693130 0.130601 0 127 127
-0.084904 -0.832703 0.456752 0 127 127
-0.203922 0.805216 -0.380934 153 0 76
-0.176223 -0.891636 0.041903 0 127 127
0.125631 0.653856 0.410460 0 127 127
0.420671 0.646599 0.082704 0 127 127
0.086040 -0.603955 -0.459168 0 127 127
-0.312185 0.919215 0.084180 153 0 76
-0.477373 -0.763634 0.043406 0 127 127
0.459471 -0.526643 0.065871 0 127 127
0.212221 0.668226 -0.338474 0 127 127
-0.037138 -0.423150 0.474883 0 127 127
-0.268626 -0.048357 -0.389724 0 127 127
0.310882 0.340398 0.353143 0 127 127
0.416281 0.243111 0.211586 0 127 127
0.466951 -0.186763 -0.001738 0 127 127
0.302470 0.919215 0.204297 153 0 76
-0.479816 -0.428818 0.024851 0 127 127
0.455695 -0.712831 0.094547 0 127 127
0.381976 0.733652 0.035820 76 153 0
0.436503 0.620679 -0.107926 0 127 127
0.100876 -0.890218 0.120106 0 127 127
0.044515 0.883122 0.430915 153 0 76
-0.039593 0.849525 -0.426524 153 0 76
0.112910 0.316815 -0.455630 0 127 127
0.457368 0.429321 -0.074534 0 127 127
-0.477581 -0.711359 0.041825 0 127 127
0.380178 -0.700958 -0.264965 0 127 127
-0.221984 -0.740564 -0.417372 0 127 127
0.296350 0.163746 0.364294 0 127 127
-0.447633 -0.078626 -0.164665 0 127 127
0.286669 -0.846173 -0.341178 0 127 127
0.408053 -0.307581 -0.224140 0 127 127
-0.225907 0.547646 -0.415748 0 127 127
0.203688 0.498688 0.426071 0 127 127
-0.473530 0.061444 -0.065284 0 127 127
0.451768 0.059757 -0.117072 0 127 127
-0.456595 0.095049 -0.143030 0 127 127
0.200710 0.780340 -0.349026 153 0 76
0.016324 0.319609 -0.468346 0 127 127
0.413251 0.902239 0.048962 153 0 76
0.333150 -0.251387 -0.326252 0 127 127
0.343613 0.104311 0.319927 0 127 127
0.452200 0.384355 0.121098 0 127 127
0.032956 -0.868154 -0.431244 0 127 127
0.256795 0.832982 -0.336440 153 0 76
0.012508 0.401254 -0.468848 0 127 127
0.410209 -0.182264 -0.218935 0 127 127
-0.465181 0.553497 0.129611 0 127 127
-0.042657 0.919215 -0.201690 153 0 76
-0.056064 0.919215 0.022859 153 0 76
0.335253 -0.903167 -0.182352 0 127 127
0.232334 -0.557606 0.413414 0 127 127
-0.124618 -0.893111 -0.141942 0 127 127
-0.379112 0.606312 -0.270506 0 127 127
0.445343 0.133671 0.141425 0 127 127
-0.272056 -0.263498 0.394402 0 127 127
-0.399358 0.470972 -0.259445 0 127 127
0.455409 -0.589600 0.096724 0 127 127
0.339509 -0.349718 -0.317966 0 127 127
-0.006618 0.919215 0.027722 153 0 76
0.463837 0.245851 -0.025397 0 127 127
0.443877 -0.043553 0.144965 0 127 127
0.210931 0.285833 0.423071 0 127 127
-0.358872 -0.800564 0.315957 0 127 127
-0.226714 0.628950 -0.392134 0 127 127
-0.166297 -0.409469 -0.440439 0 127 127
-0.182946 0.069068 0.440853 0 127 127
0.048617 0.919215 0.194467 153 0 76
0.174395 0.762666 0.350796 76 153 0
0.458832 -0.066496 -0.063410 0 127 127
-0.344856 0.919215 -0.163665 153 0 76
0.267105 -0.653019 0.386734 0 127 127
0.240598 0.436063 0.407074 0 127 127
-0.419383 -0.655668 -0.232867 0 127 127
-0.014334 -0.650065 -0.470575 0 127 127
-0.098470 0.919215 -0.273834 153 0 76
0.043195 0.554925 0.472118 0 127 127
-0.094375 0.909543 0.412120 153 0 76
-0.307355 0.880600 -0.308939 153 0 76
0.378171 -0.608790 0.274890 0 127 127
-0.212070 -0.871141 0.388514 0 127 127
0.272263 0.775074 -0.272949 76 153 0
-0.457149 0.048460 -0.141692 0 127 127
-0.234445 0.014376 -0.412211 0 127 127
0.401239 -0.554974 -0.237518 0 127 127
0.299687 -0.913444 -0.133060 0 127 127
0.354557 -0.154318 -0.298354 0 127 127
-0.345159 0.881464 -0.263433 153 0 76
-0.043442 0.389073 -0.466743 0 127 127
0.031922 0.718228 0.378576 76 153 0
0.188696 0.451960 0.432281 0 127 127
-0.065235 -0.333012 0.471184 0 127 127
-0.154708 -0.167291 -0.445239 0 127 127
-0.081308 0.759784 -0.380307 76 153 0
0.431200 -0.090652 0.175569 0 127 127
-0.101963 0.481018 -0.459039 0 127 127
0.019236 -0.877378 -0.014011 0 127 127
0.403201 0.659016 -0.095873 0 127 127
0.424653 0.416756 0.191374 0 127 127
-0.421036 0.803799 0.129834 153 0 76
-0.399532 -0.434883 0.266528 0 127 127
-0.275087 -0.409458 -0.384766 0 127 127
0.282179 -0.913444 -0.016600 0 127 127
0.171646 0.919215 0.148167 153 0 76
0.198580 -0.013486 -0.420877 0 127 127
-0.480682 0.506944 0.018267 0 127 127
0.150430 -0.813685 -0.435545 0 127 127
0.144481 -0.043887 0.450595 0 127 127
-0.280200 0.323254 0.388153 0 127 127
0.345559 -0.582747 0.317392 0 127 127
-0.246812 -0.622054 -0.406463 0 127 127
-0.341046 -0.452357 -0.334154 0 127 127
0.446460 -0.077540 0.138729 0 127 127
0.201893 0.746700 -0.327673 76 153 0
-0.382150 0.702011 -0.038189 76 153 0
-0.321606 0.449260 0.356381 0 127 127
-0.212372 0.812050 0.384960 153 0 76
0.270256 0.162358 0.384316 0 127 127
-0.306536 0.919215 -0.184682 153 0 76
-0.357954 -0.320564 -0.313404 0 127 127
-0.408664 0.891714 -0.147277 153 0 76
0.114624 -0.913444 -0.222157 0 127 127
-0.045992 -0.057984 0.473718 0 127 127
-0.243457 -0.913444 0.049088 0 127 127
-0.051344 0.522770 0.473013 0 127 127
-0.387119 0.747638 -0.099737 76 153 0
-0.040306 -0.913444 -0.326991 0 127 127
-0.111067 0.876076 -0.417114 153 0 76
0.442420 -0.604916 -0.141172 0 127 127
0.441292 0.610455 0.118658 0 127 127
-0.054067 0.065511 0.472654 0 127 127
0.090861 -0.913185 0.331369 0 127 127
0.370043 0.704720 0.023341 76 153 0
0.419111 -0.739861 0.204755 0 127 127
0.247936 0.780229 0.313840 153 0 76
0.270696 0.622811 -0.354406 0 127 127
-0.455232 0.559179 -0.146321 0 127 127
-0.073646 0.139723 -0.462767 0 127 127
-0.156410 0.919215 -0.335066 153 0 76
0.112355 -0.699328 0.463013 0 127 127
0.327279 -0.646684 0.340561 0 127 127
0.160192 -0.765653 -0.436778 0 127 127
0.175651 -0.213929 0.437684 0 127 127
-0.089748 -0.891919 0.159090 0 127 127
0.262335 -0.028001 -0.383084 0 127 127
0.105044 0.537580 0.463976 0 127 127
-0.449299 -0.196131 -0.160643 0 127 127
-0.329512 0.282557 -0.343005 0 127 127
0.451530 -0.003670 0.126183 0 127 127
0.087629 0.571224 0.465666 0 127 127
-0.402879 0.247107 0.262166 0 127 127
-0.480432 0.086301 0.020168 0 127 127
0.459002 -0.745358 0.069429 0 127 127
-0.469052 -0.835211 0.007254 0 127 127
