ply
format ascii 1.0
element vertex 1267
property float x
property float y
property float z
property uchar red
property uchar green
property uchar blue
end_header
0.032664 0.762641 0.340571 76 0 153
-0.074137 0.538934 -0.263808 76 0 153
-0.041252 0.470716 -0.299608 76 0 153
-0.104944 0.625304 0.585947 76 0 153
-0.092924 0.329201 -0.231690 76 0 153
0.026244 0.038687 -0.230545 76 0 153
0.009700 0.827936 0.114214 76 0 153
-0.011100 0.435367 -0.307901 76 0 153
0.033089 0.272797 0.764472 76 0 153
0.029206 0.724055 0.408934 76 0 153
0.285303 -0.263181 -0.284942 0 255 0
0.070370 -0.429800 -0.254339 153 0 76
0.043209 -0.496977 -0.342154 204 51 127
0.077626 -0.928530 -0.210614 76 0 153
-0.092083 0.320174 0.750633 76 0 153
-0.038560 0.846631 0.304822 76 0 153
-0.121410 -0.928530 -0.199953 76 0 153
-0.034918 0.629904 -0.047414 76 0 153
-0.105660 0.470393 0.645969 76 0 153
0.036120 0.294694 0.687436 76 0 153
-0.133207 -0.820341 -0.243224 153 0 76
0.032500 0.641355 -0.146440 76 0 153
0.028734 0.811555 0.210750 76 0 153
-0.043504 -0.341607 -0.158482 153 0 76
-0.061075 -0.606650 -0.161977 153 0 76
-0.131375 -0.905310 -0.350449 76 0 153
0.094654 -0.570146 -0.344768 204 51 127
-0.003073 0.581625 -0.111026 76 0 153
-0.030929 0.430296 0.654196 76 0 153
-0.070125 0.423900 0.636420 76 0 153
0.270449 -0.475582 -0.201457 0 255 0
-0.026027 0.639398 -0.221660 76 0 153
0.024993 -0.005575 -0.292122 76 0 153
-0.057533 0.124074 -0.198640 76 0 153
0.057640 -0.752947 -0.309230 153 0 76
-0.041513 -0.022924 -0.195453 76 0 153
-0.098264 0.781316 0.330956 76 0 153
0.001098 0.232461 -0.204148 76 0 153
0.031538 0.787874 0.100402 76 0 153
0.004343 0.363176 0.762421 76 0 153
-0.130784 -0.635154 -0.289752 153 0 76
0.268231 -0.475372 -0.319126 0 255 0
-0.037301 -0.257086 -0.326178 76 0 153
0.051700 -0.849588 -0.197606 76 0 153
0.009674 -0.790486 -0.165800 153 0 76
-0.033763 -0.845656 -0.156544 76 0 153
0.091656 -0.905787 -0.312535 76 0 153
-0.098443 0.033979 -0.256315 76 0 153
-0.071831 0.621686 -0.077208 76 0 153
-0.074874 -0.081182 -0.310814 76 0 153
0.279401 -0.300582 -0.286524 0 255 0
-0.097697 0.322007 0.673924 76 0 153
0.032370 0.173799 -0.251164 76 0 153
-0.004663 0.710794 0.340983 76 0 153
-0.135599 -0.785600 -0.255248 153 0 76
0.041288 0.353627 0.719057 76 0 153
0.042415 -0.373364 -0.332015 153 0 76
-0.099819 0.755117 0.407325 76 0 153
-0.043064 -0.928530 -0.325828 76 0 153
0.034026 -0.250141 -0.261310 76 0 153
0.006005 0.589718 0.529554 76 0 153
0.059157 -0.849820 -0.314518 153 0 76
-0.061786 -0.037001 -0.319559 76 0 153
-0.132955 -0.604827 -0.278838 153 0 76
-0.165739 -0.877969 -0.251316 76 0 153
-0.073932 0.827139 0.329259 76 0 153
-0.097139 0.669640 -0.117955 76 0 153
-0.096857 -0.204275 -0.248337 76 0 153
0.031602 0.412035 -0.263564 76 0 153
-0.111000 -0.483766 -0.326723 153 0 76
0.018272 -0.928530 -0.363248 76 0 153
-0.091286 0.030541 -0.290259 76 0 153
0.070451 -0.651328 -0.266049 153 0 76
-0.064624 -0.015408 -0.203130 76 0 153
0.009419 0.272216 -0.209708 76 0 153
-0.084173 0.170057 0.812608 153 76 0
0.029464 0.547139 0.587592 76 0 153
0.159243 -0.479918 -0.195818 204 51 127
-0.081995 -0.511780 -0.170659 153 0 76
-0.030723 0.588489 0.695437 76 0 153
-0.131331 -0.714120 -0.233791 153 0 76
0.035515 -0.730200 -0.337728 153 0 76
-0.099435 0.314185 0.697712 76 0 153
-0.078224 0.167579 0.696089 153 76 0
0.280391 -0.092171 -0.286258 0 255 0
0.028843 0.740639 0.363326 76 0 153
-0.104132 -0.437779 -0.335343 153 0 76
0.009110 0.266590 0.664295 76 0 153
0.033256 0.084341 -0.265179 76 0 153
0.012801 -0.036980 -0.308826 76 0 153
-0.082219 0.688076 0.592998 76 0 153
-0.067941 0.601568 0.678661 76 0 153
0.018728 0.825167 0.288166 76 0 153
-0.059218 0.609155 -0.236158 76 0 153
0.019481 0.684425 0.442555 76 0 153
-0.097471 0.699655 0.459934 76 0 153
-0.095741 0.492892 -0.243334 76 0 153
0.064986 -0.349231 -0.227272 153 0 76
0.015528 -0.229264 -0.306287 76 0 153
-0.005750 0.846961 0.218871 76 0 153
0.027071 -0.738400 -0.177423 153 0 76
-0.019084 -0.421856 -0.158971 153 0 76
-0.052300 -0.735668 -0.160231 153 0 76
0.320394 -0.579120 -0.248980 0 255 0
0.318598 -0.462019 -0.215545 0 255 0
0.028920 0.505274 0.604095 76 0 153
0.034497 0.687582 0.492138 76 0 153
-0.131896 -0.678802 -0.236631 153 0 76
0.208951 -0.617712 -0.303227 0 255 0
-0.010713 -0.928530 -0.305576 76 0 153
0.249965 -0.202507 -0.268826 0 255 0
-0.091419 0.485515 0.608190 76 0 153
0.209503 -0.619322 -0.224125 204 51 127
-0.012371 0.274333 0.629818 76 0 153
-0.001260 0.544357 -0.137054 76 0 153
0.033390 -0.036889 -0.256287 76 0 153
0.069625 -0.345999 -0.250593 153 0 76
0.031217 0.394412 0.722606 76 0 153
0.026991 0.684044 0.578244 76 0 153
0.042991 0.493297 0.650357 76 0 153
0.144038 -0.516895 -0.346004 204 51 127
0.027907 0.679552 -0.049023 76 0 153
-0.096273 0.712225 0.540147 76 0 153
-0.049823 0.288527 0.612153 76 0 153
-0.134760 -0.653422 -0.269764 153 0 76
-0.013357 0.486037 0.738777 76 0 153
-0.044574 0.850066 0.213963 76 0 153
0.035173 -0.326733 -0.238265 153 0 76
0.058285 -0.567907 -0.175395 204 51 127
0.045047 -0.328097 -0.324404 153 0 76
0.021183 0.204334 -0.222970 76 0 153
-0.043135 0.363121 0.778603 76 0 153
-0.081251 0.653923 0.625396 76 0 153
0.031615 0.723501 0.017151 76 0 153
0.173396 -0.547515 -0.350765 204 51 127
-0.092454 0.501057 0.702018 76 0 153
0.032373 0.651947 0.517792 76 0 153
-0.119413 -0.502267 -0.206662 153 0 76
0.295367 -0.424357 -0.263723 0 255 0
-0.125447 -0.849820 -0.201053 153 0 76
-0.003286 -0.549210 -0.358680 153 0 76
-0.054781 0.545022 0.554263 76 0 153
-0.131275 -0.383883 -0.287286 153 0 76
-0.094543 0.761796 0.453759 76 0 153
0.053999 -0.610109 -0.199107 204 51 127
0.020487 0.240573 0.783893 153 76 0
-0.013998 -0.326733 -0.253247 153 0 76
-0.031968 -0.508053 -0.156408 153 0 76
-0.033132 0.717536 0.196354 76 0 153
-0.134752 -0.492586 -0.250988 153 0 76
-0.018705 0.764015 -0.083222 76 0 153
0.008004 0.772751 -0.031586 76 0 153
0.057744 -0.377454 -0.309075 153 0 76
0.000760 -0.246551 -0.203921 76 0 153
0.028202 0.217920 0.786948 153 76 0
0.013411 -0.849413 -0.165147 76 0 153
-0.096383 0.176372 0.793397 153 76 0
-0.088721 0.068969 -0.294097 76 0 153
-0.026673 0.828389 0.397586 76 0 153
-0.092503 0.708978 0.426941 76 0 153
-0.002652 -0.098207 -0.319152 76 0 153
0.031713 0.037592 -0.272933 76 0 153
-0.030047 0.464055 -0.164647 76 0 153
0.096156 -0.902609 -0.229465 76 0 153
0.011238 -0.390619 -0.353949 153 0 76
0.006642 0.731969 0.200617 76 0 153
-0.053769 0.837654 0.334768 76 0 153
-0.053124 0.847471 0.285606 76 0 153
0.004079 -0.928530 -0.215937 76 0 153
-0.039874 -0.632060 -0.157760 153 0 76
-0.013974 -0.357386 -0.159987 153 0 76
0.055153 -0.766798 -0.207842 153 0 76
-0.054960 0.335239 -0.196403 76 0 153
-0.085509 0.162235 0.763647 153 76 0
-0.025504 0.302464 -0.325731 76 0 153
-0.030857 -0.062853 -0.326797 76 0 153
0.139201 -0.455087 -0.283004 204 51 127
-0.003920 0.435572 0.668873 76 0 153
-0.063689 0.035346 -0.318287 76 0 153
-0.011625 -0.326733 -0.181376 153 0 76
0.035624 0.412078 0.697609 76 0 153
0.057974 -0.700570 -0.308730 153 0 76
0.032951 0.434519 -0.236347 76 0 153
-0.031163 0.135411 -0.193937 76 0 153
-0.013926 0.559080 -0.121121 76 0 153
-0.067384 -0.301487 -0.205645 76 0 153
0.100101 -0.865035 -0.258330 76 0 153
-0.104447 -0.847569 -0.185019 76 0 153
-0.105549 0.515728 0.628911 76 0 153
-0.067031 -0.802421 -0.357632 153 0 76
0.220259 -0.559981 -0.346482 0 255 0
0.203266 -0.571489 -0.178954 0 255 0
-0.094904 0.387581 -0.276846 76 0 153
-0.117149 -0.390086 -0.203274 153 0 76
0.085906 -0.601409 -0.326005 204 51 127
0.020382 0.794025 0.050950 76 0 153
-0.130617 -0.476035 -0.230202 153 0 76
0.004988 0.610665 0.672905 76 0 153
0.301978 -0.117678 -0.261646 0 255 0
-0.049829 0.585554 -0.101304 76 0 153
-0.105579 0.399304 0.669989 76 0 153
-0.012155 0.237101 0.647032 76 0 153
0.060456 -0.730077 -0.215778 153 0 76
0.285256 -0.219039 -0.284955 0 255 0
0.005201 -0.326733 -0.342262 153 0 76
-0.084714 0.723925 0.376169 76 0 153
0.021867 0.675402 -0.150051 76 0 153
-0.058833 0.792292 0.470944 76 0 153
-0.056086 0.417200 -0.183514 76 0 153
0.179649 -0.455388 -0.283999 204 51 127
0.014870 0.541640 -0.258759 76 0 153
-0.048863 0.705222 0.351680 76 0 153
-0.075332 0.835396 0.208741 76 0 153
0.024391 -0.148139 -0.227771 76 0 153
-0.123196 -0.551879 -0.212324 153 0 76
0.248631 -0.320191 -0.263849 0 255 0
-0.019861 -0.140928 -0.324609 76 0 153
0.248068 -0.379995 -0.261746 0 255 0
0.022880 0.753604 0.258341 76 0 153
0.041296 0.514880 0.633431 76 0 153
0.036566 -0.803122 -0.337026 153 0 76
-0.060620 0.643525 -0.041663 76 0 153
0.014264 0.712859 -0.124790 76 0 153
-0.084031 0.813045 0.348796 76 0 153
-0.099104 -0.168925 -0.259635 76 0 153
0.196682 -0.458716 -0.227107 0 255 0
-0.008905 0.443555 0.691069 76 0 153
-0.029613 -0.928530 -0.370805 76 0 153
0.029684 0.344182 -0.235304 76 0 153
0.015052 0.026319 -0.213794 76 0 153
0.005692 -0.660417 -0.356894 153 0 76
0.059721 -0.643416 -0.214678 153 0 76
0.320394 -0.510352 -0.270114 0 255 0
-0.100778 -0.928530 -0.215297 76 0 153
-0.059183 -0.928530 -0.346987 76 0 153
-0.039709 0.577366 0.525019 76 0 153
-0.072056 0.566472 -0.129070 76 0 153
-0.081816 0.730089 0.325832 76 0 153
0.248618 -0.098008 -0.256993 0 255 0
-0.016220 -0.240167 -0.323885 76 0 153
-0.078556 0.450462 0.710283 76 0 153
0.231193 -0.460382 -0.299142 0 255 0
-0.045522 0.535069 0.717558 76 0 153
0.044968 -0.928530 -0.288169 76 0 153
0.029211 -0.100825 -0.285515 76 0 153
-0.024188 -0.578017 -0.362838 153 0 76
0.025497 0.667290 0.597329 76 0 153
-0.083814 -0.928530 -0.168711 76 0 153
-0.068412 0.298764 0.660385 76 0 153
-0.075948 0.744241 0.533806 76 0 153
0.260850 -0.355129 -0.237259 0 255 0
0.003101 0.758940 -0.072081 76 0 153
0.003369 0.285106 0.791746 76 0 153
-0.132345 -0.461070 -0.281903 153 0 76
-0.089628 -0.778003 -0.175759 153 0 76
0.011754 0.194007 -0.309525 76 0 153
0.012106 -0.269899 -0.309291 76 0 153
0.094866 -0.452520 -0.273563 204 51 127
0.010183 0.183885 0.695131 153 76 0
0.032943 0.570003 -0.196822 76 0 153
0.248281 -0.158092 -0.262542 0 255 0
0.144519 -0.631725 -0.266041 204 51 127
0.047857 -0.428222 -0.196923 153 0 76
-0.086228 -0.245022 -0.222965 76 0 153
0.018457 0.680685 -0.010577 76 0 153
-0.131012 -0.849063 -0.299996 153 0 76
0.030106 0.165485 0.724503 153 76 0
0.094825 -0.475681 -0.320813 204 51 127
0.041849 0.457465 0.686698 76 0 153
0.051247 -0.326733 -0.281390 153 0 76
0.019131 0.745919 0.223390 76 0 153
-0.078706 0.694486 0.415222 76 0 153
-0.134413 -0.569687 -0.249287 153 0 76
-0.068007 0.635586 0.654323 76 0 153
-0.012449 0.459053 0.734164 76 0 153
-0.130343 -0.744592 -0.228822 153 0 76
-0.110743 -0.518772 -0.193687 153 0 76
-0.018698 0.754755 0.542917 76 0 153
0.036444 0.590954 0.573780 76 0 153
-0.102598 0.447787 0.641954 76 0 153
0.203049 -0.543663 -0.171440 204 51 127
0.320394 -0.539878 -0.258789 0 255 0
-0.013483 -0.756240 -0.160085 153 0 76
0.022510 0.308809 0.662043 76 0 153
0.032977 0.190297 -0.266581 76 0 153
0.023454 -0.054985 -0.226369 76 0 153
-0.109747 -0.423869 -0.192196 153 0 76
-0.039070 -0.161564 -0.194967 76 0 153
-0.026821 0.166226 0.777938 153 76 0
0.006283 -0.928530 -0.386326 76 0 153
0.292562 -0.472442 -0.204597 0 255 0
-0.057838 0.441254 -0.305273 76 0 153
0.034949 -0.822958 -0.182687 153 0 76
0.212529 -0.496004 -0.181355 0 255 0
-0.002721 0.172893 -0.201596 76 0 153
0.034244 -0.351349 -0.338577 153 0 76
0.175496 -0.625343 -0.231031 204 51 127
0.211538 -0.455985 -0.282729 0 255 0
-0.072727 -0.915292 -0.133658 76 0 153
-0.001072 0.515703 -0.156104 76 0 153
-0.108049 -0.779900 -0.189654 153 0 76
-0.015966 0.404317 -0.186042 76 0 153
0.025039 -0.189435 -0.292053 76 0 153
0.038181 0.356924 0.672174 76 0 153
-0.031601 -0.900361 -0.395063 76 0 153
-0.023089 0.154190 0.736054 153 76 0
0.022151 0.433120 -0.280936 76 0 153
-0.080478 -0.227989 -0.306434 76 0 153
0.096142 -0.874813 -0.228324 76 0 153
-0.093674 -0.928530 -0.363627 76 0 153
-0.075538 0.838574 0.248659 76 0 153
-0.069742 0.252155 -0.314243 76 0 153
-0.080078 -0.783522 -0.351415 153 0 76
-0.053402 0.481055 0.582360 76 0 153
-0.028203 0.357223 0.632052 76 0 153
0.068065 -0.822293 -0.278041 153 0 76
-0.015468 0.670073 0.425412 76 0 153
-0.046700 -0.586703 -0.159117 153 0 76
-0.082800 -0.132714 -0.302959 76 0 153
-0.070318 0.486821 -0.282586 76 0 153
0.273369 -0.108690 -0.233533 0 255 0
-0.136311 -0.443292 -0.261964 153 0 76
0.022453 -0.326733 -0.274869 153 0 76
0.256621 -0.369010 -0.279306 0 255 0
0.004811 0.242252 -0.314164 76 0 153
0.211445 -0.627802 -0.263077 0 255 0
-0.017702 0.544087 0.713010 76 0 153
-0.031866 0.705374 0.110533 76 0 153
0.068257 -0.849820 -0.221225 76 0 153
0.034014 -0.647984 -0.338731 153 0 76
-0.099194 0.169618 0.733092 153 76 0
-0.106895 0.243323 0.726922 76 0 153
0.020110 -0.433273 -0.172773 153 0 76
-0.067711 -0.645015 -0.357497 153 0 76
-0.048815 0.187371 0.821796 153 76 0
-0.022052 -0.304765 -0.203068 76 0 153
-0.082164 -0.928530 -0.302483 76 0 153
0.017127 0.156395 0.743333 153 76 0
-0.049543 -0.409265 -0.361111 153 0 76
0.020404 0.717367 0.560053 76 0 153
-0.132240 -0.562225 -0.282432 153 0 76
-0.056614 0.106308 -0.322336 76 0 153
-0.102160 0.283690 0.729316 76 0 153
0.060419 -0.928530 -0.333139 76 0 153
0.010565 -0.491925 -0.166394 153 0 76
-0.072917 -0.554026 -0.356201 153 0 76
-0.052665 -0.326733 -0.304830 153 0 76
-0.095972 0.346835 -0.274357 76 0 153
-0.025839 -0.851522 -0.390555 76 0 153
-0.086970 -0.701476 -0.173983 153 0 76
0.152832 -0.456367 -0.233053 204 51 127
-0.024106 0.288406 0.794534 76 0 153
0.030417 -0.232523 -0.241342 76 0 153
0.009202 0.653339 -0.044327 76 0 153
-0.104832 0.502145 0.674730 76 0 153
0.009473 0.640471 -0.203284 76 0 153
-0.005588 -0.467733 -0.359138 153 0 76
-0.130968 -0.502532 -0.288829 153 0 76
-0.020475 0.643838 0.657513 76 0 153
0.064005 -0.679836 -0.298454 153 0 76
-0.051579 0.717206 0.148160 76 0 153
0.068981 -0.781520 -0.273436 153 0 76
-0.041862 0.139819 -0.325270 76 0 153
-0.047706 0.253377 0.614258 76 0 153
-0.010750 0.678435 -0.185522 76 0 153
-0.103176 0.603791 0.624018 76 0 153
-0.112197 -0.744679 -0.195863 153 0 76
-0.095677 0.505805 -0.202119 76 0 153
-0.158501 -0.909223 -0.216132 76 0 153
0.029133 0.742479 -0.035966 76 0 153
-0.095219 -0.612827 -0.341299 153 0 76
-0.063363 0.315007 0.644755 76 0 153
-0.038874 0.811730 0.444481 76 0 153
-0.089939 0.556939 0.575655 76 0 153
-0.124586 -0.813897 -0.214404 153 0 76
-0.115555 -0.928530 -0.338721 76 0 153
-0.007879 0.392572 0.767550 76 0 153
0.043247 -0.898046 -0.151938 76 0 153
0.021756 0.815493 0.132299 76 0 153
-0.085305 -0.831114 -0.347923 153 0 76
0.025371 0.768882 0.011222 76 0 153
-0.005196 0.129222 -0.199942 76 0 153
0.028770 0.466455 -0.205843 76 0 153
0.124898 -0.620588 -0.306781 204 51 127
0.029964 0.682688 -0.119375 76 0 153
0.230762 -0.620584 -0.304014 0 255 0
0.006565 0.715709 0.099186 76 0 153
-0.083748 0.347491 -0.298947 76 0 153
0.235706 -0.629597 -0.270378 0 255 0
-0.070295 0.336199 0.650006 76 0 153
-0.009456 0.617263 0.497615 76 0 153
-0.081746 0.715573 0.077460 76 0 153
-0.017531 -0.849820 -0.136342 76 0 153
0.301317 -0.488470 -0.332224 0 255 0
0.126323 -0.458734 -0.224135 204 51 127
0.263387 -0.436781 -0.243005 0 255 0
-0.080732 0.139125 -0.214740 76 0 153
0.320394 -0.539836 -0.228578 0 255 0
0.034090 -0.394556 -0.338680 153 0 76
0.119033 -0.624263 -0.226821 204 51 127
-0.089089 0.204753 0.796965 153 76 0
-0.010327 0.733514 0.572828 76 0 153
0.243673 -0.568220 -0.176519 0 255 0
0.029766 0.763392 0.214778 76 0 153
0.210566 -0.577760 -0.338203 0 255 0
0.320394 -0.551737 -0.331203 0 255 0
-0.057888 -0.224700 -0.322083 76 0 153
0.017143 -0.800436 -0.350004 153 0 76
-0.031561 -0.642179 -0.364304 153 0 76
0.022159 0.782698 0.438119 76 0 153
0.011492 0.642605 0.640111 76 0 153
0.017265 -0.326733 -0.225760 76 0 153
-0.094672 0.720786 0.036175 76 0 153
-0.075661 -0.044417 -0.210505 76 0 153
-0.088120 0.482422 0.717966 76 0 153
0.165364 -0.608765 -0.318557 204 51 127
0.029831 0.639012 -0.169107 76 0 153
-0.036267 0.065444 -0.194410 76 0 153
-0.070396 0.075384 -0.206987 76 0 153
-0.096584 0.714609 -0.002578 76 0 153
0.008796 0.142348 -0.311502 76 0 153
-0.066763 -0.673934 -0.163108 153 0 76
-0.036129 0.707837 0.601291 76 0 153
-0.085020 0.460473 -0.193945 76 0 153
0.277999 -0.598713 -0.327313 0 255 0
-0.060232 0.575175 0.531911 76 0 153
0.047650 -0.775599 -0.324181 153 0 76
-0.055770 0.715325 0.309561 76 0 153
-0.058893 -0.326733 -0.335467 153 0 76
-0.130113 -0.797976 -0.293126 153 0 76
-0.059575 0.255464 0.805079 153 76 0
-0.016813 0.446705 -0.172760 76 0 153
-0.057952 -0.439671 -0.161356 153 0 76
-0.083921 0.737105 0.121918 76 0 153
-0.006589 0.826116 0.068169 76 0 153
-0.047021 -0.294772 -0.196549 76 0 153
-0.135273 -0.831018 -0.267186 153 0 76
0.067161 -0.662906 -0.238208 153 0 76
0.146230 -0.576351 -0.343062 204 51 127
0.063999 -0.443391 -0.298482 153 0 76
-0.155895 -0.872128 -0.209007 76 0 153
0.065837 -0.394738 -0.231551 153 0 76
-0.080541 0.497658 0.590737 76 0 153
-0.097957 0.772869 0.082864 76 0 153
0.302165 -0.298065 -0.260949 0 255 0
0.018700 -0.200067 -0.219254 76 0 153
-0.010923 0.420629 0.627320 76 0 153
-0.050069 0.691047 -0.172712 76 0 153
-0.080903 0.325778 -0.304740 76 0 153
0.095225 -0.873490 -0.294970 76 0 153
-0.096107 0.392818 0.723315 76 0 153
-0.056510 0.172115 -0.198437 76 0 153
0.276095 -0.454221 -0.239464 0 255 0
-0.112199 -0.870499 -0.156105 76 0 153
-0.073399 0.729659 0.159049 76 0 153
-0.011014 0.616565 -0.233152 76 0 153
-0.019795 0.452136 0.592992 76 0 153
-0.017365 -0.928530 -0.246427 76 0 153
0.018560 0.735214 0.314454 76 0 153
-0.023971 0.291320 0.610169 76 0 153
-0.089888 0.745162 0.312680 76 0 153
-0.123608 -0.329140 -0.306213 153 0 76
-0.097413 -0.078099 -0.269660 76 0 153
-0.030142 0.197659 -0.194140 76 0 153
0.040659 0.375080 0.716958 76 0 153
0.029822 -0.147146 -0.282445 76 0 153
-0.085984 0.717273 -0.105430 76 0 153
-0.094035 0.587636 -0.208370 76 0 153
0.015806 0.395769 -0.299867 76 0 153
-0.031977 0.091568 -0.193774 76 0 153
-0.057370 -0.062671 -0.198608 76 0 153
0.263833 -0.432679 -0.278240 0 255 0
0.274302 -0.178764 -0.287511 0 255 0
-0.020444 0.714540 0.132772 76 0 153
-0.075219 -0.218647 -0.210210 76 0 153
-0.002990 -0.133930 -0.201416 76 0 153
0.031547 0.795341 0.169250 76 0 153
0.320394 -0.508441 -0.317713 0 255 0
-0.032735 0.353618 -0.190684 76 0 153
0.024414 0.183656 -0.227806 76 0 153
-0.068969 -0.850018 -0.384225 76 0 153
-0.027156 -0.825092 -0.363428 153 0 76
0.021165 -0.928530 -0.287565 76 0 153
-0.095519 0.634031 -0.113767 76 0 153
-0.010197 0.846983 0.286310 76 0 153
-0.126956 -0.928530 -0.295762 76 0 153
-0.052315 0.039283 -0.197602 76 0 153
-0.092279 0.421336 0.733156 76 0 153
0.041590 0.586060 0.618590 76 0 153
0.032448 0.779649 0.247990 76 0 153
-0.095447 0.662832 -0.081133 76 0 153
0.008153 0.811891 0.409527 76 0 153
-0.024860 0.723584 -0.139366 76 0 153
-0.017572 0.844124 0.308391 76 0 153
-0.030851 0.844919 0.127116 76 0 153
-0.061880 0.149886 0.720680 153 76 0
-0.072659 0.717930 0.346868 76 0 153
-0.092231 0.249897 0.779832 153 76 0
-0.081491 0.390027 -0.299318 76 0 153
-0.005927 0.433491 0.749303 76 0 153
-0.027497 0.380403 -0.321210 76 0 153
0.077150 -0.872612 -0.188333 76 0 153
0.056909 -0.543174 -0.352027 204 51 127
-0.083118 -0.134881 -0.218311 76 0 153
0.026748 -0.891380 -0.379940 76 0 153
-0.084693 0.342149 0.755749 76 0 153
0.032373 0.781816 0.352298 76 0 153
-0.090316 0.795673 0.389219 76 0 153
-0.056015 -0.090419 -0.322455 76 0 153
0.037638 0.333684 0.711172 76 0 153
-0.019893 0.352164 0.781235 76 0 153
-0.093594 0.377044 -0.229310 76 0 153
-0.005472 0.552799 0.549366 76 0 153
-0.077945 0.610524 0.519060 76 0 153
0.285030 -0.274942 -0.235778 0 255 0
-0.048522 -0.343024 -0.361314 153 0 76
-0.078327 -0.652593 -0.168208 153 0 76
-0.097550 0.797436 0.252309 76 0 153
-0.019071 0.127606 -0.324452 76 0 153
0.019684 0.453433 0.612585 76 0 153
-0.081089 0.213249 0.684716 76 0 153
0.105503 -0.629917 -0.272915 204 51 127
0.018424 0.167170 0.780842 153 76 0
-0.050681 0.155410 0.740378 153 76 0
0.054764 -0.580370 -0.342062 204 51 127
-0.050636 0.460771 -0.168909 76 0 153
-0.010006 0.841852 0.140159 76 0 153
0.059326 -0.928530 -0.357624 76 0 153
-0.086480 -0.489392 -0.173656 153 0 76
-0.077223 0.308387 0.779233 76 0 153
0.003017 0.383125 -0.200320 76 0 153
-0.067640 0.732588 0.259761 76 0 153
-0.061809 0.276116 0.792650 76 0 153
0.017441 0.587512 -0.229101 76 0 153
0.014283 -0.543489 -0.165352 153 0 76
-0.063822 0.455672 0.724765 76 0 153
-0.040075 0.722638 0.241142 76 0 153
-0.099208 0.432565 0.698985 76 0 153
-0.079260 0.648800 0.486735 76 0 153
-0.034578 -0.370473 -0.364087 153 0 76
-0.099024 -0.352345 -0.338756 153 0 76
-0.038762 0.441497 0.751215 76 0 153
-0.026834 0.653654 -0.012604 76 0 153
-0.142864 -0.849820 -0.225349 76 0 153
-0.076878 0.664168 -0.181525 76 0 153
-0.026314 -0.928530 -0.281639 76 0 153
-0.021697 -0.928530 -0.326403 76 0 153
0.040509 0.541393 0.619662 76 0 153
-0.000564 -0.491742 -0.358139 153 0 76
-0.086031 0.816369 0.128906 76 0 153
-0.096556 0.798128 0.200439 76 0 153
-0.080142 0.602995 -0.106886 76 0 153
0.035940 -0.587412 -0.177776 204 51 127
0.018704 0.481773 0.722537 76 0 153
-0.085832 -0.326733 -0.215372 153 0 76
-0.111843 -0.906408 -0.154384 76 0 153
-0.095845 0.803316 0.276628 76 0 153
-0.016917 0.481905 -0.161854 76 0 153
-0.063350 0.195269 0.687340 153 76 0
-0.049914 0.216566 -0.197125 76 0 153
-0.062946 0.753886 -0.092664 76 0 153
-0.080867 0.825524 0.309168 76 0 153
0.032614 -0.120966 -0.252387 76 0 153
-0.103416 0.669198 0.536738 76 0 153
-0.097110 -0.326733 -0.315483 153 0 76
-0.069806 -0.870151 -0.134299 76 0 153
-0.027431 0.716727 0.175855 76 0 153
-0.007507 0.164402 -0.322151 76 0 153
0.016746 0.518685 -0.170427 76 0 153
0.030103 0.196246 0.707287 153 76 0
0.163252 -0.622136 -0.301772 204 51 127
-0.082756 0.408380 0.628784 76 0 153
0.066117 -0.685689 -0.232959 153 0 76
-0.058202 0.591963 -0.248309 76 0 153
0.056700 -0.480711 -0.327448 204 51 127
-0.081112 0.554722 -0.145438 76 0 153
0.029670 0.351960 -0.280298 76 0 153
0.000843 0.572557 0.693603 76 0 153
0.027647 0.059582 -0.232645 76 0 153
-0.094831 -0.020431 -0.238154 76 0 153
0.020295 -0.248018 -0.221640 76 0 153
-0.006179 0.786763 0.480827 76 0 153
0.018902 0.615881 -0.101033 76 0 153
-0.082303 0.739443 0.284901 76 0 153
-0.025252 0.421596 -0.315098 76 0 153
0.009407 -0.081664 -0.311094 76 0 153
0.320394 -0.469351 -0.276142 0 255 0
-0.098897 -0.004288 -0.262196 76 0 153
0.162975 -0.502348 -0.342090 204 51 127
-0.041465 -0.661802 -0.158076 153 0 76
-0.021663 0.506615 0.731119 76 0 153
-0.007319 0.340469 -0.320019 76 0 153
-0.129943 -0.849820 -0.329391 76 0 153
-0.038499 0.683588 0.400316 76 0 153
-0.094315 0.728425 -0.067021 76 0 153
0.033305 0.301197 -0.255865 76 0 153
-0.091800 0.680647 0.467856 76 0 153
0.035953 -0.540060 -0.168491 204 51 127
0.061009 -0.599287 -0.328156 204 51 127
-0.020730 -0.730521 -0.362150 153 0 76
-0.022904 -0.109520 -0.195579 76 0 153
0.069750 -0.412598 -0.269573 153 0 76
0.017443 0.374681 0.648277 76 0 153
0.251488 -0.112810 -0.274172 0 255 0
-0.045207 -0.905785 -0.128111 76 0 153
-0.080540 -0.928530 -0.255347 76 0 153
-0.002376 0.326751 0.625746 76 0 153
-0.137091 -0.928530 -0.317720 76 0 153
0.017680 0.427963 -0.200416 76 0 153
-0.011110 0.522561 -0.280943 76 0 153
0.035444 -0.541178 -0.352580 153 0 76
0.127668 -0.540658 -0.352385 204 51 127
0.033775 0.756724 0.392306 76 0 153
-0.121719 -0.928530 -0.244707 76 0 153
-0.078370 0.762975 -0.045390 76 0 153
0.069318 -0.742123 -0.249049 153 0 76
0.175302 -0.540941 -0.168373 204 51 127
-0.056110 0.830187 0.370265 76 0 153
0.022935 0.025630 -0.295201 76 0 153
0.078216 -0.580716 -0.178844 204 51 127
0.041745 -0.671128 -0.333019 153 0 76
-0.112149 -0.648966 -0.195791 153 0 76
-0.037571 -0.290027 -0.326124 76 0 153
0.269670 -0.536674 -0.170457 0 255 0
-0.097755 0.456010 -0.228423 76 0 153
0.052888 -0.374713 -0.204452 153 0 76
0.025157 -0.517433 -0.349376 153 0 76
0.110106 -0.455357 -0.236690 204 51 127
-0.095593 0.738120 0.395939 76 0 153
0.302457 -0.559314 -0.174132 0 255 0
-0.105013 0.609783 0.603487 76 0 153
0.035812 0.432918 0.645323 76 0 153
0.287106 -0.198363 -0.284459 0 255 0
-0.105937 0.245614 0.747986 76 0 153
-0.104858 -0.669977 -0.185936 153 0 76
-0.050408 0.637541 -0.220178 76 0 153
-0.007465 -0.326733 -0.303968 153 0 76
0.067697 -0.720427 -0.279892 153 0 76
0.052648 -0.746073 -0.204093 153 0 76
-0.094183 0.074869 -0.234895 76 0 153
-0.090291 -0.740700 -0.344592 153 0 76
0.297935 -0.623949 -0.291456 0 255 0
0.230282 -0.451722 -0.253982 0 255 0
0.295329 -0.246742 -0.277374 0 255 0
-0.025623 0.847646 0.172477 76 0 153
0.254833 -0.571631 -0.343361 0 255 0
-0.109642 -0.757246 -0.328755 153 0 76
-0.062246 0.522824 0.566792 76 0 153
0.029847 0.101900 -0.238479 76 0 153
-0.026558 0.666197 0.016506 76 0 153
-0.046224 0.339546 -0.322372 76 0 153
0.066884 -0.754765 -0.283980 153 0 76
-0.030447 0.039135 -0.326715 76 0 153
0.293485 -0.244391 -0.241575 0 255 0
-0.084162 0.746698 0.233070 76 0 153
-0.013097 0.161946 0.763034 153 76 0
0.320394 -0.605751 -0.319326 0 255 0
-0.004508 -0.529460 -0.161870 153 0 76
0.282856 -0.088728 -0.237570 0 255 0
0.023332 0.310564 -0.294607 76 0 153
-0.017248 0.721498 0.208890 76 0 153
0.060827 -0.853956 -0.167075 76 0 153
-0.000963 0.217324 0.813450 153 76 0
0.205634 -0.542003 -0.349106 0 255 0
-0.072742 0.829671 0.118947 76 0 153
-0.071181 0.412613 0.747001 76 0 153
0.032545 0.786302 0.120902 76 0 153
0.320394 -0.547238 -0.299413 0 255 0
-0.018073 -0.438379 -0.361621 153 0 76
-0.091883 0.181160 0.706676 153 76 0
-0.098267 -0.045313 -0.265367 76 0 153
0.014418 -0.130953 -0.213048 76 0 153
0.244940 -0.600855 -0.195623 0 255 0
-0.033722 0.444683 0.694200 76 0 153
0.003353 -0.928530 -0.348308 76 0 153
-0.044386 -0.522979 -0.362136 153 0 76
-0.136229 -0.672749 -0.258416 153 0 76
-0.032292 -0.798152 -0.156344 153 0 76
-0.108016 0.515602 0.649479 76 0 153
0.320394 -0.495705 -0.207273 0 255 0
-0.097824 0.217678 0.779939 153 76 0
-0.016029 0.813528 0.033586 76 0 153
0.069818 -0.928530 -0.237454 76 0 153
0.140893 -0.449673 -0.262795 204 51 127
-0.123677 -0.326733 -0.223892 153 0 76
-0.064636 0.785622 -0.015807 76 0 153
-0.100455 0.178264 0.770703 153 76 0
-0.006215 -0.802683 -0.161531 153 0 76
-0.061627 -0.154850 -0.319666 76 0 153
-0.124934 -0.747621 -0.305869 153 0 76
-0.087702 0.141151 0.718603 153 76 0
-0.041150 0.672095 -0.196499 76 0 153
-0.102801 0.353697 0.672466 76 0 153
-0.066435 -0.326733 -0.189512 153 0 76
-0.033503 -0.326733 -0.321103 76 0 153
0.292021 -0.108018 -0.280682 0 255 0
0.035834 -0.926833 -0.373549 76 0 153
-0.061936 0.221483 0.657061 76 0 153
-0.056060 0.714785 -0.144458 76 0 153
0.028721 0.494438 -0.197114 76 0 153
-0.031266 0.016024 -0.193916 76 0 153
0.320394 -0.520548 -0.344153 0 255 0
-0.092167 -0.437509 -0.177456 153 0 76
-0.094618 0.307523 -0.283709 76 0 153
0.016880 -0.305568 -0.300539 76 0 153
0.019411 -0.928530 -0.333368 76 0 153
0.230666 -0.457733 -0.231539 0 255 0
-0.091493 -0.471931 -0.343788 153 0 76
0.253591 -0.450096 -0.260128 0 255 0
-0.068168 0.820306 0.384045 76 0 153
0.065062 -0.770413 -0.227653 153 0 76
0.055493 -0.928530 -0.270595 76 0 153
-0.009141 0.616699 -0.068379 76 0 153
-0.082119 0.096943 -0.303978 76 0 153
-0.103939 -0.417323 -0.335472 153 0 76
-0.085259 0.636519 -0.080947 76 0 153
-0.081366 0.042066 -0.215689 76 0 153
0.011534 0.738577 0.240782 76 0 153
0.029425 -0.037836 -0.236355 76 0 153
-0.005796 0.169561 0.692575 153 76 0
-0.081172 0.278417 0.665707 76 0 153
-0.086421 -0.260199 -0.297540 76 0 153
-0.057576 0.724458 0.221090 76 0 153
-0.054739 -0.757647 -0.160716 153 0 76
0.281559 -0.597437 -0.192204 0 255 0
0.008279 -0.426233 -0.355926 153 0 76
-0.033468 -0.666257 -0.364308 153 0 76
-0.085869 0.531615 -0.169187 76 0 153
-0.099224 -0.119687 -0.260240 76 0 153
-0.048015 0.257651 -0.196747 76 0 153
0.011806 -0.154970 -0.309491 76 0 153
-0.135904 -0.421465 -0.264013 153 0 76
0.035444 0.370460 0.688927 76 0 153
0.030036 0.726748 0.516990 76 0 153
0.098055 -0.589929 -0.337471 204 51 127
-0.077235 -0.262838 -0.211556 76 0 153
-0.094053 0.700135 0.558701 76 0 153
-0.083555 -0.326733 -0.241825 153 0 76
0.032329 0.495599 -0.233909 76 0 153
0.320394 -0.615057 -0.280014 0 255 0
-0.088685 -0.202352 -0.226643 76 0 153
-0.052248 0.396669 0.767423 76 0 153
-0.035744 -0.173478 -0.326488 76 0 153
0.066713 -0.422182 -0.235951 153 0 76
-0.066242 0.008063 -0.204212 76 0 153
0.320394 -0.500658 -0.234832 0 255 0
0.277477 -0.138804 -0.287039 0 255 0
-0.129378 -0.425091 -0.223973 153 0 76
-0.083850 0.812525 0.088095 76 0 153
-0.080701 0.686660 0.013981 76 0 153
-0.096789 0.725928 -0.041388 76 0 153
-0.037369 -0.928530 -0.203950 76 0 153
-0.061447 -0.413825 -0.162051 153 0 76
-0.021911 0.321512 0.784616 76 0 153
-0.135558 -0.607659 -0.255040 153 0 76
-0.015449 -0.928530 -0.385153 76 0 153
0.038454 0.620906 0.601972 76 0 153
-0.045297 0.692247 0.073821 76 0 153
-0.025866 -0.555833 -0.157622 153 0 76
-0.104517 -0.331722 -0.185708 153 0 76
-0.053211 0.613243 -0.071432 76 0 153
-0.131475 -0.363681 -0.234513 153 0 76
0.162217 -0.559271 -0.173169 204 51 127
-0.129808 -0.763594 -0.294657 153 0 76
0.271486 -0.500931 -0.180034 0 255 0
0.007039 0.473033 0.595094 76 0 153
0.070914 -0.823987 -0.257074 153 0 76
-0.120941 -0.574827 -0.208949 153 0 76
-0.025430 -0.678689 -0.157709 153 0 76
-0.024948 -0.026312 -0.325621 76 0 153
-0.037930 0.594490 -0.087802 76 0 153
-0.040917 -0.326733 -0.213414 153 0 76
-0.026189 0.841046 0.092643 76 0 153
-0.002111 -0.312048 -0.204492 76 0 153
0.178343 -0.631369 -0.267266 204 51 127
0.032921 0.586818 -0.185867 76 0 153
0.032019 0.032588 -0.249396 76 0 153
-0.017597 0.148930 0.717414 153 76 0
-0.053871 0.314624 0.622612 76 0 153
-0.123486 -0.785132 -0.308035 153 0 76
-0.049665 -0.928530 -0.370698 76 0 153
0.021583 0.336193 0.652596 76 0 153
-0.005070 0.477919 -0.292552 76 0 153
0.275812 -0.572828 -0.177753 0 255 0
-0.035544 0.383214 -0.189150 76 0 153
0.055132 -0.328108 -0.211462 153 0 76
-0.042564 -0.824990 -0.158295 153 0 76
0.079047 -0.631605 -0.250843 204 51 127
-0.012454 -0.055835 -0.323136 76 0 153
0.261500 -0.411973 -0.275933 0 255 0
0.005059 0.631498 -0.064546 76 0 153
0.262721 -0.628740 -0.273574 0 255 0
0.037402 0.282877 0.728044 76 0 153
0.079609 -0.849820 -0.290690 76 0 153
0.308733 -0.492044 -0.184995 0 255 0
-0.073175 0.363961 -0.308194 76 0 153
-0.028609 0.060283 -0.326349 76 0 153
-0.060272 -0.611509 -0.358976 153 0 76
0.039577 -0.442610 -0.185780 153 0 76
-0.095218 0.599174 -0.145749 76 0 153
-0.053269 0.168379 0.785233 153 76 0
-0.054287 0.399873 -0.316505 76 0 153
-0.012784 0.692828 0.390904 76 0 153
0.019237 0.456901 0.733359 76 0 153
0.138331 -0.604795 -0.198235 204 51 127
-0.077224 0.516823 0.580182 76 0 153
0.043927 -0.928530 -0.162925 76 0 153
-0.075031 0.809705 0.057926 76 0 153
-0.004251 0.319783 -0.199941 76 0 153
-0.069599 -0.535584 -0.163672 153 0 76
0.053705 -0.734201 -0.315119 153 0 76
0.050306 -0.928530 -0.203022 76 0 153
0.032924 -0.077701 -0.266847 76 0 153
-0.081401 0.612529 -0.214546 76 0 153
-0.003964 -0.928530 -0.261201 76 0 153
-0.084921 0.143253 -0.299783 76 0 153
-0.026683 0.155449 -0.194828 76 0 153
-0.024852 0.558553 0.539919 76 0 153
0.032589 0.250641 0.695013 76 0 153
-0.098089 0.232199 -0.254534 76 0 153
0.029944 -0.003956 -0.238965 76 0 153
0.320394 -0.550180 -0.185165 0 255 0
0.000151 0.680164 0.027139 76 0 153
0.038123 -0.928530 -0.326269 76 0 153
-0.084977 -0.893523 -0.136316 76 0 153
0.020231 0.820871 0.169566 76 0 153
-0.095706 0.796868 0.133746 76 0 153
-0.096839 0.414526 -0.236440 76 0 153
-0.027125 0.272344 -0.194740 76 0 153
0.242545 -0.598550 -0.327476 0 255 0
-0.002350 -0.716754 -0.358494 153 0 76
-0.058394 0.434515 0.755661 76 0 153
-0.077608 0.673028 0.447184 76 0 153
-0.101272 0.718255 0.466906 76 0 153
0.015109 -0.556727 -0.352500 153 0 76
-0.129151 -0.777896 -0.222833 153 0 76
0.000464 0.452199 0.747629 76 0 153
0.036426 0.484935 0.694762 76 0 153
0.179440 -0.578930 -0.178451 204 51 127
-0.094381 0.761511 0.269963 76 0 153
0.066707 -0.516646 -0.346002 204 51 127
0.025396 0.746116 0.115742 76 0 153
0.038629 -0.849820 -0.364945 76 0 153
0.038588 0.316110 0.742323 76 0 153
-0.103097 -0.381138 -0.184759 153 0 76
-0.093798 0.205181 -0.286497 76 0 153
-0.087644 -0.314488 -0.291983 76 0 153
-0.090254 0.191205 -0.228992 76 0 153
-0.095374 0.284196 -0.240886 76 0 153
0.032991 0.466988 -0.226516 76 0 153
0.080635 -0.899096 -0.329119 76 0 153
0.299448 -0.088728 -0.250821 0 255 0
0.074867 -0.446794 -0.263947 204 51 127
-0.009622 0.437425 0.601491 76 0 153
0.031009 0.785213 0.372004 76 0 153
0.064742 -0.326733 -0.253326 153 0 76
-0.087821 0.382386 0.750637 76 0 153
0.033764 0.786228 0.287501 76 0 153
-0.073614 0.720812 0.570594 76 0 153
0.206288 -0.482977 -0.197299 0 255 0
0.028261 0.437807 0.727087 76 0 153
-0.063109 -0.513726 -0.162381 153 0 76
0.029270 0.602826 -0.197241 76 0 153
-0.038994 0.549238 -0.124730 76 0 153
0.193765 -0.454647 -0.247367 0 255 0
0.061644 -0.719765 -0.303238 153 0 76
0.298790 -0.361933 -0.247247 0 255 0
0.002976 0.703461 0.591676 76 0 153
-0.045045 0.500196 -0.155558 76 0 153
0.033072 0.650810 -0.114601 76 0 153
-0.013139 0.714239 0.311028 76 0 153
0.016151 -0.928530 -0.262976 76 0 153
-0.096656 -0.085681 -0.247327 76 0 153
-0.093255 0.249809 0.688436 76 0 153
-0.029943 0.238435 0.615641 76 0 153
-0.010032 0.651813 -0.209669 76 0 153
0.300268 -0.555577 -0.347663 0 255 0
0.024096 0.173415 -0.293463 76 0 153
-0.113362 -0.403491 -0.323187 153 0 76
-0.064212 0.352777 0.641274 76 0 153
-0.132057 -0.553352 -0.237443 153 0 76
0.032883 0.541687 -0.215865 76 0 153
-0.053326 -0.692684 -0.360358 153 0 76
-0.121086 -0.572110 -0.311628 153 0 76
-0.034394 0.762520 0.533936 76 0 153
0.041077 0.246858 0.746710 153 76 0
-0.083802 -0.179130 -0.219335 76 0 153
-0.094265 0.760841 0.217349 76 0 153
-0.092878 -0.307816 -0.238946 76 0 153
0.170946 -0.460053 -0.219356 204 51 127
-0.097023 0.149701 -0.249178 76 0 153
-0.103889 0.276312 0.750924 76 0 153
-0.082424 -0.604525 -0.170945 153 0 76
0.036593 0.649836 0.538594 76 0 153
-0.055360 0.616641 0.677878 76 0 153
-0.097621 0.697410 -0.083342 76 0 153
-0.012461 -0.690897 -0.360505 153 0 76
0.037266 -0.868430 -0.371066 76 0 153
0.000172 0.637163 0.655393 76 0 153
0.093124 -0.928530 -0.272620 76 0 153
-0.064431 0.154237 0.700187 153 76 0
0.019107 0.649714 -0.184876 76 0 153
-0.061828 -0.118156 -0.201262 76 0 153
0.036477 0.159244 0.747775 153 76 0
0.026465 0.645485 -0.084935 76 0 153
0.269266 -0.620192 -0.305477 0 255 0
0.314209 -0.468061 -0.311815 0 255 0
-0.109478 0.435441 0.678972 76 0 153
-0.089322 0.010855 -0.293197 76 0 153
-0.081207 -0.282920 -0.215451 76 0 153
-0.129825 -0.662338 -0.226218 153 0 76
-0.076257 -0.175210 -0.309891 76 0 153
-0.075102 0.182196 -0.310662 76 0 153
-0.078166 0.831806 0.290818 76 0 153
0.053922 -0.712485 -0.205999 153 0 76
0.026630 0.731877 0.077857 76 0 153
-0.010087 0.671053 0.629848 76 0 153
0.029507 0.580148 0.661098 76 0 153
-0.141176 -0.928530 -0.233875 76 0 153
0.019771 0.719923 0.390067 76 0 153
-0.025631 -0.928530 -0.142734 76 0 153
0.025498 0.212928 -0.291365 76 0 153
-0.091118 0.105247 -0.230284 76 0 153
-0.006990 0.495371 0.577229 76 0 153
0.000507 0.770504 -0.049503 76 0 153
0.176085 -0.449513 -0.262088 204 51 127
-0.006595 0.531207 0.561959 76 0 153
0.320394 -0.527775 -0.184264 0 255 0
0.023852 0.140261 -0.226964 76 0 153
-0.090999 0.287883 -0.290686 76 0 153
0.267364 -0.208178 -0.235142 0 255 0
-0.094557 0.571411 -0.160086 76 0 153
-0.068803 0.679760 0.612838 76 0 153
0.063830 -0.893409 -0.166447 76 0 153
-0.098265 0.488638 -0.221011 76 0 153
-0.010653 0.209452 0.675890 76 0 153
0.029525 -0.103469 -0.236860 76 0 153
-0.055868 0.070824 -0.322484 76 0 153
0.027403 0.192681 0.787029 153 76 0
0.320394 -0.581782 -0.324840 0 255 0
0.066998 -0.726676 -0.237387 153 0 76
-0.107061 0.161088 0.754144 153 76 0
-0.095182 0.660126 -0.143275 76 0 153
-0.033114 -0.358072 -0.156415 153 0 76
-0.055735 0.807053 0.021871 76 0 153
0.083601 -0.864625 -0.321394 76 0 153
-0.028534 0.423579 -0.177476 76 0 153
0.031711 -0.313741 -0.262339 76 0 153
-0.025468 0.333436 0.606605 76 0 153
-0.024058 -0.754159 -0.362812 153 0 76
0.018357 0.704543 0.576505 76 0 153
-0.005548 0.007505 -0.321087 76 0 153
-0.016894 0.251285 0.808599 153 76 0
-0.105015 0.416738 0.661427 76 0 153
0.286368 -0.629999 -0.268875 0 255 0
-0.016626 0.175295 0.809153 153 76 0
-0.047493 0.209473 0.661942 76 0 153
-0.059769 0.845304 0.202715 76 0 153
-0.101842 0.669525 0.558221 76 0 153
-0.135077 -0.383842 -0.268171 153 0 76
0.032178 0.524708 -0.204405 76 0 153
-0.051568 -0.546590 -0.160086 153 0 76
-0.014829 0.692991 0.073080 76 0 153
0.035731 0.396737 0.683752 76 0 153
-0.004030 0.796048 0.002388 76 0 153
-0.019641 -0.469058 -0.158860 153 0 76
0.031041 0.759059 0.026927 76 0 153
-0.043171 0.824470 0.412552 76 0 153
-0.012735 -0.594499 -0.360560 153 0 76
-0.071900 -0.414085 -0.356663 153 0 76
-0.016873 0.703210 0.097939 76 0 153
-0.026807 -0.211084 -0.325991 76 0 153
-0.052047 -0.445739 -0.360613 153 0 76
0.159806 -0.457237 -0.290965 204 51 127
-0.096181 -0.229282 -0.244938 76 0 153
0.071357 -0.389269 -0.259302 153 0 76
0.129715 -0.500086 -0.179281 204 51 127
0.021970 0.281295 -0.296645 76 0 153
0.068154 -0.837169 -0.243198 76 0 153
0.022690 0.144293 0.718771 153 76 0
-0.008066 0.719987 0.168686 76 0 153
0.094878 -0.542426 -0.168598 204 51 127
0.002923 -0.770200 -0.163349 153 0 76
0.033832 0.750586 0.436684 76 0 153
-0.119507 -0.431823 -0.206803 153 0 76
0.022092 0.809296 0.343765 76 0 153
0.016546 0.255462 -0.216030 76 0 153
-0.096445 -0.270388 -0.246269 76 0 153
-0.064296 0.216217 -0.317881 76 0 153
-0.008318 0.816849 0.428138 76 0 153
-0.010408 0.191285 -0.198065 76 0 153
-0.082245 0.446806 0.729206 76 0 153
-0.021259 0.640169 -0.038601 76 0 153
0.011547 -0.563946 -0.167023 153 0 76
-0.052983 -0.481115 -0.160367 153 0 76
-0.021284 -0.596643 -0.158533 153 0 76
0.011138 0.217528 -0.210857 76 0 153
0.059332 -0.647330 -0.306698 153 0 76
0.251957 -0.261447 -0.246152 0 255 0
-0.090083 0.777406 0.438872 76 0 153
0.005569 -0.116033 -0.313658 76 0 153
-0.042784 0.227873 0.816188 153 76 0
0.033369 0.219908 0.768577 153 76 0
-0.097461 0.440264 -0.250576 76 0 153
-0.001913 -0.137739 -0.318658 76 0 153
0.004680 0.667351 -0.010403 76 0 153
-0.119319 -0.353700 -0.206521 153 0 76
-0.000925 0.063623 -0.202796 76 0 153
-0.096884 0.740571 -0.006042 76 0 153
-0.011603 0.358410 -0.194464 76 0 153
-0.020983 0.053933 -0.195961 76 0 153
0.320064 -0.631656 -0.258103 0 255 0
0.302492 -0.450556 -0.258450 0 255 0
0.003136 -0.326733 -0.266779 153 0 76
0.010247 0.730474 0.153583 76 0 153
0.004254 0.095818 -0.314537 76 0 153
-0.107743 0.407397 0.698434 76 0 153
0.307801 -0.454451 -0.276917 0 255 0
0.201609 -0.603728 -0.320774 204 51 127
0.122289 -0.457513 -0.292112 204 51 127
-0.122803 -0.711509 -0.211736 153 0 76
0.021992 0.553271 0.686252 76 0 153
-0.011629 -0.177173 -0.322972 76 0 153
-0.090034 0.752155 0.192870 76 0 153
0.009562 -0.897689 -0.386896 76 0 153
0.058656 -0.808937 -0.213084 153 0 76
0.273951 -0.376062 -0.287416 0 255 0
0.294442 -0.124656 -0.242532 0 255 0
-0.023199 -0.872817 -0.128260 76 0 153
0.034112 0.014478 -0.259919 76 0 153
-0.063818 0.559927 0.546522 76 0 153
-0.126117 -0.433465 -0.304098 153 0 76
0.010634 -0.878745 -0.133966 76 0 153
-0.061117 -0.928530 -0.300069 76 0 153
0.034040 0.731034 -0.000239 76 0 153
0.291320 -0.152349 -0.281383 0 255 0
0.090331 -0.617177 -0.210562 204 51 127
-0.134656 -0.530945 -0.270287 153 0 76
-0.114346 -0.461790 -0.199078 153 0 76
-0.076747 0.556614 0.560117 76 0 153
0.245921 -0.532612 -0.349248 0 255 0
-0.006718 0.725072 0.265464 76 0 153
-0.083305 0.186793 0.802953 153 76 0
-0.120433 -0.627437 -0.208188 153 0 76
0.010458 -0.928530 -0.150480 76 0 153
0.050242 -0.653733 -0.200491 153 0 76
-0.100400 0.387203 0.684205 76 0 153
-0.108198 -0.849820 -0.357549 76 0 153
-0.005854 -0.764689 -0.359191 153 0 76
0.009914 -0.214187 -0.210038 76 0 153
-0.006840 -0.270990 -0.198843 76 0 153
0.067703 -0.678438 -0.279861 153 0 76
0.000422 0.721965 0.130258 76 0 153
-0.112394 -0.723665 -0.196158 153 0 76
0.027773 0.754807 0.174539 76 0 153
0.043679 0.476375 0.660194 76 0 153
-0.031402 0.219047 0.627901 76 0 153
0.079849 -0.484566 -0.329715 204 51 127
0.030815 0.766976 0.194347 76 0 153
-0.129974 -0.872992 -0.169404 76 0 153
-0.097851 -0.567573 -0.339540 153 0 76
0.124373 -0.560943 -0.347209 204 51 127
-0.088972 0.728687 0.532577 76 0 153
-0.027079 0.011384 -0.326045 76 0 153
-0.027089 0.344978 -0.323633 76 0 153
-0.094453 0.643757 0.518466 76 0 153
0.101544 -0.529663 -0.349461 204 51 127
0.030505 0.734605 0.057203 76 0 153
0.040465 0.333099 0.690875 76 0 153
-0.096993 0.402109 -0.264834 76 0 153
0.007796 0.414119 0.753074 76 0 153
-0.027035 -0.402927 -0.157389 153 0 76
0.011344 0.182733 0.814488 153 76 0
0.002234 -0.832305 -0.357582 153 0 76
0.320394 -0.465282 -0.239359 0 255 0
-0.032939 -0.696521 -0.156380 153 0 76
-0.001271 -0.199796 -0.318229 76 0 153
0.029988 0.663735 -0.077036 76 0 153
0.009723 0.590774 0.678624 76 0 153
0.032229 0.700150 -0.082868 76 0 153
-0.031327 -0.733856 -0.156536 153 0 76
-0.096515 0.524641 -0.200692 76 0 153
0.016581 0.584184 -0.126931 76 0 153
-0.030873 0.193168 0.823160 153 76 0
0.018058 0.368523 0.750567 76 0 153
-0.066310 0.321138 -0.315807 76 0 153
0.060120 -0.442087 -0.215275 153 0 76
-0.075420 0.831261 0.159652 76 0 153
0.017307 -0.647269 -0.349894 153 0 76
0.032836 0.637346 -0.127832 76 0 153
-0.056185 -0.731190 -0.359789 153 0 76
0.035078 -0.508505 -0.174929 204 51 127
0.003457 0.305549 0.658542 76 0 153
0.213938 -0.450795 -0.263362 0 255 0
-0.077095 -0.351519 -0.167385 153 0 76
-0.095481 -0.163435 -0.241422 76 0 153
0.000368 -0.715506 -0.162840 153 0 76
0.008978 0.675042 -0.172245 76 0 153
-0.011150 -0.395393 -0.360244 153 0 76
-0.115755 -0.904373 -0.363814 76 0 153
0.012158 0.824398 0.095864 76 0 153
-0.132183 -0.419527 -0.282720 153 0 76
-0.094777 0.774122 0.045341 76 0 153
0.016118 -0.473838 -0.170105 153 0 76
0.218561 -0.522743 -0.346604 0 255 0
-0.095102 0.747524 0.348092 76 0 153
-0.093229 -0.418250 -0.178165 153 0 76
0.017379 0.741667 0.529080 76 0 153
-0.098730 0.779615 0.288489 76 0 153
0.036273 0.229088 0.750517 153 76 0
-0.078379 0.453203 -0.287357 76 0 153
-0.020742 0.215664 0.819274 153 76 0
0.046364 -0.831816 -0.194688 153 0 76
0.002304 0.368543 -0.311760 76 0 153
-0.011034 0.850329 0.239757 76 0 153
-0.039088 0.421646 0.604723 76 0 153
-0.099239 0.672072 -0.099456 76 0 153
0.033662 0.767195 0.079218 76 0 153
0.137414 -0.472016 -0.203695 204 51 127
-0.070807 0.726372 -0.118210 76 0 153
-0.130843 -0.326733 -0.265208 153 0 76
0.005615 0.481296 -0.172897 76 0 153
0.252639 -0.619845 -0.214613 0 255 0
-0.043229 -0.797310 -0.362367 153 0 76
-0.066790 0.380184 -0.199676 76 0 153
-0.031754 0.487192 -0.296166 76 0 153
-0.073349 0.681982 0.428119 76 0 153
-0.074209 -0.326733 -0.285319 153 0 76
-0.040981 0.689893 0.616387 76 0 153
-0.097940 0.197674 -0.253787 76 0 153
-0.085929 0.678056 -0.025893 76 0 153
-0.150341 -0.911742 -0.198816 76 0 153
0.320394 -0.568781 -0.264577 0 255 0
0.259352 -0.138882 -0.282037 0 255 0
-0.011047 0.525682 -0.143833 76 0 153
-0.050626 -0.094379 -0.197266 76 0 153
-0.077689 -0.927157 -0.386058 76 0 153
0.033375 0.381178 -0.251243 76 0 153
0.042750 -0.463594 -0.189279 153 0 76
-0.059448 -0.190503 -0.199671 76 0 153
0.292616 -0.585861 -0.339548 0 255 0
-0.031733 0.569226 -0.269300 76 0 153
-0.042840 -0.326733 -0.286935 153 0 76
0.074385 -0.605111 -0.198477 204 51 127
0.017271 0.827327 0.193899 76 0 153
-0.040028 -0.768011 -0.363003 153 0 76
0.044504 -0.401773 -0.191905 153 0 76
0.006038 0.602840 -0.097480 76 0 153
0.017224 0.493887 -0.269846 76 0 153
0.244772 -0.505370 -0.178845 0 255 0
-0.087029 -0.389442 -0.346771 153 0 76
0.010904 0.703820 0.064122 76 0 153
-0.106564 0.199248 0.739305 153 76 0
0.069474 -0.360953 -0.270961 153 0 76
0.005663 0.047438 -0.313596 76 0 153
-0.001317 -0.651146 -0.162505 153 0 76
-0.097532 0.754675 0.078837 76 0 153
-0.076105 0.407594 -0.303046 76 0 153
0.023836 0.713447 0.045458 76 0 153
0.054135 -0.627861 -0.314816 153 0 76
-0.102212 0.705814 0.496528 76 0 153
-0.054878 -0.234024 -0.198112 76 0 153
-0.045423 -0.396687 -0.158863 153 0 76
0.258208 -0.504006 -0.341583 0 255 0
-0.093002 -0.874501 -0.379286 76 0 153
-0.004730 0.691560 0.609649 76 0 153
-0.035885 0.235337 -0.326459 76 0 153
-0.102720 -0.928530 -0.237154 76 0 153
0.029848 0.757404 0.299761 76 0 153
-0.067673 -0.677997 -0.357504 153 0 76
-0.012469 0.720154 0.585613 76 0 153
-0.052670 0.246456 0.630802 76 0 153
-0.093556 -0.066836 -0.233933 76 0 153
0.195062 -0.606340 -0.201562 0 255 0
-0.064407 0.818657 0.405461 76 0 153
-0.120412 -0.928530 -0.179695 76 0 153
-0.138785 -0.865255 -0.336260 76 0 153
-0.135437 -0.403850 -0.254431 153 0 76
-0.131278 -0.446377 -0.233524 153 0 76
-0.099460 0.744091 0.444158 76 0 153
-0.035421 0.378899 0.769801 76 0 153
-0.053853 0.826880 0.067158 76 0 153
0.277827 -0.332913 -0.233848 0 255 0
0.274316 -0.393693 -0.239303 0 255 0
0.103922 -0.519943 -0.173939 204 51 127
-0.058731 0.440663 0.600817 76 0 153
-0.069566 0.711763 0.093447 76 0 153
-0.047872 -0.871966 -0.129766 76 0 153
-0.055734 0.524638 -0.144934 76 0 153
0.022883 0.063514 -0.295278 76 0 153
0.095490 -0.896250 -0.294923 76 0 153
0.298723 -0.280419 -0.246999 0 255 0
-0.014865 -0.486939 -0.159810 153 0 76
0.233000 -0.486276 -0.330030 0 255 0
0.010912 0.775412 0.477806 76 0 153
-0.090180 -0.147618 -0.291914 76 0 153
0.033081 0.781304 0.229546 76 0 153
-0.068124 -0.326589 -0.207958 153 0 76
-0.106542 0.372685 0.713252 76 0 153
0.102006 -0.897259 -0.262126 76 0 153
-0.071577 0.453787 0.742999 76 0 153
0.006654 0.425943 -0.300444 76 0 153
-0.038737 -0.128622 -0.325892 76 0 153
-0.072399 0.732349 0.199482 76 0 153
0.030106 0.778035 0.059259 76 0 153
0.256470 -0.193372 -0.241639 0 255 0
0.022807 -0.121472 -0.295393 76 0 153
0.039036 0.547008 0.655244 76 0 153
0.030708 0.797339 0.312755 76 0 153
-0.063975 0.717416 0.116087 76 0 153
0.017688 -0.443501 -0.349639 153 0 76
-0.017999 -0.502637 -0.361607 153 0 76
-0.008076 -0.887870 -0.390479 76 0 153
-0.063484 0.174829 0.807463 153 76 0
-0.027351 0.511836 0.565783 76 0 153
-0.042534 -0.202610 -0.195656 76 0 153
0.062671 -0.889886 -0.355950 76 0 153
0.250955 -0.340731 -0.272522 0 255 0
-0.089775 0.362530 0.662832 76 0 153
0.026078 0.154571 -0.290497 76 0 153
-0.019597 0.109168 -0.324556 76 0 153
-0.022053 0.697505 -0.167614 76 0 153
0.027671 -0.480063 -0.342969 153 0 76
-0.127361 -0.391617 -0.218557 153 0 76
-0.098755 0.390675 0.655187 76 0 153
-0.062887 0.756638 0.529446 76 0 153
0.021231 0.390195 0.739351 76 0 153
0.302119 -0.185136 -0.259671 0 255 0
-0.115810 -0.500035 -0.319524 153 0 76
0.011252 0.461332 -0.286294 76 0 153
0.249595 -0.335301 -0.253347 0 255 0
0.177599 -0.596192 -0.189677 204 51 127
-0.087812 0.692908 -0.128520 76 0 153
-0.096459 0.797106 0.293956 76 0 153
-0.089211 0.732741 0.089221 76 0 153
0.061763 -0.494481 -0.181142 204 51 127
-0.093049 0.749590 -0.023799 76 0 153
-0.088034 0.269357 0.781033 76 0 153
-0.097653 -0.243237 -0.268451 76 0 153
0.041190 -0.363389 -0.186944 153 0 76
0.031483 0.670048 0.496812 76 0 153
-0.099946 -0.554689 -0.182653 153 0 76
0.035495 0.673389 0.563822 76 0 153
0.114174 -0.596169 -0.331213 204 51 127
0.032444 0.621060 -0.166141 76 0 153
0.087273 -0.928530 -0.249297 76 0 153
0.248587 -0.225580 -0.257108 0 255 0
0.147436 -0.476249 -0.321321 204 51 127
0.031328 0.465366 0.624575 76 0 153
0.018599 0.615802 0.519701 76 0 153
0.075171 -0.460220 -0.218430 204 51 127
0.069062 -0.737408 -0.273031 153 0 76
0.049953 -0.460836 -0.321134 153 0 76
-0.054893 0.700513 0.379875 76 0 153
0.010190 -0.730664 -0.166144 153 0 76
-0.074643 -0.928530 -0.215967 76 0 153
-0.116257 -0.547989 -0.318855 153 0 76
-0.094002 0.697170 -0.011898 76 0 153
-0.056776 -0.625740 -0.161122 153 0 76
-0.028526 0.630075 0.672255 76 0 153
0.088628 -0.849820 -0.256957 76 0 153
-0.034254 0.260189 -0.326783 76 0 153
-0.106044 0.568904 0.612269 76 0 153
-0.026425 0.605972 0.502274 76 0 153
0.029219 0.528245 0.686179 76 0 153
0.030079 0.759635 0.150544 76 0 153
0.017577 0.230740 0.687458 76 0 153
