ply
format ascii 1.0
element vertex 1277
property float x
property float y
property float z
property uchar red
property uchar green
property uchar blue
end_header
-0.736894 0.222847 -0.091821 0 0 255
0.176514 -0.090493 0.043876 127 127 0
-0.103672 -0.270379 0.247167 0 127 127
0.868891 0.012457 -0.008607 153 0 76
-0.937096 0.036086 -0.027245 76 0 153
-0.075249 -0.229231 -0.182625 127 0 127
-0.218133 -0.257154 -0.095781 153 76 0
-0.210704 -0.026370 0.134198 0 0 255
-0.386917 0.222849 -0.148682 0 0 255
0.200846 -0.213581 0.110346 76 153 0
-0.093946 -0.175205 -0.182625 127 0 127
-0.099195 0.257321 0.038185 0 0 255
-0.892342 -0.227226 0.142345 76 0 153
0.241351 0.189510 0.076180 76 0 153
-0.090083 -0.187626 -0.031156 76 0 153
0.032375 -0.317058 0.214216 153 76 0
0.186801 0.155603 -0.168150 127 0 127
-0.127657 0.065551 0.104799 76 0 153
0.390654 0.222847 0.091251 0 0 255
0.038290 -0.103357 -0.057687 127 127 0
0.213090 -0.236878 0.033344 76 153 0
0.874055 -0.285529 -0.001038 153 0 76
0.002023 -0.103358 0.076599 127 127 0
0.825591 0.257321 -0.124659 0 0 255
0.100378 -0.330923 0.195421 153 76 0
-0.264415 0.219224 0.020867 0 0 255
0.127680 -0.042915 -0.182625 127 0 127
-0.045778 -0.253154 0.247167 0 127 127
-0.198061 0.111535 -0.038025 76 0 153
0.143832 -0.285478 0.259810 0 127 127
-0.051315 -0.330923 0.153828 153 76 0
0.167029 0.065551 -0.031717 76 0 153
-0.115224 0.208193 -0.002638 0 0 255
-0.044164 0.212773 -0.182625 0 0 255
-0.936783 0.176686 0.129175 76 0 153
-0.872461 -0.233283 0.036911 76 0 153
0.494630 0.254951 -0.175552 0 0 255
-0.044372 -0.261492 -0.043483 76 0 153
-0.027478 0.108795 -0.173578 127 0 127
-0.223917 -0.350166 0.140909 153 0 76
0.550167 0.227297 -0.179569 0 0 255
0.200849 0.101646 -0.006342 153 0 76
-0.366799 0.222847 -0.041102 0 0 255
0.010437 -0.089640 0.085347 127 127 0
0.095916 -0.330923 0.226345 153 76 0
0.125394 0.065551 -0.037860 76 0 153
-0.938836 0.202454 0.052637 0 0 255
-0.188286 -0.103358 0.096517 127 127 0
-0.356472 0.223231 0.143021 0 0 255
-0.933862 -0.350400 0.053525 76 0 153
-0.210620 0.029659 0.157947 0 0 255
-0.098842 0.257321 0.103038 0 0 255
0.928364 -0.229455 -0.003620 153 0 76
0.160032 -0.089493 0.094210 127 127 0
-0.177351 -0.333193 0.075430 153 0 76
0.178604 0.034890 -0.066890 0 255 0
-0.222228 0.086178 -0.182511 127 0 127
-0.198061 0.173316 -0.025893 76 0 153
-0.207003 0.204118 0.008669 76 0 153
-0.559063 0.238673 0.156611 0 0 255
0.219240 0.057377 -0.051786 76 0 153
-0.237948 -0.067044 -0.123012 153 76 0
0.167433 0.166795 -0.139621 153 76 0
-0.152227 0.065551 -0.092518 76 0 153
0.065292 -0.349904 0.089607 153 0 76
0.239035 0.053042 -0.078261 76 0 153
0.219295 0.051627 -0.126876 76 0 153
0.096914 0.208193 -0.089984 0 0 255
-0.198061 -0.061317 0.078830 0 0 255
-0.549214 0.222847 -0.103889 0 0 255
-0.160709 0.147750 0.163672 76 153 0
0.200846 -0.257527 0.162539 76 153 0
0.239059 -0.296254 -0.002596 76 0 153
0.258043 0.216618 0.067016 0 0 255
-0.064403 0.256319 -0.071334 0 0 255
-0.148540 -0.243052 0.247167 0 127 127
0.199509 -0.325845 -0.135322 153 0 76
-0.036534 -0.145159 0.247167 0 127 127
-0.237948 -0.249685 -0.081345 153 76 0
-0.250501 0.209278 -0.004100 0 0 255
0.603653 0.222851 0.129083 0 0 255
-0.210704 0.092895 -0.092966 76 0 153
-0.045799 0.158026 -0.182625 127 0 127
0.874055 -0.261800 -0.030957 153 0 76
-0.028509 -0.103358 0.190667 127 127 0
-0.872461 -0.282214 -0.122682 76 0 153
0.099534 0.140403 -0.139621 153 76 0
-0.145480 -0.219657 0.247167 0 127 127
-0.046961 -0.330923 0.204698 153 76 0
-0.934445 0.203293 0.139470 0 0 255
-0.024436 -0.089493 0.118880 127 127 0
-0.101701 0.256315 -0.158621 0 0 255
0.079538 -0.090340 0.070105 127 127 0
-0.173331 0.078416 0.056240 76 0 153
0.202406 0.257321 -0.009802 0 0 255
0.010191 -0.330923 -0.021835 153 76 0
0.004912 -0.266703 -0.031631 76 0 153
0.018346 -0.332770 -0.084789 153 0 76
-0.031795 -0.103357 -0.057350 127 127 0
0.158794 0.257321 -0.044557 0 0 255
-0.210704 -0.214008 0.069444 153 0 76
0.933213 0.154820 0.113923 153 0 76
-0.937096 0.135204 0.092445 76 0 153
-0.236889 -0.236227 -0.174906 153 76 0
-0.198200 -0.140342 0.042946 153 0 76
0.238958 -0.054704 -0.047177 76 0 153
0.122217 -0.103358 0.012532 127 127 0
0.213324 -0.215256 0.213539 76 153 0
0.933526 -0.248421 -0.033061 153 0 76
-0.087360 -0.317107 -0.011970 153 76 0
0.927904 0.255870 -0.164397 0 0 255
-0.162209 -0.007372 -0.063812 0 255 0
0.500185 0.256850 0.099940 0 0 255
0.160222 -0.330923 0.219432 153 76 0
0.123173 0.257321 -0.156626 0 0 255
-0.494036 0.257321 0.061629 0 0 255
-0.148548 -0.330923 -0.019202 153 76 0
0.212974 -0.149289 -0.010236 76 153 0
0.874055 -0.299836 -0.059098 153 0 76
-0.179019 -0.313413 -0.020412 76 0 153
0.070460 0.211921 0.138717 0 0 255
0.070637 -0.231364 -0.030839 76 0 153
-0.034672 -0.103358 0.044133 127 127 0
-0.883569 -0.266144 -0.182439 76 0 153
0.090394 0.002510 -0.076456 0 255 0
0.612259 0.257321 -0.143723 0 0 255
0.213442 -0.318795 0.210724 76 153 0
0.933219 -0.128977 -0.164574 153 0 76
-0.187477 -0.061526 0.210972 204 51 127
0.147142 -0.137062 -0.030910 76 0 153
-0.573942 0.222847 0.019002 0 0 255
0.437451 0.223298 0.145148 0 0 255
0.209715 0.108132 -0.153487 76 0 153
-0.794237 0.222847 0.096602 0 0 255
0.928364 0.102534 -0.081434 153 0 76
-0.008560 0.035713 -0.069009 0 255 0
0.754922 0.257321 -0.022656 0 0 255
-0.156258 0.256319 -0.091141 0 0 255
-0.092626 -0.305767 0.259810 0 127 127
0.839436 0.225033 -0.178976 153 0 76
0.136822 0.177123 -0.139621 153 76 0
-0.198413 0.146235 -0.043766 76 0 153
0.223079 0.256319 0.095825 0 0 255
-0.237948 -0.099188 0.061749 153 76 0
0.938275 0.254368 0.066994 0 0 255
-0.726191 0.257321 -0.051464 0 0 255
-0.169572 0.170995 -0.126982 153 76 0
0.239059 -0.238145 -0.093680 76 0 153
-0.033020 -0.089493 0.150785 127 127 0
0.933241 -0.196294 0.036341 153 0 76
-0.075359 0.208193 0.012705 0 0 255
-0.463886 0.253171 -0.177141 0 0 255
-0.207179 0.035018 0.094993 0 0 255
-0.142532 0.065552 0.144378 76 0 153
0.874055 0.099111 -0.034769 153 0 76
0.213456 0.161658 -0.030447 153 0 76
-0.237948 -0.033450 0.082757 153 76 0
-0.198609 -0.251739 0.060559 153 0 76
0.923414 -0.140111 0.113876 153 0 76
-0.003805 0.065551 0.105021 76 0 153
-0.054732 0.079416 0.117474 76 0 153
0.315350 0.256694 0.069954 0 0 255
-0.191940 0.150356 0.144265 76 153 0
0.227698 0.112829 0.140464 76 0 153
-0.046383 0.015641 -0.182625 127 0 127
-0.218133 -0.207760 -0.112564 153 76 0
0.012757 0.160946 0.151028 76 153 0
0.873999 -0.088360 0.003372 153 0 76
0.184636 0.078550 -0.006515 76 0 153
0.016812 0.102652 -0.182625 127 0 127
0.007113 0.001676 -0.064276 0 255 0
-0.089129 -0.239806 -0.030839 76 0 153
-0.873202 0.105743 -0.168779 76 0 153
0.082312 -0.103358 -0.012468 127 127 0
0.239058 0.156413 -0.065558 76 0 153
0.044982 0.145223 -0.182625 127 0 127
0.890831 -0.311751 0.133510 153 0 76
0.161321 -0.332201 0.082476 153 0 76
-0.196322 -0.102112 -0.164014 127 0 127
0.931544 -0.252398 -0.179402 153 0 76
0.174570 -0.277097 -0.182625 127 0 127
-0.749822 0.257321 -0.013645 0 0 255
0.238693 0.019705 -0.087620 76 0 153
0.239059 -0.249273 -0.033933 76 0 153
-0.576209 0.222847 -0.044516 0 0 255
-0.048841 -0.076634 0.226837 204 51 127
-0.375100 0.257321 0.083902 0 0 255
-0.121236 0.137366 0.163672 76 153 0
-0.237948 0.021201 0.009313 153 76 0
-0.827321 0.222943 0.123404 0 0 255
-0.238159 0.176416 -0.091516 153 76 0
0.329966 0.257321 -0.113682 0 0 255
0.201286 -0.037572 -0.076448 0 255 0
-0.187204 -0.226717 -0.182625 127 0 127
0.053584 -0.333129 -0.078986 153 0 76
0.868891 -0.137739 -0.045417 153 0 76
-0.237948 0.093071 0.055089 153 76 0
-0.699985 0.256431 -0.151415 0 0 255
0.239057 -0.014811 0.101206 76 0 153
-0.198061 0.160901 0.083606 76 0 153
-0.210704 0.161265 0.070519 76 0 153
0.933526 0.091407 0.031596 153 0 76
-0.058369 0.172056 -0.139621 153 76 0
-0.218133 0.013776 -0.025840 153 76 0
0.096933 -0.330923 0.131353 153 76 0
-0.237948 -0.120622 -0.054340 153 76 0
0.239057 0.016796 0.103596 76 0 153
-0.635191 0.222847 -0.025672 0 0 255
0.238317 0.162271 -0.173820 76 0 153
-0.218133 0.120236 -0.001676 153 76 0
0.137196 0.113924 -0.126978 153 76 0
-0.237818 0.093830 0.123835 153 76 0
0.663881 0.254021 0.150637 0 0 255
-0.167428 0.134352 -0.172573 127 0 127
-0.877290 -0.093042 -0.181658 76 0 153
-0.162637 0.065551 0.105579 76 0 153
-0.105715 -0.317084 -0.008306 153 76 0
-0.422741 0.257208 -0.061391 0 0 255
-0.181651 -0.352654 -0.053260 153 0 76
-0.091747 0.256701 -0.034127 0 0 255
-0.055348 -0.103358 0.089254 127 127 0
0.869145 -0.340757 0.121260 153 0 76
0.186532 -0.205135 -0.028927 76 0 153
0.090409 -0.317058 0.154788 153 76 0
0.216504 -0.297146 -0.137568 76 0 153
0.933492 -0.106639 -0.159056 153 0 76
0.643406 0.257321 0.051528 0 0 255
-0.218133 -0.136503 -0.115253 153 76 0
-0.077162 0.065551 -0.017755 76 0 153
0.908809 0.067924 0.130218 153 0 76
0.853968 0.209907 0.050238 153 0 76
0.238246 -0.044520 -0.135309 76 0 153
-0.118149 -0.330923 0.058715 153 76 0
-0.199953 -0.206813 -0.182623 127 0 127
-0.237949 -0.318944 -0.082476 153 76 0
0.144512 -0.103358 0.035042 127 127 0
-0.237948 -0.088696 -0.102888 153 76 0
0.046261 -0.065896 -0.064643 0 255 0
-0.218133 -0.002658 0.044472 153 76 0
0.823372 0.257273 0.134209 0 0 255
0.189801 0.203953 0.091679 0 0 255
-0.242505 0.197607 -0.045378 153 76 0
0.105617 -0.090236 0.073024 127 127 0
0.302251 0.222848 0.115040 0 0 255
-0.092074 -0.177327 -0.043483 76 0 153
-0.010542 -0.328243 -0.042519 153 76 0
0.874055 -0.249434 -0.071762 153 0 76
-0.156228 0.032629 0.225832 204 51 127
0.194140 0.081712 0.024167 76 0 153
-0.167635 -0.349952 -0.026236 153 0 76
0.089949 -0.188161 0.247167 0 127 127
0.933218 0.156896 -0.157271 153 0 76
0.928364 -0.096761 -0.109128 153 0 76
0.013006 -0.236626 0.259553 0 127 127
0.868891 -0.105529 0.026899 153 0 76
0.206313 -0.137193 -0.157172 127 0 127
-0.326062 0.256606 -0.078142 0 0 255
-0.872461 -0.313288 -0.078815 76 0 153
0.309888 0.222847 0.070484 0 0 255
-0.127150 -0.254039 -0.182625 127 0 127
-0.076832 -0.115586 -0.182625 127 0 127
-0.058727 -0.212183 -0.043483 76 0 153
0.096539 -0.317083 0.040117 153 76 0
0.868891 -0.059657 -0.034558 153 0 76
-0.200152 0.056260 -0.182623 127 0 127
-0.279082 0.257321 0.050256 0 0 255
0.197786 0.257321 -0.125234 0 0 255
0.928364 0.119217 0.054060 153 0 76
-0.290571 0.257321 0.132933 0 0 255
0.044768 0.065551 0.083770 76 0 153
-0.908961 0.220673 0.153081 0 0 255
0.212148 -0.146329 0.256495 0 127 127
-0.163763 -0.076863 -0.172593 127 0 127
0.061849 -0.236572 0.259810 0 127 127
0.417093 0.247211 0.156168 0 0 255
0.363779 0.257321 -0.046578 0 0 255
-0.014083 0.065551 0.035086 76 0 153
0.868891 -0.260032 -0.083938 153 0 76
-0.193857 0.202165 -0.119787 0 0 255
0.928422 -0.313820 -0.130152 153 0 76
-0.049778 0.108490 0.163672 76 153 0
0.168615 0.065551 0.011153 76 0 153
0.292271 0.244258 0.156468 0 0 255
-0.832151 0.222972 -0.004695 0 0 255
-0.873173 0.003233 -0.162520 76 0 153
0.216617 -0.012212 -0.141881 76 0 153
-0.065119 0.009487 -0.182625 127 0 127
-0.218133 -0.224791 -0.101520 153 76 0
0.180632 0.076635 -0.139542 153 76 0
0.087700 0.079416 0.033054 76 0 153
0.164434 -0.103358 0.113531 127 127 0
-0.937096 -0.043489 -0.101548 76 0 153
0.868891 0.072787 0.030778 153 0 76
-0.210704 -0.002864 0.165348 0 0 255
-0.508447 0.222847 0.085628 0 0 255
0.150135 0.208564 -0.134437 0 0 255
-0.074178 -0.103358 0.100600 127 127 0
-0.161630 0.109365 0.151028 76 153 0
0.182896 0.196009 -0.126042 153 76 0
0.663479 0.222847 0.020970 0 0 255
-0.198061 -0.290979 0.118128 153 0 76
-0.127420 0.024986 0.226173 204 51 127
-0.218133 0.154653 -0.073803 153 76 0
0.873909 -0.050895 0.007163 153 0 76
0.177892 0.184295 -0.182625 127 0 127
-0.006894 0.115068 0.163300 76 153 0
0.105469 0.065551 0.027461 76 0 153
0.674030 0.257321 -0.101042 0 0 255
-0.110829 -0.090222 0.086335 127 127 0
0.120789 -0.349904 -0.129875 153 0 76
-0.159202 -0.103358 0.193026 127 127 0
0.872892 -0.103389 -0.169317 153 0 76
0.179989 -0.013365 0.226837 204 51 127
0.194946 -0.328305 -0.051465 153 0 76
-0.405850 0.222932 -0.160449 0 0 255
-0.198332 -0.139337 0.014618 153 0 76
0.928364 0.066344 -0.017790 153 0 76
-0.872461 -0.100779 -0.041080 76 0 153
0.932527 -0.115908 0.091985 153 0 76
0.675731 0.222851 0.129781 0 0 255
0.793517 0.257321 -0.140951 0 0 255
0.868891 -0.192191 -0.100736 153 0 76
0.887400 -0.272684 0.142336 153 0 76
-0.872831 -0.086082 0.021673 76 0 153
-0.274570 0.222969 -0.007444 0 0 255
0.212775 -0.228003 -0.009630 76 153 0
0.596467 0.257321 0.022106 0 0 255
-0.472461 0.222847 0.072299 0 0 255
-0.210704 -0.299757 0.022757 153 0 76
-0.477612 0.222847 -0.008535 0 0 255
0.199697 0.256319 0.117935 0 0 255
-0.112677 0.045502 -0.172577 127 0 127
0.117779 -0.219825 -0.030839 76 0 153
0.705652 0.222847 0.054262 0 0 255
-0.341690 0.222847 0.065375 0 0 255
-0.204706 -0.357641 -0.100021 153 0 76
-0.210702 -0.087844 0.086890 0 0 255
0.310837 0.257321 0.011185 0 0 255
-0.237948 0.029888 -0.065518 153 76 0
-0.873191 -0.024681 -0.166303 76 0 153
0.890793 0.190098 0.144835 153 0 76
-0.190211 -0.103358 0.146784 127 127 0
0.101766 -0.089493 0.172222 127 127 0
-0.005626 -0.332872 0.018253 153 0 76
0.165349 -0.167651 0.247167 0 127 127
-0.872658 -0.060285 0.025907 76 0 153
-0.198224 -0.289846 0.201569 153 0 76
0.043223 -0.186456 -0.173559 127 0 127
0.064282 -0.349904 -0.026616 153 0 76
0.941603 0.252499 -0.112285 0 0 255
0.109819 0.065551 -0.045351 76 0 153
0.022441 0.208193 0.079032 0 0 255
0.213489 0.015164 0.173215 255 0 0
-0.062510 0.153629 0.163642 76 153 0
-0.012882 0.009961 0.214194 204 51 127
-0.059551 0.106650 0.151029 76 153 0
-0.009925 -0.200252 -0.182625 127 0 127
-0.208604 -0.327825 0.120357 153 0 76
0.177702 0.129870 -0.126989 153 76 0
-0.873159 0.060401 -0.159624 76 0 153
0.913966 -0.082214 0.126795 153 0 76
0.157218 0.079416 0.076057 76 0 153
-0.186997 0.165814 -0.166169 127 0 127
0.200891 0.017953 -0.044099 255 0 0
0.524018 0.256480 0.122980 0 0 255
-0.116225 -0.317058 0.021996 153 76 0
-0.170908 -0.333151 -0.090255 153 0 76
0.026963 -0.257942 0.247167 0 127 127
-0.068841 0.256318 -0.151193 0 0 255
-0.210711 0.188822 0.124381 153 76 0
0.925314 0.257203 0.105034 0 0 255
-0.009834 0.199453 -0.139503 153 76 0
-0.669545 0.222847 0.033369 0 0 255
-0.156181 -0.232337 0.259810 0 127 127
0.857211 0.256960 0.142077 0 0 255
0.930153 0.043887 0.128142 153 0 76
0.198256 -0.308969 0.138057 76 153 0
-0.072450 0.089199 -0.182625 127 0 127
-0.478727 0.222850 0.125058 0 0 255
0.219240 -0.235290 0.059580 76 0 153
-0.141714 -0.103358 0.021635 127 127 0
-0.872983 -0.350172 -0.126517 76 0 153
0.136205 0.208193 0.057914 0 0 255
-0.046427 -0.317058 0.013424 153 76 0
-0.211443 0.187117 0.025093 153 76 0
0.874055 -0.121985 0.068729 153 0 76
0.173798 -0.015148 -0.182625 127 0 127
0.570350 0.257321 -0.009665 0 0 255
0.581833 0.224735 0.149996 0 0 255
0.022803 0.208193 -0.072237 0 0 255
-0.299519 0.248860 0.156047 0 0 255
-0.040919 -0.070547 0.214215 204 51 127
0.136128 0.093276 -0.182625 127 0 127
0.267204 0.249507 0.155936 0 0 255
0.874055 0.106296 0.039956 153 0 76
-0.033072 -0.075292 -0.076456 0 255 0
0.040641 -0.205367 -0.173576 127 0 127
-0.210387 -0.222302 0.254531 153 0 76
0.200846 0.123738 -0.081394 153 0 76
0.200846 -0.292353 0.213285 76 153 0
-0.183332 -0.141042 -0.169189 127 0 127
0.873911 -0.178885 0.106236 153 0 76
-0.027445 -0.040522 0.214194 204 51 127
0.219252 -0.277934 -0.104823 76 0 153
-0.097806 -0.090493 0.095146 127 127 0
-0.669088 0.241863 -0.182215 0 0 255
0.238688 0.126992 -0.167170 76 0 153
0.017897 0.065551 -0.037171 76 0 153
0.213400 0.198706 0.122867 153 0 76
-0.237948 0.041447 -0.023130 153 76 0
-0.280008 0.235653 -0.182105 0 0 255
-0.076247 0.065551 0.120585 76 0 153
-0.198392 -0.254626 0.018807 153 0 76
-0.161198 -0.089493 0.009260 127 127 0
0.248371 0.206838 -0.099574 0 0 255
0.239059 0.069731 -0.019589 76 0 153
0.868891 0.099250 -0.083133 153 0 76
0.212569 -0.066155 0.178944 255 0 0
0.132912 0.196802 0.151045 76 153 0
-0.237948 -0.140065 -0.072240 153 76 0
-0.237948 -0.055124 -0.065292 153 76 0
-0.198548 -0.177195 0.120307 153 0 76
0.199656 -0.330875 0.134195 153 76 0
0.041262 -0.332588 -0.020276 153 0 76
-0.305098 0.223360 0.146449 0 0 255
0.947609 0.237148 0.014366 0 0 255
0.131499 0.065551 0.028367 76 0 153
-0.872461 -0.013520 0.033669 76 0 153
-0.613237 0.222847 0.088364 0 0 255
-0.509672 0.222894 0.134049 0 0 255
0.446740 0.238227 -0.182404 0 0 255
-0.198399 0.129595 -0.139539 153 76 0
0.928364 -0.030668 -0.064615 153 0 76
-0.169224 -0.138318 -0.030868 76 0 153
0.933526 0.154599 -0.005364 153 0 76
-0.131530 -0.317110 -0.012467 153 76 0
-0.210704 0.114004 0.093050 76 0 153
0.643368 0.223057 0.138544 0 0 255
-0.011515 -0.037563 -0.172706 127 0 127
0.270443 0.256993 0.049324 0 0 255
0.928364 -0.099646 0.018872 153 0 76
0.933384 -0.340599 -0.116134 153 0 76
0.239059 -0.204921 -0.045986 76 0 153
-0.197200 -0.038306 0.226828 204 51 127
-0.197002 -0.239469 -0.163546 127 0 127
0.082032 0.208193 0.025035 0 0 255
-0.946096 0.224858 0.086865 0 0 255
0.100376 -0.044889 -0.172577 127 0 127
-0.872604 -0.120953 -0.162662 76 0 153
0.239543 0.256866 0.052530 0 0 255
0.369793 0.222847 -0.115601 0 0 255
0.868893 0.054961 -0.139346 153 0 76
-0.198141 -0.180777 -0.043471 76 0 153
0.088779 0.161040 -0.182625 127 0 127
-0.074498 0.031135 0.225728 204 51 127
0.040411 -0.228829 -0.182625 127 0 127
-0.044861 0.009820 0.214194 204 51 127
-0.124140 0.065551 0.083960 76 0 153
-0.198228 -0.023813 0.028814 0 0 255
0.542145 0.222914 -0.159993 0 0 255
-0.045825 0.101340 -0.126992 153 76 0
0.213487 -0.313868 0.054865 76 153 0
-0.029977 -0.303837 -0.167965 127 0 127
-0.143340 0.163473 0.151028 76 153 0
0.171062 0.090945 -0.171468 127 0 127
-0.151956 -0.310500 0.259810 0 127 127
-0.049739 0.065551 -0.020755 76 0 153
-0.616352 0.257212 0.135754 0 0 255
-0.117046 0.257321 0.101182 0 0 255
0.176604 0.137831 -0.170340 127 0 127
-0.079011 0.106733 -0.126979 153 76 0
-0.146238 -0.039208 0.214194 204 51 127
-0.907532 0.217644 -0.182602 0 0 255
-0.062227 -0.330923 0.137044 153 76 0
-0.109912 0.193733 0.151038 76 153 0
0.874055 -0.166130 -0.029519 153 0 76
-0.037303 -0.349904 -0.038842 153 0 76
0.008403 0.079336 -0.011572 76 0 153
-0.176877 -0.103358 0.204208 127 127 0
-0.134049 0.104617 0.151034 76 153 0
0.931527 -0.027347 -0.177329 153 0 76
-0.144445 -0.085760 0.226836 204 51 127
-0.937096 0.161635 0.021631 76 0 153
0.140714 -0.059123 -0.172577 127 0 127
-0.011292 -0.317059 -0.004483 153 76 0
0.378115 0.257321 -0.118264 0 0 255
-0.937096 0.009608 0.005278 76 0 153
-0.010176 0.079416 0.117030 76 0 153
0.464487 0.257321 -0.025999 0 0 255
0.222330 -0.122074 0.138251 76 0 153
-0.030277 -0.089660 0.090050 127 127 0
-0.146086 0.108694 -0.182625 127 0 127
-0.237933 0.039599 -0.156725 153 76 0
0.417232 0.223105 -0.164846 0 0 255
0.200847 -0.211762 -0.004407 76 153 0
0.242101 0.194132 -0.063298 76 0 153
0.885160 0.253405 0.152040 0 0 255
-0.112243 0.065551 0.133833 76 0 153
0.200836 -0.330836 0.160155 153 76 0
0.191932 -0.330922 0.244749 153 76 0
0.037483 -0.206950 -0.043483 76 0 153
-0.195298 -0.082657 0.226836 204 51 127
-0.210704 -0.295983 0.211478 153 0 76
0.102491 -0.178924 0.247167 0 127 127
0.112889 -0.103314 -0.067249 127 127 0
0.366550 0.257070 -0.164459 0 0 255
0.011998 0.079416 0.056713 76 0 153
-0.872594 0.036118 -0.041811 76 0 153
0.874055 0.032558 -0.014227 153 0 76
-0.244302 0.205359 0.136835 0 0 255
-0.428532 0.222847 -0.068279 0 0 255
0.219240 0.086957 -0.004055 76 0 153
-0.937096 -0.277895 -0.029362 76 0 153
-0.006194 -0.160993 -0.182625 127 0 127
0.200848 -0.021134 0.187968 255 0 0
0.120290 -0.317058 0.177396 153 76 0
0.883190 0.127286 0.141915 153 0 76
0.458549 0.222847 0.092447 0 0 255
0.161092 0.257321 -0.069777 0 0 255
0.150771 -0.187434 0.247167 0 127 127
-0.237948 -0.271161 0.072505 153 76 0
0.174003 -0.072510 -0.182625 127 0 127
0.888930 -0.046693 0.132285 153 0 76
-0.260936 0.218592 0.132886 0 0 255
0.146545 0.257321 -0.060100 0 0 255
0.892372 0.257321 -0.077238 0 0 255
0.919386 -0.339013 -0.078019 153 0 76
0.928364 -0.188803 -0.121706 153 0 76
-0.125693 0.208194 0.097596 0 0 255
-0.071845 0.208193 -0.061914 0 0 255
0.075994 0.065551 0.053334 76 0 153
-0.218982 -0.167864 0.100892 153 76 0
-0.549296 0.223041 0.137973 0 0 255
0.933526 -0.161717 -0.064216 153 0 76
0.136346 -0.017680 -0.076456 0 255 0
0.200846 -0.291800 0.168248 76 153 0
0.868891 -0.181292 -0.079914 153 0 76
-0.218135 0.055173 0.098471 153 76 0
-0.237939 0.164808 -0.136991 153 76 0
0.075997 0.257321 -0.135005 0 0 255
-0.133160 0.078416 0.047881 76 0 153
-0.017801 -0.069136 -0.063830 0 255 0
0.213489 -0.309929 0.172528 76 153 0
0.116253 -0.333129 -0.029295 153 0 76
-0.894829 -0.351124 -0.181931 76 0 153
-0.198155 0.194079 0.065772 76 0 153
0.014755 0.065551 0.042259 76 0 153
-0.224120 -0.055304 -0.182495 127 0 127
0.161819 -0.205996 0.259810 0 127 127
0.666868 0.222847 -0.099182 0 0 255
-0.873336 -0.194566 -0.176120 76 0 153
-0.937096 0.098048 -0.110696 76 0 153
0.213489 -0.071438 -0.006672 255 0 0
-0.037262 -0.349897 -0.145328 153 0 76
0.928364 0.073346 0.051765 153 0 76
0.114852 0.065551 -0.020809 76 0 153
-0.041822 0.181034 -0.167336 127 0 127
0.200846 -0.060792 -0.034676 255 0 0
0.102802 -0.229821 -0.173488 127 0 127
0.863853 0.195321 -0.043429 153 0 76
-0.237948 -0.234130 0.041169 153 76 0
0.019264 -0.317106 -0.011801 153 76 0
0.190978 0.257321 -0.066559 0 0 255
-0.010693 -0.253380 0.259691 0 127 127
0.183546 0.152900 -0.139621 153 76 0
0.161582 0.133263 -0.126978 153 76 0
0.092384 0.256319 0.083950 0 0 255
-0.259562 0.216811 -0.141171 0 0 255
-0.153536 -0.007989 -0.076456 0 255 0
-0.898844 0.069865 -0.182589 76 0 153
0.166970 -0.332139 0.101501 153 0 76
0.218927 0.175743 0.063470 76 0 153
0.070146 -0.333129 -0.053300 153 0 76
-0.142950 -0.349904 -0.110374 153 0 76
0.873920 0.104239 -0.161727 153 0 76
0.058882 -0.317684 0.092340 153 76 0
-0.014451 -0.089493 0.033061 127 127 0
-0.299664 0.222847 0.024784 0 0 255
0.283267 0.222895 -0.102606 0 0 255
0.200602 0.095832 -0.063762 153 0 76
-0.185410 -0.335237 0.134488 153 0 76
-0.147446 -0.317348 0.222094 153 76 0
0.873668 0.028869 -0.167753 153 0 76
-0.645089 0.222847 -0.075884 0 0 255
-0.070626 0.208193 -0.093668 0 0 255
0.874055 0.072877 -0.040644 153 0 76
0.932169 -0.346840 -0.060594 153 0 76
0.933526 0.017040 -0.013468 153 0 76
0.099608 0.130953 -0.126978 153 76 0
-0.692262 0.256826 0.145428 0 0 255
-0.025229 0.079416 -0.070245 76 0 153
0.117887 -0.333192 -0.126702 153 0 76
-0.192659 -0.330923 0.150864 153 76 0
-0.237949 -0.322314 -0.031689 153 76 0
-0.045398 -0.014028 -0.172577 127 0 127
0.603005 0.222847 -0.052042 0 0 255
0.110458 -0.031341 0.214194 204 51 127
0.928364 -0.274130 -0.044960 153 0 76
0.048404 0.162180 -0.182625 127 0 127
0.150133 0.079416 0.110768 76 0 153
-0.116055 -0.188305 -0.172577 127 0 127
0.017919 0.085101 -0.172943 127 0 127
-0.210704 -0.255728 0.110128 153 0 76
-0.368911 0.222847 -0.077775 0 0 255
0.208204 -0.102700 0.057262 255 0 0
-0.014219 0.177047 -0.168735 127 0 127
-0.179618 -0.292223 0.246366 0 127 127
-0.535489 0.222847 0.081247 0 0 255
0.571495 0.257321 -0.027723 0 0 255
-0.872461 -0.299851 0.012710 76 0 153
0.055593 -0.333129 -0.112365 153 0 76
-0.446277 0.222847 -0.094240 0 0 255
0.928364 -0.181521 -0.041476 153 0 76
-0.087118 0.079416 -0.048143 76 0 153
0.132863 0.065551 -0.085986 76 0 153
-0.003190 0.208400 0.126105 0 0 255
0.135937 0.135082 0.151028 76 153 0
0.219240 -0.172954 0.028344 76 0 153
-0.136019 -0.315213 0.233715 0 127 127
0.136015 -0.181409 0.259810 0 127 127
0.928364 0.031948 -0.064965 153 0 76
0.238793 0.043837 -0.095200 76 0 153
-0.133901 -0.194915 -0.172577 127 0 127
-0.172635 0.143526 -0.139621 153 76 0
-0.379377 0.257321 0.055990 0 0 255
-0.207705 0.003332 -0.075734 0 255 0
0.933524 -0.149583 -0.157841 153 0 76
-0.191867 0.257321 0.003922 0 0 255
-0.237948 -0.240288 -0.033027 153 76 0
0.682112 0.257321 -0.139794 0 0 255
-0.110807 -0.318058 0.128335 153 76 0
0.158265 -0.349893 0.106004 153 0 76
0.219240 0.094097 0.043877 76 0 153
0.933526 -0.296768 -0.100513 153 0 76
-0.122386 -0.308905 0.241691 0 127 127
0.210752 0.032497 -0.075474 0 255 0
0.107588 0.256415 0.058602 0 0 255
0.154782 -0.033782 0.214194 204 51 127
0.212901 0.072228 0.159113 153 0 76
-0.507735 0.222849 -0.150257 0 0 255
-0.129660 0.026467 -0.172577 127 0 127
-0.873461 0.009063 -0.102599 76 0 153
-0.714971 0.257321 0.124679 0 0 255
0.200846 -0.006576 0.160682 255 0 0
-0.657852 0.257321 0.054838 0 0 255
-0.178282 0.072321 -0.170290 127 0 127
-0.025409 0.015376 -0.064742 0 255 0
0.039673 0.065551 -0.058601 76 0 153
-0.048282 -0.330923 0.234105 153 76 0
-0.084272 0.079257 -0.002244 76 0 153
-0.174748 -0.090493 0.129512 127 127 0
-0.198061 -0.288066 0.159506 153 0 76
0.200203 -0.265190 0.231347 76 153 0
-0.034416 -0.132871 -0.182625 127 0 127
0.259394 0.217326 0.117863 0 0 255
0.872220 -0.325756 -0.179790 153 0 76
-0.936951 -0.338914 -0.036145 76 0 153
0.178347 0.065551 -0.066122 153 0 76
0.175507 -0.028948 -0.170563 127 0 127
0.219240 0.067393 -0.109806 76 0 153
-0.097032 -0.089493 0.042449 127 127 0
-0.237948 0.099111 0.074695 153 76 0
-0.212995 0.184369 -0.005011 153 76 0
0.082148 0.236476 -0.182572 0 0 255
0.272090 0.257321 -0.071718 0 0 255
-0.411377 0.226678 0.152776 0 0 255
-0.106478 -0.120541 -0.172577 127 0 127
-0.210704 0.128223 -0.030765 76 0 153
-0.152788 -0.010595 0.214194 204 51 127
0.694441 0.222847 0.022165 0 0 255
-0.210704 0.086436 -0.026732 76 0 153
0.592889 0.257223 0.097503 0 0 255
0.094260 0.020719 0.226835 204 51 127
0.156563 -0.330923 0.152267 153 76 0
-0.198416 0.012706 -0.033741 0 0 255
0.037695 -0.070351 -0.076456 0 255 0
0.068907 0.065551 -0.028482 76 0 153
0.200846 -0.206548 0.214628 76 153 0
0.073956 -0.150771 -0.172966 127 0 127
-0.134601 0.079408 -0.006480 76 0 153
0.472553 0.257321 -0.121872 0 0 255
-0.199061 -0.213123 0.040975 153 0 76
0.873936 0.187750 0.003935 153 0 76
0.180428 -0.316936 0.159229 76 153 0
-0.934587 0.137112 0.132319 76 0 153
-0.937096 0.121373 -0.096655 76 0 153
0.164536 -0.230857 -0.182625 127 0 127
-0.149446 0.198689 0.151062 76 153 0
-0.225709 -0.082951 -0.182410 127 0 127
-0.068254 0.216268 0.146981 0 0 255
0.875359 -0.361212 0.082828 153 0 76
0.238211 -0.036698 -0.105507 76 0 153
0.108424 -0.172573 -0.182625 127 0 127
-0.015229 -0.332232 -0.113873 153 0 76
-0.945425 0.222953 -0.088162 0 0 255
-0.827903 0.257321 -0.111454 0 0 255
0.185802 0.078576 -0.057687 76 0 153
-0.175786 -0.071045 -0.182625 127 0 127
0.168514 -0.009413 0.214194 204 51 127
0.928151 0.176487 -0.156816 153 0 76
-0.937062 0.179947 -0.081446 76 0 153
0.126751 -0.326959 -0.149100 153 0 76
-0.076626 -0.002651 0.226508 204 51 127
-0.085445 -0.038950 0.226837 204 51 127
0.011607 0.079416 -0.078464 76 0 153
0.901137 -0.182501 0.141856 153 0 76
-0.194223 -0.304490 -0.162261 127 0 127
0.877237 -0.217532 0.141345 153 0 76
-0.008745 0.019547 -0.064596 0 255 0
0.245622 0.202596 -0.129484 0 0 255
0.691519 0.222847 0.102779 0 0 255
-0.218178 -0.161789 -0.124374 153 76 0
0.928364 -0.041468 -0.021989 153 0 76
-0.066851 0.025985 -0.172714 127 0 127
0.928364 -0.120350 -0.097746 153 0 76
0.749492 0.222847 -0.037040 0 0 255
-0.126017 -0.317058 0.070741 153 76 0
-0.150084 0.065551 -0.011851 76 0 153
0.119616 -0.026117 -0.063812 0 255 0
0.117716 0.078638 -0.000504 76 0 153
-0.348610 0.244309 -0.181960 0 0 255
0.169290 0.221852 -0.182612 0 0 255
0.868891 -0.156739 0.083133 153 0 76
0.366463 0.256521 0.095916 0 0 255
0.194793 0.065552 0.046234 153 0 76
0.144696 -0.201454 -0.182625 127 0 127
-0.001955 -0.103356 0.208638 127 127 0
-0.188990 0.065551 -0.011101 76 0 153
0.219262 -0.191292 0.112904 76 0 153
-0.198061 -0.002013 0.090853 0 0 255
0.789627 0.222847 0.104001 0 0 255
-0.436325 0.256882 -0.081759 0 0 255
0.009007 0.082454 0.142461 76 0 153
-0.667726 0.257321 -0.040781 0 0 255
-0.069095 -0.033521 0.214194 204 51 127
0.050167 0.079416 -0.068193 76 0 153
0.238166 -0.346923 0.050618 76 0 153
0.210935 0.072484 -0.151436 76 0 153
-0.173672 -0.103358 0.025480 127 127 0
-0.389295 0.256319 -0.128079 0 0 255
0.779561 0.257321 -0.098166 0 0 255
-0.218133 0.080109 0.060738 153 76 0
-0.237948 0.005654 0.046708 153 76 0
-0.210704 -0.226322 0.227706 153 0 76
0.213489 0.010162 0.112589 255 0 0
-0.215326 0.256503 -0.063694 0 0 255
-0.210610 -0.316908 0.236977 153 0 76
-0.184120 0.122331 -0.182625 127 0 127
-0.126344 -0.349136 0.132449 153 0 76
-0.873283 -0.095454 0.103091 76 0 153
0.873218 0.042695 0.088860 153 0 76
-0.237948 -0.296836 0.046815 153 76 0
-0.320960 0.222850 0.122815 0 0 255
-0.218368 0.065626 -0.098870 153 76 0
0.576425 0.249899 0.155895 0 0 255
-0.102403 -0.330923 0.198607 153 76 0
0.439383 0.252187 0.153024 0 0 255
-0.937096 -0.290999 0.035700 76 0 153
0.053374 0.208193 -0.069390 0 0 255
0.149827 -0.008574 -0.076456 0 255 0
-0.235260 -0.160670 0.138247 153 76 0
-0.136566 0.208193 -0.070777 0 0 255
0.051819 0.256319 0.117683 0 0 255
-0.026563 0.257065 0.117629 0 0 255
-0.003320 -0.332780 0.098543 153 0 76
-0.218133 -0.041751 -0.031203 153 76 0
0.200846 -0.054060 0.037994 255 0 0
-0.937096 -0.153139 -0.085252 76 0 153
0.094128 -0.301355 -0.169303 127 0 127
-0.002998 -0.180943 -0.043483 76 0 153
-0.700869 0.222847 0.008623 0 0 255
-0.237949 -0.294300 -0.134883 153 76 0
0.174082 -0.262169 0.259810 0 127 127
-0.146796 -0.203888 0.247167 0 127 127
0.888336 0.112569 0.131954 153 0 76
0.079895 0.090727 -0.182625 127 0 127
-0.715356 0.222847 -0.073085 0 0 255
0.029405 0.179800 -0.126978 153 76 0
-0.065376 -0.333129 0.087639 153 0 76
-0.407486 0.256461 -0.107972 0 0 255
0.356775 0.256235 0.139917 0 0 255
0.072216 0.114026 -0.127265 153 76 0
-0.237935 -0.100220 -0.154804 153 76 0
0.105881 -0.194087 -0.173035 127 0 127
-0.030552 -0.317058 0.158468 153 76 0
0.612604 0.222847 -0.025071 0 0 255
0.015278 -0.349904 -0.011673 153 0 76
-0.774006 0.222847 -0.139456 0 0 255
0.126144 -0.103358 0.204139 127 127 0
0.219240 -0.233152 -0.081438 76 0 153
-0.937096 -0.219644 0.047593 76 0 153
0.222156 -0.216265 -0.182422 127 0 127
-0.209165 -0.099065 -0.073124 0 0 255
-0.237948 -0.252083 -0.017036 153 76 0
0.048755 -0.317058 0.158843 153 76 0
0.213489 0.159052 0.062137 153 0 76
-0.904377 -0.253076 -0.182584 76 0 153
0.628518 0.257321 0.054259 0 0 255
0.083631 0.145244 -0.139621 153 76 0
0.053673 -0.128433 -0.038489 76 0 153
-0.055544 -0.089493 0.051087 127 127 0
0.162164 -0.157364 -0.043483 76 0 153
0.175123 -0.292843 0.259810 0 127 127
0.212486 -0.265788 0.244696 76 153 0
0.171575 0.141909 0.151030 76 153 0
-0.191984 -0.276694 -0.182624 127 0 127
0.044406 -0.303040 0.258809 0 127 127
0.933221 -0.298789 0.087308 153 0 76
-0.896823 -0.364324 0.121189 76 0 153
0.239050 -0.215711 -0.157072 76 0 153
0.060691 -0.332128 0.068294 153 0 76
0.109273 -0.330923 0.207752 153 76 0
-0.033457 -0.040755 -0.063812 0 255 0
0.641991 0.222847 -0.075293 0 0 255
0.143619 0.078858 -0.086530 76 0 153
-0.038226 -0.089493 0.004898 127 127 0
0.212485 -0.166844 -0.029983 76 153 0
0.055179 -0.320697 -0.157962 127 0 127
-0.098471 -0.345090 0.140479 153 0 76
-0.175838 -0.182397 -0.030853 76 0 153
-0.237949 -0.316548 -0.016879 153 76 0
0.928364 0.141612 -0.061676 153 0 76
0.087022 -0.349904 -0.090099 153 0 76
0.164820 -0.349891 0.080841 153 0 76
-0.092840 0.208193 0.053917 0 0 255
-0.225777 -0.251203 -0.182401 127 0 127
-0.061216 -0.239151 -0.043483 76 0 153
-0.096483 0.217350 -0.182624 0 0 255
-0.788256 0.257321 0.114630 0 0 255
0.185310 -0.353656 -0.013307 153 0 76
-0.498290 0.222847 0.104601 0 0 255
-0.210704 -0.069656 0.103748 0 0 255
0.932540 -0.201123 0.098546 153 0 76
0.138241 -0.008271 -0.172577 127 0 127
-0.062322 -0.263928 -0.030839 76 0 153
-0.436471 0.232036 0.155929 0 0 255
0.200846 0.165027 -0.005896 153 0 76
0.147031 0.078416 -0.042512 76 0 153
0.933513 -0.325785 0.008015 153 0 76
0.021050 -0.103358 0.091477 127 127 0
0.117469 -0.332129 0.095730 153 0 76
-0.054463 -0.103358 0.144998 127 127 0
-0.872720 0.017097 -0.043398 76 0 153
-0.670304 0.222847 0.001743 0 0 255
-0.716842 0.222847 -0.089693 0 0 255
0.160360 0.257321 -0.016053 0 0 255
0.218711 -0.285478 0.024473 76 0 153
-0.936889 -0.104109 0.126130 76 0 153
-0.239238 0.181681 0.012548 153 76 0
0.200846 0.169482 0.077788 153 0 76
0.039334 0.018932 0.214197 204 51 127
0.213179 0.145399 0.074105 153 0 76
0.181552 -0.330754 -0.037472 153 76 0
0.307347 0.256319 0.104424 0 0 255
-0.230251 0.005597 0.141104 153 76 0
0.203459 -0.357667 0.020180 153 0 76
-0.198061 -0.145934 0.076145 153 0 76
-0.210673 0.025172 0.025760 0 0 255
0.091587 0.065551 0.057919 76 0 153
-0.872932 -0.065900 -0.116367 76 0 153
0.928364 0.079716 -0.088737 153 0 76
-0.565693 0.222847 0.110965 0 0 255
0.232262 -0.356196 0.136413 76 0 153
-0.237948 0.076448 -0.023217 153 76 0
-0.090510 -0.349904 0.030531 153 0 76
-0.065794 0.079056 0.003415 76 0 153
-0.423627 0.257321 -0.003938 0 0 255
0.162773 0.121013 -0.139621 153 76 0
-0.229860 -0.363150 0.090761 153 0 76
-0.088349 0.162542 -0.127277 153 76 0
0.152667 0.078416 -0.071752 76 0 153
0.076543 0.257037 0.012442 0 0 255
-0.049094 -0.095829 -0.076268 0 255 0
0.083635 -0.089527 -0.040660 127 127 0
-0.654405 0.224957 -0.175788 0 0 255
-0.060376 0.256319 -0.093390 0 0 255
-0.173620 -0.093353 0.226817 204 51 127
-0.028943 -0.317058 0.178139 153 76 0
-0.068541 -0.317692 0.151264 153 76 0
-0.013303 0.079416 -0.030571 76 0 153
-0.872478 -0.328193 0.101288 76 0 153
0.444580 0.223998 -0.174238 0 0 255
-0.198164 -0.017702 0.179725 0 0 255
0.142142 0.065551 -0.009052 76 0 153
0.111737 -0.193976 -0.030839 76 0 153
-0.125925 0.256842 -0.032726 0 0 255
-0.218447 -0.052408 0.091728 153 76 0
-0.146544 0.208193 0.069633 0 0 255
0.924664 -0.135386 0.136316 153 0 76
-0.085071 0.079416 -0.088982 76 0 153
-0.218811 -0.135168 0.113805 153 76 0
0.132111 -0.103358 0.024747 127 127 0
0.933108 -0.071773 -0.159251 153 0 76
0.219320 0.168594 0.039681 76 0 153
-0.237823 -0.297723 0.123322 153 76 0
-0.210704 -0.312128 0.144620 153 0 76
-0.142735 0.144888 0.151028 76 153 0
-0.121462 0.208408 -0.127340 0 0 255
-0.738997 0.257321 0.096981 0 0 255
0.238445 -0.182837 -0.170225 76 0 153
0.152788 -0.330923 0.200113 153 76 0
-0.406121 0.222847 -0.019645 0 0 255
0.226995 -0.035884 0.140555 76 0 153
-0.937096 -0.283477 0.071786 76 0 153
0.943255 0.223797 -0.067870 0 0 255
0.213217 -0.318715 0.244111 76 153 0
-0.639669 0.222847 0.031625 0 0 255
0.919696 -0.028494 0.118963 153 0 76
-0.198697 0.160837 -0.074686 76 0 153
-0.937096 0.018997 -0.043338 76 0 153
0.173476 0.211925 0.138725 0 0 255
0.171332 -0.089493 0.180795 127 127 0
0.180890 -0.090410 0.067843 127 127 0
-0.198196 0.193902 0.130986 76 0 153
0.701097 0.257321 0.102188 0 0 255
0.932898 -0.010739 -0.092522 153 0 76
-0.116396 0.256121 -0.172155 0 0 255
-0.913622 0.257321 0.085883 0 0 255
-0.937083 0.070743 0.113078 76 0 153
-0.179324 -0.103358 0.177784 127 127 0
0.200846 -0.173890 0.148004 76 153 0
0.097209 0.208193 -0.001832 0 0 255
-0.063640 0.138915 -0.139621 153 76 0
-0.058471 -0.256336 -0.043483 76 0 153
0.213416 -0.050228 -0.020355 255 0 0
-0.237948 -0.171324 -0.021128 153 76 0
-0.190471 0.004989 0.208558 204 51 127
0.908591 0.257321 0.126407 0 0 255
0.254094 0.214551 0.043936 0 0 255
0.365623 0.256319 0.118310 0 0 255
0.933526 0.098863 0.092710 153 0 76
-0.218458 -0.258649 0.080489 153 76 0
0.932773 0.040906 -0.138897 153 0 76
0.099917 -0.333129 -0.043840 153 0 76
-0.937096 -0.197031 0.066115 76 0 153
0.928367 0.068027 -0.140744 153 0 76
-0.165459 0.197097 -0.127081 153 76 0
0.080892 -0.103358 0.158134 127 127 0
0.026191 -0.020609 0.214194 204 51 127
-0.197827 -0.216271 -0.015289 153 0 76
-0.245559 0.202314 0.012125 0 0 255
-0.053554 -0.317058 0.039026 153 76 0
0.873895 0.191967 -0.157990 153 0 76
0.199595 0.158997 -0.112473 153 0 76
0.874055 -0.260708 0.061969 153 0 76
-0.140107 -0.332589 -0.116083 153 0 76
-0.036779 -0.206454 -0.172577 127 0 127
0.219240 0.056002 0.039756 76 0 153
0.224096 0.257321 -0.053031 0 0 255
0.219240 0.019707 -0.013081 76 0 153
0.233569 -0.266333 -0.181290 127 0 127
0.239049 0.170406 0.058007 76 0 153
0.869101 -0.204084 0.124316 153 0 76
0.068989 0.079416 0.025837 76 0 153
-0.872899 -0.031709 -0.030161 76 0 153
0.559339 0.222847 -0.128577 0 0 255
-0.379890 0.222847 -0.125038 0 0 255
-0.241572 0.193060 0.094960 153 76 0
0.121371 -0.103358 0.138582 127 127 0
0.878536 -0.015681 0.141703 153 0 76
0.212907 -0.082760 0.190434 255 0 0
-0.210703 0.085436 -0.051955 76 0 153
0.212756 -0.134499 0.176694 76 153 0
-0.179665 -0.002732 0.226837 204 51 127
-0.043336 0.193106 0.151037 76 153 0
-0.072455 -0.103358 0.037162 127 127 0
0.087600 -0.349904 0.062932 153 0 76
0.198051 0.085785 -0.109965 153 0 76
0.127330 -0.233257 -0.030839 76 0 153
-0.093167 -0.227448 -0.182625 127 0 127
-0.237948 0.038662 0.005529 153 76 0
0.034208 -0.332949 -0.052966 153 0 76
0.031071 0.200064 0.151239 76 153 0
0.042437 -0.332129 0.089770 153 0 76
0.217761 0.257321 -0.096442 0 0 255
0.131509 -0.089493 0.172168 127 127 0
-0.237943 0.061451 0.106699 153 76 0
-0.937096 -0.234345 0.096318 76 0 153
0.877512 0.257321 -0.114637 0 0 255
0.151895 0.177158 0.151028 76 153 0
0.933526 -0.266013 0.036783 153 0 76
-0.135861 0.129462 0.163672 76 153 0
-0.869517 0.185919 0.071296 76 0 153
-0.902598 0.077922 0.142384 76 0 153
-0.219138 -0.030338 -0.117732 153 76 0
-0.218833 -0.078692 0.036880 153 76 0
0.219240 0.101653 0.056774 76 0 153
-0.636335 0.222847 -0.128271 0 0 255
-0.218133 -0.242856 -0.073848 153 76 0
-0.090845 -0.349904 -0.063486 153 0 76
-0.872626 -0.236995 -0.163467 76 0 153
-0.074453 0.065551 0.065765 76 0 153
0.874055 0.148439 -0.045308 153 0 76
-0.210704 0.013850 0.195729 0 0 255
0.213487 -0.066254 -0.065061 255 0 0
0.036978 -0.330923 0.132472 153 76 0
-0.428015 0.222847 -0.039317 0 0 255
0.207029 -0.128079 -0.022177 76 153 0
-0.748775 0.222847 -0.012348 0 0 255
0.126987 0.032453 -0.172577 127 0 127
0.182063 0.123498 -0.169227 127 0 127
0.165788 -0.276169 0.259810 0 127 127
0.017697 0.151722 -0.127023 153 76 0
0.200850 -0.069802 0.150606 255 0 0
-0.137239 -0.154875 0.247167 0 127 127
0.020966 0.030575 -0.182625 127 0 127
-0.021070 0.257118 0.006545 0 0 255
-0.038274 0.079043 0.004895 76 0 153
-0.237948 -0.023514 -0.040040 153 76 0
-0.147395 -0.085144 -0.056500 127 127 0
0.937234 0.207822 -0.132034 0 0 255
0.162750 0.137481 -0.182625 127 0 127
-0.218244 0.173341 -0.024774 153 76 0
0.200846 -0.267903 0.176496 76 153 0
-0.230534 -0.291641 0.141103 153 76 0
0.883545 -0.179516 0.128819 153 0 76
0.213112 -0.018764 0.020509 255 0 0
-0.017425 0.208193 -0.044902 0 0 255
-0.937096 0.121182 -0.005073 76 0 153
-0.156240 -0.036365 -0.076456 0 255 0
-0.237948 0.147570 -0.120137 153 76 0
-0.060406 -0.041747 -0.063812 0 255 0
0.047145 0.087535 0.147214 76 153 0
0.161108 -0.330923 0.175470 153 76 0
0.933208 -0.052649 0.035887 153 0 76
-0.166154 -0.265561 0.259810 0 127 127
0.183528 -0.162499 -0.168929 127 0 127
0.546368 0.256849 0.102883 0 0 255
0.108383 -0.318058 0.089936 153 76 0
0.314012 0.222851 0.128097 0 0 255
-0.069163 -0.234556 -0.030839 76 0 153
0.150340 -0.103358 0.121278 127 127 0
0.010911 0.097223 -0.127736 153 76 0
0.239059 -0.174850 -0.126900 76 0 153
-0.872467 -0.026463 0.106017 76 0 153
0.051939 0.065551 -0.088190 76 0 153
0.208584 0.066310 0.093952 153 0 76
0.212489 -0.018254 -0.048663 255 0 0
-0.210704 -0.200503 0.228512 153 0 76
0.067581 -0.022852 0.226837 204 51 127
0.219240 0.124017 0.049287 76 0 153
-0.749411 0.257321 0.053128 0 0 255
0.687354 0.247514 -0.181707 0 0 255
-0.219132 -0.132418 0.090993 153 76 0
-0.119506 0.257321 0.052841 0 0 255
0.920442 -0.239964 0.117940 153 0 76
-0.180723 0.079111 0.000758 76 0 153
-0.148203 -0.330923 0.234878 153 76 0
-0.082976 -0.293164 0.247178 0 127 127
0.874055 0.169731 0.020889 153 0 76
0.200846 -0.246360 0.134067 76 153 0
0.090842 -0.089493 0.104748 127 127 0
0.933486 0.180554 -0.128197 153 0 76
0.464263 0.222847 -0.027988 0 0 255
-0.186855 0.039992 -0.168491 127 0 127
0.027279 -0.089493 0.172680 127 127 0
0.007937 -0.317058 0.165232 153 76 0
-0.156668 0.017798 0.226677 204 51 127
0.033267 -0.317058 0.195819 153 76 0
0.844895 0.216713 0.073649 153 0 76
-0.218133 -0.030922 0.058481 153 76 0
-0.892177 0.257321 -0.116315 0 0 255
0.168652 0.106486 0.163672 76 153 0
-0.074381 -0.063058 -0.076456 0 255 0
0.090542 0.089702 -0.125093 153 76 0
0.804629 0.257321 -0.005069 0 0 255
0.107738 0.151903 -0.182625 127 0 127
-0.126509 -0.032680 0.226837 204 51 127
0.933421 -0.008773 -0.046692 153 0 76
-0.687329 0.222847 0.018942 0 0 255
0.869298 -0.072150 -0.173932 153 0 76
0.090724 0.094682 0.150050 76 153 0
-0.886820 0.229849 0.156099 0 0 255
-0.210704 0.156983 0.044223 76 0 153
0.700606 0.222847 -0.070933 0 0 255
0.219240 0.101098 -0.102491 76 0 153
-0.488941 0.257321 -0.018335 0 0 255
0.090825 -0.272429 -0.043483 76 0 153
0.874055 0.151297 0.034496 153 0 76
0.187565 -0.255088 0.244978 0 127 127
0.159406 -0.103358 0.005464 127 127 0
-0.113807 0.096625 -0.126583 153 76 0
-0.237948 0.113457 -0.122728 153 76 0
0.063158 0.122825 -0.182625 127 0 127
0.898680 -0.260271 0.133890 153 0 76
-0.058583 -0.317936 0.123464 153 76 0
0.750953 0.242718 -0.182177 0 0 255
0.352417 0.222847 0.030469 0 0 255
-0.804390 0.257252 -0.125430 0 0 255
0.106193 -0.055051 0.214194 204 51 127
0.090558 -0.089493 0.127085 127 127 0
0.710544 0.223283 -0.169348 0 0 255
-0.247082 0.256273 -0.161572 0 0 255
0.928364 -0.060750 -0.044020 153 0 76
0.122940 -0.203863 -0.043483 76 0 153
0.143551 -0.253450 -0.173198 127 0 127
0.125737 -0.318058 0.065378 153 76 0
-0.860847 0.257321 -0.018328 0 0 255
0.239059 0.140058 -0.029532 76 0 153
-0.872461 -0.129900 -0.110011 76 0 153
0.126166 0.236298 -0.182572 0 0 255
0.021123 0.132351 -0.182625 127 0 127
0.915820 -0.283377 0.124261 153 0 76
-0.218133 -0.160355 -0.029418 153 76 0
0.868891 -0.311699 -0.066310 153 0 76
-0.121548 0.065551 0.121883 76 0 153
-0.055432 0.065628 -0.132201 76 0 153
0.100137 0.117258 0.163594 76 153 0
-0.931657 -0.354851 -0.106772 76 0 153
-0.708008 0.257321 0.080532 0 0 255
-0.947152 0.227886 0.014747 0 0 255
0.129315 -0.259796 -0.043483 76 0 153
-0.183942 -0.162931 0.245185 0 127 127
0.167754 -0.103358 -0.012275 127 127 0
0.227823 0.052666 -0.181987 127 0 127
0.873623 -0.359891 -0.037390 153 0 76
-0.131385 0.068809 -0.182625 127 0 127
-0.515523 0.227418 0.153964 0 0 255
0.219240 -0.033343 -0.009855 76 0 153
-0.047157 -0.024673 -0.063948 0 255 0
0.920445 0.202627 0.087380 153 0 76
-0.068092 -0.103358 -0.001658 127 127 0
-0.936938 -0.076542 0.122826 76 0 153
-0.120834 -0.089493 -0.029540 127 127 0
0.558892 0.257321 -0.138947 0 0 255
0.925744 0.187893 -0.090903 153 0 76
0.336297 0.231242 0.156167 0 0 255
0.873892 0.192256 0.063677 153 0 76
-0.091827 -0.318385 -0.182613 127 0 127
0.219342 0.149517 -0.135537 76 0 153
-0.740132 0.257183 -0.125430 0 0 255
-0.902471 0.137217 -0.182586 76 0 153
-0.198028 0.106421 -0.182623 127 0 127
0.868891 0.063897 -0.011137 153 0 76
0.001333 -0.103358 0.185962 127 127 0
0.212489 -0.214817 0.041517 76 153 0
0.200743 -0.071878 0.096483 255 0 0
0.127657 -0.333129 -0.005535 153 0 76
-0.937096 0.063300 -0.119164 76 0 153
-0.153935 -0.027170 -0.172584 127 0 127
0.926826 0.182728 -0.035735 153 0 76
0.082666 -0.204795 0.247167 0 127 127
-0.291954 0.222850 -0.046863 0 0 255
0.055472 -0.108285 -0.172898 127 0 127
0.186151 -0.062527 -0.168394 127 0 127
-0.198061 -0.049455 -0.036315 0 0 255
-0.926076 -0.359686 -0.052740 76 0 153
-0.140873 -0.349904 -0.049694 153 0 76
-0.039940 -0.178803 -0.043483 76 0 153
-0.005292 -0.024156 0.214194 204 51 127
0.239059 -0.260319 -0.137030 76 0 153
0.688471 0.227046 -0.179163 0 0 255
-0.327393 0.222847 -0.028793 0 0 255
-0.899104 -0.364505 -0.038660 76 0 153
-0.196452 -0.297474 0.005467 153 0 76
0.928364 -0.202090 0.068756 153 0 76
-0.015185 0.079340 -0.108090 76 0 153
0.213026 -0.218927 0.094787 76 153 0
-0.907110 -0.285154 0.142314 76 0 153
-0.493113 0.236247 0.156362 0 0 255
-0.196629 0.093370 -0.139588 153 76 0
-0.149985 0.065551 0.120740 76 0 153
-0.198968 0.164890 -0.101933 76 0 153
0.213489 -0.277447 0.068224 76 153 0
-0.210704 -0.161429 0.223785 153 0 76
0.094094 -0.103358 -0.038569 127 127 0
-0.210704 0.155878 0.128201 76 0 153
0.151024 -0.317189 0.003067 153 76 0
0.237765 0.107823 0.122924 76 0 153
-0.843201 0.257321 0.088633 0 0 255
-0.175038 0.257321 0.112980 0 0 255
-0.210704 -0.295432 0.052235 153 0 76
-0.381374 0.222847 0.019255 0 0 255
-0.428195 0.257321 -0.037889 0 0 255
-0.072934 -0.103358 0.201903 127 127 0
0.013616 -0.330923 0.146580 153 76 0
-0.237948 -0.310180 0.016856 153 76 0
-0.133519 -0.317074 0.099247 153 76 0
-0.271894 0.257321 -0.019522 0 0 255
-0.939939 0.206312 -0.101600 0 0 255
0.076589 -0.103358 0.117067 127 127 0
0.868891 0.044379 0.026739 153 0 76
-0.103207 0.133320 -0.126978 153 76 0
0.200846 -0.019708 0.126580 255 0 0
-0.170822 -0.103358 -0.032501 127 127 0
0.239047 -0.317997 -0.157398 76 0 153
0.874055 -0.189311 -0.012889 153 0 76
0.113057 0.007118 -0.172577 127 0 127
-0.213640 -0.090339 -0.145806 153 76 0
0.886254 0.021082 0.130648 153 0 76
0.868891 -0.127121 0.007319 153 0 76
-0.872461 0.047184 -0.014499 76 0 153
-0.135773 -0.074123 -0.076456 0 255 0
-0.691586 0.257321 0.053861 0 0 255
-0.293940 0.256701 -0.072189 0 0 255
0.828172 0.223678 0.148317 0 0 255
0.210831 -0.359397 -0.120763 153 0 76
-0.237943 -0.089853 -0.144367 153 76 0
0.054113 0.065551 0.017346 76 0 153
-0.008339 -0.103358 0.095478 127 127 0
-0.037999 -0.052493 0.214194 204 51 127
0.529163 0.227773 0.154868 0 0 255
-0.023123 -0.060449 0.226837 204 51 127
0.870112 0.070362 -0.179763 153 0 76
0.159610 0.225639 0.154752 0 0 255
0.219242 0.123808 0.099977 76 0 153
0.107327 -0.300856 -0.029897 76 0 153
-0.937096 -0.136085 0.049012 76 0 153
0.942019 0.220674 0.070582 0 0 255
-0.073428 -0.089493 0.005845 127 127 0
0.582642 0.257321 -0.082426 0 0 255
-0.138278 -0.223005 -0.172577 127 0 127
-0.598051 0.250713 -0.180350 0 0 255
0.213095 0.094923 0.092107 153 0 76
0.200939 -0.141840 0.110201 76 153 0
0.118528 -0.103358 0.072383 127 127 0
-0.059723 0.065551 -0.050405 76 0 153
0.018952 -0.184211 -0.030882 76 0 153
-0.123866 -0.333129 -0.052054 153 0 76
-0.937096 0.125446 0.010510 76 0 153
-0.038217 -0.330923 0.074721 153 76 0
-0.080192 -0.103358 0.013980 127 127 0
-0.947657 0.229378 -0.114812 0 0 255
0.050142 -0.103358 0.133108 127 127 0
-0.114848 -0.089981 0.141116 127 127 0
0.070499 -0.090304 0.041773 127 127 0
0.111821 0.079416 0.113575 76 0 153
-0.048712 0.065551 -0.074132 76 0 153
-0.254167 0.256873 -0.053344 0 0 255
-0.237948 -0.007828 0.014852 153 76 0
-0.876444 0.164731 0.139846 76 0 153
-0.218133 -0.066221 -0.030754 153 76 0
0.842412 0.257321 -0.123005 0 0 255
-0.198174 0.194623 -0.037026 76 0 153
-0.093441 -0.155451 0.258810 0 127 127
-0.566482 0.222923 -0.160230 0 0 255
0.213489 -0.159625 0.171517 76 153 0
0.167534 -0.290767 -0.170945 127 0 127
-0.237938 -0.117762 -0.150779 153 76 0
-0.237948 -0.207952 -0.032228 153 76 0
-0.174820 -0.330923 0.024986 153 76 0
0.362927 0.222847 -0.087185 0 0 255
-0.310795 0.257321 0.129486 0 0 255
-0.218133 0.149159 -0.043177 153 76 0
0.200846 -0.229158 0.141302 76 153 0
-0.583086 0.222849 -0.145453 0 0 255
-0.872985 -0.165338 0.129467 76 0 153
-0.175447 -0.023778 0.214207 204 51 127
0.101786 0.026417 -0.063837 0 255 0
-0.078446 -0.349904 -0.120634 153 0 76
-0.721202 0.253560 0.151846 0 0 255
-0.132045 -0.160934 -0.182625 127 0 127
-0.218206 -0.211040 0.018200 153 76 0
-0.937096 -0.078682 -0.019204 76 0 153
0.134690 -0.330923 0.175361 153 76 0
0.928364 -0.123576 0.025016 153 0 76
-0.937096 -0.055403 0.087317 76 0 153
0.384274 0.257321 0.021892 0 0 255
0.140722 0.197625 -0.155847 127 0 127
0.175473 -0.231316 -0.030847 76 0 153
-0.107895 -0.291957 -0.043483 76 0 153
-0.130983 -0.089564 0.195046 127 127 0
-0.872887 0.045272 0.131458 76 0 153
-0.219122 0.038748 -0.134356 153 76 0
0.873959 0.185333 -0.037544 153 0 76
-0.085342 -0.020348 -0.063812 0 255 0
0.933526 -0.205832 -0.013421 153 0 76
0.375012 0.240334 0.156865 0 0 255
-0.085808 -0.153218 -0.031799 76 0 153
-0.937096 0.041936 -0.107342 76 0 153
-0.218756 -0.129191 0.032804 153 76 0
0.219240 -0.111600 0.016882 76 0 153
-0.796990 0.222847 0.070892 0 0 255
0.219240 -0.015369 0.054915 76 0 153
-0.937096 -0.197185 -0.106595 76 0 153
-0.237948 -0.084370 -0.016056 153 76 0
0.213489 0.166965 0.092459 153 0 76
