ply
format ascii 1.0
element vertex 644
property float x
property float y
property float z
property float nx
property float ny
property float nz
property uchar red
property uchar green
property uchar blue
property float opacity
end_header
-0.073634 -0.631056 -0.126851 0.095013 -0.982404 0.160794 138 0 0 1.000000
-0.071564 0.234031 0.174382 -0.394780 0.221600 0.891651 138 0 0 1.000000
0.209317 0.110915 0.001173 -0.999892 0.000188 0.014695 138 0 0 1.000000
0.016919 0.479033 0.116141 0.113111 0.241853 0.963698 138 0 0 1.000000
-0.184703 -0.113760 0.086083 -0.917154 -0.008805 0.398436 138 0 0 1.000000
0.199070 -0.051438 0.067559 0.951153 -0.006422 0.308652 138 0 0 1.000000
-0.141931 -0.008248 -0.140974 0.708457 0.004754 0.705738 138 0 0 1.000000
-0.138233 0.079082 0.152672 0.691236 0.001409 -0.722627 138 0 0 1.000000
-0.113609 0.315627 -0.110228 0.681891 -0.304733 0.664953 138 0 0 1.000000
-0.198431 0.118058 0.038445 0.979501 -0.114109 -0.166006 138 0 0 1.000000
0.005968 0.055543 -0.201384 -0.010562 0.002311 0.999942 138 0 0 1.000000
-0.201730 -0.150711 0.007139 0.999845 0.010221 -0.014329 138 0 0 1.000000
0.062396 0.832245 -0.025501 -0.892016 -0.000000 0.452003 165 42 42 1.000000
0.166704 -0.476284 0.129769 0.791804 -0.022691 0.610354 138 0 0 1.000000
-0.164792 0.226652 -0.078051 -0.877751 0.214250 -0.428545 138 0 0 1.000000
-0.201816 -0.027773 0.002561 0.999953 0.005504 0.007940 138 0 0 1.000000
0.111761 0.425280 -0.062267 0.819810 0.267637 -0.506243 138 0 0 1.000000
-0.000169 0.371577 -0.139863 -0.026607 0.360037 -0.932559 138 0 0 1.000000
-0.160453 0.130119 0.124951 -0.799757 0.120191 0.588169 138 0 0 1.000000
-0.079030 -0.628415 -0.105771 -0.101897 0.985554 -0.135282 138 0 0 1.000000
0.131754 0.376836 -0.057220 -0.839365 -0.362931 0.404658 138 0 0 1.000000
-0.145017 -0.385293 0.145842 -0.724198 -0.019227 0.689324 138 0 0 1.000000
0.055386 0.950104 -0.040758 -0.753932 -0.006533 0.656920 138 0 0 1.000000
0.055149 -0.618307 -0.010456 0.065910 0.997649 -0.018791 138 0 0 1.000000
-0.039477 -0.617761 0.017008 0.056224 -0.998279 -0.016645 138 0 0 1.000000
0.178206 0.112413 0.112662 0.849173 -0.000130 0.528115 138 0 0 1.000000
0.012501 0.612949 -0.079296 0.101754 0.178138 -0.978730 138 0 0 1.000000
0.109347 0.046773 0.180553 0.513547 -0.002648 0.858058 138 0 0 1.000000
0.149278 0.344856 0.054520 -0.890436 -0.334938 -0.308123 138 0 0 1.000000
-0.136518 -0.408639 0.154176 -0.683031 -0.020129 0.730112 138 0 0 1.000000
-0.060875 0.446392 0.106423 -0.516538 0.257646 0.816582 138 0 0 1.000000
-0.170627 -0.333965 -0.104257 -0.849100 -0.017263 -0.527950 138 0 0 1.000000
0.186246 -0.136371 -0.089964 -0.888603 0.009682 0.458575 138 0 0 1.000000
-0.008148 0.498215 0.111537 -0.107328 0.232779 0.966589 138 0 0 1.000000
-0.064491 0.984501 -0.000174 0.997545 -0.028890 0.063798 138 0 0 1.000000
-0.090111 -0.202283 0.186766 0.457355 0.012214 -0.889200 138 0 0 1.000000
-0.181129 0.231201 0.031062 0.965671 -0.218606 -0.140321 138 0 0 1.000000
0.011431 -0.144621 0.209412 0.037180 -0.009997 0.999259 138 0 0 1.000000
-0.139128 -0.483300 0.151887 0.695219 0.022979 -0.718430 138 0 0 1.000000
0.158353 0.256559 -0.089553 -0.828962 -0.244568 0.503000 138 0 0 1.000000
0.122613 -0.115696 0.171689 -0.578567 0.008887 -0.815586 138 0 0 1.000000
0.099398 0.531102 -0.026210 -0.930194 -0.217272 0.295857 138 0 0 1.000000
0.058303 0.570853 -0.069959 -0.579835 -0.198166 0.790266 138 0 0 1.000000
0.011259 0.272053 0.180604 0.041107 0.260557 0.964583 138 0 0 1.000000
0.199494 -0.569977 0.066310 -0.952807 0.026329 -0.302433 138 0 0 1.000000
-0.144056 0.124096 0.145514 0.717854 -0.117131 -0.686270 138 0 0 1.000000
-0.002620 0.776958 -0.061217 -0.097619 0.000000 -0.995224 165 42 42 1.000000
-0.197449 -0.221378 -0.036303 0.980264 0.012949 0.197267 138 0 0 1.000000
0.197216 -0.414707 -0.064634 -0.941937 0.020370 0.335171 138 0 0 1.000000
-0.117866 0.241854 0.142382 0.642630 -0.229782 -0.730908 138 0 0 1.000000
-0.018822 0.723372 0.067262 0.333793 -0.130068 -0.933630 138 0 0 1.000000
0.134463 0.332619 0.093236 0.781734 0.322456 0.533774 138 0 0 1.000000
0.150050 -0.630146 -0.013430 0.179608 0.983500 -0.021640 138 0 0 1.000000
-0.199014 -0.114764 -0.028439 0.987262 0.008848 0.158856 138 0 0 1.000000
0.165572 0.007185 -0.122673 0.786889 -0.004165 -0.617080 138 0 0 1.000000
0.002175 0.742537 -0.061531 -0.024659 0.000000 -0.999696 165 42 42 1.000000
0.186973 -0.557445 -0.088488 -0.891991 0.025851 0.451314 138 0 0 1.000000
0.085591 0.508736 0.070807 -0.754168 -0.227851 -0.615886 138 0 0 1.000000
0.087969 -0.468916 -0.183180 -0.409670 0.022439 0.911958 138 0 0 1.000000
0.001093 -0.636210 0.197426 0.006117 0.878853 -0.477053 138 0 0 1.000000
0.045431 0.515236 -0.091157 0.389466 0.224649 -0.893224 138 0 0 1.000000
-0.005146 1.000701 0.020509 0.000000 1.000000 0.000000 165 42 42 1.000000
-0.059266 -0.596386 -0.191184 -0.307050 -0.027344 -0.951300 138 0 0 1.000000
-0.183996 -0.079199 0.087518 0.914039 0.007482 -0.405557 138 0 0 1.000000
0.202962 0.012076 -0.046754 -0.968798 0.003977 0.247818 138 0 0 1.000000
-0.103125 -0.628282 0.089531 0.131564 -0.985731 -0.105003 138 0 0 1.000000
0.034055 -0.103917 -0.199088 0.147221 -0.008428 -0.989068 138 0 0 1.000000
-0.030433 0.051703 0.206685 -0.166669 -0.002460 0.986010 138 0 0 1.000000
0.084249 0.116093 -0.184978 0.388862 0.112976 -0.914343 138 0 0 1.000000
0.030711 0.106906 -0.199754 -0.130835 0.000341 0.991404 138 0 0 1.000000
-0.122724 -0.636708 -0.123098 -0.151536 0.976626 -0.152440 138 0 0 1.000000
0.192126 0.021602 0.086426 -0.916440 0.003614 -0.400155 138 0 0 1.000000
0.017471 0.892176 0.068450 -0.208157 0.000000 -0.978095 165 42 42 1.000000
-0.003393 0.967602 -0.063909 -0.104948 0.017893 -0.994317 165 42 42 1.000000
-0.017100 -0.619493 -0.061088 0.026435 -0.996239 0.082519 138 0 0 1.000000
0.091139 -0.485444 0.190003 0.425304 -0.023085 0.904756 138 0 0 1.000000
0.171844 0.127589 -0.111396 0.817889 0.119009 -0.562933 138 0 0 1.000000
0.112373 -0.483097 -0.170145 0.528513 -0.022987 -0.848614 138 0 0 1.000000
-0.201219 -0.295276 -0.006558 0.998503 0.015785 0.052375 138 0 0 1.000000
0.096699 0.428821 -0.080554 0.711419 0.266056 -0.650460 138 0 0 1.000000
0.071210 0.719373 0.007790 -0.989890 -0.131031 -0.054306 138 0 0 1.000000
-0.061028 0.117698 -0.190359 0.314112 -0.113969 0.942520 138 0 0 1.000000
0.112161 0.102359 -0.170286 0.527600 -0.000516 -0.849493 138 0 0 1.000000
-0.117906 -0.320408 -0.161375 0.592184 0.016735 0.805629 138 0 0 1.000000
-0.196449 -0.575295 -0.041332 -0.974773 -0.026528 -0.221615 138 0 0 1.000000
0.198434 -0.148484 0.069432 0.948105 -0.010149 0.317795 138 0 0 1.000000
0.095622 -0.631782 -0.121923 0.112603 0.981531 -0.154651 138 0 0 1.000000
-0.164867 -0.609254 -0.112877 0.821181 0.027837 0.569988 138 0 0 1.000000
0.206538 -0.422405 0.037163 0.986822 -0.020655 0.160483 138 0 0 1.000000
-0.131913 -0.315319 -0.149828 -0.661012 -0.016556 -0.750192 138 0 0 1.000000
0.101215 0.319494 0.134532 0.569725 0.308665 0.761669 138 0 0 1.000000
-0.037114 0.095291 -0.196970 -0.199288 -0.000788 -0.979941 138 0 0 1.000000
0.088524 -0.621683 0.035725 0.105731 0.993617 0.039329 138 0 0 1.000000
-0.137052 0.363535 -0.038436 -0.895120 0.353855 -0.271195 138 0 0 1.000000
0.062808 -0.325558 -0.192558 -0.287242 0.016939 0.957708 138 0 0 1.000000
-0.189148 0.193579 0.029622 0.975215 -0.180100 -0.128531 138 0 0 1.000000
-0.086168 0.319197 0.139626 -0.525933 0.308757 0.792505 138 0 0 1.000000
-0.200440 -0.198628 0.026820 -0.993847 -0.012063 0.110104 138 0 0 1.000000
0.153897 0.350738 -0.019251 -0.928779 -0.340715 0.145883 138 0 0 1.000000
-0.201116 -0.195283 -0.008116 0.998129 0.011946 0.059970 138 0 0 1.000000
-0.201178 0.013481 0.015567 -0.998457 -0.003929 0.055400 138 0 0 1.000000
-0.098654 0.483953 0.048245 0.891701 -0.239509 -0.384064 138 0 0 1.000000
-0.023946 0.720965 -0.057166 0.409165 -0.130589 0.903067 138 0 0 1.000000
-0.075978 0.576896 0.047566 -0.861176 0.195311 0.469285 138 0 0 1.000000
-0.198262 -0.343861 0.040603 0.983998 0.017649 -0.177303 138 0 0 1.000000
-0.073954 -0.088505 -0.186198 -0.378050 -0.007832 -0.925752 138 0 0 1.000000
0.173744 -0.264589 0.119340 -0.827778 0.014608 -0.560866 138 0 0 1.000000
0.040788 0.458335 0.116085 0.305635 0.252026 0.918189 138 0 0 1.000000
0.208849 -0.079391 0.014354 -0.998746 0.007495 -0.049495 138 0 0 1.000000
0.170526 -0.033216 -0.115769 -0.811715 0.005719 0.584026 138 0 0 1.000000
-0.156244 -0.262985 -0.124653 -0.778848 -0.014534 -0.627044 138 0 0 1.000000
0.177511 -0.496770 -0.105316 0.845709 -0.023515 -0.533126 138 0 0 1.000000
0.105935 -0.626339 -0.067873 0.126001 0.988039 -0.088901 138 0 0 1.000000
-0.034196 0.892650 0.057812 0.578141 0.000000 -0.815937 165 42 42 1.000000
0.042736 -0.244827 -0.197362 -0.189661 0.013849 0.981752 138 0 0 1.000000
0.033127 0.762286 0.062972 -0.446497 0.000000 -0.894785 165 42 42 1.000000
-0.150693 -0.290845 -0.130983 0.752481 0.015616 0.658428 138 0 0 1.000000
0.087517 0.591629 0.030795 -0.935825 -0.188401 -0.297888 138 0 0 1.000000
0.079073 0.425032 0.106349 0.571824 0.267648 0.775488 138 0 0 1.000000
0.193571 -0.626609 0.075104 0.826815 -0.470465 0.308287 138 0 0 1.000000
0.103632 0.070385 0.183842 0.485759 -0.001742 0.874091 138 0 0 1.000000
0.067613 0.638934 0.051550 0.791513 0.165663 0.588271 138 0 0 1.000000
0.068289 0.910029 -0.008291 0.981775 0.000000 -0.190048 165 42 42 1.000000
0.204636 -0.526141 -0.038338 0.978008 -0.024649 -0.207104 138 0 0 1.000000
0.208003 -0.084382 -0.018876 -0.993650 0.007679 0.112250 138 0 0 1.000000
0.175648 -0.367480 -0.108103 0.836983 -0.018558 -0.546915 138 0 0 1.000000
0.204817 -0.393765 0.045815 0.979041 -0.019568 0.202722 138 0 0 1.000000
0.056895 -0.488671 -0.194545 -0.258054 0.023164 0.965853 138 0 0 1.000000
-0.109361 -0.293566 0.175470 0.551153 0.015721 -0.834256 138 0 0 1.000000
-0.084102 0.560391 0.037770 0.914667 -0.203199 -0.349420 138 0 0 1.000000
-0.078290 -0.145480 0.192595 -0.399405 -0.010023 0.916720 138 0 0 1.000000
0.044470 0.268080 -0.168760 0.220922 0.256426 -0.940978 138 0 0 1.000000
-0.199654 0.032239 0.033603 -0.989708 -0.003204 0.143063 138 0 0 1.000000
-0.189172 -0.244997 0.074351 0.939725 0.013853 -0.341651 138 0 0 1.000000
-0.187786 -0.017689 0.078434 0.932425 0.005122 -0.361326 138 0 0 1.000000
-0.105540 -0.152419 -0.169637 -0.532398 -0.010297 -0.846432 138 0 0 1.000000
-0.041477 0.166152 0.197918 -0.224695 0.152370 0.962443 138 0 0 1.000000
0.189639 -0.441015 0.091469 -0.904945 0.021379 -0.424992 138 0 0 1.000000
0.128869 -0.170117 0.167509 0.607980 -0.010957 0.793877 138 0 0 1.000000
-0.009080 0.502460 -0.102053 -0.117186 0.230641 -0.965957 138 0 0 1.000000
-0.098302 0.017237 0.182727 0.496426 0.003778 -0.868071 138 0 0 1.000000
0.151776 0.336881 -0.047243 0.892337 0.326811 -0.311334 138 0 0 1.000000
0.148628 -0.629795 0.014762 0.177929 0.983958 0.012975 138 0 0 1.000000
-0.121468 -0.092035 -0.158988 0.608897 0.007964 0.793210 138 0 0 1.000000
0.073484 0.422638 -0.102484 0.526259 0.269041 -0.806640 138 0 0 1.000000
0.139275 -0.202936 -0.150030 -0.659917 0.012240 0.751239 138 0 0 1.000000
-0.102227 0.475655 -0.036225 0.906227 -0.243606 0.345555 138 0 0 1.000000
-0.031082 -0.308620 -0.198170 -0.169838 -0.016294 -0.985337 138 0 0 1.000000
-0.055326 -0.631616 0.147797 -0.072506 0.981696 0.176115 138 0 0 1.000000
-0.048170 -0.430129 0.203157 0.252648 0.020928 -0.967332 138 0 0 1.000000
-0.105813 0.179700 0.167449 0.549441 -0.166293 -0.818817 138 0 0 1.000000
-0.190037 0.177639 -0.030988 0.970528 -0.164168 0.176421 138 0 0 1.000000
0.149449 0.241891 0.117331 0.768622 0.229435 0.597143 138 0 0 1.000000
-0.121559 0.325265 -0.096480 -0.739844 0.314686 -0.594646 138 0 0 1.000000
0.111246 -0.260117 -0.170898 -0.522985 0.014426 0.852220 138 0 0 1.000000
-0.076353 0.266411 -0.154753 0.436029 -0.254852 0.863093 138 0 0 1.000000
-0.133059 0.309538 0.097501 0.788056 -0.298889 -0.538176 138 0 0 1.000000
-0.043919 0.838182 0.049413 -0.725826 -0.000000 0.687878 165 42 42 1.000000
-0.158788 -0.493802 0.130139 -0.790332 -0.023366 0.612233 138 0 0 1.000000
0.101333 0.464717 0.067366 -0.812271 -0.248965 -0.527477 138 0 0 1.000000
0.153049 0.295765 -0.077141 0.841500 0.284609 -0.459211 138 0 0 1.000000
0.099086 -0.595000 0.186084 0.463890 -0.027286 0.885473 138 0 0 1.000000
0.070576 0.275939 -0.158474 -0.366284 -0.264103 0.892236 138 0 0 1.000000
-0.062833 -0.470911 -0.189973 -0.324497 -0.022530 -0.945618 138 0 0 1.000000
-0.195880 0.058038 0.052579 0.971871 0.002216 -0.235503 138 0 0 1.000000
0.179170 -0.231000 0.111220 0.853521 -0.013307 0.520889 138 0 0 1.000000
-0.116479 -0.122419 -0.162329 0.585502 0.009142 0.810620 138 0 0 1.000000
-0.027943 0.521268 -0.093332 0.302943 -0.221993 0.926793 138 0 0 1.000000
-0.033959 0.982742 0.061262 0.551547 -0.027746 -0.833682 138 0 0 1.000000
-0.049712 0.608427 -0.061562 -0.621294 0.180307 -0.762551 138 0 0 1.000000
0.055133 -0.081154 -0.194896 0.249682 -0.007552 -0.968298 138 0 0 1.000000
-0.081574 0.605312 0.005826 -0.983159 0.181724 0.019348 138 0 0 1.000000
0.184288 -0.261547 -0.093934 -0.878465 0.014480 0.477587 138 0 0 1.000000
-0.053144 0.617205 0.064775 -0.674138 0.176129 0.717298 138 0 0 1.000000
0.115382 -0.267593 0.176520 0.543479 -0.014722 0.839294 138 0 0 1.000000
-0.113989 0.344341 -0.095237 0.720090 -0.334367 0.608003 138 0 0 1.000000
0.047741 0.598535 0.078922 -0.498474 -0.184851 -0.846967 138 0 0 1.000000
-0.170970 -0.149531 -0.103743 -0.850767 -0.010183 -0.525444 138 0 0 1.000000
-0.171717 0.205154 -0.074084 -0.896233 0.192153 -0.399804 138 0 0 1.000000
0.203815 -0.171351 0.050854 0.973792 -0.011022 0.227174 138 0 0 1.000000
0.110866 -0.537703 -0.171151 -0.520986 0.025074 0.853197 138 0 0 1.000000
0.091288 -0.604702 -0.181544 0.425978 -0.027662 -0.904311 138 0 0 1.000000
-0.143091 0.165035 0.138539 -0.729369 0.151276 0.667186 138 0 0 1.000000
-0.050570 0.720133 -0.035773 -0.798445 0.130724 -0.587705 138 0 0 1.000000
0.131357 -0.636043 0.125937 -0.154100 -0.977062 -0.146983 138 0 0 1.000000
0.159195 0.341518 0.004017 0.943653 0.330935 -0.001033 138 0 0 1.000000
-0.104298 -0.088910 -0.170467 0.526240 0.007857 0.850300 138 0 0 1.000000
-0.123888 -0.626901 -0.010529 0.157387 -0.987370 0.018145 138 0 0 1.000000
-0.142280 -0.533369 0.148962 0.710057 0.024882 -0.703704 138 0 0 1.000000
0.122936 0.426799 0.046070 0.908799 0.267056 0.320572 138 0 0 1.000000
0.190681 -0.601843 -0.080971 0.909625 -0.027544 -0.414517 138 0 0 1.000000
-0.010243 0.856870 0.068377 0.213680 0.000000 -0.976904 165 42 42 1.000000
0.157818 -0.348118 -0.131516 0.750191 -0.017816 -0.660981 138 0 0 1.000000
-0.121905 0.403544 0.047176 0.909195 -0.274763 -0.312841 138 0 0 1.000000
0.040013 0.387841 -0.128790 -0.244150 -0.367966 0.897214 138 0 0 1.000000
-0.081076 -0.116228 -0.182836 -0.413219 -0.008906 -0.910588 138 0 0 1.000000
0.012130 0.008677 0.209366 0.040588 -0.004113 0.999168 138 0 0 1.000000
-0.035652 -0.123083 -0.197261 -0.192165 -0.009174 -0.981320 138 0 0 1.000000
-0.051711 -0.012637 0.202135 -0.269998 -0.004925 0.962848 138 0 0 1.000000
-0.046797 -0.203888 -0.195044 0.246104 0.012260 0.969166 138 0 0 1.000000
0.198433 -0.299485 -0.061049 0.948033 -0.015948 -0.317771 138 0 0 1.000000
-0.026596 -0.232374 0.207448 -0.147868 -0.013356 0.988917 138 0 0 1.000000
0.208902 -0.164438 0.013548 0.998903 -0.010760 0.045566 138 0 0 1.000000
-0.194044 -0.453574 0.060000 -0.962213 -0.021835 0.271421 138 0 0 1.000000
0.195287 -0.498702 0.078702 -0.931679 0.023575 -0.362516 138 0 0 1.000000
0.056837 -0.051309 0.202943 -0.257842 0.006404 -0.966166 138 0 0 1.000000
-0.045427 -0.263627 -0.195316 0.239515 0.014556 0.970784 138 0 0 1.000000
0.032633 0.919419 0.063215 0.438984 -0.000000 0.898495 165 42 42 1.000000
0.163305 0.238453 -0.089931 -0.838877 -0.225971 0.495199 138 0 0 1.000000
-0.057759 -0.196427 0.200082 -0.299751 -0.011987 0.953942 138 0 0 1.000000
0.063911 -0.282812 0.200570 -0.292684 0.015301 -0.956087 138 0 0 1.000000
0.020354 0.987298 -0.062280 -0.241599 -0.030672 0.969891 138 0 0 1.000000
-0.100863 0.405411 -0.077132 -0.759339 0.273875 -0.590251 138 0 0 1.000000
-0.200576 -0.566405 0.024753 0.994637 0.026181 -0.100060 138 0 0 1.000000
0.008197 0.964774 0.072478 0.064290 0.016069 0.997802 165 42 42 1.000000
0.041927 -0.177740 0.205909 0.185740 -0.011272 0.982534 138 0 0 1.000000
0.145147 -0.449040 0.153267 0.687901 -0.021675 0.725481 138 0 0 1.000000
0.205298 0.061174 -0.035013 -0.981591 0.002098 0.190985 138 0 0 1.000000
0.116015 0.479855 0.010104 0.968947 0.241746 0.051972 138 0 0 1.000000
0.164242 -0.110902 -0.124190 0.780781 -0.008697 -0.624744 138 0 0 1.000000
-0.155042 -0.316314 -0.126024 -0.773228 -0.016585 -0.633911 138 0 0 1.000000
0.058166 0.397332 0.127499 -0.388720 -0.276025 -0.879037 138 0 0 1.000000
0.070098 -0.619316 0.010408 0.083948 0.996439 0.007859 138 0 0 1.000000
-0.014016 1.000701 0.065703 0.000000 1.000000 0.000000 165 42 42 1.000000
-0.200964 -0.345966 0.018834 -0.997297 -0.017733 0.071302 138 0 0 1.000000
-0.022425 0.609899 0.084470 -0.304138 0.179705 0.935525 138 0 0 1.000000
0.034570 -0.382562 -0.198986 -0.149727 0.019118 0.988543 138 0 0 1.000000
-0.054660 0.564073 -0.068626 0.613910 -0.201407 0.763249 138 0 0 1.000000
0.166172 -0.613859 -0.121989 0.789304 -0.027969 -0.613365 138 0 0 1.000000
-0.088759 -0.165746 -0.179047 -0.450838 -0.010812 -0.892541 138 0 0 1.000000
0.062177 0.634295 -0.050818 0.716746 0.167970 -0.676802 138 0 0 1.000000
-0.191205 -0.089454 0.068362 -0.949864 -0.007882 0.312563 138 0 0 1.000000
-0.072189 -0.620149 0.004277 0.095559 -0.995424 -0.000105 138 0 0 1.000000
0.081418 -0.619405 0.194258 0.373058 -0.163144 0.913352 138 0 0 1.000000
-0.189653 -0.607556 -0.064549 -0.941913 -0.027774 -0.334708 138 0 0 1.000000
0.077507 0.455522 0.097259 0.601194 0.253082 0.757968 138 0 0 1.000000
-0.029434 -0.611273 -0.198498 0.161719 0.027903 0.986442 138 0 0 1.000000
0.204385 -0.277170 0.047988 -0.976872 0.015089 -0.213291 138 0 0 1.000000
-0.137031 -0.464847 -0.145340 0.685428 0.022284 0.727800 138 0 0 1.000000
0.183978 -0.457265 0.102948 0.876712 -0.021986 0.480513 138 0 0 1.000000
-0.001437 -0.622598 -0.093748 0.006519 -0.992531 0.121818 138 0 0 1.000000
0.148158 -0.351811 0.150626 0.701941 -0.017927 0.712010 138 0 0 1.000000
-0.180395 -0.291359 -0.086433 -0.897156 -0.015636 -0.441436 138 0 0 1.000000
-0.136040 0.380866 -0.007935 0.927436 -0.364925 0.081812 138 0 0 1.000000
-0.043871 -0.628638 0.134580 -0.058631 0.985314 0.160369 138 0 0 1.000000
-0.154839 0.292699 0.067979 -0.890264 0.281310 0.358182 138 0 0 1.000000
0.208451 -0.180857 -0.012047 -0.996802 0.011391 0.079094 138 0 0 1.000000
-0.197199 -0.197300 -0.037559 -0.979025 -0.012024 -0.203383 138 0 0 1.000000
-0.129580 -0.461197 0.160261 -0.649515 -0.022156 0.760026 138 0 0 1.000000
-0.059570 0.254802 0.173872 -0.339356 0.242886 0.908759 138 0 0 1.000000
0.006502 0.860660 -0.061460 -0.041188 -0.000000 0.999151 165 42 42 1.000000
0.200993 -0.595542 0.061892 -0.959402 0.027290 -0.280719 138 0 0 1.000000
-0.134445 -0.519577 -0.147608 -0.673114 -0.024395 -0.739136 138 0 0 1.000000
-0.033258 -0.018921 -0.197737 0.180487 0.005173 0.983564 138 0 0 1.000000
0.071108 0.606386 0.056499 -0.776474 -0.181089 -0.603568 138 0 0 1.000000
0.094389 0.079655 -0.180014 0.441316 -0.001388 -0.897351 138 0 0 1.000000
0.082738 -0.626333 -0.092739 -0.097384 -0.988038 0.119575 138 0 0 1.000000
0.095097 -0.258470 0.188051 -0.444731 0.014373 -0.895549 138 0 0 1.000000
0.071365 0.392400 -0.114189 0.476072 0.276961 -0.834655 138 0 0 1.000000
0.175215 0.248785 -0.058487 -0.912271 -0.236795 0.334201 138 0 0 1.000000
0.177657 -0.556146 0.113483 -0.846341 0.025793 -0.532017 138 0 0 1.000000
0.140550 0.322132 -0.082131 -0.803471 -0.311650 0.507256 138 0 0 1.000000
0.062466 0.987765 0.039552 0.856071 0.030977 0.515930 165 42 42 1.000000
0.129036 -0.456433 0.167395 -0.608648 0.021928 -0.793137 138 0 0 1.000000
0.104415 0.529204 0.009266 -0.974654 -0.218194 -0.049403 138 0 0 1.000000
0.049505 0.164207 -0.189767 -0.226671 -0.150371 0.962294 138 0 0 1.000000
0.097765 0.206795 0.171626 -0.480319 -0.193697 -0.855439 138 0 0 1.000000
0.184151 0.000469 -0.094212 -0.877828 0.004425 0.478956 138 0 0 1.000000
0.188019 -0.418024 -0.086368 0.897242 -0.020500 -0.441063 138 0 0 1.000000
0.200813 -0.365871 -0.054036 -0.958829 0.018483 0.283381 138 0 0 1.000000
-0.049987 0.088733 0.202720 -0.261481 -0.001037 0.965208 138 0 0 1.000000
0.107960 0.486656 0.041753 0.913147 0.238474 0.330595 138 0 0 1.000000
0.068370 -0.468211 -0.190670 -0.314475 0.022426 0.949001 138 0 0 1.000000
-0.059480 0.729785 -0.015258 -0.947856 0.128502 -0.291645 138 0 0 1.000000
0.075347 0.486309 0.088809 0.628441 0.238656 0.740341 138 0 0 1.000000
-0.052253 -0.572228 0.201951 0.272585 0.026386 -0.961770 138 0 0 1.000000
-0.079317 -0.113693 0.192089 -0.404503 -0.008806 0.914494 138 0 0 1.000000
0.194217 -0.228416 -0.073467 0.925875 -0.013195 -0.377599 138 0 0 1.000000
0.198542 -0.585951 -0.060726 0.948333 -0.026947 -0.316129 138 0 0 1.000000
-0.197535 -0.244187 -0.035871 -0.980673 -0.013825 -0.195163 138 0 0 1.000000
0.145742 -0.271765 0.152745 0.690774 -0.014870 0.722917 138 0 0 1.000000
0.077262 0.472044 -0.083410 0.622550 0.245427 -0.743099 138 0 0 1.000000
0.055491 0.893090 0.044875 -0.785838 0.000000 -0.618433 165 42 42 1.000000
-0.173318 0.235973 -0.051162 0.930179 -0.223707 0.291069 138 0 0 1.000000
0.178532 -0.218959 -0.103789 -0.850608 0.012848 0.525644 138 0 0 1.000000
-0.117333 0.206097 0.153150 -0.618849 0.193122 0.761400 138 0 0 1.000000
-0.113464 0.084406 0.172729 0.571119 0.001205 -0.820866 138 0 0 1.000000
0.194621 -0.387174 -0.072279 -0.928067 0.019287 0.371913 138 0 0 1.000000
-0.163971 -0.635878 -0.047394 -0.203114 0.977176 -0.062226 138 0 0 1.000000
-0.064975 0.638793 0.044179 0.852524 -0.165620 -0.495755 138 0 0 1.000000
0.185997 -0.193038 0.098855 0.887314 -0.011858 0.461013 138 0 0 1.000000
-0.106300 -0.101742 0.177516 0.536151 0.008352 -0.844081 138 0 0 1.000000
0.106048 -0.626891 0.082124 -0.126038 -0.987364 -0.096059 138 0 0 1.000000
-0.098998 -0.222665 -0.173997 -0.499652 -0.012971 -0.866129 138 0 0 1.000000
-0.056434 0.970526 0.036769 0.879415 -0.019794 -0.475645 138 0 0 1.000000
-0.033126 0.863538 0.058527 -0.562052 -0.000000 0.827102 165 42 42 1.000000
-0.103858 -0.522341 -0.170762 -0.523907 -0.024488 -0.851423 138 0 0 1.000000
0.013495 -0.616651 0.020899 0.017610 0.999386 0.030306 138 0 0 1.000000
-0.168111 0.082562 -0.108022 -0.837383 -0.001276 -0.546615 138 0 0 1.000000
-0.046119 1.000701 -0.020876 0.000000 1.000000 0.000000 165 42 42 1.000000
0.169888 -0.339095 -0.116725 -0.808329 0.017455 0.588473 138 0 0 1.000000
0.197576 -0.283102 -0.063572 0.943841 -0.015318 -0.330046 138 0 0 1.000000
0.129687 0.070475 0.166825 0.612117 -0.001737 0.790765 138 0 0 1.000000
-0.042972 0.788544 -0.042107 0.710658 -0.000000 0.703537 165 42 42 1.000000
0.161989 0.041337 0.135146 -0.770307 0.002858 -0.637666 138 0 0 1.000000
-0.120910 0.393523 -0.049822 -0.881406 0.276856 -0.382719 138 0 0 1.000000
0.036900 -0.622085 0.092283 -0.041240 -0.993105 -0.109740 138 0 0 1.000000
0.201114 -0.236740 -0.053149 -0.960186 0.013525 0.279032 138 0 0 1.000000
0.165469 -0.635356 0.066542 0.196990 0.977460 0.075945 138 0 0 1.000000
-0.104884 0.000491 -0.170076 0.529161 0.004426 0.848510 138 0 0 1.000000
-0.105021 -0.634274 -0.123848 -0.133219 0.978613 -0.156743 138 0 0 1.000000
0.069627 0.523877 -0.073681 0.628527 0.220721 -0.745812 138 0 0 1.000000
-0.109984 0.224004 -0.146054 0.590161 -0.211196 0.779170 138 0 0 1.000000
0.073176 0.211570 -0.173721 0.355859 0.198654 -0.913182 138 0 0 1.000000
-0.125362 0.020632 -0.155574 -0.628675 -0.003652 -0.777659 138 0 0 1.000000
0.054103 0.112211 -0.195101 0.244749 -0.000138 -0.969587 138 0 0 1.000000
-0.173661 -0.151957 0.108103 -0.862900 -0.010265 0.505270 138 0 0 1.000000
0.193372 -0.613189 0.083899 0.921476 -0.027942 0.387430 138 0 0 1.000000
0.050534 0.540512 -0.082339 -0.463219 -0.212695 0.860342 138 0 0 1.000000
0.015250 -0.630842 0.154598 0.014046 0.982714 0.184598 138 0 0 1.000000
-0.110800 0.419411 -0.053505 0.859765 -0.270584 0.433114 138 0 0 1.000000
0.135541 -0.248818 0.161691 0.641557 -0.013999 0.766948 138 0 0 1.000000
0.188397 -0.409086 0.093987 -0.899071 0.020157 -0.437338 138 0 0 1.000000
0.071537 -0.473068 0.197981 0.329903 -0.022612 0.943744 138 0 0 1.000000
0.139883 0.112101 -0.149497 -0.662928 0.000142 0.748683 138 0 0 1.000000
-0.147677 0.296590 -0.072102 0.855707 -0.285664 0.431464 138 0 0 1.000000
-0.015728 0.315976 -0.158482 -0.113738 0.305067 -0.945515 138 0 0 1.000000
-0.075880 -0.540660 -0.185398 -0.387310 -0.025163 -0.921606 138 0 0 1.000000
-0.063718 0.193561 0.186360 -0.341393 0.180389 0.922448 138 0 0 1.000000
-0.200874 0.108715 0.020200 0.996956 0.000272 -0.077968 138 0 0 1.000000
0.208896 -0.568033 -0.005256 0.998596 -0.026254 -0.046007 138 0 0 1.000000
0.196689 -0.021121 0.074573 0.939407 -0.005257 0.342764 138 0 0 1.000000
0.120136 -0.141706 -0.164957 0.566658 -0.009888 -0.823894 138 0 0 1.000000
0.183563 -0.638189 0.052232 0.211491 0.975745 0.056510 138 0 0 1.000000
0.013789 0.410757 0.134586 -0.074707 -0.273024 -0.959102 138 0 0 1.000000
-0.122094 -0.369134 0.166825 0.612010 0.018588 -0.790631 138 0 0 1.000000
0.049905 0.913572 -0.042742 -0.700803 -0.000000 0.713355 165 42 42 1.000000
-0.079897 0.547793 0.053030 -0.844572 0.208983 0.492975 138 0 0 1.000000
-0.175446 -0.053016 -0.096470 -0.871889 -0.006474 -0.489660 138 0 0 1.000000
0.147613 -0.034709 -0.142718 -0.699532 0.005771 0.714578 138 0 0 1.000000
-0.069690 0.337613 0.142349 -0.443293 0.327435 0.834432 138 0 0 1.000000
0.161909 -0.158726 -0.126851 0.769897 -0.010539 -0.638081 138 0 0 1.000000
-0.108882 0.468816 -0.019511 -0.948051 0.247011 -0.200463 138 0 0 1.000000
0.066271 0.938498 0.024508 0.950990 -0.000000 0.309223 165 42 42 1.000000
-0.112210 -0.624571 0.171373 -0.525674 -0.383775 0.759199 138 0 0 1.000000
0.048901 0.219940 0.187924 -0.233433 -0.207203 -0.950040 138 0 0 1.000000
0.124161 -0.268438 -0.162268 0.585880 -0.014746 -0.810264 138 0 0 1.000000
0.070874 -0.585823 0.198207 0.326644 -0.026942 0.944763 138 0 0 1.000000
-0.201916 -0.426212 0.004300 -0.999784 -0.020771 0.000520 138 0 0 1.000000
-0.043733 -0.087111 -0.195653 0.231374 0.007787 0.972834 138 0 0 1.000000
-0.082577 -0.497430 -0.182096 0.420524 0.023542 0.906976 138 0 0 1.000000
-0.199015 -0.079852 0.036820 -0.987279 -0.007508 0.158819 138 0 0 1.000000
-0.139470 -0.242812 -0.143201 -0.696929 -0.013754 -0.717009 138 0 0 1.000000
-0.124960 0.044360 -0.155927 -0.626649 -0.002741 -0.779296 138 0 0 1.000000
0.141173 0.377035 -0.032243 -0.900853 -0.362421 0.238987 138 0 0 1.000000
-0.093030 0.180946 -0.167080 0.485288 -0.167305 0.858198 138 0 0 1.000000
-0.173687 0.055206 -0.099677 0.863059 0.002323 0.505098 138 0 0 1.000000
-0.198211 -0.085678 -0.032474 -0.983892 -0.007736 -0.178597 138 0 0 1.000000
0.023485 0.202169 0.195907 -0.100667 -0.189119 -0.976780 138 0 0 1.000000
0.034980 -0.344052 -0.198904 -0.151736 0.017642 0.988264 138 0 0 1.000000
-0.143011 -0.634214 0.134191 -0.454631 -0.793818 0.403936 138 0 0 1.000000
0.111842 -0.185094 0.178886 0.525981 -0.011548 0.850418 138 0 0 1.000000
-0.155774 -0.425977 -0.125189 0.776579 0.020790 0.629676 138 0 0 1.000000
-0.191997 0.108452 -0.057643 -0.953572 -0.000282 -0.301163 138 0 0 1.000000
0.200670 -0.434234 -0.054457 0.958164 -0.021107 -0.285439 138 0 0 1.000000
0.185966 0.251270 0.005726 0.970979 0.239025 0.008203 138 0 0 1.000000
-0.147630 -0.158522 -0.134476 0.737441 0.010532 0.675329 138 0 0 1.000000
-0.059923 0.852351 0.020573 0.968510 0.000000 -0.248975 165 42 42 1.000000
-0.021590 -0.622081 0.094861 -0.031625 0.993097 0.112952 138 0 0 1.000000
0.207614 -0.385660 -0.023369 -0.990797 0.019220 0.133983 138 0 0 1.000000
-0.021333 -0.114197 -0.199879 -0.122213 -0.008818 -0.992465 138 0 0 1.000000
0.121751 -0.046918 0.172265 -0.574452 0.006247 -0.818514 138 0 0 1.000000
0.157828 -0.430909 -0.131504 0.750193 -0.020995 -0.660886 138 0 0 1.000000
0.192155 -0.088040 -0.077980 -0.916549 0.007819 0.399845 138 0 0 1.000000
-0.154377 0.068933 0.135168 -0.770220 -0.001799 0.637776 138 0 0 1.000000
0.000666 0.919257 0.069819 0.047634 0.000000 -0.998865 165 42 42 1.000000
0.038971 0.669975 0.069805 0.468127 0.150963 0.870671 138 0 0 1.000000
0.029159 -0.627114 -0.122954 0.031266 0.987154 -0.156684 138 0 0 1.000000
0.059656 -0.157716 0.202015 0.271737 -0.010490 0.962314 138 0 0 1.000000
-0.176607 -0.207683 0.102500 0.878024 0.012412 -0.478456 138 0 0 1.000000
-0.197249 -0.434520 -0.037311 -0.979129 -0.021133 -0.202138 138 0 0 1.000000
-0.072907 0.231206 -0.166051 -0.400855 0.218767 -0.889638 138 0 0 1.000000
0.095089 0.189800 0.176488 -0.460939 -0.176534 -0.869696 138 0 0 1.000000
0.121500 0.091638 -0.164046 -0.573252 0.000928 0.819378 138 0 0 1.000000
0.158329 -0.514892 -0.130933 -0.752578 0.024219 0.658058 138 0 0 1.000000
-0.058034 0.326435 -0.143965 0.365533 -0.315587 0.875666 138 0 0 1.000000
0.208565 -0.515631 -0.010298 -0.997212 0.024247 0.070568 138 0 0 1.000000
-0.140248 -0.262131 -0.142519 0.700518 0.014491 0.713488 138 0 0 1.000000
-0.081761 0.206984 -0.167348 0.437931 -0.194155 0.877793 138 0 0 1.000000
-0.043896 0.712938 0.053252 -0.690502 0.132405 0.711109 138 0 0 1.000000
0.030186 -0.541369 -0.199796 -0.128259 0.025185 0.991421 138 0 0 1.000000
0.143941 0.211940 -0.125220 -0.719893 -0.199157 0.664898 138 0 0 1.000000
0.208923 -0.594395 0.013220 0.998662 -0.027265 0.043950 138 0 0 1.000000
-0.098153 0.338234 -0.114156 0.617059 -0.328192 0.715212 138 0 0 1.000000
-0.092413 0.547000 -0.008775 0.969066 -0.209342 0.130721 138 0 0 1.000000
-0.193213 -0.256502 -0.054060 -0.958858 -0.014286 -0.283528 138 0 0 1.000000
0.018586 1.000701 0.066206 0.000000 -1.000000 -0.000000 255 255 255 1.000000
-0.053008 -0.629421 0.196899 -0.227744 -0.590068 0.774566 138 0 0 1.000000
-0.038909 -0.617907 -0.017055 -0.055245 0.998094 -0.027484 138 0 0 1.000000
0.022627 -0.625398 0.121353 -0.023279 -0.989192 -0.144766 138 0 0 1.000000
0.179366 -0.601336 0.110926 0.854167 -0.027512 0.519270 138 0 0 1.000000
-0.198963 -0.321432 -0.028692 0.986961 0.016780 0.160081 138 0 0 1.000000
-0.014855 -0.616652 -0.001000 -0.033811 0.999385 -0.009323 138 0 0 1.000000
-0.186034 0.044688 0.083385 0.922907 0.002725 -0.385013 138 0 0 1.000000
0.068561 -0.528827 0.198992 -0.315399 0.024754 -0.948636 138 0 0 1.000000
0.056827 0.862563 -0.034679 0.806525 0.000000 -0.591200 165 42 42 1.000000
-0.014267 0.950518 -0.061937 -0.263479 0.006790 -0.964641 165 42 42 1.000000
0.160506 0.009144 0.136837 0.763275 -0.004095 0.646060 138 0 0 1.000000
0.159330 -0.321862 0.138178 -0.757528 0.016807 -0.652587 138 0 0 1.000000
0.008404 -0.620010 0.078333 -0.005786 -0.995618 -0.093336 138 0 0 1.000000
0.138656 0.014692 0.158959 0.656957 -0.003883 0.753918 138 0 0 1.000000
0.156377 -0.632125 -0.036471 0.187049 0.981085 -0.049850 138 0 0 1.000000
0.079661 0.606273 -0.034414 -0.875544 -0.181431 0.447779 138 0 0 1.000000
0.048881 -0.625092 0.111865 -0.055740 -0.989532 -0.133115 138 0 0 1.000000
-0.085115 0.306084 -0.136907 0.509959 -0.295280 0.807930 138 0 0 1.000000
-0.149492 -0.471536 0.140739 0.746521 0.022554 -0.664980 138 0 0 1.000000
0.086672 -0.208646 0.192206 -0.403326 0.012448 -0.914972 138 0 0 1.000000
-0.062046 -0.392087 0.198626 -0.320675 -0.019504 0.946989 138 0 0 1.000000
-0.179708 -0.301846 0.096212 -0.893796 -0.016039 0.448186 138 0 0 1.000000
0.204872 -0.017271 0.045540 0.979492 -0.005110 0.201417 138 0 0 1.000000
0.186128 -0.151817 -0.090203 -0.888002 0.010275 0.459726 138 0 0 1.000000
0.028391 0.641166 0.079262 0.307721 0.164792 0.937097 138 0 0 1.000000
-0.091618 -0.043606 -0.177637 0.464656 0.006120 0.885470 138 0 0 1.000000
0.201696 0.169759 -0.007641 -0.985990 -0.156137 0.058688 138 0 0 1.000000
-0.062308 0.976857 -0.013946 0.964079 -0.023881 0.264539 138 0 0 1.000000
-0.027124 0.950811 0.065239 0.451843 -0.006992 -0.892070 138 0 0 1.000000
-0.097255 0.522222 0.020715 -0.962289 0.221432 0.158012 138 0 0 1.000000
0.042385 0.294352 -0.161709 0.216998 0.283260 -0.934171 138 0 0 1.000000
0.023740 0.272136 -0.171378 0.108854 0.260431 -0.959336 138 0 0 1.000000
-0.038715 0.236864 -0.176278 -0.223561 0.224548 -0.948472 138 0 0 1.000000
0.003734 -0.287735 -0.201522 -0.000300 -0.015464 -0.999880 138 0 0 1.000000
-0.020831 -0.633949 -0.191074 -0.078074 -0.781335 -0.619209 138 0 0 1.000000
0.180069 -0.160453 -0.101488 -0.857623 0.010596 0.514170 138 0 0 1.000000
0.208252 -0.487323 -0.015086 -0.995318 0.023151 0.093846 138 0 0 1.000000
0.042999 0.971325 -0.051908 -0.572685 -0.020323 0.819523 138 0 0 1.000000
0.173879 0.088581 -0.110752 0.828534 -0.001045 -0.559937 138 0 0 1.000000
0.208478 -0.441591 -0.011630 0.996797 -0.021403 -0.077054 138 0 0 1.000000
0.204879 -0.071392 0.045505 0.979515 -0.007189 0.201243 138 0 0 1.000000
0.101721 -0.533586 0.184784 -0.476532 0.024918 -0.878804 138 0 0 1.000000
-0.115678 0.417709 0.052818 -0.891571 0.270941 0.362893 138 0 0 1.000000
-0.079687 0.423063 -0.091911 0.632256 -0.268851 0.726616 138 0 0 1.000000
0.176844 -0.635394 0.013718 -0.210752 -0.977472 -0.011525 138 0 0 1.000000
0.147367 0.123188 -0.141822 0.696284 0.116588 -0.708235 138 0 0 1.000000
0.205283 -0.209503 -0.035087 -0.981448 0.012493 0.191321 138 0 0 1.000000
-0.115011 0.042280 0.171696 0.578530 0.002822 -0.815656 138 0 0 1.000000
-0.050452 0.996207 0.044309 0.755925 -0.341495 -0.558533 138 0 0 1.000000
-0.010284 0.339834 -0.150871 0.086273 -0.329732 0.940124 138 0 0 1.000000
-0.036784 0.493701 0.105521 0.361142 -0.234841 -0.902456 138 0 0 1.000000
-0.064518 0.941585 0.008141 -0.998334 0.000996 0.057699 165 42 42 1.000000
0.147047 -0.618219 0.151402 0.692986 -0.112531 0.712115 138 0 0 1.000000
0.024513 0.524757 -0.095432 -0.197720 -0.220334 0.955175 138 0 0 1.000000
0.012818 -0.295363 0.209321 -0.043946 0.015786 -0.998909 138 0 0 1.000000
-0.124069 -0.325746 0.165094 -0.622063 -0.016937 0.782784 138 0 0 1.000000
-0.139625 -0.039228 0.151452 -0.697696 -0.005945 0.716369 138 0 0 1.000000
-0.084086 -0.582979 -0.181351 -0.427904 -0.026830 -0.903426 138 0 0 1.000000
0.105972 -0.624703 0.054464 0.126424 0.990025 0.062187 138 0 0 1.000000
-0.100701 0.041781 0.181257 -0.508247 -0.002838 0.861206 138 0 0 1.000000
0.052048 0.727858 -0.041518 -0.719103 -0.128915 0.682841 138 0 0 1.000000
0.208466 -0.293094 0.020199 -0.996832 0.015702 -0.077967 138 0 0 1.000000
-0.178443 -0.565093 -0.090392 -0.887271 -0.026141 -0.460508 138 0 0 1.000000
0.051918 -0.623309 -0.087612 -0.059743 -0.991688 0.113951 138 0 0 1.000000
-0.062381 -0.289310 -0.190126 0.322348 0.015557 0.946493 138 0 0 1.000000
0.137801 0.379601 0.047550 -0.885651 -0.364332 -0.287896 138 0 0 1.000000
0.030744 0.299880 0.170784 -0.152912 -0.288852 -0.945083 138 0 0 1.000000
0.113000 -0.035648 -0.169726 -0.531750 0.005814 0.846881 138 0 0 1.000000
0.179039 -0.426927 0.111416 0.852812 -0.020825 0.521803 138 0 0 1.000000
0.065618 0.027069 -0.191604 -0.301089 0.003407 0.953590 138 0 0 1.000000
-0.189749 -0.551206 0.072651 -0.942455 -0.025611 0.333350 138 0 0 1.000000
-0.153851 0.141566 -0.122872 0.772172 -0.127227 0.622546 138 0 0 1.000000
0.079283 0.306590 -0.144290 0.432298 0.295871 -0.851809 138 0 0 1.000000
0.194171 0.193468 -0.034257 0.964063 0.180358 -0.195073 138 0 0 1.000000
-0.005484 0.477788 -0.108310 -0.080105 0.242713 -0.966785 138 0 0 1.000000
0.097036 0.001056 0.187095 0.454171 -0.004406 0.890904 138 0 0 1.000000
0.017633 -0.377794 -0.200619 -0.067385 0.018955 0.997547 138 0 0 1.000000
-0.167435 -0.561354 0.117420 -0.833847 -0.026002 0.551383 138 0 0 1.000000
0.189297 -0.488913 0.092162 0.903303 -0.023219 0.428375 138 0 0 1.000000
-0.051276 -0.622322 0.082752 0.068563 -0.992843 -0.097789 138 0 0 1.000000
-0.020408 0.835955 0.065348 0.368010 0.000000 -0.929822 165 42 42 1.000000
0.002268 -0.037831 0.209812 0.007427 0.005890 -0.999955 138 0 0 1.000000
-0.080185 0.286755 0.155040 -0.467369 0.275325 0.840097 138 0 0 1.000000
-0.057407 0.732344 0.028731 -0.920473 0.127758 0.369334 138 0 0 1.000000
-0.191906 0.031235 -0.057912 -0.953150 -0.003247 -0.302480 138 0 0 1.000000
0.032511 0.494528 -0.100949 -0.255916 -0.234353 0.937862 138 0 0 1.000000
0.125302 -0.625905 0.016081 -0.150004 -0.988577 -0.014665 138 0 0 1.000000
0.095670 0.524594 0.048036 0.879947 0.220404 0.420851 138 0 0 1.000000
0.051376 0.683402 -0.050396 0.649398 0.144647 -0.746565 138 0 0 1.000000
0.139741 -0.110675 -0.149622 -0.662211 0.008697 0.749267 138 0 0 1.000000
-0.120661 0.419816 -0.027179 0.933617 -0.270079 0.235407 138 0 0 1.000000
0.107032 -0.087526 0.182099 0.501888 -0.007793 0.864898 138 0 0 1.000000
-0.187172 -0.049814 -0.071856 -0.929022 -0.006351 -0.369970 138 0 0 1.000000
-0.125368 -0.629115 -0.053949 0.158779 -0.984724 0.071470 138 0 0 1.000000
0.090831 0.533078 -0.045127 0.849464 0.216028 -0.481396 138 0 0 1.000000
0.007609 -0.567855 -0.201276 0.018548 -0.026224 -0.999484 138 0 0 1.000000
0.053377 -0.401185 0.203631 0.241216 -0.019831 0.970269 138 0 0 1.000000
-0.090484 0.366184 0.115836 0.602569 -0.356664 -0.713934 138 0 0 1.000000
0.171282 -0.395523 0.123024 0.815417 -0.019628 0.578542 138 0 0 1.000000
-0.196201 -0.514923 0.050966 0.973442 0.024207 -0.227649 138 0 0 1.000000
0.180864 0.194035 -0.075630 0.896470 0.180836 -0.404524 138 0 0 1.000000
0.197121 0.008106 -0.064912 0.941642 -0.004135 -0.336592 138 0 0 1.000000
-0.068447 0.682633 0.010840 -0.985224 0.144963 0.091207 138 0 0 1.000000
-0.105436 -0.636506 0.145455 0.131160 -0.976747 -0.169597 138 0 0 1.000000
0.179214 -0.636705 -0.031995 0.210168 0.976716 -0.043082 138 0 0 1.000000
0.196565 -0.571971 -0.066551 -0.938452 0.026402 0.344400 138 0 0 1.000000
0.000248 0.999148 -0.061723 0.046042 -0.509127 0.859459 138 0 0 1.000000
0.029476 0.561764 0.094482 -0.268305 -0.202443 -0.941822 138 0 0 1.000000
0.183158 -0.141585 0.104610 -0.872515 0.009871 -0.488487 138 0 0 1.000000
-0.180099 -0.139678 0.095420 -0.895786 -0.009811 0.444377 138 0 0 1.000000
-0.186866 0.061281 0.081146 -0.927317 -0.002090 0.374272 138 0 0 1.000000
0.066053 0.507476 -0.081341 -0.572067 -0.228420 0.787759 138 0 0 1.000000
-0.174099 0.000254 0.107446 -0.864868 -0.004428 0.501980 138 0 0 1.000000
0.202390 -0.215519 0.057777 0.965396 -0.012698 0.260479 138 0 0 1.000000
-0.125106 0.402078 -0.030676 0.928172 -0.274612 0.251169 138 0 0 1.000000
-0.103127 -0.352634 -0.171250 0.520336 0.017973 0.853772 138 0 0 1.000000
-0.171280 0.136366 -0.099088 -0.854719 0.123308 -0.504233 138 0 0 1.000000
-0.113556 0.435099 -0.035896 -0.912410 0.263112 -0.313496 138 0 0 1.000000
0.208138 -0.142669 0.025199 -0.994708 0.009919 -0.102259 138 0 0 1.000000
0.202035 -0.125559 -0.050437 0.964023 -0.009253 -0.265659 138 0 0 1.000000
0.097840 0.105915 0.186698 -0.458058 0.000380 -0.888922 138 0 0 1.000000
-0.107389 -0.463252 0.176789 0.541415 0.022233 -0.840462 138 0 0 1.000000
0.001240 -0.423272 0.209745 -0.012429 -0.020672 0.999709 138 0 0 1.000000
-0.083569 0.371232 -0.110792 0.564565 -0.359496 0.742987 138 0 0 1.000000
0.099867 0.380002 -0.098658 -0.635072 -0.364416 0.681091 138 0 0 1.000000
-0.097629 -0.271092 0.183059 -0.493208 -0.014833 0.869785 138 0 0 1.000000
0.038234 -0.635510 0.174563 -0.041966 -0.977407 -0.207157 138 0 0 1.000000
0.034747 0.924279 -0.053787 -0.470927 -0.000000 0.882172 165 42 42 1.000000
-0.200634 0.025650 -0.015472 -0.995399 -0.003460 -0.095756 138 0 0 1.000000
0.083605 -0.324699 0.193718 0.388040 -0.016886 0.921488 138 0 0 1.000000
0.077766 0.127033 0.194524 -0.359799 -0.118626 -0.925458 138 0 0 1.000000
0.198406 -0.284293 0.069515 0.947905 -0.015365 0.318181 138 0 0 1.000000
0.209380 -0.363995 0.002132 0.999781 -0.018397 -0.010021 138 0 0 1.000000
0.160715 -0.480146 -0.128212 -0.764084 0.022881 0.644711 138 0 0 1.000000
-0.038784 0.553298 0.089723 -0.435158 0.206724 0.876301 138 0 0 1.000000
-0.178076 -0.103497 0.099522 -0.885677 -0.008419 0.464225 138 0 0 1.000000
-0.059329 0.291183 -0.155128 -0.353882 0.279834 -0.892446 138 0 0 1.000000
-0.174408 -0.032673 0.106960 -0.866262 -0.005690 0.499557 138 0 0 1.000000
0.195179 -0.230355 0.079020 0.931262 -0.013280 0.364107 138 0 0 1.000000
0.133565 -0.126318 0.163424 -0.631721 0.009292 -0.775140 138 0 0 1.000000
-0.123729 -0.290502 0.165392 -0.620356 -0.015583 0.784166 138 0 0 1.000000
0.071947 0.331125 -0.139063 0.406264 0.320912 -0.855550 138 0 0 1.000000
0.100237 -0.427939 -0.177130 0.469473 -0.020871 -0.882700 138 0 0 1.000000
-0.076416 -0.625148 0.089325 -0.099165 0.989491 0.105234 138 0 0 1.000000
-0.107789 -0.343208 0.176521 -0.543432 -0.017625 0.839268 138 0 0 1.000000
-0.074869 0.640500 0.013487 0.979423 -0.164894 -0.116363 138 0 0 1.000000
0.096748 0.556073 0.023574 0.957932 0.205390 0.200452 138 0 0 1.000000
-0.058037 0.941869 -0.025132 -0.903538 0.001180 -0.428507 165 42 42 1.000000
-0.126759 -0.021196 0.162735 0.635667 0.005258 -0.771945 138 0 0 1.000000
0.139631 -0.473143 -0.149718 0.661534 -0.022616 -0.749574 138 0 0 1.000000
-0.055847 0.308600 -0.150785 0.343152 -0.297723 0.890847 138 0 0 1.000000
0.097046 0.414031 0.094760 0.689802 0.271925 0.670992 138 0 0 1.000000
-0.062705 -0.300138 0.198402 0.323902 0.015973 -0.945956 138 0 0 1.000000
-0.134140 -0.081655 -0.147876 -0.671836 -0.007582 -0.740661 138 0 0 1.000000
-0.106968 0.197068 0.162958 -0.562060 0.184003 0.806369 138 0 0 1.000000
0.165635 -0.241137 -0.122602 0.787107 -0.013686 -0.616665 138 0 0 1.000000
-0.200727 -0.106919 0.022448 -0.996004 -0.008551 0.088897 138 0 0 1.000000
0.103841 0.286665 0.144761 0.557755 0.275432 0.782973 138 0 0 1.000000
0.128984 0.429123 0.015260 -0.960164 -0.265895 -0.085939 138 0 0 1.000000
-0.037605 -0.286167 0.205258 0.201640 0.015436 -0.979338 138 0 0 1.000000
0.024809 1.000701 0.015734 0.000000 1.000000 0.000000 165 42 42 1.000000
0.106987 -0.628507 -0.087444 -0.126945 -0.985484 0.112723 138 0 0 1.000000
0.080839 0.609446 0.039081 -0.895849 -0.179845 -0.406337 138 0 0 1.000000
0.187594 -0.636560 -0.052800 0.428850 -0.893330 -0.134348 138 0 0 1.000000
-0.061200 -0.620361 -0.039263 -0.081620 0.995169 -0.054570 138 0 0 1.000000
0.136160 -0.238179 -0.152762 -0.644615 0.013591 0.764387 138 0 0 1.000000
0.089698 -0.333768 -0.182327 -0.418250 0.017259 0.908168 138 0 0 1.000000
0.198159 -0.545913 -0.061855 -0.946520 0.025410 0.321644 138 0 0 1.000000
0.203794 -0.275719 -0.042571 0.973627 -0.015027 -0.227649 138 0 0 1.000000
-0.041389 -0.478563 -0.196120 0.219987 0.022817 0.975236 138 0 0 1.000000
-0.150634 0.307557 0.066472 0.885699 -0.296451 -0.357287 138 0 0 1.000000
0.142518 0.383377 -0.009723 -0.925974 -0.366106 0.092407 138 0 0 1.000000
0.043928 0.886456 -0.047984 -0.609668 -0.000000 0.792657 165 42 42 1.000000
-0.115791 -0.626595 0.045570 0.147471 -0.987749 -0.051023 138 0 0 1.000000
-0.145300 -0.312510 0.145518 0.725674 0.016436 -0.687842 138 0 0 1.000000
0.110191 -0.349581 -0.171602 0.517692 -0.017854 -0.855381 138 0 0 1.000000
-0.149764 -0.573592 0.140428 0.747783 0.026472 -0.663415 138 0 0 1.000000
-0.105905 -0.501667 -0.169394 0.534081 0.023704 0.845101 138 0 0 1.000000
0.024812 -0.491637 0.208535 0.102282 -0.023310 0.994482 138 0 0 1.000000
0.093943 -0.632750 0.137131 -0.110480 -0.980437 -0.162906 138 0 0 1.000000
0.100118 0.128360 -0.175604 0.468703 0.119348 -0.875256 138 0 0 1.000000
-0.029442 -0.618133 0.042725 -0.042812 0.997851 0.049599 138 0 0 1.000000
-0.160057 -0.005556 -0.120076 -0.796760 -0.004652 -0.604278 138 0 0 1.000000
-0.005080 0.207907 0.195541 -0.045366 0.195063 0.979741 138 0 0 1.000000
-0.091957 -0.249703 0.185856 0.466233 0.014031 -0.884551 138 0 0 1.000000
-0.080952 -0.067542 0.191283 0.412600 0.007037 -0.910885 138 0 0 1.000000
-0.122634 0.134245 0.163574 -0.616692 0.122269 0.777651 138 0 0 1.000000
0.074445 0.145902 -0.184838 -0.346743 -0.131709 0.928667 138 0 0 1.000000
-0.079286 0.167872 0.184609 0.413165 -0.154156 -0.897513 138 0 0 1.000000
0.035273 -0.403220 -0.198846 0.153168 -0.019914 -0.988000 138 0 0 1.000000
0.125635 0.296879 0.122356 -0.687687 -0.285633 -0.667458 138 0 0 1.000000
-0.085619 0.236344 -0.158453 -0.469591 0.223936 -0.854012 138 0 0 1.000000
-0.105409 -0.626909 0.071909 -0.134616 0.987377 0.083460 138 0 0 1.000000
-0.028352 -0.120169 0.207099 0.156474 0.009055 -0.987641 138 0 0 1.000000
-0.167695 -0.312048 -0.108645 -0.835263 -0.016430 -0.549604 138 0 0 1.000000
0.192332 -0.513122 -0.077623 -0.917081 0.024123 0.397971 138 0 0 1.000000
-0.029157 1.000701 -0.045468 0.000000 -1.000000 -0.000000 255 255 255 1.000000
0.100695 0.500206 -0.042165 0.877314 0.232037 -0.420093 138 0 0 1.000000
-0.100757 -0.146645 0.181219 0.508510 0.010063 -0.860997 138 0 0 1.000000
0.083581 0.624855 -0.013881 -0.960532 -0.172522 0.218205 138 0 0 1.000000
0.150260 0.284999 0.096280 0.813811 0.273750 0.512613 138 0 0 1.000000
0.066335 0.697250 -0.028259 0.878515 0.138007 -0.457346 138 0 0 1.000000
0.037761 0.551150 -0.085659 0.345272 0.207639 -0.915245 138 0 0 1.000000
-0.045886 -0.534079 -0.195225 0.241671 0.024927 0.970038 138 0 0 1.000000
-0.180864 -0.362106 -0.085483 -0.899383 -0.018353 -0.436775 138 0 0 1.000000
0.022084 0.437870 -0.117837 0.142283 0.261506 -0.954657 138 0 0 1.000000
-0.071966 -0.257847 0.195259 -0.368562 -0.014331 0.929493 138 0 0 1.000000
0.006914 -0.617790 -0.041350 -0.004037 -0.998243 0.059116 138 0 0 1.000000
-0.056453 -0.220359 -0.192139 0.293352 0.012904 0.955917 138 0 0 1.000000
-0.115269 -0.175494 -0.163137 -0.579737 -0.011182 -0.814727 138 0 0 1.000000
0.033960 -0.539258 0.207493 -0.146724 0.025124 -0.988858 138 0 0 1.000000
-0.084592 -0.636550 0.159542 -0.106094 0.976728 0.186406 138 0 0 1.000000
0.045053 -0.088453 0.205287 0.200978 -0.007844 0.979564 138 0 0 1.000000
0.068788 0.801731 0.014172 -0.988417 0.000000 -0.151764 165 42 42 1.000000
0.112251 -0.589150 0.178612 0.527856 -0.027055 0.848903 138 0 0 1.000000
0.060853 0.300447 -0.154365 0.324071 0.289557 -0.900630 138 0 0 1.000000
-0.181720 0.185948 -0.057883 -0.934075 0.172665 -0.312554 138 0 0 1.000000
0.010582 0.402584 -0.128771 -0.047628 -0.274963 0.960274 138 0 0 1.000000
-0.033686 0.337153 -0.147986 0.226480 -0.326795 0.917557 138 0 0 1.000000
-0.119119 0.437799 -0.005294 -0.962144 0.261805 -0.075741 138 0 0 1.000000
-0.015582 -0.633222 0.166179 0.023741 -0.979827 -0.198434 138 0 0 1.000000
-0.169220 -0.245716 0.114749 0.842580 0.013880 -0.538393 138 0 0 1.000000
0.166377 -0.452507 0.130142 -0.790349 0.021784 -0.612269 138 0 0 1.000000
0.102148 -0.548919 -0.176188 0.478554 -0.025504 -0.877688 138 0 0 1.000000
0.189898 -0.363828 -0.082557 0.906215 -0.018415 -0.422417 138 0 0 1.000000
-0.201329 -0.613229 0.013263 0.998633 0.027988 -0.044154 138 0 0 1.000000
0.168879 0.209643 -0.092860 -0.845215 -0.196556 0.496968 138 0 0 1.000000
-0.028341 0.641523 0.076350 -0.400237 0.164499 0.901527 138 0 0 1.000000
0.174145 0.228360 -0.073662 0.888009 0.215904 -0.405987 138 0 0 1.000000
0.074347 0.660551 0.032416 -0.917064 -0.155334 -0.367239 138 0 0 1.000000
-0.064262 0.705355 -0.008883 0.973108 -0.134377 0.187092 138 0 0 1.000000
0.054567 0.654195 -0.053530 0.651290 0.158584 -0.742073 138 0 0 1.000000
0.005779 0.717936 0.071897 -0.029921 -0.131300 -0.990891 138 0 0 1.000000
-0.165373 0.113186 0.120505 -0.824023 -0.000101 0.566556 138 0 0 1.000000
0.112290 0.467829 0.043566 -0.910328 -0.247442 -0.331775 138 0 0 1.000000
-0.169449 0.025110 -0.106020 -0.843728 -0.003482 -0.536759 138 0 0 1.000000
-0.200949 -0.534109 -0.010667 -0.997066 -0.024956 -0.072369 138 0 0 1.000000
0.155359 -0.384532 0.142706 -0.738031 0.019210 -0.674493 138 0 0 1.000000
0.159562 -0.127510 0.137912 0.758725 -0.009343 0.651344 138 0 0 1.000000
0.203110 -0.404940 -0.046010 -0.969520 0.019972 0.244195 138 0 0 1.000000
-0.034511 0.238735 0.185048 0.201331 -0.226579 -0.952957 138 0 0 1.000000
-0.144451 -0.630631 0.026240 -0.181977 0.982930 0.027059 138 0 0 1.000000
0.188447 -0.521348 0.093886 0.899227 -0.024467 0.436797 138 0 0 1.000000
-0.041202 0.619760 0.073527 -0.535803 0.174996 0.826010 138 0 0 1.000000
-0.039699 0.412298 -0.118669 -0.321982 0.272650 -0.906636 138 0 0 1.000000
-0.195337 -0.471723 -0.046921 -0.968355 -0.022528 -0.248559 138 0 0 1.000000
0.208205 -0.289224 -0.015796 -0.995133 0.015546 0.097308 138 0 0 1.000000
