ply
format ascii 1.0
element vertex 1262
property float x
property float y
property float z
property uchar red
property uchar green
property uchar blue
end_header
0.689047 0.393562 0.288630 76 0 153
-0.340229 0.544865 -0.381710 76 0 153
0.164360 -0.441230 -0.036462 204 51 127
-0.406931 0.099244 0.432292 204 51 127
0.603952 -0.137847 -0.545423 76 0 153
-0.057086 -0.441230 -0.275726 204 51 127
0.689047 0.465373 0.334300 76 0 153
0.075738 0.213096 0.432292 204 51 127
0.148113 -0.441230 -0.010377 204 51 127
0.020500 -0.440426 0.479781 76 0 153
-0.356475 0.437878 0.479781 153 0 76
0.242462 -0.441230 -0.200096 204 51 127
-0.682181 -0.480339 -0.008022 76 0 153
-0.011459 0.544865 -0.145319 76 0 153
0.606263 -0.269971 0.527270 76 0 153
0.689047 0.330547 -0.407364 76 0 153
-0.732829 0.051222 -0.106715 76 0 153
0.689047 0.391870 0.131094 76 0 153
0.106441 -0.352481 -0.545423 76 0 153
0.112800 0.543762 0.479781 76 0 153
0.312141 -0.480339 0.227311 76 0 153
0.138243 -0.462203 -0.034345 76 0 153
0.689047 -0.084790 0.390124 76 0 153
-0.278732 0.544865 0.418291 76 0 153
0.689047 -0.390902 -0.393985 76 0 153
-0.225051 -0.340063 -0.545423 76 0 153
-0.467256 -0.480339 0.023295 76 0 153
0.063716 -0.441230 0.410499 204 51 127
-0.517725 -0.329248 -0.545423 76 0 153
-0.389471 -0.441230 -0.127380 204 51 127
0.079395 -0.480339 -0.457232 76 0 153
0.517082 -0.480339 -0.377573 76 0 153
-0.382116 -0.480339 0.339516 76 0 153
-0.637304 0.544865 0.463043 76 0 153
-0.180604 -0.441230 0.064124 204 51 127
0.613441 -0.073240 0.527270 76 0 153
-0.584976 -0.065391 0.460427 153 0 76
-0.094221 0.245650 0.432292 204 51 127
0.318951 0.155480 0.432292 204 51 127
0.095633 0.544865 0.222695 76 0 153
0.337538 -0.441230 0.202281 204 51 127
0.689047 -0.338996 0.473353 76 0 153
-0.567315 -0.480339 -0.352100 76 0 153
-0.445596 0.513930 -0.545423 76 0 153
0.415795 -0.480339 0.067223 76 0 153
-0.198301 -0.480339 -0.224752 76 0 153
-0.732829 -0.006908 -0.314695 76 0 153
-0.143917 -0.441230 0.342269 204 51 127
-0.732829 -0.071022 -0.183178 76 0 153
-0.488576 0.051632 -0.545423 76 0 153
-0.495858 0.544865 -0.166462 76 0 153
-0.109567 0.544865 -0.140194 76 0 153
0.045636 -0.480339 0.209426 76 0 153
-0.142069 -0.480339 0.460822 76 0 153
-0.105748 -0.043738 0.432292 204 51 127
-0.426963 0.121395 0.432292 204 51 127
-0.732829 0.222453 0.444529 76 0 153
-0.447182 0.544865 0.197056 76 0 153
-0.020034 -0.480339 -0.322361 76 0 153
0.483483 -0.480339 0.305354 76 0 153
-0.732829 -0.042038 -0.152120 76 0 153
0.266752 -0.480339 0.376087 76 0 153
-0.732829 -0.174504 0.327887 76 0 153
0.670057 -0.480339 -0.445511 76 0 153
0.595738 -0.115939 -0.545423 76 0 153
0.122088 -0.441230 0.247896 204 51 127
-0.368068 0.312534 0.432292 204 51 127
0.415314 -0.480339 0.044282 76 0 153
0.689047 0.493614 0.369288 76 0 153
0.005514 0.544865 0.103815 76 0 153
-0.176412 -0.441230 -0.194705 204 51 127
-0.655394 -0.480339 0.021177 76 0 153
-0.277181 -0.480339 -0.261697 76 0 153
-0.505244 -0.480339 0.438414 76 0 153
0.528738 0.027411 -0.545423 76 0 153
0.689047 -0.284276 -0.249372 76 0 153
-0.732829 -0.269481 -0.005094 76 0 153
0.689047 -0.068963 0.320965 76 0 153
-0.091922 0.544865 0.345008 76 0 153
0.174230 -0.162903 0.432292 204 51 127
0.571520 -0.480339 -0.330546 76 0 153
-0.220413 -0.480339 0.053241 76 0 153
0.689047 0.494341 -0.172618 76 0 153
0.073014 -0.450887 -0.545423 76 0 153
-0.190118 -0.441230 -0.304107 204 51 127
-0.095125 0.513153 0.479781 76 0 153
-0.633623 0.077608 0.479781 153 0 76
-0.732829 0.304291 0.143745 76 0 153
0.034063 -0.480339 -0.249049 76 0 153
-0.113986 -0.149784 0.432292 204 51 127
-0.710734 0.125314 0.479781 76 0 153
0.605896 -0.113143 0.527270 76 0 153
-0.607804 0.015088 -0.545423 76 0 153
0.372480 -0.154575 0.432292 204 51 127
0.177913 0.539280 -0.545423 76 0 153
-0.615901 -0.134590 0.479781 153 0 76
0.326612 -0.480339 -0.217138 76 0 153
0.149995 -0.382855 0.479781 76 0 153
-0.165745 -0.441230 0.289132 204 51 127
0.650158 -0.405479 -0.545423 76 0 153
0.195005 0.154515 -0.545423 76 0 153
-0.732829 0.121783 -0.528429 76 0 153
0.515992 0.544865 0.383650 76 0 153
0.018005 0.023307 0.432292 204 51 127
-0.732829 0.159209 0.051458 76 0 153
-0.158619 0.544865 -0.261528 76 0 153
0.230317 0.388525 0.472067 153 0 76
-0.577708 -0.262667 0.479781 153 0 76
-0.394682 0.544865 -0.172246 76 0 153
0.539365 -0.147882 -0.545423 76 0 153
0.689047 0.337072 0.464092 76 0 153
0.186593 0.544865 -0.290862 76 0 153
-0.707440 -0.417871 0.479781 76 0 153
0.584224 0.393439 0.504922 76 0 153
-0.321568 0.388525 0.476948 153 0 76
-0.732829 -0.115321 0.082368 76 0 153
-0.142814 -0.441230 -0.386843 204 51 127
0.331905 -0.441230 -0.104467 204 51 127
-0.353025 -0.480339 -0.415649 76 0 153
0.240696 -0.480339 -0.364553 76 0 153
-0.683701 0.277189 -0.545423 76 0 153
-0.732829 -0.334184 0.040637 76 0 153
-0.382697 -0.441230 -0.070919 204 51 127
0.505533 -0.293864 0.479781 76 0 153
-0.732829 -0.023303 -0.187825 76 0 153
-0.699527 0.064198 0.479781 76 0 153
0.689047 0.111523 -0.533560 76 0 153
0.289317 -0.441230 0.013745 204 51 127
0.563110 0.544865 -0.337438 76 0 153
-0.382975 -0.441230 0.036955 204 51 127
0.294035 -0.441230 -0.102155 204 51 127
-0.374380 -0.480339 0.070130 76 0 153
-0.138470 -0.441230 -0.083751 204 51 127
-0.732829 0.423861 0.189872 76 0 153
0.011831 0.383767 0.432292 204 51 127
-0.024724 -0.441230 0.408098 204 51 127
-0.572841 0.196173 -0.545423 76 0 153
0.689047 0.359070 0.024341 76 0 153
0.689047 -0.476524 0.196605 76 0 153
0.689047 0.433499 -0.430898 76 0 153
-0.235947 -0.480339 0.016094 76 0 153
0.663749 0.178141 0.501629 76 0 153
0.116223 -0.417876 -0.545423 76 0 153
0.382680 0.175062 0.432292 204 51 127
-0.732829 0.015159 0.064868 76 0 153
0.108868 -0.186110 0.432292 204 51 127
0.689047 -0.083972 -0.052652 76 0 153
0.219395 -0.425224 -0.545423 76 0 153
-0.108906 0.544865 0.360325 76 0 153
-0.732829 0.177817 0.300668 76 0 153
0.689047 -0.052090 -0.240716 76 0 153
-0.732829 0.109077 0.242217 76 0 153
-0.510805 -0.312940 0.479781 153 0 76
0.187560 0.051242 0.432292 204 51 127
0.689047 -0.426989 -0.064798 76 0 153
0.334164 0.311488 0.432292 204 51 127
0.689047 -0.126403 0.284311 76 0 153
-0.352221 -0.441230 -0.260434 204 51 127
-0.471591 0.502233 0.479781 76 0 153
-0.732829 0.352011 -0.237054 76 0 153
0.601873 -0.318046 0.479781 76 0 153
0.445031 -0.480339 0.367351 76 0 153
-0.732829 0.136296 -0.279567 76 0 153
0.226465 0.045397 0.432292 204 51 127
-0.204109 -0.026803 -0.545423 76 0 153
0.689047 -0.089597 0.279208 76 0 153
-0.017738 -0.480339 -0.215181 76 0 153
-0.732829 0.387458 0.419397 76 0 153
0.599561 -0.026435 -0.545423 76 0 153
-0.311714 -0.480339 -0.369356 76 0 153
-0.324079 -0.480339 -0.505165 76 0 153
-0.732829 -0.409620 0.402964 76 0 153
0.371269 -0.480339 0.399179 76 0 153
0.689047 -0.102361 0.085448 76 0 153
0.689047 0.008779 -0.485034 76 0 153
-0.732829 -0.104712 -0.075534 76 0 153
-0.252384 0.544865 -0.284397 76 0 153
-0.131414 -0.441230 -0.298997 204 51 127
-0.611343 0.544865 0.396127 76 0 153
-0.255069 -0.277249 0.479781 153 0 76
0.483564 -0.229156 -0.545423 76 0 153
0.689047 -0.147906 -0.275411 76 0 153
0.282502 -0.480339 -0.493541 76 0 153
-0.592575 0.256258 -0.545423 76 0 153
0.570073 -0.128202 -0.545423 76 0 153
-0.723609 -0.480339 -0.220983 76 0 153
-0.276632 0.327494 0.432292 204 51 127
-0.732829 -0.104782 -0.334236 76 0 153
-0.313069 -0.480339 -0.307268 76 0 153
-0.306803 -0.480339 -0.539864 76 0 153
0.061039 0.544865 -0.394644 76 0 153
-0.732829 -0.083008 0.296523 76 0 153
-0.732829 -0.071501 0.063330 76 0 153
0.367976 -0.480339 0.061123 76 0 153
0.689047 -0.429680 -0.468971 76 0 153
-0.183966 0.544865 0.069803 76 0 153
-0.612845 -0.012497 -0.545423 76 0 153
0.689047 -0.326993 0.111494 76 0 153
-0.536680 -0.259560 0.440370 153 0 76
-0.732829 0.149230 0.469461 76 0 153
-0.342987 0.201575 -0.545423 76 0 153
-0.608494 -0.359208 0.479781 76 0 153
0.603467 -0.480339 0.050051 76 0 153
0.391320 -0.248076 -0.545423 76 0 153
0.500357 -0.476045 0.479781 76 0 153
-0.732829 -0.248364 -0.126626 76 0 153
0.345849 -0.301096 -0.545423 76 0 153
-0.429319 -0.431978 -0.545423 76 0 153
-0.288116 -0.441230 -0.285981 204 51 127
-0.453668 -0.091936 -0.545423 76 0 153
-0.406724 -0.117660 0.432292 204 51 127
0.055275 -0.441230 -0.096087 76 0 153
-0.732829 0.427006 -0.450101 76 0 153
-0.732829 0.385949 -0.461832 76 0 153
0.633245 -0.485375 -0.478063 0 127 127
0.175125 -0.441230 0.094927 204 51 127
-0.129646 -0.480339 0.324596 76 0 153
-0.101907 -0.480339 0.412802 76 0 153
-0.026501 0.544865 0.131808 76 0 153
-0.732829 -0.126843 -0.514240 76 0 153
0.307737 -0.362724 0.479781 76 0 153
0.689047 -0.344807 -0.149787 76 0 153
0.539448 0.544865 -0.193198 76 0 153
-0.732829 -0.098700 0.189096 76 0 153
-0.079711 -0.441230 -0.309348 204 51 127
0.497084 -0.329628 0.479781 76 0 153
0.375484 -0.480339 -0.168467 76 0 153
0.543223 0.245280 -0.545423 76 0 153
0.689047 -0.326297 -0.237077 76 0 153
-0.048728 -0.480339 -0.403105 76 0 153
0.689047 0.060668 -0.272406 76 0 153
0.461748 -0.480339 -0.005924 76 0 153
-0.009801 -0.441230 0.368109 204 51 127
-0.732829 -0.245449 -0.407815 76 0 153
-0.301695 -0.087482 0.432292 204 51 127
-0.201001 -0.480339 0.184508 76 0 153
-0.732829 -0.017953 -0.147581 76 0 153
0.689047 0.125101 -0.287219 76 0 153
0.689047 -0.231808 0.445699 76 0 153
-0.716143 0.433518 0.479781 76 0 153
-0.732829 0.523603 -0.157753 76 0 153
0.689047 -0.305275 0.476958 76 0 153
0.689047 0.142243 0.116687 76 0 153
0.176368 -0.405594 -0.545423 76 0 153
-0.732829 0.065528 0.037019 76 0 153
0.026138 -0.480339 -0.327316 76 0 153
0.104612 -0.441230 0.257809 204 51 127
0.265999 -0.480339 -0.327692 76 0 153
-0.568704 -0.480339 -0.387205 76 0 153
0.689047 0.371537 -0.145742 76 0 153
-0.089278 0.205311 0.432292 204 51 127
-0.732829 0.247993 0.293649 76 0 153
0.357867 -0.480339 -0.089249 76 0 153
0.689047 -0.155472 -0.028698 76 0 153
0.229607 -0.480339 0.457497 76 0 153
-0.213121 -0.055380 0.432292 204 51 127
-0.364229 0.115965 -0.545423 76 0 153
0.689047 0.483264 -0.438064 76 0 153
0.689047 -0.098414 0.014254 76 0 153
0.689047 -0.282014 -0.015669 76 0 153
-0.016165 0.411048 0.479781 153 0 76
-0.732829 0.544659 0.300893 76 0 153
0.238369 -0.182568 -0.545423 76 0 153
0.689047 -0.024521 -0.401866 76 0 153
0.503504 0.544865 -0.147799 76 0 153
0.658791 -0.044552 0.527270 76 0 153
0.423937 -0.102158 0.479781 153 0 76
0.134658 -0.104117 -0.545423 76 0 153
0.689047 0.178852 -0.032900 76 0 153
-0.069334 0.544865 0.362797 76 0 153
0.431604 -0.441230 0.014389 204 51 127
0.491727 -0.480339 0.358216 76 0 153
0.062237 0.544865 0.364531 76 0 153
0.177712 -0.441230 -0.209585 204 51 127
-0.308171 0.544865 0.446106 76 0 153
-0.676892 0.249697 0.479781 76 0 153
-0.732829 0.204212 -0.456692 76 0 153
0.109261 0.318343 -0.545423 76 0 153
0.596772 0.544865 0.286649 76 0 153
-0.061324 0.544865 -0.120470 76 0 153
0.501729 0.309953 0.511423 76 0 153
0.026985 -0.480339 -0.523438 76 0 153
0.513476 -0.480339 -0.324171 76 0 153
0.373973 -0.321835 -0.545423 76 0 153
0.152922 0.343323 0.432292 204 51 127
0.689047 -0.377637 -0.187840 76 0 153
-0.214952 0.475778 0.479781 76 0 153
-0.732829 -0.045759 -0.004146 76 0 153
-0.732829 -0.061877 0.293559 76 0 153
0.689047 -0.434301 -0.391051 76 0 153
0.217459 -0.441230 -0.266515 204 51 127
-0.353208 -0.480339 -0.534889 76 0 153
0.486798 0.337066 0.479781 76 0 153
-0.168807 0.319204 0.432292 204 51 127
-0.127456 -0.432555 0.479781 76 0 153
-0.459115 -0.480339 0.223357 76 0 153
0.537498 -0.480339 -0.458266 76 0 153
0.333124 -0.480339 0.139667 76 0 153
-0.526652 0.544865 0.205873 76 0 153
-0.732829 -0.044460 0.321412 76 0 153
-0.633552 -0.048421 -0.545423 76 0 153
0.689047 -0.128581 -0.338803 76 0 153
0.031204 -0.480339 0.172974 76 0 153
0.258794 -0.441230 0.047794 204 51 127
-0.206430 0.544865 0.147729 76 0 153
0.089293 0.544865 -0.298344 76 0 153
0.340071 -0.480339 0.404657 76 0 153
-0.584976 -0.204191 0.440182 153 0 76
-0.732829 -0.068820 -0.510832 76 0 153
0.433575 -0.441230 -0.127784 204 51 127
0.632642 -0.378731 0.479781 76 0 153
0.411359 -0.480339 0.383693 76 0 153
0.127938 -0.441230 0.405495 204 51 127
0.603631 -0.480339 -0.082973 76 0 153
0.689047 -0.444459 0.372165 76 0 153
0.689047 0.152947 -0.313953 76 0 153
0.347267 -0.480339 -0.251565 76 0 153
0.689047 0.467105 0.129140 76 0 153
-0.289235 -0.423067 0.479781 76 0 153
0.591286 -0.480339 -0.278566 76 0 153
0.490470 -0.480339 0.196458 76 0 153
0.689047 0.483621 0.116188 76 0 153
-0.213100 -0.441230 -0.339278 204 51 127
0.006160 -0.441230 -0.138220 76 0 153
-0.068219 0.303396 0.432292 204 51 127
0.689047 -0.321181 -0.097917 76 0 153
0.227367 -0.016806 -0.545423 76 0 153
0.663749 0.219554 0.494931 76 0 153
0.006760 -0.441230 -0.409595 204 51 127
-0.732829 -0.183218 0.457888 76 0 153
0.067000 -0.441230 0.305225 204 51 127
0.576946 0.206415 0.531177 0 255 0
0.302731 -0.480339 -0.122656 76 0 153
-0.348519 0.544865 -0.179738 76 0 153
-0.298443 -0.109125 -0.545423 76 0 153
0.689047 -0.350874 -0.208145 76 0 153
-0.153097 0.544865 0.271035 76 0 153
-0.331560 -0.441230 0.033896 204 51 127
0.548539 -0.020887 -0.545423 76 0 153
-0.017364 -0.193668 0.432292 204 51 127
-0.316093 -0.441230 0.012691 204 51 127
-0.139928 -0.386079 -0.545423 76 0 153
-0.569325 -0.480339 0.279528 76 0 153
0.274793 -0.480339 -0.448119 76 0 153
-0.190787 -0.351192 0.479781 153 0 76
-0.366193 0.544865 -0.076961 76 0 153
-0.732829 0.255432 0.093618 76 0 153
-0.188479 0.544865 0.250370 76 0 153
0.603122 0.544865 -0.531611 76 0 153
0.107298 -0.441230 0.333177 204 51 127
0.689047 0.527079 -0.460321 76 0 153
0.173128 0.544865 -0.502229 76 0 153
-0.341150 -0.480339 0.036323 76 0 153
0.288156 -0.480339 0.293000 76 0 153
-0.726601 -0.461431 -0.545423 76 0 153
-0.482481 0.454426 0.479781 76 0 153
0.042531 -0.318334 0.479781 153 0 76
-0.111198 0.496731 0.479781 76 0 153
0.106467 -0.026770 -0.545423 76 0 153
0.689047 0.298832 -0.226076 76 0 153
-0.524087 -0.412525 0.479781 76 0 153
0.663749 0.054408 0.499016 76 0 153
0.689047 -0.303027 -0.015294 76 0 153
0.689047 0.257588 0.149007 76 0 153
0.463750 -0.441230 -0.077856 204 51 127
-0.470228 -0.253365 0.432292 204 51 127
-0.051059 0.292141 -0.545423 76 0 153
0.259476 0.039889 -0.545423 76 0 153
0.167368 -0.235757 0.432292 204 51 127
-0.732829 -0.473615 -0.475010 76 0 153
0.412149 -0.480339 -0.212901 76 0 153
0.393544 -0.113114 0.432292 204 51 127
-0.381166 0.049302 0.432292 204 51 127
0.689047 0.215140 -0.525146 76 0 153
0.437730 -0.352792 -0.545423 76 0 153
-0.391762 0.328705 0.432292 204 51 127
0.689047 -0.188054 -0.062043 76 0 153
-0.645766 0.009139 0.479781 76 0 153
0.689047 0.202767 -0.111426 76 0 153
0.333540 -0.286646 0.479781 153 0 76
-0.732829 -0.449708 -0.176960 76 0 153
-0.732829 -0.043762 0.100140 76 0 153
-0.732829 -0.371427 0.025055 76 0 153
0.681148 -0.104304 -0.545423 76 0 153
-0.638085 0.041664 -0.545423 76 0 153
0.689047 0.321943 -0.301490 76 0 153
0.689047 0.175678 -0.184857 76 0 153
-0.110859 0.386600 0.432292 204 51 127
0.689047 -0.152825 -0.518800 76 0 153
0.689047 -0.282469 -0.476075 76 0 153
-0.182346 0.544865 -0.445106 76 0 153
0.420673 0.340745 0.467840 153 0 76
-0.186483 -0.441230 -0.231222 204 51 127
0.689047 0.227832 0.090938 76 0 153
-0.522806 -0.201460 0.432292 204 51 127
-0.280934 0.151039 0.432292 204 51 127
0.015016 -0.099004 0.432292 204 51 127
0.689047 0.324500 0.076051 76 0 153
0.689047 -0.188133 -0.467680 76 0 153
-0.337819 0.544865 0.268875 76 0 153
-0.732829 0.337156 0.166841 76 0 153
-0.008773 -0.480339 -0.497128 76 0 153
0.614062 -0.480339 -0.274512 76 0 153
-0.296980 -0.441230 0.127860 204 51 127
0.398496 0.519041 0.479781 76 0 153
0.478032 -0.480339 -0.309155 76 0 153
-0.732829 0.002883 0.038837 76 0 153
0.102634 0.072045 -0.545423 76 0 153
-0.265313 0.544865 -0.078338 76 0 153
-0.079759 -0.441230 0.089634 204 51 127
-0.732829 0.236820 -0.489669 76 0 153
-0.602307 -0.416199 -0.545423 76 0 153
-0.732829 0.416577 0.093560 76 0 153
-0.275755 -0.480339 -0.201286 76 0 153
-0.638099 0.544865 0.418750 76 0 153
0.689047 0.235346 -0.293423 76 0 153
0.063619 -0.441230 0.106503 204 51 127
-0.098678 -0.441230 -0.390977 204 51 127
-0.000909 0.544865 -0.489950 76 0 153
0.689047 0.011811 0.138859 76 0 153
0.689047 -0.146846 -0.191335 76 0 153
-0.264879 -0.480339 -0.456130 76 0 153
-0.682653 0.291761 0.479781 76 0 153
-0.732829 0.023849 -0.435655 76 0 153
0.650130 0.485965 0.525466 76 0 153
0.290531 -0.449606 0.479781 76 0 153
0.611229 0.544865 -0.011182 76 0 153
-0.622313 0.544865 0.358551 76 0 153
-0.732829 0.199002 -0.503855 76 0 153
0.420673 0.151798 0.442127 153 0 76
0.385205 -0.441230 0.156019 204 51 127
-0.386304 -0.480339 0.202056 76 0 153
0.064275 0.505001 0.479781 76 0 153
-0.219715 -0.428194 0.479781 76 0 153
-0.537718 0.303625 -0.545423 76 0 153
-0.635291 0.040479 0.479781 153 0 76
-0.152880 -0.480339 -0.103822 76 0 153
-0.423538 0.166289 0.432292 204 51 127
0.283322 0.061032 0.432292 204 51 127
-0.581595 0.544865 -0.098138 76 0 153
0.689047 0.383562 -0.164957 76 0 153
0.689047 -0.026628 -0.357995 76 0 153
-0.643907 -0.341813 0.479781 76 0 153
0.689047 0.345523 0.274288 76 0 153
-0.589713 -0.480339 0.320159 76 0 153
-0.475032 -0.400515 0.479781 76 0 153
0.112514 -0.336978 0.479781 153 0 76
0.395031 -0.197208 -0.545423 76 0 153
0.689047 0.293324 -0.335534 76 0 153
-0.176324 -0.116575 0.432292 204 51 127
-0.018125 -0.480339 -0.359264 76 0 153
0.689047 -0.029896 -0.130851 76 0 153
-0.448386 -0.480339 0.096519 76 0 153
-0.358029 -0.480339 -0.174922 76 0 153
0.409756 -0.180203 0.432292 204 51 127
0.689047 0.282938 0.369345 76 0 153
0.354808 -0.480339 0.341582 76 0 153
-0.732829 -0.308993 0.461084 76 0 153
-0.596129 -0.480339 -0.046786 76 0 153
-0.406796 -0.480339 0.182533 76 0 153
-0.546278 -0.480339 -0.329895 76 0 153
-0.732501 -0.480339 -0.086089 76 0 153
-0.211611 -0.441230 0.274349 204 51 127
0.689047 -0.405784 0.306352 76 0 153
0.689047 0.462651 0.219818 76 0 153
-0.207014 -0.480339 -0.425010 76 0 153
-0.732829 -0.399327 -0.209215 76 0 153
-0.002029 -0.308517 -0.545423 76 0 153
0.689047 0.507280 -0.321362 76 0 153
0.179437 0.544865 0.014671 76 0 153
0.689047 0.286686 -0.079793 76 0 153
-0.732829 0.056474 -0.029935 76 0 153
0.689047 0.055051 0.131552 76 0 153
0.215224 -0.441230 0.338601 204 51 127
0.689047 0.521746 0.475147 76 0 153
-0.119130 -0.480339 -0.182227 76 0 153
-0.504579 0.230046 0.432292 204 51 127
0.454540 -0.480339 0.296123 76 0 153
0.562562 0.544865 -0.544964 76 0 153
-0.732829 -0.398829 0.463989 76 0 153
-0.640058 0.405252 0.479781 153 0 76
0.689047 0.048129 0.251101 76 0 153
0.689047 0.480660 0.451770 76 0 153
-0.015325 0.493358 -0.545423 76 0 153
0.588462 -0.198218 -0.545423 76 0 153
0.689047 0.423490 0.446550 76 0 153
0.159736 -0.480339 0.433347 76 0 153
-0.471270 -0.326864 -0.545423 76 0 153
-0.413629 -0.480339 -0.378188 76 0 153
0.654411 0.071207 -0.545423 76 0 153
-0.732829 0.016896 0.021330 76 0 153
0.689047 0.302625 0.110868 76 0 153
0.689047 0.131636 -0.096330 76 0 153
-0.208074 -0.441230 -0.318024 204 51 127
0.296673 -0.480339 -0.475946 76 0 153
-0.732829 -0.279415 0.153317 76 0 153
0.064360 -0.328342 -0.545423 76 0 153
-0.404279 -0.480339 -0.262288 76 0 153
-0.732829 0.129801 0.173952 76 0 153
-0.732829 0.039599 0.164471 76 0 153
-0.221083 -0.259560 0.451935 153 0 76
0.689047 0.278706 -0.227926 76 0 153
0.637520 -0.290096 -0.545423 76 0 153
0.674346 -0.480339 0.285498 76 0 153
-0.517254 -0.480339 0.224682 76 0 153
-0.732829 -0.057031 -0.421398 76 0 153
-0.667862 0.334054 0.479781 76 0 153
0.300398 0.544865 -0.450044 76 0 153
-0.431910 -0.264860 0.479781 153 0 76
0.364126 -0.441230 -0.316597 204 51 127
-0.055279 -0.441230 0.294524 204 51 127
0.259595 -0.480339 0.198377 76 0 153
-0.135371 -0.441230 -0.006228 204 51 127
-0.563297 -0.149391 -0.545423 76 0 153
0.689047 0.225815 -0.444012 76 0 153
-0.449648 0.201883 0.432292 204 51 127
-0.444834 -0.480339 -0.437832 76 0 153
0.619223 0.319856 0.531367 153 0 76
-0.732829 0.135885 0.029577 76 0 153
0.209287 0.509387 0.479781 76 0 153
-0.694962 -0.025396 0.479781 76 0 153
0.689047 0.234155 0.059036 76 0 153
0.246622 -0.441230 -0.392529 204 51 127
-0.510019 0.170648 0.432292 204 51 127
0.689047 -0.157258 -0.418883 76 0 153
0.689047 0.478234 -0.281358 76 0 153
-0.331357 -0.001834 0.432292 204 51 127
-0.508654 0.276194 -0.545423 76 0 153
0.544251 0.434373 -0.545423 76 0 153
0.028605 -0.480339 -0.397311 76 0 153
-0.584976 -0.167417 0.451732 153 0 76
0.213528 -0.480339 -0.385535 76 0 153
-0.732829 -0.299376 0.257785 76 0 153
-0.732829 -0.344751 -0.088330 76 0 153
-0.732829 0.428224 0.064819 76 0 153
0.251922 -0.441230 0.185785 204 51 127
-0.732829 -0.058673 -0.453374 76 0 153
0.342208 0.544865 -0.247102 76 0 153
0.689047 0.076477 0.221155 76 0 153
-0.732829 -0.394486 0.309885 76 0 153
-0.732829 0.443779 0.040843 76 0 153
0.002960 -0.379820 -0.545423 76 0 153
-0.494355 0.544865 -0.321954 76 0 153
0.159918 0.544865 -0.461083 76 0 153
0.689047 -0.007633 -0.216958 76 0 153
-0.686040 0.544865 0.150299 76 0 153
-0.732829 -0.332618 -0.043987 76 0 153
-0.732829 0.214711 -0.427550 76 0 153
0.333235 0.529928 -0.545423 76 0 153
0.663748 0.544865 -0.004214 76 0 153
0.578983 0.544865 -0.028402 76 0 153
0.342443 0.544865 0.320919 76 0 153
-0.532387 -0.480339 -0.066153 76 0 153
-0.732829 0.351610 0.097422 76 0 153
-0.732829 0.430409 -0.004940 76 0 153
0.689047 -0.226100 0.375630 76 0 153
-0.292336 -0.361887 0.479781 76 0 153
-0.025748 0.467173 0.479781 76 0 153
-0.487425 0.544865 -0.012451 76 0 153
0.159309 0.511464 -0.545423 76 0 153
-0.599727 0.543123 0.479781 76 0 153
0.689047 -0.257003 0.146544 76 0 153
0.689047 -0.457677 0.023972 76 0 153
-0.305198 0.544865 -0.311095 76 0 153
-0.302077 -0.154605 0.432292 204 51 127
-0.645136 0.544865 -0.018684 76 0 153
-0.033433 0.200334 0.432292 204 51 127
0.054295 -0.441230 0.160349 204 51 127
0.554791 0.273908 -0.545423 76 0 153
0.689047 -0.468001 -0.466485 76 0 153
0.428453 0.232078 0.479781 153 0 76
-0.633236 -0.196102 -0.545423 76 0 153
-0.649831 -0.480339 0.476780 76 0 153
-0.732829 -0.280557 -0.380605 76 0 153
0.435118 0.544865 0.110635 76 0 153
-0.570329 0.544865 0.380478 76 0 153
0.214634 0.180314 0.432292 204 51 127
0.689047 -0.222967 -0.027822 76 0 153
-0.732829 0.441032 -0.259781 76 0 153
-0.122273 -0.441230 0.224797 204 51 127
-0.441796 0.224768 -0.545423 76 0 153
0.239683 -0.418309 0.479781 76 0 153
0.010512 0.071998 -0.545423 76 0 153
-0.504678 -0.098267 0.432292 204 51 127
-0.732829 -0.354461 -0.477024 76 0 153
0.689047 -0.397778 -0.335359 76 0 153
-0.114066 -0.480339 -0.460024 76 0 153
-0.070151 -0.337801 -0.545423 76 0 153
0.082537 0.544865 0.436771 76 0 153
0.689047 0.306263 0.392722 76 0 153
-0.081466 -0.175450 0.432292 204 51 127
-0.108778 0.544865 -0.090545 76 0 153
0.525623 -0.480339 -0.351990 76 0 153
0.624413 0.218192 -0.545423 76 0 153
-0.170757 0.544865 -0.416939 76 0 153
-0.316819 -0.480339 -0.249076 76 0 153
0.627981 -0.480339 0.156206 76 0 153
0.689047 -0.225233 0.402201 76 0 153
-0.732829 0.183481 0.363342 76 0 153
-0.323283 -0.441230 0.255869 204 51 127
0.073791 0.098694 -0.545423 76 0 153
0.272489 -0.480339 0.066504 76 0 153
0.689047 0.052349 0.407795 76 0 153
-0.732829 0.348546 -0.359114 76 0 153
-0.135406 -0.480339 0.344710 76 0 153
0.351260 0.032712 -0.545423 76 0 153
0.689047 0.339680 -0.169246 76 0 153
-0.732829 0.215807 0.310637 76 0 153
-0.180575 -0.185981 0.432292 204 51 127
0.676838 -0.267886 -0.545423 76 0 153
0.689047 0.420819 0.145510 76 0 153
-0.449374 0.001898 0.432292 204 51 127
0.689047 -0.072370 0.044342 76 0 153
-0.732829 0.038844 -0.477013 76 0 153
-0.010018 -0.264993 0.479781 153 0 76
0.689047 -0.310178 0.092213 76 0 153
-0.732829 -0.473542 0.243359 76 0 153
0.231037 0.439988 -0.545423 76 0 153
0.234872 0.476432 0.479781 76 0 153
0.429869 -0.441230 -0.093544 204 51 127
0.689047 0.196314 -0.004408 76 0 153
0.357877 0.544865 -0.167020 76 0 153
0.168449 -0.111326 0.432292 204 51 127
-0.620396 0.374777 0.479781 153 0 76
0.327323 -0.441230 0.245045 204 51 127
-0.462070 0.544865 -0.315818 76 0 153
0.235658 -0.441230 -0.094669 204 51 127
0.511822 0.357747 -0.545423 76 0 153
0.501729 0.097917 0.507831 76 0 153
0.689047 -0.079246 -0.482511 76 0 153
0.689047 0.217094 0.261959 76 0 153
0.096893 -0.441230 0.140320 204 51 127
-0.053698 -0.480339 -0.201426 76 0 153
-0.278427 0.544865 -0.001300 76 0 153
-0.559986 0.544865 0.106285 76 0 153
0.636489 -0.144743 -0.545423 76 0 153
-0.732829 -0.269697 0.055805 76 0 153
0.058552 -0.117637 0.432292 204 51 127
0.461994 -0.480339 0.432251 76 0 153
-0.020288 0.544865 0.168919 76 0 153
-0.526125 -0.221272 0.432292 204 51 127
-0.055582 0.369336 0.432292 204 51 127
-0.732829 -0.093219 -0.439781 76 0 153
0.670096 -0.051288 -0.545423 76 0 153
-0.592671 0.544865 -0.496633 76 0 153
-0.266245 -0.441230 -0.067484 204 51 127
-0.732829 0.146499 0.322996 76 0 153
-0.732829 -0.468502 -0.347220 76 0 153
-0.732829 -0.036742 0.478662 76 0 153
-0.095864 -0.441230 -0.245328 204 51 127
-0.707238 0.180092 0.479781 76 0 153
0.543240 0.544865 -0.494984 76 0 153
0.689047 0.240154 0.323190 76 0 153
-0.732829 -0.325787 -0.370632 76 0 153
-0.237423 -0.480339 0.322171 76 0 153
-0.192602 -0.164961 -0.545423 76 0 153
-0.728679 -0.480339 -0.267887 76 0 153
0.689047 0.415766 -0.489635 76 0 153
-0.022421 -0.441230 0.002436 76 0 153
-0.494168 -0.323010 0.479781 153 0 76
-0.456790 0.544865 -0.086729 76 0 153
0.689047 0.259301 0.283496 76 0 153
0.464284 -0.480339 -0.511533 76 0 153
0.689047 0.402973 0.391135 76 0 153
-0.551307 -0.480339 -0.132804 76 0 153
0.297245 0.544865 -0.401119 76 0 153
-0.170304 -0.376900 0.479781 76 0 153
-0.278966 -0.075997 0.432292 204 51 127
0.689047 -0.331583 -0.482814 76 0 153
-0.297479 -0.480339 -0.237948 76 0 153
0.689047 0.364439 0.475106 76 0 153
-0.732829 -0.217607 0.118819 76 0 153
-0.732829 -0.380131 -0.535731 76 0 153
0.117219 -0.385449 0.479781 76 0 153
-0.732829 -0.004435 0.272462 76 0 153
-0.720203 -0.192543 0.479781 76 0 153
-0.732829 -0.243968 -0.458850 76 0 153
0.341685 0.437785 -0.545423 76 0 153
0.689047 -0.215610 -0.378751 76 0 153
0.633496 -0.480339 -0.353923 76 0 153
0.261807 -0.334505 -0.545423 76 0 153
0.689047 0.015001 -0.106687 76 0 153
-0.038976 -0.441230 -0.213163 204 51 127
0.266305 0.544865 -0.285728 76 0 153
-0.732829 0.282899 0.004717 76 0 153
0.501729 -0.242512 0.486846 76 0 153
-0.732829 0.374265 0.436832 76 0 153
0.420673 0.120607 0.466923 153 0 76
0.689047 0.352018 -0.237144 76 0 153
-0.732829 -0.278126 -0.491828 76 0 153
0.086570 0.351700 0.432292 204 51 127
0.556732 -0.271712 -0.545423 76 0 153
0.689047 -0.232512 0.078548 76 0 153
0.444710 -0.267690 0.479781 153 0 76
0.689047 -0.194386 0.366693 76 0 153
0.506625 -0.007256 0.527270 76 0 153
-0.545774 0.544865 0.049739 76 0 153
-0.732829 0.454976 0.211664 76 0 153
-0.085449 -0.331077 0.479781 153 0 76
-0.472412 0.544865 0.477586 76 0 153
-0.089518 0.544865 0.474893 76 0 153
-0.078670 -0.271744 0.479781 153 0 76
-0.732829 0.177688 -0.318708 76 0 153
0.586980 -0.480339 -0.177163 76 0 153
-0.362726 -0.375574 -0.545423 76 0 153
0.115450 -0.289146 0.479781 153 0 76
0.352848 0.491047 0.479781 76 0 153
0.203308 -0.480339 0.309313 76 0 153
-0.095803 -0.239512 0.432292 204 51 127
0.051148 -0.349121 -0.545423 76 0 153
-0.603285 -0.480339 -0.141422 76 0 153
-0.347593 0.386941 0.432292 204 51 127
0.138564 -0.480339 -0.397462 76 0 153
-0.732829 0.393896 -0.093998 76 0 153
-0.332679 -0.344786 -0.545423 76 0 153
-0.732829 -0.097368 0.089656 76 0 153
-0.732829 -0.176772 -0.357482 76 0 153
-0.429082 0.146588 0.432292 204 51 127
-0.582326 0.153294 -0.545423 76 0 153
0.689047 0.133477 -0.426308 76 0 153
-0.070438 -0.480339 0.331676 76 0 153
-0.176850 0.544865 0.012782 76 0 153
0.511320 -0.300137 -0.545423 76 0 153
-0.732829 -0.136423 0.267740 76 0 153
-0.413749 -0.480339 -0.413163 76 0 153
-0.732829 0.036388 -0.323688 76 0 153
0.501729 -0.062730 0.522729 76 0 153
0.670837 -0.480339 0.385985 76 0 153
-0.732829 0.034684 -0.216571 76 0 153
-0.160860 -0.480339 -0.185486 76 0 153
-0.689381 -0.126619 0.479781 76 0 153
0.689047 -0.126516 0.150205 76 0 153
0.322516 -0.010710 -0.545423 76 0 153
0.062726 -0.259560 0.463608 153 0 76
-0.335077 -0.480339 -0.134868 76 0 153
-0.028065 0.025939 0.432292 204 51 127
-0.483295 0.388525 0.462741 153 0 76
0.500127 0.544865 -0.063206 76 0 153
0.169013 -0.480339 -0.090502 76 0 153
-0.732829 -0.078586 0.173382 76 0 153
0.689047 0.145700 -0.021423 76 0 153
0.459338 0.544865 0.208754 76 0 153
-0.715611 0.078598 0.479781 76 0 153
-0.732829 -0.404630 -0.333141 76 0 153
-0.422342 -0.480339 -0.341035 76 0 153
0.308921 -0.480339 0.327994 76 0 153
0.465939 0.243636 0.479781 153 0 76
-0.732829 -0.095578 0.343800 76 0 153
-0.520925 0.246268 0.432292 204 51 127
-0.732829 0.359297 0.258345 76 0 153
-0.136337 -0.465985 -0.545423 76 0 153
0.100696 -0.274833 -0.545423 76 0 153
0.297892 -0.441230 -0.192998 204 51 127
-0.647632 -0.480339 -0.326452 76 0 153
-0.732829 -0.137004 -0.154503 76 0 153
0.089483 0.544865 -0.529702 76 0 153
0.689047 -0.414384 -0.201795 76 0 153
-0.103798 -0.480339 0.355380 76 0 153
-0.193123 0.544865 0.103263 76 0 153
0.230540 -0.068106 0.432292 204 51 127
-0.584976 0.222932 0.477025 153 0 76
-0.077132 -0.441230 0.142829 204 51 127
0.051435 0.544865 0.137485 76 0 153
0.689047 -0.310246 -0.359108 76 0 153
-0.732829 -0.139713 -0.480025 76 0 153
-0.018308 -0.441230 0.081824 204 51 127
-0.315730 -0.480339 -0.117808 76 0 153
0.689047 -0.378052 0.139171 76 0 153
0.539711 -0.480123 0.479781 76 0 153
-0.463110 -0.480339 -0.443910 76 0 153
-0.013953 -0.480339 0.120824 76 0 153
0.689047 -0.444332 0.396095 76 0 153
0.058760 -0.480339 0.161848 76 0 153
0.373088 0.451052 0.479781 76 0 153
-0.273599 0.544865 -0.415040 76 0 153
-0.169270 0.541304 -0.545423 76 0 153
0.069806 -0.441230 0.387448 204 51 127
0.502854 -0.480339 0.290428 76 0 153
-0.572684 0.544865 0.022992 76 0 153
0.439585 0.544865 -0.191988 76 0 153
-0.228647 -0.202139 -0.545423 76 0 153
-0.643724 -0.516654 0.440194 153 0 76
-0.732829 -0.250673 -0.431997 76 0 153
0.689047 0.357725 -0.423087 76 0 153
-0.732829 -0.435587 0.307034 76 0 153
0.566141 0.544865 0.148315 76 0 153
-0.732829 -0.456041 -0.021199 76 0 153
-0.113123 0.223033 0.432292 204 51 127
0.689047 0.208660 -0.190998 76 0 153
0.689047 0.425797 -0.528229 76 0 153
-0.333811 -0.259560 0.467804 153 0 76
0.502139 -0.480339 0.420106 76 0 153
-0.610616 -0.480339 0.031603 76 0 153
-0.732829 -0.182113 0.346085 76 0 153
0.674509 -0.480339 -0.543571 76 0 153
-0.160845 -0.408635 0.479781 76 0 153
0.205070 -0.441230 0.017461 204 51 127
0.350537 -0.441230 0.230462 204 51 127
-0.160040 0.074184 0.432292 204 51 127
-0.732829 0.041334 0.049769 76 0 153
0.048973 0.164441 -0.545423 76 0 153
-0.305514 -0.441230 -0.074444 204 51 127
-0.297307 0.162650 -0.545423 76 0 153
0.157747 -0.286653 -0.545423 76 0 153
0.689047 -0.281303 0.241749 76 0 153
0.689047 -0.235913 -0.167400 76 0 153
-0.732829 0.284001 -0.297539 76 0 153
-0.396983 -0.277848 0.479781 153 0 76
-0.230675 -0.363051 0.479781 76 0 153
0.689047 0.034590 -0.337929 76 0 153
0.667292 0.544865 -0.076065 76 0 153
0.689047 0.417979 0.425236 76 0 153
-0.361064 -0.074133 -0.545423 76 0 153
-0.274648 0.342625 -0.545423 76 0 153
0.561044 0.485965 0.525711 76 0 153
0.689047 -0.241840 0.128494 76 0 153
0.441755 0.035641 -0.545423 76 0 153
-0.674153 -0.497105 0.413419 153 0 76
-0.065231 -0.441230 -0.238387 204 51 127
-0.732829 -0.022678 -0.294889 76 0 153
-0.307279 -0.480339 -0.004192 76 0 153
0.277823 0.544865 -0.018203 76 0 153
-0.163710 -0.441230 -0.422767 204 51 127
-0.426641 -0.195179 -0.545423 76 0 153
0.293939 -0.480339 0.070946 76 0 153
-0.373626 0.544865 0.411224 76 0 153
0.689047 -0.371775 -0.074876 76 0 153
0.355802 0.544865 0.233325 76 0 153
0.542958 -0.480339 -0.268785 76 0 153
0.451374 -0.441230 -0.118684 204 51 127
-0.124632 0.184395 0.432292 204 51 127
0.574108 0.469427 0.515596 76 0 153
0.689047 0.188169 0.400971 76 0 153
0.028873 -0.279957 0.479781 153 0 76
-0.732829 -0.335952 0.430975 76 0 153
-0.732829 -0.018732 -0.001984 76 0 153
-0.732829 -0.223825 -0.096788 76 0 153
0.519196 0.479234 0.527270 76 0 153
0.058809 -0.480339 0.239220 76 0 153
-0.732829 0.114341 -0.223473 76 0 153
0.389876 0.132740 0.432292 204 51 127
0.206041 -0.237136 -0.545423 76 0 153
-0.732829 -0.316593 -0.256175 76 0 153
0.144873 0.544865 -0.331714 76 0 153
0.499728 -0.480339 -0.437303 76 0 153
0.512922 -0.235949 0.527270 76 0 153
0.689047 -0.436751 0.202072 76 0 153
0.001625 -0.441230 -0.253730 204 51 127
0.511580 0.229249 0.527270 76 0 153
0.024481 0.372500 -0.545423 76 0 153
-0.655240 0.277479 0.479781 76 0 153
-0.732829 -0.350820 -0.515731 76 0 153
-0.654164 -0.480339 0.410314 76 0 153
-0.732829 0.208883 -0.211136 76 0 153
0.616813 -0.501176 0.458745 127 0 127
-0.727353 -0.480339 0.134027 76 0 153
-0.043881 0.544865 0.312664 76 0 153
-0.441937 0.544865 0.300593 76 0 153
-0.732829 0.467242 -0.286507 76 0 153
0.689047 0.542065 0.296096 76 0 153
-0.635480 0.277681 0.479781 153 0 76
-0.732829 -0.120692 -0.407473 76 0 153
0.449792 -0.480339 -0.381977 76 0 153
0.153094 -0.441230 -0.458635 204 51 127
0.220857 0.544865 0.361177 76 0 153
-0.234556 -0.387076 0.479781 76 0 153
-0.732829 0.105135 0.463875 76 0 153
-0.636531 -0.230803 0.479781 153 0 76
-0.732829 -0.064672 0.406314 76 0 153
-0.246628 0.027425 0.432292 204 51 127
0.461999 0.544865 -0.271223 76 0 153
-0.080405 -0.441230 -0.202354 204 51 127
-0.028759 0.026287 -0.545423 76 0 153
-0.246053 0.544865 -0.148379 76 0 153
0.663749 0.327183 0.489375 76 0 153
0.323584 0.210255 0.432292 204 51 127
0.594288 0.544865 0.049791 76 0 153
0.689047 0.244036 0.134563 76 0 153
-0.732829 0.095482 -0.298667 76 0 153
-0.283932 -0.480339 0.435391 76 0 153
0.689047 -0.385728 0.474453 76 0 153
0.275521 0.544865 -0.247904 76 0 153
0.689047 -0.335711 -0.325450 76 0 153
0.376746 -0.441230 0.137754 204 51 127
0.397961 0.544865 -0.046116 76 0 153
0.689047 0.513222 -0.420652 76 0 153
0.258997 0.544865 0.363844 76 0 153
0.146360 0.527957 0.479781 76 0 153
0.689047 -0.040304 0.101752 76 0 153
-0.065404 0.380195 -0.545423 76 0 153
0.262063 0.245937 -0.545423 76 0 153
-0.732829 0.129220 -0.476223 76 0 153
-0.136343 -0.441230 0.304146 204 51 127
-0.030923 0.314475 0.432292 204 51 127
-0.732829 -0.153991 -0.423210 76 0 153
-0.732829 -0.420813 -0.495469 76 0 153
-0.732829 0.435115 -0.318885 76 0 153
-0.732829 0.456981 0.075416 76 0 153
0.597865 -0.480339 0.176324 76 0 153
-0.732829 0.156477 -0.236549 76 0 153
-0.732829 0.194814 0.037288 76 0 153
-0.148232 0.438922 -0.545423 76 0 153
0.689047 -0.404596 0.423839 76 0 153
-0.732829 -0.277180 -0.529628 76 0 153
0.412547 -0.441230 0.204546 204 51 127
-0.732829 0.252336 -0.230207 76 0 153
0.094821 0.277813 0.432292 204 51 127
0.280405 -0.480339 0.001653 76 0 153
-0.732829 -0.272092 -0.188248 76 0 153
-0.273459 0.544865 0.069194 76 0 153
0.262343 0.281551 0.432292 204 51 127
0.484419 0.544865 -0.320926 76 0 153
-0.732829 0.357077 0.204067 76 0 153
-0.732829 -0.005762 -0.215701 76 0 153
-0.732829 0.529064 0.454421 76 0 153
0.634502 -0.480339 -0.129146 76 0 153
0.566283 0.053020 0.527270 76 0 153
0.246660 0.399206 0.479781 153 0 76
0.257013 0.333000 0.432292 204 51 127
0.536556 0.540831 0.479781 76 0 153
0.689047 -0.286677 0.438127 76 0 153
-0.224226 -0.441230 0.082811 204 51 127
-0.288621 -0.480339 -0.092859 76 0 153
0.403037 0.498243 0.479781 76 0 153
0.585172 0.420682 -0.545423 76 0 153
0.689047 -0.423558 0.477078 76 0 153
-0.185091 -0.480339 -0.028993 76 0 153
0.675969 -0.480339 -0.508879 76 0 153
0.119291 -0.480339 0.203226 76 0 153
0.065977 0.544865 -0.037548 76 0 153
-0.022104 -0.354923 0.479781 76 0 153
0.134881 0.544865 0.373019 76 0 153
0.501729 0.467655 0.497082 76 0 153
0.065322 -0.441230 0.211919 204 51 127
0.672426 0.252400 -0.545423 76 0 153
-0.697328 0.544865 0.109262 76 0 153
0.689047 -0.438799 -0.486609 76 0 153
0.513298 -0.480339 -0.090000 76 0 153
0.252362 0.544865 -0.490837 76 0 153
-0.551662 -0.480339 0.318836 76 0 153
0.462239 0.353963 0.479781 153 0 76
-0.732829 0.446181 -0.186637 76 0 153
-0.488536 0.143415 0.432292 204 51 127
-0.201263 0.073725 0.432292 204 51 127
0.204412 0.544865 -0.513325 76 0 153
-0.310386 -0.480339 -0.407729 76 0 153
0.327863 -0.480339 0.175301 76 0 153
0.310940 0.373788 -0.545423 76 0 153
0.058019 -0.480339 0.133149 76 0 153
0.689047 0.531235 0.121534 76 0 153
0.446563 -0.480339 0.469508 76 0 153
-0.597070 0.470418 0.479781 76 0 153
-0.732829 0.076359 0.279793 76 0 153
0.689047 -0.066341 -0.155519 76 0 153
-0.732829 0.392598 -0.141928 76 0 153
-0.732829 -0.163772 0.193900 76 0 153
-0.194679 -0.480339 0.215030 76 0 153
0.439271 -0.480339 -0.314328 76 0 153
0.689047 0.301894 0.072591 76 0 153
0.310160 -0.480339 0.007279 76 0 153
0.042947 -0.441230 -0.425197 204 51 127
0.631018 -0.063693 0.527270 76 0 153
0.689047 0.201165 -0.314995 76 0 153
0.133722 0.075837 0.432292 204 51 127
0.126670 0.301924 -0.545423 76 0 153
0.074285 -0.480339 -0.492873 76 0 153
0.153157 0.479929 0.479781 76 0 153
-0.732829 -0.304397 -0.463868 76 0 153
0.669270 -0.480339 -0.476501 76 0 153
-0.675474 -0.480339 -0.304499 76 0 153
0.689047 0.049161 -0.357638 76 0 153
-0.732829 -0.229653 -0.372435 76 0 153
0.575115 -0.161370 -0.545423 76 0 153
0.578859 -0.124313 0.527270 76 0 153
-0.197652 -0.442974 -0.545423 76 0 153
-0.633298 0.284217 -0.545423 76 0 153
0.160676 -0.480339 0.143818 76 0 153
0.116961 -0.480339 0.471961 76 0 153
-0.205390 -0.259560 0.477960 153 0 76
-0.204366 -0.441230 0.297568 204 51 127
-0.732829 0.299531 -0.197463 76 0 153
-0.732829 -0.373146 -0.223624 76 0 153
-0.448810 0.031335 -0.545423 76 0 153
0.430182 0.367718 0.479781 153 0 76
0.051420 0.131470 0.432292 204 51 127
0.009639 -0.063945 -0.545423 76 0 153
-0.732829 0.363505 0.001616 76 0 153
0.455125 -0.480339 -0.161777 76 0 153
-0.266239 0.544865 0.280761 76 0 153
0.689047 0.003202 -0.023104 76 0 153
-0.686861 -0.205641 -0.545423 76 0 153
0.639387 0.544865 -0.209325 76 0 153
0.123820 -0.441230 -0.325948 204 51 127
-0.732829 -0.297108 0.377210 76 0 153
-0.207522 -0.305866 -0.545423 76 0 153
-0.584976 0.197248 0.445776 153 0 76
-0.312629 -0.441230 -0.187771 204 51 127
0.334705 -0.025273 0.432292 204 51 127
-0.066093 0.496694 0.479781 76 0 153
-0.732829 0.280073 -0.377955 76 0 153
-0.732829 -0.232188 0.052092 76 0 153
-0.168453 -0.480339 -0.068475 76 0 153
0.247910 -0.480339 0.338250 76 0 153
-0.732490 -0.427398 0.479781 76 0 153
0.689047 -0.167353 0.402081 76 0 153
-0.576085 -0.285945 -0.545423 76 0 153
-0.613134 0.544865 0.134962 76 0 153
0.689047 -0.291434 -0.204568 76 0 153
0.689047 -0.380525 0.055981 76 0 153
0.353923 0.522902 0.479781 76 0 153
-0.732829 0.237256 0.346024 76 0 153
-0.354447 0.386680 -0.545423 76 0 153
0.451538 0.544865 0.369961 76 0 153
-0.677481 0.544865 -0.104144 76 0 153
0.621408 0.544865 0.093444 76 0 153
-0.124865 -0.441230 -0.060571 204 51 127
0.669256 -0.480339 0.461291 76 0 153
-0.673263 0.027739 -0.545423 76 0 153
0.130930 0.002835 0.432292 204 51 127
0.471988 -0.480339 -0.048977 76 0 153
-0.732829 -0.301995 0.227165 76 0 153
0.689047 -0.145510 -0.143242 76 0 153
-0.321484 -0.480339 0.084486 76 0 153
-0.732829 -0.326468 0.231054 76 0 153
0.689047 0.533344 0.047925 76 0 153
-0.026672 0.544865 -0.336689 76 0 153
-0.573605 -0.470869 -0.545423 76 0 153
-0.677499 -0.480339 -0.384756 76 0 153
-0.717833 -0.125069 -0.545423 76 0 153
-0.336325 0.544865 0.452011 76 0 153
-0.021341 -0.480339 0.189353 76 0 153
0.561027 -0.480339 -0.093698 76 0 153
0.467830 0.544865 0.110843 76 0 153
-0.732829 -0.000484 -0.487642 76 0 153
-0.181216 0.044937 0.432292 204 51 127
-0.732829 -0.125754 -0.033678 76 0 153
0.093159 -0.462046 -0.148800 76 0 153
-0.732829 0.109471 -0.256413 76 0 153
-0.385686 -0.174086 0.432292 204 51 127
-0.055162 0.544865 0.429933 76 0 153
-0.401634 0.544865 0.021335 76 0 153
0.329243 0.037861 0.432292 204 51 127
0.689047 -0.372222 -0.242533 76 0 153
0.165711 -0.480339 -0.203984 76 0 153
-0.477457 0.544865 -0.370202 76 0 153
0.689047 0.109601 0.364925 76 0 153
-0.550241 0.544865 0.328351 76 0 153
0.679070 -0.480339 -0.293740 76 0 153
0.689047 0.041987 -0.423580 76 0 153
-0.157964 0.544865 0.163861 76 0 153
-0.556781 0.103053 -0.545423 76 0 153
0.689047 -0.054207 -0.105808 76 0 153
-0.726993 -0.480339 -0.014776 76 0 153
0.317610 0.544865 -0.222804 76 0 153
-0.095133 0.544865 -0.127250 76 0 153
0.217748 -0.480339 -0.118369 76 0 153
0.628210 0.113081 -0.545423 76 0 153
-0.367066 -0.441230 -0.093143 204 51 127
-0.146773 -0.480339 -0.523783 76 0 153
0.151103 -0.480339 -0.536777 76 0 153
0.300733 -0.441230 -0.136572 204 51 127
0.689047 -0.364224 0.067146 76 0 153
0.584048 -0.480339 -0.091890 76 0 153
0.505125 0.544865 -0.298515 76 0 153
0.689047 0.237240 0.291493 76 0 153
0.303720 -0.441230 0.274642 204 51 127
-0.510897 0.100011 -0.545423 76 0 153
-0.119221 -0.441230 -0.194465 204 51 127
-0.732673 -0.155218 0.479781 76 0 153
-0.732829 0.223886 -0.020317 76 0 153
-0.110965 -0.441230 -0.233229 204 51 127
-0.207812 0.362931 -0.545423 76 0 153
-0.434447 0.544756 0.479781 76 0 153
-0.269213 -0.480339 -0.146698 76 0 153
-0.359684 -0.480339 -0.358653 76 0 153
0.094138 -0.291207 0.479781 153 0 76
0.689047 0.540491 -0.075009 76 0 153
-0.689166 0.544865 -0.192861 76 0 153
0.689047 0.129244 0.376452 76 0 153
-0.065366 -0.441230 0.353016 204 51 127
-0.562690 0.340622 0.432292 204 51 127
0.644213 0.544865 0.057276 76 0 153
0.046311 0.544865 -0.287518 76 0 153
-0.732829 0.269139 -0.246085 76 0 153
0.473605 -0.480339 -0.146137 76 0 153
0.198022 -0.015514 0.432292 204 51 127
0.689047 0.326893 0.313595 76 0 153
-0.732829 -0.306461 -0.407248 76 0 153
-0.604358 0.066359 0.479781 153 0 76
-0.509123 0.006044 -0.545423 76 0 153
-0.732829 -0.192695 0.103920 76 0 153
-0.549514 0.544865 -0.502120 76 0 153
0.677431 -0.213845 0.479781 76 0 153
0.580625 0.014766 0.571965 0 0 255
0.395358 -0.480339 -0.352128 76 0 153
-0.152938 0.406738 0.479781 153 0 76
0.391169 0.399449 -0.545423 76 0 153
0.689047 0.007916 0.011715 76 0 153
-0.617950 -0.516654 0.456133 153 0 76
0.517172 0.544865 0.478027 76 0 153
0.072927 0.227387 -0.545423 76 0 153
0.069269 -0.441230 -0.241682 204 51 127
-0.732829 -0.444532 0.113699 76 0 153
0.324109 -0.441230 -0.125992 204 51 127
0.663749 0.314930 0.518271 76 0 153
-0.662590 0.414345 0.479781 76 0 153
0.654831 -0.472719 -0.545423 76 0 153
0.630221 0.544865 -0.176103 76 0 153
-0.059148 -0.310804 0.479781 153 0 76
-0.732829 0.439652 0.449935 76 0 153
0.023225 -0.480339 -0.205292 76 0 153
-0.289910 -0.480339 0.407472 76 0 153
-0.256475 -0.441230 -0.094778 204 51 127
0.338205 0.275994 -0.545423 76 0 153
-0.732829 0.509917 -0.297220 76 0 153
0.139336 -0.128933 0.432292 204 51 127
-0.435388 0.544865 -0.177028 76 0 153
-0.277627 0.544865 -0.534353 76 0 153
0.276131 0.488065 -0.545423 76 0 153
0.494606 0.243619 -0.545423 76 0 153
-0.050649 -0.480339 0.123419 76 0 153
0.402799 0.544865 -0.120702 76 0 153
-0.133414 -0.480339 -0.285324 76 0 153
-0.732829 0.096467 -0.350766 76 0 153
-0.732829 -0.138114 0.189409 76 0 153
0.207272 -0.097868 0.432292 204 51 127
0.689047 0.210780 0.226588 76 0 153
-0.008187 0.510835 0.479781 76 0 153
-0.434527 0.497609 -0.545423 76 0 153
-0.435901 0.544865 -0.117421 76 0 153
0.501729 0.255146 0.498896 76 0 153
-0.312124 -0.287340 0.479781 153 0 76
-0.129574 -0.480339 -0.322622 76 0 153
0.403447 -0.480339 -0.039837 76 0 153
0.689047 0.270597 -0.112576 76 0 153
-0.250534 0.302707 0.432292 204 51 127
-0.388648 -0.480339 -0.294327 76 0 153
-0.005686 0.309901 0.432292 204 51 127
0.331922 -0.480339 -0.310698 76 0 153
-0.703540 -0.298527 0.479781 76 0 153
-0.015450 0.158175 0.432292 204 51 127
-0.697144 -0.480339 0.462098 76 0 153
0.266277 0.172679 0.432292 204 51 127
-0.732829 0.069966 -0.426208 76 0 153
-0.163366 -0.097556 0.432292 204 51 127
-0.575689 -0.480339 0.403816 76 0 153
-0.658051 0.452140 -0.545423 76 0 153
0.689047 0.437066 -0.074893 76 0 153
0.109892 0.544865 -0.166269 76 0 153
0.359185 -0.480339 0.448012 76 0 153
0.599623 -0.494306 -0.449676 0 127 127
-0.338822 -0.441230 0.084618 204 51 127
-0.357918 0.544865 0.304563 76 0 153
-0.676899 -0.480339 0.090731 76 0 153
0.557314 0.544865 -0.052303 76 0 153
0.645560 -0.169290 -0.545423 76 0 153
0.632380 -0.480339 0.130488 76 0 153
-0.011442 0.544865 -0.445882 76 0 153
-0.570425 0.388525 0.449276 153 0 76
-0.563695 0.544865 0.158949 76 0 153
0.689047 0.411004 -0.451928 76 0 153
-0.360797 -0.441230 0.010588 204 51 127
0.064106 -0.480339 0.368498 76 0 153
-0.327603 0.490773 0.479781 76 0 153
-0.422794 -0.476147 0.479781 76 0 153
0.372031 -0.357808 0.479781 76 0 153
-0.224386 0.434674 0.479781 153 0 76
-0.706389 0.544865 0.298687 76 0 153
-0.445081 0.544865 -0.398391 76 0 153
0.487408 -0.480339 0.434798 76 0 153
0.501729 0.073289 0.511811 76 0 153
0.505085 0.415712 -0.545423 76 0 153
-0.725828 0.544865 -0.168901 76 0 153
-0.047415 0.544865 -0.300648 76 0 153
-0.263271 -0.441230 -0.135274 204 51 127
-0.050564 -0.343083 0.479781 153 0 76
0.358417 -0.480339 -0.401205 76 0 153
-0.177254 -0.480339 0.318634 76 0 153
-0.142705 0.108218 0.432292 204 51 127
-0.397787 -0.480339 -0.544181 76 0 153
0.389879 0.544865 -0.431100 76 0 153
-0.561836 -0.132054 0.432292 204 51 127
0.077323 -0.199606 0.432292 204 51 127
-0.732829 0.253349 0.410036 76 0 153
-0.437346 -0.291158 -0.545423 76 0 153
0.689047 0.296285 0.321862 76 0 153
0.626229 0.170802 -0.545423 76 0 153
-0.333297 -0.441230 -0.116055 204 51 127
-0.531661 -0.480339 -0.014354 76 0 153
0.501729 -0.126623 0.494418 76 0 153
-0.317823 0.324723 0.432292 204 51 127
0.380170 0.544865 0.445711 76 0 153
0.380308 -0.480339 0.079919 76 0 153
0.427101 -0.348427 0.479781 153 0 76
-0.295995 0.544865 -0.201599 76 0 153
0.243572 -0.441230 -0.160413 204 51 127
0.353001 0.293999 0.432292 204 51 127
0.269550 -0.480339 0.136510 76 0 153
0.216391 -0.480339 -0.528069 76 0 153
0.517317 0.382397 0.510886 76 0 153
-0.202863 0.316782 0.432292 204 51 127
-0.349006 0.544865 0.058431 76 0 153
0.689047 0.455266 -0.519747 76 0 153
-0.645145 -0.480339 0.052116 76 0 153
0.427123 -0.239431 0.479781 153 0 76
-0.273629 -0.051205 0.432292 204 51 127
0.689047 -0.308609 0.246116 76 0 153
0.689047 0.055809 0.375420 76 0 153
0.325854 -0.441230 0.162958 204 51 127
-0.517619 -0.480339 -0.211252 76 0 153
-0.607135 0.043838 0.479781 153 0 76
0.689047 0.033808 0.299237 76 0 153
-0.157256 0.544865 0.093817 76 0 153
-0.003321 -0.441230 -0.221118 204 51 127
-0.732829 -0.065003 0.427895 76 0 153
-0.732829 0.229626 0.385914 76 0 153
-0.732829 0.142168 0.010343 76 0 153
-0.732829 -0.440399 0.149319 76 0 153
-0.653180 -0.480339 -0.060440 76 0 153
-0.161698 -0.078305 0.432292 204 51 127
-0.005371 0.188307 -0.545423 76 0 153
0.689047 -0.196177 -0.101824 76 0 153
0.689047 -0.004687 0.255258 76 0 153
0.554561 0.432376 0.504922 76 0 153
-0.344033 0.507005 -0.545423 76 0 153
0.689047 -0.130776 -0.410684 76 0 153
-0.646576 -0.480339 0.077592 76 0 153
0.689047 0.530763 -0.384751 76 0 153
-0.098071 0.544865 -0.108561 76 0 153
-0.353384 -0.480339 0.273295 76 0 153
0.479654 -0.414388 0.479781 76 0 153
0.403659 -0.480339 -0.481787 76 0 153
-0.067135 -0.253581 0.432292 204 51 127
0.689047 0.488362 -0.392206 76 0 153
-0.665738 -0.480339 0.228551 76 0 153
0.454495 -0.480339 -0.115846 76 0 153
-0.231176 -0.480339 -0.152992 76 0 153
-0.131454 -0.311900 0.479781 153 0 76
-0.377693 0.355222 -0.545423 76 0 153
-0.724782 0.544865 -0.522614 76 0 153
0.351554 0.056725 -0.545423 76 0 153
0.520500 -0.480339 0.048790 76 0 153
-0.079846 -0.014476 -0.545423 76 0 153
0.020996 -0.441230 -0.290110 204 51 127
-0.424448 -0.259560 0.453461 153 0 76
0.317259 -0.480339 0.245180 76 0 153
0.501729 -0.052881 0.500968 76 0 153
0.197954 -0.079021 0.432292 204 51 127
0.193343 0.257511 0.432292 204 51 127
-0.544558 0.497083 -0.545423 76 0 153
-0.038641 -0.155076 0.432292 204 51 127
-0.131375 -0.219543 0.432292 204 51 127
-0.553218 0.544865 -0.016802 76 0 153
-0.101504 0.544865 0.206469 76 0 153
-0.347294 0.510316 0.479781 76 0 153
-0.045776 0.230805 -0.545423 76 0 153
0.533549 -0.480339 0.437995 76 0 153
0.144555 0.533923 -0.545423 76 0 153
-0.266492 -0.441230 0.119829 204 51 127
0.689047 0.464136 -0.095031 76 0 153
-0.732829 0.109808 0.311281 76 0 153
0.134944 -0.070882 0.432292 204 51 127
