ply
format ascii 1.0
element vertex 1264
property float x
property float y
property float z
property uchar red
property uchar green
property uchar blue
end_header
0.117266 0.039709 0.432292 204 51 127
-0.189742 -0.441976 0.479781 76 0 153
-0.732829 -0.416188 0.186632 76 0 153
-0.035958 0.544865 0.014190 76 0 153
-0.732829 0.409191 0.228756 76 0 153
-0.700747 0.381878 0.479781 76 0 153
0.616971 -0.480339 -0.170050 76 0 153
-0.637158 -0.274160 -0.545423 76 0 153
-0.384626 0.544865 -0.438714 76 0 153
-0.055989 0.544865 -0.392404 76 0 153
-0.020442 0.544865 -0.114454 76 0 153
-0.242517 -0.480339 0.385272 76 0 153
-0.732829 0.537824 0.153203 76 0 153
-0.191238 -0.390890 0.479781 76 0 153
0.624466 -0.480339 -0.322060 76 0 153
0.628061 0.283425 0.527270 76 0 153
0.689047 0.392711 -0.269727 76 0 153
0.112161 -0.441230 -0.202362 204 51 127
0.657586 -0.480339 0.161418 76 0 153
0.689047 0.383845 0.283577 76 0 153
-0.447128 0.532601 0.479781 76 0 153
-0.396073 -0.259560 0.437196 204 51 127
-0.614812 -0.480339 -0.010793 76 0 153
0.207096 -0.480339 0.182233 76 0 153
0.296354 0.544865 -0.463988 76 0 153
-0.327428 -0.113961 -0.545423 76 0 153
-0.732829 -0.329029 -0.178990 76 0 153
0.473990 -0.480339 -0.184230 76 0 153
-0.463818 -0.480339 0.412842 76 0 153
0.499964 0.073558 0.479781 76 0 153
0.464069 -0.441230 -0.079622 204 51 127
-0.311309 -0.441230 0.184588 204 51 127
-0.013816 -0.025869 -0.545423 76 0 153
0.487427 0.511050 -0.545423 76 0 153
-0.732829 -0.384749 -0.376565 76 0 153
-0.442068 0.544865 0.409588 76 0 153
-0.411528 -0.451015 -0.545423 76 0 153
0.103170 -0.092769 0.432292 204 51 127
-0.732829 0.219682 0.159350 76 0 153
-0.732829 0.236279 0.008161 76 0 153
-0.685974 0.544865 -0.462356 76 0 153
-0.262081 -0.089872 0.432292 204 51 127
0.162351 -0.441230 0.056686 204 51 127
0.276983 0.544865 -0.217399 76 0 153
0.312231 0.309051 0.432292 204 51 127
0.689047 0.374360 -0.194010 76 0 153
-0.221372 -0.388231 -0.545423 76 0 153
0.689047 0.041167 0.186499 76 0 153
0.528221 -0.480339 0.393071 76 0 153
0.310636 0.229554 0.432292 204 51 127
-0.732829 0.327930 0.233828 76 0 153
0.429494 -0.388366 0.479781 76 0 153
-0.732829 0.095540 -0.001225 76 0 153
0.339929 -0.441230 0.073979 204 51 127
0.187924 -0.136715 -0.545423 76 0 153
0.689047 -0.325901 -0.066530 76 0 153
0.048761 -0.441230 -0.123730 76 0 153
0.087786 0.338588 -0.545423 76 0 153
-0.428124 0.544865 0.088341 76 0 153
-0.732829 -0.168052 -0.422687 76 0 153
0.689047 0.489219 -0.247996 76 0 153
0.689047 0.116936 -0.458732 76 0 153
-0.732829 -0.165326 0.200967 76 0 153
-0.597031 -0.480339 0.418092 76 0 153
-0.279440 -0.178183 0.432292 204 51 127
-0.732829 0.120714 -0.287467 76 0 153
-0.466250 -0.480339 -0.234699 76 0 153
0.016031 0.118774 0.432292 204 51 127
-0.165852 0.174420 -0.545423 76 0 153
0.689047 0.197813 0.196610 76 0 153
0.689047 -0.312821 -0.510023 76 0 153
-0.502315 -0.480339 -0.185909 76 0 153
0.170076 -0.480339 -0.504979 76 0 153
0.158075 0.544865 -0.490452 76 0 153
0.046221 0.376751 0.432292 204 51 127
-0.317686 -0.480339 -0.539289 76 0 153
0.663749 -0.095699 0.510191 76 0 153
-0.547180 0.535090 -0.545423 76 0 153
-0.437379 0.478904 0.479781 76 0 153
0.689047 -0.047236 -0.275414 76 0 153
0.542264 0.212390 -0.545423 76 0 153
-0.188467 0.544865 -0.544143 76 0 153
-0.178985 0.544865 -0.442811 76 0 153
0.339280 0.544865 -0.163663 76 0 153
-0.264784 -0.480339 -0.018270 76 0 153
-0.614520 -0.480339 -0.154618 76 0 153
0.689047 -0.222613 -0.234194 76 0 153
0.044360 0.421903 0.479781 153 0 76
0.689047 0.045463 0.358139 76 0 153
0.689047 -0.165808 0.202074 76 0 153
0.075082 -0.441230 -0.223709 204 51 127
0.199910 0.544865 -0.533021 76 0 153
0.091700 -0.343788 0.479781 153 0 76
-0.732829 0.242533 0.348001 76 0 153
0.184887 -0.441230 0.157037 204 51 127
-0.732829 0.511438 0.019571 76 0 153
-0.534981 0.199357 0.432292 204 51 127
0.365942 0.481161 -0.545423 76 0 153
0.467284 0.544865 0.309010 76 0 153
-0.218447 -0.441230 -0.305812 204 51 127
0.297120 -0.307683 -0.545423 76 0 153
-0.181181 -0.480339 0.388215 76 0 153
0.689047 -0.427190 -0.473189 76 0 153
-0.283516 0.123032 0.432292 204 51 127
0.164208 -0.441230 -0.154031 204 51 127
-0.696434 -0.042080 -0.545423 76 0 153
-0.254921 0.513191 -0.545423 76 0 153
-0.367693 -0.291316 -0.545423 76 0 153
0.078055 -0.441230 -0.291010 204 51 127
0.689047 -0.021330 0.095446 76 0 153
-0.121401 -0.441230 0.281842 204 51 127
-0.084054 0.041080 0.432292 204 51 127
-0.732829 -0.377540 0.406284 76 0 153
-0.697155 -0.482761 -0.448569 76 153 0
0.689047 0.422056 -0.462040 76 0 153
-0.004191 -0.408002 0.479781 76 0 153
-0.732829 0.331022 0.063241 76 0 153
0.689047 -0.099896 0.001629 76 0 153
0.250514 -0.480339 -0.474610 76 0 153
0.006352 -0.441230 0.338977 204 51 127
-0.732829 -0.219793 -0.070685 76 0 153
-0.732829 -0.031893 -0.321842 76 0 153
0.323754 0.281703 -0.545423 76 0 153
-0.358162 -0.480339 -0.271240 76 0 153
-0.235780 -0.480339 -0.543684 76 0 153
-0.732829 0.516977 -0.385780 76 0 153
0.689047 -0.022215 -0.422778 76 0 153
-0.097954 -0.480339 0.410069 76 0 153
-0.171764 -0.365806 -0.545423 76 0 153
0.499090 0.544865 -0.003303 76 0 153
-0.732829 0.380247 -0.080432 76 0 153
0.655318 0.007943 0.554028 0 0 255
-0.201846 -0.480339 -0.128581 76 0 153
0.689047 -0.340779 -0.430692 76 0 153
0.394783 -0.480339 -0.199856 76 0 153
0.294905 0.544865 0.039173 76 0 153
0.147685 0.544865 0.098300 76 0 153
-0.029944 -0.480339 0.461381 76 0 153
-0.095221 -0.102396 -0.545423 76 0 153
0.385167 -0.480339 -0.025511 76 0 153
-0.112820 0.544865 -0.213604 76 0 153
0.484435 0.544865 0.216855 76 0 153
-0.318035 0.531639 0.479781 76 0 153
0.352768 -0.480339 -0.385555 76 0 153
0.689047 -0.139818 0.134496 76 0 153
0.689047 -0.152214 -0.018633 76 0 153
0.688801 0.544865 -0.399617 76 0 153
-0.732829 -0.375717 0.260918 76 0 153
-0.562316 -0.259560 0.463223 153 0 76
-0.417275 0.231638 -0.545423 76 0 153
-0.306146 0.544865 -0.508432 76 0 153
-0.445126 0.544865 0.157704 76 0 153
-0.211726 -0.480339 0.008856 76 0 153
0.255028 -0.441230 0.294459 204 51 127
0.689047 -0.142447 0.068966 76 0 153
-0.024279 -0.441230 -0.233685 204 51 127
0.030229 0.215705 0.432292 204 51 127
0.350970 0.058636 0.432292 204 51 127
-0.163782 -0.480339 -0.234266 76 0 153
0.689047 -0.306738 -0.139490 76 0 153
0.660324 0.544865 -0.014819 76 0 153
-0.370295 0.086415 -0.545423 76 0 153
0.487728 0.544865 -0.125262 76 0 153
-0.732829 -0.298110 -0.098980 76 0 153
-0.489722 -0.480339 -0.140845 76 0 153
-0.732829 -0.396310 -0.005094 76 0 153
0.130553 0.544865 0.004727 76 0 153
0.689047 0.319274 0.327230 76 0 153
0.689047 0.501083 -0.033932 76 0 153
0.034616 0.271666 -0.545423 76 0 153
-0.114514 0.544865 0.234261 76 0 153
-0.207601 -0.480339 -0.069903 76 0 153
-0.541399 0.544865 0.113524 76 0 153
0.689047 -0.291291 -0.471702 76 0 153
0.689047 0.296475 0.111907 76 0 153
-0.732829 0.490475 -0.431101 76 0 153
-0.238727 -0.243076 -0.545423 76 0 153
-0.424660 -0.021101 0.432292 204 51 127
-0.422441 -0.480339 0.285147 76 0 153
-0.330112 0.164993 -0.545423 76 0 153
0.539159 0.544865 -0.512947 76 0 153
-0.732829 -0.099804 -0.308868 76 0 153
0.304877 -0.480339 0.386539 76 0 153
0.689047 0.283829 0.392551 76 0 153
-0.648874 0.544865 -0.292408 76 0 153
-0.732829 -0.394024 -0.290231 76 0 153
-0.444698 0.544865 0.007548 76 0 153
-0.073410 0.026894 -0.545423 76 0 153
0.572345 -0.516654 0.409759 127 0 127
0.689047 -0.180426 0.444062 76 0 153
-0.380152 -0.170044 -0.545423 76 0 153
-0.732829 0.273742 -0.454996 76 0 153
0.543253 -0.051693 0.527270 76 0 153
0.131080 -0.441230 0.228272 204 51 127
0.689047 0.328452 0.031375 76 0 153
0.671203 0.448083 0.479781 76 0 153
0.689047 -0.030214 0.167351 76 0 153
0.037535 -0.268580 -0.545423 76 0 153
-0.356699 -0.434037 -0.545423 76 0 153
-0.732829 0.354668 -0.290745 76 0 153
-0.163472 -0.208678 0.432292 204 51 127
-0.377692 -0.480339 0.402964 76 0 153
0.689047 -0.031391 -0.033479 76 0 153
-0.110911 0.544865 0.358263 76 0 153
0.689047 -0.454372 -0.528766 76 0 153
0.070773 -0.026923 -0.545423 76 0 153
0.685328 -0.442346 0.479781 76 0 153
-0.715251 0.544865 0.075390 76 0 153
-0.267053 -0.395403 0.479781 76 0 153
0.608198 0.046703 -0.545423 76 0 153
-0.732829 -0.303344 -0.234461 76 0 153
-0.583051 -0.327562 0.479781 153 0 76
0.356928 -0.421637 -0.545423 76 0 153
-0.660489 0.163892 0.479781 76 0 153
0.689047 -0.445979 -0.320129 76 0 153
-0.214237 0.062387 -0.545423 76 0 153
-0.732829 0.377408 -0.405171 76 0 153
0.269862 -0.024488 -0.545423 76 0 153
-0.432176 -0.441230 0.022146 204 51 127
-0.425524 0.544865 0.260946 76 0 153
0.047978 -0.106196 0.432292 204 51 127
-0.179628 -0.441230 -0.283007 204 51 127
-0.396756 -0.130488 -0.545423 76 0 153
0.051011 -0.186786 -0.545423 76 0 153
0.650090 0.273527 -0.545423 76 0 153
-0.732829 0.024432 -0.511318 76 0 153
0.079839 0.169982 0.432292 204 51 127
0.689047 -0.175547 -0.449913 76 0 153
-0.190231 -0.445468 -0.545423 76 0 153
0.689047 0.101130 0.279751 76 0 153
-0.146057 -0.398858 -0.545423 76 0 153
-0.124943 -0.461355 0.479781 76 0 153
-0.718007 -0.395770 -0.545423 76 0 153
-0.184276 0.544865 0.333414 76 0 153
0.008225 0.544865 0.028639 76 0 153
0.244949 0.544865 -0.255722 76 0 153
-0.241410 0.544865 -0.475766 76 0 153
0.282816 0.544865 -0.337935 76 0 153
0.390466 -0.480339 -0.528017 76 0 153
0.689047 0.086660 0.474731 76 0 153
-0.312542 -0.373275 -0.545423 76 0 153
-0.268232 -0.255340 0.432292 153 0 76
0.298434 -0.416083 -0.545423 76 0 153
0.481993 0.509726 0.479781 76 0 153
-0.732829 -0.462364 0.463444 76 0 153
0.082890 -0.441230 0.024262 76 0 153
-0.622257 -0.095621 0.479781 153 0 76
-0.732829 0.336507 -0.480865 76 0 153
0.689047 0.517504 0.265389 76 0 153
-0.732829 0.249725 -0.408388 76 0 153
-0.263342 0.544865 0.387036 76 0 153
-0.732829 -0.016347 -0.179241 76 0 153
-0.024733 0.003374 0.432292 204 51 127
-0.249244 -0.441230 0.028451 204 51 127
-0.051099 0.347216 -0.545423 76 0 153
0.501729 0.187945 0.486177 76 0 153
0.501729 0.138555 0.526504 76 0 153
0.541338 0.023080 -0.545423 76 0 153
0.689047 0.384950 -0.438818 76 0 153
0.616027 0.544865 -0.110312 76 0 153
-0.732829 0.407279 -0.434425 76 0 153
0.020778 -0.480339 0.061556 76 0 153
-0.249307 0.188581 -0.545423 76 0 153
-0.732829 0.307147 -0.377955 76 0 153
-0.635559 -0.409185 0.479781 76 0 153
0.689047 -0.437056 0.247875 76 0 153
-0.057073 -0.441230 0.361035 204 51 127
0.689047 0.046868 0.227317 76 0 153
-0.153697 -0.480339 0.004073 76 0 153
-0.732829 0.136560 -0.141243 76 0 153
0.686322 0.328529 -0.545423 76 0 153
0.286062 -0.441230 0.176714 204 51 127
-0.328689 0.400383 -0.545423 76 0 153
0.328290 0.544865 0.257049 76 0 153
-0.088708 -0.215307 0.432292 204 51 127
0.203643 -0.441230 0.270807 204 51 127
-0.664757 0.309826 0.479781 76 0 153
-0.732829 0.089039 -0.307457 76 0 153
-0.732829 0.475328 0.056650 76 0 153
0.007062 0.041316 0.432292 204 51 127
-0.495293 0.544865 0.245554 76 0 153
0.619484 0.538860 -0.545423 76 0 153
-0.732829 -0.442078 -0.168174 76 0 153
-0.562062 0.544865 0.393239 76 0 153
0.485376 0.349445 -0.545423 76 0 153
-0.437386 -0.480339 0.194818 76 0 153
0.029476 0.102294 -0.545423 76 0 153
-0.564181 0.544865 0.239920 76 0 153
-0.355058 0.309778 0.432292 204 51 127
-0.331594 -0.480339 -0.112870 76 0 153
-0.042770 0.262481 0.432292 204 51 127
-0.543269 0.544865 -0.093957 76 0 153
-0.585214 -0.376602 -0.545423 76 0 153
0.147600 0.118567 -0.545423 76 0 153
-0.582204 -0.480339 -0.494474 76 0 153
-0.732829 0.364716 0.079304 76 0 153
-0.217234 0.544865 -0.118286 76 0 153
-0.482659 0.544865 -0.070379 76 0 153
-0.100371 -0.480339 0.164553 76 0 153
-0.122189 0.544865 -0.351808 76 0 153
-0.529560 -0.126045 -0.545423 76 0 153
0.663749 -0.007665 0.498929 76 0 153
-0.732829 0.407454 -0.239581 76 0 153
0.475524 0.544865 -0.535089 76 0 153
0.574855 0.344201 0.527270 76 0 153
0.487037 0.138654 -0.545423 76 0 153
-0.045755 -0.150662 -0.545423 76 0 153
0.689047 0.382742 -0.092092 76 0 153
0.635273 -0.145571 0.527270 76 0 153
-0.662770 0.371364 0.479781 76 0 153
-0.492015 0.544865 -0.161407 76 0 153
-0.732829 0.194810 -0.299024 76 0 153
-0.390588 -0.441230 -0.047137 204 51 127
-0.732829 0.092461 0.044514 76 0 153
-0.635083 0.075225 0.479781 153 0 76
0.095615 0.301108 0.432292 204 51 127
-0.024290 0.544865 -0.418966 76 0 153
0.501729 -0.225342 0.511725 76 0 153
0.380167 -0.480339 -0.463826 76 0 153
-0.078847 -0.478250 -0.545423 76 0 153
-0.336326 0.491093 -0.545423 76 0 153
-0.606521 0.530096 0.479781 76 0 153
-0.732829 0.538987 -0.452996 76 0 153
-0.052274 0.177919 -0.545423 76 0 153
-0.020980 -0.434109 -0.545423 76 0 153
-0.286425 0.277835 -0.545423 76 0 153
0.689047 -0.287793 0.302465 76 0 153
0.664638 0.203871 -0.545423 76 0 153
0.619628 -0.480339 0.161466 76 0 153
0.270182 0.544865 0.274405 76 0 153
-0.369936 -0.051979 -0.545423 76 0 153
-0.503275 -0.448518 -0.545423 76 0 153
0.689047 -0.384426 -0.346509 76 0 153
-0.556018 0.510239 0.479781 76 0 153
-0.732829 -0.435509 -0.432499 76 0 153
-0.398633 0.210672 0.432292 204 51 127
-0.632015 -0.480339 0.200784 76 0 153
-0.296316 -0.445958 -0.545423 76 0 153
-0.006807 -0.480339 0.157743 76 0 153
-0.631996 0.503216 -0.545423 76 0 153
0.516430 -0.480339 -0.331277 76 0 153
0.091611 -0.238934 -0.545423 76 0 153
-0.639658 -0.480339 -0.541770 76 0 153
0.689047 0.262210 -0.140211 76 0 153
0.689047 0.338192 -0.129285 76 0 153
-0.445282 0.544865 0.206630 76 0 153
0.160468 0.544865 0.358570 76 0 153
-0.732829 0.429092 -0.314604 76 0 153
0.651068 0.544865 -0.253611 76 0 153
-0.362585 0.287705 -0.545423 76 0 153
0.689047 -0.301212 -0.386664 76 0 153
0.393095 -0.480339 0.316353 76 0 153
0.403365 0.544865 -0.512418 76 0 153
-0.732829 -0.031924 0.281354 76 0 153
-0.732829 -0.112383 0.306545 76 0 153
0.689047 0.284752 0.346641 76 0 153
-0.732829 0.237082 -0.283538 76 0 153
0.175428 0.544865 -0.418234 76 0 153
-0.611341 0.544865 -0.022420 76 0 153
0.625893 -0.516654 0.445163 127 0 127
0.689047 0.183778 -0.040975 76 0 153
-0.524736 -0.480339 0.320321 76 0 153
-0.727086 0.544865 0.034195 76 0 153
-0.434017 0.544865 -0.301532 76 0 153
-0.732829 0.145242 0.434521 76 0 153
-0.663300 0.029518 0.479781 76 0 153
-0.139491 0.073480 -0.545423 76 0 153
-0.732829 -0.367814 -0.072412 76 0 153
0.330018 0.544865 -0.530713 76 0 153
-0.567195 -0.480339 -0.222439 76 0 153
0.689047 0.130034 0.060177 76 0 153
-0.524191 0.286761 -0.545423 76 0 153
-0.077258 0.544865 0.126159 76 0 153
0.555624 -0.480339 -0.427321 76 0 153
0.501729 -0.054271 0.493146 76 0 153
0.385870 0.428932 -0.545423 76 0 153
0.689047 0.365165 -0.342911 76 0 153
0.689047 0.087123 -0.390462 76 0 153
-0.200970 -0.480339 0.318233 76 0 153
0.191628 -0.441230 -0.309848 204 51 127
0.114959 0.544865 0.161666 76 0 153
0.689047 0.464439 -0.010726 76 0 153
-0.111231 0.457128 -0.545423 76 0 153
-0.437624 0.408802 0.479781 153 0 76
-0.501052 0.112424 -0.545423 76 0 153
-0.308971 -0.441230 -0.244484 204 51 127
-0.409321 0.147406 0.432292 204 51 127
-0.114111 0.433561 0.479781 153 0 76
0.689047 -0.086145 0.339485 76 0 153
-0.732829 0.327676 0.303070 76 0 153
-0.502202 -0.472359 0.479781 76 0 153
-0.732829 0.068712 0.422925 76 0 153
0.213309 0.544865 0.161346 76 0 153
-0.187543 -0.441230 0.346741 204 51 127
0.385821 0.349736 0.432292 204 51 127
0.341180 0.183717 0.432292 204 51 127
-0.138892 -0.441230 -0.205713 204 51 127
-0.047400 0.544865 -0.164428 76 0 153
0.689047 0.358700 -0.048282 76 0 153
0.546745 0.492443 0.479781 76 0 153
0.501729 -0.104275 0.509391 76 0 153
0.689047 -0.396448 -0.088555 76 0 153
0.283080 -0.480339 0.234001 76 0 153
0.689047 0.258114 0.118639 76 0 153
0.553139 -0.480339 0.202388 76 0 153
0.371006 0.474339 0.479781 76 0 153
0.657433 0.513459 0.479781 76 0 153
0.137687 0.544865 -0.072344 76 0 153
-0.380867 0.528218 0.479781 76 0 153
-0.072771 -0.480339 -0.244482 76 0 153
0.203854 0.544865 -0.201740 76 0 153
-0.314564 0.544865 -0.241435 76 0 153
0.282674 -0.270717 0.479781 153 0 76
-0.732829 -0.196711 -0.162997 76 0 153
0.501729 0.459776 0.526979 76 0 153
-0.366319 -0.441230 -0.007502 204 51 127
0.689047 0.438749 0.350653 76 0 153
0.273729 0.381276 0.432292 153 0 76
-0.414055 0.544865 0.334783 76 0 153
0.543347 -0.310083 -0.545423 76 0 153
0.319842 -0.441230 -0.088940 204 51 127
-0.355656 0.544865 0.226764 76 0 153
-0.677151 -0.480339 -0.200921 76 0 153
-0.732829 -0.195415 0.281972 76 0 153
0.154045 -0.480339 0.271347 76 0 153
0.689047 0.090218 0.434978 76 0 153
-0.390054 -0.325696 -0.545423 76 0 153
-0.732829 0.236174 0.445351 76 0 153
-0.732829 -0.285948 0.435421 76 0 153
0.186099 -0.441230 0.337636 204 51 127
-0.034793 0.544865 -0.208104 76 0 153
0.275950 0.161486 0.432292 204 51 127
0.140721 0.404529 -0.545423 76 0 153
0.153779 0.189582 0.432292 204 51 127
0.339649 -0.441230 -0.153854 204 51 127
0.588654 -0.207419 -0.545423 76 0 153
-0.732829 0.084625 -0.541879 76 0 153
0.487474 -0.480339 0.157880 76 0 153
-0.732829 0.427953 0.387478 76 0 153
0.689047 -0.325206 0.336970 76 0 153
-0.732829 0.515050 0.283292 76 0 153
0.307632 0.209729 -0.545423 76 0 153
-0.325896 0.227278 0.432292 204 51 127
-0.732829 -0.065416 0.134538 76 0 153
0.376284 -0.480339 0.194724 76 0 153
0.600725 0.544865 -0.206161 76 0 153
0.592287 -0.063017 0.527490 76 0 153
0.454742 0.018179 -0.545423 76 0 153
0.092458 0.544865 0.205738 76 0 153
0.277197 0.092179 0.432292 204 51 127
-0.532104 0.544865 0.058179 76 0 153
-0.008868 0.173160 0.432292 204 51 127
0.677679 -0.082465 -0.545423 76 0 153
0.046681 -0.480339 0.451171 76 0 153
-0.409479 0.544865 -0.412022 76 0 153
-0.526997 -0.047837 -0.545423 76 0 153
0.163347 -0.480339 0.131987 76 0 153
0.689047 0.288796 -0.261950 76 0 153
0.055185 -0.404767 0.479781 76 0 153
0.578572 -0.480339 0.450267 127 0 127
0.035917 0.544865 0.465420 76 0 153
-0.593574 0.544865 -0.144057 76 0 153
0.341135 -0.480339 0.093119 76 0 153
-0.732829 -0.413864 -0.513011 76 0 153
-0.258369 -0.480339 -0.467214 76 0 153
-0.126497 -0.480339 -0.234677 76 0 153
0.689047 0.475295 -0.411328 76 0 153
0.102255 0.544865 -0.223300 76 0 153
0.689047 -0.016813 0.303647 76 0 153
0.094337 -0.480339 -0.541847 76 0 153
0.652540 -0.480339 -0.101970 76 0 153
0.346272 0.079363 -0.545423 76 0 153
0.689047 0.304761 0.182430 76 0 153
0.011930 -0.480339 0.364686 76 0 153
0.689047 0.357453 -0.278738 76 0 153
-0.150835 0.544865 -0.321769 76 0 153
0.386068 -0.480339 -0.164585 76 0 153
-0.140027 -0.480339 -0.288105 76 0 153
-0.732829 0.453105 0.289112 76 0 153
0.099657 -0.441230 0.416713 204 51 127
-0.576515 0.173126 -0.545423 76 0 153
0.429540 0.544865 -0.079968 76 0 153
0.259722 -0.450438 0.479781 76 0 153
-0.732829 -0.429693 0.442482 76 0 153
0.014654 -0.351350 -0.545423 76 0 153
0.689047 -0.274859 -0.062082 76 0 153
0.680193 0.544865 -0.278534 76 0 153
-0.677928 0.544865 0.389216 76 0 153
-0.732829 -0.054366 -0.511464 76 0 153
-0.642747 0.544865 0.054298 76 0 153
0.631744 -0.050670 0.550592 0 0 255
-0.230195 0.388525 0.473013 153 0 76
-0.732829 0.422222 0.349252 76 0 153
-0.732829 0.019900 -0.420774 76 0 153
-0.062250 -0.480339 0.156973 76 0 153
0.324980 -0.267341 -0.545423 76 0 153
-0.314173 -0.480339 0.365697 76 0 153
-0.274264 -0.441230 -0.003612 204 51 127
0.319359 -0.229488 0.432292 204 51 127
0.094188 -0.268377 0.479781 153 0 76
0.415805 0.544865 -0.286800 76 0 153
-0.128652 0.271545 0.432292 204 51 127
-0.360978 -0.480339 -0.181223 76 0 153
-0.125111 -0.441230 0.389347 204 51 127
-0.519353 -0.176537 -0.545423 76 0 153
-0.044127 -0.400214 -0.545423 76 0 153
-0.213496 0.218240 -0.545423 76 0 153
0.689047 -0.012035 -0.302994 76 0 153
0.306494 -0.441230 -0.327330 204 51 127
0.689047 0.452608 0.407735 76 0 153
-0.055560 -0.259560 0.434913 204 51 127
-0.732829 0.080463 -0.154519 76 0 153
0.689047 0.349545 -0.386262 76 0 153
-0.020205 -0.441230 0.078442 204 51 127
0.114036 -0.480339 -0.135712 76 0 153
0.399308 -0.169044 0.432292 204 51 127
-0.626083 -0.480339 0.028619 76 0 153
0.227641 -0.441230 -0.158869 204 51 127
0.618894 0.334862 -0.545423 76 0 153
-0.732829 -0.094934 -0.156244 76 0 153
-0.732829 0.258833 0.079995 76 0 153
0.190363 -0.017754 -0.545423 76 0 153
-0.157467 -0.474896 -0.545423 76 0 153
0.268746 0.544865 0.131024 76 0 153
0.523583 0.441858 -0.545423 76 0 153
0.689047 -0.262399 0.401745 76 0 153
-0.714373 -0.180323 -0.545423 76 0 153
0.468449 0.544865 -0.396163 76 0 153
0.415345 -0.480339 0.114647 76 0 153
-0.093901 -0.441230 0.091279 204 51 127
0.022876 -0.480339 0.315115 76 0 153
-0.030670 -0.441230 -0.470232 204 51 127
0.344800 0.544865 -0.000639 76 0 153
-0.473174 0.544865 0.085313 76 0 153
-0.147139 -0.441230 -0.130947 204 51 127
-0.374254 0.544865 0.047431 76 0 153
0.613125 -0.480339 -0.031396 76 0 153
0.633678 0.420886 -0.545423 76 0 153
-0.732829 -0.390827 0.315699 76 0 153
-0.173711 0.434697 0.479781 153 0 76
-0.584976 -0.140465 0.449018 153 0 76
-0.732829 -0.219951 0.007171 76 0 153
-0.732829 -0.141210 -0.050575 76 0 153
0.571725 -0.480339 0.335933 76 0 153
0.084702 -0.480339 -0.263075 76 0 153
-0.140749 0.544865 -0.036981 76 0 153
-0.085109 -0.441230 -0.373514 204 51 127
0.131312 0.544865 -0.180509 76 0 153
-0.230446 -0.480339 0.251768 76 0 153
-0.073542 0.091752 -0.545423 76 0 153
-0.427092 -0.441230 -0.108241 204 51 127
0.386403 0.544865 0.077206 76 0 153
0.689047 0.527126 0.001092 76 0 153
0.689047 -0.480259 -0.299524 76 0 153
0.545860 -0.480339 -0.465932 76 0 153
0.656193 0.544865 -0.052604 76 0 153
-0.481895 -0.480339 -0.384958 76 0 153
0.689047 -0.192567 -0.302037 76 0 153
-0.124393 0.149120 -0.545423 76 0 153
-0.467106 0.544865 -0.410878 76 0 153
-0.592512 0.544865 -0.475875 76 0 153
0.395638 -0.092962 0.432292 204 51 127
-0.623951 0.544865 -0.371267 76 0 153
0.400476 -0.441230 -0.046187 204 51 127
0.386069 0.293736 -0.545423 76 0 153
-0.679479 0.544865 0.103378 76 0 153
0.494671 -0.382949 0.479781 76 0 153
0.205497 -0.296700 -0.545423 76 0 153
-0.723486 -0.480339 -0.149127 76 0 153
-0.732829 0.162854 0.148950 76 0 153
0.364491 0.232134 -0.545423 76 0 153
-0.032314 -0.480339 0.363991 76 0 153
-0.213981 -0.441230 -0.045505 204 51 127
0.215200 -0.441230 -0.435726 204 51 127
-0.535935 -0.097074 0.432292 204 51 127
0.089413 -0.441230 -0.171835 204 51 127
0.197233 0.336890 -0.545423 76 0 153
-0.636578 -0.028357 -0.545423 76 0 153
-0.141878 0.544865 0.097524 76 0 153
0.311595 -0.308115 0.479781 153 0 76
-0.469706 0.544865 -0.536395 76 0 153
0.410560 -0.480339 -0.367326 76 0 153
-0.381247 -0.226458 0.432292 204 51 127
-0.270951 -0.441230 -0.189030 204 51 127
0.413595 -0.253101 -0.545423 76 0 153
-0.732829 0.181726 0.225570 76 0 153
-0.177255 0.101276 -0.545423 76 0 153
-0.660506 0.544865 -0.538171 76 0 153
-0.732829 0.223547 -0.032180 76 0 153
-0.433146 -0.480339 0.447163 76 0 153
-0.100439 0.544865 0.162570 76 0 153
-0.732829 -0.478367 -0.461653 76 0 153
0.498239 -0.480339 0.459005 76 0 153
-0.688547 0.544865 -0.351615 76 0 153
0.141612 0.446929 -0.545423 76 0 153
-0.264051 0.207606 0.432292 204 51 127
0.254527 -0.106259 0.432292 204 51 127
0.589196 0.544865 -0.051682 76 0 153
0.660774 0.269134 0.527270 76 0 153
0.170572 -0.480339 -0.053450 76 0 153
-0.177041 -0.283029 -0.545423 76 0 153
0.237871 0.544865 0.080614 76 0 153
-0.687473 -0.480339 0.104041 76 0 153
0.689047 -0.036796 -0.114874 76 0 153
0.654328 -0.297462 0.479781 76 0 153
0.689047 -0.389783 0.384507 76 0 153
-0.015051 0.507494 -0.545423 76 0 153
0.125057 0.544865 -0.261167 76 0 153
-0.100261 0.544865 -0.447696 76 0 153
0.499063 -0.480339 -0.064748 76 0 153
0.370424 0.419575 0.479781 153 0 76
-0.076600 -0.480339 -0.169480 76 0 153
0.377590 0.191367 0.432292 204 51 127
-0.401462 0.464939 -0.545423 76 0 153
0.607942 0.544865 0.449427 76 0 153
-0.045628 -0.480339 0.318826 76 0 153
0.662315 0.147173 -0.545423 76 0 153
0.507957 0.544865 -0.307243 76 0 153
-0.021933 -0.336691 0.479781 153 0 76
0.689047 0.282986 -0.467906 76 0 153
-0.364512 -0.441230 0.120020 204 51 127
0.501729 0.043930 0.502321 76 0 153
0.686194 0.357397 0.479781 76 0 153
-0.732829 0.266227 -0.134778 76 0 153
-0.676484 0.487774 0.479781 76 0 153
-0.732829 0.209374 -0.360855 76 0 153
-0.266681 0.544865 -0.050553 76 0 153
0.033339 -0.441230 -0.038860 76 0 153
0.689047 -0.291286 0.042867 76 0 153
0.163359 -0.223137 0.432292 204 51 127
-0.732829 -0.042757 0.359922 76 0 153
0.689047 0.144907 -0.078166 76 0 153
-0.216905 0.544865 0.066257 76 0 153
0.111961 -0.144794 0.432292 204 51 127
-0.129992 0.348484 0.432292 204 51 127
0.578685 0.150718 0.527270 76 0 153
0.689047 0.042039 -0.025213 76 0 153
-0.732829 0.112531 0.129975 76 0 153
0.619045 -0.129464 -0.545423 76 0 153
0.255462 0.465541 0.479781 76 0 153
-0.365895 -0.480339 -0.503616 76 0 153
-0.162897 -0.480339 0.117344 76 0 153
0.460375 -0.480339 0.358201 76 0 153
0.429370 -0.480339 0.253635 76 0 153
-0.485816 -0.287275 0.479781 153 0 76
0.389265 0.544865 -0.458475 76 0 153
0.047241 -0.441230 -0.406011 204 51 127
0.689047 -0.389731 -0.160798 76 0 153
0.689047 0.186815 -0.140326 76 0 153
-0.319132 -0.480339 -0.046696 76 0 153
0.689047 -0.196203 0.377755 76 0 153
-0.376008 0.544865 0.440742 76 0 153
0.224600 0.118249 0.432292 204 51 127
0.358695 0.354015 -0.545423 76 0 153
-0.168459 0.213654 -0.545423 76 0 153
0.689047 -0.180494 0.254999 76 0 153
0.403688 -0.480339 0.068333 76 0 153
0.689047 0.242838 0.000222 76 0 153
-0.508905 -0.480339 -0.111133 76 0 153
-0.456976 -0.480339 0.234706 76 0 153
-0.616467 -0.489654 0.455088 76 0 153
0.501729 0.323312 0.490768 76 0 153
0.689047 0.407970 0.447438 76 0 153
-0.406581 0.027190 -0.545423 76 0 153
-0.066280 -0.441230 -0.117723 76 0 153
0.689047 0.058711 0.294661 76 0 153
0.531172 -0.480339 0.446286 76 0 153
-0.460836 -0.124988 0.432292 204 51 127
0.557599 -0.129027 0.527270 76 0 153
-0.597509 0.414306 -0.545423 76 0 153
0.013347 0.544865 -0.071904 76 0 153
0.060718 -0.441230 0.196605 204 51 127
0.613949 -0.273859 0.515933 76 0 153
0.689047 -0.253656 -0.193251 76 0 153
-0.434860 0.544865 -0.129273 76 0 153
-0.152924 -0.480339 -0.067694 76 0 153
-0.566635 0.544865 0.357177 76 0 153
0.635353 0.336645 0.527270 153 0 76
-0.732829 0.172488 -0.389255 76 0 153
0.689047 -0.018309 0.463540 76 0 153
0.545435 0.544865 0.309869 76 0 153
-0.250784 0.334339 -0.545423 76 0 153
-0.732829 0.041214 -0.270050 76 0 153
-0.075815 0.544865 -0.240051 76 0 153
0.174205 -0.259560 0.471890 153 0 76
-0.079298 -0.441230 0.125269 204 51 127
-0.283707 -0.441230 0.215053 204 51 127
0.539532 -0.441793 0.479781 76 0 153
0.689047 0.217967 -0.094681 76 0 153
0.172590 -0.408195 -0.545423 76 0 153
-0.033883 0.544865 -0.518727 76 0 153
0.689047 0.238321 -0.388016 76 0 153
-0.526436 0.544865 -0.440046 76 0 153
-0.005423 -0.480339 -0.258501 76 0 153
-0.425626 -0.397804 0.479781 76 0 153
-0.732829 0.292754 -0.008630 76 0 153
0.656599 -0.480339 -0.375321 76 0 153
0.511401 0.047888 -0.545423 76 0 153
-0.216015 0.544865 0.155004 76 0 153
-0.561534 0.367900 -0.545423 76 0 153
-0.578435 -0.480339 0.183048 76 0 153
0.634616 -0.480339 -0.521180 76 0 153
-0.196349 0.544865 0.422423 76 0 153
0.070687 -0.480339 0.372224 76 0 153
0.581574 0.225969 0.532094 0 255 0
-0.732829 0.363090 0.394714 76 0 153
-0.709574 -0.480339 -0.056230 76 0 153
-0.314319 -0.441230 -0.027979 204 51 127
0.320040 -0.138128 -0.545423 76 0 153
-0.419009 0.097445 -0.545423 76 0 153
0.689047 -0.449785 0.319577 76 0 153
-0.475481 0.012599 -0.545423 76 0 153
0.176026 0.544865 -0.377074 76 0 153
-0.551694 -0.480339 0.114945 76 0 153
0.532124 -0.480339 -0.128191 76 0 153
0.059715 -0.441230 -0.482321 204 51 127
-0.732829 0.346557 -0.131928 76 0 153
-0.241765 0.544865 0.105139 76 0 153
0.038429 -0.441230 -0.228278 204 51 127
0.640884 -0.258526 -0.545423 76 0 153
0.689047 -0.253893 -0.277521 76 0 153
0.435577 -0.480339 -0.050300 76 0 153
-0.125297 0.388525 0.464715 153 0 76
0.689047 0.061047 -0.201795 76 0 153
-0.643961 0.152152 -0.545423 76 0 153
-0.732829 -0.323744 -0.357434 76 0 153
0.670708 -0.480339 0.032626 76 0 153
0.213677 -0.441230 0.232667 204 51 127
0.421583 0.404756 0.479781 153 0 76
-0.076562 -0.441230 -0.074746 76 0 153
0.689047 0.458889 -0.537378 76 0 153
-0.552833 -0.238039 -0.545423 76 0 153
0.119435 0.544865 0.403827 76 0 153
-0.732829 -0.111625 -0.233783 76 0 153
-0.732829 0.507423 0.459863 76 0 153
0.689047 -0.369488 -0.110831 76 0 153
0.689047 -0.232199 -0.007030 76 0 153
-0.196491 0.111150 0.432292 204 51 127
0.689047 -0.271018 -0.130430 76 0 153
-0.732829 0.248371 -0.068758 76 0 153
0.263359 0.543491 0.479781 76 0 153
0.152092 -0.480339 -0.214312 76 0 153
0.614235 -0.429375 0.479781 76 0 153
-0.732829 -0.454820 -0.397081 76 0 153
0.412900 0.544865 -0.164840 76 0 153
-0.732829 0.498598 -0.502564 76 0 153
-0.536479 0.217168 -0.545423 76 0 153
0.157910 -0.038026 0.432292 204 51 127
0.384888 -0.202581 0.432292 204 51 127
-0.268835 -0.480339 0.153304 76 0 153
-0.663154 -0.295389 0.479781 76 0 153
0.088538 -0.480339 -0.304345 76 0 153
0.574511 -0.290127 -0.545423 76 0 153
0.386427 0.148511 -0.545423 76 0 153
0.328728 -0.108266 0.432292 204 51 127
-0.406855 -0.441230 -0.180132 204 51 127
-0.687578 -0.246652 -0.545423 76 0 153
0.689047 0.286310 -0.096897 76 0 153
-0.732829 0.044014 -0.371687 76 0 153
0.021531 -0.288826 0.479781 153 0 76
-0.732829 0.173500 0.027955 76 0 153
0.569613 0.360125 -0.545423 76 0 153
-0.732829 0.476391 0.217222 76 0 153
-0.271108 -0.416313 -0.545423 76 0 153
0.689047 -0.297893 0.436873 76 0 153
0.394278 0.022635 0.432292 204 51 127
0.507465 -0.452269 -0.545423 76 0 153
0.279883 0.544865 0.308133 76 0 153
-0.214961 -0.480339 -0.268081 76 0 153
-0.294959 -0.480339 0.029910 76 0 153
0.204330 -0.480339 0.231352 76 0 153
-0.514304 0.544865 0.183041 76 0 153
0.552989 0.538860 -0.545423 76 0 153
-0.434706 0.544865 -0.336326 76 0 153
0.689047 0.502585 0.049061 76 0 153
0.169247 0.289657 0.432292 204 51 127
0.464342 -0.441727 0.479781 76 0 153
-0.732829 -0.217851 -0.424287 76 0 153
-0.107676 -0.184008 0.432292 204 51 127
-0.732829 0.423840 0.123637 76 0 153
-0.461365 -0.480339 0.304838 76 0 153
-0.645046 0.544865 0.325530 76 0 153
-0.305214 -0.441230 0.132190 204 51 127
-0.418396 -0.006664 -0.545423 76 0 153
-0.576338 0.544865 0.433954 76 0 153
-0.608368 -0.480339 -0.220311 76 0 153
0.369222 -0.315466 -0.545423 76 0 153
0.451017 -0.441230 0.115470 204 51 127
0.529998 -0.358816 0.479781 76 0 153
0.396761 0.311758 0.432292 204 51 127
-0.732829 0.374217 0.135451 76 0 153
0.239465 -0.480339 0.169681 76 0 153
0.489156 -0.480339 -0.305593 76 0 153
-0.732829 -0.040251 0.024347 76 0 153
-0.116737 -0.480339 -0.390877 76 0 153
0.620081 0.544865 -0.072541 76 0 153
0.031489 0.544865 -0.463371 76 0 153
-0.098856 -0.441230 -0.322359 204 51 127
0.382386 -0.480339 -0.271102 76 0 153
0.601744 0.544865 -0.449495 76 0 153
-0.544816 0.544865 -0.356325 76 0 153
0.664575 -0.480339 -0.154751 76 0 153
0.321732 -0.480339 0.452245 76 0 153
0.302134 -0.237158 -0.545423 76 0 153
-0.571818 -0.310216 -0.545423 76 0 153
-0.732829 -0.466230 -0.272852 76 0 153
-0.583892 -0.145283 -0.545423 76 0 153
0.689047 0.304240 0.057759 76 0 153
0.633896 -0.195816 -0.545423 76 0 153
0.689047 0.429525 -0.029151 76 0 153
-0.057280 0.544865 0.385048 76 0 153
0.689047 0.123982 -0.198221 76 0 153
0.236189 0.482940 -0.545423 76 0 153
0.689047 0.474277 0.271477 76 0 153
0.283944 -0.480339 -0.375197 76 0 153
0.393442 0.067787 0.432292 204 51 127
-0.670458 -0.480339 -0.404575 76 0 153
-0.584976 0.115998 0.447996 153 0 76
0.518444 -0.480339 -0.197720 76 0 153
0.191738 0.544865 0.233801 76 0 153
-0.225302 0.544865 -0.288395 76 0 153
-0.732829 0.488634 -0.350545 76 0 153
0.689047 0.114003 -0.050433 76 0 153
0.380412 0.544865 0.144708 76 0 153
-0.507495 0.544865 -0.508420 76 0 153
0.120199 -0.480339 0.067062 76 0 153
0.391190 0.012625 -0.545423 76 0 153
0.251278 -0.480339 -0.141267 76 0 153
0.382969 -0.441230 0.021444 204 51 127
0.315643 -0.454198 0.479781 76 0 153
-0.732829 0.050840 -0.068057 76 0 153
-0.586476 0.321267 -0.545423 76 0 153
-0.201453 -0.327881 0.479781 153 0 76
-0.551196 -0.480339 -0.255184 76 0 153
-0.084767 -0.441230 0.335042 204 51 127
-0.332159 -0.480339 0.153391 76 0 153
-0.675874 -0.480339 0.411303 76 0 153
-0.229417 -0.230411 0.432292 204 51 127
-0.086418 0.544865 -0.008034 76 0 153
-0.732829 -0.464918 0.277279 76 0 153
-0.483985 0.425454 -0.545423 76 0 153
-0.307632 0.544128 -0.545423 76 0 153
0.082764 0.155094 -0.545423 76 0 153
0.689047 0.286595 -0.332904 76 0 153
0.689047 -0.192342 -0.173269 76 0 153
-0.078528 -0.170329 -0.545423 76 0 153
0.603118 -0.480339 0.277446 76 0 153
0.689047 -0.136722 -0.190185 76 0 153
0.388708 -0.381584 0.479781 76 0 153
-0.488529 -0.054401 0.432292 204 51 127
0.689047 0.402312 0.171315 76 0 153
0.129451 0.243475 0.432292 204 51 127
-0.582989 0.021391 0.432292 204 51 127
-0.628707 0.430308 -0.545423 76 0 153
-0.099496 0.544865 -0.088716 76 0 153
0.689047 -0.217386 0.330394 76 0 153
-0.584976 0.048491 0.477687 153 0 76
0.024133 0.330533 -0.545423 76 0 153
0.093427 0.544865 0.342362 76 0 153
0.247169 -0.441230 -0.235652 204 51 127
-0.732829 0.182174 0.096122 76 0 153
-0.404567 -0.480339 -0.443373 76 0 153
0.224074 -0.480339 -0.393125 76 0 153
0.689047 -0.369047 0.011463 76 0 153
0.356349 -0.117319 -0.545423 76 0 153
-0.035714 -0.441230 -0.329171 204 51 127
0.005753 -0.457161 0.479781 76 0 153
0.689047 -0.279271 0.181113 76 0 153
0.596104 0.519176 0.479781 76 0 153
0.337601 -0.480339 -0.323005 76 0 153
0.245970 0.273645 0.432292 204 51 127
0.199381 -0.480339 -0.345257 76 0 153
-0.732829 -0.040387 0.079463 76 0 153
0.249832 -0.480339 0.034869 76 0 153
0.689047 0.048215 -0.464561 76 0 153
0.575735 -0.273859 0.482741 76 0 153
-0.139859 0.544865 0.257332 76 0 153
-0.084534 -0.480339 0.044815 76 0 153
0.466540 -0.480339 0.110715 76 0 153
0.689047 0.039241 0.151476 76 0 153
-0.324486 -0.480339 -0.222250 76 0 153
0.689047 -0.359002 -0.229366 76 0 153
0.689047 0.300263 0.294320 76 0 153
-0.064776 -0.041167 0.432292 204 51 127
0.689047 -0.350451 0.183338 76 0 153
-0.219073 -0.441230 0.012275 204 51 127
0.599994 -0.480339 0.406781 76 0 153
-0.328830 0.544865 -0.318088 76 0 153
0.199971 0.544865 0.109551 76 0 153
-0.615018 -0.480339 -0.368323 76 0 153
-0.298902 -0.214663 0.432292 204 51 127
-0.447521 0.387718 -0.545423 76 0 153
0.689047 -0.103340 0.177234 76 0 153
0.469060 -0.480339 0.056886 76 0 153
0.689047 0.072890 0.000657 76 0 153
0.189397 0.544865 0.400567 76 0 153
-0.587162 0.544865 -0.279840 76 0 153
-0.519884 -0.259560 0.436003 204 51 127
-0.083532 -0.480339 -0.288593 76 0 153
-0.732829 0.403453 -0.161272 76 0 153
-0.645884 -0.480339 0.165933 76 0 153
0.056903 -0.441230 0.298521 204 51 127
-0.691315 -0.480339 0.354038 76 0 153
0.689047 0.535947 -0.210792 76 0 153
0.689047 -0.323547 0.152298 76 0 153
0.109871 -0.441230 -0.275494 204 51 127
-0.164656 0.544865 -0.480931 76 0 153
-0.167553 -0.480339 -0.175140 76 0 153
-0.627457 -0.480339 -0.189713 76 0 153
-0.732829 -0.306854 0.381589 76 0 153
-0.386822 -0.480339 0.105135 76 0 153
-0.085246 0.544865 0.255551 76 0 153
0.231976 0.049195 0.432292 204 51 127
-0.420646 -0.441230 0.090175 204 51 127
-0.727054 -0.480339 -0.107305 76 0 153
0.689047 0.146378 -0.000897 76 0 153
-0.635070 -0.064862 -0.545423 76 0 153
0.475629 0.125017 0.479781 76 0 153
0.689047 -0.201961 -0.037531 76 0 153
-0.581278 -0.016856 -0.545423 76 0 153
-0.732829 -0.398407 0.377672 76 0 153
0.689047 -0.015446 -0.464917 76 0 153
0.689047 -0.306702 -0.268776 76 0 153
0.689047 -0.438095 -0.096718 76 0 153
0.003447 0.544865 -0.352637 76 0 153
0.210929 0.344358 0.432292 204 51 127
-0.252066 0.122354 -0.545423 76 0 153
-0.732829 -0.167730 -0.474721 76 0 153
0.185761 -0.185440 -0.545423 76 0 153
0.177301 0.544865 0.440488 76 0 153
0.240705 -0.480339 -0.516862 76 0 153
0.689047 0.418388 -0.228868 76 0 153
0.232912 -0.259560 0.446956 153 0 76
0.689047 -0.407082 0.122760 76 0 153
-0.111011 0.233818 -0.545423 76 0 153
0.582725 -0.480339 -0.179408 76 0 153
-0.013491 0.388525 0.457892 153 0 76
0.075235 0.544865 -0.065825 76 0 153
-0.732829 0.355325 -0.025267 76 0 153
0.563034 0.544865 0.084909 76 0 153
-0.619880 0.544865 0.377492 76 0 153
0.427859 -0.480339 -0.207882 76 0 153
0.689047 -0.044833 0.054136 76 0 153
0.689047 -0.075972 -0.223805 76 0 153
-0.732829 -0.233044 0.479611 76 0 153
-0.220770 0.178969 0.432292 204 51 127
0.689047 -0.155688 0.359812 76 0 153
-0.471274 0.180450 0.432292 204 51 127
-0.583894 0.544865 -0.199467 76 0 153
0.316668 -0.480339 0.222681 76 0 153
0.689047 -0.166531 0.029848 76 0 153
-0.732829 -0.270774 0.364754 76 0 153
0.465628 -0.327133 0.479781 153 0 76
-0.267977 0.544865 -0.348744 76 0 153
0.297228 -0.388463 0.479781 76 0 153
-0.607768 -0.480339 -0.075793 76 0 153
-0.057152 -0.480339 0.097381 76 0 153
0.370798 -0.480339 0.270187 76 0 153
-0.704502 0.544009 0.479781 76 0 153
-0.496295 0.544865 0.433342 76 0 153
-0.495621 -0.480339 -0.037621 76 0 153
-0.732829 -0.345984 -0.476631 76 0 153
-0.408703 -0.091714 0.432292 204 51 127
0.062021 0.385613 -0.545423 76 0 153
-0.226929 0.544865 0.278438 76 0 153
0.689047 0.401497 -0.513218 76 0 153
0.306089 -0.480339 0.150309 76 0 153
0.200933 0.075757 0.432292 204 51 127
-0.732829 -0.270753 -0.246091 76 0 153
0.519811 0.544865 0.180751 76 0 153
-0.594538 -0.480339 0.134015 76 0 153
-0.246602 0.544865 0.321311 76 0 153
-0.571287 -0.449011 0.479781 76 0 153
-0.732829 0.109033 -0.481807 76 0 153
0.499048 -0.480339 -0.473720 76 0 153
0.689047 -0.198603 -0.515746 76 0 153
-0.639913 0.205819 -0.545423 76 0 153
0.434604 -0.263529 0.479781 153 0 76
0.099140 -0.480339 0.296148 76 0 153
-0.584154 0.212096 -0.545423 76 0 153
0.689047 0.218762 0.234345 76 0 153
-0.411158 0.544865 0.040539 76 0 153
-0.732829 -0.340744 0.094776 76 0 153
-0.553045 -0.480339 0.458067 76 0 153
0.282182 -0.480339 0.310661 76 0 153
-0.015491 -0.441230 0.029744 76 0 153
0.341533 0.386569 -0.545423 76 0 153
0.689047 -0.127493 -0.122636 76 0 153
-0.732829 0.504210 0.338733 76 0 153
0.203748 0.544865 -0.009078 76 0 153
-0.515643 -0.002430 -0.545423 76 0 153
0.616823 0.544865 -0.399802 76 0 153
-0.404250 -0.480339 0.051386 76 0 153
-0.096850 -0.441230 -0.440649 204 51 127
0.123182 -0.140460 -0.545423 76 0 153
0.345666 -0.480339 0.334310 76 0 153
0.689047 0.267381 0.278321 76 0 153
0.689047 -0.408769 -0.411580 76 0 153
-0.732829 0.212409 0.032086 76 0 153
0.689047 -0.405930 0.440561 76 0 153
0.357983 0.544865 -0.073199 76 0 153
-0.344534 -0.441230 0.202732 204 51 127
0.256353 -0.179065 -0.545423 76 0 153
-0.732829 0.455208 0.335354 76 0 153
0.032918 -0.462985 -0.171589 76 0 153
0.428773 0.544865 -0.010612 76 0 153
-0.341579 0.388525 0.451195 153 0 76
0.412899 0.544865 0.364351 76 0 153
0.112567 0.219782 -0.545423 76 0 153
-0.732829 -0.051841 -0.122612 76 0 153
-0.658825 -0.366940 -0.545423 76 0 153
-0.094253 -0.392694 0.479781 76 0 153
-0.436532 0.205958 0.432292 204 51 127
0.435475 0.339053 0.479781 153 0 76
-0.467691 -0.049747 -0.545423 76 0 153
0.505096 -0.480339 0.339879 76 0 153
-0.106614 -0.441230 -0.268248 204 51 127
-0.732829 -0.007222 -0.101450 76 0 153
0.330641 -0.480339 -0.063865 76 0 153
0.117724 -0.441230 0.300180 204 51 127
-0.732829 0.127269 -0.419100 76 0 153
0.561933 0.544865 -0.253210 76 0 153
-0.732829 0.191976 -0.094940 76 0 153
0.079111 -0.480339 -0.442711 76 0 153
0.689047 -0.265114 -0.321557 76 0 153
-0.640274 -0.480339 0.349198 76 0 153
-0.501452 -0.107527 -0.545423 76 0 153
0.202266 -0.441230 -0.276892 204 51 127
0.105407 0.410553 -0.545423 76 0 153
0.572625 0.392822 0.504922 76 0 153
0.618152 0.449730 0.504922 76 0 153
-0.136829 0.544865 0.395807 76 0 153
0.545180 0.323168 -0.545423 76 0 153
-0.265236 -0.480339 -0.377503 76 0 153
-0.389674 -0.480339 -0.147628 76 0 153
-0.095665 -0.449152 -0.545423 76 0 153
0.493135 0.544865 0.074496 76 0 153
-0.379848 0.544865 -0.013257 76 0 153
0.464196 0.544865 -0.026549 76 0 153
-0.630082 -0.483529 -0.434954 76 153 0
-0.576204 -0.480339 0.386451 76 0 153
-0.376947 -0.299774 0.479781 153 0 76
-0.220779 -0.441230 0.084773 204 51 127
-0.385654 0.242544 0.432292 204 51 127
-0.276824 -0.480339 0.314405 76 0 153
-0.732829 -0.202142 -0.230513 76 0 153
0.048562 -0.139960 0.432292 204 51 127
-0.732829 -0.070752 -0.292113 76 0 153
0.422778 0.486303 -0.545423 76 0 153
0.278143 0.544865 -0.517113 76 0 153
-0.265870 -0.441230 -0.266766 204 51 127
0.503578 0.017678 0.527270 76 0 153
0.689047 -0.008855 -0.233915 76 0 153
-0.193767 -0.002962 -0.545423 76 0 153
-0.732829 -0.426203 0.056963 76 0 153
0.689047 0.477112 0.090512 76 0 153
-0.001838 0.049951 -0.545423 76 0 153
0.689047 0.486056 -0.485758 76 0 153
0.374786 0.544865 -0.490917 76 0 153
0.689047 -0.174468 0.151924 76 0 153
0.260899 0.191926 0.432292 204 51 127
0.689047 -0.272208 -0.545286 76 0 153
0.689047 -0.456728 0.404481 76 0 153
-0.642169 0.544865 0.261742 76 0 153
-0.732829 -0.335390 0.344764 76 0 153
0.185151 -0.480339 0.060395 76 0 153
0.011536 -0.480339 -0.475306 76 0 153
0.223108 -0.066273 0.432292 204 51 127
-0.083162 -0.480339 -0.135637 76 0 153
-0.732829 0.076235 0.172440 76 0 153
0.639715 0.040088 0.537833 0 0 255
0.021906 0.544865 0.124235 76 0 153
-0.722609 -0.018248 0.479781 76 0 153
-0.684284 0.476537 -0.545423 76 0 153
-0.528884 -0.347227 0.479781 153 0 76
0.021307 0.448981 -0.545423 76 0 153
-0.732829 -0.320940 -0.409565 76 0 153
-0.281199 -0.238514 -0.545423 76 0 153
0.325929 -0.480339 -0.108081 76 0 153
0.689047 0.077711 -0.111569 76 0 153
-0.085079 0.079721 0.432292 204 51 127
0.522857 0.185213 -0.545423 76 0 153
0.122402 -0.480339 0.427305 76 0 153
-0.079208 0.544865 0.321468 76 0 153
0.362134 0.544865 0.359383 76 0 153
0.689047 -0.425397 -0.511765 76 0 153
0.689047 0.489171 -0.077709 76 0 153
0.689047 0.164937 0.202388 76 0 153
-0.033850 0.366651 0.432292 204 51 127
-0.732829 -0.058023 -0.053954 76 0 153
0.369470 -0.124120 0.432292 204 51 127
-0.200999 -0.441230 0.252063 204 51 127
-0.016218 -0.480339 0.430928 76 0 153
0.076485 0.544865 -0.131360 76 0 153
0.689047 -0.089811 0.389920 76 0 153
-0.732829 0.463359 0.401834 76 0 153
-0.700441 -0.438626 -0.545423 76 0 153
-0.535003 0.316181 0.432292 204 51 127
0.368087 -0.480339 0.449658 76 0 153
0.624467 -0.494306 -0.450708 0 127 127
0.055598 0.473560 0.479781 76 0 153
0.689047 0.083043 -0.068154 76 0 153
0.409708 -0.480339 0.372025 76 0 153
0.689047 -0.026380 -0.204100 76 0 153
0.244099 0.544865 -0.089753 76 0 153
0.499289 0.544865 -0.367937 76 0 153
0.554562 0.544865 0.383962 76 0 153
-0.732829 0.155840 0.368349 76 0 153
0.536872 0.544865 0.456448 76 0 153
0.689047 -0.461888 0.220239 76 0 153
0.173794 0.508510 -0.545423 76 0 153
0.221734 -0.441230 -0.386002 204 51 127
-0.369205 0.544865 -0.193072 76 0 153
-0.732829 -0.406715 0.114146 76 0 153
-0.732829 -0.378862 -0.218728 76 0 153
0.689047 0.010064 0.023161 76 0 153
0.148492 0.544865 0.173021 76 0 153
-0.685726 -0.317328 -0.545423 76 0 153
-0.490860 0.544865 0.057173 76 0 153
-0.732829 0.466194 -0.184177 76 0 153
-0.286898 -0.441230 -0.325808 204 51 127
-0.104858 -0.441230 0.211517 204 51 127
0.027400 -0.480339 0.200348 76 0 153
0.074298 0.544865 -0.022998 76 0 153
0.689047 0.164421 0.424063 76 0 153
-0.659936 -0.344100 0.479781 76 0 153
-0.302908 -0.302374 -0.545423 76 0 153
-0.253115 -0.480339 0.119776 76 0 153
-0.141012 0.084128 0.432292 204 51 127
0.473973 -0.480339 -0.373219 76 0 153
0.451857 0.544865 -0.456392 76 0 153
0.476044 -0.144782 -0.545423 76 0 153
-0.130343 -0.441230 0.082571 204 51 127
-0.235730 -0.193219 -0.545423 76 0 153
-0.732829 0.343202 0.195026 76 0 153
-0.209310 0.544865 -0.081569 76 0 153
-0.732829 0.423015 -0.518234 76 0 153
-0.307930 -0.480339 -0.430861 76 0 153
-0.732829 0.193385 -0.438884 76 0 153
-0.732829 -0.282929 0.135011 76 0 153
0.214404 0.544865 -0.320816 76 0 153
0.132998 -0.480339 -0.325386 76 0 153
0.095867 0.416849 0.479781 153 0 76
0.152892 -0.441230 -0.185178 204 51 127
0.615553 0.544865 0.255278 76 0 153
0.212894 0.237261 0.432292 204 51 127
0.588301 0.474993 -0.545423 76 0 153
0.390146 -0.441230 0.228192 204 51 127
-0.040675 0.544865 -0.280169 76 0 153
-0.450473 0.544865 0.316830 76 0 153
0.271671 -0.480339 -0.326522 76 0 153
-0.403198 0.367522 0.432292 204 51 127
-0.438007 -0.078788 -0.545423 76 0 153
-0.497109 0.544865 0.211331 76 0 153
-0.350068 -0.256294 -0.545423 76 0 153
0.689047 0.126409 -0.266717 76 0 153
0.092740 -0.441230 0.248207 204 51 127
-0.333873 0.250658 -0.545423 76 0 153
-0.732829 0.277349 0.203391 76 0 153
-0.508248 -0.075070 -0.545423 76 0 153
-0.467933 -0.258548 0.432292 204 51 127
-0.732829 0.514544 -0.052335 76 0 153
0.305992 0.068036 -0.545423 76 0 153
0.689047 -0.107247 0.244034 76 0 153
0.689047 -0.320111 -0.309972 76 0 153
-0.732829 0.267032 0.150075 76 0 153
-0.732829 -0.461705 -0.319483 76 0 153
-0.256561 -0.441230 -0.062370 204 51 127
-0.732829 -0.463809 -0.204553 76 0 153
0.324086 0.544865 -0.212690 76 0 153
0.689047 0.098336 -0.510788 76 0 153
-0.466044 0.007590 0.432292 204 51 127
0.241257 -0.480339 0.350090 76 0 153
0.689047 0.188965 0.041209 76 0 153
-0.220408 0.397423 -0.545423 76 0 153
-0.285604 0.544865 -0.257299 76 0 153
-0.732829 0.339970 -0.254027 76 0 153
0.022459 -0.480339 -0.543783 76 0 153
0.008094 0.544865 -0.234676 76 0 153
0.472550 -0.267703 0.479781 153 0 76
0.336195 0.088663 0.432292 204 51 127
0.398505 0.133302 0.432292 204 51 127
-0.732829 -0.454217 -0.043387 76 0 153
-0.732829 -0.368672 0.045977 76 0 153
0.060891 -0.252968 0.432292 153 0 76
-0.178977 -0.480339 -0.360345 76 0 153
-0.430547 -0.480339 -0.404624 76 0 153
-0.028634 -0.224885 -0.545423 76 0 153
-0.482162 0.264192 -0.545423 76 0 153
-0.519176 -0.480339 0.352819 76 0 153
-0.116797 -0.480339 -0.001308 76 0 153
-0.478058 0.544865 -0.232840 76 0 153
0.473481 -0.003047 0.479781 76 0 153
0.588313 0.544865 0.273839 76 0 153
0.609774 -0.309897 0.479781 76 0 153
0.151669 0.291477 -0.545423 76 0 153
0.429191 0.259960 -0.545423 76 0 153
-0.536533 0.544865 0.459727 76 0 153
0.689047 -0.084866 -0.063274 76 0 153
0.609483 -0.022795 -0.545423 76 0 153
0.121902 0.177349 -0.545423 76 0 153
0.689047 0.396285 0.021166 76 0 153
-0.068478 0.386690 0.432292 204 51 127
-0.282010 -0.480339 0.348161 76 0 153
-0.084050 0.518154 -0.545423 76 0 153
-0.277141 -0.480339 0.479355 76 0 153
-0.571450 -0.480339 -0.156789 76 0 153
0.409995 0.544865 0.219382 76 0 153
0.571805 0.241581 -0.545423 76 0 153
-0.366363 -0.267246 0.479781 153 0 76
-0.732829 0.058941 -0.203755 76 0 153
-0.732829 -0.356019 -0.418452 76 0 153
-0.411390 -0.058634 -0.545423 76 0 153
-0.027311 0.148501 -0.545423 76 0 153
0.188586 -0.480339 -0.456208 76 0 153
-0.509491 0.190274 -0.545423 76 0 153
-0.732829 0.288479 -0.172179 76 0 153
-0.105709 -0.441230 -0.002965 204 51 127
0.178155 0.029130 -0.545423 76 0 153
0.467563 0.358891 0.479781 153 0 76
-0.732829 -0.385869 0.173983 76 0 153
0.629827 -0.207801 0.527270 76 0 153
0.651870 -0.480339 0.087286 76 0 153
0.314340 -0.441230 0.265776 204 51 127
-0.545546 0.544865 -0.240589 76 0 153
0.468718 0.216101 -0.545423 76 0 153
0.689047 0.205972 0.159343 76 0 153
0.258871 0.119415 0.432292 204 51 127
0.689047 -0.388296 0.172145 76 0 153
0.197556 -0.417807 0.479781 76 0 153
-0.670792 0.544865 0.459420 76 0 153
-0.360392 -0.441230 -0.069491 204 51 127
0.062043 -0.441230 0.359682 204 51 127
0.150673 -0.441230 -0.066009 204 51 127
0.049910 0.010507 0.432292 204 51 127
-0.037686 -0.259560 0.466150 153 0 76
0.501729 0.396737 0.500335 76 0 153
-0.311300 0.469930 -0.545423 76 0 153
-0.203121 -0.307290 -0.545423 76 0 153
0.689047 0.249207 -0.516730 76 0 153
-0.236810 -0.120986 -0.545423 76 0 153
-0.550744 0.544865 0.186256 76 0 153
0.177763 0.199299 -0.545423 76 0 153
-0.431292 -0.273309 0.479781 153 0 76
-0.496855 0.122875 0.432292 204 51 127
0.689047 -0.256533 0.346633 76 0 153
0.689047 -0.384212 0.346004 76 0 153
0.662359 -0.439318 -0.545423 76 0 153
-0.525824 -0.064269 0.432292 204 51 127
0.342064 -0.441230 -0.029787 204 51 127
0.298411 -0.441230 0.329039 204 51 127
-0.454863 -0.480339 -0.336880 76 0 153
0.361776 0.544865 -0.430540 76 0 153
-0.732829 0.198891 0.401633 76 0 153
-0.676851 -0.231121 0.479781 76 0 153
0.689047 0.082284 -0.316052 76 0 153
0.246188 0.544865 0.232161 76 0 153
-0.011571 -0.070509 0.432292 204 51 127
-0.667495 -0.480339 -0.262517 76 0 153
0.603517 -0.347060 -0.545423 76 0 153
-0.383831 -0.023030 0.432292 204 51 127
-0.732829 0.388835 0.332918 76 0 153
0.689047 -0.216200 0.125919 76 0 153
0.004144 -0.356400 0.479781 153 0 76
