ply
format ascii 1.0
element vertex 1305
property float x
property float y
property float z
property uchar red
property uchar green
property uchar blue
end_header
-0.339352 0.031232 0.252345 127 0 127
-0.029325 0.055530 0.022634 0 0 255
0.605535 0.067193 0.293848 0 0 255
-0.568307 0.055530 -0.073835 0 0 255
-0.695916 0.057510 0.109700 0 0 255
-0.632162 0.062597 0.164720 0 0 255
0.497166 0.055312 0.263693 0 0 255
-0.241200 0.066194 -0.151437 0 0 255
0.763887 0.057514 -0.027202 0 0 255
0.823258 0.063398 0.222145 0 0 255
0.853066 0.037083 -0.132494 153 0 76
-0.814295 -0.046970 0.237090 76 0 153
0.894332 0.060797 0.010374 0 0 255
0.287715 0.055530 -0.117903 0 0 255
-0.825125 -0.404158 0.231298 153 0 76
0.792022 0.055590 -0.292963 0 0 255
-0.837391 -0.274306 0.243979 76 0 153
0.264005 0.055530 -0.059910 0 0 255
-0.690790 0.023233 0.247687 127 0 127
0.766509 0.067193 -0.254862 0 0 255
0.403827 0.066743 0.109047 0 0 255
0.594368 0.055530 -0.169462 0 0 255
0.310433 0.062202 -0.054355 0 0 255
-0.210484 0.055530 -0.173364 0 0 255
-0.820550 -0.077042 0.218930 76 0 153
-0.505139 0.055530 -0.029260 0 0 255
-0.793422 0.055530 -0.218674 0 0 255
0.852574 -0.222828 0.135637 0 0 255
0.177376 0.055530 -0.074020 0 0 255
0.837761 -0.325896 -0.229235 76 153 0
-0.802361 -0.418783 -0.244433 76 0 153
0.476238 0.055530 0.089433 0 0 255
-0.638158 0.057496 0.120225 0 0 255
0.826763 -0.294708 -0.234501 76 153 0
0.828003 -0.382719 -0.255122 76 153 0
-0.338866 0.066194 0.171619 0 0 255
-0.524215 0.055530 0.136993 0 0 255
-0.256582 0.067176 0.056880 0 0 255
-0.418198 0.065907 0.255334 0 0 255
-0.754826 0.066959 -0.096478 0 0 255
-0.134717 0.055554 -0.288295 0 0 255
0.823002 0.063120 0.130315 0 0 255
0.876558 -0.408875 -0.239411 153 76 0
-0.594972 0.067180 -0.007451 0 0 255
0.289138 0.066224 -0.286808 0 0 255
-0.712302 0.055530 -0.139359 0 0 255
-0.819376 -0.003882 -0.250372 153 0 76
0.853066 0.050183 -0.176652 153 0 76
0.804638 0.055530 0.177623 0 0 255
0.851469 -0.182460 0.225855 0 127 127
-0.685772 0.049452 0.242869 127 0 127
0.016992 0.066210 0.147778 0 0 255
0.229672 0.060194 -0.238586 0 0 255
-0.095225 -0.117853 -0.032696 0 255 0
-0.458999 0.066976 -0.114741 0 0 255
-0.630417 0.058476 0.070042 0 0 255
0.216825 0.055530 0.169767 0 0 255
-0.671495 0.066868 -0.274702 0 0 255
0.185886 0.045478 -0.266130 0 127 127
-0.362067 0.066960 0.114004 0 0 255
0.557031 0.057535 0.123078 0 0 255
-0.308909 0.055530 0.014954 0 0 255
-0.606133 0.015936 -0.037711 127 127 0
0.827476 -0.277039 0.243040 0 127 127
0.047197 0.065682 0.244536 0 0 255
0.405220 0.066277 -0.053482 0 0 255
0.182950 0.063332 -0.252522 0 0 255
0.847148 -0.265387 -0.256472 76 153 0
0.654869 0.055530 0.212169 0 0 255
0.755947 0.066503 -0.236535 0 0 255
0.114494 0.055530 -0.125450 0 0 255
-0.085012 0.055530 0.036411 0 0 255
-0.552383 0.066429 0.168559 0 0 255
-0.615276 0.058574 0.222645 0 0 255
-0.848167 0.040194 0.071875 76 153 0
-0.271317 -0.053489 -0.030829 127 127 0
0.549080 0.055559 0.270663 0 0 255
0.311118 -0.150358 -0.022281 127 127 0
-0.239260 0.065934 0.011299 0 0 255
-0.230291 0.055530 0.100350 0 0 255
0.140086 0.029760 -0.263320 0 127 127
-0.807691 0.065853 0.300082 0 0 255
-0.404014 -0.173778 -0.014453 0 255 0
0.799911 -0.418573 0.227688 76 0 153
-0.867348 0.055530 -0.150257 0 0 255
0.865225 0.055530 0.051345 0 0 255
0.095542 0.055530 0.007309 0 0 255
0.351323 -0.149218 -0.003437 127 127 0
-0.343169 0.055530 0.158920 0 0 255
0.048325 0.039602 0.253129 127 0 127
0.411669 0.062225 -0.173191 0 0 255
-0.042677 -0.101863 -0.015108 0 255 0
0.671205 -0.213431 -0.011994 127 127 0
0.852793 -0.226112 -0.082800 0 0 255
0.409298 -0.034855 -0.030468 0 255 0
-0.108492 0.058992 -0.072881 0 0 255
0.809325 0.055530 -0.200902 0 0 255
0.891963 0.055530 0.092099 0 0 255
-0.277926 0.055530 0.157479 0 0 255
-0.897779 0.059096 -0.082093 0 0 255
-0.287941 -0.048923 -0.015108 127 127 0
-0.128470 0.055530 -0.161239 0 0 255
-0.539209 0.049067 0.254897 127 0 127
-0.570683 -0.188925 -0.000352 0 255 0
0.337010 0.062726 0.058229 0 0 255
-0.202976 -0.060790 -0.012633 127 127 0
0.604517 0.057514 0.045612 0 0 255
-0.170502 0.064138 0.212126 0 0 255
-0.011981 0.066194 -0.220502 0 0 255
-0.025277 0.063496 0.220703 0 0 255
0.372580 0.064065 -0.225210 0 0 255
0.734378 0.057499 -0.184202 0 0 255
0.848696 -0.053214 -0.255284 76 153 0
-0.647062 0.055530 -0.145020 0 0 255
0.121192 0.066718 -0.047926 0 0 255
0.892536 0.055530 0.055810 0 0 255
0.873126 -0.432753 0.225800 76 0 153
-0.032246 0.055530 0.006834 0 0 255
0.099999 0.066645 -0.013207 0 0 255
0.249674 0.048525 0.243400 127 0 127
0.824101 0.055530 0.146523 0 0 255
0.742185 0.055126 -0.242580 0 0 255
0.343148 0.055530 0.020901 0 0 255
-0.399498 0.055530 -0.187473 0 0 255
-0.169552 0.067194 0.151700 0 0 255
-0.882266 0.066656 0.247629 0 0 255
0.830392 -0.455601 -0.237428 153 76 0
-0.050205 0.038579 0.245400 127 0 127
-0.538129 0.055530 -0.141866 0 0 255
0.423884 0.066543 0.124016 0 0 255
0.700712 0.027744 -0.038474 0 255 0
-0.436487 0.066194 -0.028039 0 0 255
0.333704 0.051609 -0.250036 0 127 127
0.649541 0.055675 -0.295788 0 0 255
0.898992 0.055546 -0.255363 0 0 255
0.406807 0.055530 -0.012047 0 0 255
-0.304876 0.036103 0.252226 127 0 127
-0.778048 0.060570 -0.167864 0 0 255
-0.843482 0.008762 0.232959 76 0 153
0.443104 0.055530 0.187856 0 0 255
0.820494 0.055742 -0.297038 0 0 255
-0.579881 0.060288 0.243263 0 0 255
-0.813281 -0.236819 0.231575 76 0 153
0.078957 0.066235 0.026878 0 0 255
-0.376730 -0.030280 -0.014870 127 127 0
0.719062 0.055530 -0.076539 0 0 255
0.733013 0.067194 0.295493 0 0 255
0.641308 0.055530 0.091970 0 0 255
-0.762567 0.057497 0.167235 0 0 255
-0.468832 0.066732 -0.139666 0 0 255
-0.258510 0.058853 -0.261598 0 0 255
-0.849523 0.055530 0.275701 0 0 255
0.852793 -0.242043 -0.065574 0 0 255
-0.647531 0.066785 -0.107865 0 0 255
0.135768 0.055530 0.141552 0 0 255
0.334348 0.066514 0.153656 0 0 255
0.369974 0.067192 0.012627 0 0 255
-0.202222 0.055569 0.264248 0 0 255
-0.834777 -0.389451 -0.233538 153 0 76
0.853605 0.064165 -0.213975 0 0 255
-0.337318 0.061843 -0.006604 0 0 255
-0.128462 0.057721 0.230814 0 0 255
-0.785689 0.055530 -0.121835 0 0 255
-0.227725 0.055530 0.134596 0 0 255
-0.848386 0.059227 -0.088486 76 153 0
0.805356 0.012088 -0.261454 0 127 127
0.881506 0.055530 0.214346 0 0 255
0.831513 -0.070584 -0.257917 76 153 0
-0.572272 0.055530 0.159084 0 0 255
-0.735886 0.032387 0.252506 127 0 127
0.306510 -0.034120 -0.034788 0 255 0
0.736937 0.059664 0.217094 0 0 255
-0.709603 -0.220580 0.001559 0 255 0
0.227976 0.064155 0.200103 0 0 255
0.069732 0.055530 -0.212616 0 0 255
-0.871511 0.055530 -0.031690 0 0 255
-0.200790 0.064776 -0.190348 0 0 255
-0.441813 0.055530 -0.226375 0 0 255
-0.718420 0.062152 0.246439 0 0 255
0.614222 0.027074 -0.256568 0 127 127
-0.441453 0.055530 0.082622 0 0 255
-0.072093 0.055530 0.127884 0 0 255
0.887595 0.055530 -0.082119 0 0 255
0.866089 -0.402810 0.231866 76 0 153
-0.579104 0.063338 0.140501 0 0 255
-0.303635 0.055530 0.188059 0 0 255
0.896334 0.055530 -0.154907 0 0 255
-0.389042 0.055530 -0.143906 0 0 255
0.304401 0.064571 -0.263035 0 0 255
-0.536295 0.066863 -0.112643 0 0 255
-0.298798 0.055545 -0.291620 0 0 255
0.837799 -0.098417 0.247039 0 127 127
-0.856279 -0.443589 0.237853 153 0 76
-0.581517 0.016871 -0.028407 127 127 0
0.521909 0.055585 -0.238060 0 0 255
-0.317922 0.062309 -0.002527 0 0 255
-0.496113 0.058327 0.293663 0 0 255
-0.346474 0.055530 -0.177065 0 0 255
-0.761509 0.064473 0.299869 0 0 255
0.346732 0.055530 0.064663 0 0 255
0.028215 0.055530 0.192264 0 0 255
-0.281432 0.061179 -0.018615 0 0 255
0.089736 0.067086 0.295462 0 0 255
-0.880333 0.055530 0.150675 0 0 255
-0.709833 0.062530 -0.198922 0 0 255
-0.607934 0.055530 -0.128276 0 0 255
0.521204 0.055530 -0.049468 0 0 255
0.071921 0.055530 0.047281 0 0 255
-0.107544 0.067194 0.173787 0 0 255
-0.073963 0.066916 -0.287857 0 0 255
-0.210653 0.047329 -0.253793 0 127 127
-0.687062 0.059216 0.071474 0 0 255
0.032699 0.066227 0.226672 0 0 255
-0.838467 -0.421251 -0.244740 76 0 153
-0.848167 0.056337 0.214018 76 153 0
0.852793 -0.236210 -0.222882 0 0 255
-0.616091 0.066536 -0.149479 0 0 255
0.045807 0.066205 -0.053320 0 0 255
0.223303 0.048365 0.243492 127 0 127
-0.316648 0.053383 -0.247095 0 0 255
-0.011647 0.066174 0.286174 0 0 255
0.838531 -0.413039 0.221024 0 127 127
0.844094 0.066194 0.188534 0 0 255
-0.208123 0.055530 0.074964 0 0 255
0.715677 0.057514 -0.039632 0 0 255
0.052527 0.058907 -0.247585 0 0 255
0.816695 -0.451218 0.238385 76 0 153
-0.697881 0.055530 -0.059727 0 0 255
-0.778147 0.055530 -0.076072 0 0 255
0.004475 0.055530 -0.039129 0 0 255
0.828368 -0.129601 0.220007 0 127 127
0.853066 0.053937 -0.083445 153 0 76
0.000889 0.066192 0.090711 0 0 255
0.045434 0.066199 -0.209253 0 0 255
0.337131 0.055530 0.044950 0 0 255
0.632093 0.055530 -0.024097 0 0 255
0.053732 0.055530 0.053962 0 0 255
-0.444301 0.055530 0.050287 0 0 255
0.211281 0.067048 -0.037354 0 0 255
0.040961 0.061115 0.300884 0 0 255
-0.340807 0.066194 -0.071315 0 0 255
-0.831872 -0.410689 0.246605 76 0 153
-0.755134 0.067025 0.273026 0 0 255
-0.653038 -0.200893 0.001461 0 255 0
-0.001165 0.066194 -0.174739 0 0 255
-0.412297 0.055530 0.077113 0 0 255
-0.763868 0.014266 -0.262225 0 127 127
-0.828156 0.062876 0.011527 0 0 255
-0.845622 -0.340158 -0.252918 153 0 76
0.459516 0.064689 0.145781 0 0 255
0.488874 0.055530 0.010770 0 0 255
-0.860944 0.066791 -0.105500 0 0 255
-0.383934 0.067170 0.154784 0 0 255
0.896175 0.061343 -0.024038 0 0 255
-0.825457 -0.368332 0.221045 76 0 153
-0.233848 -0.145431 -0.019253 0 255 0
0.196263 0.063511 -0.254627 0 0 255
-0.169354 -0.116429 -0.014578 0 255 0
-0.138658 0.055586 0.267506 0 0 255
0.338150 0.055530 -0.051556 0 0 255
-0.275072 0.067193 0.171778 0 0 255
0.545113 0.063829 -0.184334 0 0 255
0.358687 0.055543 0.226035 0 0 255
-0.077231 0.055530 -0.118299 0 0 255
-0.002490 0.066194 -0.202854 0 0 255
-0.819812 -0.054035 -0.251425 153 0 76
0.663640 0.055530 0.056099 0 0 255
0.015142 0.066192 0.265222 0 0 255
-0.391578 0.066194 0.176410 0 0 255
0.419428 -0.015823 -0.035326 0 255 0
0.326437 -0.143602 -0.004012 127 127 0
0.824015 0.018105 -0.249552 76 153 0
0.852793 -0.219617 -0.066828 0 0 255
-0.226384 0.066852 0.026845 0 0 255
-0.329764 0.066356 0.076869 0 0 255
-0.392136 -0.166784 -0.024734 0 255 0
0.148588 0.066839 -0.030302 0 0 255
0.400150 0.063728 0.018853 0 0 255
-0.734322 0.032885 -0.263346 0 127 127
-0.512486 0.055530 0.124193 0 0 255
0.056334 0.028130 -0.256176 0 127 127
-0.221953 0.065983 -0.276769 0 0 255
-0.675560 0.055530 0.064811 0 0 255
0.508958 0.063395 -0.200061 0 0 255
0.804775 0.057498 0.069884 0 0 255
-0.246484 0.025650 0.246980 127 0 127
0.002606 0.065133 -0.245748 0 0 255
0.319174 0.055530 -0.177127 0 0 255
0.512742 0.000217 -0.040465 0 255 0
-0.752977 0.055530 0.108797 0 0 255
-0.821405 -0.150682 0.218475 76 0 153
-0.844603 -0.237941 -0.018652 255 0 0
0.876887 -0.424068 -0.250695 153 76 0
0.544495 -0.015713 -0.043418 0 255 0
0.796479 0.054741 0.262452 0 0 255
0.206229 0.035581 0.245575 127 0 127
0.296134 0.053531 0.259821 0 0 255
0.155421 0.067012 0.067401 0 0 255
0.012763 0.055530 -0.172774 0 0 255
-0.847790 -0.047980 -0.248494 153 0 76
-0.829774 -0.396558 -0.245552 76 0 153
-0.419890 0.055530 0.211345 0 0 255
0.187399 0.055530 0.054417 0 0 255
0.701515 0.055530 -0.167346 0 0 255
-0.864699 0.055530 -0.067607 0 0 255
0.012059 0.055577 -0.237147 0 0 255
-0.832600 -0.081064 -0.229259 153 0 76
0.852793 -0.231436 0.078766 0 0 255
0.548521 0.058073 0.243679 0 0 255
-0.110402 0.022652 -0.259547 0 127 127
-0.414905 0.062363 -0.199552 0 0 255
0.852793 -0.234701 -0.171475 0 0 255
0.908548 0.057886 -0.091946 0 0 255
0.450850 0.064647 -0.249879 0 0 255
-0.256904 0.067143 0.074140 0 0 255
-0.689482 0.067120 -0.017003 0 0 255
0.883520 0.063265 0.260224 0 0 255
0.668823 0.066193 -0.236277 0 0 255
-0.875571 0.065894 -0.123743 0 0 255
0.632969 0.064813 -0.171013 0 0 255
-0.759931 0.064828 -0.119796 0 0 255
0.386135 0.055530 0.113515 0 0 255
0.481456 0.055530 -0.042694 0 0 255
-0.453318 0.066194 -0.046419 0 0 255
0.761940 0.055530 0.030283 0 0 255
0.281045 0.067191 0.072737 0 0 255
-0.839481 -0.315217 0.221521 76 0 153
-0.396900 0.051743 -0.271685 0 127 127
-0.255055 0.034395 0.245594 127 0 127
-0.848386 0.041284 -0.084960 76 153 0
-0.415271 0.055530 0.122686 0 0 255
0.239324 0.055530 0.083581 0 0 255
-0.711386 0.066491 -0.259521 0 0 255
-0.313218 0.055547 -0.289173 0 0 255
-0.407884 0.055530 -0.123834 0 0 255
0.437813 0.055549 -0.288834 0 0 255
-0.844603 -0.255591 -0.025092 255 0 0
0.726016 0.053987 0.237685 0 0 255
-0.675920 0.023862 -0.258051 0 127 127
0.658142 0.055530 -0.057736 0 0 255
-0.383199 0.059150 -0.243406 0 0 255
0.007175 0.042601 -0.254961 0 127 127
-0.671012 0.055530 -0.152678 0 0 255
-0.400569 0.055530 -0.066853 0 0 255
0.684715 0.008215 -0.049695 0 255 0
-0.591778 0.066191 0.199433 0 0 255
-0.200974 0.067194 0.130359 0 0 255
-0.397402 0.066215 -0.083298 0 0 255
-0.447086 0.055530 -0.077929 0 0 255
0.052661 0.055530 -0.126792 0 0 255
-0.835825 0.055530 -0.071306 0 0 255
-0.196187 0.067194 0.079374 0 0 255
0.633031 0.055601 -0.240029 0 0 255
0.070951 0.055530 0.165978 0 0 255
0.823559 -0.108308 0.226540 0 127 127
0.808686 0.055530 0.094452 0 0 255
-0.683702 0.064877 -0.190004 0 0 255
-0.403783 0.033485 -0.256643 0 127 127
-0.186506 0.058500 -0.111544 0 0 255
0.233752 0.059107 -0.122829 0 0 255
0.298679 0.055530 -0.167621 0 0 255
0.126489 0.055530 -0.159464 0 0 255
-0.468756 0.055530 -0.103222 0 0 255
-0.528749 0.066260 0.192705 0 0 255
-0.858359 0.066623 0.129722 0 0 255
0.498451 0.055530 -0.048695 0 0 255
-0.033699 0.061596 -0.114144 0 0 255
-0.342822 -0.044079 -0.027550 127 127 0
-0.112872 0.055530 -0.049928 0 0 255
-0.661543 0.062994 0.209438 0 0 255
0.211253 0.050110 -0.251145 0 127 127
0.202127 0.066252 -0.293652 0 0 255
0.847797 -0.413922 -0.255127 76 153 0
0.390403 0.055259 -0.280491 0 0 255
-0.641670 0.055530 -0.048895 0 0 255
0.726760 0.061903 0.247406 0 0 255
0.112214 0.055530 -0.199412 0 0 255
0.274732 0.061480 -0.239674 0 0 255
0.356249 0.044058 -0.265716 0 127 127
0.832463 0.045619 0.217714 0 127 127
-0.573883 0.055530 0.011010 0 0 255
-0.464181 0.066194 0.197544 0 0 255
0.853066 0.028341 -0.155490 153 0 76
0.401398 0.055583 -0.292772 0 0 255
-0.086072 0.067109 -0.287405 0 0 255
0.178217 0.066917 -0.049480 0 0 255
-0.473143 0.055530 -0.048956 0 0 255
0.535886 0.055530 0.016199 0 0 255
-0.819416 -0.288945 0.243931 76 0 153
-0.067700 0.055530 -0.195848 0 0 255
-0.257512 0.049692 0.255285 127 0 127
-0.453655 0.055545 -0.289402 0 0 255
-0.837985 -0.047235 -0.258691 153 0 76
-0.222516 0.066199 0.207710 0 0 255
0.030062 0.055530 0.277715 0 0 255
0.602107 0.055530 -0.184925 0 0 255
0.234414 0.057884 -0.213932 0 0 255
-0.607509 0.013261 -0.018519 127 127 0
0.571943 0.063285 -0.201537 0 0 255
-0.559120 0.057514 0.079565 0 0 255
-0.489452 -0.002632 -0.018708 127 127 0
0.392488 -0.034448 -0.028056 0 255 0
0.254660 0.055530 0.031293 0 0 255
0.196666 0.066955 -0.064557 0 0 255
-0.532247 0.055590 -0.283905 0 0 255
0.303030 0.055530 0.148088 0 0 255
0.801141 0.060453 -0.285000 0 0 255
0.839818 -0.377577 0.227900 76 0 153
0.034371 0.055530 0.144729 0 0 255
0.241164 0.028038 -0.263280 0 127 127
-0.869237 0.066692 0.203389 0 0 255
-0.442552 0.065368 0.075348 0 0 255
0.738634 -0.222398 -0.001019 127 127 0
-0.168718 0.055530 -0.083661 0 0 255
-0.142179 0.055530 -0.009528 0 0 255
0.799299 -0.426043 -0.237428 153 76 0
-0.695545 0.035071 -0.026239 127 127 0
-0.014787 0.055530 0.076429 0 0 255
0.640969 0.055530 0.193814 0 0 255
0.153986 0.066377 0.101477 0 0 255
0.461410 0.055530 -0.144351 0 0 255
-0.552743 0.063203 0.299163 0 0 255
-0.801425 0.055530 0.122555 0 0 255
-0.827276 0.036630 -0.030564 127 127 0
0.426034 0.064540 -0.261773 0 0 255
0.374639 -0.039995 -0.029010 0 255 0
0.369310 0.055530 -0.048455 0 0 255
0.350838 0.055530 -0.033349 0 0 255
0.823057 -0.140514 -0.243798 76 153 0
0.569957 0.055530 -0.010167 0 0 255
0.125016 0.059716 0.232439 0 0 255
-0.010924 0.054467 0.261738 0 0 255
0.401011 0.051131 0.241908 127 0 127
-0.538740 0.055530 0.192888 0 0 255
-0.790914 0.066944 0.284902 0 0 255
0.031561 -0.099911 -0.008997 127 127 0
-0.818701 -0.273507 0.243382 76 0 153
-0.694105 0.057512 0.125519 0 0 255
-0.485112 0.055530 0.065199 0 0 255
0.298542 0.065845 0.270019 0 0 255
-0.663412 0.055530 -0.017669 0 0 255
-0.564114 0.055530 -0.137696 0 0 255
-0.848386 0.056777 -0.047195 76 153 0
0.841948 -0.443590 -0.243150 153 76 0
0.041640 0.055057 0.235367 0 0 255
0.261913 0.047351 -0.267658 0 127 127
-0.151708 0.063883 -0.251685 0 0 255
0.417197 0.032242 0.245627 127 0 127
-0.781025 0.064306 -0.272212 0 0 255
0.360960 0.066634 0.151114 0 0 255
0.902559 0.055604 0.272485 0 0 255
0.312717 0.052171 -0.249621 0 127 127
0.312441 0.055530 0.040785 0 0 255
0.458060 0.055530 -0.061842 0 0 255
0.825895 0.034926 -0.235632 76 153 0
-0.715069 0.067143 -0.022212 0 0 255
-0.305331 -0.140728 -0.009473 0 255 0
-0.835395 -0.156206 0.245286 76 0 153
-0.520611 0.063541 0.109480 0 0 255
0.528524 0.055530 0.281422 0 0 255
0.125047 -0.084109 -0.024688 0 255 0
0.460984 0.064234 0.169596 0 0 255
-0.539680 0.067193 -0.042896 0 0 255
0.434213 0.062805 0.208297 0 0 255
-0.582214 0.055530 -0.040665 0 0 255
0.258359 0.023662 0.247994 127 0 127
0.035111 0.055530 -0.083489 0 0 255
0.192067 -0.133749 -0.017161 127 127 0
-0.238675 0.066407 0.023053 0 0 255
-0.469015 0.066920 -0.286696 0 0 255
-0.828493 -0.405927 0.216682 76 0 153
0.898272 0.060431 -0.047536 0 0 255
-0.516728 0.046553 0.253313 127 0 127
0.089247 0.066469 0.275090 0 0 255
-0.621882 0.022654 -0.033183 127 127 0
0.813576 0.063546 -0.236385 0 0 255
0.657743 0.057513 0.135484 0 0 255
-0.377002 0.066570 0.097170 0 0 255
0.829793 -0.017945 0.244818 0 127 127
0.232125 -0.120337 -0.020842 127 127 0
-0.047393 0.060587 -0.021694 0 0 255
0.561909 -0.177702 -0.002926 127 127 0
0.473874 0.055530 0.064330 0 0 255
0.269623 -0.053870 -0.024166 0 255 0
-0.204321 -0.138098 -0.014272 0 255 0
-0.798944 0.055530 0.167378 0 0 255
0.010653 0.055530 0.026726 0 0 255
-0.504615 0.067043 -0.096588 0 0 255
0.371232 0.055530 -0.001293 0 0 255
0.173878 0.055530 -0.050650 0 0 255
0.808688 -0.406206 -0.241504 153 76 0
0.675060 0.055530 0.162481 0 0 255
0.327884 0.061865 -0.123378 0 0 255
0.688546 0.047337 -0.267646 0 127 127
-0.571054 0.065705 -0.292733 0 0 255
-0.370049 -0.160092 -0.026644 0 255 0
-0.814110 -0.170965 0.227088 76 0 153
-0.207791 0.066291 0.004070 0 0 255
-0.119107 0.066810 -0.284931 0 0 255
-0.339223 0.055530 0.112638 0 0 255
-0.104753 0.067194 0.020882 0 0 255
0.830884 0.055530 0.040362 0 0 255
0.390437 0.061625 -0.195738 0 0 255
0.407641 0.067009 -0.025030 0 0 255
0.827033 -0.151936 -0.254597 76 153 0
-0.471872 -0.001698 -0.028647 127 127 0
-0.106214 0.067192 0.196418 0 0 255
0.827869 -0.033510 0.243341 0 127 127
0.373981 0.065368 -0.036891 0 0 255
-0.002119 0.066175 0.020768 0 0 255
-0.691492 0.055530 -0.161384 0 0 255
0.242712 0.055530 0.130618 0 0 255
-0.119878 -0.081391 -0.023841 127 127 0
-0.014595 0.063278 0.214880 0 0 255
-0.488329 0.066778 0.137583 0 0 255
0.315145 -0.045175 -0.046045 0 255 0
0.709711 0.063383 0.250785 0 0 255
0.057797 0.066288 -0.199426 0 0 255
-0.086957 0.055530 0.048727 0 0 255
-0.812064 0.055530 -0.117309 0 0 255
-0.818703 0.055613 -0.241375 0 0 255
-0.274027 0.055530 0.121695 0 0 255
0.864036 0.064967 -0.005735 0 0 255
-0.620941 0.031785 -0.263326 0 127 127
-0.399618 0.054763 -0.243556 0 0 255
0.185396 0.059574 -0.119912 0 0 255
-0.511733 0.035475 0.245577 127 0 127
0.523155 0.055530 0.020353 0 0 255
-0.195437 0.054775 -0.243525 0 0 255
0.177729 -0.060994 -0.022554 0 255 0
-0.288347 0.062386 -0.003957 0 0 255
0.115301 0.055597 0.266231 0 0 255
-0.564262 -0.191791 -0.021258 0 255 0
-0.061284 0.055530 -0.114165 0 0 255
0.852847 0.038978 0.150495 153 0 76
0.852793 -0.239570 -0.128164 0 0 255
0.343474 0.063607 0.211191 0 0 255
-0.648467 0.027788 -0.031458 127 127 0
-0.469427 0.055530 -0.159848 0 0 255
-0.453611 0.055530 0.160782 0 0 255
-0.720446 0.060821 0.042465 0 0 255
-0.848167 0.035058 0.129366 76 153 0
-0.873993 0.055530 0.028373 0 0 255
0.067091 0.062911 -0.275731 0 0 255
0.012487 0.055530 -0.145885 0 0 255
-0.088852 0.055530 -0.131692 0 0 255
-0.776134 0.058714 0.148585 0 0 255
-0.593776 0.058824 0.065900 0 0 255
-0.848386 0.061094 0.077684 76 153 0
-0.617708 -0.209309 -0.010777 0 255 0
-0.881973 0.055530 -0.127442 0 0 255
-0.852253 0.046522 -0.258283 0 127 127
0.123164 0.055530 -0.028250 0 0 255
-0.489553 0.063925 0.269908 0 0 255
0.226804 0.064911 -0.263902 0 0 255
-0.377090 0.055530 -0.161618 0 0 255
0.824147 -0.168164 0.238613 0 127 127
0.701603 -0.197677 -0.010307 127 127 0
-0.324105 0.066553 0.087960 0 0 255
0.507929 0.062018 0.179278 0 0 255
0.113836 0.048557 0.243382 127 0 127
0.094744 0.055530 -0.058275 0 0 255
-0.337625 0.066194 0.197246 0 0 255
-0.552200 0.066432 0.190157 0 0 255
-0.229509 0.061258 -0.059324 0 0 255
-0.687696 0.066778 -0.289414 0 0 255
0.847080 -0.049711 0.220113 0 127 127
-0.866959 0.055530 -0.044089 0 0 255
-0.420866 0.055530 -0.223014 0 0 255
-0.130018 0.060554 -0.060514 0 0 255
0.323688 0.055530 0.206161 0 0 255
-0.620634 -0.189971 -0.003964 0 255 0
0.271246 0.062654 -0.039479 0 0 255
-0.819037 -0.065538 -0.249553 153 0 76
-0.856214 0.055530 -0.222195 0 0 255
-0.635174 0.066376 -0.163495 0 0 255
-0.823796 0.055530 0.141984 0 0 255
-0.470394 0.055530 -0.179032 0 0 255
0.131365 0.055530 -0.089459 0 0 255
-0.473710 -0.020377 -0.020320 127 127 0
0.312133 0.040970 -0.255170 0 127 127
-0.092295 0.055530 0.166305 0 0 255
-0.717534 0.067127 -0.065479 0 0 255
0.528622 0.055530 -0.193498 0 0 255
0.168130 0.032705 -0.256090 0 127 127
-0.881795 0.066194 0.098915 0 0 255
0.088278 0.046766 -0.253615 0 127 127
-0.151237 0.064073 0.212966 0 0 255
-0.007361 0.054289 -0.277781 0 0 255
0.126211 0.055530 -0.111190 0 0 255
-0.838481 -0.273753 -0.230261 153 0 76
0.076786 -0.077695 -0.019765 0 255 0
-0.830540 -0.183543 -0.259215 153 0 76
-0.727980 0.054945 -0.243095 0 0 255
0.097506 0.062093 0.163202 0 0 255
-0.844603 -0.249870 0.080618 255 0 0
0.488289 0.057507 0.049565 0 0 255
0.846940 -0.405216 0.243727 0 127 127
0.317732 0.055530 0.017768 0 0 255
-0.805530 0.055530 -0.090222 0 0 255
-0.060374 0.065999 0.038949 0 0 255
0.571734 0.066308 0.286805 0 0 255
0.584417 0.046863 0.254124 127 0 127
0.358313 0.065944 -0.278369 0 0 255
-0.830696 0.066192 -0.131262 0 0 255
0.062912 0.066369 -0.052467 0 0 255
0.087461 0.060571 -0.212060 0 0 255
0.832693 -0.381180 0.217619 0 127 127
-0.472144 0.061225 -0.227133 0 0 255
-0.848167 0.057161 0.159289 76 153 0
-0.438647 0.063059 -0.302150 0 0 255
-0.787775 0.066853 -0.105664 0 0 255
0.813442 0.057441 -0.030751 0 0 255
0.317908 0.055530 0.112820 0 0 255
-0.661211 -0.198079 -0.015307 0 255 0
-0.889754 0.059206 -0.290315 0 0 255
0.095361 0.066282 -0.174305 0 0 255
-0.222460 0.055530 -0.168089 0 0 255
-0.340729 0.061858 -0.200885 0 0 255
-0.193536 0.067188 0.167945 0 0 255
0.852847 0.052947 0.152645 153 0 76
-0.074592 0.055530 0.202118 0 0 255
0.096987 -0.074355 -0.038753 0 255 0
-0.364587 0.057944 -0.255514 0 0 255
0.017523 0.055530 0.084518 0 0 255
0.321297 0.046282 -0.266679 0 127 127
-0.259596 0.055530 -0.210540 0 0 255
0.840923 -0.329394 -0.259203 76 153 0
0.038144 0.055530 -0.051498 0 0 255
-0.805233 0.055530 -0.018281 0 0 255
-0.112522 0.055770 -0.298828 0 0 255
0.900209 0.055683 -0.294131 0 0 255
-0.420855 0.055530 0.133798 0 0 255
0.182203 0.055593 0.232156 0 0 255
-0.696683 0.055530 -0.008924 0 0 255
-0.008875 0.023007 -0.258820 0 127 127
0.845901 -0.267316 0.244524 0 127 127
0.643899 0.053852 0.260519 0 0 255
-0.842567 0.055530 0.044078 0 0 255
0.422519 0.066102 0.107060 0 0 255
0.852681 -0.217107 0.233126 0 127 127
0.827257 -0.055115 0.220860 0 127 127
-0.800123 0.066169 0.098624 0 0 255
-0.333568 0.047505 -0.253653 0 127 127
-0.247123 0.060501 0.247477 0 0 255
0.010659 -0.099000 -0.036454 0 255 0
-0.827823 -0.106679 0.246977 76 0 153
0.216084 0.065269 -0.297640 0 0 255
0.852847 0.006837 -0.218005 153 0 76
-0.383492 0.063188 0.051034 0 0 255
-0.557578 0.055530 -0.017387 0 0 255
-0.173291 0.057367 -0.302705 0 0 255
0.020282 -0.085580 -0.025058 127 127 0
0.169331 0.062160 -0.122928 0 0 255
-0.767227 0.055530 0.043565 0 0 255
-0.829208 -0.374353 0.231866 153 0 76
0.062037 0.063988 0.033091 0 0 255
0.636872 0.055530 0.280291 0 0 255
0.090037 0.066580 -0.051874 0 0 255
0.473607 -0.180118 -0.015769 127 127 0
0.113090 0.055664 -0.295443 0 0 255
-0.015273 -0.093888 -0.028788 127 127 0
0.630183 0.057513 0.114089 0 0 255
0.844650 0.055563 -0.285062 0 0 255
-0.684599 0.067193 -0.044302 0 0 255
-0.731681 0.061173 0.036769 0 0 255
-0.139979 0.055530 0.205259 0 0 255
-0.843141 -0.405820 -0.233021 153 0 76
-0.584301 0.065593 0.172971 0 0 255
0.743456 0.055530 0.137378 0 0 255
0.298772 0.060664 -0.111635 0 0 255
-0.280991 0.066194 -0.140840 0 0 255
-0.717040 0.028827 -0.041068 127 127 0
-0.844603 -0.247809 0.175717 255 0 0
-0.549953 0.061992 0.025369 0 0 255
-0.772932 0.066338 0.299704 0 0 255
0.823036 -0.041685 -0.243959 76 153 0
-0.219961 0.055530 -0.186582 0 0 255
-0.818007 -0.235128 0.220882 76 0 153
-0.244916 -0.039941 -0.026485 127 127 0
-0.803815 0.055530 -0.188747 0 0 255
0.824775 -0.172908 -0.237362 76 153 0
0.588538 0.057505 -0.048624 0 0 255
-0.246884 0.055530 -0.078461 0 0 255
0.695152 0.055530 0.084815 0 0 255
0.414041 0.055530 0.128965 0 0 255
0.852847 0.036010 0.026945 153 0 76
0.191044 0.038450 0.245409 127 0 127
-0.560638 0.058363 0.098335 0 0 255
0.552126 0.055530 0.084718 0 0 255
0.295008 0.055530 -0.035512 0 0 255
-0.143430 0.055530 0.176146 0 0 255
-0.229821 0.065093 -0.000011 0 0 255
0.574796 0.055530 -0.079610 0 0 255
0.787789 0.037808 -0.255717 0 127 127
-0.889833 0.066812 0.270554 0 0 255
0.453373 -0.160261 -0.004076 127 127 0
-0.792595 0.054723 -0.243578 0 0 255
-0.436133 0.055530 0.204144 0 0 255
-0.844545 0.066861 0.098684 0 0 255
-0.461183 0.066829 -0.131005 0 0 255
-0.514279 0.042413 -0.255589 0 127 127
-0.132615 0.067194 0.109032 0 0 255
-0.870138 0.066072 -0.157925 0 0 255
0.868324 -0.388565 -0.251318 153 76 0
-0.363942 0.066936 0.295398 0 0 255
-0.154503 0.055530 0.116259 0 0 255
0.897112 0.060694 0.102432 0 0 255
-0.330222 -0.154346 -0.007495 0 255 0
0.401683 0.055530 -0.035155 0 0 255
0.606697 0.055530 0.022964 0 0 255
0.287278 0.062032 -0.054638 0 0 255
0.311496 0.055530 0.199605 0 0 255
-0.730424 0.055530 0.279255 0 0 255
0.876845 0.055530 -0.021790 0 0 255
-0.085849 0.065593 0.241960 0 0 255
0.904540 0.055588 0.247014 0 0 255
-0.841201 0.066194 -0.170633 0 0 255
-0.852314 -0.391248 -0.247141 76 0 153
0.853066 0.044617 -0.204169 153 0 76
0.270143 0.058718 -0.159954 0 0 255
-0.699660 0.066938 -0.003568 0 0 255
0.646866 0.055530 -0.222643 0 0 255
0.456882 0.055530 0.176237 0 0 255
0.523545 0.059721 -0.038978 0 0 255
-0.630137 0.052594 -0.273045 0 0 255
0.180507 0.055530 0.075249 0 0 255
0.545576 0.058189 -0.027715 0 0 255
0.392227 0.055530 0.201228 0 0 255
0.856465 0.055530 0.126470 0 0 255
0.379662 -0.143920 -0.015405 127 127 0
-0.212585 0.052145 0.256826 127 0 127
0.723067 0.055530 -0.010182 0 0 255
-0.360694 0.055530 0.099546 0 0 255
0.190717 0.059662 -0.230874 0 0 255
-0.149898 0.055530 -0.180746 0 0 255
0.618101 0.063630 -0.219456 0 0 255
0.548409 0.059371 0.215658 0 0 255
-0.044446 0.055530 -0.123753 0 0 255
-0.848167 0.034412 0.100396 76 153 0
0.490778 0.055530 0.153652 0 0 255
-0.437619 0.066593 -0.080229 0 0 255
0.548611 0.064815 -0.075686 0 0 255
0.769189 0.057513 0.068845 0 0 255
0.193946 0.067191 0.105690 0 0 255
0.774542 0.057512 -0.073473 0 0 255
-0.794223 -0.411558 -0.239242 76 0 153
0.637201 0.058496 0.230292 0 0 255
0.457070 0.055530 0.111216 0 0 255
0.417709 0.051808 -0.249889 0 127 127
-0.747994 0.049988 -0.251570 0 127 127
-0.672493 0.067188 -0.021089 0 0 255
-0.806466 0.034473 0.245569 127 0 127
-0.415138 0.055556 0.234285 0 0 255
-0.717085 0.055530 -0.058201 0 0 255
0.013397 -0.097544 -0.009549 127 127 0
-0.350720 -0.157402 -0.006770 0 255 0
-0.352208 0.055530 0.189440 0 0 255
0.318292 0.055530 0.091246 0 0 255
-0.177696 0.065116 -0.188135 0 0 255
-0.309881 0.044658 0.245007 127 0 127
0.817531 0.055530 0.033596 0 0 255
-0.275322 -0.133625 -0.012179 0 255 0
0.017288 0.066194 -0.135317 0 0 255
-0.847629 -0.269325 0.234320 255 0 0
0.851940 -0.383868 -0.240888 153 76 0
0.429185 0.067176 -0.033817 0 0 255
0.689300 0.028954 -0.049978 0 255 0
-0.453547 0.066075 0.290175 0 0 255
0.870618 -0.435443 -0.240099 153 76 0
-0.123947 0.067194 0.088335 0 0 255
0.140520 -0.122199 -0.024589 127 127 0
0.003576 0.055546 0.272178 0 0 255
0.830064 -0.325602 0.218707 0 127 127
-0.371536 0.065125 -0.188184 0 0 255
-0.797214 0.065598 -0.027264 0 0 255
-0.347242 0.055530 0.043148 0 0 255
0.209014 0.055530 0.105815 0 0 255
-0.813706 0.000029 0.228347 76 0 153
-0.422101 0.066964 -0.130471 0 0 255
0.824881 0.055530 0.114310 0 0 255
-0.836327 0.055530 0.058924 0 0 255
-0.847629 -0.236931 0.113332 255 0 0
0.440053 0.065591 -0.231579 0 0 255
0.446501 0.059937 0.216516 0 0 255
-0.079034 0.063288 0.223802 0 0 255
0.454856 0.033623 0.245605 127 0 127
0.368038 0.054082 -0.277203 0 0 255
-0.738960 0.055530 -0.146117 0 0 255
-0.818927 0.055530 0.280160 0 0 255
-0.848167 0.061991 0.133114 76 153 0
-0.843776 -0.409038 -0.255239 153 0 76
-0.488318 -0.186117 -0.007189 0 255 0
0.762508 0.058683 -0.202284 0 0 255
-0.631726 -0.203756 -0.019264 0 255 0
0.380256 0.048754 -0.268944 0 127 127
0.772010 0.055530 -0.010630 0 0 255
0.409851 0.066651 0.154723 0 0 255
-0.424271 0.055530 0.224159 0 0 255
0.116888 0.055530 -0.069863 0 0 255
0.038837 0.032168 -0.263327 0 127 127
0.900690 0.055551 0.195049 0 0 255
0.852793 -0.249064 -0.020494 0 0 255
-0.806699 0.055925 0.285773 0 0 255
0.385405 0.061578 -0.163203 0 0 255
-0.780657 0.023726 0.245639 127 0 127
0.409098 0.062967 -0.252385 0 0 255
-0.705819 0.065085 0.259443 0 0 255
0.755288 0.057510 -0.179628 0 0 255
-0.044745 0.055530 0.081483 0 0 255
0.364597 0.063756 -0.071625 0 0 255
0.633027 -0.206845 -0.006189 127 127 0
0.128601 0.055530 0.108093 0 0 255
-0.505189 0.065387 -0.010837 0 0 255
0.629170 0.038154 0.253032 127 0 127
-0.702320 0.067007 -0.071699 0 0 255
0.831742 0.057022 0.237316 0 127 127
0.246674 0.066913 -0.025654 0 0 255
0.032123 -0.099057 -0.021382 0 255 0
0.475211 0.066194 -0.069376 0 0 255
-0.566027 0.066707 0.004047 0 0 255
-0.348781 0.066426 0.101453 0 0 255
-0.677660 0.067049 0.005967 0 0 255
-0.178507 0.055599 0.266036 0 0 255
-0.867296 0.055530 -0.235112 0 0 255
-0.871722 0.055538 0.250279 0 0 255
0.592116 0.060582 0.212072 0 0 255
-0.896523 0.061264 -0.216798 0 0 255
-0.299374 0.055530 0.206385 0 0 255
0.260658 0.065794 0.170042 0 0 255
-0.848167 0.038106 -0.227146 76 153 0
-0.331630 0.066194 -0.176869 0 0 255
-0.610531 0.065586 -0.240771 0 0 255
0.796390 0.054171 0.237285 0 0 255
-0.417489 0.066194 -0.175443 0 0 255
0.538304 0.055530 0.274816 0 0 255
0.709371 0.055530 -0.004104 0 0 255
0.852793 -0.241635 0.196286 0 0 255
-0.317584 0.055530 0.219497 0 0 255
-0.741467 0.055530 0.124865 0 0 255
-0.581494 0.047978 0.254216 127 0 127
-0.076359 -0.076201 -0.030942 127 127 0
-0.023255 0.066192 -0.114548 0 0 255
0.707791 0.057513 -0.066222 0 0 255
-0.503279 0.055530 -0.156924 0 0 255
0.237168 0.062758 0.114829 0 0 255
0.829124 0.066140 -0.222283 0 0 255
0.799538 0.055530 0.143680 0 0 255
-0.863831 0.065913 -0.005924 0 0 255
-0.705016 0.055530 0.130090 0 0 255
0.852847 0.040926 0.042874 153 0 76
0.737572 0.066637 -0.244159 0 0 255
0.024230 0.065382 -0.235277 0 0 255
0.604125 0.054312 0.261519 0 0 255
-0.569271 0.062826 0.294819 0 0 255
0.068465 0.066370 -0.180117 0 0 255
0.499458 0.058046 0.016395 0 0 255
-0.250767 0.063505 -0.107143 0 0 255
-0.633106 0.064321 0.023977 0 0 255
-0.684291 -0.203261 -0.015826 0 255 0
-0.295048 0.055530 -0.128433 0 0 255
-0.823307 0.055530 -0.124281 0 0 255
0.299966 -0.143340 -0.025115 127 127 0
-0.857355 0.055530 0.114262 0 0 255
-0.822211 0.056296 0.244598 76 0 153
0.152213 0.066915 -0.001792 0 0 255
-0.314527 0.066879 0.111954 0 0 255
-0.177549 0.055530 -0.022525 0 0 255
0.107087 0.062048 -0.236105 0 0 255
-0.731635 0.067017 0.296115 0 0 255
0.898900 0.059457 -0.098615 0 0 255
0.445843 -0.021504 -0.049966 0 255 0
-0.025097 0.055530 0.113039 0 0 255
-0.828410 -0.055876 -0.230052 153 0 76
-0.196000 0.063721 -0.297473 0 0 255
0.777672 0.040116 -0.057135 0 255 0
0.197063 -0.126434 -0.006070 127 127 0
-0.436378 0.066459 0.097949 0 0 255
0.514525 0.066683 0.289302 0 0 255
-0.877294 0.055530 0.118550 0 0 255
-0.647194 0.038028 -0.263956 0 127 127
-0.878633 0.066194 0.013175 0 0 255
-0.677971 0.053569 -0.275771 0 0 255
-0.402133 -0.152232 -0.016601 0 255 0
0.732434 0.057514 0.011130 0 0 255
-0.248765 0.055530 0.068760 0 0 255
0.059100 0.063405 0.200349 0 0 255
-0.261255 0.055530 -0.180441 0 0 255
-0.130157 0.060250 -0.190550 0 0 255
-0.498200 0.063380 -0.239343 0 0 255
-0.283540 0.055530 0.138846 0 0 255
-0.844562 -0.226153 -0.234447 153 0 76
-0.254821 0.057147 0.291362 0 0 255
-0.844127 0.066178 -0.225310 0 0 255
-0.761184 0.062062 -0.176276 0 0 255
-0.461076 0.055532 0.273796 0 0 255
0.580462 0.055559 -0.287631 0 0 255
0.220890 0.062847 -0.251452 0 0 255
-0.800375 -0.398302 0.231866 153 0 76
-0.451460 0.055536 -0.232367 0 0 255
0.848175 -0.109930 -0.233063 76 153 0
-0.320952 0.055530 0.137290 0 0 255
0.439228 0.062882 -0.171878 0 0 255
-0.416202 0.055544 -0.233365 0 0 255
0.354216 0.059542 -0.184632 0 0 255
-0.395914 0.062805 0.273439 0 0 255
-0.595669 0.055530 0.214092 0 0 255
-0.746051 0.065721 -0.028264 0 0 255
0.250793 0.055530 -0.040307 0 0 255
0.216372 0.061543 0.131361 0 0 255
-0.219732 0.055530 0.172293 0 0 255
-0.005625 0.063263 0.167306 0 0 255
0.727176 -0.203300 -0.002740 127 127 0
0.526240 -0.186903 -0.018295 127 127 0
-0.099009 0.058511 -0.173568 0 0 255
-0.383710 0.055530 0.015359 0 0 255
0.852847 0.039677 -0.075276 153 0 76
0.866962 0.065366 0.089042 0 0 255
-0.824242 0.066139 0.288580 0 0 255
-0.261278 0.055530 0.105106 0 0 255
0.600593 0.037178 -0.255835 0 127 127
0.760276 -0.207309 -0.007294 127 127 0
-0.101637 0.067194 0.051658 0 0 255
-0.845884 0.066151 -0.022333 0 0 255
-0.429763 -0.169483 -0.004317 0 255 0
0.730835 0.055540 0.225716 0 0 255
-0.836917 -0.247912 -0.229671 153 0 76
-0.604428 0.063624 0.017226 0 0 255
0.221200 0.056700 0.289319 0 0 255
-0.172557 0.031344 0.252342 127 0 127
-0.588700 0.067147 -0.054388 0 0 255
-0.081447 0.055530 0.010701 0 0 255
-0.011749 0.055530 0.003410 0 0 255
-0.208795 0.066166 0.286875 0 0 255
-0.170702 0.067194 0.087885 0 0 255
0.026247 0.055530 -0.139671 0 0 255
-0.803456 -0.440534 -0.250356 76 0 153
0.300197 0.058083 -0.221164 0 0 255
0.802202 0.055530 0.119008 0 0 255
-0.547806 0.057026 0.079626 0 0 255
-0.165252 0.051885 -0.271816 0 127 127
-0.613734 0.053082 0.258610 0 0 255
-0.129646 0.066265 0.211449 0 0 255
-0.437106 0.055530 -0.132442 0 0 255
-0.532564 0.049859 -0.269957 0 127 127
0.858554 0.066193 0.195392 0 0 255
0.223603 0.057613 -0.177543 0 0 255
0.532946 0.055530 -0.153419 0 0 255
0.862135 -0.427916 0.234229 76 0 153
-0.447386 0.066721 0.109949 0 0 255
-0.329463 0.065655 0.030569 0 0 255
0.078998 0.055530 0.088867 0 0 255
-0.137937 0.041643 -0.255724 0 127 127
0.008961 0.066383 0.036533 0 0 255
-0.846645 -0.271856 0.195914 255 0 0
-0.116685 0.064905 -0.017839 0 0 255
-0.479610 0.065152 0.258138 0 0 255
-0.590903 0.041057 0.252395 127 0 127
0.334074 0.065694 -0.004398 0 0 255
-0.834814 -0.164327 0.218205 76 0 153
0.346432 0.063075 -0.072233 0 0 255
-0.718320 0.063537 0.001517 0 0 255
-0.732502 0.055530 0.022209 0 0 255
-0.541929 -0.002749 -0.017423 127 127 0
0.548271 0.023827 0.250548 127 0 127
0.486713 0.032127 0.252825 127 0 127
-0.476082 0.066435 0.117961 0 0 255
-0.353228 0.065960 -0.181544 0 0 255
0.388733 0.066380 0.103900 0 0 255
-0.006798 0.066194 -0.093633 0 0 255
0.135291 0.066766 -0.069055 0 0 255
0.584297 0.055530 -0.199429 0 0 255
0.375495 -0.035664 -0.047674 0 255 0
-0.719239 0.055530 0.142117 0 0 255
-0.205741 0.055530 -0.019901 0 0 255
-0.861723 0.066306 0.014358 0 0 255
0.435881 0.048557 0.243382 127 0 127
-0.836150 0.055530 0.001771 0 0 255
-0.083029 0.058513 -0.106166 0 0 255
-0.840603 -0.010995 0.222983 76 0 153
0.836803 0.065705 -0.112641 0 0 255
0.499872 0.055530 -0.106432 0 0 255
-0.528328 0.058668 0.294240 0 0 255
-0.847629 -0.237874 0.056640 255 0 0
0.432987 0.036974 -0.263649 0 127 127
-0.493200 0.055530 0.092637 0 0 255
0.344541 0.055530 -0.133413 0 0 255
0.832412 -0.195387 -0.258290 76 153 0
-0.833955 -0.356858 -0.229281 153 0 76
-0.848167 0.045352 0.094649 76 153 0
-0.661568 0.055530 -0.219192 0 0 255
-0.656633 0.052557 0.240784 0 0 255
-0.827829 0.055553 0.227226 0 0 255
-0.093804 0.067194 0.148738 0 0 255
0.782894 0.057513 0.032159 0 0 255
0.731830 0.040962 0.253220 127 0 127
-0.841578 -0.328118 -0.256925 153 0 76
-0.825512 -0.004367 -0.231283 153 0 76
0.668882 0.055530 -0.191449 0 0 255
-0.103526 0.055530 0.283779 0 0 255
-0.337588 0.066057 0.052710 0 0 255
0.381392 0.055530 -0.185297 0 0 255
0.049768 0.066235 -0.148135 0 0 255
0.829520 -0.394700 -0.232028 76 153 0
-0.829632 0.066194 -0.181778 0 0 255
-0.796250 0.055530 0.196087 0 0 255
-0.139088 0.063068 0.250493 0 0 255
-0.847629 -0.226103 -0.099592 255 0 0
0.625528 0.055530 0.277683 0 0 255
-0.874166 0.055530 0.065771 0 0 255
0.228079 0.060250 -0.093757 0 0 255
-0.829196 -0.024483 -0.259020 153 0 76
-0.667610 -0.217752 -0.008427 0 255 0
0.110489 -0.119569 -0.021112 127 127 0
-0.413060 0.066194 0.180334 0 0 255
0.490475 0.055530 -0.069792 0 0 255
-0.795731 0.065177 0.119090 0 0 255
0.824501 -0.016034 -0.250725 76 153 0
0.541384 0.060160 0.177262 0 0 255
0.168997 0.049269 0.255509 127 0 127
-0.581957 0.066176 0.268369 0 0 255
-0.856850 0.065933 -0.016379 0 0 255
-0.724055 0.055180 0.263363 0 0 255
0.404935 0.066920 0.121689 0 0 255
-0.700994 0.066582 -0.117474 0 0 255
-0.823833 -0.353195 0.246263 76 0 153
-0.519145 0.001587 -0.036233 127 127 0
0.853066 0.048982 -0.112497 153 0 76
-0.270314 0.055598 0.266158 0 0 255
-0.097357 0.055530 -0.069329 0 0 255
0.670009 0.055530 -0.048457 0 0 255
0.521774 0.066194 -0.097378 0 0 255
-0.039245 0.055599 0.232814 0 0 255
0.713911 0.055421 0.263929 0 0 255
0.437044 0.055530 0.138333 0 0 255
0.395246 0.055175 -0.242459 0 0 255
-0.544222 -0.189118 -0.001166 0 255 0
0.567528 0.058074 0.244659 0 0 255
0.678622 0.067016 -0.289029 0 0 255
0.845556 -0.033934 0.244789 0 127 127
0.678802 0.055530 -0.152233 0 0 255
0.111164 0.055530 -0.097318 0 0 255
0.843374 0.055550 -0.234025 0 0 255
0.506916 0.066194 -0.097060 0 0 255
-0.070642 0.065891 -0.007784 0 0 255
-0.876344 0.055530 0.199500 0 0 255
-0.832939 0.066511 -0.048191 0 0 255
-0.500674 0.060410 -0.220185 0 0 255
-0.014215 0.055530 0.090792 0 0 255
-0.079499 0.055906 0.286136 0 0 255
-0.480941 0.048261 0.243552 127 0 127
0.828827 0.052957 -0.049976 0 255 0
0.272359 0.067194 0.052356 0 0 255
0.250336 0.055530 0.185839 0 0 255
-0.886284 0.055530 0.069909 0 0 255
-0.209528 -0.126568 -0.011212 0 255 0
-0.788909 -0.221979 -0.013817 0 255 0
-0.453028 -0.177777 -0.005622 0 255 0
-0.195591 0.067194 0.296397 0 0 255
-0.834992 -0.186080 0.245453 76 0 153
-0.518750 -0.182558 -0.001583 0 255 0
-0.647294 0.055530 0.022680 0 0 255
0.890970 0.055530 -0.014742 0 0 255
0.589258 0.057559 0.131673 0 0 255
-0.564506 0.066191 0.205688 0 0 255
-0.187945 0.055530 0.011481 0 0 255
0.411257 0.065095 0.081752 0 0 255
0.310508 0.057921 -0.216773 0 0 255
0.061749 0.055530 0.172376 0 0 255
-0.694108 0.055530 0.187457 0 0 255
0.807721 0.057497 -0.074551 0 0 255
0.526651 0.002288 -0.039064 0 255 0
-0.465390 0.057489 0.039912 0 0 255
0.457473 -0.158732 -0.018484 127 127 0
-0.215832 0.066194 -0.163274 0 0 255
-0.391617 0.052795 0.257960 0 0 255
0.686250 0.055530 0.115727 0 0 255
-0.847629 -0.256586 -0.128350 255 0 0
-0.333264 0.035982 -0.256716 0 127 127
-0.027615 0.055530 0.167271 0 0 255
0.546517 -0.191961 -0.006486 127 127 0
0.141026 -0.105902 -0.023394 127 127 0
0.299013 0.066361 -0.292081 0 0 255
0.852793 -0.236465 0.223256 0 0 255
-0.078785 0.055530 0.150404 0 0 255
-0.198803 0.060774 -0.231907 0 0 255
-0.050274 -0.079719 -0.030404 127 127 0
-0.825460 -0.369131 -0.231323 153 0 76
0.852728 -0.017557 0.232770 0 127 127
0.831827 -0.056472 -0.258048 76 153 0
0.203240 0.062909 0.173494 0 0 255
0.761240 0.057513 0.145060 0 0 255
-0.310061 0.067194 0.155984 0 0 255
-0.848002 -0.035899 -0.241458 153 0 76
-0.217635 0.055530 0.148030 0 0 255
-0.719525 0.021036 -0.023652 127 127 0
-0.848167 0.021694 -0.239387 76 153 0
0.384107 0.066874 -0.006426 0 0 255
0.055768 0.066098 0.287501 0 0 255
-0.841405 0.065549 0.237094 0 0 255
-0.445745 0.049481 0.242853 127 0 127
0.004413 -0.102447 -0.019727 127 127 0
-0.790129 0.055530 -0.136263 0 0 255
-0.501260 0.055530 0.138443 0 0 255
-0.822821 -0.213694 0.217888 76 0 153
-0.864269 0.066147 -0.179509 0 0 255
-0.848386 0.030247 -0.103379 76 153 0
-0.055284 0.055530 -0.228584 0 0 255
0.850162 0.055530 0.274426 0 0 255
0.751105 0.060008 0.242349 0 0 255
0.642979 0.055530 -0.121156 0 0 255
-0.560598 0.055694 -0.296410 0 0 255
-0.575971 0.055530 -0.168436 0 0 255
0.476025 0.066194 -0.055446 0 0 255
0.867597 0.055530 0.219112 0 0 255
-0.336794 0.066620 -0.142453 0 0 255
-0.760047 0.052203 0.241294 127 0 127
-0.505215 -0.014674 -0.034103 127 127 0
0.831083 -0.456033 0.226318 76 0 153
-0.857492 0.055530 -0.143205 0 0 255
-0.299840 0.066801 0.052091 0 0 255
0.054221 0.055530 -0.101687 0 0 255
0.821548 0.055530 0.195903 0 0 255
0.459477 -0.174565 -0.004197 127 127 0
0.414207 -0.164570 -0.003406 127 127 0
-0.654632 0.055530 -0.059969 0 0 255
-0.519237 0.066528 0.159526 0 0 255
0.171098 0.055530 -0.101862 0 0 255
0.816786 -0.224918 0.003464 127 127 0
-0.131925 0.067127 0.005152 0 0 255
-0.059338 0.055530 0.028303 0 0 255
-0.033717 0.055579 -0.237442 0 0 255
0.032084 0.055530 0.003811 0 0 255
-0.258314 0.060984 -0.055589 0 0 255
-0.683986 0.065415 0.262074 0 0 255
-0.458303 0.039567 0.252457 127 0 127
-0.830129 0.014332 0.251148 127 0 127
0.553061 0.006884 -0.043565 0 255 0
0.627828 0.062789 -0.214089 0 0 255
-0.832933 -0.372852 -0.246903 76 0 153
-0.652833 0.034985 0.245584 127 0 127
0.155091 0.055530 -0.118262 0 0 255
0.126625 0.061058 -0.222517 0 0 255
-0.320144 0.066194 -0.102433 0 0 255
0.899842 0.058229 -0.214371 0 0 255
-0.681911 0.055530 -0.093918 0 0 255
-0.658903 0.061398 -0.303324 0 0 255
0.376610 0.044795 -0.254499 0 127 127
0.815387 0.055530 0.063705 0 0 255
-0.606003 0.057901 0.292941 0 0 255
0.468345 0.055530 -0.079940 0 0 255
-0.485332 0.062159 0.283400 0 0 255
-0.491774 0.066193 -0.291438 0 0 255
-0.776471 0.055530 -0.158070 0 0 255
0.528971 0.059392 0.255063 0 0 255
-0.645053 0.055530 -0.088360 0 0 255
-0.724559 0.065681 -0.114743 0 0 255
-0.443182 0.055530 -0.172583 0 0 255
0.800001 0.028231 -0.054755 0 255 0
0.813305 0.055530 0.209262 0 0 255
-0.607435 -0.000030 -0.026709 127 127 0
0.142084 0.055530 0.172180 0 0 255
0.367239 0.055530 -0.024853 0 0 255
-0.160350 0.055530 -0.142854 0 0 255
0.503760 0.055530 -0.167034 0 0 255
0.818490 0.060579 0.078753 0 0 255
0.422262 0.055530 0.160235 0 0 255
0.800436 0.055530 0.197174 0 0 255
-0.864408 0.064339 -0.275898 0 0 255
0.112103 0.060661 -0.187269 0 0 255
-0.817299 -0.412863 0.231866 153 0 76
-0.814590 0.066185 -0.208826 0 0 255
0.566338 0.055530 -0.127215 0 0 255
0.300507 0.055530 0.088105 0 0 255
-0.848263 -0.315704 -0.243441 153 0 76
0.421816 0.055530 0.187090 0 0 255
-0.456419 0.055530 0.178166 0 0 255
0.792459 0.057506 0.020371 0 0 255
0.856935 0.066298 0.264754 0 0 255
0.611361 0.066028 -0.239185 0 0 255
-0.368675 0.055530 0.072468 0 0 255
-0.522153 0.055530 0.149247 0 0 255
-0.206558 -0.048264 -0.029292 127 127 0
0.143059 0.055530 -0.106890 0 0 255
-0.287064 0.055530 0.063829 0 0 255
-0.268265 -0.035931 -0.020538 127 127 0
-0.844907 -0.379200 0.238752 153 0 76
0.620512 0.057504 -0.064811 0 0 255
0.129972 0.047092 0.254256 127 0 127
-0.024141 0.066223 -0.101219 0 0 255
-0.462470 0.066680 0.158860 0 0 255
0.585173 0.009745 -0.036446 0 255 0
-0.570275 0.061781 0.122818 0 0 255
0.714441 0.060080 0.213430 0 0 255
0.748985 0.032382 -0.263348 0 127 127
0.642203 0.057514 0.054060 0 0 255
0.740380 -0.205378 -0.013340 127 127 0
0.820503 0.055530 -0.075543 0 0 255
-0.769330 0.055530 -0.103060 0 0 255
0.591822 0.066187 -0.104661 0 0 255
-0.551829 0.055530 -0.193338 0 0 255
0.858850 0.063719 -0.114196 0 0 255
-0.822748 -0.315962 -0.255344 153 0 76
-0.836677 -0.388468 0.242633 76 0 153
0.489049 0.066193 -0.054245 0 0 255
0.335982 0.066497 -0.276997 0 0 255
0.572503 0.057504 -0.023453 0 0 255
0.619189 0.055530 -0.113044 0 0 255
0.593055 0.063035 -0.261627 0 0 255
0.393706 0.067193 -0.000451 0 0 255
-0.442556 0.064956 -0.189515 0 0 255
0.318329 0.055530 -0.010040 0 0 255
-0.386028 0.035508 0.245576 127 0 127
-0.360436 0.066194 -0.067252 0 0 255
0.661335 0.028356 -0.256141 0 127 127
0.283041 0.066125 0.155444 0 0 255
-0.011652 0.063469 0.050234 0 0 255
0.466522 0.066194 -0.048280 0 0 255
0.670643 0.055530 0.075494 0 0 255
-0.050631 0.055530 -0.207315 0 0 255
0.253888 0.055530 -0.015200 0 0 255
0.093935 0.055599 -0.239744 0 0 255
-0.768874 0.055530 -0.059019 0 0 255
-0.680096 0.059823 0.231335 0 0 255
0.192224 0.067176 0.118883 0 0 255
-0.501294 0.055530 -0.000837 0 0 255
-0.842168 0.032055 -0.256473 153 0 76
0.851843 -0.403012 -0.243188 153 76 0
0.843246 0.065332 -0.097531 0 0 255
0.627177 0.055679 -0.295922 0 0 255
0.313943 0.063311 -0.036413 0 0 255
-0.186790 0.059125 -0.218500 0 0 255
-0.845761 -0.351358 -0.236009 153 0 76
0.809080 0.063755 -0.193325 0 0 255
-0.847629 -0.265553 -0.211923 255 0 0
-0.835944 0.039623 0.245059 76 0 153
-0.663895 0.066527 -0.148360 0 0 255
-0.644915 0.066709 -0.267267 0 0 255
0.263621 0.066829 0.093464 0 0 255
0.852793 -0.233472 -0.097270 0 0 255
-0.793976 -0.416903 0.230506 153 0 76
-0.888207 0.055551 0.023892 0 0 255
-0.725816 0.055530 -0.154581 0 0 255
0.375347 0.064251 -0.093205 0 0 255
0.410178 0.031056 -0.256109 0 127 127
0.323308 0.059090 -0.186729 0 0 255
-0.833147 0.056523 -0.259559 153 0 76
-0.539774 0.055530 -0.195831 0 0 255
0.854825 0.061735 -0.254838 0 0 255
0.769493 -0.227507 -0.014584 127 127 0
0.113467 0.066640 -0.105611 0 0 255
-0.172765 0.064840 -0.263326 0 0 255
-0.025806 -0.085522 -0.009339 127 127 0
0.192446 0.062342 0.175729 0 0 255
0.110766 -0.099076 -0.015380 127 127 0
0.144300 0.061613 0.250733 0 0 255
-0.847629 -0.253486 0.216114 255 0 0
0.190007 0.065801 -0.088163 0 0 255
0.870904 0.055530 0.191789 0 0 255
0.252236 0.055530 0.020533 0 0 255
0.881277 0.061428 -0.119201 0 0 255
0.536254 0.047419 -0.253133 0 127 127
0.630535 0.066584 0.288595 0 0 255
0.427103 0.064531 -0.250800 0 0 255
-0.634249 0.066846 -0.012038 0 0 255
-0.584285 0.066344 -0.167923 0 0 255
-0.039645 0.055530 -0.154998 0 0 255
-0.647578 0.055530 0.043560 0 0 255
0.000835 0.066090 -0.233443 0 0 255
0.823167 -0.329299 -0.242959 76 153 0
-0.613462 0.049202 0.243013 127 0 127
0.804036 0.065340 -0.220023 0 0 255
0.682873 0.057512 -0.090123 0 0 255
-0.424652 0.066194 -0.037941 0 0 255
-0.573486 0.057498 0.229590 0 0 255
-0.788245 0.034271 -0.039971 127 127 0
0.012815 0.055530 0.282717 0 0 255
0.254810 -0.129827 -0.025356 127 127 0
0.701266 0.060250 -0.205220 0 0 255
-0.027338 0.058106 0.182299 0 0 255
0.706854 0.057513 -0.046323 0 0 255
-0.211642 0.055530 0.085397 0 0 255
-0.532714 0.057806 0.054461 0 0 255
-0.395500 0.055530 -0.164802 0 0 255
0.877331 -0.415905 0.237773 76 0 153
0.098132 0.059232 -0.229317 0 0 255
-0.698373 -0.222071 -0.003133 0 255 0
-0.313885 0.066194 -0.114625 0 0 255
-0.100750 0.053685 -0.276094 0 0 255
0.822859 0.047478 0.228862 0 127 127
0.438587 0.055530 -0.067047 0 0 255
-0.486442 0.055530 0.118277 0 0 255
0.060137 0.066322 -0.135112 0 0 255
0.195481 0.067002 0.131652 0 0 255
-0.092433 0.055530 -0.147365 0 0 255
-0.847629 -0.236934 -0.115687 255 0 0
0.466503 0.055530 -0.124185 0 0 255
-0.547201 -0.188757 -0.021764 0 255 0
0.264505 0.055530 -0.182566 0 0 255
-0.605377 0.054092 -0.277230 0 0 255
0.623463 0.059235 0.247642 0 0 255
-0.853861 0.066119 -0.200691 0 0 255
0.154601 0.064723 -0.126542 0 0 255
0.543031 -0.005555 -0.052679 0 255 0
-0.104390 0.026549 0.246521 127 0 127
