ply
format ascii 1.0
element vertex 1254
property float x
property float y
property float z
property uchar red
property uchar green
property uchar blue
end_header
-0.017296 0.791830 0.319449 0 255 0
-0.413482 0.866486 -0.043807 0 255 0
-0.078683 0.117070 0.551684 127 127 0
-0.514763 -0.331845 -0.192744 127 127 0
0.374060 0.764540 0.130286 127 127 0
0.338749 0.664322 0.350349 127 127 0
-0.546251 0.453510 -0.091564 127 127 0
-0.009133 0.894365 0.056355 0 255 0
-0.391635 0.800257 -0.106493 127 127 0
0.369877 -0.460046 0.403287 127 127 0
0.137153 -0.873661 -0.191482 127 127 0
0.179240 0.141503 0.520795 127 127 0
-0.453006 0.361078 -0.304368 127 127 0
-0.317293 0.741295 0.284266 127 127 0
0.233490 0.277667 0.498324 127 127 0
0.205793 0.177548 0.509796 127 127 0
0.521223 0.215743 0.112613 127 127 0
-0.308642 0.791830 -0.198293 0 255 0
-0.512560 -0.743637 -0.198062 127 127 0
0.001947 0.037149 0.558400 127 127 0
0.449740 0.650251 -0.190339 127 127 0
0.533008 -0.716700 0.003248 127 127 0
-0.118644 -0.873661 0.320887 127 127 0
0.532606 0.373148 0.000189 127 127 0
-0.251082 -0.873661 0.210810 127 127 0
-0.547225 0.189732 0.110511 127 127 0
-0.286105 -0.550776 -0.460840 127 127 0
0.523041 -0.484113 0.098808 127 127 0
-0.143200 -0.364480 -0.516845 127 127 0
-0.317249 0.791830 0.061664 0 255 0
-0.186065 -0.418465 0.528624 127 127 0
-0.555322 0.085681 0.049008 127 127 0
-0.533984 -0.413292 -0.146339 127 127 0
0.133855 0.894365 -0.335567 0 255 0
0.159934 0.894365 -0.279213 0 255 0
-0.140758 0.512349 0.543512 127 127 0
-0.371536 -0.892878 0.242213 127 127 0
0.388704 -0.261141 0.380987 127 127 0
-0.189669 0.894365 -0.166843 0 255 0
0.485000 -0.667214 0.228837 127 127 0
-0.449922 0.266371 0.334733 127 127 0
0.261677 0.791830 -0.133471 0 255 0
-0.557940 -0.411050 0.029121 127 127 0
0.363729 -0.867162 -0.234398 127 127 0
-0.553208 -0.591814 0.065066 127 127 0
-0.120811 -0.414434 -0.519793 127 127 0
0.530632 -0.114266 0.041149 127 127 0
0.481981 -0.484175 0.236126 127 127 0
0.436673 -0.075234 -0.292128 127 127 0
-0.030466 0.189017 -0.531687 127 127 0
0.282531 -0.581056 -0.443966 127 127 0
-0.225735 -0.755103 -0.485846 127 127 0
0.111528 0.650473 -0.479746 127 127 0
-0.131610 -0.873661 0.217941 127 127 0
0.183160 -0.636163 0.519171 127 127 0
0.531624 -0.374006 0.033616 127 127 0
-0.305099 -0.001402 -0.446388 127 127 0
0.424866 -0.801291 0.288346 127 127 0
-0.207520 0.791830 0.341243 0 255 0
-0.103648 0.103698 -0.522052 127 127 0
0.151434 0.480214 -0.505967 127 127 0
-0.554499 0.197858 -0.028916 127 127 0
-0.503927 0.371328 -0.218904 127 127 0
-0.066937 -0.204425 -0.526885 127 127 0
0.513273 -0.004564 -0.134235 127 127 0
-0.449307 -0.317834 0.335534 127 127 0
-0.194164 0.791830 0.183978 0 255 0
0.125241 0.394138 -0.515823 127 127 0
0.353087 0.487958 -0.389826 127 127 0
0.135403 0.791830 0.388216 0 255 0
0.338254 0.520052 -0.401207 127 127 0
0.409812 -0.895478 -0.004830 127 127 0
0.198019 0.893386 0.361382 0 255 0
-0.089651 0.791830 -0.015518 0 255 0
0.407586 -0.802142 -0.283136 127 127 0
0.088939 -0.851822 0.468470 127 127 0
-0.113658 0.296351 0.547080 127 127 0
0.311960 0.652197 0.397137 127 127 0
-0.320546 -0.910140 -0.234220 127 127 0
-0.276184 0.791830 0.226038 0 255 0
0.040656 -0.701459 -0.526958 127 127 0
0.303993 0.791830 0.074610 0 255 0
-0.204376 -0.910140 0.361567 127 127 0
0.481910 -0.107731 -0.209950 127 127 0
-0.522328 -0.802972 -0.048232 127 127 0
-0.137453 0.018419 0.543947 127 127 0
-0.141932 -0.873661 -0.194675 127 127 0
0.526678 -0.354846 -0.044837 127 127 0
-0.332478 0.678473 -0.325221 127 127 0
0.210255 0.894365 -0.114932 0 255 0
0.333100 0.860963 0.226982 0 255 0
-0.551344 -0.141451 -0.052879 127 127 0
0.132758 -0.363034 -0.513703 127 127 0
0.429556 0.696115 -0.015899 127 127 0
-0.479527 -0.733715 0.296150 127 127 0
0.394710 -0.320083 0.373160 127 127 0
0.380329 0.380102 0.391902 127 127 0
-0.005819 -0.873661 0.325852 127 127 0
-0.190616 0.894365 0.168522 0 255 0
-0.089673 -0.594129 0.550238 127 127 0
0.189612 0.791830 -0.076105 0 255 0
-0.331887 -0.772597 -0.425833 127 127 0
-0.411874 0.847502 0.082365 0 255 0
0.005913 -0.873661 -0.205538 127 127 0
-0.137117 0.718912 0.417513 127 127 0
0.096446 -0.029765 -0.519614 127 127 0
0.443491 0.685509 0.012743 127 127 0
0.033437 0.894365 0.105442 0 255 0
-0.231883 0.096832 0.509645 127 127 0
0.529252 0.295760 -0.025283 127 127 0
-0.238442 0.447963 0.506928 127 127 0
-0.532329 -0.290408 -0.150336 127 127 0
0.054247 -0.873661 -0.231105 127 127 0
-0.227467 0.232906 -0.485129 127 127 0
0.517605 0.395268 0.140096 127 127 0
0.341158 0.015705 0.425324 127 127 0
0.131752 0.894365 0.218619 0 255 0
0.186258 -0.068415 -0.491542 127 127 0
-0.553843 0.249148 0.060243 127 127 0
-0.510621 0.221387 -0.202742 127 127 0
0.402598 0.549657 0.362881 127 127 0
-0.192932 -0.676171 0.525779 127 127 0
-0.000205 0.489474 -0.532337 127 127 0
0.053221 0.894365 0.338977 0 255 0
-0.162729 -0.873661 0.192318 127 127 0
-0.507509 -0.801472 0.163731 127 127 0
0.401127 0.403450 0.364798 127 127 0
-0.079776 0.705714 0.441557 127 127 0
-0.549715 -0.536983 0.091602 127 127 0
-0.253725 0.343607 0.500597 127 127 0
0.289759 0.759589 0.281110 127 127 0
0.268885 -0.246403 0.480782 127 127 0
0.461396 -0.571357 0.285823 127 127 0
0.284011 -0.488433 -0.442829 127 127 0
-0.400216 0.055848 -0.373166 127 127 0
-0.348446 -0.698600 0.439471 127 127 0
-0.409068 0.249784 0.387974 127 127 0
0.480397 -0.440753 0.239950 127 127 0
0.323980 0.036845 -0.412160 127 127 0
-0.114809 0.747413 -0.382334 127 127 0
-0.429332 0.134805 -0.335220 127 127 0
-0.151133 -0.886683 -0.307309 127 127 0
0.394711 -0.723037 0.373159 127 127 0
0.231851 -0.893709 0.358782 127 127 0
0.322876 0.894365 -0.212643 0 255 0
-0.200633 -0.390959 0.522589 127 127 0
0.377431 0.818246 0.128269 0 255 0
-0.004960 -0.910140 0.417441 127 127 0
-0.533630 -0.407475 0.173539 127 127 0
-0.418505 0.035175 0.375676 127 127 0
0.231310 0.763418 0.333144 127 127 0
0.009020 -0.721105 -0.531123 127 127 0
0.083190 -0.656069 -0.521359 127 127 0
-0.496466 -0.611149 0.263260 127 127 0
-0.477206 -0.848738 0.069696 127 127 0
-0.110196 -0.873661 -0.096769 127 127 0
-0.389332 -0.391205 -0.381753 127 127 0
0.020165 0.581055 -0.529656 127 127 0
-0.201813 0.056145 0.522100 127 127 0
-0.454915 0.681349 -0.118343 127 127 0
-0.227970 0.487835 0.511266 127 127 0
-0.032384 0.391418 -0.531434 127 127 0
0.333637 -0.563474 -0.404750 127 127 0
-0.395688 -0.299541 -0.376876 127 127 0
-0.559998 -0.265001 0.012853 127 127 0
0.360561 -0.837912 0.312509 127 127 0
-0.556408 -0.643307 0.040757 127 127 0
-0.512749 0.448765 -0.197606 127 127 0
0.500857 0.335131 -0.164208 127 127 0
0.219176 -0.715013 0.504252 127 127 0
0.361739 0.553881 0.409531 127 127 0
-0.049955 -0.017952 0.555467 127 127 0
-0.144621 -0.618405 -0.516658 127 127 0
-0.115734 0.791830 0.180555 0 255 0
-0.308591 0.418856 -0.443708 127 127 0
-0.270816 0.791830 0.057707 0 255 0
0.005726 -0.889246 -0.337954 127 127 0
-0.128320 -0.645774 0.545150 127 127 0
0.010125 -0.034770 0.557324 127 127 0
-0.359407 0.412812 0.431061 127 127 0
-0.122996 -0.130449 -0.519505 127 127 0
-0.086061 -0.873661 -0.082824 127 127 0
0.404642 -0.358414 0.360217 127 127 0
-0.212634 -0.892649 -0.278362 127 127 0
0.525279 0.241136 -0.055463 127 127 0
-0.183763 0.502308 0.529577 127 127 0
-0.451996 -0.107906 -0.305685 127 127 0
0.348224 0.818194 0.198778 0 255 0
-0.174195 0.821550 -0.357969 0 255 0
-0.340506 -0.123523 -0.419219 127 127 0
0.191657 -0.244382 0.515651 127 127 0
0.386234 -0.826468 -0.271344 127 127 0
-0.427635 0.719298 0.086161 127 127 0
0.290978 0.746885 -0.257005 127 127 0
0.268811 -0.817856 0.425213 127 127 0
-0.269164 -0.807390 0.457668 127 127 0
0.527636 0.205330 -0.037562 127 127 0
-0.374732 0.106388 -0.392956 127 127 0
0.240489 -0.873661 0.007600 127 127 0
-0.435500 0.513246 -0.327183 127 127 0
0.385163 0.247350 -0.359258 127 127 0
-0.403477 0.223382 0.395260 127 127 0
0.088243 0.368074 -0.520694 127 127 0
0.116363 0.791830 -0.281225 0 255 0
-0.432882 -0.379808 -0.330595 127 127 0
0.316471 0.382516 -0.417922 127 127 0
0.010747 -0.873661 -0.114677 127 127 0
0.482923 -0.125302 0.233851 127 127 0
-0.304615 -0.791934 -0.423528 127 127 0
0.194752 0.658920 -0.433689 127 127 0
-0.546633 -0.289801 -0.088661 127 127 0
-0.368049 -0.899230 0.069383 127 127 0
0.518573 0.170996 -0.106398 127 127 0
0.466687 -0.498329 -0.246704 127 127 0
0.451834 0.540469 -0.272371 127 127 0
0.096283 0.791830 0.030237 0 255 0
0.528685 -0.407908 -0.029594 127 127 0
0.288680 0.894365 -0.005159 0 255 0
-0.143730 0.346600 0.543121 127 127 0
0.421962 0.477197 0.337645 127 127 0
0.251574 -0.022141 -0.464488 127 127 0
0.095756 -0.877482 -0.415567 127 127 0
-0.063357 0.482960 0.553702 127 127 0
-0.467615 -0.540866 0.311674 127 127 0
-0.306247 -0.852433 0.373017 127 127 0
0.481245 0.640669 -0.151752 127 127 0
0.343998 -0.910140 -0.171123 127 127 0
0.523599 0.257332 0.094568 127 127 0
0.106134 0.651453 0.505322 127 127 0
0.522794 0.271235 -0.074339 127 127 0
-0.167826 -0.048498 0.536178 127 127 0
-0.546187 0.565727 -0.092047 127 127 0
-0.336374 -0.172709 -0.422389 127 127 0
0.121411 0.894365 0.041899 0 255 0
-0.551240 -0.661657 -0.053667 127 127 0
-0.353604 -0.471907 0.435514 127 127 0
-0.411903 0.790024 0.028385 127 127 0
-0.547180 0.353007 -0.084507 127 127 0
-0.043087 0.825495 -0.390969 0 255 0
0.452503 -0.850862 0.045792 127 127 0
-0.164742 -0.526204 0.537456 127 127 0
-0.278348 0.455157 0.490399 127 127 0
0.316824 -0.885799 -0.101476 127 127 0
0.439269 -0.336187 0.315091 127 127 0
0.112515 0.791830 -0.145314 0 255 0
-0.238331 0.699651 0.393666 127 127 0
0.041823 0.791830 -0.224427 0 255 0
-0.177028 -0.883744 0.413895 127 127 0
-0.547211 0.085945 0.110619 127 127 0
0.162981 0.824953 0.378304 0 255 0
-0.000586 -0.549658 0.558734 127 127 0
0.339624 -0.190098 0.426501 127 127 0
-0.145827 -0.154316 -0.516500 127 127 0
0.272699 -0.654071 0.477855 127 127 0
-0.555104 -0.124829 0.050662 127 127 0
-0.367257 -0.910140 0.206884 127 127 0
0.519522 -0.581815 0.125534 127 127 0
-0.274784 0.530771 0.491875 127 127 0
-0.331115 -0.891873 -0.138679 127 127 0
0.422135 -0.876688 0.080289 127 127 0
0.532255 0.521013 0.028821 127 127 0
-0.528577 0.209243 0.185738 127 127 0
0.428723 -0.567822 0.328834 127 127 0
0.532979 0.264297 0.023322 127 127 0
-0.429233 -0.799165 -0.293299 127 127 0
0.499861 0.604773 0.180028 127 127 0
-0.545653 0.256205 0.122453 127 127 0
-0.226587 0.771815 -0.328221 127 127 0
0.136021 -0.180638 -0.512351 127 127 0
-0.344018 0.662727 -0.346069 127 127 0
-0.126933 0.791830 -0.171818 0 255 0
0.456376 -0.078535 0.292797 127 127 0
0.043704 -0.337867 -0.526557 127 127 0
-0.529093 0.377589 0.184492 127 127 0
0.532387 -0.231169 0.027814 127 127 0
-0.558652 0.479415 0.002633 127 127 0
-0.504238 0.483281 0.244498 127 127 0
-0.068900 0.894365 0.326504 0 255 0
-0.291633 -0.348836 -0.456721 127 127 0
0.374962 -0.753775 0.398897 127 127 0
0.337370 0.258308 -0.401886 127 127 0
-0.455685 -0.479912 -0.300877 127 127 0
0.255993 -0.347602 -0.462658 127 127 0
-0.079055 0.791830 0.191134 0 255 0
0.467646 0.367214 0.270734 127 127 0
-0.226252 -0.686032 0.511977 127 127 0
0.273062 0.101491 0.477577 127 127 0
-0.071055 0.858947 0.413632 0 255 0
-0.059095 -0.873661 0.205450 127 127 0
-0.549269 0.247348 -0.068641 127 127 0
0.193842 0.252570 -0.488401 127 127 0
0.507071 0.516466 -0.149206 127 127 0
-0.236925 0.791830 -0.198699 0 255 0
0.481724 0.326519 0.236746 127 127 0
-0.422105 -0.494808 0.370984 127 127 0
0.254191 0.033769 -0.463404 127 127 0
0.458014 0.373504 -0.264316 127 127 0
0.346478 0.894365 0.135318 0 255 0
-0.361222 -0.879759 -0.250676 127 127 0
-0.139044 -0.406242 0.543738 127 127 0
0.082954 0.894365 0.205494 0 255 0
-0.499632 0.196980 -0.229273 127 127 0
-0.109191 0.337469 -0.521323 127 127 0
0.472421 0.276729 -0.232859 127 127 0
0.508326 -0.311202 -0.146176 127 127 0
0.111224 0.894365 -0.246518 0 255 0
0.007593 -0.378782 -0.531311 127 127 0
0.133330 -0.853057 -0.427924 127 127 0
-0.487814 -0.336166 -0.257803 127 127 0
0.153990 0.573173 0.531253 127 127 0
0.046821 -0.293163 0.552492 127 127 0
0.515866 -0.088348 -0.126958 127 127 0
-0.522285 0.648481 0.035050 127 127 0
0.087678 0.249662 0.547113 127 127 0
0.420383 -0.100893 -0.313357 127 127 0
-0.244965 0.670348 -0.405035 127 127 0
0.496878 0.444241 0.200161 127 127 0
0.346362 0.791830 0.121801 0 255 0
-0.333388 0.755558 -0.232647 127 127 0
-0.551034 0.196794 -0.055233 127 127 0
-0.534939 -0.222373 -0.144033 127 127 0
-0.016968 -0.262163 0.559810 127 127 0
0.531195 0.353612 0.036874 127 127 0
0.099038 0.093404 0.545618 127 127 0
-0.551237 0.573529 0.080035 127 127 0
-0.550655 -0.052949 -0.058113 127 127 0
-0.212876 -0.797440 -0.465315 127 127 0
0.195314 0.836120 0.363458 0 255 0
0.159534 0.020353 0.528957 127 127 0
-0.521693 0.460000 0.202357 127 127 0
0.286499 -0.056622 0.467266 127 127 0
-0.003040 0.486050 0.559057 127 127 0
0.341595 -0.666135 0.424989 127 127 0
0.067861 0.745710 -0.385443 127 127 0
0.393987 0.661484 0.285338 127 127 0
0.231168 0.679280 -0.381697 127 127 0
0.265297 0.490937 -0.457190 127 127 0
-0.001100 -0.873661 -0.177328 127 127 0
-0.043374 -0.873661 0.165198 127 127 0
0.170761 0.860169 0.375081 0 255 0
-0.217737 0.894365 -0.255048 0 255 0
-0.333430 0.093397 0.450993 127 127 0
-0.260181 0.894365 -0.116648 0 255 0
0.224660 0.350039 -0.475636 127 127 0
0.426136 -0.117357 0.332205 127 127 0
0.038615 -0.404520 -0.527227 127 127 0
0.441598 -0.842461 0.154554 127 127 0
0.412221 0.101174 0.350340 127 127 0
-0.167966 -0.903899 -0.369674 127 127 0
0.046190 0.791830 0.054115 0 255 0
0.055304 0.076419 0.551376 127 127 0
-0.129137 0.263058 -0.518697 127 127 0
-0.455822 0.698765 0.007189 127 127 0
-0.492523 -0.321633 0.272782 127 127 0
-0.258114 -0.520881 0.498779 127 127 0
0.524015 -0.774566 0.082132 127 127 0
0.218531 -0.623252 -0.478174 127 127 0
0.314328 0.649360 -0.374325 127 127 0
0.381776 -0.485436 0.390017 127 127 0
-0.078314 -0.137538 0.551733 127 127 0
-0.329888 -0.522855 0.453712 127 127 0
-0.107383 0.262306 0.547906 127 127 0
0.075249 0.858963 0.409693 0 255 0
0.466836 0.394310 0.272687 127 127 0
0.388682 0.756618 -0.029976 127 127 0
-0.356919 0.237625 -0.406625 127 127 0
0.445310 0.362850 0.307217 127 127 0
0.486463 0.586647 -0.198959 127 127 0
-0.418282 0.746914 -0.014178 127 127 0
-0.188304 -0.884432 -0.382140 127 127 0
-0.326970 0.320969 0.455951 127 127 0
0.451626 0.140432 -0.272641 127 127 0
-0.417774 -0.381069 0.376629 127 127 0
-0.151680 0.791830 0.160901 0 255 0
-0.461618 -0.785489 0.299712 127 127 0
0.149278 0.546263 0.533205 127 127 0
0.458587 -0.675914 -0.263569 127 127 0
0.383670 0.045158 -0.361204 127 127 0
-0.490863 -0.822161 -0.123971 127 127 0
-0.264631 0.656901 -0.417974 127 127 0
-0.186832 -0.631237 0.528306 127 127 0
-0.089750 0.224210 -0.523882 127 127 0
0.358227 0.315818 -0.385882 127 127 0
0.495127 -0.057915 0.204389 127 127 0
-0.094708 0.458664 0.549575 127 127 0
-0.048260 0.892443 -0.390288 0 255 0
0.347013 -0.408998 0.420831 127 127 0
-0.106209 -0.873661 0.163237 127 127 0
0.393934 0.860584 0.003118 0 255 0
-0.518912 -0.724682 0.209071 127 127 0
0.332892 -0.539178 0.431667 127 127 0
-0.346039 0.274910 0.441318 127 127 0
0.183285 0.791830 0.333605 0 255 0
-0.372103 0.791830 0.054640 0 255 0
0.207289 0.894365 0.323630 0 255 0
-0.426754 0.407778 0.364925 127 127 0
-0.559258 0.550814 0.007236 127 127 0
-0.272879 -0.222707 -0.466319 127 127 0
-0.051199 -0.873661 0.007939 127 127 0
-0.189121 0.791830 0.266759 0 255 0
-0.209607 0.012095 -0.492527 127 127 0
0.492744 0.064886 0.210140 127 127 0
-0.558086 0.530263 0.028015 127 127 0
-0.496264 -0.560749 0.263749 127 127 0
0.527716 0.131627 0.063297 127 127 0
-0.266195 0.791830 -0.043751 0 255 0
-0.296387 -0.100221 -0.453073 127 127 0
-0.065716 -0.078203 0.553392 127 127 0
-0.160271 0.887401 -0.363736 0 255 0
0.266246 0.791830 0.247915 0 255 0
-0.188970 0.200999 -0.501075 127 127 0
0.275063 -0.873661 -0.065006 127 127 0
-0.479611 0.568864 0.296041 127 127 0
0.030441 -0.376850 0.554649 127 127 0
-0.244006 0.295069 -0.478278 127 127 0
-0.000471 -0.006611 -0.532373 127 127 0
0.037472 -0.737053 0.553723 127 127 0
0.495450 -0.689791 0.203608 127 127 0
0.372596 0.104990 -0.374856 127 127 0
-0.542969 0.375048 0.142838 127 127 0
-0.013448 0.894365 -0.178133 0 255 0
0.101250 0.556505 0.545326 127 127 0
-0.293660 0.078000 0.481510 127 127 0
-0.227097 0.791830 -0.262211 0 255 0
-0.315890 -0.879601 -0.156044 127 127 0
0.502489 0.110982 -0.160268 127 127 0
0.527473 -0.200135 0.065141 127 127 0
-0.531507 0.592902 -0.152320 127 127 0
-0.295435 0.791830 0.110902 0 255 0
-0.331717 -0.872668 0.327021 127 127 0
0.187794 -0.435247 0.517251 127 127 0
-0.310390 -0.386221 0.468673 127 127 0
-0.540073 -0.329582 0.157984 127 127 0
-0.529630 -0.441866 0.183196 127 127 0
0.385050 -0.799915 -0.316132 127 127 0
0.213585 0.894365 -0.237853 0 255 0
0.189238 0.363238 0.516653 127 127 0
-0.464600 0.656486 -0.192189 127 127 0
0.525970 -0.025830 0.076560 127 127 0
-0.501742 -0.720177 -0.224179 127 127 0
-0.415505 -0.286394 0.379586 127 127 0
-0.241467 0.894365 0.199912 0 255 0
0.532950 -0.063697 0.023544 127 127 0
-0.006480 0.801244 0.411299 127 127 0
-0.330587 0.665499 0.377491 127 127 0
0.526061 0.174866 0.075864 127 127 0
-0.293671 -0.335043 0.481502 127 127 0
-0.448408 -0.529567 0.336705 127 127 0
0.186559 0.288639 -0.491418 127 127 0
-0.174340 -0.873661 -0.199611 127 127 0
-0.227170 0.873434 0.358753 0 255 0
-0.338306 0.894365 -0.079169 0 255 0
0.027732 -0.868742 0.459609 127 127 0
0.434768 -0.657408 -0.294611 127 127 0
0.067490 -0.139417 -0.523426 127 127 0
-0.555577 0.375883 -0.020729 127 127 0
0.269945 -0.715688 0.479968 127 127 0
0.252768 0.791830 0.170973 0 255 0
0.417263 -0.486221 -0.317424 127 127 0
-0.528247 0.633573 0.109424 127 127 0
-0.119808 0.690227 -0.424548 127 127 0
-0.334380 -0.555975 0.450265 127 127 0
0.204709 0.861926 -0.329903 0 255 0
0.255833 0.364749 -0.462724 127 127 0
0.171884 -0.317421 -0.497496 127 127 0
-0.163233 0.791830 0.048785 0 255 0
0.253410 0.582214 0.490072 127 127 0
0.004948 0.874839 -0.392603 0 255 0
-0.210405 -0.141306 0.518541 127 127 0
0.377100 -0.777785 -0.362535 127 127 0
-0.179866 0.791830 -0.163107 0 255 0
0.485897 0.371044 -0.200325 127 127 0
-0.151947 0.894365 0.004986 0 255 0
-0.290029 -0.701759 -0.457951 127 127 0
0.462895 -0.830751 -0.093271 127 127 0
-0.035183 -0.538815 0.557411 127 127 0
-0.324712 0.503451 -0.431338 127 127 0
0.068158 -0.753316 0.549683 127 127 0
-0.522729 0.547241 -0.173511 127 127 0
0.200734 0.034830 -0.485546 127 127 0
0.299308 -0.910140 0.231940 127 127 0
-0.545395 -0.204294 0.124410 127 127 0
0.261196 0.628180 0.466093 127 127 0
-0.305222 -0.263668 -0.446294 127 127 0
-0.200638 -0.902055 -0.299422 127 127 0
-0.250611 -0.590111 -0.475542 127 127 0
0.150071 0.791830 -0.282882 0 255 0
-0.406117 0.775872 0.092222 127 127 0
0.173732 0.852191 -0.347505 0 255 0
-0.516293 -0.805515 -0.074767 127 127 0
-0.332049 0.791830 0.106383 0 255 0
0.014046 0.791830 -0.199288 0 255 0
-0.337006 0.791830 0.204855 0 255 0
0.201797 0.388010 -0.485106 127 127 0
-0.530222 -0.798278 -0.023937 127 127 0
-0.549238 0.477817 0.095223 127 127 0
-0.510480 0.652188 -0.055862 127 127 0
-0.415241 0.692193 0.207451 127 127 0
-0.040566 0.305998 0.556703 127 127 0
0.066754 0.485484 0.549868 127 127 0
0.494812 -0.364298 -0.178804 127 127 0
0.182221 -0.787408 0.504468 127 127 0
-0.134709 -0.047570 -0.517963 127 127 0
-0.025310 0.083611 -0.532365 127 127 0
0.339412 -0.895307 0.061445 127 127 0
-0.546448 0.499782 -0.090069 127 127 0
-0.283498 0.115498 -0.461920 127 127 0
0.520955 -0.452449 0.114649 127 127 0
-0.519541 -0.693697 -0.181207 127 127 0
-0.542345 0.180325 -0.121235 127 127 0
-0.141268 0.839973 -0.371608 0 255 0
0.201201 0.588308 0.511698 127 127 0
-0.246933 0.806377 -0.317242 0 255 0
0.279647 -0.744104 -0.446178 127 127 0
0.032395 0.637648 0.533272 127 127 0
-0.519610 -0.092838 0.207386 127 127 0
0.304836 0.676860 -0.329734 127 127 0
-0.484066 -0.103495 -0.263890 127 127 0
0.401615 0.026615 -0.337817 127 127 0
0.281483 0.263313 -0.444769 127 127 0
-0.497430 0.556729 0.260935 127 127 0
-0.542431 -0.041320 0.146926 127 127 0
-0.024679 -0.021404 -0.532448 127 127 0
0.251923 0.791830 0.079394 0 255 0
0.160605 -0.873661 0.196897 127 127 0
0.136352 -0.866184 0.438931 127 127 0
-0.305538 -0.891708 -0.183691 127 127 0
0.246010 0.740514 -0.300816 127 127 0
0.397416 0.340870 0.369634 127 127 0
0.252986 0.791830 -0.217565 0 255 0
0.515697 0.270313 -0.128243 127 127 0
-0.327909 0.297383 -0.428885 127 127 0
-0.017882 0.561329 -0.533343 127 127 0
0.227871 0.665904 -0.408657 127 127 0
0.390735 0.870930 -0.021187 0 255 0
0.360338 0.066974 -0.384262 127 127 0
0.526043 -0.232155 0.076004 127 127 0
-0.292758 -0.873661 0.180719 127 127 0
-0.217198 0.894365 0.009021 0 255 0
-0.078420 0.869161 -0.386317 0 255 0
0.524623 0.480123 0.086793 127 127 0
0.385863 0.834486 -0.058190 0 255 0
0.288023 0.791830 0.264383 0 255 0
-0.024532 -0.074861 -0.532468 127 127 0
-0.330487 0.091319 -0.426907 127 127 0
0.338999 -0.910140 -0.106387 127 127 0
-0.288317 -0.770460 0.485610 127 127 0
-0.516214 0.102329 0.215585 127 127 0
-0.342730 -0.909524 0.183078 127 127 0
-0.228603 -0.873661 0.018320 127 127 0
0.450865 -0.036351 0.299979 127 127 0
0.381471 -0.394032 0.390414 127 127 0
0.339664 0.772909 0.209314 127 127 0
0.188267 0.328469 0.517055 127 127 0
-0.544476 0.313566 0.131392 127 127 0
-0.138660 0.155291 -0.517443 127 127 0
0.200789 -0.346442 -0.485524 127 127 0
-0.375244 0.558271 -0.392564 127 127 0
0.531061 -0.751599 -0.011546 127 127 0
-0.399608 -0.455371 -0.373868 127 127 0
-0.501250 -0.424437 -0.225367 127 127 0
-0.028119 -0.873661 -0.299348 127 127 0
0.241313 -0.823193 -0.413298 127 127 0
-0.395953 0.293124 0.403018 127 127 0
-0.553230 0.443921 -0.038553 127 127 0
-0.033759 0.791830 0.121392 0 255 0
0.066246 -0.873661 0.028451 127 127 0
-0.281959 -0.493568 -0.462558 127 127 0
-0.212459 -0.873661 0.246639 127 127 0
-0.506678 -0.539228 0.238608 127 127 0
-0.520411 0.082955 -0.179108 127 127 0
-0.149148 0.791830 0.325348 0 255 0
0.085811 -0.769756 -0.521014 127 127 0
0.016979 0.609458 -0.522785 127 127 0
0.076741 -0.873661 0.298183 127 127 0
-0.454335 0.141420 0.328981 127 127 0
0.081981 -0.340720 -0.521518 127 127 0
-0.143814 -0.873661 0.274347 127 127 0
0.406077 -0.570651 0.358347 127 127 0
-0.159739 -0.883627 -0.394835 127 127 0
-0.539305 0.511390 0.159840 127 127 0
0.449448 0.653773 0.203617 127 127 0
-0.386792 -0.888804 -0.202568 127 127 0
-0.268606 0.791830 0.155731 0 255 0
-0.548832 -0.561475 -0.071960 127 127 0
-0.413192 -0.896584 -0.118674 127 127 0
-0.290070 0.307549 -0.457920 127 127 0
-0.211197 -0.182768 -0.491868 127 127 0
-0.542981 -0.110405 -0.116403 127 127 0
-0.353266 0.459106 0.435773 127 127 0
-0.316700 0.894365 0.083632 0 255 0
-0.327028 0.894365 0.230212 0 255 0
0.183099 0.894365 0.148813 0 255 0
-0.521798 -0.183743 0.202103 127 127 0
-0.411346 0.782030 -0.017508 127 127 0
0.083425 -0.101069 -0.521328 127 127 0
-0.195629 -0.368643 -0.498317 127 127 0
-0.046935 -0.742430 0.555864 127 127 0
0.525023 0.116312 0.083749 127 127 0
0.124168 -0.836373 0.475969 127 127 0
0.296707 0.432862 0.459432 127 127 0
-0.213931 -0.889026 0.392940 127 127 0
-0.067556 0.031588 -0.526804 127 127 0
-0.451216 -0.556517 0.333047 127 127 0
-0.301659 -0.746431 -0.449027 127 127 0
-0.232411 -0.853867 0.423015 127 127 0
0.484960 0.508745 -0.202588 127 127 0
-0.457119 0.115732 0.325354 127 127 0
0.392687 -0.269875 -0.349451 127 127 0
-0.048572 0.894365 0.170224 0 255 0
-0.303332 -0.910140 0.243853 127 127 0
-0.002988 -0.670004 -0.532704 127 127 0
0.239737 0.894365 0.056110 0 255 0
0.237823 0.791830 -0.010334 0 255 0
0.061045 -0.119203 0.550620 127 127 0
-0.469750 0.187897 -0.282548 127 127 0
-0.451435 0.006759 -0.306415 127 127 0
-0.546047 0.318414 -0.093113 127 127 0
-0.392136 0.768903 0.146660 127 127 0
-0.117092 0.791830 -0.010314 0 255 0
-0.144886 -0.256276 0.542969 127 127 0
-0.355448 0.682547 0.317311 127 127 0
-0.105720 -0.543055 0.548125 127 127 0
-0.338436 0.122988 -0.420808 127 127 0
0.140531 0.611418 -0.501628 127 127 0
0.531004 0.488571 0.038320 127 127 0
0.190923 0.747173 -0.341298 127 127 0
-0.414848 0.750127 0.062089 127 127 0
-0.032957 -0.598517 0.557705 127 127 0
-0.471540 0.028140 0.306559 127 127 0
0.461590 -0.004596 -0.259008 127 127 0
-0.473578 0.596684 0.302237 127 127 0
0.352271 -0.910140 -0.056594 127 127 0
-0.131502 -0.873661 -0.032202 127 127 0
-0.544587 0.215759 -0.104204 127 127 0
-0.378656 -0.503359 -0.389945 127 127 0
-0.138274 0.243471 0.543839 127 127 0
0.094441 -0.560264 -0.519878 127 127 0
-0.449185 0.675122 0.182875 127 127 0
0.515819 0.305947 0.153660 127 127 0
0.308193 -0.521762 -0.424274 127 127 0
-0.093956 0.894365 -0.359222 0 255 0
-0.207727 0.791830 -0.030817 0 255 0
0.477633 0.427986 0.246622 127 127 0
0.156901 -0.873661 -0.172790 127 127 0
0.280020 -0.748305 0.472237 127 127 0
-0.108646 0.894365 0.268118 0 255 0
0.014212 0.894365 0.289134 0 255 0
0.025913 -0.873661 0.305773 127 127 0
-0.373380 0.853139 -0.173809 0 255 0
-0.251828 0.894365 -0.063119 0 255 0
-0.227328 -0.527549 0.511532 127 127 0
-0.511572 -0.206955 -0.200447 127 127 0
0.519820 0.071291 0.123269 127 127 0
-0.549196 0.132194 -0.069196 127 127 0
-0.100025 0.894365 0.023078 0 255 0
-0.282694 0.596768 0.487455 127 127 0
-0.242684 -0.873661 -0.043471 127 127 0
-0.529260 0.234621 -0.157744 127 127 0
0.506652 0.461442 0.176563 127 127 0
-0.112303 -0.083588 -0.520913 127 127 0
-0.558414 0.227918 0.025522 127 127 0
0.169376 0.227414 0.524880 127 127 0
0.384455 -0.345994 -0.360180 127 127 0
-0.545309 -0.695786 -0.098718 127 127 0
-0.508680 -0.398554 0.233775 127 127 0
0.521438 0.318943 -0.084638 127 127 0
-0.382725 -0.175965 0.413168 127 127 0
0.341851 0.672160 -0.300693 127 127 0
0.188344 0.894365 -0.331601 0 255 0
0.083563 0.157694 -0.521310 127 127 0
-0.468718 -0.831170 0.180439 127 127 0
-0.060485 -0.873661 -0.303981 127 127 0
0.499778 -0.128199 -0.166813 127 127 0
-0.217962 -0.877116 0.288407 127 127 0
0.214767 -0.606949 0.506079 127 127 0
-0.327158 0.791830 0.033824 0 255 0
0.526466 -0.578528 -0.046448 127 127 0
0.029448 0.894365 0.201529 0 255 0
0.133152 -0.726058 0.539884 127 127 0
-0.400239 -0.362366 0.399480 127 127 0
0.070806 0.476821 -0.522989 127 127 0
0.073401 0.791830 -0.383217 0 255 0
0.063011 0.894365 0.386883 0 255 0
-0.479470 0.481394 -0.269880 127 127 0
-0.515474 -0.030819 0.217372 127 127 0
-0.532157 0.415117 0.177097 127 127 0
0.499930 0.527046 0.192793 127 127 0
-0.535784 0.612805 0.129563 127 127 0
-0.252174 0.013865 0.501240 127 127 0
-0.529330 -0.698373 0.183920 127 127 0
0.165837 0.245216 -0.500001 127 127 0
0.491301 -0.802883 0.115529 127 127 0
-0.301505 -0.533438 0.475491 127 127 0
-0.513116 0.644275 -0.122810 127 127 0
-0.491323 -0.269935 0.275677 127 127 0
0.037066 -0.510223 -0.527431 127 127 0
-0.322977 0.519548 0.459015 127 127 0
0.381476 0.286668 0.390407 127 127 0
0.406217 -0.425558 -0.331820 127 127 0
0.431340 -0.002854 -0.299078 127 127 0
0.269527 -0.910140 0.270566 127 127 0
0.013951 0.830657 0.417763 0 255 0
-0.503965 0.257155 -0.218811 127 127 0
-0.322842 0.570093 0.459118 127 127 0
-0.354071 -0.004399 0.435155 127 127 0
0.516358 0.146636 0.149563 127 127 0
0.168881 -0.408330 -0.498740 127 127 0
-0.500774 -0.434962 0.252861 127 127 0
0.201045 0.791830 0.235317 0 255 0
-0.556787 -0.001262 -0.011534 127 127 0
-0.407187 -0.677493 -0.364081 127 127 0
0.266413 -0.245947 -0.456333 127 127 0
0.367267 0.586232 0.405290 127 127 0
-0.053231 -0.458263 0.555035 127 127 0
0.167708 0.791830 -0.039026 0 255 0
-0.308112 -0.910140 -0.257541 127 127 0
0.065274 0.652785 -0.482346 127 127 0
-0.053891 0.567040 0.554949 127 127 0
-0.555453 -0.408665 -0.021667 127 127 0
0.121754 0.691437 -0.414684 127 127 0
-0.492036 0.474864 0.273957 127 127 0
-0.016310 -0.608261 -0.533550 127 127 0
-0.146619 0.696187 -0.410233 127 127 0
0.306882 -0.886809 0.153421 127 127 0
0.228475 0.791830 -0.039849 0 255 0
-0.452451 -0.345501 -0.305091 127 127 0
0.522200 0.159806 0.105190 127 127 0
0.138268 -0.873661 -0.076052 127 127 0
0.529109 -0.012169 -0.026370 127 127 0
-0.215541 0.308702 0.516414 127 127 0
-0.545458 -0.240841 -0.097584 127 127 0
-0.393738 -0.575048 0.404717 127 127 0
-0.068551 0.178850 -0.526673 127 127 0
0.213707 -0.573394 -0.480173 127 127 0
-0.214654 0.443817 -0.490437 127 127 0
-0.325827 -0.873661 0.015744 127 127 0
-0.535919 0.323770 0.168013 127 127 0
0.470231 -0.397658 0.264492 127 127 0
0.398894 -0.286676 0.367708 127 127 0
-0.344448 -0.170824 0.442539 127 127 0
-0.329998 0.641077 -0.397664 127 127 0
0.527721 0.353538 0.063262 127 127 0
-0.261597 -0.873661 -0.176796 127 127 0
0.341194 -0.891519 0.020036 127 127 0
0.244944 0.401939 -0.467234 127 127 0
0.426583 0.682851 0.145104 127 127 0
0.423568 -0.883177 0.020119 127 127 0
0.504471 0.064151 -0.155485 127 127 0
-0.406164 0.009028 -0.365414 127 127 0
0.172977 -0.833823 0.458488 127 127 0
-0.548749 -0.499811 0.098936 127 127 0
-0.216650 -0.873661 -0.149220 127 127 0
-0.400811 0.427610 0.398734 127 127 0
0.136677 -0.509419 0.538424 127 127 0
-0.486411 0.670110 -0.033210 127 127 0
-0.330308 -0.096785 0.453389 127 127 0
0.378414 -0.569945 -0.368052 127 127 0
-0.080157 0.617875 0.540071 127 127 0
-0.159900 -0.849869 0.457341 127 127 0
-0.432087 -0.842332 -0.213610 127 127 0
0.456703 0.419601 0.292370 127 127 0
0.087169 -0.016911 0.547180 127 127 0
-0.557124 0.441623 -0.008975 127 127 0
-0.178313 0.791830 -0.189106 0 255 0
0.106460 0.791830 0.259817 0 255 0
0.162609 0.503618 0.527683 127 127 0
-0.404595 -0.910140 0.010865 127 127 0
-0.548763 -0.021270 -0.072484 127 127 0
0.349537 -0.707654 0.418894 127 127 0
-0.078818 0.395270 -0.525321 127 127 0
-0.247358 -0.342639 0.503235 127 127 0
0.456792 -0.838478 0.107281 127 127 0
-0.034901 0.232164 0.557449 127 127 0
-0.165153 0.033944 0.537285 127 127 0
-0.456515 0.570473 -0.299795 127 127 0
-0.387640 0.434007 -0.383052 127 127 0
-0.500586 0.572433 -0.226970 127 127 0
0.316984 -0.106831 0.443874 127 127 0
-0.146320 -0.412913 -0.516435 127 127 0
-0.124954 0.894365 0.319612 0 255 0
-0.394755 0.835446 -0.122205 0 255 0
0.476241 -0.444036 -0.223639 127 127 0
0.229303 -0.088533 -0.473713 127 127 0
0.228971 0.240947 0.500195 127 127 0
-0.184540 -0.330167 0.529255 127 127 0
-0.553477 -0.309543 0.063023 127 127 0
0.116514 0.838749 0.397551 0 255 0
0.419104 -0.239786 0.341370 127 127 0
-0.150688 -0.576903 -0.515860 127 127 0
0.221374 -0.449581 0.503342 127 127 0
0.110226 -0.902414 0.410874 127 127 0
-0.450505 -0.375830 0.333973 127 127 0
-0.124920 0.894365 0.206484 0 255 0
-0.501917 0.044992 -0.223756 127 127 0
-0.277606 0.894365 -0.097579 0 255 0
0.526847 0.454173 -0.043552 127 127 0
-0.254542 0.023067 -0.473914 127 127 0
0.517272 -0.297854 0.142623 127 127 0
0.283116 -0.218179 -0.443516 127 127 0
-0.178563 -0.873661 0.241578 127 127 0
0.412702 0.383604 -0.323367 127 127 0
0.201226 0.791830 0.272314 0 255 0
-0.408326 0.748043 0.114558 127 127 0
-0.242880 0.894365 -0.011992 0 255 0
0.431326 0.686031 -0.074699 127 127 0
-0.298371 -0.015144 0.477896 127 127 0
0.053117 -0.874390 -0.322654 127 127 0
0.234594 0.320992 -0.471521 127 127 0
-0.553521 -0.540243 0.062692 127 127 0
-0.082241 0.791830 0.133276 0 255 0
-0.548458 -0.763798 -0.074796 127 127 0
0.208795 0.791830 -0.258783 0 255 0
-0.078507 0.305028 0.551708 127 127 0
0.170167 0.179448 -0.498208 127 127 0
-0.369683 0.360532 0.423176 127 127 0
0.131664 0.791830 0.140307 0 255 0
0.401976 0.712195 0.128495 127 127 0
0.150387 -0.873661 0.070876 127 127 0
0.295941 -0.891814 -0.161400 127 127 0
-0.358824 -0.287768 -0.405163 127 127 0
-0.509546 -0.790538 -0.160793 127 127 0
0.034994 -0.214773 -0.527704 127 127 0
-0.531313 0.558896 0.179132 127 127 0
0.391748 -0.083623 -0.350675 127 127 0
-0.034239 -0.334376 -0.531190 127 127 0
0.016074 -0.873661 -0.316302 127 127 0
0.158149 -0.106814 0.529531 127 127 0
-0.033589 -0.118933 0.557621 127 127 0
0.313451 -0.866866 -0.300403 127 127 0
-0.054976 0.791830 0.098551 0 255 0
-0.427108 -0.118793 0.364464 127 127 0
0.238007 -0.873661 -0.101282 127 127 0
0.393003 -0.755582 -0.349039 127 127 0
0.290627 0.611334 -0.427492 127 127 0
-0.154117 -0.680795 0.541753 127 127 0
0.377875 0.777469 0.109100 127 127 0
0.388433 0.760426 0.052859 127 127 0
0.522230 -0.277714 -0.078617 127 127 0
-0.557842 -0.383204 0.029866 127 127 0
0.523271 0.487385 -0.070715 127 127 0
-0.172736 -0.107240 0.534144 127 127 0
-0.499307 -0.078598 -0.230056 127 127 0
0.312960 0.806692 0.253229 0 255 0
0.520479 0.526546 0.118264 127 127 0
-0.033083 0.374389 0.557688 127 127 0
-0.357230 -0.281327 0.432731 127 127 0
-0.277124 0.894365 -0.172568 0 255 0
-0.234879 0.543906 -0.482059 127 127 0
-0.472769 -0.178975 -0.278612 127 127 0
-0.552914 -0.445159 0.067298 127 127 0
0.109795 0.791830 -0.006405 0 255 0
-0.407573 0.809207 0.115037 0 255 0
0.315136 0.894365 0.072483 0 255 0
-0.517134 -0.406899 -0.187018 127 127 0
0.511625 0.629574 0.055190 127 127 0
-0.254204 -0.910140 -0.291009 127 127 0
0.280857 0.515123 0.471595 127 127 0
-0.444598 -0.445835 0.341671 127 127 0
-0.178330 0.894365 -0.209472 0 255 0
-0.258311 -0.791396 0.479327 127 127 0
-0.414540 0.807613 0.062113 0 255 0
-0.542803 -0.149414 0.144101 127 127 0
0.354290 0.149403 0.415247 127 127 0
-0.551835 -0.447802 -0.049149 127 127 0
-0.421821 0.100428 -0.345010 127 127 0
0.044694 -0.076252 -0.526427 127 127 0
-0.161033 -0.061138 -0.512647 127 127 0
-0.156896 -0.095428 -0.514361 127 127 0
-0.125618 -0.118730 0.545505 127 127 0
-0.094599 0.088712 0.549589 127 127 0
0.449682 -0.152401 0.301520 127 127 0
-0.307810 0.892189 0.293467 0 255 0
0.519188 -0.756402 0.128072 127 127 0
-0.146495 0.791830 0.105213 0 255 0
-0.387977 -0.189029 -0.382793 127 127 0
-0.243853 0.791830 -0.003769 0 255 0
0.486052 0.233674 -0.199952 127 127 0
0.133333 0.489947 0.539809 127 127 0
-0.442616 -0.708407 -0.317909 127 127 0
-0.080251 -0.748889 0.551478 127 127 0
0.532764 -0.417759 0.024956 127 127 0
0.249261 0.801955 0.322062 0 255 0
0.008014 0.894365 -0.331810 0 255 0
0.408227 -0.442421 0.355545 127 127 0
0.132324 -0.146919 0.540228 127 127 0
-0.209544 -0.902791 0.319861 127 127 0
0.027912 0.791830 0.190739 0 255 0
0.304607 0.664100 -0.353980 127 127 0
-0.556002 0.525642 -0.017496 127 127 0
-0.258840 -0.405538 0.498479 127 127 0
-0.209283 0.512532 -0.492661 127 127 0
0.312540 0.694766 0.317942 127 127 0
0.508946 0.282766 0.171026 127 127 0
0.529945 -0.461346 -0.020018 127 127 0
0.142158 -0.732757 -0.509809 127 127 0
-0.343482 -0.873661 0.037978 127 127 0
0.384041 -0.005807 -0.360719 127 127 0
0.256500 -0.884160 -0.325455 127 127 0
-0.029490 0.117064 -0.531815 127 127 0
-0.177616 0.772187 0.378844 127 127 0
0.421701 -0.309975 -0.311640 127 127 0
0.196617 0.457993 0.513597 127 127 0
-0.534793 -0.062845 0.170732 127 127 0
0.123852 -0.873661 -0.137697 127 127 0
-0.534523 -0.376560 -0.145037 127 127 0
0.289204 -0.867953 0.346960 127 127 0
-0.364349 -0.814551 0.375775 127 127 0
0.249724 -0.870396 0.374201 127 127 0
-0.099484 0.038862 0.548946 127 127 0
0.179318 -0.666085 0.520762 127 127 0
0.353854 0.248518 0.415582 127 127 0
0.008456 0.666615 0.495297 127 127 0
-0.155729 0.572435 -0.514844 127 127 0
-0.551223 0.598204 -0.040363 127 127 0
0.407040 -0.143032 0.357092 127 127 0
-0.367662 -0.049211 -0.398381 127 127 0
0.013835 0.894365 -0.252166 0 255 0
0.034076 0.894365 0.070103 0 255 0
0.306933 0.791830 0.175231 0 255 0
-0.226093 0.023814 0.512043 127 127 0
-0.031609 0.719172 -0.408860 127 127 0
-0.297290 0.518509 0.478725 127 127 0
0.253215 -0.831935 -0.393240 127 127 0
0.411581 -0.415102 0.351174 127 127 0
0.173341 0.671947 -0.421456 127 127 0
-0.118381 -0.671023 -0.520113 127 127 0
-0.548598 -0.185154 0.100082 127 127 0
0.504945 0.065952 0.180685 127 127 0
-0.551952 0.569683 -0.048258 127 127 0
0.313104 -0.237296 0.446851 127 127 0
-0.045384 -0.818704 0.510709 127 127 0
-0.353642 0.024673 0.435485 127 127 0
-0.391337 -0.476557 0.406559 127 127 0
-0.550187 -0.521470 -0.061669 127 127 0
0.337758 0.089559 -0.401588 127 127 0
0.116027 -0.419015 0.543381 127 127 0
-0.128476 -0.250674 -0.518784 127 127 0
0.502487 -0.016414 -0.160273 127 127 0
0.503489 0.577104 0.184202 127 127 0
0.471407 -0.140720 -0.235309 127 127 0
0.234617 0.894365 0.234642 0 255 0
0.185384 -0.910140 0.340225 127 127 0
0.230813 0.521683 -0.473087 127 127 0
-0.153442 0.769680 -0.363010 127 127 0
-0.033581 0.165001 0.557622 127 127 0
-0.551343 0.346974 0.079234 127 127 0
-0.519194 -0.577686 0.208392 127 127 0
-0.511521 0.012437 -0.200569 127 127 0
0.052234 0.810047 -0.386378 0 255 0
0.010169 -0.910140 -0.379874 127 127 0
0.104714 -0.082455 0.544870 127 127 0
0.187887 0.201497 -0.490868 127 127 0
0.455917 -0.406208 -0.267049 127 127 0
0.290530 -0.643707 0.464173 127 127 0
-0.483146 -0.502113 -0.265089 127 127 0
0.254214 0.670297 -0.380958 127 127 0
-0.155484 -0.873661 0.168658 127 127 0
0.496331 -0.269220 -0.175135 127 127 0
0.534215 0.180754 0.012413 127 127 0
-0.206220 0.791830 -0.120244 0 255 0
-0.337292 0.820144 -0.228699 0 255 0
0.486707 0.268536 0.224716 127 127 0
0.402476 -0.520925 -0.336695 127 127 0
0.314040 -0.689289 0.446132 127 127 0
-0.140604 -0.768523 -0.517187 127 127 0
0.131403 -0.770903 0.540609 127 127 0
0.082160 -0.873661 0.233589 127 127 0
-0.298243 0.411163 0.477993 127 127 0
0.532324 -0.001912 -0.001950 127 127 0
-0.271789 0.076815 0.493115 127 127 0
-0.041386 0.782059 0.411935 127 127 0
-0.453814 -0.852229 -0.135519 127 127 0
-0.105645 -0.588667 -0.521789 127 127 0
0.016400 -0.873661 0.082052 127 127 0
-0.399830 -0.515781 -0.373668 127 127 0
0.341860 0.616592 -0.384956 127 127 0
-0.303229 0.728246 0.310166 127 127 0
-0.201914 0.894365 -0.199411 0 255 0
-0.498641 0.192395 0.258010 127 127 0
-0.454170 0.469088 0.329196 127 127 0
0.516012 0.022102 0.152194 127 127 0
-0.408892 0.854610 -0.078672 0 255 0
-0.526608 -0.120678 -0.164146 127 127 0
-0.153748 0.081859 -0.515457 127 127 0
-0.509666 0.658639 0.014431 127 127 0
0.027116 -0.558636 -0.528741 127 127 0
-0.370203 -0.042724 0.422776 127 127 0
-0.396882 -0.780801 0.391713 127 127 0
-0.139860 0.791830 0.370828 0 255 0
0.409353 0.270247 0.354078 127 127 0
0.119617 0.791830 0.166471 0 255 0
0.521665 0.322545 0.109257 127 127 0
0.350636 0.777098 -0.154471 127 127 0
0.450461 -0.677882 0.300504 127 127 0
0.422714 0.150285 -0.310320 127 127 0
0.019893 -0.509024 0.556038 127 127 0
0.020012 0.791830 -0.368371 0 255 0
-0.094403 0.791830 -0.060326 0 255 0
0.073304 -0.443343 0.549006 127 127 0
0.425299 0.038750 -0.306951 127 127 0
0.498004 -0.426988 -0.171097 127 127 0
-0.299217 -0.896339 -0.297198 127 127 0
0.214632 0.791830 0.088712 0 255 0
-0.073015 -0.549235 -0.526085 127 127 0
-0.164370 -0.873661 0.085272 127 127 0
-0.557466 0.124400 0.032726 127 127 0
0.213871 -0.101986 0.506450 127 127 0
-0.299097 -0.569189 -0.450993 127 127 0
-0.218844 -0.056939 -0.488701 127 127 0
-0.285947 0.791830 -0.213168 0 255 0
0.341114 0.661514 -0.327826 127 127 0
0.047786 0.554205 0.552365 127 127 0
0.028169 0.286769 0.554948 127 127 0
0.108880 -0.028065 0.544322 127 127 0
0.392488 0.849855 0.034212 0 255 0
-0.307206 0.076204 -0.444771 127 127 0
-0.093138 -0.775326 0.547800 127 127 0
-0.127233 0.791830 0.243431 0 255 0
-0.108198 0.791830 -0.101319 0 255 0
0.310148 0.788544 -0.219467 127 127 0
-0.068560 0.819716 0.413961 0 255 0
-0.094958 0.530701 -0.523196 127 127 0
-0.127296 0.791830 0.128824 0 255 0
0.334944 0.333149 -0.403747 127 127 0
0.046578 0.791830 0.238576 0 255 0
-0.195780 0.894365 0.029983 0 255 0
-0.138979 -0.750039 0.543746 127 127 0
-0.559254 -0.589397 0.019143 127 127 0
0.364865 0.869417 0.158604 0 255 0
-0.523132 0.318122 0.198885 127 127 0
0.518144 -0.059662 -0.109659 127 127 0
0.439433 0.270917 -0.288531 127 127 0
-0.185223 -0.631401 -0.502627 127 127 0
-0.156054 0.791830 -0.219554 0 255 0
-0.083022 0.894365 0.087243 0 255 0
-0.400121 -0.723178 -0.373289 127 127 0
0.026264 -0.873661 -0.222291 127 127 0
-0.483804 0.357437 -0.264232 127 127 0
0.114833 0.581842 0.543538 127 127 0
0.218409 0.062392 0.504570 127 127 0
-0.542128 0.459854 -0.122878 127 127 0
-0.354286 0.080738 0.434990 127 127 0
-0.190335 -0.475850 0.526855 127 127 0
0.243724 0.894365 0.311453 0 255 0
-0.548480 0.360723 0.100976 127 127 0
-0.182862 -0.873661 -0.022816 127 127 0
0.479610 0.022244 0.241849 127 127 0
0.519599 -0.341727 -0.098607 127 127 0
0.235578 -0.419824 0.497458 127 127 0
-0.197299 -0.873661 0.018486 127 127 0
-0.097901 0.866749 0.410098 0 255 0
0.079492 -0.799513 -0.495678 127 127 0
-0.555271 0.031438 -0.023053 127 127 0
-0.125196 0.811944 0.404610 0 255 0
0.204697 -0.873661 0.218752 127 127 0
-0.465559 0.257651 0.314354 127 127 0
-0.043220 0.894365 0.415350 0 255 0
-0.078807 -0.362853 -0.525323 127 127 0
0.008974 -0.797570 -0.506904 127 127 0
0.530205 -0.626348 -0.018044 127 127 0
0.506045 -0.800638 0.005755 127 127 0
-0.504525 -0.646719 -0.217461 127 127 0
-0.163109 0.894365 -0.271477 0 255 0
-0.127604 0.894365 -0.350474 0 255 0
-0.173711 -0.758171 -0.507396 127 127 0
0.253873 0.791830 0.284260 0 255 0
0.280662 -0.165000 -0.445399 127 127 0
-0.550570 0.339663 -0.058754 127 127 0
0.065907 -0.873661 -0.022132 127 127 0
-0.157827 -0.883400 0.328732 127 127 0
-0.191651 0.003351 0.526309 127 127 0
-0.520605 0.621007 0.171419 127 127 0
0.319616 -0.663452 -0.415509 127 127 0
-0.042798 0.894365 -0.046044 0 255 0
-0.060349 0.791830 -0.134572 0 255 0
-0.465648 -0.662890 -0.287894 127 127 0
-0.435073 0.435773 0.354084 127 127 0
0.190983 0.728084 0.375262 127 127 0
0.406043 0.680974 -0.175689 127 127 0
0.311317 0.756235 -0.227681 127 127 0
0.525892 -0.312684 -0.050804 127 127 0
0.193925 0.791830 -0.308571 0 255 0
-0.417391 -0.067373 -0.350782 127 127 0
0.226464 0.159162 -0.474889 127 127 0
0.412206 -0.864165 -0.142936 127 127 0
0.091970 0.693498 -0.421741 127 127 0
0.005661 -0.203502 0.557911 127 127 0
-0.472966 0.667531 -0.128801 127 127 0
0.060294 0.791830 0.368601 0 255 0
-0.153525 -0.543710 -0.515486 127 127 0
-0.542635 -0.292309 -0.119027 127 127 0
0.261895 -0.786406 0.469823 127 127 0
0.063011 0.894365 -0.078130 0 255 0
-0.266713 0.694093 0.378440 127 127 0
-0.556957 0.145213 -0.010245 127 127 0
-0.473209 -0.106749 0.304384 127 127 0
0.016561 0.791830 0.258453 0 255 0
-0.516151 -0.593567 -0.189393 127 127 0
-0.382261 -0.541235 0.413524 127 127 0
0.467255 0.103436 -0.245331 127 127 0
0.043617 -0.873661 0.203245 127 127 0
0.060988 -0.164453 0.550627 127 127 0
0.135488 0.791830 -0.127394 0 255 0
0.024742 -0.028843 -0.529053 127 127 0
-0.087703 -0.717397 -0.524152 127 127 0
0.516216 -0.635167 -0.124299 127 127 0
-0.543364 0.205291 0.139837 127 127 0
-0.293769 0.791830 0.073773 0 255 0
-0.040729 0.791830 0.308645 0 255 0
0.441634 -0.415154 -0.285664 127 127 0
0.146186 0.791830 0.278547 0 255 0
-0.169436 -0.301224 0.535511 127 127 0
-0.366374 -0.784389 0.411913 127 127 0
0.475996 0.353373 -0.224230 127 127 0
-0.313473 0.390787 0.466307 127 127 0
-0.544410 -0.152651 -0.105543 127 127 0
-0.314271 0.791830 0.149476 0 255 0
-0.315254 -0.335961 0.464940 127 127 0
-0.042536 0.244193 -0.530098 127 127 0
0.463771 -0.415175 0.280087 127 127 0
-0.479803 0.292911 0.295791 127 127 0
0.510848 -0.123387 0.166434 127 127 0
-0.418517 -0.868775 0.204210 127 127 0
-0.479545 0.209804 0.296127 127 127 0
-0.515208 0.217683 0.218015 127 127 0
0.130573 0.431868 0.540953 127 127 0
0.392045 -0.377024 0.376633 127 127 0
-0.375246 -0.343117 -0.392562 127 127 0
0.126465 -0.637109 -0.515662 127 127 0
0.202028 -0.290117 0.511355 127 127 0
-0.194129 -0.192202 0.525283 127 127 0
0.231644 -0.775135 0.497167 127 127 0
-0.109959 0.050468 -0.521222 127 127 0
0.244564 0.791830 0.127743 0 255 0
0.217616 0.017181 0.504899 127 127 0
0.517570 -0.694311 0.140362 127 127 0
-0.497981 -0.458122 0.259603 127 127 0
-0.042573 0.279566 0.556439 127 127 0
-0.491192 -0.397211 0.275994 127 127 0
-0.279834 0.259185 -0.463438 127 127 0
0.529679 0.347032 -0.022044 127 127 0
0.247309 0.894365 -0.275590 0 255 0
-0.072108 -0.860934 0.464961 127 127 0
-0.373600 0.796207 0.178321 127 127 0
0.330291 -0.889409 0.093083 127 127 0
0.030960 0.631541 -0.510111 127 127 0
0.316477 0.241932 -0.417918 127 127 0
-0.172668 0.647145 -0.472566 127 127 0
0.400074 0.641626 -0.299877 127 127 0
-0.084201 -0.148172 -0.524612 127 127 0
0.161643 0.894365 -0.069732 0 255 0
0.194206 0.530966 0.514595 127 127 0
-0.532130 0.211486 -0.150814 127 127 0
-0.544939 -0.651718 0.127871 127 127 0
-0.009225 -0.447641 0.559871 127 127 0
-0.126027 0.612568 0.536636 127 127 0
0.032962 0.894365 -0.107582 0 255 0
0.473840 -0.806183 -0.144358 127 127 0
-0.297008 -0.206217 -0.452596 127 127 0
0.415789 0.405924 0.345690 127 127 0
0.524111 -0.291845 0.090679 127 127 0
0.347212 0.791830 -0.088194 0 255 0
-0.319989 0.801825 -0.251249 0 255 0
0.464290 -0.062535 -0.252489 127 127 0
-0.336066 0.204597 -0.422626 127 127 0
0.283287 0.728013 0.304997 127 127 0
-0.060267 -0.873661 -0.071062 127 127 0
-0.554707 -0.556827 -0.027332 127 127 0
-0.361716 0.894365 -0.023308 0 255 0
-0.419366 -0.164063 -0.348209 127 127 0
-0.421441 0.061328 0.371849 127 127 0
-0.051306 0.487582 -0.528943 127 127 0
-0.355872 0.737004 0.235282 127 127 0
0.139246 -0.873661 0.257652 127 127 0
0.106105 0.276672 0.544687 127 127 0
-0.218843 0.811983 0.365143 0 255 0
-0.392668 -0.909782 0.160376 127 127 0
0.322258 0.086684 0.439826 127 127 0
0.042585 0.707329 -0.415198 127 127 0
0.455839 0.253972 -0.267151 127 127 0
0.057644 0.894365 0.275977 0 255 0
-0.366225 0.894365 -0.173575 0 255 0
-0.249188 0.791830 -0.297243 0 255 0
0.266357 0.894365 -0.138782 0 255 0
0.104525 -0.519048 -0.518550 127 127 0
-0.222463 -0.820787 0.462635 127 127 0
-0.262445 -0.415639 -0.470641 127 127 0
-0.250079 0.588752 -0.475763 127 127 0
-0.218414 0.261462 0.515224 127 127 0
0.200052 0.894365 -0.188133 0 255 0
0.286119 0.166674 0.467558 127 127 0
0.509005 -0.787797 0.095646 127 127 0
0.239158 0.791830 -0.297326 0 255 0
-0.055440 -0.182729 -0.528399 127 127 0
-0.158693 0.894365 0.181752 0 255 0
0.104291 0.633125 0.526026 127 127 0
0.526314 -0.250923 -0.047602 127 127 0
-0.508282 -0.567831 -0.208389 127 127 0
0.187572 -0.873661 0.261456 127 127 0
-0.409759 0.885623 -0.072085 0 255 0
0.465888 0.248268 0.274977 127 127 0
-0.077276 0.791830 0.031643 0 255 0
0.096846 -0.700835 0.545906 127 127 0
-0.550082 -0.684095 -0.062463 127 127 0
0.205137 0.569085 -0.483723 127 127 0
0.099041 0.894365 0.393395 0 255 0
-0.231056 0.189416 -0.483643 127 127 0
0.175577 -0.873661 0.098427 127 127 0
0.496589 0.007859 0.200858 127 127 0
-0.237748 0.791830 0.030384 0 255 0
-0.470399 -0.860548 -0.005339 127 127 0
0.038955 -0.875361 -0.425167 127 127 0
-0.547476 0.530557 -0.082255 127 127 0
-0.333420 0.724122 0.279164 127 127 0
-0.385079 0.791830 0.118362 0 255 0
-0.466850 0.512415 -0.286326 127 127 0
0.457104 0.326044 0.291847 127 127 0
-0.290651 0.625021 0.465167 127 127 0
-0.306125 0.894365 0.105279 0 255 0
-0.477342 0.678798 0.028832 127 127 0
-0.054201 0.894365 0.199464 0 255 0
-0.537543 -0.252650 0.164092 127 127 0
0.225879 0.727586 -0.324211 127 127 0
0.237503 -0.873661 0.035985 127 127 0
-0.379417 0.657400 0.347892 127 127 0
-0.284409 -0.786581 -0.445723 127 127 0
-0.182075 0.443069 -0.503931 127 127 0
-0.542114 0.077915 0.149330 127 127 0
-0.398901 -0.541651 -0.374411 127 127 0
0.159974 -0.748526 0.528774 127 127 0
0.453467 -0.446920 -0.270242 127 127 0
0.266430 0.705445 0.345537 127 127 0
0.475096 0.661253 -0.025297 127 127 0
-0.093058 0.791830 -0.276567 0 255 0
0.209326 -0.747855 -0.481987 127 127 0
-0.285235 -0.573235 0.487546 127 127 0
-0.254783 0.859415 -0.311219 0 255 0
-0.291640 -0.899196 -0.213979 127 127 0
-0.276596 0.894365 0.068768 0 255 0
-0.491690 -0.383822 -0.248447 127 127 0
0.433882 -0.790998 -0.267016 127 127 0
-0.173599 0.894365 -0.054863 0 255 0
-0.416203 -0.815704 0.309689 127 127 0
0.329713 0.173091 -0.407761 127 127 0
-0.328036 -0.873661 -0.009823 127 127 0
-0.552383 0.609610 0.010949 127 127 0
-0.413983 -0.507509 -0.355224 127 127 0
-0.037010 -0.407384 0.557171 127 127 0
0.035589 0.181761 0.553971 127 127 0
-0.252486 0.791830 0.298320 0 255 0
0.416318 -0.832449 0.241522 127 127 0
-0.549403 -0.571520 0.093964 127 127 0
0.324750 -0.623363 0.437915 127 127 0
