0.323548 0.571116 0.261665 0.500000 0.500000 0.000000
-0.134418 -0.916245 0.220068 0.500000 0.500000 0.000000
0.072485 0.571404 -0.409862 0.500000 0.500000 0.000000
0.260971 0.630092 0.324331 0.500000 0.500000 0.000000
0.415704 0.040881 -0.026111 0.500000 0.500000 0.000000
-0.399472 0.524607 0.125464 0.500000 0.500000 0.000000
-0.124225 0.285333 -0.399033 0.500000 0.500000 0.000000
-0.380304 0.253481 -0.170965 0.500000 0.500000 0.000000
-0.008672 0.790592 0.473927 0.000000 1.000000 0.000000
0.415084 -0.184449 -0.030821 0.500000 0.500000 0.000000
0.279303 -0.694044 -0.309489 0.500000 0.500000 0.000000
0.156380 -0.737218 -0.385142 0.500000 0.500000 0.000000
-0.396392 -0.073200 -0.132125 0.500000 0.500000 0.000000
0.287306 0.024186 0.304124 0.500000 0.500000 0.000000
0.236815 -0.916245 0.086786 0.500000 0.500000 0.000000
-0.346288 -0.216006 0.233830 0.500000 0.500000 0.000000
-0.025719 0.202922 -0.416201 0.500000 0.500000 0.000000
-0.388270 0.754014 0.152507 0.500000 0.500000 0.000000
0.408999 -0.120809 -0.077044 0.500000 0.500000 0.000000
-0.211884 0.790472 -0.205925 0.000000 1.000000 0.000000
0.016461 0.756121 0.395866 0.000000 1.000000 0.000000
-0.362973 0.544311 0.212084 0.500000 0.500000 0.000000
0.237253 -0.356612 0.342531 0.500000 0.500000 0.000000
-0.412272 -0.786836 -0.062666 0.500000 0.500000 0.000000
0.001708 -0.759045 0.419955 0.500000 0.500000 0.000000
-0.117504 -0.916245 0.001716 0.500000 0.500000 0.000000
-0.377739 -0.348069 -0.177156 0.500000 0.500000 0.000000
0.015332 0.644130 -0.417387 0.500000 0.500000 0.000000
0.258734 0.790472 -0.336694 0.000000 1.000000 0.000000
0.190454 0.301211 0.371803 0.500000 0.500000 0.000000
0.305127 -0.199986 -0.284897 0.500000 0.500000 0.000000
-0.316000 -0.760761 0.273301 0.500000 0.500000 0.000000
-0.240031 0.790472 0.000976 0.000000 1.000000 0.000000
-0.312779 -0.565135 -0.276724 0.500000 0.500000 0.000000
0.281271 0.790472 0.142719 0.000000 1.000000 0.000000
0.313383 0.362862 -0.274138 0.500000 0.500000 0.000000
-0.399449 -0.529923 -0.124744 0.500000 0.500000 0.000000
0.086220 0.226959 -0.408054 0.500000 0.500000 0.000000
-0.020950 0.434078 -0.416829 0.500000 0.500000 0.000000
0.352455 -0.352169 0.223993 0.500000 0.500000 0.000000
-0.049311 0.790472 0.108528 0.000000 1.000000 0.000000
0.309550 -0.047954 -0.279132 0.500000 0.500000 0.000000
-0.014825 0.756121 0.271895 0.000000 1.000000 0.000000
0.395576 0.790472 -0.044076 0.000000 1.000000 0.000000
-0.153521 0.790472 0.245446 0.000000 1.000000 0.000000
0.204545 -0.137916 0.365967 0.500000 0.500000 0.000000
-0.048704 0.790472 -0.035148 0.000000 1.000000 0.000000
-0.296585 0.280399 -0.297288 0.500000 0.500000 0.000000
0.045650 -0.821631 0.414170 0.500000 0.500000 0.000000
-0.267876 -0.367652 -0.319317 0.500000 0.500000 0.000000
-0.253280 0.756121 -0.140949 0.000000 1.000000 0.000000
-0.074639 0.790472 -0.158088 0.000000 1.000000 0.000000
-0.167163 -0.090353 0.382022 0.500000 0.500000 0.000000
0.253319 -0.632199 -0.329428 0.500000 0.500000 0.000000
0.434745 0.808552 -0.128197 0.000000 1.000000 0.000000
0.256599 -0.022487 -0.326911 0.500000 0.500000 0.000000
-0.076071 0.663234 0.410347 0.500000 0.500000 0.000000
-0.313370 -0.916245 0.035094 0.500000 0.500000 0.000000
-0.410655 0.532986 0.075723 0.500000 0.500000 0.000000
0.092679 0.756121 0.303851 0.000000 1.000000 0.000000
0.254423 -0.436991 -0.328581 0.500000 0.500000 0.000000
-0.377541 0.612839 -0.177636 0.500000 0.500000 0.000000
-0.001599 -0.626395 -0.419376 0.500000 0.500000 0.000000
0.407250 -0.484107 -0.090329 0.500000 0.500000 0.000000
0.406833 0.581152 0.094274 0.500000 0.500000 0.000000
-0.139519 -0.916245 0.080250 0.500000 0.500000 0.000000
-0.311879 0.642838 -0.277897 0.500000 0.500000 0.000000
-0.319863 -0.864468 0.268267 0.500000 0.500000 0.000000
0.040104 -0.420140 0.414901 0.500000 0.500000 0.000000
0.127632 -0.874411 -0.397051 0.500000 0.500000 0.000000
-0.125282 -0.251584 0.399370 0.500000 0.500000 0.000000
0.368816 -0.114911 0.196142 0.500000 0.500000 0.000000
0.053542 0.790472 -0.352481 0.000000 1.000000 0.000000
0.012703 0.790472 -0.083874 0.000000 1.000000 0.000000
-0.399026 -0.734645 -0.125766 0.500000 0.500000 0.000000
-0.407896 -0.585677 0.096683 0.500000 0.500000 0.000000
0.407312 0.527245 -0.089855 0.500000 0.500000 0.000000
-0.336341 0.757885 -0.335114 0.000000 1.000000 0.000000
-0.134785 0.600898 0.395434 0.500000 0.500000 0.000000
-0.416219 -0.282531 -0.032688 0.500000 0.500000 0.000000
0.070420 -0.624481 0.410909 0.500000 0.500000 0.000000
0.198078 -0.087997 -0.367870 0.500000 0.500000 0.000000
0.354448 0.759507 0.310492 0.000000 1.000000 0.000000
-0.403549 -0.292002 -0.114845 0.500000 0.500000 0.000000
0.208288 0.756121 -0.204347 0.000000 1.000000 0.000000
-0.391917 -0.834341 0.143704 0.500000 0.500000 0.000000
-0.098320 0.790472 -0.289655 0.000000 1.000000 0.000000
-0.419182 -0.859815 -0.010185 0.500000 0.500000 0.000000
0.247534 -0.088342 -0.333867 0.500000 0.500000 0.000000
0.190421 -0.520386 0.371817 0.500000 0.500000 0.000000
-0.088235 0.790472 -0.098830 0.000000 1.000000 0.000000
-0.294029 -0.167093 0.300025 0.500000 0.500000 0.000000
-0.410979 0.108049 -0.072490 0.500000 0.500000 0.000000
-0.290390 0.756121 -0.001136 0.000000 1.000000 0.000000
-0.356161 -0.401160 -0.220186 0.500000 0.500000 0.000000
0.283047 -0.138906 0.307392 0.500000 0.500000 0.000000
0.041694 -0.517501 0.414691 0.500000 0.500000 0.000000
-0.148012 -0.782016 -0.389180 0.500000 0.500000 0.000000
-0.146457 0.756121 -0.364071 0.000000 1.000000 0.000000
-0.378332 0.344107 -0.175726 0.500000 0.500000 0.000000
0.378823 0.756121 0.049342 0.000000 1.000000 0.000000
0.296349 0.682861 -0.296337 0.500000 0.500000 0.000000
-0.417761 0.122799 0.021749 0.500000 0.500000 0.000000
0.231978 -0.750810 0.346579 0.500000 0.500000 0.000000
0.359455 -0.052214 -0.214095 0.500000 0.500000 0.000000
0.232272 0.756121 0.106079 0.000000 1.000000 0.000000
-0.374811 -0.025435 -0.184226 0.500000 0.500000 0.000000
0.033758 0.790472 0.010894 0.000000 1.000000 0.000000
-0.150251 0.790472 0.102259 0.000000 1.000000 0.000000
-0.413219 -0.663299 0.056248 0.500000 0.500000 0.000000
0.067332 -0.219924 -0.410541 0.500000 0.500000 0.000000
-0.380530 0.573971 0.171195 0.500000 0.500000 0.000000
0.350901 0.415915 0.226018 0.500000 0.500000 0.000000
0.078723 0.756121 0.186206 0.000000 1.000000 0.000000
0.282773 0.074540 -0.306827 0.500000 0.500000 0.000000
0.419182 0.801855 -0.215506 0.000000 1.000000 0.000000
0.063638 0.309051 -0.411027 0.500000 0.500000 0.000000
0.091552 0.499823 -0.407352 0.500000 0.500000 0.000000
-0.031088 -0.550708 0.416269 0.500000 0.500000 0.000000
0.166317 0.790472 0.345727 0.000000 1.000000 0.000000
0.052970 -0.543237 -0.412432 0.500000 0.500000 0.000000
0.040581 0.790472 0.249707 0.000000 1.000000 0.000000
0.284406 0.790472 -0.208062 0.000000 1.000000 0.000000
-0.410843 -0.085912 0.074298 0.500000 0.500000 0.000000
0.127793 0.541144 0.397759 0.500000 0.500000 0.000000
-0.019357 -0.807317 -0.417038 0.500000 0.500000 0.000000
0.064591 -0.916245 -0.230579 0.500000 0.500000 0.000000
-0.171300 0.305348 0.380309 0.500000 0.500000 0.000000
0.226147 -0.469643 0.351053 0.500000 0.500000 0.000000
-0.100225 -0.349506 -0.406392 0.500000 0.500000 0.000000
-0.474412 0.761733 0.006980 0.000000 1.000000 0.000000
-0.004136 0.790472 0.194560 0.000000 1.000000 0.000000
0.410586 -0.612712 -0.064991 0.500000 0.500000 0.000000
0.083353 0.790472 -0.274347 0.000000 1.000000 0.000000
0.418105 0.279333 -0.007874 0.500000 0.500000 0.000000
0.241522 0.756121 -0.074189 0.000000 1.000000 0.000000
0.390622 0.209720 0.143497 0.500000 0.500000 0.000000
-0.360591 0.274633 0.215188 0.500000 0.500000 0.000000
0.105727 -0.347433 -0.405486 0.500000 0.500000 0.000000
0.380637 0.756121 -0.068962 0.000000 1.000000 0.000000
0.414782 -0.702598 -0.033120 0.500000 0.500000 0.000000
-0.231662 0.790472 0.172880 0.000000 1.000000 0.000000
0.044619 0.175017 0.414306 0.500000 0.500000 0.000000
0.402730 -0.787770 0.114265 0.500000 0.500000 0.000000
0.439690 0.756121 -0.083780 0.000000 1.000000 0.000000
0.136170 0.307445 -0.393514 0.500000 0.500000 0.000000
-0.270745 0.790472 0.119190 0.000000 1.000000 0.000000
-0.409914 -0.724491 0.081356 0.500000 0.500000 0.000000
-0.135975 0.756121 0.288506 0.000000 1.000000 0.000000
-0.281300 0.756121 -0.228110 0.000000 1.000000 0.000000
0.335849 -0.668333 -0.244860 0.500000 0.500000 0.000000
0.392044 0.331514 -0.139290 0.500000 0.500000 0.000000
-0.153324 0.756121 -0.303291 0.000000 1.000000 0.000000
0.191447 0.790472 0.071416 0.000000 1.000000 0.000000
0.062984 -0.117683 -0.411113 0.500000 0.500000 0.000000
0.181447 -0.916245 0.003337 0.500000 0.500000 0.000000
-0.353721 -0.289643 -0.223367 0.500000 0.500000 0.000000
0.392350 -0.356362 -0.138551 0.500000 0.500000 0.000000
0.382589 -0.747912 0.162891 0.500000 0.500000 0.000000
0.091852 0.756121 -0.231783 0.000000 1.000000 0.000000
0.159786 0.219376 0.384507 0.500000 0.500000 0.000000
0.406053 0.204109 0.100194 0.500000 0.500000 0.000000
0.404547 -0.587565 -0.109103 0.500000 0.500000 0.000000
0.250610 -0.288672 0.332282 0.500000 0.500000 0.000000
-0.083553 0.371516 0.409362 0.500000 0.500000 0.000000
-0.236390 0.433430 -0.343477 0.500000 0.500000 0.000000
0.395098 -0.558583 0.132691 0.500000 0.500000 0.000000
-0.166671 -0.015744 0.382226 0.500000 0.500000 0.000000
-0.188179 0.756121 0.393684 0.000000 1.000000 0.000000
-0.013135 -0.652402 0.418633 0.500000 0.500000 0.000000
-0.305248 0.180371 0.287314 0.500000 0.500000 0.000000
0.193133 0.756121 -0.299033 0.000000 1.000000 0.000000
0.416254 -0.174631 0.022713 0.500000 0.500000 0.000000
0.125647 -0.164479 0.398648 0.500000 0.500000 0.000000
0.154485 0.756121 0.145445 0.000000 1.000000 0.000000
-0.302132 -0.467981 -0.290599 0.500000 0.500000 0.000000
0.115049 -0.713747 0.403037 0.500000 0.500000 0.000000
-0.353873 -0.223644 -0.223168 0.500000 0.500000 0.000000
-0.148851 -0.469753 -0.388833 0.500000 0.500000 0.000000
0.283239 0.790472 0.188629 0.000000 1.000000 0.000000
-0.038277 -0.707686 0.415323 0.500000 0.500000 0.000000
-0.292515 -0.409916 0.301186 0.500000 0.500000 0.000000
-0.313486 -0.916245 -0.200546 0.500000 0.500000 0.000000
-0.415919 0.710806 -0.034965 0.500000 0.500000 0.000000
0.148280 -0.916245 -0.263300 0.500000 0.500000 0.000000
-0.362121 -0.785300 -0.212420 0.500000 0.500000 0.000000
0.074244 0.790472 -0.072083 0.000000 1.000000 0.000000
-0.397421 -0.407602 0.130415 0.500000 0.500000 0.000000
-0.381070 -0.508977 -0.169114 0.500000 0.500000 0.000000
-0.153413 0.756121 -0.152314 0.000000 1.000000 0.000000
-0.405441 -0.897615 0.111052 0.500000 0.500000 0.000000
-0.340481 0.790472 -0.220670 0.000000 1.000000 0.000000
-0.159160 0.790472 -0.073208 0.000000 1.000000 0.000000
-0.266411 0.583361 0.321217 0.500000 0.500000 0.000000
-0.324018 -0.729191 -0.262077 0.500000 0.500000 0.000000
-0.058230 0.756121 0.345203 0.000000 1.000000 0.000000
0.075669 0.756121 0.240793 0.000000 1.000000 0.000000
0.357829 0.494479 0.216990 0.500000 0.500000 0.000000
0.365523 0.324662 0.204092 0.500000 0.500000 0.000000
-0.206787 0.790472 0.077145 0.000000 1.000000 0.000000
-0.230912 0.756121 -0.066927 0.000000 1.000000 0.000000
0.212480 0.756121 0.048028 0.000000 1.000000 0.000000
0.371421 0.041819 0.189854 0.500000 0.500000 0.000000
0.154680 -0.574505 -0.385847 0.500000 0.500000 0.000000
0.220501 0.631650 0.355385 0.500000 0.500000 0.000000
-0.211349 -0.916245 -0.096301 0.500000 0.500000 0.000000
-0.187780 0.424167 0.373483 0.500000 0.500000 0.000000
-0.238145 -0.061758 0.342906 0.500000 0.500000 0.000000
-0.252397 0.527135 -0.331195 0.500000 0.500000 0.000000
0.148616 0.245277 -0.388359 0.500000 0.500000 0.000000
-0.334256 0.213345 -0.248734 0.500000 0.500000 0.000000
-0.348685 0.756121 0.123949 0.000000 1.000000 0.000000
-0.370491 -0.862113 0.195430 0.500000 0.500000 0.000000
0.061844 -0.884335 -0.411263 0.500000 0.500000 0.000000
0.049824 -0.354810 -0.412846 0.500000 0.500000 0.000000
-0.098029 0.431769 -0.406681 0.500000 0.500000 0.000000
0.407544 0.112768 -0.088099 0.500000 0.500000 0.000000
-0.150463 0.790472 0.352290 0.000000 1.000000 0.000000
-0.406927 0.652322 -0.103268 0.500000 0.500000 0.000000
-0.302147 0.756121 0.214317 0.000000 1.000000 0.000000
-0.416165 0.243511 0.033878 0.500000 0.500000 0.000000
0.304932 0.275231 -0.285151 0.500000 0.500000 0.000000
-0.279483 0.790472 -0.301744 0.000000 1.000000 0.000000
-0.065338 -0.916245 -0.306553 0.500000 0.500000 0.000000
0.072301 0.392284 0.410662 0.500000 0.500000 0.000000
-0.181485 -0.334023 -0.375315 0.500000 0.500000 0.000000
0.272601 0.724242 0.315407 0.500000 0.500000 0.000000
0.248140 0.757491 -0.401769 0.000000 1.000000 0.000000
0.231798 0.756121 0.282524 0.000000 1.000000 0.000000
0.107710 0.790472 0.167308 0.000000 1.000000 0.000000
0.303051 -0.806838 0.288378 0.500000 0.500000 0.000000
0.110234 -0.916245 -0.115394 0.500000 0.500000 0.000000
-0.196535 -0.336100 0.369856 0.500000 0.500000 0.000000
-0.055127 0.276030 0.413104 0.500000 0.500000 0.000000
-0.276685 0.042866 -0.312558 0.500000 0.500000 0.000000
-0.414097 -0.375624 -0.048809 0.500000 0.500000 0.000000
0.096557 -0.285284 -0.406693 0.500000 0.500000 0.000000
0.082055 -0.151869 0.409378 0.500000 0.500000 0.000000
0.397788 -0.027623 0.126198 0.500000 0.500000 0.000000
0.157538 -0.916245 -0.117320 0.500000 0.500000 0.000000
0.034441 -0.916245 -0.093547 0.500000 0.500000 0.000000
-0.296359 0.790472 -0.069564 0.000000 1.000000 0.000000
-0.295975 0.808552 -0.353826 0.000000 1.000000 0.000000
0.342395 0.107010 0.237103 0.500000 0.500000 0.000000
-0.164264 -0.223601 -0.382448 0.500000 0.500000 0.000000
-0.385975 0.790472 -0.098968 0.000000 1.000000 0.000000
0.416811 0.209142 0.018483 0.500000 0.500000 0.000000
-0.351098 0.808552 -0.286983 0.000000 1.000000 0.000000
0.130702 0.756121 -0.210068 0.000000 1.000000 0.000000
0.341987 0.080579 -0.236860 0.500000 0.500000 0.000000
0.296379 -0.232817 0.297072 0.500000 0.500000 0.000000
-0.323340 0.790472 0.280235 0.000000 1.000000 0.000000
-0.130926 -0.874806 -0.396257 0.500000 0.500000 0.000000
0.254768 -0.916245 -0.140086 0.500000 0.500000 0.000000
0.010461 -0.563071 -0.418028 0.500000 0.500000 0.000000
-0.408199 -0.631073 0.094383 0.500000 0.500000 0.000000
0.159533 -0.299509 0.384612 0.500000 0.500000 0.000000
-0.375185 0.701887 -0.183324 0.500000 0.500000 0.000000
-0.304260 0.756121 0.053931 0.000000 1.000000 0.000000
0.116974 -0.916245 0.047648 0.500000 0.500000 0.000000
0.408015 -0.071054 -0.084516 0.500000 0.500000 0.000000
0.058707 0.756121 -0.288543 0.000000 1.000000 0.000000
0.097819 0.790472 -0.147038 0.000000 1.000000 0.000000
-0.204136 0.581491 0.366708 0.500000 0.500000 0.000000
0.253979 0.756121 -0.203029 0.000000 1.000000 0.000000
0.202522 -0.829876 -0.366030 0.500000 0.500000 0.000000
-0.220093 0.120419 -0.355983 0.500000 0.500000 0.000000
0.205022 -0.032540 0.365769 0.500000 0.500000 0.000000
-0.027166 0.119028 -0.416010 0.500000 0.500000 0.000000
-0.250094 -0.274014 0.333737 0.500000 0.500000 0.000000
0.381633 0.790472 -0.194345 0.000000 1.000000 0.000000
-0.161684 0.319532 -0.383517 0.500000 0.500000 0.000000
0.115255 0.215849 0.402952 0.500000 0.500000 0.000000
-0.008407 0.714548 -0.418480 0.500000 0.500000 0.000000
-0.051268 -0.916245 -0.165018 0.500000 0.500000 0.000000
-0.068268 0.713027 -0.410599 0.500000 0.500000 0.000000
0.212238 -0.658482 -0.360950 0.500000 0.500000 0.000000
-0.092069 -0.070999 0.408241 0.500000 0.500000 0.000000
-0.123195 0.756121 0.344330 0.000000 1.000000 0.000000
0.021498 0.613841 0.417350 0.500000 0.500000 0.000000
0.368931 -0.916245 0.061070 0.500000 0.500000 0.000000
0.319338 0.756121 0.062530 0.000000 1.000000 0.000000
0.049837 0.756121 -0.009899 0.000000 1.000000 0.000000
0.142968 -0.362714 -0.390698 0.500000 0.500000 0.000000
0.141503 -0.055769 -0.391305 0.500000 0.500000 0.000000
0.033968 0.794976 -0.442286 0.000000 1.000000 0.000000
-0.195378 0.756121 -0.116752 0.000000 1.000000 0.000000
-0.398899 -0.723705 0.126847 0.500000 0.500000 0.000000
-0.404098 0.623795 0.114295 0.500000 0.500000 0.000000
-0.221186 -0.911121 -0.355144 0.500000 0.500000 0.000000
-0.196358 -0.859293 -0.369154 0.500000 0.500000 0.000000
0.392466 0.194516 -0.138271 0.500000 0.500000 0.000000
0.090613 -0.916245 0.245088 0.500000 0.500000 0.000000
0.239621 -0.731143 -0.339939 0.500000 0.500000 0.000000
-0.054376 0.575980 -0.412428 0.500000 0.500000 0.000000
-0.029389 -0.916245 -0.249811 0.500000 0.500000 0.000000
-0.064813 0.356771 -0.411054 0.500000 0.500000 0.000000
-0.009612 0.790472 -0.270592 0.000000 1.000000 0.000000
0.183517 -0.916245 0.158610 0.500000 0.500000 0.000000
-0.042063 -0.343848 0.414824 0.500000 0.500000 0.000000
-0.365667 0.067800 0.207077 0.500000 0.500000 0.000000
-0.407456 -0.342288 0.100024 0.500000 0.500000 0.000000
0.408773 0.756121 0.140519 0.000000 1.000000 0.000000
0.011935 0.790472 0.429517 0.000000 1.000000 0.000000
-0.354049 0.790472 0.161575 0.000000 1.000000 0.000000
-0.378962 0.790472 -0.202235 0.000000 1.000000 0.000000
-0.347740 -0.378384 0.231937 0.500000 0.500000 0.000000
-0.300356 -0.277778 -0.292914 0.500000 0.500000 0.000000
0.005909 0.756121 0.041230 0.000000 1.000000 0.000000
0.146023 -0.916245 0.363800 0.500000 0.500000 0.000000
-0.334059 0.038599 -0.248991 0.500000 0.500000 0.000000
0.116252 0.110249 0.402539 0.500000 0.500000 0.000000
0.218372 -0.916245 -0.169140 0.500000 0.500000 0.000000
-0.384139 0.753883 -0.161706 0.500000 0.500000 0.000000
0.147561 0.756121 -0.250808 0.000000 1.000000 0.000000
0.229594 0.790472 -0.117777 0.000000 1.000000 0.000000
0.352894 0.808552 -0.271903 0.000000 1.000000 0.000000
-0.268247 -0.145622 -0.319033 0.500000 0.500000 0.000000
0.411539 -0.041414 0.058529 0.500000 0.500000 0.000000
0.183353 0.790472 0.135425 0.000000 1.000000 0.000000
0.359602 0.000841 -0.213904 0.500000 0.500000 0.000000
0.327677 -0.815737 -0.255509 0.500000 0.500000 0.000000
0.335984 0.790472 0.002645 0.000000 1.000000 0.000000
0.084922 0.790472 -0.416100 0.000000 1.000000 0.000000
-0.102245 0.756121 0.163053 0.000000 1.000000 0.000000
-0.196616 -0.011031 -0.369048 0.500000 0.500000 0.000000
0.015580 -0.916245 -0.020868 0.500000 0.500000 0.000000
0.277583 -0.499952 -0.310809 0.500000 0.500000 0.000000
-0.096191 0.126404 0.407698 0.500000 0.500000 0.000000
-0.367822 -0.544157 -0.201100 0.500000 0.500000 0.000000
0.253222 0.476659 -0.329502 0.500000 0.500000 0.000000
0.394383 -0.495656 -0.133643 0.500000 0.500000 0.000000
0.162030 0.790472 -0.055203 0.000000 1.000000 0.000000
-0.375012 -0.013351 0.184515 0.500000 0.500000 0.000000
-0.461846 0.806266 -0.101655 0.000000 1.000000 0.000000
0.116225 0.756121 0.101100 0.000000 1.000000 0.000000
0.327466 -0.675357 0.256559 0.500000 0.500000 0.000000
-0.065446 0.790472 0.188442 0.000000 1.000000 0.000000
0.418400 -0.758998 0.006412 0.500000 0.500000 0.000000
-0.378951 -0.464270 -0.174231 0.500000 0.500000 0.000000
-0.145523 0.044951 -0.390211 0.500000 0.500000 0.000000
-0.418708 0.553363 -0.013788 0.500000 0.500000 0.000000
-0.378206 0.101335 0.176804 0.500000 0.500000 0.000000
-0.407008 -0.001891 0.103428 0.500000 0.500000 0.000000
0.357200 0.684187 0.217809 0.500000 0.500000 0.000000
-0.235000 0.790472 -0.157559 0.000000 1.000000 0.000000
-0.031123 -0.193346 -0.415489 0.500000 0.500000 0.000000
-0.026083 0.800766 -0.443506 0.000000 1.000000 0.000000
0.168427 -0.012767 0.380928 0.500000 0.500000 0.000000
-0.415761 -0.173101 0.036940 0.500000 0.500000 0.000000
0.418377 -0.512258 -0.005812 0.500000 0.500000 0.000000
-0.260210 -0.724240 -0.325200 0.500000 0.500000 0.000000
-0.255280 -0.748410 0.329758 0.500000 0.500000 0.000000
-0.139890 0.508053 0.393319 0.500000 0.500000 0.000000
0.298747 0.790472 -0.149083 0.000000 1.000000 0.000000
0.031500 -0.671817 0.416033 0.500000 0.500000 0.000000
-0.135011 -0.916245 -0.072774 0.500000 0.500000 0.000000
-0.390068 -0.826146 -0.147392 0.500000 0.500000 0.000000
0.257418 -0.884227 -0.326283 0.500000 0.500000 0.000000
0.374271 -0.836854 -0.182198 0.500000 0.500000 0.000000
-0.202737 -0.810956 0.367287 0.500000 0.500000 0.000000
-0.325804 0.756121 0.307367 0.000000 1.000000 0.000000
0.375385 0.683789 -0.179509 0.500000 0.500000 0.000000
0.168018 0.756121 0.200154 0.000000 1.000000 0.000000
0.417809 0.668500 -0.010124 0.500000 0.500000 0.000000
-0.256897 0.756121 -0.284210 0.000000 1.000000 0.000000
0.340339 -0.135726 0.239783 0.500000 0.500000 0.000000
0.366658 -0.493447 -0.200577 0.500000 0.500000 0.000000
-0.102073 -0.837629 -0.406149 0.500000 0.500000 0.000000
0.103948 -0.049312 0.406495 0.500000 0.500000 0.000000
-0.063112 0.790472 0.411276 0.000000 1.000000 0.000000
-0.286349 -0.104504 -0.305143 0.500000 0.500000 0.000000
0.009083 -0.916245 -0.170215 0.500000 0.500000 0.000000
0.405146 -0.422229 0.107088 0.500000 0.500000 0.000000
0.242777 0.384776 -0.337517 0.500000 0.500000 0.000000
-0.397624 -0.418404 -0.129150 0.500000 0.500000 0.000000
0.007145 0.790472 -0.220097 0.000000 1.000000 0.000000
-0.386018 0.525155 -0.157170 0.500000 0.500000 0.000000
0.367918 0.588877 0.198311 0.500000 0.500000 0.000000
0.408717 -0.762583 -0.079186 0.500000 0.500000 0.000000
0.129563 0.790472 -0.318686 0.000000 1.000000 0.000000
-0.336454 -0.100732 -0.245870 0.500000 0.500000 0.000000
0.239735 0.161734 0.340626 0.500000 0.500000 0.000000
0.090017 0.790472 0.032603 0.000000 1.000000 0.000000
0.295847 -0.537491 -0.296795 0.500000 0.500000 0.000000
0.234827 0.033041 0.344392 0.500000 0.500000 0.000000
0.115205 0.790472 0.311637 0.000000 1.000000 0.000000
-0.298730 0.511305 0.295809 0.500000 0.500000 0.000000
-0.405890 -0.126788 -0.109193 0.500000 0.500000 0.000000
0.405926 -0.668999 -0.100383 0.500000 0.500000 0.000000
-0.253202 0.790472 -0.085209 0.000000 1.000000 0.000000
0.265842 0.756121 0.073072 0.000000 1.000000 0.000000
-0.360668 0.756121 -0.069147 0.000000 1.000000 0.000000
0.225420 0.206090 -0.350836 0.500000 0.500000 0.000000
-0.418908 0.008105 -0.012266 0.500000 0.500000 0.000000
-0.116848 -0.506188 -0.402089 0.500000 0.500000 0.000000
-0.411320 -0.888696 0.070674 0.500000 0.500000 0.000000
-0.387338 0.448299 -0.153984 0.500000 0.500000 0.000000
-0.195987 0.500706 -0.369308 0.500000 0.500000 0.000000
0.031554 -0.298795 0.416026 0.500000 0.500000 0.000000
-0.071818 0.756121 -0.299827 0.000000 1.000000 0.000000
-0.418532 -0.502388 0.015899 0.500000 0.500000 0.000000
0.282006 0.790472 0.012104 0.000000 1.000000 0.000000
0.355855 -0.093491 -0.218787 0.500000 0.500000 0.000000
-0.409872 -0.612201 -0.080897 0.500000 0.500000 0.000000
-0.335086 0.756121 -0.150316 0.000000 1.000000 0.000000
0.082407 -0.797315 0.409331 0.500000 0.500000 0.000000
0.418914 0.713541 -0.001735 0.500000 0.500000 0.000000
0.247142 0.756121 0.206435 0.000000 1.000000 0.000000
-0.271100 -0.500947 -0.316844 0.500000 0.500000 0.000000
-0.038669 -0.654445 -0.414496 0.500000 0.500000 0.000000
0.002068 0.790472 -0.397242 0.000000 1.000000 0.000000
0.252379 -0.207724 0.330924 0.500000 0.500000 0.000000
-0.292596 0.236871 -0.300350 0.500000 0.500000 0.000000
-0.056659 -0.916245 0.163410 0.500000 0.500000 0.000000
0.407335 -0.377282 0.090461 0.500000 0.500000 0.000000
0.000741 0.035024 -0.419308 0.500000 0.500000 0.000000
-0.314240 0.488134 -0.274820 0.500000 0.500000 0.000000
0.043614 0.269340 0.414438 0.500000 0.500000 0.000000
-0.110279 -0.649261 0.405585 0.500000 0.500000 0.000000
0.080158 -0.879026 0.409627 0.500000 0.500000 0.000000
0.064175 0.425533 -0.410957 0.500000 0.500000 0.000000
0.121874 -0.104208 0.400210 0.500000 0.500000 0.000000
0.340778 0.756055 0.239211 0.500000 0.500000 0.000000
0.351353 -0.352720 -0.224655 0.500000 0.500000 0.000000
-0.418802 -0.760384 0.013847 0.500000 0.500000 0.000000
-0.355639 0.790472 0.088639 0.000000 1.000000 0.000000
-0.273533 -0.681001 0.315752 0.500000 0.500000 0.000000
-0.410462 0.696627 0.077190 0.500000 0.500000 0.000000
-0.322035 0.123281 0.265437 0.500000 0.500000 0.000000
-0.205111 0.790472 -0.044287 0.000000 1.000000 0.000000
-0.407251 -0.349746 -0.100807 0.500000 0.500000 0.000000
-0.148141 -0.458198 0.389902 0.500000 0.500000 0.000000
-0.420241 0.328487 0.002918 0.500000 0.500000 0.000000
-0.408043 -0.156949 0.095563 0.500000 0.500000 0.000000
0.283827 -0.258776 -0.306018 0.500000 0.500000 0.000000
-0.305716 0.532484 -0.285929 0.500000 0.500000 0.000000
-0.326187 0.148524 -0.259250 0.500000 0.500000 0.000000
0.019091 0.409970 0.417667 0.500000 0.500000 0.000000
-0.017881 0.756121 0.358400 0.000000 1.000000 0.000000
0.415550 -0.440739 0.028055 0.500000 0.500000 0.000000
0.405686 -0.295118 -0.102212 0.500000 0.500000 0.000000
0.098091 -0.726787 -0.406491 0.500000 0.500000 0.000000
0.239719 -0.916245 0.176603 0.500000 0.500000 0.000000
0.204308 -0.005361 -0.365290 0.500000 0.500000 0.000000
0.270599 -0.428770 0.316943 0.500000 0.500000 0.000000
-0.366351 0.503766 0.205425 0.500000 0.500000 0.000000
-0.414936 -0.541132 -0.042435 0.500000 0.500000 0.000000
-0.164862 0.790472 0.393288 0.000000 1.000000 0.000000
-0.161580 -0.617474 0.384335 0.500000 0.500000 0.000000
0.177671 0.053291 0.377098 0.500000 0.500000 0.000000
0.274875 0.504093 0.313663 0.500000 0.500000 0.000000
0.336228 -0.272494 -0.244366 0.500000 0.500000 0.000000
0.299848 -0.767886 -0.291776 0.500000 0.500000 0.000000
-0.356628 0.313990 -0.219579 0.500000 0.500000 0.000000
0.320494 0.756121 0.138808 0.000000 1.000000 0.000000
0.217961 -0.560166 -0.356559 0.500000 0.500000 0.000000
0.357105 -0.534719 0.217933 0.500000 0.500000 0.000000
0.339399 0.521618 -0.240234 0.500000 0.500000 0.000000
-0.293331 0.661142 0.300560 0.500000 0.500000 0.000000
-0.005238 -0.413948 -0.418897 0.500000 0.500000 0.000000
-0.049712 -0.307367 -0.413042 0.500000 0.500000 0.000000
-0.215641 -0.488699 0.360173 0.500000 0.500000 0.000000
0.344681 -0.876370 0.234124 0.500000 0.500000 0.000000
0.342988 0.756121 -0.087819 0.000000 1.000000 0.000000
-0.100238 0.376977 -0.406390 0.500000 0.500000 0.000000
-0.230060 -0.835609 0.349110 0.500000 0.500000 0.000000
0.389878 -0.497300 0.145295 0.500000 0.500000 0.000000
0.339643 -0.130836 -0.239915 0.500000 0.500000 0.000000
-0.417191 0.484448 0.026081 0.500000 0.500000 0.000000
0.130794 -0.797022 0.396516 0.500000 0.500000 0.000000
-0.419571 -0.443191 -0.007235 0.500000 0.500000 0.000000
0.293436 -0.414042 -0.298645 0.500000 0.500000 0.000000
-0.278095 0.461388 -0.311476 0.500000 0.500000 0.000000
0.125471 -0.828755 -0.397945 0.500000 0.500000 0.000000
-0.414715 -0.575755 0.044885 0.500000 0.500000 0.000000
-0.362160 0.425368 0.213144 0.500000 0.500000 0.000000
0.361170 0.756121 0.155078 0.000000 1.000000 0.000000
0.263506 0.628198 -0.321612 0.500000 0.500000 0.000000
-0.282590 0.380392 -0.308027 0.500000 0.500000 0.000000
-0.142699 -0.626735 -0.391381 0.500000 0.500000 0.000000
-0.043363 -0.262594 0.414653 0.500000 0.500000 0.000000
-0.368220 0.790472 0.232705 0.000000 1.000000 0.000000
-0.167428 -0.126336 -0.381138 0.500000 0.500000 0.000000
0.381945 -0.397465 -0.163672 0.500000 0.500000 0.000000
-0.245533 0.213176 -0.336462 0.500000 0.500000 0.000000
-0.391737 0.660695 -0.143362 0.500000 0.500000 0.000000
0.328122 -0.294089 0.255704 0.500000 0.500000 0.000000
-0.150884 -0.403386 0.388765 0.500000 0.500000 0.000000
0.251466 0.756121 -0.278007 0.000000 1.000000 0.000000
-0.305532 -0.916245 0.128718 0.500000 0.500000 0.000000
0.223469 -0.916245 -0.090560 0.500000 0.500000 0.000000
-0.385103 -0.211585 -0.159380 0.500000 0.500000 0.000000
-0.414396 0.377438 -0.046539 0.500000 0.500000 0.000000
-0.420291 0.790472 0.139937 0.000000 1.000000 0.000000
-0.413750 -0.301191 0.052214 0.500000 0.500000 0.000000
0.147776 0.670513 -0.388707 0.500000 0.500000 0.000000
0.176121 -0.283617 -0.376966 0.500000 0.500000 0.000000
-0.346628 0.790472 0.026448 0.000000 1.000000 0.000000
-0.201580 -0.916245 -0.141870 0.500000 0.500000 0.000000
0.367275 0.262381 -0.199088 0.500000 0.500000 0.000000
-0.410788 -0.803686 0.074715 0.500000 0.500000 0.000000
0.275904 -0.916245 0.075213 0.500000 0.500000 0.000000
0.222065 0.312539 -0.353410 0.500000 0.500000 0.000000
-0.333099 0.023754 0.251018 0.500000 0.500000 0.000000
-0.382685 -0.522769 0.165991 0.500000 0.500000 0.000000
-0.231558 0.101015 0.347960 0.500000 0.500000 0.000000
-0.018318 -0.237751 -0.417175 0.500000 0.500000 0.000000
-0.137326 0.756121 -0.189724 0.000000 1.000000 0.000000
-0.125122 0.310468 0.399437 0.500000 0.500000 0.000000
0.123323 -0.916245 -0.347222 0.500000 0.500000 0.000000
-0.089972 0.559703 0.408517 0.500000 0.500000 0.000000
-0.073459 0.756121 0.118492 0.000000 1.000000 0.000000
0.152099 0.790472 -0.156062 0.000000 1.000000 0.000000
-0.390893 -0.793719 0.146175 0.500000 0.500000 0.000000
-0.466210 0.756121 -0.054951 0.000000 1.000000 0.000000
0.101986 -0.433336 -0.405979 0.500000 0.500000 0.000000
0.244410 -0.358442 -0.336264 0.500000 0.500000 0.000000
-0.407174 0.756121 -0.197598 0.000000 1.000000 0.000000
0.381190 -0.881515 0.166268 0.500000 0.500000 0.000000
-0.125378 -0.916245 0.297081 0.500000 0.500000 0.000000
0.292281 0.756121 0.230116 0.000000 1.000000 0.000000
0.310381 -0.916245 0.264749 0.500000 0.500000 0.000000
0.404099 -0.304228 0.110962 0.500000 0.500000 0.000000
-0.129307 -0.015576 0.397703 0.500000 0.500000 0.000000
0.404153 0.052688 0.110830 0.500000 0.500000 0.000000
0.149883 -0.406760 -0.387834 0.500000 0.500000 0.000000
0.218761 0.464425 0.356721 0.500000 0.500000 0.000000
0.366022 0.068134 -0.202113 0.500000 0.500000 0.000000
0.344192 -0.585917 0.234762 0.500000 0.500000 0.000000
0.256075 0.052166 -0.327313 0.500000 0.500000 0.000000
-0.403498 0.756121 -0.042307 0.000000 1.000000 0.000000
0.400211 -0.835028 -0.119574 0.500000 0.500000 0.000000
0.032898 0.756121 -0.381281 0.000000 1.000000 0.000000
0.160032 0.790472 0.408539 0.000000 1.000000 0.000000
0.296901 -0.916245 -0.275077 0.500000 0.500000 0.000000
0.409040 -0.606525 0.077511 0.500000 0.500000 0.000000
0.132690 0.766045 -0.453663 0.000000 1.000000 0.000000
-0.082681 -0.916245 0.228382 0.500000 0.500000 0.000000
-0.125936 0.790472 0.146534 0.000000 1.000000 0.000000
0.380425 -0.606125 0.168116 0.500000 0.500000 0.000000
-0.211228 -0.916245 0.272840 0.500000 0.500000 0.000000
-0.253062 0.790472 0.043180 0.000000 1.000000 0.000000
-0.098284 0.790472 -0.059518 0.000000 1.000000 0.000000
0.116088 0.756121 -0.334855 0.000000 1.000000 0.000000
-0.229657 -0.627973 0.349419 0.500000 0.500000 0.000000
-0.010214 -0.913770 0.419017 0.500000 0.500000 0.000000
0.396306 0.790472 -0.137017 0.000000 1.000000 0.000000
0.107822 -0.916245 -0.264586 0.500000 0.500000 0.000000
0.158079 -0.092094 0.385214 0.500000 0.500000 0.000000
-0.415126 0.160767 0.041765 0.500000 0.500000 0.000000
0.302945 -0.847879 -0.287740 0.500000 0.500000 0.000000
0.306014 0.001102 -0.283741 0.500000 0.500000 0.000000
-0.201178 0.790472 0.037385 0.000000 1.000000 0.000000
-0.350509 0.449497 -0.227553 0.500000 0.500000 0.000000
-0.250469 0.643620 0.333450 0.500000 0.500000 0.000000
0.013453 0.505391 -0.417634 0.500000 0.500000 0.000000
0.041430 -0.722196 0.414726 0.500000 0.500000 0.000000
0.379936 -0.148011 -0.168520 0.500000 0.500000 0.000000
-0.225717 -0.134030 -0.351667 0.500000 0.500000 0.000000
0.002086 0.595227 -0.419131 0.500000 0.500000 0.000000
0.394008 -0.217683 -0.134548 0.500000 0.500000 0.000000
-0.418914 0.421728 -0.012220 0.500000 0.500000 0.000000
0.412686 0.000671 0.049815 0.500000 0.500000 0.000000
-0.044701 -0.141882 0.414477 0.500000 0.500000 0.000000
0.322111 0.756121 -0.216781 0.000000 1.000000 0.000000
-0.228202 0.635294 -0.349760 0.500000 0.500000 0.000000
-0.232206 -0.662832 -0.346688 0.500000 0.500000 0.000000
-0.362186 -0.857565 -0.212335 0.500000 0.500000 0.000000
-0.416867 -0.373335 0.028542 0.500000 0.500000 0.000000
-0.394328 0.027075 0.137883 0.500000 0.500000 0.000000
0.322127 0.421995 0.263517 0.500000 0.500000 0.000000
-0.416667 0.358022 0.030065 0.500000 0.500000 0.000000
0.217626 0.756121 -0.154093 0.000000 1.000000 0.000000
-0.213331 0.148857 0.361946 0.500000 0.500000 0.000000
-0.238881 -0.916245 0.001249 0.500000 0.500000 0.000000
-0.259514 0.790472 -0.350778 0.000000 1.000000 0.000000
0.038042 -0.643368 -0.414397 0.500000 0.500000 0.000000
0.371237 -0.462340 0.190299 0.500000 0.500000 0.000000
-0.291470 -0.687026 -0.301213 0.500000 0.500000 0.000000
-0.369842 0.756121 -0.238514 0.000000 1.000000 0.000000
0.114917 0.808552 -0.435142 0.000000 1.000000 0.000000
-0.356024 -0.916245 -0.136305 0.500000 0.500000 0.000000
-0.197767 0.269285 -0.368571 0.500000 0.500000 0.000000
0.377526 -0.757455 -0.174341 0.500000 0.500000 0.000000
0.388465 0.515016 0.148705 0.500000 0.500000 0.000000
0.410148 0.060877 -0.068321 0.500000 0.500000 0.000000
0.019653 -0.916245 0.108257 0.500000 0.500000 0.000000
-0.088609 -0.916245 -0.406606 0.500000 0.500000 0.000000
-0.136026 0.790472 -0.027265 0.000000 1.000000 0.000000
-0.372156 -0.148373 -0.190636 0.500000 0.500000 0.000000
0.329190 0.790472 0.269635 0.000000 1.000000 0.000000
0.036772 0.790472 0.308444 0.000000 1.000000 0.000000
0.112931 -0.558855 0.403915 0.500000 0.500000 0.000000
0.296978 0.790472 -0.310326 0.000000 1.000000 0.000000
0.007683 0.756121 -0.285924 0.000000 1.000000 0.000000
-0.264942 0.104392 0.322344 0.500000 0.500000 0.000000
-0.255013 -0.045179 -0.329188 0.500000 0.500000 0.000000
-0.018636 0.790472 -0.316594 0.000000 1.000000 0.000000
0.353758 0.756121 0.013692 0.000000 1.000000 0.000000
-0.365489 -0.148873 0.207507 0.500000 0.500000 0.000000
-0.135508 0.756121 -0.422823 0.000000 1.000000 0.000000
0.024748 -0.806740 -0.416147 0.500000 0.500000 0.000000
0.411538 0.217975 -0.057760 0.500000 0.500000 0.000000
-0.088825 -0.415142 -0.407893 0.500000 0.500000 0.000000
-0.392882 -0.667606 0.141372 0.500000 0.500000 0.000000
-0.308108 0.401727 -0.282811 0.500000 0.500000 0.000000
0.366587 -0.824140 0.201525 0.500000 0.500000 0.000000
0.232349 0.790472 0.255259 0.000000 1.000000 0.000000
-0.373187 -0.726202 -0.188147 0.500000 0.500000 0.000000
-0.271250 -0.773027 -0.316729 0.500000 0.500000 0.000000
0.195223 -0.689628 0.369828 0.500000 0.500000 0.000000
-0.442944 0.796542 -0.161470 0.000000 1.000000 0.000000
-0.157850 0.250930 0.385880 0.500000 0.500000 0.000000
0.094428 0.756121 -0.083760 0.000000 1.000000 0.000000
-0.370370 -0.916245 -0.177074 0.500000 0.500000 0.000000
0.117247 0.756121 -0.166277 0.000000 1.000000 0.000000
0.118790 0.790472 0.206513 0.000000 1.000000 0.000000
-0.179928 -0.052484 0.376735 0.500000 0.500000 0.000000
0.319568 -0.077322 0.266852 0.500000 0.500000 0.000000
-0.115170 0.630524 -0.402784 0.500000 0.500000 0.000000
0.309693 0.134497 -0.278947 0.500000 0.500000 0.000000
-0.360895 -0.829153 0.214793 0.500000 0.500000 0.000000
-0.004099 -0.916245 -0.362521 0.500000 0.500000 0.000000
0.136562 -0.386110 0.394127 0.500000 0.500000 0.000000
0.091720 0.341273 0.408105 0.500000 0.500000 0.000000
0.145875 -0.521029 -0.389494 0.500000 0.500000 0.000000
-0.419736 0.660107 -0.005975 0.500000 0.500000 0.000000
0.343431 0.560627 -0.234978 0.500000 0.500000 0.000000
-0.331539 -0.638321 -0.252275 0.500000 0.500000 0.000000
-0.075969 0.756121 0.262128 0.000000 1.000000 0.000000
0.040353 -0.916245 0.368572 0.500000 0.500000 0.000000
-0.228988 -0.146513 0.349932 0.500000 0.500000 0.000000
-0.366811 -0.764778 0.204315 0.500000 0.500000 0.000000
0.157311 0.285100 0.385532 0.500000 0.500000 0.000000
0.003507 -0.527161 0.419718 0.500000 0.500000 0.000000
0.409472 -0.507044 0.074223 0.500000 0.500000 0.000000
0.408324 -0.229716 0.082945 0.500000 0.500000 0.000000
-0.072378 -0.570108 -0.410058 0.500000 0.500000 0.000000
-0.362759 0.385535 0.212363 0.500000 0.500000 0.000000
0.202286 -0.778460 0.366902 0.500000 0.500000 0.000000
0.301661 -0.343935 0.290189 0.500000 0.500000 0.000000
-0.272661 0.470004 0.316421 0.500000 0.500000 0.000000
0.391511 -0.350577 0.141352 0.500000 0.500000 0.000000
-0.190254 0.790472 -0.150819 0.000000 1.000000 0.000000
0.310873 0.790472 0.117006 0.000000 1.000000 0.000000
0.133978 0.448179 -0.394422 0.500000 0.500000 0.000000
0.254593 -0.880588 0.329226 0.500000 0.500000 0.000000
-0.293532 0.075784 -0.299631 0.500000 0.500000 0.000000
0.444499 0.756121 -0.009790 0.000000 1.000000 0.000000
0.018046 0.338721 0.417804 0.500000 0.500000 0.000000
-0.311765 -0.770132 -0.278046 0.500000 0.500000 0.000000
-0.258221 0.790472 0.227991 0.000000 1.000000 0.000000
-0.397741 0.790472 -0.158801 0.000000 1.000000 0.000000
0.245928 0.790472 0.172132 0.000000 1.000000 0.000000
-0.375347 0.649089 0.183707 0.500000 0.500000 0.000000
0.418964 -0.909567 -0.001355 0.500000 0.500000 0.000000
-0.384049 0.204256 -0.161923 0.500000 0.500000 0.000000
-0.296690 -0.074670 0.297983 0.500000 0.500000 0.000000
0.256423 0.747046 -0.327047 0.500000 0.500000 0.000000
-0.309865 -0.500441 0.281297 0.500000 0.500000 0.000000
0.435688 0.808350 0.082866 0.000000 1.000000 0.000000
0.327838 -0.916245 0.156344 0.500000 0.500000 0.000000
-0.265021 -0.383617 0.322283 0.500000 0.500000 0.000000
-0.023872 0.756121 -0.338672 0.000000 1.000000 0.000000
0.254459 0.428330 -0.328553 0.500000 0.500000 0.000000
0.368473 0.790472 0.224271 0.000000 1.000000 0.000000
-0.326860 0.369060 0.259148 0.500000 0.500000 0.000000
0.030072 0.790472 -0.183615 0.000000 1.000000 0.000000
0.349198 -0.173409 -0.227463 0.500000 0.500000 0.000000
-0.347212 0.729519 0.232624 0.500000 0.500000 0.000000
-0.158527 -0.577096 0.385600 0.500000 0.500000 0.000000
-0.359354 0.549710 -0.216026 0.500000 0.500000 0.000000
-0.153673 -0.425426 -0.386835 0.500000 0.500000 0.000000
-0.259575 -0.408581 -0.325687 0.500000 0.500000 0.000000
-0.045745 -0.219206 0.414339 0.500000 0.500000 0.000000
-0.000615 0.756121 0.079543 0.000000 1.000000 0.000000
0.149874 -0.650532 0.388612 0.500000 0.500000 0.000000
-0.145611 -0.567129 -0.390175 0.500000 0.500000 0.000000
0.253997 0.381243 0.329683 0.500000 0.500000 0.000000
-0.281692 -0.312856 -0.308716 0.500000 0.500000 0.000000
-0.407743 0.338789 0.097846 0.500000 0.500000 0.000000
0.033407 -0.125340 0.415782 0.500000 0.500000 0.000000
-0.389110 0.074519 0.150480 0.500000 0.500000 0.000000
-0.281612 0.243199 0.309552 0.500000 0.500000 0.000000
0.074668 -0.916245 0.350563 0.500000 0.500000 0.000000
-0.199739 0.790472 -0.082656 0.000000 1.000000 0.000000
-0.004876 0.756121 -0.372388 0.000000 1.000000 0.000000
-0.411548 -0.506602 -0.068166 0.500000 0.500000 0.000000
0.187206 0.756121 -0.054331 0.000000 1.000000 0.000000
0.393569 0.402422 -0.135608 0.500000 0.500000 0.000000
0.230071 0.237488 0.348042 0.500000 0.500000 0.000000
-0.412088 -0.916245 0.043544 0.500000 0.500000 0.000000
0.197443 0.176767 -0.368133 0.500000 0.500000 0.000000
-0.215839 0.716216 -0.359246 0.500000 0.500000 0.000000
0.072550 0.590142 0.410629 0.500000 0.500000 0.000000
-0.024545 0.300867 -0.416355 0.500000 0.500000 0.000000
-0.367110 -0.068718 0.203594 0.500000 0.500000 0.000000
-0.380012 -0.338565 0.172445 0.500000 0.500000 0.000000
-0.141586 0.083304 -0.391842 0.500000 0.500000 0.000000
0.156380 -0.140306 -0.385142 0.500000 0.500000 0.000000
0.399317 0.634649 -0.121730 0.500000 0.500000 0.000000
0.077425 0.730865 0.409987 0.500000 0.500000 0.000000
-0.098525 -0.392444 0.407391 0.500000 0.500000 0.000000
0.153470 -0.916245 -0.195642 0.500000 0.500000 0.000000
0.179553 0.739919 -0.375544 0.500000 0.500000 0.000000
-0.313256 0.267731 0.276878 0.500000 0.500000 0.000000
0.196245 0.075354 -0.368630 0.500000 0.500000 0.000000
0.241299 0.790472 -0.049102 0.000000 1.000000 0.000000
0.192165 -0.826354 0.371095 0.500000 0.500000 0.000000
-0.008913 -0.916245 0.327414 0.500000 0.500000 0.000000
-0.049368 0.756121 -0.017827 0.000000 1.000000 0.000000
0.140059 -0.211233 0.392678 0.500000 0.500000 0.000000
-0.197203 0.756121 0.117885 0.000000 1.000000 0.000000
0.152309 -0.731559 0.387604 0.500000 0.500000 0.000000
-0.037468 0.199180 0.415429 0.500000 0.500000 0.000000
-0.344400 0.577715 0.236290 0.500000 0.500000 0.000000
-0.142958 0.125800 0.392049 0.500000 0.500000 0.000000
0.413484 -0.690703 0.043753 0.500000 0.500000 0.000000
0.083554 0.790472 0.374038 0.000000 1.000000 0.000000
0.035243 0.790472 0.198020 0.000000 1.000000 0.000000
-0.330590 -0.113615 0.254287 0.500000 0.500000 0.000000
0.380719 -0.842357 0.167405 0.500000 0.500000 0.000000
-0.041142 0.790472 0.312345 0.000000 1.000000 0.000000
0.367831 -0.388033 0.198521 0.500000 0.500000 0.000000
-0.034632 -0.765898 -0.415028 0.500000 0.500000 0.000000
-0.092067 -0.881067 0.408241 0.500000 0.500000 0.000000
0.014330 -0.916245 0.288366 0.500000 0.500000 0.000000
-0.407365 -0.457055 0.100714 0.500000 0.500000 0.000000
-0.184172 0.790472 -0.314272 0.000000 1.000000 0.000000
-0.003882 0.756121 -0.168115 0.000000 1.000000 0.000000
-0.329412 0.781715 0.341240 0.000000 1.000000 0.000000
-0.415934 0.405776 0.035631 0.500000 0.500000 0.000000
0.310592 -0.555192 0.278550 0.500000 0.500000 0.000000
0.400036 0.714840 0.120770 0.500000 0.500000 0.000000
-0.061325 0.790472 0.144999 0.000000 1.000000 0.000000
0.111969 -0.916245 0.123379 0.500000 0.500000 0.000000
0.206827 -0.354113 -0.364247 0.500000 0.500000 0.000000
-0.216024 0.790472 -0.259505 0.000000 1.000000 0.000000
0.400366 -0.085198 -0.119197 0.500000 0.500000 0.000000
-0.167483 0.215776 -0.381115 0.500000 0.500000 0.000000
0.382751 0.585009 -0.161726 0.500000 0.500000 0.000000
-0.020871 0.790472 -0.000898 0.000000 1.000000 0.000000
-0.391449 -0.383779 -0.144059 0.500000 0.500000 0.000000
-0.242940 0.304607 -0.338451 0.500000 0.500000 0.000000
-0.298544 0.328489 -0.295276 0.500000 0.500000 0.000000
-0.000768 0.718489 0.420261 0.500000 0.500000 0.000000
0.254960 -0.574966 -0.328169 0.500000 0.500000 0.000000
-0.364678 -0.108009 -0.208689 0.500000 0.500000 0.000000
-0.387819 -0.091631 0.153597 0.500000 0.500000 0.000000
0.009913 -0.048644 -0.418100 0.500000 0.500000 0.000000
-0.111984 -0.778340 0.404879 0.500000 0.500000 0.000000
-0.274213 -0.224288 -0.314455 0.500000 0.500000 0.000000
-0.018113 0.390952 -0.417202 0.500000 0.500000 0.000000
0.356977 0.414451 -0.217325 0.500000 0.500000 0.000000
-0.104204 0.790472 -0.193931 0.000000 1.000000 0.000000
-0.285463 -0.835931 -0.305823 0.500000 0.500000 0.000000
0.128584 0.366274 -0.396656 0.500000 0.500000 0.000000
0.367920 -0.800563 -0.197530 0.500000 0.500000 0.000000
-0.191579 0.756121 0.219956 0.000000 1.000000 0.000000
0.186133 -0.593529 -0.372818 0.500000 0.500000 0.000000
0.380518 0.353604 0.167892 0.500000 0.500000 0.000000
-0.043930 0.790472 -0.129177 0.000000 1.000000 0.000000
-0.002679 0.022310 0.420009 0.500000 0.500000 0.000000
-0.399857 -0.691416 -0.123760 0.500000 0.500000 0.000000
0.130574 0.767952 0.455314 0.000000 1.000000 0.000000
-0.412002 0.023380 0.065496 0.500000 0.500000 0.000000
-0.379048 -0.617408 0.174772 0.500000 0.500000 0.000000
0.369019 0.210163 -0.194879 0.500000 0.500000 0.000000
-0.291891 0.777367 0.370031 0.000000 1.000000 0.000000
0.263043 0.297750 0.322741 0.500000 0.500000 0.000000
-0.333161 -0.916245 -0.166687 0.500000 0.500000 0.000000
0.307302 0.366397 0.282837 0.500000 0.500000 0.000000
0.187078 0.098161 0.373202 0.500000 0.500000 0.000000
-0.285148 -0.624870 0.306839 0.500000 0.500000 0.000000
-0.041271 -0.799527 0.414928 0.500000 0.500000 0.000000
-0.093457 0.790472 0.075317 0.000000 1.000000 0.000000
-0.222633 0.034357 0.354809 0.500000 0.500000 0.000000
-0.144614 0.637358 0.391363 0.500000 0.500000 0.000000
0.009877 -0.183935 -0.418105 0.500000 0.500000 0.000000
0.355344 0.143842 -0.219453 0.500000 0.500000 0.000000
-0.279717 0.392421 0.311007 0.500000 0.500000 0.000000
0.281472 -0.645660 -0.307826 0.500000 0.500000 0.000000
0.308063 0.715662 -0.281071 0.500000 0.500000 0.000000
-0.163486 0.579146 0.383546 0.500000 0.500000 0.000000
0.343605 -0.486742 0.235527 0.500000 0.500000 0.000000
0.164791 0.520162 0.382434 0.500000 0.500000 0.000000
0.273106 -0.324349 -0.314245 0.500000 0.500000 0.000000
-0.415880 0.520952 0.036042 0.500000 0.500000 0.000000
0.372685 -0.304319 0.186802 0.500000 0.500000 0.000000
0.020813 -0.217422 0.417440 0.500000 0.500000 0.000000
-0.076537 -0.916245 0.382717 0.500000 0.500000 0.000000
0.244746 -0.916245 -0.056491 0.500000 0.500000 0.000000
0.333435 0.429286 -0.248006 0.500000 0.500000 0.000000
-0.470601 0.792419 -0.035155 0.000000 1.000000 0.000000
-0.265941 0.790472 0.291288 0.000000 1.000000 0.000000
0.395195 0.340532 0.132458 0.500000 0.500000 0.000000
-0.093381 -0.755580 -0.407293 0.500000 0.500000 0.000000
0.312543 0.790472 -0.235888 0.000000 1.000000 0.000000
0.418653 -0.273410 0.004488 0.500000 0.500000 0.000000
0.083310 -0.916245 -0.308873 0.500000 0.500000 0.000000
0.182295 -0.222413 0.375183 0.500000 0.500000 0.000000
0.433652 0.790472 -0.068900 0.000000 1.000000 0.000000
-0.337056 0.438012 0.245860 0.500000 0.500000 0.000000
-0.254574 0.150632 -0.329524 0.500000 0.500000 0.000000
-0.407542 -0.220869 0.099366 0.500000 0.500000 0.000000
-0.022765 0.249299 0.417365 0.500000 0.500000 0.000000
0.373734 0.756121 -0.249405 0.000000 1.000000 0.000000
-0.225841 -0.741718 0.352347 0.500000 0.500000 0.000000
0.406488 0.334605 -0.096117 0.500000 0.500000 0.000000
0.230167 -0.277099 -0.347193 0.500000 0.500000 0.000000
-0.274687 0.162937 0.314866 0.500000 0.500000 0.000000
-0.031957 -0.085782 0.416155 0.500000 0.500000 0.000000
0.375221 0.133728 -0.179904 0.500000 0.500000 0.000000
0.417963 0.362512 -0.008957 0.500000 0.500000 0.000000
0.308505 -0.571653 -0.280494 0.500000 0.500000 0.000000
-0.233201 0.756121 -0.106518 0.000000 1.000000 0.000000
-0.108033 -0.631157 -0.405364 0.500000 0.500000 0.000000
-0.333990 -0.916245 0.093767 0.500000 0.500000 0.000000
0.158230 0.404776 0.385151 0.500000 0.500000 0.000000
-0.402818 -0.774923 -0.116609 0.500000 0.500000 0.000000
-0.027212 0.790472 0.422416 0.000000 1.000000 0.000000
-0.223821 0.756121 0.292092 0.000000 1.000000 0.000000
-0.135207 -0.916245 0.160274 0.500000 0.500000 0.000000
-0.280656 0.003858 -0.309511 0.500000 0.500000 0.000000
-0.409088 0.342095 -0.086853 0.500000 0.500000 0.000000
-0.196727 0.756121 -0.206587 0.000000 1.000000 0.000000
0.366266 0.310284 -0.201525 0.500000 0.500000 0.000000
0.196327 -0.710633 -0.368596 0.500000 0.500000 0.000000
0.105756 0.634425 0.406257 0.500000 0.500000 0.000000
-0.173660 -0.916245 0.064649 0.500000 0.500000 0.000000
-0.091776 0.756121 0.309745 0.000000 1.000000 0.000000
0.236300 0.106459 0.343262 0.500000 0.500000 0.000000
-0.135492 0.790472 -0.284610 0.000000 1.000000 0.000000
0.040587 0.790472 0.359978 0.000000 1.000000 0.000000
-0.171417 0.136094 -0.379486 0.500000 0.500000 0.000000
-0.222128 0.756121 0.377766 0.000000 1.000000 0.000000
0.413394 0.432154 0.044439 0.500000 0.500000 0.000000
0.394093 0.235217 -0.134344 0.500000 0.500000 0.000000
-0.242935 -0.235599 0.339230 0.500000 0.500000 0.000000
-0.159646 0.790472 0.018991 0.000000 1.000000 0.000000
0.320352 -0.916245 -0.077247 0.500000 0.500000 0.000000
0.295984 -0.680749 0.297465 0.500000 0.500000 0.000000
0.034297 0.139072 0.415665 0.500000 0.500000 0.000000
-0.216915 0.756121 -0.284053 0.000000 1.000000 0.000000
-0.193709 0.218451 0.371027 0.500000 0.500000 0.000000
-0.362502 -0.916245 0.163099 0.500000 0.500000 0.000000
-0.334957 0.756121 -0.296788 0.000000 1.000000 0.000000
0.143653 0.790472 0.259472 0.000000 1.000000 0.000000
-0.114087 0.130162 -0.403233 0.500000 0.500000 0.000000
-0.407778 0.587169 -0.096805 0.500000 0.500000 0.000000
0.346812 -0.417755 -0.230572 0.500000 0.500000 0.000000
0.230773 -0.217586 -0.346728 0.500000 0.500000 0.000000
-0.350530 -0.492891 0.228301 0.500000 0.500000 0.000000
-0.300699 -0.156401 -0.292467 0.500000 0.500000 0.000000
0.077778 0.790472 0.130587 0.000000 1.000000 0.000000
-0.371035 0.756121 0.092456 0.000000 1.000000 0.000000
-0.231200 -0.803796 -0.347460 0.500000 0.500000 0.000000
-0.084108 0.087847 0.409289 0.500000 0.500000 0.000000
0.441319 0.756121 0.062310 0.000000 1.000000 0.000000
-0.052890 0.746946 -0.412624 0.500000 0.500000 0.000000
0.146330 -0.885605 0.390081 0.500000 0.500000 0.000000
-0.109137 0.790472 0.234274 0.000000 1.000000 0.000000
-0.217415 0.790472 0.210327 0.000000 1.000000 0.000000
-0.300843 -0.245219 0.293055 0.500000 0.500000 0.000000
