ply
format ascii 1.0
element vertex 621
property float x
property float y
property float z
property float nx
property float ny
property float nz
property uchar red
property uchar green
property uchar blue
property float opacity
end_header
-0.364594 -0.182052 0.209667 -0.866871 0.000000 0.498533 128 128 128 0.500000
0.412067 -0.113292 -0.053743 -0.991510 0.000000 0.130031 128 128 128 0.500000
0.411984 -0.135031 0.055146 0.991311 0.000000 0.131538 128 128 128 0.500000
0.096417 -0.338347 -0.406712 -0.232024 0.000000 0.972710 128 128 128 0.500000
-0.193867 -0.916245 -0.170342 0.000000 -1.000000 0.000000 255 255 255 1.000000
-0.203926 -0.916245 0.069209 0.000000 -1.000000 0.000000 255 255 255 1.000000
0.276794 0.756121 0.083937 0.000000 -1.000000 0.000000 35 35 35 1.000000
-0.271309 0.656410 0.317458 0.649192 0.000000 -0.760624 128 128 128 0.500000
-0.403995 -0.331627 -0.113771 -0.962197 0.000000 -0.272356 128 128 128 0.500000
-0.408438 0.676993 0.092568 -0.975385 0.000000 0.220509 128 128 128 0.500000
0.313593 -0.031106 -0.273864 0.753464 0.000000 -0.657490 128 128 128 0.500000
-0.352112 -0.090447 -0.225464 -0.841246 0.000000 -0.540652 128 128 128 0.500000
-0.322086 -0.204780 -0.264594 0.771573 0.000000 0.636140 128 128 128 0.500000
0.233673 -0.099365 0.345278 -0.562044 0.000000 -0.827108 128 128 128 0.500000
0.050233 0.790472 -0.014053 0.000000 1.000000 0.000000 35 35 35 1.000000
0.348970 0.687105 0.228534 -0.837493 0.000000 -0.546448 128 128 128 0.500000
0.363613 -0.137689 0.208703 0.868097 0.000000 0.496394 128 128 128 0.500000
-0.163157 -0.581424 -0.382907 -0.390259 0.000000 -0.920705 128 128 128 0.500000
-0.414252 -0.095072 0.048406 0.993327 0.000000 -0.115334 128 128 128 0.500000
0.348992 0.790472 -0.086419 0.000000 -1.000000 0.000000 255 255 255 1.000000
-0.415840 0.179664 0.036340 0.996271 0.000000 -0.086279 128 128 128 0.500000
0.299339 0.790472 -0.318310 0.000000 1.000000 0.000000 35 35 35 1.000000
0.322150 0.756121 0.336425 0.000000 -1.000000 0.000000 35 35 35 1.000000
0.380553 0.023784 0.167806 0.915606 0.000000 0.402077 128 128 128 0.500000
0.203997 0.299633 0.366194 -0.488305 0.000000 -0.872673 128 128 128 0.500000
0.405967 0.008813 -0.100072 0.970815 0.000000 -0.239828 128 128 128 0.500000
0.321072 -0.063995 -0.264117 -0.772492 0.000000 0.635025 128 128 128 0.500000
0.344684 -0.888562 -0.233346 0.828174 0.000000 -0.560471 128 128 128 0.500000
0.030330 0.756121 -0.149865 0.000000 1.000000 0.000000 255 255 255 1.000000
-0.059813 -0.077635 -0.411712 -0.142014 0.000000 -0.989865 128 128 128 0.500000
0.368264 -0.486422 -0.196701 0.882042 0.000000 -0.471170 128 128 128 0.500000
-0.300579 0.790472 0.182909 0.000000 1.000000 0.000000 35 35 35 1.000000
-0.268578 0.582258 -0.318779 -0.642894 0.000000 -0.765955 128 128 128 0.500000
-0.248126 0.013141 0.335247 -0.594284 0.000000 0.804255 128 128 128 0.500000
-0.325272 -0.597327 -0.260443 -0.779502 0.000000 -0.626400 128 128 128 0.500000
0.383423 -0.782436 -0.160102 0.922699 0.000000 -0.385521 128 128 128 0.500000
0.008508 0.790472 -0.039776 0.000000 -1.000000 0.000000 255 255 255 1.000000
0.330503 0.790472 -0.184597 0.000000 -1.000000 0.000000 255 255 255 1.000000
0.136058 0.756121 -0.428994 0.000000 1.000000 0.000000 255 255 255 1.000000
-0.360371 0.129350 0.215475 -0.858251 0.000000 0.513231 128 128 128 0.500000
-0.344143 -0.916245 -0.097491 0.000000 1.000000 0.000000 255 255 255 1.000000
0.091531 0.737791 -0.407355 0.220602 0.000000 -0.975364 128 128 128 0.500000
0.148094 0.790472 -0.174043 0.000000 1.000000 0.000000 35 35 35 1.000000
0.408877 0.242371 -0.077969 -0.982187 0.000000 0.187906 128 128 128 0.500000
-0.087127 0.790472 0.298547 0.000000 1.000000 0.000000 35 35 35 1.000000
-0.073075 0.756121 -0.301926 0.000000 1.000000 0.000000 255 255 255 1.000000
0.312169 -0.800193 0.276495 -0.749772 0.000000 -0.661696 128 128 128 0.500000
0.102515 -0.254037 -0.405909 -0.246196 0.000000 0.969220 128 128 128 0.500000
0.359610 0.554792 -0.213893 -0.859485 0.000000 0.511160 128 128 128 0.500000
-0.238581 -0.756633 0.342571 0.570823 0.000000 -0.821073 128 128 128 0.500000
0.367874 0.780409 0.292996 -0.783188 0.000000 -0.621785 35 35 35 1.000000
-0.156416 -0.916245 -0.223304 0.000000 1.000000 0.000000 255 255 255 1.000000
-0.051947 0.790472 0.354526 0.000000 -1.000000 0.000000 255 255 255 1.000000
-0.073978 0.681678 0.410622 -0.175864 0.000000 0.984414 128 128 128 0.500000
0.103892 0.790472 0.432276 0.000000 -1.000000 0.000000 255 255 255 1.000000
0.244707 0.424538 -0.336037 0.589310 0.000000 -0.807907 128 128 128 0.500000
0.398465 0.239607 -0.123789 0.954861 0.000000 -0.297054 128 128 128 0.500000
-0.166620 0.756121 -0.271006 0.000000 1.000000 0.000000 255 255 255 1.000000
-0.147705 -0.294345 0.390082 -0.352974 0.000000 0.935633 128 128 128 0.500000
0.235281 0.756121 0.192816 0.000000 -1.000000 0.000000 35 35 35 1.000000
0.158796 0.790472 0.164213 0.000000 -1.000000 0.000000 255 255 255 1.000000
0.114944 0.790472 -0.287457 0.000000 1.000000 0.000000 35 35 35 1.000000
-0.398909 -0.093490 -0.126048 0.953113 0.000000 0.302615 128 128 128 0.500000
-0.363268 0.411288 0.211700 0.863977 0.000000 -0.503531 128 128 128 0.500000
0.384100 -0.605599 0.159243 -0.924328 0.000000 -0.381598 128 128 128 0.500000
0.069114 -0.741835 0.411081 0.167562 0.000000 0.985861 128 128 128 0.500000
-0.411422 -0.338567 -0.069123 -0.985980 0.000000 -0.166861 128 128 128 0.500000
-0.022320 0.756121 -0.075858 0.000000 1.000000 0.000000 255 255 255 1.000000
0.077367 0.790472 -0.152453 0.000000 -1.000000 0.000000 255 255 255 1.000000
0.002645 0.756121 -0.449756 0.000000 -1.000000 0.000000 35 35 35 1.000000
0.410875 -0.090100 0.063568 0.988421 0.000000 0.151736 128 128 128 0.500000
0.407297 -0.465165 -0.089975 0.976339 0.000000 -0.216244 128 128 128 0.500000
0.409832 -0.628675 0.071493 -0.985329 0.000000 -0.170667 128 128 128 0.500000
0.147817 0.475184 0.389464 0.356598 0.000000 0.934258 128 128 128 0.500000
-0.205056 -0.810612 0.366327 0.487587 0.000000 -0.873075 128 128 128 0.500000
0.393417 -0.508810 0.136750 0.945030 0.000000 0.326985 128 128 128 0.500000
0.385289 -0.243705 -0.155597 -0.927152 0.000000 0.374686 128 128 128 0.500000
0.278749 -0.647955 0.310690 -0.669186 0.000000 -0.743095 128 128 128 0.500000
-0.408651 -0.144557 0.090946 0.976237 0.000000 -0.216704 128 128 128 0.500000
-0.377372 0.790472 0.032385 0.000000 1.000000 0.000000 35 35 35 1.000000
-0.249028 0.756121 0.047165 0.000000 1.000000 0.000000 255 255 255 1.000000
0.033720 -0.774965 -0.414966 -0.082563 0.000000 0.996586 128 128 128 0.500000
0.158455 -0.014185 -0.384283 0.382293 0.000000 -0.924041 128 128 128 0.500000
0.108803 -0.916245 -0.329382 0.000000 -1.000000 0.000000 255 255 255 1.000000
0.278655 -0.717636 0.310762 0.668976 0.000000 0.743284 128 128 128 0.500000
0.153577 -0.522544 -0.386303 -0.370543 0.000000 0.928815 128 128 128 0.500000
-0.415509 -0.432015 -0.038082 -0.995727 0.000000 -0.092342 128 128 128 0.500000
0.409430 0.645746 -0.073770 -0.984042 0.000000 0.177934 128 128 128 0.500000
0.376738 0.756121 -0.204756 0.000000 1.000000 0.000000 255 255 255 1.000000
-0.209399 0.226282 -0.363753 -0.497268 0.000000 -0.867597 128 128 128 0.500000
0.353154 0.333208 -0.222307 0.846337 0.000000 -0.532648 128 128 128 0.500000
0.262013 -0.878687 0.323532 0.630807 0.000000 0.775940 128 128 128 0.500000
0.214450 0.321078 0.360028 0.513365 0.000000 0.858170 128 128 128 0.500000
0.414618 0.660049 0.035140 0.996517 0.000000 0.083388 128 128 128 0.500000
0.370599 -0.459623 0.191837 -0.888799 0.000000 -0.458297 128 128 128 0.500000
0.210350 -0.916245 0.254609 0.000000 -1.000000 0.000000 255 255 255 1.000000
-0.392944 -0.201519 -0.140450 -0.941173 0.000000 -0.337925 128 128 128 0.500000
-0.417130 0.138774 0.026542 0.998034 0.000000 -0.062682 128 128 128 0.500000
0.240381 -0.653504 0.340130 -0.578689 0.000000 -0.815548 128 128 128 0.500000
0.404362 -0.747797 0.110327 0.965083 0.000000 0.261943 128 128 128 0.500000
-0.135596 0.252869 -0.394323 0.323416 0.000000 0.946257 128 128 128 0.500000
-0.347213 0.183124 0.232623 -0.830697 0.000000 0.556725 128 128 128 0.500000
-0.411542 -0.916245 -0.059144 0.000000 -1.000000 0.000000 255 255 255 1.000000
0.374797 -0.736218 -0.180927 -0.900510 0.000000 0.434836 128 128 128 0.500000
0.334839 -0.032052 -0.246176 -0.805822 0.000000 0.592157 128 128 128 0.500000
0.354946 0.790472 0.185790 0.000000 -1.000000 0.000000 255 255 255 1.000000
0.413229 -0.369926 0.045691 -0.994063 0.000000 -0.108801 128 128 128 0.500000
-0.119436 0.756121 -0.333988 0.000000 -1.000000 0.000000 35 35 35 1.000000
0.095756 -0.858386 -0.406799 0.230482 0.000000 -0.973077 128 128 128 0.500000
-0.301868 -0.916245 0.108047 0.000000 1.000000 0.000000 255 255 255 1.000000
0.204141 0.790472 -0.149483 0.000000 -1.000000 0.000000 255 255 255 1.000000
-0.169394 0.756121 0.054204 0.000000 -1.000000 0.000000 35 35 35 1.000000
-0.318699 0.700759 0.269784 0.763017 0.000000 -0.646379 128 128 128 0.500000
0.159780 0.585541 -0.383734 0.385474 0.000000 -0.922719 128 128 128 0.500000
-0.088736 -0.916245 -0.117556 0.000000 -1.000000 0.000000 255 255 255 1.000000
0.392256 -0.854496 0.139553 -0.942629 0.000000 -0.333842 128 128 128 0.500000
-0.252736 -0.650544 -0.330935 0.605451 0.000000 0.795883 128 128 128 0.500000
-0.264517 0.109416 0.322670 0.633440 0.000000 -0.773792 128 128 128 0.500000
0.139651 0.593637 -0.392072 -0.336713 0.000000 0.941607 128 128 128 0.500000
0.107730 -0.657798 -0.405222 0.258235 0.000000 -0.966082 128 128 128 0.500000
0.364727 0.722210 -0.205240 0.871494 0.000000 -0.490406 128 128 128 0.500000
-0.453541 0.773018 -0.135889 -0.957581 0.000000 -0.288165 35 35 35 1.000000
0.277163 0.196154 0.311907 -0.665629 0.000000 -0.746283 128 128 128 0.500000
0.311054 -0.103587 0.277947 0.746869 0.000000 0.664971 128 128 128 0.500000
0.425530 0.776747 0.200956 0.904823 0.000000 0.425789 35 35 35 1.000000
0.144566 0.790472 0.334805 0.000000 -1.000000 0.000000 255 255 255 1.000000
0.341976 -0.119280 0.237650 0.822156 0.000000 0.569262 128 128 128 0.500000
0.307108 -0.664505 -0.282316 0.736492 0.000000 -0.676446 128 128 128 0.500000
0.397385 -0.147778 0.127171 -0.952841 0.000000 -0.303471 128 128 128 0.500000
-0.353756 -0.517545 0.224096 0.844711 0.000000 -0.535223 128 128 128 0.500000
0.390363 -0.916245 -0.056221 0.000000 -1.000000 0.000000 255 255 255 1.000000
-0.072459 -0.313084 -0.410047 0.172247 0.000000 0.985054 128 128 128 0.500000
0.237796 0.534296 0.342114 0.572298 0.000000 0.820046 128 128 128 0.500000
0.055309 -0.916245 -0.270392 0.000000 1.000000 0.000000 255 255 255 1.000000
-0.099027 0.536155 -0.406550 -0.234891 0.000000 -0.972022 128 128 128 0.500000
-0.410011 -0.567434 0.080616 -0.981327 0.000000 0.192345 128 128 128 0.500000
0.155982 -0.201942 0.386082 -0.376344 0.000000 -0.926480 128 128 128 0.500000
-0.298917 -0.916245 -0.093799 0.000000 -1.000000 0.000000 255 255 255 1.000000
0.407673 -0.029595 -0.087119 0.977803 0.000000 -0.209528 128 128 128 0.500000
0.418566 -0.737782 -0.004375 -0.999936 0.000000 0.011358 128 128 128 0.500000
-0.188458 -0.547283 -0.372427 0.449820 0.000000 0.893119 128 128 128 0.500000
-0.029972 0.790472 0.258151 0.000000 -1.000000 0.000000 255 255 255 1.000000
0.380309 0.557602 -0.167622 0.914988 0.000000 -0.403482 128 128 128 0.500000
0.142981 -0.770832 -0.390692 -0.344838 0.000000 0.938662 128 128 128 0.500000
-0.373705 0.803918 -0.241872 0.838649 0.000000 0.544672 35 35 35 1.000000
-0.023547 -0.326010 -0.416487 -0.054747 0.000000 -0.998500 128 128 128 0.500000
0.152000 -0.901121 -0.386957 -0.366734 0.000000 0.930326 128 128 128 0.500000
-0.151104 0.702805 -0.387899 0.361223 0.000000 0.932480 128 128 128 0.500000
-0.195726 0.589449 -0.369417 -0.466500 0.000000 -0.884521 128 128 128 0.500000
-0.221273 0.291276 -0.355077 -0.527277 0.000000 -0.849693 128 128 128 0.500000
-0.407243 -0.026928 -0.100868 0.970357 0.000000 0.241675 128 128 128 0.500000
-0.044536 0.756121 0.097999 0.000000 1.000000 0.000000 255 255 255 1.000000
-0.141912 -0.656428 -0.391707 0.338865 0.000000 0.940835 128 128 128 0.500000
-0.183472 0.176804 0.375267 -0.438257 0.000000 0.898850 128 128 128 0.500000
-0.311766 -0.016395 -0.278044 -0.745121 0.000000 -0.666930 128 128 128 0.500000
-0.072821 0.394449 -0.410000 0.173109 0.000000 0.984903 128 128 128 0.500000
-0.159537 0.790472 0.355802 0.000000 1.000000 0.000000 35 35 35 1.000000
-0.409128 -0.044332 -0.086553 -0.978087 0.000000 -0.208197 128 128 128 0.500000
0.323340 0.756121 0.234199 0.000000 1.000000 0.000000 255 255 255 1.000000
-0.070673 0.790472 0.065392 0.000000 -1.000000 0.000000 255 255 255 1.000000
0.349423 0.796164 0.317041 0.741658 0.000000 0.670778 35 35 35 1.000000
-0.217129 0.756121 -0.152150 0.000000 1.000000 0.000000 255 255 255 1.000000
0.006331 0.756121 -0.138418 0.000000 1.000000 0.000000 255 255 255 1.000000
0.206760 0.756121 -0.104247 0.000000 -1.000000 0.000000 35 35 35 1.000000
-0.014646 -0.599872 0.418433 0.033366 0.000000 -0.999443 128 128 128 0.500000
-0.281269 0.782602 0.378182 -0.596231 0.000000 0.802813 35 35 35 1.000000
0.110204 0.070829 0.405044 -0.264299 0.000000 -0.964441 128 128 128 0.500000
-0.381412 0.759415 0.277151 0.808863 0.000000 -0.587997 35 35 35 1.000000
-0.419040 -0.649636 0.012039 0.999612 0.000000 -0.027841 128 128 128 0.500000
-0.266307 0.790472 0.324997 0.000000 1.000000 0.000000 35 35 35 1.000000
-0.323765 0.790472 -0.298908 0.000000 1.000000 0.000000 35 35 35 1.000000
0.004340 0.029995 -0.418834 0.011998 0.000000 -0.999928 128 128 128 0.500000
-0.443778 0.756121 -0.044989 0.000000 1.000000 0.000000 255 255 255 1.000000
-0.340204 0.756121 -0.206432 0.000000 1.000000 0.000000 255 255 255 1.000000
0.048529 0.065627 0.413791 0.118223 0.000000 0.992987 128 128 128 0.500000
-0.379076 0.380432 0.174704 0.908255 0.000000 -0.418418 128 128 128 0.500000
-0.273135 -0.531733 -0.315282 -0.653375 0.000000 -0.757034 128 128 128 0.500000
0.083987 0.213376 0.409123 -0.202862 0.000000 -0.979207 128 128 128 0.500000
0.177387 -0.652332 -0.376441 -0.427262 0.000000 0.904128 128 128 128 0.500000
0.418369 -0.817324 0.006647 0.999888 0.000000 0.014935 128 128 128 0.500000
-0.325422 -0.087231 -0.260247 -0.779873 0.000000 -0.625938 128 128 128 0.500000
-0.360697 -0.557413 0.215050 -0.858902 0.000000 0.512141 128 128 128 0.500000
-0.374725 0.569392 0.185208 0.896524 0.000000 -0.442995 128 128 128 0.500000
-0.006720 0.790472 0.227454 0.000000 1.000000 0.000000 35 35 35 1.000000
-0.230352 -0.127898 0.348885 0.550264 0.000000 -0.834991 128 128 128 0.500000
-0.343543 -0.250027 0.237405 -0.822576 0.000000 0.568656 128 128 128 0.500000
0.122598 -0.322552 0.399910 -0.294868 0.000000 -0.955538 128 128 128 0.500000
-0.024028 0.756121 -0.054877 0.000000 1.000000 0.000000 255 255 255 1.000000
-0.383482 -0.308912 -0.163292 0.919471 0.000000 0.393159 128 128 128 0.500000
-0.073697 -0.618139 0.410659 0.175195 0.000000 -0.984534 128 128 128 0.500000
0.228395 -0.596495 0.349328 0.548811 0.000000 0.835946 128 128 128 0.500000
-0.250588 0.369616 -0.332583 0.600261 0.000000 0.799804 128 128 128 0.500000
-0.071937 -0.833557 0.410891 -0.171002 0.000000 0.985271 128 128 128 0.500000
0.220741 -0.667298 -0.354426 -0.529435 0.000000 0.848350 128 128 128 0.500000
-0.083928 0.756121 -0.260375 0.000000 1.000000 0.000000 255 255 255 1.000000
-0.061946 0.147378 -0.411432 0.147125 0.000000 0.989118 128 128 128 0.500000
0.225970 0.688468 -0.350413 -0.542697 0.000000 0.839928 128 128 128 0.500000
-0.218605 0.790472 -0.144042 0.000000 1.000000 0.000000 35 35 35 1.000000
0.331011 -0.514604 -0.251165 -0.796787 0.000000 0.604260 128 128 128 0.500000
-0.251616 -0.107903 0.332569 -0.602748 0.000000 0.797931 128 128 128 0.500000
-0.327219 -0.385070 0.258680 0.784290 0.000000 -0.620394 128 128 128 0.500000
-0.300376 -0.896459 -0.292888 -0.714710 0.000000 -0.699421 128 128 128 0.500000
0.008523 -0.648606 -0.418283 0.021999 0.000000 -0.999758 128 128 128 0.500000
0.416895 0.370899 0.017841 -0.999128 0.000000 -0.041761 128 128 128 0.500000
0.065639 0.401321 0.411538 -0.159265 0.000000 -0.987236 128 128 128 0.500000
-0.123098 0.756121 0.120170 0.000000 -1.000000 0.000000 35 35 35 1.000000
0.234357 -0.875703 -0.343978 0.563749 0.000000 -0.825946 128 128 128 0.500000
0.162537 0.299012 0.383367 0.392079 0.000000 0.919932 128 128 128 0.500000
-0.388251 0.633446 0.152555 -0.930824 0.000000 0.365469 128 128 128 0.500000
0.174083 0.756121 0.329158 0.000000 -1.000000 0.000000 35 35 35 1.000000
-0.251089 0.707119 0.332973 -0.601475 0.000000 0.798891 128 128 128 0.500000
0.398633 -0.698202 0.124158 0.955171 0.000000 0.296056 128 128 128 0.500000
0.375213 0.321067 -0.179923 0.901638 0.000000 -0.432492 128 128 128 0.500000
-0.162710 0.756121 -0.311216 0.000000 -1.000000 0.000000 35 35 35 1.000000
0.164289 0.790472 -0.054037 0.000000 1.000000 0.000000 35 35 35 1.000000
-0.200714 -0.719926 0.368125 0.477820 0.000000 -0.878458 128 128 128 0.500000
0.109118 -0.566372 -0.404719 0.261618 0.000000 -0.965171 128 128 128 0.500000
0.279716 0.790472 0.068540 0.000000 1.000000 0.000000 35 35 35 1.000000
-0.114157 -0.276057 0.403978 -0.270651 0.000000 0.962677 128 128 128 0.500000
0.279127 0.807053 0.344583 -0.630807 0.000000 -0.775940 35 35 35 1.000000
0.201607 -0.727151 0.367183 -0.482944 0.000000 -0.875651 128 128 128 0.500000
-0.295452 0.356990 0.298932 0.702584 0.000000 -0.711600 128 128 128 0.500000
0.257232 -0.916245 0.308415 0.000000 1.000000 0.000000 255 255 255 1.000000
0.001798 -0.673621 -0.419168 0.005930 0.000000 -0.999982 128 128 128 0.500000
-0.381445 -0.472234 0.168986 -0.914368 0.000000 0.404884 128 128 128 0.500000
0.162037 -0.062059 -0.382799 0.390881 0.000000 -0.920441 128 128 128 0.500000
0.158765 -0.842593 -0.384155 0.383037 0.000000 -0.923733 128 128 128 0.500000
0.381581 0.738855 -0.164550 0.918179 0.000000 -0.396165 128 128 128 0.500000
-0.012777 -0.197765 -0.417905 -0.028883 0.000000 -0.999583 128 128 128 0.500000
-0.312849 0.161500 -0.276632 0.747950 0.000000 0.663755 128 128 128 0.500000
0.393988 -0.652328 0.135372 -0.946191 0.000000 -0.323610 128 128 128 0.500000
0.241033 -0.916245 0.270313 0.000000 1.000000 0.000000 255 255 255 1.000000
-0.410531 -0.571289 -0.075894 0.983116 0.000000 0.182982 128 128 128 0.500000
-0.191198 0.756121 0.343344 0.000000 -1.000000 0.000000 35 35 35 1.000000
-0.418520 0.095109 0.015985 0.999304 0.000000 -0.037303 128 128 128 0.500000
0.346215 -0.390566 0.232125 0.831532 0.000000 0.555477 128 128 128 0.500000
-0.338328 0.256118 0.244202 0.810719 0.000000 -0.585436 128 128 128 0.500000
-0.009874 -0.275455 -0.418287 -0.021929 0.000000 -0.999759 128 128 128 0.500000
0.406757 -0.503396 0.094851 0.974162 0.000000 0.225852 128 128 128 0.500000
0.093860 0.790472 -0.324723 0.000000 1.000000 0.000000 35 35 35 1.000000
-0.053233 0.790472 0.224924 0.000000 -1.000000 0.000000 255 255 255 1.000000
0.117707 -0.452328 0.401936 0.282813 0.000000 0.959175 128 128 128 0.500000
-0.378592 0.437952 -0.175098 0.906981 0.000000 0.421173 128 128 128 0.500000
0.144133 0.790472 -0.268825 0.000000 1.000000 0.000000 35 35 35 1.000000
-0.170263 -0.320602 -0.379964 -0.407196 0.000000 -0.913341 128 128 128 0.500000
-0.408588 0.065390 -0.090654 -0.975985 0.000000 -0.217837 128 128 128 0.500000
0.398794 0.648183 0.123769 0.955467 0.000000 0.295098 128 128 128 0.500000
0.338237 -0.444981 -0.241748 -0.813683 0.000000 0.581309 128 128 128 0.500000
0.081110 0.104090 -0.408727 0.196063 0.000000 -0.980591 128 128 128 0.500000
-0.155720 0.525127 -0.385988 0.372383 0.000000 0.928079 128 128 128 0.500000
0.324827 0.581806 -0.259224 -0.781808 0.000000 0.623519 128 128 128 0.500000
-0.174829 -0.736599 -0.378072 0.418000 0.000000 0.908447 128 128 128 0.500000
0.144708 -0.412242 -0.389977 -0.349042 0.000000 0.937107 128 128 128 0.500000
-0.299178 -0.211676 0.295224 -0.711444 0.000000 0.702742 128 128 128 0.500000
-0.399925 -0.329962 0.124370 -0.955009 0.000000 0.296577 128 128 128 0.500000
-0.136707 0.790472 0.398154 0.000000 1.000000 0.000000 35 35 35 1.000000
0.081475 0.790472 0.236356 0.000000 -1.000000 0.000000 255 255 255 1.000000
0.344724 0.409162 0.234069 0.828262 0.000000 0.560341 128 128 128 0.500000
0.173200 0.756121 0.398146 0.000000 1.000000 0.000000 255 255 255 1.000000
-0.285675 0.790472 -0.226777 0.000000 -1.000000 0.000000 255 255 255 1.000000
-0.332964 0.808552 -0.297886 0.000000 1.000000 0.000000 35 35 35 1.000000
-0.413354 0.227956 -0.054450 0.991286 0.000000 0.131728 128 128 128 0.500000
-0.418590 0.564351 -0.014678 0.999351 0.000000 0.036026 128 128 128 0.500000
0.354221 -0.061773 -0.220916 -0.848552 0.000000 0.529112 128 128 128 0.500000
-0.261756 0.416317 0.324788 0.626955 0.000000 -0.779055 128 128 128 0.500000
-0.358952 -0.101698 0.217325 -0.855399 0.000000 0.517969 128 128 128 0.500000
-0.393099 -0.692842 -0.140075 -0.941501 0.000000 -0.337009 128 128 128 0.500000
-0.347548 -0.127771 -0.231411 -0.831430 0.000000 -0.555629 128 128 128 0.500000
-0.292316 -0.529347 -0.300564 -0.695893 0.000000 -0.718145 128 128 128 0.500000
-0.040578 0.790472 -0.362553 0.000000 -1.000000 0.000000 255 255 255 1.000000
-0.409339 -0.382386 -0.084945 0.978886 0.000000 0.204407 128 128 128 0.500000
0.285305 0.357674 0.305659 -0.683691 0.000000 -0.729772 128 128 128 0.500000
0.110798 0.790472 0.015933 0.000000 -1.000000 0.000000 255 255 255 1.000000
0.351755 -0.201587 -0.224131 0.843407 0.000000 -0.537276 128 128 128 0.500000
0.205418 0.719716 0.365605 0.491480 0.000000 0.870889 128 128 128 0.500000
-0.357269 0.363284 -0.218744 0.851980 0.000000 0.523574 128 128 128 0.500000
-0.336823 0.808552 -0.323723 0.000000 1.000000 0.000000 35 35 35 1.000000
-0.155158 0.179830 -0.386220 0.371028 0.000000 0.928622 128 128 128 0.500000
-0.285308 0.745950 -0.305941 -0.680669 0.000000 -0.732591 128 128 128 0.500000
0.315412 0.592136 0.272268 -0.758147 0.000000 -0.652084 128 128 128 0.500000
-0.059706 -0.556865 0.412501 -0.141756 0.000000 0.989902 128 128 128 0.500000
0.121371 0.756121 -0.285971 0.000000 -1.000000 0.000000 35 35 35 1.000000
-0.260656 -0.916245 0.198204 0.000000 -1.000000 0.000000 255 255 255 1.000000
-0.237470 -0.275061 0.343424 -0.568062 0.000000 0.822985 128 128 128 0.500000
-0.185017 -0.697539 0.374627 0.441850 0.000000 -0.897089 128 128 128 0.500000
-0.358750 -0.495803 -0.216814 0.854991 0.000000 0.518643 128 128 128 0.500000
-0.083256 0.756121 0.088703 0.000000 -1.000000 0.000000 35 35 35 1.000000
-0.419679 0.744073 0.007183 -0.999868 0.000000 0.016218 128 128 128 0.500000
0.415973 0.790528 0.153162 -0.938877 0.000000 -0.344252 35 35 35 1.000000
-0.068695 -0.916245 -0.106264 0.000000 1.000000 0.000000 255 255 255 1.000000
0.334516 0.456034 0.247372 0.805067 0.000000 0.593185 128 128 128 0.500000
-0.308172 0.592594 -0.282728 0.735654 0.000000 0.677357 128 128 128 0.500000
-0.384418 -0.557885 0.161808 0.921763 0.000000 -0.387753 128 128 128 0.500000
0.382439 0.182578 0.163253 0.920300 0.000000 0.391214 128 128 128 0.500000
-0.330734 0.678240 -0.253325 -0.792818 0.000000 -0.609458 128 128 128 0.500000
-0.013843 0.473156 0.418539 0.031440 0.000000 -0.999506 128 128 128 0.500000
0.313962 0.360611 0.274158 -0.754415 0.000000 -0.656398 128 128 128 0.500000
0.413468 0.525310 0.043873 -0.994533 0.000000 -0.104424 128 128 128 0.500000
-0.052038 0.790472 0.417777 0.000000 -1.000000 0.000000 255 255 255 1.000000
0.033097 -0.490631 0.415823 -0.081063 0.000000 -0.996709 128 128 128 0.500000
-0.299449 0.756121 0.054657 0.000000 1.000000 0.000000 255 255 255 1.000000
-0.268479 0.808552 0.359006 0.000000 1.000000 0.000000 35 35 35 1.000000
-0.414600 0.348141 0.045763 -0.994045 0.000000 0.108973 128 128 128 0.500000
-0.347043 0.808552 0.291072 0.000000 1.000000 0.000000 35 35 35 1.000000
-0.287291 -0.543992 0.305194 -0.685015 0.000000 0.728529 128 128 128 0.500000
-0.416958 0.202063 0.027848 -0.997831 0.000000 0.065826 128 128 128 0.500000
-0.115101 0.737701 -0.402813 -0.272980 0.000000 -0.962020 128 128 128 0.500000
0.338652 0.073601 -0.241207 -0.814632 0.000000 0.579978 128 128 128 0.500000
0.039080 -0.000872 -0.414260 -0.095475 0.000000 0.995432 128 128 128 0.500000
0.248886 0.756121 0.132765 0.000000 -1.000000 0.000000 35 35 35 1.000000
0.103308 0.150791 -0.405804 -0.248031 0.000000 0.968752 128 128 128 0.500000
-0.256767 0.756121 0.163806 0.000000 1.000000 0.000000 255 255 255 1.000000
0.088177 -0.916245 -0.206312 0.000000 -1.000000 0.000000 255 255 255 1.000000
-0.144075 -0.916245 0.340840 0.000000 1.000000 0.000000 255 255 255 1.000000
-0.404036 -0.714206 0.114445 -0.962267 0.000000 0.272107 128 128 128 0.500000
0.241616 0.730122 -0.338408 -0.581729 0.000000 0.813382 128 128 128 0.500000
-0.126850 0.807587 -0.427300 0.282930 0.000000 0.959141 35 35 35 1.000000
-0.412234 0.272636 -0.062960 0.988360 0.000000 0.152134 128 128 128 0.500000
0.418061 -0.412559 -0.008214 0.999789 0.000000 -0.020536 128 128 128 0.500000
-0.187841 0.756121 0.178695 0.000000 -1.000000 0.000000 35 35 35 1.000000
-0.001211 0.790472 0.426353 0.000000 1.000000 0.000000 35 35 35 1.000000
0.412600 0.415469 -0.049692 -0.992738 0.000000 0.120293 128 128 128 0.500000
0.395844 0.356315 0.130891 0.949880 0.000000 0.312615 128 128 128 0.500000
-0.067357 -0.364640 0.411494 -0.160073 0.000000 0.987105 128 128 128 0.500000
0.113355 -0.916245 -0.286203 0.000000 1.000000 0.000000 255 255 255 1.000000
-0.086975 -0.916245 0.351217 0.000000 1.000000 0.000000 255 255 255 1.000000
-0.058696 0.660503 -0.411859 -0.139333 0.000000 -0.990246 128 128 128 0.500000
-0.030567 0.027881 0.416337 -0.071643 0.000000 0.997430 128 128 128 0.500000
-0.347377 -0.824606 -0.231634 0.831057 0.000000 0.556188 128 128 128 0.500000
-0.362259 0.395510 -0.212240 -0.861997 0.000000 -0.506913 128 128 128 0.500000
-0.413632 -0.735004 0.053113 -0.991947 0.000000 0.126654 128 128 128 0.500000
-0.407970 0.716203 -0.095346 0.973469 0.000000 0.228820 128 128 128 0.500000
0.348913 0.469009 -0.227834 0.837370 0.000000 -0.546636 128 128 128 0.500000
0.303829 -0.399807 -0.286589 0.727758 0.000000 -0.685834 128 128 128 0.500000
-0.005634 -0.626518 0.419620 0.011792 0.000000 -0.999930 128 128 128 0.500000
-0.403802 0.756121 -0.191517 0.000000 -1.000000 0.000000 35 35 35 1.000000
0.142587 0.436318 0.391631 0.343876 0.000000 0.939015 128 128 128 0.500000
0.097496 -0.916245 -0.265401 0.000000 -1.000000 0.000000 255 255 255 1.000000
-0.116934 0.790472 0.366738 0.000000 1.000000 0.000000 35 35 35 1.000000
-0.314363 0.756121 0.188202 0.000000 -1.000000 0.000000 35 35 35 1.000000
0.183220 0.790472 0.132296 0.000000 1.000000 0.000000 35 35 35 1.000000
0.154309 -0.698092 -0.386000 -0.372310 0.000000 0.928109 128 128 128 0.500000
-0.151308 -0.180503 -0.387815 0.361717 0.000000 0.932288 128 128 128 0.500000
-0.044453 0.678794 0.414509 0.105092 0.000000 -0.994462 128 128 128 0.500000
0.400088 -0.550408 0.120646 -0.957810 0.000000 -0.287403 128 128 128 0.500000
-0.086150 -0.450647 0.409020 0.204707 0.000000 -0.978823 128 128 128 0.500000
-0.009056 0.790472 0.267037 0.000000 -1.000000 0.000000 255 255 255 1.000000
0.414548 0.157720 -0.034894 -0.996410 0.000000 0.084661 128 128 128 0.500000
-0.314274 0.501767 0.275550 -0.751654 0.000000 0.659558 128 128 128 0.500000
0.032242 -0.314117 0.415935 -0.079002 0.000000 -0.996875 128 128 128 0.500000
-0.414973 -0.398673 0.042930 0.994769 0.000000 -0.102153 128 128 128 0.500000
0.249609 -0.061065 -0.332275 -0.601232 0.000000 0.799074 128 128 128 0.500000
0.122617 0.580522 -0.399128 0.294914 0.000000 -0.955524 128 128 128 0.500000
-0.080411 0.497752 -0.409001 -0.191141 0.000000 -0.981563 128 128 128 0.500000
-0.282124 -0.423418 -0.308384 -0.673632 0.000000 -0.739067 128 128 128 0.500000
-0.255946 0.571397 0.329247 0.613156 0.000000 -0.789962 128 128 128 0.500000
-0.314047 -0.745317 0.275846 -0.751064 0.000000 0.660229 128 128 128 0.500000
-0.418234 0.292435 0.018157 -0.999096 0.000000 0.042520 128 128 128 0.500000
-0.409154 0.790472 0.014967 0.000000 1.000000 0.000000 35 35 35 1.000000
0.350997 -0.916245 0.071969 0.000000 1.000000 0.000000 255 255 255 1.000000
0.394156 -0.556257 -0.134192 0.946530 0.000000 -0.322615 128 128 128 0.500000
0.249448 0.133319 0.333173 0.600843 0.000000 0.799367 128 128 128 0.500000
0.352253 -0.209364 0.224256 -0.844453 0.000000 -0.535630 128 128 128 0.500000
-0.417469 -0.335673 -0.023191 -0.998404 0.000000 -0.056483 128 128 128 0.500000
0.229218 0.199530 -0.347921 -0.550884 0.000000 0.834582 128 128 128 0.500000
-0.422708 0.808552 -0.152595 0.000000 1.000000 0.000000 35 35 35 1.000000
-0.130927 0.790472 -0.189974 0.000000 1.000000 0.000000 35 35 35 1.000000
0.011684 -0.845436 -0.417867 0.029572 0.000000 -0.999563 128 128 128 0.500000
-0.045290 0.756121 0.378643 0.000000 1.000000 0.000000 255 255 255 1.000000
0.050180 0.790472 -0.436975 0.000000 1.000000 0.000000 35 35 35 1.000000
-0.411337 -0.091273 -0.069773 0.985717 0.000000 0.168412 128 128 128 0.500000
-0.044657 0.756121 -0.261983 0.000000 1.000000 0.000000 255 255 255 1.000000
-0.200612 -0.562363 -0.367393 0.477590 0.000000 0.878583 128 128 128 0.500000
-0.411997 0.163289 -0.064759 -0.987688 0.000000 -0.156438 128 128 128 0.500000
-0.130140 0.503781 -0.396583 -0.310027 0.000000 -0.950728 128 128 128 0.500000
0.023779 0.343255 -0.416275 -0.058625 0.000000 0.998280 128 128 128 0.500000
-0.357126 0.756121 -0.105203 0.000000 -1.000000 0.000000 35 35 35 1.000000
0.383176 -0.208488 0.161474 0.922099 0.000000 0.386954 128 128 128 0.500000
0.388780 -0.625155 -0.147169 -0.935136 0.000000 0.354288 128 128 128 0.500000
-0.284927 -0.312547 0.307008 -0.679831 0.000000 0.733369 128 128 128 0.500000
-0.181871 -0.916245 0.198766 0.000000 1.000000 0.000000 255 255 255 1.000000
-0.411529 0.641306 0.069090 -0.986304 0.000000 0.164936 128 128 128 0.500000
-0.238256 0.756121 0.121590 0.000000 -1.000000 0.000000 35 35 35 1.000000
0.045173 -0.916245 -0.076721 0.000000 -1.000000 0.000000 255 255 255 1.000000
-0.250380 -0.838020 0.333517 -0.599758 0.000000 0.800182 128 128 128 0.500000
-0.132669 0.789315 -0.454244 -0.278788 0.000000 -0.960353 35 35 35 1.000000
0.277358 0.756121 -0.138426 0.000000 -1.000000 0.000000 35 35 35 1.000000
-0.408230 -0.082640 -0.093369 -0.974544 0.000000 -0.224198 128 128 128 0.500000
-0.210056 0.790472 -0.038434 0.000000 -1.000000 0.000000 255 255 255 1.000000
-0.040057 -0.066699 0.415088 -0.094503 0.000000 0.995525 128 128 128 0.500000
-0.360365 -0.053831 -0.214709 -0.858238 0.000000 -0.513252 128 128 128 0.500000
-0.235180 -0.377732 -0.344406 0.562360 0.000000 0.826893 128 128 128 0.500000
0.051473 0.790472 0.201038 0.000000 -1.000000 0.000000 255 255 255 1.000000
-0.178803 -0.231531 0.377201 0.427346 0.000000 -0.904088 128 128 128 0.500000
-0.319212 0.166236 0.269115 -0.764322 0.000000 0.644835 128 128 128 0.500000
-0.026920 0.407148 -0.416043 -0.062863 0.000000 -0.998022 128 128 128 0.500000
0.029867 0.756121 -0.176096 0.000000 -1.000000 0.000000 35 35 35 1.000000
-0.087340 -0.916245 0.004771 0.000000 -1.000000 0.000000 255 255 255 1.000000
0.007048 -0.444619 0.419252 -0.018471 0.000000 -0.999829 128 128 128 0.500000
0.181818 -0.232129 -0.374606 -0.437620 0.000000 0.899160 128 128 128 0.500000
-0.305990 0.415902 -0.285571 0.729847 0.000000 0.683610 128 128 128 0.500000
-0.040625 -0.636705 0.415013 -0.095871 0.000000 0.995394 128 128 128 0.500000
0.243808 0.790472 0.247792 0.000000 -1.000000 0.000000 255 255 255 1.000000
0.060595 0.756121 0.459606 0.000000 -1.000000 0.000000 35 35 35 1.000000
-0.384525 0.174986 -0.160775 -0.922023 0.000000 -0.387135 128 128 128 0.500000
-0.383250 0.219337 0.164627 0.918897 0.000000 -0.394497 128 128 128 0.500000
-0.345050 0.290509 -0.234667 -0.825933 0.000000 -0.563768 128 128 128 0.500000
-0.066757 -0.916245 -0.308360 0.000000 -1.000000 0.000000 255 255 255 1.000000
0.176109 -0.916245 -0.363673 0.000000 1.000000 0.000000 255 255 255 1.000000
-0.104223 -0.740869 0.406640 -0.246955 0.000000 0.969027 128 128 128 0.500000
-0.232742 0.102933 0.347051 -0.556264 0.000000 0.831006 128 128 128 0.500000
0.414342 0.069318 0.037237 0.996082 0.000000 0.088440 128 128 128 0.500000
0.262501 -0.340715 0.323157 0.631953 0.000000 0.775007 128 128 128 0.500000
-0.164681 0.790472 -0.327350 0.000000 1.000000 0.000000 35 35 35 1.000000
-0.195452 0.058218 -0.369530 0.465875 0.000000 0.884851 128 128 128 0.500000
-0.404340 0.063725 0.113712 -0.962776 0.000000 0.270300 128 128 128 0.500000
-0.287655 0.790472 0.006051 0.000000 -1.000000 0.000000 255 255 255 1.000000
-0.238059 -0.916245 -0.172847 0.000000 1.000000 0.000000 255 255 255 1.000000
0.019150 -0.805621 -0.416884 0.047495 0.000000 -0.998872 128 128 128 0.500000
-0.064164 -0.433522 -0.411140 0.152437 0.000000 0.988313 128 128 128 0.500000
0.204928 0.790472 0.334821 0.000000 -1.000000 0.000000 255 255 255 1.000000
-0.416713 0.414516 -0.028938 0.997525 0.000000 0.070315 128 128 128 0.500000
0.307160 -0.473587 0.283023 -0.736630 0.000000 -0.676296 128 128 128 0.500000
0.415079 -0.082856 -0.030866 0.997187 0.000000 -0.074957 128 128 128 0.500000
-0.401832 -0.295887 0.119766 0.958458 0.000000 -0.285233 128 128 128 0.500000
-0.034552 -0.916245 0.315434 0.000000 -1.000000 0.000000 255 255 255 1.000000
-0.149710 0.140381 0.389252 -0.357841 0.000000 0.933782 128 128 128 0.500000
0.203432 -0.916245 -0.363955 0.000000 1.000000 0.000000 255 255 255 1.000000
-0.417002 0.459525 0.027515 0.997884 0.000000 -0.065023 128 128 128 0.500000
0.379956 0.546623 0.169249 0.914092 0.000000 0.405508 128 128 128 0.500000
-0.246855 -0.416703 -0.335447 0.591187 0.000000 0.806535 128 128 128 0.500000
0.274534 -0.251801 0.313924 -0.659697 0.000000 -0.751532 128 128 128 0.500000
0.261310 0.790472 -0.119558 0.000000 -1.000000 0.000000 255 255 255 1.000000
-0.412477 0.179316 0.061888 -0.989030 0.000000 0.147713 128 128 128 0.500000
0.416098 0.522994 -0.023126 -0.998412 0.000000 0.056327 128 128 128 0.500000
-0.351999 0.736289 0.226386 0.841007 0.000000 -0.541024 128 128 128 0.500000
-0.106440 -0.762681 -0.405574 -0.252081 0.000000 -0.967706 128 128 128 0.500000
0.268601 0.703464 -0.317702 -0.646137 0.000000 0.763221 128 128 128 0.500000
-0.010732 -0.407853 0.418949 0.023985 0.000000 -0.999712 128 128 128 0.500000
-0.081444 0.790472 -0.293254 0.000000 1.000000 0.000000 35 35 35 1.000000
0.415158 -0.273658 -0.030265 -0.997294 0.000000 0.073511 128 128 128 0.500000
0.083624 -0.916245 -0.096935 0.000000 1.000000 0.000000 255 255 255 1.000000
-0.384130 -0.655946 0.162503 0.921061 0.000000 -0.389417 128 128 128 0.500000
0.364944 -0.410054 0.205490 -0.872152 0.000000 -0.489235 128 128 128 0.500000
-0.369833 -0.639295 -0.196244 -0.882596 0.000000 -0.470132 128 128 128 0.500000
0.236606 0.756121 0.280736 0.000000 1.000000 0.000000 255 255 255 1.000000
-0.088206 -0.085028 0.408749 0.209552 0.000000 -0.977798 128 128 128 0.500000
-0.415448 0.219308 0.039323 0.995623 0.000000 -0.093464 128 128 128 0.500000
0.181422 0.756121 -0.356580 0.000000 1.000000 0.000000 255 255 255 1.000000
0.319650 -0.916245 -0.018046 0.000000 -1.000000 0.000000 255 255 255 1.000000
0.199177 0.756121 0.288348 0.000000 1.000000 0.000000 255 255 255 1.000000
0.450602 0.786414 -0.139652 0.955074 0.000000 -0.296366 35 35 35 1.000000
-0.416202 0.310933 0.033595 0.996822 0.000000 -0.079665 128 128 128 0.500000
-0.387709 0.790472 -0.086679 0.000000 -1.000000 0.000000 255 255 255 1.000000
0.409532 0.001490 -0.072999 0.984373 0.000000 -0.176098 128 128 128 0.500000
0.137668 0.135305 0.393668 -0.331867 0.000000 -0.943326 128 128 128 0.500000
0.221022 0.808552 -0.395166 0.000000 1.000000 0.000000 35 35 35 1.000000
0.200924 0.790472 0.050825 0.000000 -1.000000 0.000000 255 255 255 1.000000
-0.356555 0.252594 0.220449 0.850517 0.000000 -0.525947 128 128 128 0.500000
0.031264 0.595457 -0.415289 0.076647 0.000000 -0.997058 128 128 128 0.500000
-0.423453 0.808552 0.185117 0.000000 1.000000 0.000000 35 35 35 1.000000
0.389745 0.169508 0.145614 -0.937263 0.000000 -0.348624 128 128 128 0.500000
-0.389047 -0.174939 -0.149858 -0.932638 0.000000 -0.360813 128 128 128 0.500000
-0.309293 -0.709320 0.282042 0.738620 0.000000 -0.674122 128 128 128 0.500000
0.311132 0.600946 -0.277071 0.747073 0.000000 -0.664743 128 128 128 0.500000
0.416316 -0.330136 0.022244 0.998629 0.000000 0.052341 128 128 128 0.500000
0.119267 0.756121 0.142774 0.000000 -1.000000 0.000000 35 35 35 1.000000
-0.266475 0.553661 -0.320393 -0.638012 0.000000 -0.770027 128 128 128 0.500000
-0.018935 -0.590531 -0.417094 0.043659 0.000000 0.999046 128 128 128 0.500000
0.042386 -0.742847 -0.413825 0.103437 0.000000 -0.994636 128 128 128 0.500000
-0.019697 -0.898067 0.417769 0.045490 0.000000 -0.998965 128 128 128 0.500000
-0.308890 0.790472 -0.064515 0.000000 1.000000 0.000000 35 35 35 1.000000
-0.218414 0.242947 0.358046 0.519979 0.000000 -0.854179 128 128 128 0.500000
-0.112289 -0.916245 0.173682 0.000000 1.000000 0.000000 255 255 255 1.000000
-0.395883 -0.622636 0.134130 -0.947227 0.000000 0.320563 128 128 128 0.500000
-0.362108 0.790472 -0.252342 0.000000 1.000000 0.000000 35 35 35 1.000000
0.417412 0.501272 0.013920 0.999477 0.000000 0.032350 128 128 128 0.500000
-0.245124 -0.250269 0.337550 0.586954 0.000000 -0.809620 128 128 128 0.500000
0.254584 0.756121 0.093415 0.000000 1.000000 0.000000 255 255 255 1.000000
0.066861 0.362061 0.411377 0.162187 0.000000 0.986760 128 128 128 0.500000
-0.099402 -0.421051 0.407275 -0.235764 0.000000 0.971810 128 128 128 0.500000
0.203622 0.459972 0.366349 0.487464 0.000000 0.873143 128 128 128 0.500000
-0.052518 0.790472 -0.296415 0.000000 -1.000000 0.000000 255 255 255 1.000000
-0.262293 0.136463 -0.323601 0.628220 0.000000 0.778036 128 128 128 0.500000
-0.396943 -0.486834 -0.130796 -0.949329 0.000000 -0.314285 128 128 128 0.500000
0.050973 -0.604594 0.413469 0.124101 0.000000 0.992270 128 128 128 0.500000
-0.186363 -0.785533 0.374070 0.444972 0.000000 -0.895544 128 128 128 0.500000
-0.007156 0.133694 -0.418645 -0.015428 0.000000 -0.999881 128 128 128 0.500000
-0.347927 -0.587276 0.231693 -0.832255 0.000000 0.554393 128 128 128 0.500000
-0.401981 -0.584928 0.119407 0.958721 0.000000 -0.284349 128 128 128 0.500000
0.095976 0.790472 -0.346425 0.000000 1.000000 0.000000 35 35 35 1.000000
0.376893 -0.802303 -0.175867 0.906138 0.000000 -0.422982 128 128 128 0.500000
0.041768 -0.566868 -0.413906 -0.101950 0.000000 0.994790 128 128 128 0.500000
-0.254074 0.000619 -0.329908 -0.608670 0.000000 -0.793423 128 128 128 0.500000
0.196211 -0.775699 -0.368644 -0.470746 0.000000 0.882269 128 128 128 0.500000
-0.140498 -0.625556 -0.392293 0.335410 0.000000 0.942072 128 128 128 0.500000
0.405843 -0.338487 -0.101021 -0.970269 0.000000 0.242031 128 128 128 0.500000
-0.286891 -0.120691 0.305501 -0.684141 0.000000 0.729350 128 128 128 0.500000
0.211583 -0.679359 0.362228 0.506003 0.000000 0.862532 128 128 128 0.500000
0.341148 -0.415156 0.238728 0.820296 0.000000 0.571939 128 128 128 0.500000
0.068087 0.790472 0.278784 0.000000 1.000000 0.000000 35 35 35 1.000000
-0.222488 0.411023 -0.354145 -0.530369 0.000000 -0.847767 128 128 128 0.500000
0.438804 0.797311 -0.058425 -0.991165 0.000000 0.132637 35 35 35 1.000000
0.119975 -0.706840 0.400997 -0.288405 0.000000 -0.957509 128 128 128 0.500000
-0.252802 -0.786626 -0.330884 0.605610 0.000000 0.795762 128 128 128 0.500000
-0.405705 0.383657 0.110418 0.965022 0.000000 -0.262168 128 128 128 0.500000
0.355822 -0.897433 -0.218830 -0.851845 0.000000 0.523793 128 128 128 0.500000
-0.155648 0.790472 -0.236673 0.000000 -1.000000 0.000000 255 255 255 1.000000
-0.344613 -0.758663 0.236012 -0.824961 0.000000 0.565189 128 128 128 0.500000
-0.017006 0.543211 0.418123 -0.039027 0.000000 0.999238 128 128 128 0.500000
-0.370359 -0.896907 0.195749 -0.884129 0.000000 0.467242 128 128 128 0.500000
-0.454988 0.767687 0.133170 0.959842 0.000000 -0.280543 35 35 35 1.000000
-0.356275 0.134315 -0.220039 0.849942 0.000000 0.526877 128 128 128 0.500000
-0.375451 0.738466 -0.182682 -0.898523 0.000000 -0.438926 128 128 128 0.500000
-0.298988 -0.384919 -0.294696 -0.710928 0.000000 -0.703265 128 128 128 0.500000
-0.209509 0.133033 0.364482 -0.497513 0.000000 0.867457 128 128 128 0.500000
-0.413953 -0.401258 -0.049903 -0.992677 0.000000 -0.120799 128 128 128 0.500000
0.299435 0.756121 0.355128 0.000000 -1.000000 0.000000 35 35 35 1.000000
0.078771 0.756121 0.446620 0.000000 1.000000 0.000000 255 255 255 1.000000
0.349088 0.303410 0.228381 0.837745 0.000000 0.546062 128 128 128 0.500000
0.190295 0.790472 -0.135325 0.000000 1.000000 0.000000 35 35 35 1.000000
-0.055889 0.756121 0.136974 0.000000 -1.000000 0.000000 35 35 35 1.000000
-0.325889 0.464896 -0.259638 -0.781025 0.000000 -0.624500 128 128 128 0.500000
-0.104084 -0.916245 0.242459 0.000000 -1.000000 0.000000 255 255 255 1.000000
-0.163901 -0.002686 0.383373 0.392040 0.000000 -0.919948 128 128 128 0.500000
-0.070572 -0.916245 -0.384450 0.000000 -1.000000 0.000000 255 255 255 1.000000
-0.010779 -0.365380 0.418943 -0.024097 0.000000 0.999710 128 128 128 0.500000
-0.280709 0.220208 0.310245 -0.670481 0.000000 0.741927 128 128 128 0.500000
0.329242 -0.114446 0.254245 0.792550 0.000000 0.609807 128 128 128 0.500000
-0.348345 0.301303 0.231149 -0.833164 0.000000 0.553026 128 128 128 0.500000
0.015403 0.046536 0.418152 0.038494 0.000000 0.999259 128 128 128 0.500000
-0.027277 -0.262302 -0.415996 0.063723 0.000000 0.997968 128 128 128 0.500000
0.330100 0.225728 0.253126 0.794611 0.000000 0.607118 128 128 128 0.500000
-0.090076 -0.799355 0.408503 0.213950 0.000000 -0.976845 128 128 128 0.500000
-0.228502 -0.916245 -0.045382 0.000000 1.000000 0.000000 255 255 255 1.000000
0.201365 0.562961 0.367284 -0.482401 0.000000 -0.875951 128 128 128 0.500000
-0.418640 -0.912526 -0.014298 0.999383 0.000000 0.035115 128 128 128 0.500000
0.285664 0.164315 -0.304609 -0.684476 0.000000 0.729036 128 128 128 0.500000
-0.420328 0.510421 0.002253 -0.999990 0.000000 0.004445 128 128 128 0.500000
-0.006906 -0.916245 0.182483 0.000000 -1.000000 0.000000 255 255 255 1.000000
-0.417989 0.524963 -0.019242 0.998896 0.000000 0.046987 128 128 128 0.500000
0.417545 -0.592066 0.012907 -0.999552 0.000000 -0.029921 128 128 128 0.500000
0.086292 0.756121 0.374586 0.000000 1.000000 0.000000 255 255 255 1.000000
-0.261828 0.756121 -0.114603 0.000000 1.000000 0.000000 255 255 255 1.000000
0.180801 0.115785 -0.375027 0.435248 0.000000 -0.900311 128 128 128 0.500000
0.006704 -0.916245 0.372805 0.000000 -1.000000 0.000000 255 255 255 1.000000
-0.199351 0.808552 0.398577 0.000000 -1.000000 0.000000 255 255 255 1.000000
-0.058450 0.713915 0.412666 -0.138745 0.000000 0.990328 128 128 128 0.500000
0.216446 -0.704381 -0.357722 0.518478 0.000000 -0.855091 128 128 128 0.500000
0.408616 -0.724971 0.080728 0.981276 0.000000 0.192608 128 128 128 0.500000
0.212662 0.756121 0.184223 0.000000 1.000000 0.000000 255 255 255 1.000000
-0.348612 -0.578959 -0.230026 -0.833744 0.000000 -0.552152 128 128 128 0.500000
-0.271415 -0.916245 0.258267 0.000000 -1.000000 0.000000 255 255 255 1.000000
-0.343721 -0.307732 -0.236400 -0.822973 0.000000 -0.568081 128 128 128 0.500000
-0.122631 0.342811 -0.399694 -0.291549 0.000000 -0.956556 128 128 128 0.500000
0.337749 -0.077192 -0.242383 0.812564 0.000000 -0.582872 128 128 128 0.500000
0.390800 0.064769 -0.142293 0.939547 0.000000 -0.342421 128 128 128 0.500000
0.354454 0.767951 -0.309710 0.753263 0.000000 -0.657719 35 35 35 1.000000
0.045445 0.756121 -0.103103 0.000000 -1.000000 0.000000 35 35 35 1.000000
0.417622 -0.617017 -0.011548 -0.999593 0.000000 0.028521 128 128 128 0.500000
-0.112020 -0.684823 -0.404089 0.265375 0.000000 0.964145 128 128 128 0.500000
0.230665 -0.709434 0.347586 0.554517 0.000000 0.832173 128 128 128 0.500000
-0.391932 0.380613 0.143667 0.939012 0.000000 -0.343883 128 128 128 0.500000
-0.387496 -0.505392 0.154376 0.929083 0.000000 -0.369872 128 128 128 0.500000
-0.390966 -0.463023 -0.145224 -0.936914 0.000000 -0.349560 128 128 128 0.500000
0.405997 -0.185721 0.100622 -0.970944 0.000000 -0.239305 128 128 128 0.500000
0.083169 0.191514 -0.408456 0.200931 0.000000 -0.979605 128 128 128 0.500000
-0.392600 -0.021289 -0.141279 0.940444 0.000000 0.339949 128 128 128 0.500000
-0.303661 0.756121 -0.215580 0.000000 -1.000000 0.000000 35 35 35 1.000000
-0.129086 0.790472 0.143345 0.000000 -1.000000 0.000000 255 255 255 1.000000
-0.084785 0.790472 0.122067 0.000000 1.000000 0.000000 35 35 35 1.000000
-0.376633 -0.916245 0.130762 0.000000 1.000000 0.000000 255 255 255 1.000000
-0.413781 0.808514 0.232653 0.871663 0.000000 -0.490105 35 35 35 1.000000
0.176159 0.754135 0.377724 0.424380 0.000000 0.905484 128 128 128 0.500000
-0.014096 -0.916245 0.063234 0.000000 1.000000 0.000000 255 255 255 1.000000
-0.194720 0.790472 -0.138685 0.000000 1.000000 0.000000 35 35 35 1.000000
-0.276467 -0.209783 -0.312725 0.660950 0.000000 0.750430 128 128 128 0.500000
0.113230 -0.356527 -0.403016 0.271770 0.000000 -0.962362 128 128 128 0.500000
-0.378957 0.756121 -0.246558 0.000000 1.000000 0.000000 255 255 255 1.000000
0.281461 0.756121 -0.254210 0.000000 -1.000000 0.000000 35 35 35 1.000000
-0.036932 0.203243 0.415499 -0.086976 0.000000 0.996210 128 128 128 0.500000
-0.345779 -0.145456 0.234492 0.827546 0.000000 -0.561398 128 128 128 0.500000
-0.417301 0.260461 -0.024474 0.998224 0.000000 0.059569 128 128 128 0.500000
-0.414403 0.512356 -0.046483 0.993644 0.000000 0.112572 128 128 128 0.500000
0.410541 0.125818 -0.065330 0.987471 0.000000 -0.157804 128 128 128 0.500000
-0.133223 0.678745 0.396081 0.317596 0.000000 -0.948226 128 128 128 0.500000
0.367365 0.680689 0.199646 -0.879397 0.000000 -0.476090 128 128 128 0.500000
0.096593 0.604675 -0.406688 0.232435 0.000000 -0.972612 128 128 128 0.500000
-0.051133 0.756121 0.211979 0.000000 -1.000000 0.000000 35 35 35 1.000000
-0.081483 -0.916245 0.201539 0.000000 -1.000000 0.000000 255 255 255 1.000000
0.368367 -0.635586 0.197225 -0.882346 0.000000 -0.470601 128 128 128 0.500000
0.211091 0.756121 -0.419486 0.000000 -1.000000 0.000000 35 35 35 1.000000
0.288609 -0.539655 0.303124 0.690881 0.000000 0.722969 128 128 128 0.500000
0.282077 -0.414083 0.308136 -0.676587 0.000000 -0.736362 128 128 128 0.500000
-0.180745 0.790472 0.220084 0.000000 -1.000000 0.000000 255 255 255 1.000000
-0.409202 -0.678807 0.086767 0.978367 0.000000 -0.206875 128 128 128 0.500000
0.133060 0.661494 -0.394802 -0.320582 0.000000 0.947221 128 128 128 0.500000
-0.426359 0.756121 0.154724 0.000000 1.000000 0.000000 255 255 255 1.000000
-0.131445 0.790472 0.214826 0.000000 -1.000000 0.000000 255 255 255 1.000000
-0.402950 0.355313 0.117068 0.960413 0.000000 -0.278580 128 128 128 0.500000
0.140776 0.507558 -0.391606 0.339459 0.000000 -0.940621 128 128 128 0.500000
-0.085389 0.664342 0.409120 0.202912 0.000000 -0.979197 128 128 128 0.500000
0.328392 -0.750447 0.255352 0.790501 0.000000 0.612461 128 128 128 0.500000
0.278002 0.790472 0.266741 0.000000 1.000000 0.000000 35 35 35 1.000000
0.242597 0.522099 -0.337655 0.584142 0.000000 -0.811651 128 128 128 0.500000
-0.209812 0.411200 0.364357 0.498183 0.000000 -0.867072 128 128 128 0.500000
0.051489 0.756121 -0.358235 0.000000 -1.000000 0.000000 35 35 35 1.000000
-0.039283 0.525891 0.415190 0.092639 0.000000 -0.995700 128 128 128 0.500000
-0.155358 0.790472 -0.370864 0.000000 1.000000 0.000000 35 35 35 1.000000
-0.412148 -0.783165 0.064387 -0.988118 0.000000 0.153694 128 128 128 0.500000
0.324228 0.790472 0.091636 0.000000 1.000000 0.000000 35 35 35 1.000000
0.296446 -0.679723 -0.296210 0.707748 0.000000 -0.706465 128 128 128 0.500000
-0.070507 -0.916245 0.367972 0.000000 1.000000 0.000000 255 255 255 1.000000
-0.015802 0.790472 0.198732 0.000000 -1.000000 0.000000 255 255 255 1.000000
0.160575 0.523251 -0.383405 -0.387381 0.000000 0.921920 128 128 128 0.500000
0.237178 0.405234 0.342589 0.570765 0.000000 0.821114 128 128 128 0.500000
-0.124875 0.790472 0.275718 0.000000 1.000000 0.000000 35 35 35 1.000000
0.382130 -0.858281 -0.163225 0.919539 0.000000 -0.392999 128 128 128 0.500000
-0.258858 -0.916245 -0.071015 0.000000 1.000000 0.000000 255 255 255 1.000000
0.332687 0.639481 -0.248980 0.800767 0.000000 -0.598976 128 128 128 0.500000
-0.381230 -0.686992 0.169504 0.913823 0.000000 -0.406113 128 128 128 0.500000
