ply
format ascii 1.0
element vertex 1275
property float x
property float y
property float z
property uchar red
property uchar green
property uchar blue
end_header
-0.216846 -0.576620 -0.098291 153 0 76
-0.139069 0.445087 0.203522 153 0 76
-0.013349 0.172508 -0.243637 153 0 76
0.071688 0.911160 0.125230 153 76 0
-0.118035 0.314277 -0.214127 153 0 76
-0.026806 0.110764 -0.239280 153 0 76
0.017637 -0.725215 -0.251595 153 0 76
-0.204787 0.025239 0.104858 153 0 76
-0.183234 -0.170814 -0.100592 153 0 76
0.202467 -0.052171 0.094875 153 0 76
-0.196423 0.362412 0.151419 153 0 76
0.225250 -0.720802 -0.124661 153 0 76
0.117482 -0.790120 -0.222558 153 0 76
-0.212691 -0.073211 -0.032838 153 0 76
-0.071714 -0.088086 0.207676 153 0 76
0.222117 -0.582078 0.106731 153 0 76
-0.208276 -0.869923 0.103638 153 0 76
-0.156661 -0.640381 0.198429 153 0 76
0.248814 0.374320 -0.018583 153 0 76
-0.077296 0.232207 0.238732 153 0 76
0.212702 -0.605013 0.135153 153 0 76
-0.205293 0.492138 -0.118927 153 0 76
0.139548 0.708500 0.117073 153 0 76
0.175532 -0.902531 0.012339 153 0 76
-0.138061 -0.546566 -0.185687 153 0 76
0.228774 0.041165 -0.055535 153 0 76
-0.133381 0.289229 -0.203949 153 0 76
-0.134704 -0.279540 -0.156311 153 0 76
-0.050254 0.210822 0.246509 153 0 76
0.066021 -0.197669 0.205320 153 0 76
0.193985 -0.578311 -0.143427 153 0 76
0.164339 0.411810 -0.182541 153 0 76
-0.025136 -0.431181 0.221979 153 0 76
-0.149827 -0.262456 -0.143176 153 0 76
-0.067059 -0.828926 -0.237944 153 0 76
0.217636 0.310437 0.129553 153 0 76
-0.017016 0.963137 -0.131303 153 76 0
-0.198961 -0.241026 0.066403 153 0 76
-0.191218 -0.033297 0.116620 153 0 76
0.234613 0.331453 -0.081615 153 0 76
-0.034456 0.992838 0.069715 153 76 0
-0.123790 0.857362 -0.073204 76 0 153
-0.112948 0.764759 -0.091361 153 0 76
0.103525 -0.154699 0.191515 153 0 76
-0.048321 0.501103 -0.229464 153 0 76
0.107764 0.362374 0.227949 153 0 76
0.235587 0.236410 0.086993 153 0 76
0.078200 -0.082267 -0.199635 153 0 76
0.052151 0.224892 0.246843 153 0 76
-0.124733 0.830307 0.025344 76 0 153
-0.206649 -0.767480 0.149732 153 0 76
0.188309 -0.379175 -0.107122 153 0 76
-0.124600 0.356937 -0.210686 153 0 76
-0.203369 0.284717 -0.134635 153 0 76
-0.092198 0.186301 0.232559 153 0 76
-0.015743 -0.322183 0.215125 153 0 76
-0.236003 -0.578516 -0.039510 153 0 76
-0.120154 -0.839810 -0.214553 153 0 76
-0.173624 -0.093370 -0.122017 153 0 76
0.110882 0.032721 0.208951 153 0 76
0.025125 0.687090 0.189434 153 0 76
0.047921 -0.902531 0.127581 153 0 76
-0.051636 0.992838 -0.035321 153 76 0
-0.055353 0.873701 0.130513 76 0 153
-0.157172 -0.307577 -0.135100 153 0 76
0.188832 -0.854111 0.161906 153 0 76
-0.169221 0.065085 0.168307 153 0 76
-0.046227 -0.387350 -0.207520 153 0 76
0.143533 0.488366 -0.189979 153 0 76
-0.076757 0.870714 0.118520 76 0 153
-0.195455 -0.308439 -0.070522 153 0 76
0.181143 -0.716879 0.188240 153 0 76
-0.233049 0.504002 -0.028351 153 0 76
0.229626 0.289784 0.101386 153 0 76
0.118977 -0.302732 -0.172281 153 0 76
-0.239485 0.185127 0.063483 153 0 76
0.251796 -0.808130 -0.030460 153 0 76
0.208550 -0.189067 -0.042988 153 0 76
-0.030200 -0.902531 0.207133 153 0 76
0.047265 0.168374 0.247486 153 0 76
-0.228297 -0.869221 0.039293 153 0 76
0.217891 -0.512481 -0.077728 153 0 76
0.161868 0.747251 0.009580 153 0 76
0.158723 -0.415903 -0.150840 153 0 76
0.115355 0.922287 -0.075842 153 76 0
-0.039819 0.637242 -0.197966 153 0 76
-0.118290 0.956976 -0.063043 153 76 0
-0.028744 -0.102503 -0.209272 153 0 76
-0.122698 0.358885 0.219876 153 0 76
-0.154627 0.162467 -0.187646 153 0 76
-0.220149 0.554349 -0.054940 153 0 76
0.210672 0.005160 0.093204 153 0 76
0.139368 -0.401575 -0.164566 153 0 76
-0.246587 -0.827801 0.029511 153 0 76
0.128979 0.617768 -0.165686 153 0 76
-0.064831 0.195258 0.243895 153 0 76
-0.244506 0.246651 -0.017619 153 0 76
0.010377 -0.589761 -0.241161 153 0 76
0.247818 0.136912 0.033883 153 0 76
-0.051592 0.992838 0.086269 153 76 0
-0.163634 0.105530 0.183971 153 0 76
0.061760 0.920546 -0.119243 153 76 0
0.204139 -0.891288 -0.075612 153 0 76
0.164900 -0.193582 -0.130081 153 0 76
-0.221284 -0.838308 0.114437 153 0 76
-0.015445 0.992838 0.107222 153 76 0
0.027962 0.016329 0.230959 153 0 76
-0.020071 0.902710 -0.131720 153 76 0
-0.077321 -0.795062 0.244678 153 0 76
-0.208404 -0.254779 -0.005229 153 0 76
-0.142999 -0.695642 -0.205733 153 0 76
0.092058 -0.194640 -0.186861 153 0 76
-0.095359 0.194422 -0.223519 153 0 76
-0.004335 0.423648 -0.243276 153 0 76
-0.141982 0.771831 0.022673 153 0 76
0.060019 -0.455385 -0.213176 153 0 76
-0.184296 0.289404 0.167222 153 0 76
-0.055971 -0.124335 0.211058 153 0 76
-0.215743 -0.459704 0.058657 153 0 76
0.144457 -0.886280 -0.165104 153 0 76
-0.223247 -0.522797 -0.058279 153 0 76
-0.166053 -0.751656 -0.188460 153 0 76
-0.200455 0.105612 -0.132604 153 0 76
-0.172045 -0.445216 -0.132894 153 0 76
-0.083849 -0.902531 -0.104856 153 0 76
0.083712 -0.182834 0.198266 153 0 76
-0.159798 0.635689 -0.123510 153 0 76
-0.207918 0.403774 -0.127632 153 0 76
0.130154 0.469303 0.210741 153 0 76
0.083882 0.086581 0.230060 153 0 76
-0.250646 -0.779065 -0.020742 153 0 76
0.076394 0.599225 -0.200449 153 0 76
0.090155 -0.032329 0.207970 153 0 76
0.228534 0.093664 -0.081044 153 0 76
0.162669 0.556354 0.167779 153 0 76
0.172942 -0.556864 0.171844 153 0 76
0.141318 -0.814673 -0.206174 153 0 76
-0.206325 -0.347683 0.052461 153 0 76
-0.107498 0.508470 0.214659 153 0 76
0.012862 0.329371 0.252016 153 0 76
-0.135249 0.626004 -0.154225 153 0 76
-0.230198 0.246267 -0.081565 153 0 76
0.252167 -0.687231 -0.046555 153 0 76
-0.094839 0.977613 -0.091298 153 76 0
0.048094 0.015698 -0.220479 153 0 76
-0.116414 -0.717696 -0.223229 153 0 76
-0.211823 -0.371439 0.021709 153 0 76
-0.135136 0.897386 0.001231 153 76 0
-0.170496 -0.594754 -0.172359 153 0 76
-0.051535 0.892840 0.129371 76 0 153
0.196886 -0.669493 -0.158739 153 0 76
-0.007442 -0.438160 -0.217425 153 0 76
-0.182019 -0.041150 -0.119327 153 0 76
0.210654 0.623217 0.029332 153 0 76
-0.217414 -0.545529 -0.081592 153 0 76
0.070230 -0.902531 -0.085280 153 0 76
0.113234 0.992838 -0.023670 153 76 0
-0.203591 -0.101875 -0.062159 153 0 76
-0.041387 -0.041224 0.221183 153 0 76
0.132908 0.941193 -0.037370 153 76 0
-0.104820 0.860066 -0.059854 76 0 153
-0.024761 0.034900 -0.225977 153 0 76
-0.102216 0.992838 0.058080 153 76 0
-0.210729 -0.324217 0.009808 153 0 76
0.205739 0.473146 0.135446 153 0 76
0.229037 0.326562 0.102806 153 0 76
0.172618 0.679837 -0.081391 153 0 76
-0.197183 0.217088 -0.142698 153 0 76
0.255608 -0.770874 -0.020157 153 0 76
-0.121734 -0.609552 0.220572 153 0 76
-0.210406 0.459916 0.125766 153 0 76
0.248718 0.407493 0.021377 153 0 76
0.180186 0.012413 0.146303 153 0 76
0.007478 -0.744662 -0.252797 153 0 76
-0.185992 0.016960 0.134117 153 0 76
0.104122 -0.806790 -0.226715 153 0 76
0.182028 0.428174 0.172926 153 0 76
0.221105 -0.888699 0.018049 153 0 76
-0.180084 0.271405 -0.164982 153 0 76
-0.123264 0.836115 -0.028268 76 0 153
0.149912 -0.779613 -0.202817 153 0 76
0.089986 0.580951 -0.199975 153 0 76
0.059654 -0.702974 -0.245700 153 0 76
-0.019147 0.003427 -0.221796 153 0 76
-0.187357 0.424268 0.160642 153 0 76
-0.103195 0.796579 -0.072755 153 0 76
0.112596 -0.865867 -0.205459 153 0 76
0.204066 0.605990 -0.071604 153 0 76
0.002976 -0.263253 0.215731 153 0 76
-0.180845 -0.902531 -0.040366 153 0 76
-0.180956 -0.335769 0.114205 153 0 76
-0.201345 -0.838137 0.147314 153 0 76
-0.086315 0.075551 0.224932 153 0 76
-0.162196 0.023236 0.166731 153 0 76
-0.173713 -0.419537 -0.126036 153 0 76
0.145215 -0.566691 0.196128 153 0 76
-0.157413 0.691123 0.100147 153 0 76
-0.072848 0.992838 -0.071303 153 76 0
0.056055 -0.524333 0.231104 153 0 76
-0.035288 0.860670 -0.120616 76 0 153
0.134371 -0.501563 -0.183105 153 0 76
0.008268 0.902959 -0.133039 153 76 0
0.225299 -0.637295 0.120603 153 0 76
0.155510 -0.661756 0.204976 153 0 76
0.215281 -0.348930 0.018614 153 0 76
0.234458 -0.530393 -0.019198 153 0 76
0.153778 -0.683061 -0.200207 153 0 76
-0.147823 -0.748184 0.210299 153 0 76
0.257580 -0.708820 0.018665 153 0 76
-0.048125 0.654745 -0.190646 153 0 76
0.121621 -0.537625 0.207683 153 0 76
-0.242496 -0.622366 0.054188 153 0 76
-0.244904 0.262608 0.022325 153 0 76
-0.090860 -0.129233 -0.188605 153 0 76
-0.215943 -0.409631 0.015450 153 0 76
-0.135335 0.425972 -0.200312 153 0 76
0.175663 -0.658939 -0.181511 153 0 76
-0.216101 -0.063975 -0.012995 153 0 76
0.212752 -0.870297 -0.095091 153 0 76
0.072728 -0.668236 -0.241163 153 0 76
-0.175983 -0.787032 0.186630 153 0 76
0.059040 -0.330828 -0.202324 153 0 76
0.201946 -0.194830 0.071962 153 0 76
-0.055891 0.401072 0.245169 153 0 76
-0.091774 0.084565 -0.216806 153 0 76
-0.169465 0.207850 0.183990 153 0 76
-0.191249 0.234248 -0.150431 153 0 76
0.177270 0.281770 0.181405 153 0 76
-0.190523 -0.329988 -0.085312 153 0 76
-0.224858 -0.482315 0.010255 153 0 76
-0.152253 -0.808905 0.202803 153 0 76
-0.175909 0.601709 -0.119637 153 0 76
-0.208140 0.208180 -0.128418 153 0 76
0.036724 0.199015 0.248874 153 0 76
-0.245092 0.153179 -0.013167 153 0 76
0.032525 0.992838 -0.107524 153 76 0
0.117243 0.987366 0.064823 153 76 0
0.189449 0.589632 0.120672 153 0 76
-0.248933 -0.704553 0.049652 153 0 76
-0.120541 -0.902531 0.132985 153 0 76
-0.243896 -0.620815 -0.034395 153 0 76
-0.119307 0.584753 -0.181350 153 0 76
0.216153 -0.099453 0.030766 153 0 76
-0.160186 0.743134 0.005261 153 0 76
-0.101359 -0.148682 -0.183178 153 0 76
-0.187235 -0.858458 -0.145234 153 0 76
-0.090921 -0.902531 -0.001304 153 0 76
-0.173890 0.370559 -0.172865 153 0 76
0.051792 0.568584 -0.216686 153 0 76
-0.170478 -0.430744 0.139809 153 0 76
0.043587 0.623889 -0.202266 153 0 76
-0.014782 0.992838 -0.024904 153 76 0
-0.189473 0.166221 -0.152746 153 0 76
0.035731 0.408291 -0.240510 153 0 76
0.195518 0.158107 0.158379 153 0 76
0.189720 0.263662 0.165934 153 0 76
0.188600 -0.846878 -0.160245 153 0 76
0.226025 -0.026769 0.011497 153 0 76
0.235698 -0.599498 0.082651 153 0 76
-0.016269 0.992838 0.006880 153 76 0
0.188315 0.067678 0.150018 153 0 76
-0.156259 -0.706505 -0.196005 153 0 76
0.087862 -0.734642 0.244683 153 0 76
0.039901 -0.769432 0.255536 153 0 76
-0.138576 -0.551233 0.194092 153 0 76
-0.003225 0.137986 -0.244970 153 0 76
-0.123825 -0.192243 0.172641 153 0 76
0.250513 0.260260 0.013408 153 0 76
0.224680 -0.828597 0.119933 153 0 76
0.176949 -0.902531 0.054203 153 0 76
0.091323 -0.541875 0.221372 153 0 76
0.145318 0.651113 -0.139373 153 0 76
-0.053806 0.906910 -0.120700 153 76 0
-0.112645 -0.546471 0.211475 153 0 76
0.206595 0.039163 -0.109127 153 0 76
-0.038254 -0.460504 0.223808 153 0 76
0.087532 -0.585572 -0.224028 153 0 76
0.048514 -0.779096 -0.246141 153 0 76
-0.143440 -0.771211 -0.204956 153 0 76
-0.011356 0.153579 0.251630 153 0 76
0.009270 -0.902531 0.191329 153 0 76
-0.215507 0.430702 -0.111754 153 0 76
0.188289 0.680544 0.044284 153 0 76
-0.217057 -0.690367 -0.128458 153 0 76
0.190230 0.685640 0.012943 153 0 76
0.091165 0.938168 -0.101408 153 76 0
-0.094926 -0.902531 -0.057176 153 0 76
0.051833 -0.902531 -0.045977 153 0 76
-0.151751 -0.676865 0.205664 153 0 76
0.173712 0.597320 -0.130160 153 0 76
0.231407 -0.523658 0.042091 153 0 76
0.110872 0.815504 -0.062423 153 0 76
0.098111 -0.843650 -0.225020 153 0 76
0.037419 0.954884 0.137433 153 76 0
0.005631 -0.551574 -0.234420 153 0 76
-0.216103 -0.027747 0.052271 153 0 76
0.054051 0.259570 -0.238863 153 0 76
-0.057777 -0.561698 -0.228924 153 0 76
0.099496 0.067445 0.219631 153 0 76
0.079278 0.992838 0.091376 153 76 0
0.081167 0.730161 0.152480 153 0 76
-0.092673 0.293403 -0.224632 153 0 76
-0.208260 -0.890691 -0.056100 153 0 76
-0.238906 0.306646 -0.060150 153 0 76
0.014799 0.099445 0.246991 153 0 76
0.014549 -0.412452 0.222171 153 0 76
0.123901 -0.901775 -0.166538 153 0 76
0.213931 0.407466 0.133168 153 0 76
0.228339 -0.508905 -0.040095 153 0 76
0.010395 0.935762 -0.132759 153 76 0
0.111001 0.879598 0.090492 76 0 153
0.250763 -0.647116 -0.036894 153 0 76
0.215829 0.454608 0.124980 153 0 76
-0.011978 -0.376819 0.218851 153 0 76
-0.227932 0.539249 -0.020199 153 0 76
0.116303 0.092846 0.217928 153 0 76
-0.033922 0.128358 0.248659 153 0 76
0.228380 0.112185 0.098404 153 0 76
0.116850 0.178331 -0.216455 153 0 76
-0.082942 0.672292 -0.169732 153 0 76
0.239801 0.463083 -0.051094 153 0 76
-0.008364 0.568056 0.229669 153 0 76
0.170562 0.409861 0.185552 153 0 76
-0.038731 -0.033564 -0.214731 153 0 76
-0.106087 -0.693991 0.234618 153 0 76
-0.233261 -0.687319 -0.092409 153 0 76
0.196915 0.659576 0.039199 153 0 76
-0.100316 0.619898 0.189795 153 0 76
0.085079 0.322464 -0.229615 153 0 76
0.252755 -0.744031 0.055700 153 0 76
0.108910 0.018501 -0.199646 153 0 76
-0.242603 0.408881 -0.026166 153 0 76
-0.090802 -0.613315 -0.226145 153 0 76
0.085172 0.703053 0.164534 153 0 76
-0.091739 0.769395 -0.109039 153 0 76
0.012601 0.663428 -0.192690 153 0 76
-0.193962 -0.564191 0.140971 153 0 76
0.201544 -0.604703 -0.141868 153 0 76
-0.221521 -0.818434 0.119461 153 0 76
0.111437 -0.098000 -0.184263 153 0 76
0.184330 0.693066 -0.025835 153 0 76
0.256586 -0.787758 -0.005689 153 0 76
-0.228484 0.052195 -0.037181 153 0 76
0.182099 0.128203 0.175866 153 0 76
-0.083044 -0.030768 -0.201551 153 0 76
0.153627 0.134904 -0.191817 153 0 76
0.015306 0.512022 0.240338 153 0 76
-0.179323 -0.597878 0.170632 153 0 76
0.049526 0.459498 0.242871 153 0 76
-0.082585 -0.235147 0.195930 153 0 76
-0.145306 -0.505580 -0.172098 153 0 76
0.233081 0.173648 -0.085313 153 0 76
-0.090589 0.252984 -0.225495 153 0 76
-0.128618 0.630114 0.165423 153 0 76
-0.141698 0.646349 -0.140953 153 0 76
0.211604 0.489452 0.124700 153 0 76
0.134191 -0.294152 0.168153 153 0 76
-0.061856 -0.902531 -0.071834 153 0 76
-0.195091 -0.628578 0.157261 153 0 76
0.255030 -0.684376 -0.023620 153 0 76
-0.026812 0.395361 -0.241399 153 0 76
-0.050199 -0.750054 0.254237 153 0 76
-0.140913 0.100186 -0.192388 153 0 76
0.209656 -0.283633 0.040909 153 0 76
0.205986 -0.760497 0.156751 153 0 76
0.245270 -0.840747 0.061601 153 0 76
0.119194 -0.334072 0.181837 153 0 76
0.089006 0.376332 -0.227959 153 0 76
0.183715 0.340150 -0.166030 153 0 76
0.224657 -0.865897 0.082521 153 0 76
0.248903 -0.613265 0.030815 153 0 76
0.158458 0.307343 -0.188110 153 0 76
-0.239840 0.263815 -0.053060 153 0 76
0.236668 0.080756 0.054964 153 0 76
-0.067267 0.976258 0.121131 153 76 0
-0.135651 -0.179129 0.163887 153 0 76
0.216359 0.569676 0.074446 153 0 76
-0.123400 0.157547 -0.211608 153 0 76
-0.123474 -0.351455 0.176271 153 0 76
0.146400 0.668455 -0.127540 153 0 76
-0.183791 0.626571 0.100757 153 0 76
-0.148684 0.671461 -0.116968 153 0 76
0.127009 -0.136241 0.176690 153 0 76
-0.095663 0.874516 -0.092837 76 0 153
0.039965 0.517277 -0.228501 153 0 76
0.138004 0.032497 0.190872 153 0 76
0.227887 -0.842922 0.107751 153 0 76
0.245041 -0.597424 0.039985 153 0 76
0.219323 0.579420 -0.050246 153 0 76
0.231169 0.520036 0.064123 153 0 76
-0.148633 -0.731468 -0.202176 153 0 76
-0.002853 -0.902531 -0.084623 153 0 76
-0.209460 -0.291978 -0.002071 153 0 76
-0.141070 -0.257321 0.158679 153 0 76
-0.024501 -0.392430 -0.210819 153 0 76
-0.117108 0.933574 0.074791 153 76 0
-0.031309 0.455790 -0.237386 153 0 76
-0.247220 -0.669557 -0.043081 153 0 76
0.019843 0.245216 0.251097 153 0 76
0.119510 -0.627281 -0.217912 153 0 76
-0.173073 -0.527265 0.157801 153 0 76
0.140969 0.414888 0.208083 153 0 76
0.074980 0.857362 -0.098225 153 0 76
0.049634 -0.366748 -0.205878 153 0 76
0.019965 -0.412653 -0.213745 153 0 76
0.231721 -0.770460 0.114523 153 0 76
-0.160398 -0.877477 -0.157272 153 0 76
0.047382 0.254993 0.247471 153 0 76
-0.125712 -0.066740 0.181007 153 0 76
0.176441 0.084975 -0.163196 153 0 76
-0.123237 0.193989 0.219462 153 0 76
-0.143086 -0.902531 0.022752 153 0 76
-0.162916 -0.409664 -0.138720 153 0 76
-0.173027 -0.517589 -0.147660 153 0 76
0.028867 -0.266677 -0.204651 153 0 76
-0.191390 -0.128144 -0.086611 153 0 76
0.212348 0.106358 0.130849 153 0 76
0.243143 -0.580313 -0.021601 153 0 76
-0.195534 -0.337119 0.081898 153 0 76
0.192254 0.509613 0.144779 153 0 76
0.205791 0.314525 0.144991 153 0 76
-0.170628 -0.261040 -0.116028 153 0 76
-0.033935 -0.888322 0.220139 153 0 76
0.027083 0.480127 -0.235701 153 0 76
-0.070222 -0.103927 -0.199097 153 0 76
0.247311 0.280206 0.037731 153 0 76
0.182987 0.374314 -0.166979 153 0 76
0.152498 0.757589 0.036895 153 0 76
0.119626 -0.442054 0.192498 153 0 76
-0.203497 -0.074815 0.076165 153 0 76
0.020476 -0.235121 -0.205440 153 0 76
-0.211092 -0.511007 0.090564 153 0 76
-0.018649 0.979497 0.136523 153 76 0
-0.191687 0.618978 -0.080168 153 0 76
0.109425 0.902710 -0.084516 76 0 153
0.045018 0.660906 -0.189356 153 0 76
-0.146237 -0.388242 -0.154454 153 0 76
-0.244935 -0.790626 -0.059110 153 0 76
-0.041573 0.992838 -0.020145 153 76 0
0.212528 -0.362119 0.044700 153 0 76
0.023571 0.505922 -0.232518 153 0 76
-0.075296 0.700003 0.168191 153 0 76
0.036352 -0.836145 -0.242853 153 0 76
0.198887 -0.330747 0.083661 153 0 76
0.037583 -0.729156 -0.249003 153 0 76
0.194604 -0.199380 0.089484 153 0 76
-0.171095 -0.473260 0.147402 153 0 76
0.111303 -0.858536 0.219550 153 0 76
0.245541 0.164751 0.051177 153 0 76
0.068958 0.992838 0.019371 153 76 0
-0.232651 -0.612157 0.084790 153 0 76
0.051956 0.375057 0.246869 153 0 76
0.137935 0.118511 -0.202493 153 0 76
-0.099642 0.287654 0.229476 153 0 76
-0.013074 0.873458 -0.131822 76 0 153
0.213330 -0.892190 -0.049743 153 0 76
0.009647 -0.143576 0.217426 153 0 76
0.021584 0.449537 -0.239794 153 0 76
-0.129801 -0.888366 -0.171017 153 0 76
0.179990 0.693000 -0.048968 153 0 76
-0.235918 0.218717 0.075487 153 0 76
0.117321 0.645142 0.171351 153 0 76
-0.145841 -0.832897 -0.196955 153 0 76
0.252780 -0.776792 0.046901 153 0 76
0.112430 0.110107 0.223105 153 0 76
-0.217874 -0.457270 0.040227 153 0 76
0.203653 0.338159 0.147777 153 0 76
-0.100930 0.680120 -0.156395 153 0 76
0.021196 0.321576 -0.243188 153 0 76
-0.206290 -0.301598 0.035130 153 0 76
-0.135892 0.767952 0.056056 153 0 76
0.215904 -0.358035 -0.009727 153 0 76
0.258880 -0.736336 -0.002088 153 0 76
-0.214731 0.356442 0.126635 153 0 76
-0.011142 -0.232353 0.213863 153 0 76
0.250366 0.151076 0.014528 153 0 76
-0.123347 -0.174235 -0.165914 153 0 76
-0.051825 -0.230377 0.208541 153 0 76
0.077481 0.785953 -0.110977 153 0 76
-0.047164 -0.902531 -0.198653 153 0 76
-0.209968 -0.191288 0.001761 153 0 76
0.170940 0.039191 0.165189 153 0 76
-0.207565 -0.570469 0.125216 153 0 76
0.149780 0.767335 -0.008476 153 0 76
0.247814 0.351615 0.033909 153 0 76
0.254407 -0.721539 -0.036098 153 0 76
-0.102547 -0.182600 -0.180901 153 0 76
0.241596 -0.678199 0.089430 153 0 76
0.038851 0.963030 -0.128732 153 76 0
-0.235031 0.232543 -0.069898 153 0 76
-0.162345 -0.188861 -0.127763 153 0 76
-0.193577 -0.191175 0.081621 153 0 76
0.242357 0.343711 0.070649 153 0 76
0.242738 0.078332 0.005310 153 0 76
0.233848 0.267707 0.091191 153 0 76
-0.194312 0.260769 -0.146439 153 0 76
0.028544 -0.687968 -0.249297 153 0 76
0.131421 -0.594152 0.213331 153 0 76
-0.207270 -0.123979 0.049917 153 0 76
-0.158093 -0.315146 0.142266 153 0 76
0.069801 0.116625 0.242112 153 0 76
-0.218106 0.592690 0.000701 153 0 76
0.073011 0.650925 -0.184179 153 0 76
-0.162214 0.480027 -0.173451 153 0 76
0.228140 -0.531882 -0.060864 153 0 76
-0.028353 -0.238750 -0.203757 153 0 76
0.095212 -0.830512 0.235664 153 0 76
-0.226345 0.538137 0.041777 153 0 76
-0.126923 0.826777 0.007249 76 0 153
-0.078968 0.922019 -0.105922 153 76 0
0.178345 -0.459751 0.141066 153 0 76
0.234578 -0.733693 0.109955 153 0 76
0.013207 -0.057695 -0.215768 153 0 76
0.211555 -0.211438 -0.017245 153 0 76
0.059955 0.619764 0.208396 153 0 76
0.174397 -0.708073 -0.185555 153 0 76
-0.187585 0.126970 0.162937 153 0 76
0.073274 0.959233 0.121840 153 76 0
-0.099817 -0.902531 -0.160873 153 0 76
-0.208698 -0.447432 -0.066458 153 0 76
0.195461 -0.638520 -0.156434 153 0 76
0.112358 0.768958 -0.094091 153 0 76
0.126964 0.492209 -0.202135 153 0 76
-0.204898 0.080396 0.126622 153 0 76
0.188268 -0.698506 0.179924 153 0 76
-0.158940 0.731432 -0.043185 153 0 76
0.167270 0.102536 -0.176133 153 0 76
-0.030421 0.992838 -0.093848 153 76 0
-0.124345 0.737754 -0.100294 153 0 76
-0.038178 0.672812 -0.185261 153 0 76
0.240619 0.142862 0.074844 153 0 76
-0.121232 -0.265443 -0.166346 153 0 76
-0.131324 -0.212453 -0.158722 153 0 76
0.190333 -0.361171 0.108381 153 0 76
0.067941 -0.425401 0.213854 153 0 76
0.180814 0.670879 0.078312 153 0 76
0.132103 0.987438 -0.002016 153 76 0
-0.101695 0.343950 -0.220895 153 0 76
0.058252 -0.812060 0.250230 153 0 76
0.221624 0.076905 0.097082 153 0 76
-0.065628 -0.185037 -0.196148 153 0 76
0.213049 -0.567474 -0.113595 153 0 76
0.015607 0.635525 -0.202279 153 0 76
0.170214 -0.748750 -0.188784 153 0 76
-0.036222 0.098963 0.243494 153 0 76
0.047226 0.339137 -0.239761 153 0 76
0.152905 -0.902531 0.149490 153 0 76
0.237824 0.377305 0.081463 153 0 76
0.140247 -0.099135 -0.162034 153 0 76
-0.198266 0.643834 0.039552 153 0 76
-0.010034 0.659659 -0.193840 153 0 76
-0.139215 -0.730950 0.217140 153 0 76
-0.197099 -0.223246 -0.063960 153 0 76
-0.176147 -0.152011 -0.112380 153 0 76
0.151603 0.264293 0.201100 153 0 76
0.035315 -0.155014 0.213457 153 0 76
0.173414 0.195055 0.184364 153 0 76
0.115476 -0.511525 0.206261 153 0 76
0.119457 0.531002 0.207564 153 0 76
0.212335 0.499780 -0.111168 153 0 76
-0.245611 -0.808590 0.051208 153 0 76
-0.102702 0.942861 0.091394 153 76 0
-0.040627 -0.195200 0.210620 153 0 76
0.213786 -0.133884 0.030230 153 0 76
0.059528 -0.265823 0.207641 153 0 76
0.002488 0.712910 0.181264 153 0 76
-0.215472 -0.889025 0.025316 153 0 76
0.225259 -0.497386 0.057501 153 0 76
0.086636 0.814002 -0.090327 153 0 76
-0.166637 0.497661 0.174906 153 0 76
-0.046472 -0.902531 0.192148 153 0 76
0.208108 -0.487138 -0.091066 153 0 76
-0.137127 -0.048783 -0.166820 153 0 76
-0.183763 0.178227 0.167917 153 0 76
0.162632 0.612277 0.145355 153 0 76
-0.023520 -0.462838 -0.218301 153 0 76
0.246194 0.408121 0.040442 153 0 76
-0.136265 0.751342 -0.071454 153 0 76
0.014206 0.586958 -0.216803 153 0 76
0.221320 0.541089 0.078364 153 0 76
-0.017251 -0.000821 0.229261 153 0 76
0.129440 -0.851074 -0.209208 153 0 76
0.041771 0.302927 -0.240480 153 0 76
-0.026383 -0.826434 0.252417 153 0 76
0.139309 0.928925 -0.012269 153 76 0
0.245954 0.298740 0.048042 153 0 76
-0.075745 0.007341 -0.209668 153 0 76
-0.162670 0.189996 -0.181475 153 0 76
-0.239271 -0.642636 -0.069806 153 0 76
-0.050468 -0.309380 0.209892 153 0 76
0.217617 -0.390830 0.024105 153 0 76
-0.163792 0.173195 0.188344 153 0 76
-0.090724 0.378969 0.233075 153 0 76
0.229417 0.030151 -0.037537 153 0 76
0.025354 -0.902531 0.131501 153 0 76
-0.203676 -0.622918 -0.137255 153 0 76
0.255858 -0.703684 -0.022793 153 0 76
-0.124682 0.695327 -0.130019 153 0 76
-0.239932 0.233833 -0.052362 153 0 76
0.113173 0.835169 -0.062840 153 0 76
-0.207117 0.108885 0.132680 153 0 76
0.014634 0.285459 0.251782 153 0 76
0.056175 -0.879858 0.224064 153 0 76
0.231480 -0.538503 0.059205 153 0 76
0.174191 -0.302485 -0.118325 153 0 76
-0.146951 0.252688 -0.193536 153 0 76
0.163010 -0.775914 0.200750 153 0 76
0.098754 0.136270 0.231681 153 0 76
0.091985 -0.358545 0.197944 153 0 76
-0.077590 -0.505183 0.219050 153 0 76
-0.061565 0.175610 -0.237290 153 0 76
-0.206440 -0.250377 0.027310 153 0 76
-0.075135 0.634377 -0.187594 153 0 76
0.192116 0.650680 0.070417 153 0 76
0.106810 -0.084615 0.195297 153 0 76
0.107460 -0.270065 0.187865 153 0 76
-0.078664 0.959745 0.113885 153 76 0
0.119795 0.243065 -0.215235 153 0 76
-0.224233 0.564414 0.015411 153 0 76
0.188870 -0.413003 0.118876 153 0 76
-0.180803 0.651711 -0.078302 153 0 76
-0.202716 -0.532828 0.119649 153 0 76
-0.222483 0.412744 0.105676 153 0 76
0.240613 0.492323 0.026841 153 0 76
0.140431 -0.351000 -0.158903 153 0 76
-0.186695 -0.198660 0.097903 153 0 76
0.034542 0.105404 -0.237811 153 0 76
-0.101335 -0.033612 0.201334 153 0 76
-0.189182 -0.770443 0.172294 153 0 76
0.183367 -0.444470 -0.123772 153 0 76
0.003513 0.383554 -0.245322 153 0 76
-0.207772 0.524112 -0.101158 153 0 76
0.102438 0.235303 -0.222425 153 0 76
0.212494 -0.674633 -0.138857 153 0 76
-0.076301 0.598286 -0.198916 153 0 76
-0.230985 -0.591528 0.079336 153 0 76
0.209233 -0.623660 0.143671 153 0 76
-0.227875 0.064198 0.063831 153 0 76
0.227439 -0.488960 0.030909 153 0 76
-0.022982 0.076382 -0.233151 153 0 76
0.201379 0.210277 -0.143010 153 0 76
0.249646 -0.834170 0.034430 153 0 76
0.239777 -0.838817 -0.072608 153 0 76
-0.100847 0.908642 0.093812 153 76 0
0.207663 -0.293224 0.057299 153 0 76
0.120315 -0.724655 -0.223532 153 0 76
0.225857 -0.457854 -0.006095 153 0 76
-0.049027 0.778121 -0.128427 153 0 76
-0.220523 -0.503368 -0.056964 153 0 76
-0.111377 -0.300389 -0.174659 153 0 76
0.037678 0.121482 0.248230 153 0 76
-0.183318 -0.698282 -0.172851 153 0 76
-0.211928 -0.126800 0.013437 153 0 76
0.108185 0.435870 0.225204 153 0 76
-0.069311 0.992838 -0.024681 153 76 0
-0.030536 0.819212 -0.120345 153 0 76
-0.057049 -0.163970 0.208415 153 0 76
0.168087 0.646415 -0.112578 153 0 76
-0.051854 -0.716929 0.254146 153 0 76
0.029560 0.174183 -0.242087 153 0 76
-0.101328 -0.656751 0.234267 153 0 76
0.013200 0.114190 -0.242316 153 0 76
0.221232 -0.417926 -0.006671 153 0 76
-0.208244 -0.199632 0.017977 153 0 76
-0.168991 0.410766 -0.175598 153 0 76
-0.014736 -0.902531 -0.182821 153 0 76
-0.241876 0.443361 -0.015451 153 0 76
0.211665 0.043719 0.106468 153 0 76
-0.055558 -0.902531 0.068786 153 0 76
-0.101213 -0.269078 0.188597 153 0 76
0.089787 -0.699416 0.243398 153 0 76
-0.242934 0.409335 0.031299 153 0 76
0.043978 -0.902531 0.063855 153 0 76
0.128966 0.334052 0.218470 153 0 76
0.161708 0.288868 0.193346 153 0 76
0.185561 -0.621823 0.174157 153 0 76
0.055217 -0.211286 0.209007 153 0 76
0.213093 -0.809390 0.142719 153 0 76
-0.188013 -0.414210 -0.106651 153 0 76
0.235823 0.265738 -0.078694 153 0 76
0.197095 0.296238 0.156323 153 0 76
-0.222679 -0.795336 0.121775 153 0 76
0.036900 0.905813 -0.131686 153 76 0
0.055809 0.286818 0.246362 153 0 76
-0.209202 -0.332894 -0.017075 153 0 76
0.092115 -0.138330 0.197148 153 0 76
-0.133940 -0.297576 -0.157285 153 0 76
0.165976 0.064878 0.175779 153 0 76
0.156086 0.736011 -0.054956 153 0 76
0.125618 0.860670 -0.034548 76 0 153
-0.254544 -0.725200 -0.001666 153 0 76
-0.200992 -0.872547 -0.108456 153 0 76
-0.182292 -0.684608 0.181059 153 0 76
0.185698 -0.730212 -0.176411 153 0 76
0.042859 0.449366 -0.237005 153 0 76
-0.068659 0.264028 0.242309 153 0 76
0.157468 -0.318754 -0.141434 153 0 76
0.168850 0.246936 0.187866 153 0 76
-0.090842 0.107170 0.229601 153 0 76
0.094191 -0.902531 0.001643 153 0 76
0.243336 0.180487 0.067929 153 0 76
0.075975 -0.640267 0.245066 153 0 76
0.112442 -0.673731 0.232766 153 0 76
-0.234682 -0.663555 0.093079 153 0 76
0.144129 0.321513 0.206835 153 0 76
0.189230 0.453953 -0.152859 153 0 76
-0.206875 -0.107083 0.060799 153 0 76
0.200576 -0.518534 0.125511 153 0 76
0.024429 -0.074279 -0.212860 153 0 76
0.208560 -0.224845 0.045973 153 0 76
-0.243489 0.276661 0.033074 153 0 76
0.242377 0.187906 -0.062872 153 0 76
-0.050929 0.537067 0.230650 153 0 76
-0.048023 -0.220847 -0.201475 153 0 76
0.218887 -0.389615 -0.005928 153 0 76
0.056766 0.705549 -0.167421 153 0 76
0.165814 -0.571257 -0.173692 153 0 76
-0.224512 -0.554744 0.076582 153 0 76
-0.206640 -0.163482 -0.031484 153 0 76
-0.075465 0.483687 0.231844 153 0 76
0.255124 -0.816811 0.001093 153 0 76
0.023911 0.886090 0.138710 76 0 153
0.045837 -0.233609 -0.202127 153 0 76
-0.192743 -0.653886 -0.156456 153 0 76
0.074596 -0.902531 0.107011 153 0 76
-0.252179 -0.800157 0.006247 153 0 76
0.004920 -0.902531 0.101530 153 0 76
0.017743 0.599905 0.220664 153 0 76
-0.100316 0.736135 -0.124939 153 0 76
0.007885 0.366036 0.252671 153 0 76
0.171478 0.046119 -0.158527 153 0 76
-0.173983 0.329185 -0.172793 153 0 76
0.200138 0.023883 -0.115499 153 0 76
-0.089430 0.052780 -0.211644 153 0 76
0.222903 0.508136 0.089843 153 0 76
-0.115360 0.915893 0.074898 153 76 0
-0.062794 0.220087 -0.237009 153 0 76
0.059696 -0.902509 0.031032 153 0 76
-0.132568 0.941585 0.033761 153 76 0
-0.076016 -0.111803 0.203698 153 0 76
0.243886 0.100031 -0.020651 153 0 76
-0.168400 0.722603 0.019471 153 0 76
-0.026309 0.917044 0.139788 153 76 0
-0.211155 -0.060859 -0.052606 153 0 76
0.207894 -0.258208 0.050977 153 0 76
0.125294 0.840557 0.041710 153 0 76
0.078255 -0.318986 0.201439 153 0 76
0.074151 -0.031147 -0.207022 153 0 76
-0.125907 0.781932 -0.051204 153 0 76
-0.136027 0.159658 0.209648 153 0 76
-0.227402 -0.610524 -0.089219 153 0 76
-0.007707 0.045137 0.237557 153 0 76
0.226606 -0.751357 0.128568 153 0 76
-0.239291 0.118410 0.056516 153 0 76
0.104145 -0.440950 0.200847 153 0 76
-0.047987 0.823257 0.121729 76 0 153
0.128926 -0.902531 0.061180 153 0 76
-0.090827 -0.011839 0.208521 153 0 76
-0.206130 0.423649 0.136246 153 0 76
-0.237478 -0.767316 -0.082521 153 0 76
0.001837 -0.708588 -0.253393 153 0 76
0.094268 -0.450399 -0.198437 153 0 76
-0.189334 -0.872519 0.133271 153 0 76
0.231553 0.551875 0.013741 153 0 76
-0.046939 0.303997 -0.239215 153 0 76
-0.071541 0.436965 0.238463 153 0 76
-0.131205 0.944429 -0.033130 153 76 0
-0.223426 -0.816964 -0.107509 153 0 76
-0.034423 0.363591 -0.240863 153 0 76
-0.129736 0.857362 0.001150 76 0 153
-0.001047 0.992838 0.119754 153 76 0
0.036420 0.992838 0.108904 153 76 0
-0.030974 -0.066196 -0.212112 153 0 76
0.063620 0.350614 -0.237603 153 0 76
-0.133886 -0.902531 -0.113317 153 0 76
-0.042729 -0.091748 -0.208359 153 0 76
-0.222269 0.003512 0.034229 153 0 76
0.210722 -0.346394 0.052249 153 0 76
-0.084377 -0.902531 -0.038923 153 0 76
-0.186982 -0.819634 -0.161592 153 0 76
-0.042710 0.876798 -0.128019 76 0 153
0.137073 0.286697 -0.204519 153 0 76
-0.239865 0.196274 -0.052865 153 0 76
-0.157397 0.611999 0.146539 153 0 76
0.073802 0.757082 -0.132725 153 0 76
0.069456 -0.742348 -0.244486 153 0 76
0.244890 0.345510 -0.048390 153 0 76
0.221367 0.356759 0.121324 153 0 76
-0.083649 0.201807 0.236100 153 0 76
0.206673 -0.856177 0.136165 153 0 76
0.232058 0.057760 0.058078 153 0 76
0.117761 -0.017420 0.197568 153 0 76
-0.188032 -0.262034 0.093661 153 0 76
0.016445 -0.142400 -0.208862 153 0 76
-0.020299 0.841462 0.130062 76 0 153
0.126095 0.101328 -0.207436 153 0 76
-0.208952 -0.221425 0.009748 153 0 76
0.249136 0.129003 -0.016141 153 0 76
-0.216067 0.111590 -0.109394 153 0 76
-0.204694 -0.056436 0.077451 153 0 76
-0.225054 -0.673567 0.118001 153 0 76
0.238445 -0.634274 0.088091 153 0 76
0.000787 0.259486 -0.245498 153 0 76
0.012477 -0.563408 0.243532 153 0 76
0.108604 0.145083 -0.219870 153 0 76
0.197430 -0.454104 0.114197 153 0 76
0.204516 -0.260409 -0.056769 153 0 76
0.061350 0.222067 -0.237902 153 0 76
-0.111468 0.858183 -0.092072 76 0 153
0.095453 -0.515171 -0.207438 153 0 76
-0.016259 -0.036459 -0.217339 153 0 76
-0.193528 0.523818 -0.125821 153 0 76
0.132572 0.033454 -0.187498 153 0 76
0.011637 0.027426 -0.227117 153 0 76
0.181367 0.226365 -0.169089 153 0 76
0.049580 -0.405310 -0.209212 153 0 76
-0.115761 -0.458740 -0.186859 153 0 76
-0.182125 0.616358 -0.104343 153 0 76
0.037889 -0.019399 -0.217144 153 0 76
0.024914 -0.891552 0.219519 153 0 76
0.076626 -0.902531 0.173971 153 0 76
0.208815 -0.261278 -0.036648 153 0 76
-0.113874 -0.902531 0.063858 153 0 76
0.006054 0.612318 -0.210857 153 0 76
-0.120625 -0.343020 -0.170183 153 0 76
0.087212 0.266861 -0.228732 153 0 76
0.231880 -0.623616 -0.093237 153 0 76
-0.179660 0.159522 -0.165534 153 0 76
0.187060 0.073257 -0.145676 153 0 76
0.142543 0.118895 0.206780 153 0 76
-0.216362 -0.530934 0.085936 153 0 76
0.109731 0.726806 0.134575 153 0 76
-0.165467 0.727739 -0.014861 153 0 76
0.121545 -0.049583 0.189789 153 0 76
0.241486 0.269809 0.072752 153 0 76
0.127709 0.557970 -0.186445 153 0 76
-0.172296 -0.056243 -0.129017 153 0 76
0.164760 -0.454612 0.157756 153 0 76
0.007721 -0.783019 -0.251297 153 0 76
0.224554 0.490099 -0.085512 153 0 76
0.002013 0.547782 0.235343 153 0 76
-0.221857 -0.025652 -0.002763 153 0 76
0.115824 0.987888 -0.059458 153 76 0
-0.043242 0.332248 -0.239702 153 0 76
-0.091854 0.647751 0.183529 153 0 76
0.129989 -0.902531 -0.047182 153 0 76
0.212039 0.184624 0.136848 153 0 76
0.116292 -0.367383 -0.178586 153 0 76
0.102774 -0.604157 0.229292 153 0 76
-0.009806 -0.403217 0.221415 153 0 76
0.130729 0.551117 0.193678 153 0 76
0.038016 0.652820 0.201004 153 0 76
0.033695 -0.860054 -0.233958 153 0 76
-0.084416 0.532389 -0.212195 153 0 76
0.131180 0.684889 -0.134031 153 0 76
-0.225648 0.288282 0.100280 153 0 76
0.109564 -0.195031 0.186927 153 0 76
0.144286 -0.222542 -0.151963 153 0 76
0.135383 -0.757331 0.222895 153 0 76
0.167121 0.459394 0.183813 153 0 76
0.136089 0.940531 0.040174 153 76 0
-0.212056 -0.094661 0.031334 153 0 76
0.195053 0.233157 0.158984 153 0 76
-0.088140 0.787031 0.106273 153 0 76
-0.170232 0.632699 0.119179 153 0 76
0.183767 -0.508037 -0.137005 153 0 76
0.241994 -0.642750 -0.073969 153 0 76
-0.170413 -0.239166 0.123570 153 0 76
0.213796 0.069385 -0.104493 153 0 76
-0.224668 -0.714179 -0.115169 153 0 76
0.153911 -0.826300 -0.195071 153 0 76
-0.148472 -0.510370 0.178337 153 0 76
-0.159194 -0.021355 -0.152983 153 0 76
0.217620 0.232312 0.129574 153 0 76
-0.115502 0.832625 0.056019 76 0 153
-0.024663 0.721060 -0.166027 153 0 76
0.110495 -0.902531 0.107384 153 0 76
0.183577 -0.813933 -0.172732 153 0 76
0.133591 -0.875470 0.191176 153 0 76
0.191715 -0.779797 -0.166208 153 0 76
0.059579 -0.842095 0.246803 153 0 76
-0.145504 0.569008 -0.166421 153 0 76
-0.204531 -0.901221 0.039821 153 0 76
0.081442 0.784021 0.117193 153 0 76
0.029656 0.992838 -0.035602 153 76 0
0.144441 -0.003889 0.179146 153 0 76
-0.035644 -0.756776 -0.248202 153 0 76
0.238536 -0.814213 0.090177 153 0 76
-0.173437 -0.508094 0.152432 153 0 76
-0.047401 -0.426553 0.218487 153 0 76
-0.073457 -0.555034 0.229429 153 0 76
-0.132902 0.973516 -0.011535 153 76 0
0.203314 -0.419013 -0.081898 153 0 76
0.066073 -0.750017 0.252732 153 0 76
0.003477 0.652585 0.205639 153 0 76
0.170039 -0.387900 -0.132158 153 0 76
-0.123006 0.204895 -0.211909 153 0 76
0.006721 -0.054649 0.224703 153 0 76
0.140674 -0.201114 0.162925 153 0 76
-0.105682 -0.284526 -0.178688 153 0 76
-0.231427 0.057424 0.028782 153 0 76
-0.123475 -0.630996 0.222567 153 0 76
0.213482 -0.294678 0.013292 153 0 76
0.205946 0.095997 -0.128207 153 0 76
-0.060219 -0.445267 0.217766 153 0 76
0.009120 -0.328508 -0.209177 153 0 76
0.180429 0.316908 0.178042 153 0 76
-0.244155 0.165946 0.028010 153 0 76
-0.248750 -0.758061 0.049753 153 0 76
0.030027 0.857939 -0.142165 76 0 153
-0.191818 -0.496824 0.125600 153 0 76
0.146932 -0.024859 0.174056 153 0 76
0.064968 0.557886 0.224004 153 0 76
-0.232064 0.451577 -0.068032 153 0 76
0.076125 0.676562 0.180425 153 0 76
-0.078266 0.673369 0.178970 153 0 76
0.002730 0.744812 -0.157831 153 0 76
0.112977 -0.395066 -0.184115 153 0 76
0.043703 0.883085 -0.129445 76 0 153
0.142545 -0.418568 0.171691 153 0 76
-0.009224 -0.066538 -0.214946 153 0 76
0.243970 0.435951 -0.037139 153 0 76
0.142891 -0.764771 -0.209098 153 0 76
-0.027992 0.521430 -0.228813 153 0 76
-0.130241 0.562012 0.187756 153 0 76
-0.193306 0.651684 0.055132 153 0 76
-0.209119 -0.394705 0.057503 153 0 76
-0.047104 0.992838 0.056116 153 76 0
-0.190494 -0.048874 -0.106378 153 0 76
0.142727 -0.375771 0.166937 153 0 76
-0.027089 -0.336943 -0.206663 153 0 76
-0.191052 0.585059 -0.106625 153 0 76
0.163144 -0.257671 0.139198 153 0 76
-0.125414 -0.010136 0.189395 153 0 76
-0.235259 0.506632 -0.008292 153 0 76
0.112928 0.265722 -0.218080 153 0 76
0.146883 0.381471 -0.196809 153 0 76
-0.014608 0.196894 -0.243472 153 0 76
-0.046093 -0.689517 0.254189 153 0 76
-0.226786 0.008772 0.001627 153 0 76
0.230112 -0.496410 -0.011747 153 0 76
0.001348 -0.320928 0.217310 153 0 76
0.196887 -0.832618 0.159995 153 0 76
-0.044631 -0.527540 -0.224797 153 0 76
-0.025148 0.992838 -0.076009 153 76 0
0.124467 0.971225 -0.057200 153 76 0
0.029389 -0.121508 0.215967 153 0 76
0.136553 -0.325389 -0.160226 153 0 76
-0.067351 0.934289 0.124198 153 76 0
-0.168018 0.510667 -0.162572 153 0 76
0.193239 0.395926 0.160567 153 0 76
-0.147135 0.138994 0.201125 153 0 76
0.086675 -0.871310 -0.211870 153 0 76
-0.122461 -0.631060 -0.215264 153 0 76
-0.160102 -0.088889 -0.140269 153 0 76
-0.126515 0.987667 0.017133 153 76 0
0.242100 0.389830 0.070393 153 0 76
0.117268 0.385725 0.223750 153 0 76
0.180264 -0.832190 -0.174014 153 0 76
-0.091231 -0.358213 0.196400 153 0 76
-0.089186 0.804754 -0.082603 153 0 76
-0.181180 -0.650366 0.178814 153 0 76
0.216984 0.019047 0.083606 153 0 76
-0.137380 0.493529 -0.190471 153 0 76
-0.233345 0.090010 -0.052339 153 0 76
0.236177 -0.695445 -0.096822 153 0 76
0.057027 0.767137 -0.133648 153 0 76
-0.021269 0.677008 -0.185932 153 0 76
0.139427 -0.835740 0.212579 153 0 76
0.243609 0.443543 0.043616 153 0 76
0.259043 -0.712832 -0.000154 153 0 76
-0.031053 -0.354174 -0.207031 153 0 76
0.008055 -0.813891 -0.248927 153 0 76
-0.018106 0.061051 0.238683 153 0 76
0.174923 -0.020110 0.146241 153 0 76
0.077627 -0.483517 -0.209640 153 0 76
0.227488 -0.872063 -0.055417 153 0 76
0.170180 0.099072 0.180795 153 0 76
-0.056690 0.992838 0.011086 153 76 0
0.065543 0.284903 -0.237350 153 0 76
0.054504 0.870100 0.129978 76 0 153
-0.076007 0.766790 0.130659 153 0 76
0.022002 -0.514607 0.234063 153 0 76
0.136672 -0.025220 -0.174144 153 0 76
-0.211060 -0.768199 -0.136215 153 0 76
0.050753 0.052382 0.233610 153 0 76
-0.019952 0.279855 0.250498 153 0 76
-0.199631 -0.883709 0.098057 153 0 76
-0.194120 0.381713 -0.146442 153 0 76
0.244677 0.291550 -0.050012 153 0 76
-0.194957 0.324901 -0.145599 153 0 76
-0.004088 0.992838 0.051107 153 76 0
-0.080172 -0.187900 0.197801 153 0 76
-0.052707 -0.838184 -0.239868 153 0 76
-0.018210 0.939431 0.139981 153 76 0
-0.117000 0.834271 -0.044531 76 0 153
-0.221529 0.519925 -0.069722 153 0 76
-0.183342 0.264134 0.168466 153 0 76
-0.020179 -0.141883 -0.207813 153 0 76
-0.004352 0.261447 0.252552 153 0 76
0.231281 0.535381 0.042420 153 0 76
-0.069368 0.357590 -0.234285 153 0 76
-0.202435 -0.257725 -0.050957 153 0 76
0.023277 0.649698 -0.196371 153 0 76
0.220516 -0.084270 0.007581 153 0 76
0.168784 -0.084425 0.143093 153 0 76
-0.045035 0.685314 0.186991 153 0 76
-0.214452 0.083081 -0.099044 153 0 76
0.193519 0.517136 -0.133395 153 0 76
0.107579 0.708203 -0.139645 153 0 76
0.127119 0.146461 -0.212157 153 0 76
0.212661 -0.283344 -0.010318 153 0 76
-0.059074 0.760942 0.142405 153 0 76
0.047368 -0.902531 -0.145093 153 0 76
0.116346 -0.902531 0.125773 153 0 76
0.007856 -0.106665 0.219977 153 0 76
-0.055168 0.516184 0.233825 153 0 76
0.000799 0.860670 -0.127464 76 0 153
-0.239598 -0.600742 0.052500 153 0 76
-0.124876 0.802572 0.007804 153 0 76
-0.156887 -0.127069 -0.139577 153 0 76
-0.040223 0.485118 -0.232808 153 0 76
0.198078 -0.856264 -0.139530 153 0 76
-0.203583 -0.422441 0.079037 153 0 76
0.206890 -0.452656 -0.083173 153 0 76
-0.091718 -0.887815 0.202558 153 0 76
0.133552 0.789351 0.039023 153 0 76
-0.003364 0.860670 0.134597 76 0 153
0.054182 -0.729967 0.254539 153 0 76
0.201249 -0.148867 -0.070744 153 0 76
-0.117360 -0.133521 0.180866 153 0 76
0.112266 0.973176 0.083918 153 76 0
0.031407 -0.902531 0.160266 153 0 76
-0.233134 0.388386 -0.073686 153 0 76
-0.055879 -0.088484 0.214198 153 0 76
0.106821 -0.756178 -0.228678 153 0 76
-0.138717 -0.031015 -0.168293 153 0 76
0.130905 0.841326 0.000090 153 0 76
-0.193247 -0.589702 0.149918 153 0 76
0.037337 0.031945 -0.224442 153 0 76
0.117154 0.437958 -0.213603 153 0 76
0.040210 0.067096 -0.229676 153 0 76
0.075385 0.025857 0.222500 153 0 76
0.125073 -0.145659 -0.169837 153 0 76
0.113679 -0.745978 0.233856 153 0 76
-0.067299 -0.069209 -0.203522 153 0 76
0.154510 0.028553 0.177434 153 0 76
-0.247327 0.178677 0.003920 153 0 76
-0.165687 0.301970 -0.179160 153 0 76
0.227875 0.024906 0.050737 153 0 76
-0.039846 -0.426110 -0.211705 153 0 76
0.003764 -0.902531 0.125133 153 0 76
-0.127278 0.795257 -0.016926 153 0 76
0.196710 -0.680046 0.167640 153 0 76
0.228165 -0.843657 -0.099119 153 0 76
-0.035162 -0.201405 -0.203502 153 0 76
-0.217411 0.231352 -0.112435 153 0 76
0.248693 0.271851 -0.019504 153 0 76
0.113432 0.720420 -0.127925 153 0 76
0.229338 -0.480128 0.007900 153 0 76
-0.073812 -0.291329 0.200357 153 0 76
-0.000146 0.575661 -0.221041 153 0 76
0.247099 0.180740 0.039341 153 0 76
-0.082219 0.396625 -0.228431 153 0 76
-0.058302 0.373691 0.245449 153 0 76
-0.036844 -0.284650 0.211055 153 0 76
0.212400 -0.902531 0.002939 153 0 76
-0.147927 0.670103 0.126504 153 0 76
-0.202909 0.638059 0.018909 153 0 76
-0.024574 -0.078065 0.219660 153 0 76
-0.244266 0.429074 -0.004818 153 0 76
-0.193654 0.562696 0.120473 153 0 76
0.058113 0.831185 0.120013 76 0 153
-0.125171 0.967932 0.053053 153 76 0
0.193533 -0.898935 -0.086547 153 0 76
-0.199359 -0.112803 0.077664 153 0 76
-0.032089 0.858357 -0.141571 76 0 153
-0.199969 -0.669729 -0.148961 153 0 76
-0.034386 0.253981 -0.240868 153 0 76
-0.246918 -0.751844 -0.057491 153 0 76
-0.173043 -0.090837 0.130860 153 0 76
-0.010155 -0.781303 -0.250486 153 0 76
0.186235 0.438195 -0.158581 153 0 76
-0.232184 0.477459 0.067913 153 0 76
0.248517 0.315326 -0.020839 153 0 76
-0.127378 0.784404 0.051337 153 0 76
-0.024067 0.836306 -0.122381 153 0 76
0.161188 -0.184894 0.142892 153 0 76
-0.100165 0.353428 0.229259 153 0 76
0.124279 -0.902531 -0.102801 153 0 76
0.082723 -0.114716 -0.194757 153 0 76
-0.109980 0.087379 -0.209847 153 0 76
0.083429 -0.014629 -0.205329 153 0 76
-0.033287 -0.895894 -0.206887 153 0 76
-0.201607 0.627072 -0.047397 153 0 76
0.248014 0.188243 -0.024660 153 0 76
0.074601 -0.177898 -0.194480 153 0 76
0.234684 -0.517007 -0.001544 153 0 76
-0.233386 0.338182 -0.073869 153 0 76
-0.061750 0.072137 -0.226670 153 0 76
-0.114716 -0.369706 0.184372 153 0 76
-0.222604 0.433396 0.101866 153 0 76
0.085511 -0.367313 -0.193467 153 0 76
0.142302 0.871928 0.002697 76 0 153
0.191827 -0.115437 -0.098237 153 0 76
0.165954 -0.569523 0.180896 153 0 76
-0.059270 -0.814275 -0.241562 153 0 76
-0.206296 -0.559230 -0.115071 153 0 76
-0.106247 -0.902531 0.097050 153 0 76
0.153724 -0.560415 -0.180355 153 0 76
-0.169505 -0.902531 0.050421 153 0 76
-0.210438 -0.349883 -0.014353 153 0 76
0.101314 -0.269447 -0.182669 153 0 76
0.112565 -0.229364 -0.176157 153 0 76
-0.085526 0.512811 0.222997 153 0 76
-0.060116 0.791232 0.122677 153 0 76
-0.188935 0.130952 -0.153446 153 0 76
-0.073161 -0.509008 -0.213797 153 0 76
0.060272 0.979840 -0.117237 153 76 0
-0.231836 -0.780845 -0.094331 153 0 76
0.154913 0.732472 0.070023 153 0 76
-0.102848 -0.860832 -0.211660 153 0 76
0.057504 -0.584220 0.241618 153 0 76
0.051794 -0.449998 0.221336 153 0 76
-0.077124 -0.902531 0.175552 153 0 76
0.054925 -0.062708 -0.209843 153 0 76
0.138402 0.967909 -0.007604 153 76 0
0.179732 0.151096 0.178951 153 0 76
0.006475 0.076637 0.243688 153 0 76
0.242068 0.113182 -0.053725 153 0 76
0.157009 -0.304681 0.148579 153 0 76
0.205612 -0.871288 -0.110427 153 0 76
0.040332 -0.841996 0.249349 153 0 76
-0.218705 0.552149 0.067881 153 0 76
-0.032081 0.547125 0.230994 153 0 76
-0.240399 0.158706 0.056546 153 0 76
-0.230407 -0.839909 0.091907 153 0 76
0.071503 -0.298375 -0.195551 153 0 76
0.234894 0.167118 0.088667 153 0 76
0.075310 0.103492 -0.229381 153 0 76
-0.056997 0.868945 -0.122101 76 0 153
0.211892 -0.252089 0.019808 153 0 76
-0.188814 0.024586 -0.124656 153 0 76
-0.118823 0.860670 0.036413 76 0 153
-0.000033 0.905607 0.141269 153 76 0
0.204801 0.374770 -0.138550 153 0 76
0.095865 0.112084 0.230375 153 0 76
0.161141 -0.866080 0.178727 153 0 76
-0.191556 -0.394104 -0.094009 153 0 76
-0.158833 0.236148 0.192149 153 0 76
0.234443 -0.601212 -0.078806 153 0 76
-0.078215 -0.262495 -0.190271 153 0 76
0.180671 0.610379 0.122820 153 0 76
0.187717 -0.587698 0.162276 153 0 76
-0.166815 -0.368420 0.135573 153 0 76
-0.045057 0.189132 -0.239463 153 0 76
0.137860 -0.902531 0.097061 153 0 76
-0.001347 -0.902531 -0.061935 153 0 76
0.213912 0.605710 -0.038803 153 0 76
-0.067428 0.737495 0.152468 153 0 76
0.193384 0.161974 -0.153429 153 0 76
-0.191433 -0.756546 -0.162417 153 0 76
-0.138045 -0.132394 -0.157336 153 0 76
0.097567 0.549190 0.212484 153 0 76
-0.110085 -0.824905 0.228280 153 0 76
-0.058536 0.848988 0.115664 76 0 153
0.123999 -0.784548 0.227932 153 0 76
0.119789 -0.902531 -0.122859 153 0 76
-0.203668 -0.486473 0.098598 153 0 76
0.133544 -0.794902 -0.214179 153 0 76
-0.206027 0.023498 -0.093428 153 0 76
0.213347 -0.780022 -0.137997 153 0 76
-0.107629 -0.167157 0.186163 153 0 76
0.243445 0.489747 0.007638 153 0 76
0.243435 0.326954 0.067174 153 0 76
-0.221261 -0.482068 -0.029614 153 0 76
0.016712 -0.022658 -0.219537 153 0 76
-0.120721 0.776329 -0.070708 153 0 76
0.176003 -0.412146 -0.127793 153 0 76
0.107026 -0.189796 -0.180750 153 0 76
-0.221597 0.126297 0.110061 153 0 76
0.216894 0.095758 0.117925 153 0 76
-0.014450 0.523498 0.237988 153 0 76
-0.197578 -0.163769 -0.066906 153 0 76
-0.216325 -0.037156 -0.034187 153 0 76
0.216207 -0.084920 0.039881 153 0 76
-0.115510 -0.684108 -0.222539 153 0 76
0.207013 -0.738709 -0.148482 153 0 76
-0.140974 -0.902531 -0.079663 153 0 76
0.029969 -0.821688 0.252999 153 0 76
0.149553 -0.255909 -0.147813 153 0 76
0.192718 -0.075788 0.112680 153 0 76
0.160714 0.699964 -0.087721 153 0 76
0.237067 0.527528 -0.002273 153 0 76
0.095443 0.525761 -0.210722 153 0 76
-0.107465 -0.789366 0.232659 153 0 76
0.204614 0.278982 0.146524 153 0 76
0.037813 -0.902531 -0.105879 153 0 76
0.221214 0.221015 -0.113964 153 0 76
-0.210293 -0.024092 0.074094 153 0 76
0.022566 -0.495806 -0.223311 153 0 76
0.209073 0.515402 0.120149 153 0 76
0.185477 -0.170882 0.112145 153 0 76
0.231829 0.438254 0.089432 153 0 76
-0.191773 0.400768 0.156515 153 0 76
-0.081724 -0.662143 -0.235102 153 0 76
-0.180027 -0.232793 -0.103490 153 0 76
-0.008768 -0.470417 -0.221162 153 0 76
0.086092 0.857403 0.125409 76 0 153
0.204826 0.621081 -0.057438 153 0 76
-0.197032 -0.901709 -0.062068 153 0 76
0.045477 -0.088293 -0.208880 153 0 76
-0.113771 -0.902531 -0.124396 153 0 76
-0.034831 -0.271287 -0.203361 153 0 76
-0.105172 -0.303296 0.187213 153 0 76
0.097358 0.187492 0.232259 153 0 76
0.031767 0.611285 0.215528 153 0 76
0.176828 -0.605641 0.181259 153 0 76
0.162678 -0.838893 -0.186529 153 0 76
0.017973 -0.289666 -0.206480 153 0 76
-0.080789 -0.855899 -0.224718 153 0 76
0.087132 0.735941 -0.138578 153 0 76
-0.241071 -0.852558 -0.028264 153 0 76
0.149537 0.858271 0.023603 76 0 153
-0.073427 0.789733 -0.107701 153 0 76
0.129838 0.860670 -0.058854 76 0 153
-0.112095 -0.109034 -0.179165 153 0 76
-0.125278 -0.567959 -0.200597 153 0 76
-0.071703 -0.413432 0.209350 153 0 76
-0.092002 0.216443 0.232640 153 0 76
0.212734 0.112355 -0.124500 153 0 76
-0.160850 -0.526889 0.172075 153 0 76
-0.130491 -0.081517 -0.168016 153 0 76
-0.039497 -0.893484 0.012873 153 0 76
0.138227 0.857362 -0.008669 76 0 153
-0.042782 -0.137268 0.212806 153 0 76
0.040533 -0.310793 -0.204126 153 0 76
0.191916 0.105159 -0.149370 153 0 76
-0.185639 -0.776697 -0.168622 153 0 76
0.064928 -0.902531 -0.016283 153 0 76
-0.116506 0.797470 0.056203 153 0 76
-0.100110 -0.769383 0.236882 153 0 76
-0.061670 -0.615783 0.245994 153 0 76
0.139767 0.171758 0.210182 153 0 76
-0.009375 -0.902531 -0.134762 153 0 76
0.127027 0.979462 0.053384 153 76 0
0.159745 -0.407337 0.156036 153 0 76
0.142472 0.055811 0.192011 153 0 76
-0.211724 0.061484 -0.095101 153 0 76
-0.150801 -0.057195 -0.155054 153 0 76
-0.108278 0.883031 -0.080530 76 0 153
-0.161951 -0.578800 0.182801 153 0 76
0.076512 -0.517933 -0.215748 153 0 76
0.028537 -0.342720 -0.207354 153 0 76
-0.220548 0.438991 -0.098094 153 0 76
0.097998 -0.747252 0.240337 153 0 76
0.163068 -0.459257 -0.153147 153 0 76
0.238499 -0.549779 0.019867 153 0 76
-0.169979 -0.294506 0.125540 153 0 76
0.171296 -0.475786 -0.145689 153 0 76
0.134134 0.609839 0.172586 153 0 76
-0.203041 -0.230114 -0.045786 153 0 76
-0.143738 -0.347696 0.160479 153 0 76
0.106257 0.857362 0.098145 76 0 153
0.093564 -0.776170 -0.233301 153 0 76
-0.067356 0.457380 -0.230749 153 0 76
-0.055414 0.725490 -0.156042 153 0 76
-0.109420 -0.598621 0.223556 153 0 76
-0.080364 -0.902531 -0.130369 153 0 76
-0.050801 -0.898539 -0.009246 153 0 76
-0.139886 -0.400790 0.168411 153 0 76
-0.003565 0.727868 -0.165460 153 0 76
-0.081072 -0.293652 -0.189663 153 0 76
-0.030964 -0.897916 0.044993 153 0 76
0.239141 0.476438 0.052059 153 0 76
