ply
format ascii 1.0
element vertex 1247
property float x
property float y
property float z
property uchar red
property uchar green
property uchar blue
end_header
0.112975 -0.380847 0.428301 153 0 76
-0.122835 -0.697532 0.173334 127 0 127
-0.471574 0.448402 0.018978 0 127 127
-0.423501 0.562319 -0.039717 0 127 127
-0.423501 -0.141778 -0.212202 0 127 127
0.441819 0.552275 -0.421821 0 127 127
0.441819 -0.145767 -0.040734 0 127 127
0.489892 -0.491543 -0.217254 0 127 127
0.489892 0.615155 -0.442141 0 127 127
0.420091 -0.522725 0.017089 0 127 127
0.320924 0.711695 -0.343563 0 127 127
-0.471574 0.328833 0.268038 0 127 127
0.437161 -0.507570 0.136996 0 127 127
0.129591 -0.053027 0.491601 153 0 76
0.441819 0.017126 -0.400986 0 127 127
0.489892 -0.363397 -0.070326 0 127 127
0.458644 -0.599259 -0.524832 127 0 127
-0.378702 -0.526551 0.250452 0 127 127
-0.423501 -0.188499 -0.103496 0 127 127
0.489892 0.382627 0.326624 0 127 127
-0.420595 0.179577 0.484880 153 0 76
-0.425013 0.495646 0.484726 153 0 76
0.113157 0.540107 0.483104 153 0 76
0.154983 0.081795 -0.569090 0 127 127
0.224740 0.337754 -0.514286 0 127 127
0.426079 -0.697532 -0.517749 127 0 127
-0.274823 -0.185528 -0.514286 0 127 127
-0.185090 -0.526551 0.029786 0 127 127
0.489892 0.596362 -0.075428 0 127 127
-0.122175 0.711695 0.367713 0 127 127
0.419920 -0.697532 0.099786 127 0 127
-0.194967 -0.526551 -0.385827 0 127 127
0.489892 0.317066 -0.045591 0 127 127
0.276764 0.265803 0.489351 153 0 76
-0.423501 0.504184 -0.366611 0 127 127
0.441819 -0.435337 0.349711 0 127 127
0.472965 -0.697532 -0.395002 127 0 127
0.090553 -0.112254 0.428301 153 0 76
0.401697 -0.326937 -0.514286 0 127 127
0.441819 -0.086704 -0.141417 0 127 127
-0.147331 0.298425 -0.514286 0 127 127
-0.227297 -0.595342 -0.233319 0 127 127
0.260543 -0.513792 0.428301 153 0 76
0.362618 0.694884 -0.569090 0 127 127
0.265582 -0.089374 -0.569090 0 127 127
0.489892 0.611167 -0.533277 0 127 127
-0.471574 -0.135769 0.003557 0 127 127
0.076210 0.577471 0.428301 153 0 76
-0.471574 0.650324 -0.189087 0 127 127
0.134914 0.780486 -0.314750 0 127 127
0.287851 0.670094 0.428301 153 0 76
0.201122 -0.526551 0.176331 0 127 127
-0.283864 -0.599259 -0.012905 127 0 127
0.092360 0.711695 0.270057 0 127 127
0.385468 -0.697532 0.326833 127 0 127
0.267206 0.071650 0.428301 153 0 76
-0.160214 -0.595342 -0.342160 0 127 127
0.236346 0.576476 -0.514286 0 127 127
0.489892 0.398786 -0.328222 0 127 127
0.142321 -0.595342 0.050860 127 0 127
0.041869 0.234456 0.492134 153 0 76
-0.471574 -0.029093 -0.050485 0 127 127
0.185105 0.041992 0.490975 153 0 76
-0.471574 0.098005 0.274758 0 127 127
-0.395503 -0.697532 -0.402243 127 0 127
-0.471574 0.103684 -0.055678 0 127 127
0.489892 0.088344 0.065505 0 127 127
0.441819 -0.071357 -0.060420 0 127 127
-0.189029 -0.697532 -0.319082 127 0 127
0.459545 -0.695698 0.491156 127 0 127
0.441819 -0.028522 -0.332147 0 127 127
0.225478 -0.393016 -0.569090 0 127 127
-0.427772 -0.697532 0.078008 127 0 127
-0.477608 -0.629555 0.336614 127 0 127
-0.423501 0.413021 0.345784 0 127 127
-0.401457 -0.522847 -0.100717 0 127 127
0.129599 -0.004759 0.428301 153 0 76
-0.227334 0.780486 -0.326693 0 127 127
-0.077576 0.711695 0.292702 0 127 127
-0.118848 -0.595342 0.299614 127 0 127
0.088923 -0.526551 -0.427929 0 127 127
-0.471574 0.299954 -0.245954 0 127 127
0.155363 0.657579 -0.569090 0 127 127
-0.333084 -0.292489 -0.514286 0 127 127
0.330948 -0.160247 0.428301 153 0 76
-0.471574 -0.469033 -0.289202 0 127 127
-0.254508 0.135876 -0.514286 0 127 127
0.176217 -0.177027 0.491115 153 0 76
0.307997 -0.492424 -0.514286 0 127 127
0.257926 0.711695 -0.417883 0 127 127
-0.030329 0.121403 -0.514286 0 127 127
-0.160310 0.434125 0.491077 153 0 76
-0.328129 0.743480 -0.569090 0 127 127
0.423278 0.351655 -0.569090 0 127 127
0.441076 0.780486 -0.517394 0 127 127
0.441819 0.214641 0.389416 0 127 127
0.262241 0.780486 -0.287030 0 127 127
-0.471574 -0.244271 -0.411428 0 127 127
-0.327704 -0.595342 -0.498085 0 127 127
-0.125562 0.711695 0.242914 0 127 127
0.232436 -0.526551 -0.404449 0 127 127
-0.334588 -0.595342 -0.120362 0 127 127
-0.090963 -0.476900 0.428301 153 0 76
-0.386020 0.008642 0.428301 153 0 76
0.441819 0.539262 0.318629 0 127 127
0.150475 -0.697532 -0.290123 127 0 127
0.257814 -0.595342 -0.098091 127 0 127
0.441819 -0.188759 0.397103 0 127 127
-0.423501 0.228476 -0.268503 0 127 127
0.441819 0.341139 -0.095197 0 127 127
-0.036679 0.222769 0.483104 153 0 76
-0.379746 0.323933 0.428301 153 0 76
-0.202161 0.221784 -0.569090 0 127 127
-0.083226 -0.257207 -0.569090 0 127 127
0.039049 0.264113 -0.569090 0 127 127
-0.471574 0.011376 0.097097 0 127 127
-0.157481 0.641591 -0.514286 0 127 127
0.489892 0.127700 0.236015 0 127 127
-0.018621 0.780486 -0.563657 0 127 127
-0.423501 -0.317191 0.282355 0 127 127
0.056990 0.472577 -0.569090 0 127 127
-0.471574 0.249043 -0.094556 0 127 127
-0.016381 0.282270 -0.514286 0 127 127
-0.471574 0.200044 0.116159 0 127 127
-0.264539 0.118912 0.489216 153 0 76
0.111165 0.780486 0.240087 0 127 127
-0.471574 -0.295130 -0.063081 0 127 127
0.441819 -0.219347 0.076493 0 127 127
0.421137 -0.238346 0.428301 153 0 76
-0.058063 0.067839 0.428301 153 0 76
-0.441819 -0.697532 -0.468118 127 0 127
0.123543 0.461256 0.428301 153 0 76
0.302616 0.063604 0.488777 153 0 76
0.489892 0.623293 -0.211094 0 127 127
0.347834 0.711695 -0.475211 0 127 127
-0.320157 -0.650974 -0.573028 127 0 127
0.331360 0.443313 -0.569090 0 127 127
0.441819 0.592534 0.249326 0 127 127
-0.209934 0.207905 0.428301 153 0 76
0.200604 -0.032869 0.428301 153 0 76
0.423824 0.037383 0.483104 153 0 76
0.489892 0.273557 0.206954 0 127 127
-0.423501 -0.387180 0.035824 0 127 127
-0.406568 -0.456983 -0.569090 0 127 127
0.223580 0.711695 -0.513281 0 127 127
0.503087 -0.631883 -0.228573 127 0 127
-0.471574 -0.499450 0.322556 0 127 127
0.432042 0.540328 -0.514286 0 127 127
0.113863 0.397806 -0.514286 0 127 127
-0.022038 -0.225688 0.492139 153 0 76
0.024979 -0.697532 0.380732 127 0 127
0.162268 0.735255 0.464836 153 0 76
-0.315241 0.114697 -0.514286 0 127 127
-0.376723 0.707379 -0.514286 0 127 127
0.223483 0.182134 -0.514286 0 127 127
-0.471574 -0.357735 0.075171 0 127 127
-0.034074 0.696845 -0.514286 0 127 127
-0.471574 0.725820 -0.437131 0 127 127
0.441819 0.471218 -0.175955 0 127 127
0.356568 -0.599259 -0.263388 127 0 127
0.386766 -0.529770 -0.569090 0 127 127
-0.471574 0.588561 0.009779 0 127 127
-0.423501 -0.009295 -0.371996 0 127 127
-0.423501 0.204978 0.232356 0 127 127
0.441819 0.431578 -0.284198 0 127 127
0.441819 -0.358225 -0.189989 0 127 127
-0.267525 -0.377518 0.428301 153 0 76
0.248704 0.711695 -0.033584 0 127 127
-0.004791 -0.676202 0.495642 127 0 127
-0.189204 -0.061480 -0.569090 0 127 127
-0.471574 -0.380292 -0.335789 0 127 127
0.184292 -0.253935 -0.569090 0 127 127
0.326839 0.711695 -0.000517 0 127 127
0.489892 -0.198473 -0.231168 0 127 127
-0.402794 0.219655 -0.514286 0 127 127
0.489892 0.620663 0.278377 0 127 127
0.284174 -0.595342 0.015626 0 127 127
-0.246291 -0.599259 0.456379 127 0 127
0.328628 -0.251500 0.428301 153 0 76
-0.099955 -0.150140 -0.514286 0 127 127
0.489892 0.487309 0.070090 0 127 127
-0.471574 -0.315290 -0.499658 0 127 127
-0.423501 0.060479 0.246177 0 127 127
-0.375546 0.537190 -0.514286 0 127 127
0.336219 0.035430 -0.569090 0 127 127
-0.246903 -0.526551 0.260274 0 127 127
-0.423501 -0.233421 0.013762 0 127 127
0.024750 -0.522797 -0.514286 0 127 127
-0.367309 0.628395 0.486583 153 0 76
0.328469 -0.145008 -0.569090 0 127 127
-0.350873 0.711695 0.102046 0 127 127
0.441819 0.299380 0.171594 0 127 127
0.380019 -0.035594 -0.514286 0 127 127
-0.252363 -0.105750 0.489486 153 0 76
-0.343439 0.076682 0.487263 153 0 76
0.212347 -0.182521 -0.569090 0 127 127
-0.423501 0.561486 0.349713 0 127 127
0.449409 -0.599259 0.094436 0 127 127
-0.423501 -0.357207 0.173918 0 127 127
0.160233 0.711695 0.321151 0 127 127
-0.400712 -0.523133 -0.224371 0 127 127
0.140410 0.711695 0.095351 0 127 127
0.489892 0.703499 -0.137944 0 127 127
-0.412159 -0.044594 -0.514286 0 127 127
0.352844 -0.392295 0.428301 153 0 76
-0.108025 0.160222 -0.514286 0 127 127
0.084687 -0.526551 -0.026922 0 127 127
-0.323604 0.780486 0.152447 0 127 127
-0.371345 0.711695 0.196612 0 127 127
-0.204945 -0.526551 0.155318 0 127 127
0.246160 -0.150835 0.428301 153 0 76
-0.102778 0.058121 -0.569090 0 127 127
-0.409202 -0.584364 -0.569090 0 127 127
-0.117807 0.169941 0.428301 153 0 76
0.335955 0.048377 0.428301 153 0 76
-0.424151 -0.599259 0.454538 127 0 127
0.131767 0.780486 -0.134514 0 127 127
-0.424634 -0.303365 -0.569090 0 127 127
0.185966 -0.697532 0.376877 127 0 127
-0.000008 -0.697532 -0.158672 127 0 127
-0.398565 -0.523960 0.047096 0 127 127
-0.471575 0.614925 0.470912 153 0 76
-0.471574 0.681363 -0.259110 0 127 127
-0.423501 -0.050207 0.283255 0 127 127
-0.471574 0.236030 0.322122 0 127 127
0.489892 -0.451187 0.441484 153 0 76
-0.018478 -0.599259 -0.252542 0 127 127
0.489147 0.780486 -0.088914 0 127 127
-0.375513 0.352998 -0.514286 0 127 127
0.064146 -0.595342 0.230552 127 0 127
0.455351 -0.595342 -0.432042 127 0 127
-0.273744 0.546559 0.428301 153 0 76
0.190499 -0.344131 0.490889 153 0 76
0.432510 0.698859 0.047252 0 127 127
0.489892 0.349834 0.258470 0 127 127
0.489892 0.078847 -0.291910 0 127 127
0.441819 0.136490 0.140904 0 127 127
-0.423501 0.231437 0.089181 0 127 127
0.314779 0.462105 0.428301 153 0 76
0.438437 0.780486 0.387631 0 127 127
-0.471574 0.105633 -0.201798 0 127 127
0.238226 0.780486 0.188406 0 127 127
-0.471574 -0.253594 -0.206301 0 127 127
-0.279294 0.780486 0.411965 0 127 127
0.464880 0.022296 0.410033 153 0 76
-0.056793 -0.697532 0.452783 127 0 127
0.441819 0.486828 0.162556 0 127 127
-0.418147 0.128088 0.410033 153 0 76
-0.299537 -0.697532 -0.359406 127 0 127
-0.394869 -0.697532 0.200317 127 0 127
0.392817 0.711695 0.156909 0 127 127
0.425181 0.031541 -0.569090 0 127 127
-0.463665 -0.072570 0.483380 153 0 76
0.441819 -0.451110 -0.495400 0 127 127
-0.109773 0.780486 -0.330890 0 127 127
0.116639 0.711695 -0.050336 0 127 127
0.441819 -0.037687 0.346961 0 127 127
0.053026 0.106193 -0.569090 0 127 127
-0.471574 0.484818 0.321023 0 127 127
-0.423501 -0.316442 0.115404 0 127 127
-0.423501 -0.191260 -0.252568 0 127 127
-0.471574 -0.539355 0.114642 0 127 127
-0.052209 -0.175169 -0.569090 0 127 127
-0.083514 -0.244692 0.428301 153 0 76
0.443754 -0.631085 0.495642 127 0 127
0.440345 0.132059 -0.514286 0 127 127
0.358891 -0.595342 -0.436008 0 127 127
0.380634 -0.223847 0.486725 153 0 76
0.056153 0.360811 0.483104 153 0 76
-0.477608 -0.649837 -0.372546 127 0 127
-0.061676 -0.526551 0.274935 0 127 127
0.470651 -0.595342 -0.148591 0 127 127
0.489892 -0.527212 0.248657 0 127 127
-0.423501 -0.184102 0.352975 0 127 127
0.489892 0.064285 0.370392 0 127 127
-0.423501 -0.435357 -0.157824 0 127 127
0.489892 0.075273 -0.227504 0 127 127
0.019867 -0.599259 -0.416913 0 127 127
-0.337059 0.042517 -0.514286 0 127 127
0.268909 -0.595342 0.377180 0 127 127
0.489892 0.126361 0.473860 153 0 76
-0.471574 -0.462602 -0.472304 0 127 127
0.097490 0.212832 -0.514286 0 127 127
-0.247337 -0.697532 0.041434 127 0 127
-0.414432 -0.180363 0.485095 153 0 76
-0.073102 0.723026 0.492178 153 0 76
-0.070020 -0.697532 -0.425090 127 0 127
-0.423501 -0.009338 0.165449 0 127 127
-0.131935 -0.355087 0.428301 153 0 76
0.489892 -0.541894 -0.259932 0 127 127
-0.231789 0.307980 -0.514286 0 127 127
0.000511 -0.165565 0.428301 153 0 76
-0.114704 0.409094 0.428301 153 0 76
0.441819 0.491705 -0.254249 0 127 127
0.047319 -0.599259 -0.536948 0 127 127
-0.423501 0.191818 -0.448932 0 127 127
-0.423501 0.414960 0.153577 0 127 127
0.441819 0.064232 -0.049365 0 127 127
-0.477608 -0.665813 -0.150015 127 0 127
0.447185 -0.599259 0.324632 0 127 127
-0.423501 0.019328 -0.130168 0 127 127
-0.471574 0.323153 0.124524 0 127 127
-0.471574 0.461046 -0.193433 0 127 127
0.441819 -0.218292 0.204923 0 127 127
-0.071227 -0.398994 0.428301 153 0 76
-0.205446 0.391626 0.428301 153 0 76
0.004105 0.579491 -0.514286 0 127 127
0.241737 -0.696355 0.490114 127 0 127
0.489892 0.441546 -0.102331 0 127 127
-0.410086 0.780486 -0.048352 0 127 127
0.441819 -0.252005 -0.099823 0 127 127
-0.471574 -0.445385 -0.356532 0 127 127
0.489892 0.641584 -0.291679 0 127 127
-0.321570 0.617170 -0.569090 0 127 127
-0.342640 -0.697532 0.277217 127 0 127
-0.265397 -0.526551 -0.057748 0 127 127
-0.471574 0.212563 -0.155302 0 127 127
0.441819 -0.318925 0.289761 0 127 127
-0.471574 0.634623 -0.318228 0 127 127
-0.471574 0.354633 -0.124865 0 127 127
0.503087 -0.677454 -0.514146 127 0 127
0.489892 -0.127977 0.315839 0 127 127
-0.477608 -0.640271 0.197800 127 0 127
0.441819 0.115979 -0.443578 0 127 127
0.489892 -0.275419 -0.240640 0 127 127
0.441819 -0.446861 0.228006 0 127 127
0.314987 0.346939 0.428301 153 0 76
0.441819 0.028484 -0.308712 0 127 127
0.137721 -0.509904 -0.569090 0 127 127
-0.117053 0.370664 0.491546 153 0 76
0.441819 0.603894 0.377507 0 127 127
-0.106927 -0.526551 -0.196626 0 127 127
-0.215058 0.029221 -0.514286 0 127 127
-0.047889 0.521263 -0.569090 0 127 127
0.441819 0.214291 0.285744 0 127 127
0.489892 0.298257 0.077852 0 127 127
0.316933 0.736147 -0.569090 0 127 127
-0.471574 0.268418 0.255008 0 127 127
0.441819 0.303450 0.040785 0 127 127
-0.132183 -0.631591 0.495642 127 0 127
0.489892 0.586220 -0.324998 0 127 127
-0.423501 -0.241127 0.240227 0 127 127
0.203845 0.780486 0.080012 0 127 127
0.056523 0.147227 0.492088 153 0 76
-0.158091 -0.475445 0.428301 153 0 76
-0.436516 -0.599259 0.263083 127 0 127
-0.413886 -0.472668 0.426636 153 0 76
-0.193852 0.711695 -0.497484 0 127 127
-0.341940 -0.599259 -0.297328 0 127 127
0.425842 0.669490 0.483104 153 0 76
0.489892 -0.045433 0.242022 0 127 127
0.202360 -0.023425 -0.514286 0 127 127
-0.358908 0.126861 0.428301 153 0 76
-0.471574 0.418452 -0.250227 0 127 127
-0.321021 0.156758 -0.569090 0 127 127
-0.157888 -0.526551 0.254697 0 127 127
0.328455 0.584294 -0.569090 0 127 127
-0.056571 -0.595342 -0.529505 127 0 127
-0.223343 -0.398970 0.483104 153 0 76
0.489892 0.491891 0.380558 0 127 127
0.308498 0.657179 -0.514286 0 127 127
-0.036807 0.578379 0.428301 153 0 76
0.249749 0.022806 -0.514286 0 127 127
-0.250564 0.711695 0.200775 0 127 127
0.503087 -0.620435 0.120418 127 0 127
0.221753 0.534235 -0.569090 0 127 127
0.056069 0.780486 -0.420859 0 127 127
-0.471574 -0.130935 -0.249858 0 127 127
-0.327932 0.581125 0.428301 153 0 76
0.315977 0.136668 -0.514286 0 127 127
-0.477608 -0.631554 -0.544772 127 0 127
-0.318118 -0.697532 -0.147806 127 0 127
0.359578 0.780486 -0.427099 0 127 127
0.042652 0.711695 0.374998 0 127 127
0.053977 -0.526551 -0.307470 0 127 127
-0.471574 0.363020 -0.451581 0 127 127
0.100393 -0.357721 0.483104 153 0 76
0.489892 -0.254310 -0.364366 0 127 127
-0.046037 0.711695 -0.282676 0 127 127
-0.471574 -0.392747 0.001697 0 127 127
0.367533 0.685623 0.428301 153 0 76
0.284949 0.276631 -0.514286 0 127 127
0.489892 0.657128 -0.041324 0 127 127
-0.430803 -0.599259 0.374936 127 0 127
0.014332 0.706835 -0.569090 0 127 127
0.346448 0.711695 -0.125874 0 127 127
0.106500 0.648333 -0.514286 0 127 127
0.489892 0.626496 0.338587 0 127 127
-0.423501 0.132561 -0.180506 0 127 127
-0.471574 0.582870 0.166684 0 127 127
-0.474912 -0.697532 0.238008 127 0 127
0.449083 0.780486 -0.208748 0 127 127
0.489892 -0.182570 -0.301162 0 127 127
-0.423501 -0.353484 0.357472 0 127 127
0.114827 0.131343 0.428301 153 0 76
-0.302099 -0.534953 -0.569090 0 127 127
-0.190488 -0.179823 -0.569090 0 127 127
0.440733 -0.498475 0.267242 0 127 127
0.489892 0.131229 -0.127259 0 127 127
-0.423501 0.314497 0.164324 0 127 127
0.233886 -0.595342 0.064761 127 0 127
0.361192 -0.081949 0.487279 153 0 76
0.434676 -0.030898 -0.569090 0 127 127
-0.376003 -0.526551 -0.366039 0 127 127
-0.020465 0.341064 -0.514286 0 127 127
0.336650 0.780486 -0.188511 0 127 127
-0.111884 -0.286353 -0.514286 0 127 127
-0.471574 0.108874 -0.419486 0 127 127
0.212949 -0.460472 0.490534 153 0 76
0.441819 0.315055 -0.223288 0 127 127
-0.230621 0.780486 0.367672 0 127 127
-0.370475 0.711695 -0.205724 0 127 127
-0.471574 -0.257388 0.330184 0 127 127
0.441819 -0.426911 0.012150 0 127 127
0.233172 -0.295469 -0.514286 0 127 127
-0.423501 -0.216931 -0.382737 0 127 127
0.019155 0.780486 -0.311590 0 127 127
-0.329955 0.501095 0.488391 153 0 76
0.441819 0.606952 -0.151098 0 127 127
0.352293 0.711695 -0.232789 0 127 127
-0.291131 0.309178 0.428301 153 0 76
-0.074188 -0.057068 -0.569090 0 127 127
0.359045 -0.030604 0.428301 153 0 76
0.489892 -0.196212 0.170635 0 127 127
-0.471574 -0.279804 0.093191 0 127 127
0.360065 0.115452 0.483104 153 0 76
-0.323246 -0.261391 -0.569090 0 127 127
-0.386819 -0.361698 -0.514286 0 127 127
-0.139139 -0.228228 -0.514286 0 127 127
-0.064102 -0.313779 -0.569090 0 127 127
0.116506 -0.333588 -0.514286 0 127 127
-0.276660 0.780486 -0.222671 0 127 127
0.257397 -0.697532 0.121988 127 0 127
-0.456136 -0.694038 -0.573028 127 0 127
-0.423501 0.552180 -0.171499 0 127 127
-0.240377 -0.595342 -0.115503 0 127 127
0.328635 0.780486 0.393389 0 127 127
-0.234593 0.780486 0.041048 0 127 127
0.083835 0.077860 -0.514286 0 127 127
-0.420006 0.697466 -0.157344 0 127 127
-0.471574 0.526272 -0.140307 0 127 127
0.118015 -0.445246 0.491711 153 0 76
-0.471574 -0.205369 0.251264 0 127 127
0.226334 -0.526551 -0.305413 0 127 127
0.489892 -0.025474 0.111768 0 127 127
0.441819 0.451464 -0.415454 0 127 127
0.285570 0.711695 -0.224259 0 127 127
-0.042393 0.405520 0.483104 153 0 76
-0.383366 0.119793 -0.514286 0 127 127
-0.241110 -0.089583 -0.569090 0 127 127
-0.449612 -0.055262 -0.569090 0 127 127
0.062041 0.627156 -0.569090 0 127 127
0.447665 -0.697532 -0.216249 127 0 127
-0.423501 -0.180134 0.088995 0 127 127
-0.163976 0.484205 -0.569090 0 127 127
0.452829 0.362419 0.483104 153 0 76
0.009299 -0.092014 0.492238 153 0 76
0.069936 -0.196438 0.483104 153 0 76
-0.313311 0.689128 -0.514286 0 127 127
0.068477 -0.356898 -0.569090 0 127 127
0.112032 -0.697532 -0.238413 127 0 127
0.150498 -0.686862 -0.573028 127 0 127
0.489892 -0.551304 0.334011 0 127 127
0.491815 0.748072 0.295223 0 127 127
0.423199 0.426618 -0.569090 0 127 127
0.489892 -0.298885 -0.322931 0 127 127
-0.303422 -0.697532 0.058924 127 0 127
-0.471574 0.664498 0.328755 0 127 127
0.445879 0.216762 -0.569090 0 127 127
0.315317 0.672880 0.483104 153 0 76
-0.085784 -0.526551 0.146874 0 127 127
0.489354 -0.152601 0.483123 153 0 76
-0.005270 -0.526551 -0.021978 0 127 127
-0.249153 0.648812 -0.569090 0 127 127
0.182217 0.455618 -0.569090 0 127 127
-0.147722 0.780486 -0.542318 0 127 127
-0.471574 -0.040074 -0.263733 0 127 127
0.296831 -0.697532 0.391283 127 0 127
0.068203 0.705854 -0.514286 0 127 127
0.040776 0.434464 -0.514286 0 127 127
-0.045352 0.780486 0.099736 0 127 127
-0.423501 -0.307810 -0.158036 0 127 127
0.341501 -0.595342 0.371780 127 0 127
0.441819 -0.104960 -0.223986 0 127 127
0.260526 0.597959 0.489711 153 0 76
0.393535 0.553504 0.486358 153 0 76
0.137145 0.713827 -0.569090 0 127 127
-0.423501 -0.336272 -0.219321 0 127 127
-0.471574 0.028921 -0.020226 0 127 127
-0.130766 0.615978 0.483104 153 0 76
0.489892 0.519994 0.000755 0 127 127
0.489892 -0.477981 -0.411490 0 127 127
-0.062172 -0.547916 0.492012 153 0 76
-0.423501 0.619189 -0.004750 0 127 127
-0.471574 0.127966 -0.269177 0 127 127
0.441819 0.375687 -0.363241 0 127 127
0.031348 -0.697532 -0.275798 127 0 127
-0.471574 0.414654 -0.101268 0 127 127
-0.001135 -0.599259 0.335167 127 0 127
0.115696 0.711695 -0.386023 0 127 127
0.427956 -0.219042 -0.569090 0 127 127
0.406647 -0.526149 -0.514073 0 127 127
0.489892 0.519206 -0.335588 0 127 127
0.353133 0.636971 -0.569090 0 127 127
-0.471574 0.191165 -0.097051 0 127 127
0.265609 -0.261675 0.483104 153 0 76
-0.423501 0.446630 0.089474 0 127 127
-0.477608 -0.619742 0.475781 127 0 127
0.489892 -0.144827 -0.073005 0 127 127
-0.471574 0.473745 0.396700 0 127 127
-0.423501 0.089786 0.361646 0 127 127
0.149575 -0.595342 0.433608 153 0 76
0.489892 0.441699 -0.163183 0 127 127
0.441819 -0.238720 -0.466791 0 127 127
-0.423501 -0.150833 -0.386742 0 127 127
0.441819 -0.098701 -0.448391 0 127 127
-0.236773 0.526903 -0.514286 0 127 127
0.441819 -0.334169 -0.056993 0 127 127
-0.418711 0.403171 0.484946 153 0 76
-0.185329 0.214011 0.490681 153 0 76
0.441819 0.674011 -0.113738 0 127 127
-0.084778 -0.526551 0.369905 0 127 127
-0.423501 -0.068876 -0.284727 0 127 127
0.341698 -0.526551 0.073570 0 127 127
-0.248657 0.711695 -0.073591 0 127 127
-0.398243 0.780486 0.024145 0 127 127
0.489892 -0.263988 -0.133996 0 127 127
-0.471574 -0.571373 0.013500 0 127 127
0.441819 0.022249 -0.505016 0 127 127
0.489892 -0.490821 -0.469824 0 127 127
-0.471574 0.310520 -0.362701 0 127 127
0.489892 -0.324387 -0.514348 0 127 127
-0.341956 -0.086664 -0.514286 0 127 127
0.489892 0.184468 -0.416647 0 127 127
0.426844 0.642417 -0.569090 0 127 127
-0.423501 -0.080426 -0.457809 0 127 127
0.489892 -0.288763 -0.019937 0 127 127
-0.197863 0.711695 -0.165815 0 127 127
-0.471574 -0.126390 -0.168489 0 127 127
0.068331 -0.541738 0.412852 153 0 76
0.317111 -0.518767 0.483104 153 0 76
-0.098818 -0.394154 -0.514286 0 127 127
0.074419 -0.059780 -0.514286 0 127 127
0.078863 -0.053550 0.428301 153 0 76
0.156132 -0.315825 -0.569090 0 127 127
0.489892 -0.052524 -0.448039 0 127 127
0.435776 0.694904 -0.300590 0 127 127
-0.279784 -0.595342 0.137002 127 0 127
-0.169627 -0.166279 0.428301 153 0 76
0.489892 0.723037 0.167173 0 127 127
0.383049 0.780486 -0.040008 0 127 127
0.187341 -0.526551 -0.019491 0 127 127
-0.471574 0.068152 0.114538 0 127 127
0.203452 -0.447153 -0.514286 0 127 127
0.010060 -0.337973 -0.514286 0 127 127
-0.220777 0.092979 0.428301 153 0 76
0.362631 0.604762 -0.514286 0 127 127
0.441819 -0.482990 -0.186991 0 127 127
0.441819 -0.100457 -0.310571 0 127 127
-0.471574 -0.061351 0.368460 0 127 127
0.453156 0.510671 -0.569090 0 127 127
-0.423501 0.046489 -0.233905 0 127 127
-0.088413 0.466175 0.428301 153 0 76
-0.176414 -0.050191 -0.514286 0 127 127
-0.471574 0.305457 -0.503538 0 127 127
0.376927 -0.697532 -0.016181 127 0 127
0.441819 -0.345382 -0.356915 0 127 127
0.441819 -0.029518 0.078290 0 127 127
-0.020603 -0.526551 -0.128359 0 127 127
0.064344 0.711695 -0.277048 0 127 127
0.441819 0.166572 -0.339723 0 127 127
0.421717 0.289980 0.428301 153 0 76
-0.471574 -0.207259 0.439440 153 0 76
-0.231697 -0.595342 0.263625 0 127 127
0.489892 0.645148 0.079121 0 127 127
-0.065981 -0.697532 0.119500 127 0 127
-0.423501 0.581908 -0.506864 0 127 127
0.441819 0.563627 0.178924 0 127 127
-0.203976 -0.338710 -0.514286 0 127 127
0.489892 -0.343698 0.194570 0 127 127
-0.340328 -0.367061 -0.569090 0 127 127
-0.471574 0.335179 -0.016210 0 127 127
-0.412225 -0.516094 0.309070 0 127 127
-0.423501 0.439315 -0.023185 0 127 127
-0.471574 0.387281 0.251738 0 127 127
0.373027 0.780486 0.441490 0 127 127
-0.471574 -0.418332 -0.213296 0 127 127
0.489892 -0.282844 0.258132 0 127 127
-0.275647 0.711695 0.331298 0 127 127
0.418004 -0.697532 0.374772 127 0 127
-0.423501 0.037609 0.067550 0 127 127
-0.327541 -0.348153 0.483104 153 0 76
0.489892 -0.282117 0.388608 0 127 127
-0.237669 0.241389 0.489811 153 0 76
-0.416064 -0.511450 -0.428619 0 127 127
0.333616 0.360429 0.483104 153 0 76
-0.208723 -0.595342 -0.467529 0 127 127
-0.471574 -0.176613 -0.284066 0 127 127
-0.011592 0.577807 -0.569090 0 127 127
0.489892 0.215953 0.097350 0 127 127
-0.096362 -0.697532 0.276411 127 0 127
0.095823 -0.419744 -0.514286 0 127 127
0.159619 0.711695 0.012850 0 127 127
0.489892 0.113652 -0.073048 0 127 127
0.441819 -0.363910 -0.248396 0 127 127
0.441819 -0.156688 0.224564 0 127 127
0.115971 -0.595342 -0.452883 127 0 127
0.441819 -0.151620 -0.165206 0 127 127
0.465680 -0.595342 -0.252716 0 127 127
-0.351651 -0.037389 -0.569090 0 127 127
0.354274 -0.218371 -0.514286 0 127 127
0.098087 0.651966 0.483104 153 0 76
0.207605 0.513232 0.483104 153 0 76
-0.203895 0.525168 0.490387 153 0 76
0.224475 -0.377789 -0.514286 0 127 127
0.489892 0.377258 -0.008263 0 127 127
-0.114626 -0.599259 -0.514140 0 127 127
-0.427481 0.780486 -0.268748 0 127 127
-0.362105 0.187785 0.486731 153 0 76
0.094495 0.780486 -0.547882 0 127 127
0.255325 0.780486 0.315505 0 127 127
0.008935 0.114828 0.492237 153 0 76
-0.127268 0.514333 -0.514286 0 127 127
-0.423501 0.476636 -0.303503 0 127 127
0.489654 0.250852 0.483104 153 0 76
0.195224 -0.697532 -0.158488 127 0 127
0.441819 -0.002386 -0.253459 0 127 127
0.018318 -0.526551 0.173224 0 127 127
0.489892 -0.151446 0.368535 0 127 127
0.324807 0.506293 -0.514286 0 127 127
0.489892 -0.209216 -0.513609 0 127 127
-0.334033 -0.595342 -0.219181 0 127 127
-0.471574 0.611101 0.359446 0 127 127
0.216156 0.276118 0.428301 153 0 76
0.489892 0.146089 -0.002120 0 127 127
0.489892 -0.179106 -0.462799 0 127 127
0.321853 0.060368 -0.514286 0 127 127
-0.149923 0.780486 0.389758 0 127 127
0.489892 -0.195000 0.048072 0 127 127
0.251714 -0.169524 -0.514286 0 127 127
-0.423501 0.291450 0.235952 0 127 127
-0.423501 0.186790 0.288513 0 127 127
-0.160984 -0.526551 0.090420 0 127 127
0.319180 -0.573677 -0.569090 0 127 127
0.452426 0.780486 0.194672 0 127 127
0.489892 -0.472236 -0.353812 0 127 127
-0.471574 0.445238 0.158123 0 127 127
-0.060601 -0.192289 0.428301 153 0 76
0.272241 0.711695 0.272631 0 127 127
-0.342235 0.691146 0.412914 153 0 76
-0.040569 -0.595342 0.177892 127 0 127
0.489892 -0.557916 -0.456380 0 127 127
-0.471574 -0.424038 0.433508 153 0 76
-0.340959 -0.697532 -0.266218 127 0 127
0.410134 -0.139196 -0.569090 0 127 127
0.199063 0.780486 0.302704 0 127 127
0.016933 -0.553020 -0.569090 0 127 127
-0.421035 -0.599259 -0.043178 127 0 127
0.474602 -0.595342 0.010063 0 127 127
0.261753 -0.697532 -0.128208 127 0 127
0.441819 -0.404871 -0.453005 0 127 127
-0.290877 -0.444113 -0.514286 0 127 127
-0.471574 -0.088538 0.194174 0 127 127
-0.286638 -0.526551 -0.135087 0 127 127
-0.065647 0.171103 -0.569090 0 127 127
-0.418517 -0.697532 0.020049 127 0 127
0.180322 -0.697532 -0.455153 127 0 127
0.489892 -0.395956 0.254960 0 127 127
-0.471574 0.098149 0.331051 0 127 127
-0.423501 -0.287616 -0.293570 0 127 127
0.489892 -0.537074 -0.043861 0 127 127
0.001759 -0.204023 -0.514286 0 127 127
0.237134 0.780486 -0.438311 0 127 127
0.489892 -0.022575 0.437231 153 0 76
-0.217461 0.290026 -0.569090 0 127 127
-0.423501 0.135000 0.313821 0 127 127
0.153161 -0.697532 0.150469 127 0 127
0.137838 0.359262 -0.569090 0 127 127
-0.047862 0.711695 -0.175304 0 127 127
0.362234 0.711695 0.206919 0 127 127
-0.340585 -0.599259 0.300561 127 0 127
-0.357336 -0.183708 0.483104 153 0 76
0.247688 0.711695 0.363975 0 127 127
-0.292795 0.657111 0.428301 153 0 76
0.489892 -0.496009 0.322110 0 127 127
0.425451 -0.044377 0.428301 153 0 76
0.230584 0.657423 -0.569090 0 127 127
-0.471574 0.566757 -0.283578 0 127 127
-0.006097 0.711695 -0.414992 0 127 127
-0.423501 -0.181277 -0.172132 0 127 127
0.223707 0.558478 0.428301 153 0 76
0.441819 -0.346479 0.050239 0 127 127
0.489892 -0.456450 0.200476 0 127 127
-0.471574 0.419401 -0.420921 0 127 127
-0.013477 0.462375 -0.514286 0 127 127
0.210401 0.631951 0.483104 153 0 76
0.145326 0.202306 -0.569090 0 127 127
0.230678 -0.595342 -0.558985 0 127 127
-0.142983 0.711272 -0.569090 0 127 127
0.438084 -0.505501 -0.261696 0 127 127
-0.024884 0.780486 0.231447 0 127 127
-0.423039 0.688152 0.214466 0 127 127
0.067634 -0.697532 0.422785 127 0 127
0.057258 0.077825 0.428301 153 0 76
-0.471574 -0.168899 -0.568974 0 127 127
-0.279150 0.363263 -0.569090 0 127 127
0.252069 0.223626 -0.569090 0 127 127
-0.178102 -0.573694 -0.569090 127 0 127
-0.471574 -0.494536 -0.226527 0 127 127
0.443814 -0.454905 0.410033 0 127 127
-0.423501 0.199822 -0.216094 0 127 127
0.489892 0.429862 0.290292 0 127 127
0.441819 -0.305752 -0.209232 0 127 127
0.489892 0.066212 0.239411 0 127 127
-0.172039 0.388782 -0.569090 0 127 127
0.293897 -0.394934 -0.514286 0 127 127
-0.423501 0.341790 -0.280208 0 127 127
0.124778 0.780486 0.036456 0 127 127
-0.471574 -0.571693 -0.100935 0 127 127
0.143224 0.026679 -0.514286 0 127 127
-0.265978 -0.004436 0.489184 153 0 76
0.441819 0.460736 0.368758 0 127 127
-0.038957 0.072614 -0.569090 0 127 127
0.441819 0.673901 -0.210497 0 127 127
0.253402 0.329283 -0.569090 0 127 127
-0.317627 0.496435 -0.569090 0 127 127
0.038962 -0.447464 -0.569090 0 127 127
0.312253 -0.526551 -0.313119 0 127 127
-0.423501 0.098827 -0.263407 0 127 127
-0.401731 -0.364431 0.428301 153 0 76
-0.423501 0.505059 -0.240063 0 127 127
0.441819 0.221995 -0.370566 0 127 127
0.076541 -0.430843 0.428301 153 0 76
0.489892 0.243137 -0.269523 0 127 127
-0.423501 0.439884 -0.088678 0 127 127
-0.471574 -0.128179 -0.322972 0 127 127
-0.182397 0.626434 -0.569090 0 127 127
-0.003090 -0.066875 -0.514286 0 127 127
0.314605 -0.685740 0.495642 127 0 127
-0.015264 -0.020305 -0.569090 0 127 127
0.290079 -0.526551 -0.022215 0 127 127
0.488081 -0.401281 -0.569090 0 127 127
-0.416340 -0.321315 0.485028 153 0 76
0.240707 0.780486 -0.165578 0 127 127
-0.232303 -0.697532 0.434954 127 0 127
-0.185181 0.780486 0.015469 0 127 127
0.046372 -0.595342 0.124535 0 127 127
-0.335756 0.711695 -0.396010 0 127 127
0.479866 0.318985 0.428301 153 0 76
-0.272453 -0.538638 0.428301 153 0 76
-0.204318 -0.697532 -0.182108 127 0 127
0.176698 0.780486 0.151983 0 127 127
0.169632 -0.595342 -0.043741 0 127 127
-0.423501 -0.377822 -0.268655 0 127 127
0.441819 0.263478 -0.295876 0 127 127
0.230812 -0.376261 0.428301 153 0 76
-0.423501 0.651380 -0.415330 0 127 127
-0.030284 0.780486 0.365558 0 127 127
0.319891 0.780486 -0.059568 0 127 127
0.271910 0.394557 -0.514286 0 127 127
-0.423501 -0.254054 0.302623 0 127 127
-0.471574 0.588572 -0.189491 0 127 127
0.222904 0.367232 0.428301 153 0 76
-0.471574 -0.034282 -0.360154 0 127 127
-0.078162 0.780486 0.049993 0 127 127
-0.071315 0.471017 -0.569090 0 127 127
-0.303234 -0.188937 -0.569090 0 127 127
0.489892 0.089694 -0.452566 0 127 127
-0.454724 -0.548518 0.428301 153 0 76
-0.471574 -0.085471 0.293393 0 127 127
0.376073 -0.599259 0.283306 127 0 127
-0.101137 0.252288 -0.569090 0 127 127
-0.351671 -0.080483 0.483104 153 0 76
-0.471574 0.311852 -0.307340 0 127 127
0.179657 -0.697532 0.063180 127 0 127
0.489892 -0.308219 0.038862 0 127 127
-0.128449 0.723158 0.490999 153 0 76
-0.119458 -0.420881 0.491524 153 0 76
-0.260296 -0.248731 -0.514286 0 127 127
0.189095 0.780486 -0.036224 0 127 127
0.119169 -0.005891 -0.569090 0 127 127
-0.471574 0.207035 0.270182 0 127 127
0.489892 0.464004 -0.349126 0 127 127
0.489892 0.181934 -0.511100 0 127 127
0.489892 -0.370778 0.143221 0 127 127
-0.128569 -0.527595 0.428301 153 0 76
0.017210 0.732131 0.487681 153 0 76
0.489892 0.120765 -0.561371 0 127 127
-0.028795 -0.356244 -0.569090 0 127 127
0.489892 -0.131262 0.031722 0 127 127
-0.061365 0.639492 -0.569090 0 127 127
-0.423501 0.585498 -0.308379 0 127 127
-0.386456 0.780486 -0.367370 0 127 127
0.441819 -0.401376 0.136868 0 127 127
0.171246 -0.379210 -0.569090 0 127 127
-0.423501 -0.392766 -0.111737 0 127 127
-0.101699 0.711695 0.119725 0 127 127
0.441819 -0.169731 0.108762 0 127 127
-0.471574 0.008880 -0.513497 0 127 127
-0.068485 -0.526551 -0.355225 0 127 127
-0.423501 -0.476054 0.036004 0 127 127
-0.471574 0.607664 0.301951 0 127 127
0.193942 0.711695 0.219250 0 127 127
-0.091944 -0.599259 0.435690 127 0 127
-0.423501 -0.083205 0.027203 0 127 127
0.120109 0.709177 0.492178 153 0 76
0.392198 0.780486 -0.356530 0 127 127
-0.471574 0.636614 -0.510637 0 127 127
-0.130102 -0.595342 0.212544 0 127 127
-0.422467 0.257536 -0.569090 0 127 127
0.489892 -0.080877 -0.235774 0 127 127
-0.289691 -0.065455 -0.514286 0 127 127
-0.227413 -0.344523 0.490014 153 0 76
-0.471574 0.662785 0.207358 0 127 127
-0.430552 -0.518186 0.484533 153 0 76
-0.423501 -0.237579 -0.454394 0 127 127
0.031886 0.308588 -0.514286 0 127 127
-0.423501 0.038183 -0.417872 0 127 127
-0.263418 0.346389 0.483104 153 0 76
-0.030666 0.461803 0.493130 153 0 76
-0.276187 -0.252771 0.428301 153 0 76
-0.386655 0.534896 0.487493 153 0 76
-0.471574 -0.008292 -0.104859 0 127 127
-0.340746 0.043437 -0.569090 0 127 127
-0.133354 0.383030 -0.514286 0 127 127
0.489892 0.507900 0.250683 0 127 127
-0.325395 0.780486 0.067223 0 127 127
0.223215 -0.599259 -0.207502 127 0 127
0.441819 0.383085 -0.252883 0 127 127
0.441819 0.523549 -0.159362 0 127 127
0.503087 -0.650165 0.360571 127 0 127
-0.471574 0.412745 -0.352087 0 127 127
-0.204358 -0.202305 0.483104 153 0 76
0.441819 0.183537 -0.185895 0 127 127
-0.423501 0.586478 -0.366889 0 127 127
-0.423501 0.232165 -0.401577 0 127 127
-0.173277 0.711695 0.059299 0 127 127
-0.423501 0.353606 -0.424648 0 127 127
0.138085 -0.208630 -0.514286 0 127 127
0.166030 -0.508216 -0.514286 0 127 127
-0.423501 0.539816 0.013319 0 127 127
-0.455234 -0.697532 -0.050796 127 0 127
-0.413886 0.634547 0.410851 153 0 76
0.381298 0.184025 0.428301 153 0 76
-0.423501 0.397711 -0.266215 0 127 127
0.441819 -0.487164 0.061754 0 127 127
-0.074191 -0.599259 -0.232886 0 127 127
-0.423501 0.155193 -0.126147 0 127 127
0.034159 -0.098407 -0.569090 0 127 127
-0.471574 -0.281500 0.383258 0 127 127
0.183437 0.674575 -0.514286 0 127 127
-0.194999 -0.016515 0.428301 153 0 76
0.441819 -0.095460 -0.502949 0 127 127
-0.166525 -0.110412 -0.514286 0 127 127
-0.391460 0.711695 -0.456095 0 127 127
-0.471574 0.175997 -0.369593 0 127 127
-0.255497 0.477925 0.428301 153 0 76
-0.096639 0.003170 -0.514286 0 127 127
0.431214 -0.599259 0.383362 127 0 127
0.276637 0.114786 -0.569090 0 127 127
-0.431965 0.325951 0.484484 153 0 76
-0.168656 -0.229721 0.428301 153 0 76
-0.423501 -0.096707 0.375174 0 127 127
0.428966 0.078720 -0.514286 0 127 127
0.232358 -0.697532 0.301378 127 0 127
-0.423501 0.510281 0.099634 0 127 127
0.447007 0.158202 0.484598 153 0 76
-0.084355 -0.697532 0.217742 127 0 127
0.441819 0.284132 -0.130101 0 127 127
-0.194428 -0.697532 0.252908 127 0 127
0.441819 -0.305409 -0.124496 0 127 127
0.251058 -0.201439 0.489921 153 0 76
0.498078 -0.697532 0.452804 127 0 127
0.429562 0.780486 0.246955 0 127 127
-0.056475 0.780486 -0.005676 0 127 127
0.453873 -0.624567 -0.573028 127 0 127
-0.423407 -0.491478 -0.051749 0 127 127
0.441819 0.314825 -0.277650 0 127 127
-0.423501 -0.054701 0.338813 0 127 127
-0.324944 0.435235 0.483104 153 0 76
0.441819 -0.459819 0.108704 0 127 127
0.144371 -0.502896 0.428301 153 0 76
-0.384001 0.396210 -0.569090 0 127 127
0.489892 0.342266 -0.318874 0 127 127
-0.418405 0.780486 0.144474 0 127 127
0.138061 0.780486 -0.260544 0 127 127
0.441819 0.071413 0.161003 0 127 127
-0.423501 -0.066915 0.208388 0 127 127
-0.423501 0.320899 0.336314 0 127 127
-0.471574 0.288944 0.385682 0 127 127
-0.477608 -0.625447 -0.090943 127 0 127
-0.424550 -0.599259 -0.303109 0 127 127
0.018278 -0.599259 -0.136017 127 0 127
0.489892 0.559556 -0.515407 0 127 127
-0.359373 -0.316902 0.428301 153 0 76
-0.423501 0.335013 -0.094721 0 127 127
0.186392 -0.697532 -0.051919 127 0 127
-0.122664 -0.526551 0.014910 0 127 127
-0.341941 -0.526551 -0.277670 0 127 127
0.489892 -0.132079 -0.131301 0 127 127
-0.188667 -0.491657 -0.514286 0 127 127
-0.212289 0.780486 -0.084796 0 127 127
0.441819 0.570471 -0.358019 0 127 127
0.484027 -0.599259 0.478418 153 0 76
0.441819 0.015136 0.253905 0 127 127
-0.471574 -0.528239 0.190951 0 127 127
0.007404 0.366298 -0.569090 0 127 127
-0.064897 0.780486 -0.112408 0 127 127
0.246506 0.780486 0.013952 0 127 127
0.201560 -0.599259 -0.156809 0 127 127
0.441819 -0.019221 0.189038 0 127 127
0.082451 -0.595304 0.492006 127 0 127
0.489892 -0.027558 -0.300909 0 127 127
0.489892 0.143120 0.338796 0 127 127
0.042012 -0.159545 -0.514286 0 127 127
-0.270694 -0.599259 0.346085 0 127 127
-0.360163 -0.599259 0.195184 127 0 127
0.441819 -0.104060 0.174886 0 127 127
-0.471574 -0.204009 0.318255 0 127 127
0.485974 0.055037 -0.569090 0 127 127
-0.350616 0.780486 -0.467388 0 127 127
-0.077586 -0.595342 -0.341141 127 0 127
0.110081 -0.266476 0.491787 153 0 76
-0.333823 0.711695 0.242474 0 127 127
0.489892 0.206113 -0.107449 0 127 127
0.489892 -0.091949 0.444176 153 0 76
0.489892 0.539073 -0.219627 0 127 127
0.432204 -0.104159 0.413724 153 0 76
-0.234309 -0.160315 0.428301 153 0 76
0.489892 0.254671 -0.339588 0 127 127
-0.130817 0.117351 0.491416 153 0 76
0.086224 -0.195654 -0.569090 0 127 127
-0.471574 0.277568 0.162807 0 127 127
0.192057 -0.526551 0.374983 0 127 127
-0.212308 0.522515 -0.569090 0 127 127
-0.098545 -0.510833 -0.514286 0 127 127
-0.130771 -0.482299 -0.569090 0 127 127
0.489892 -0.418298 -0.010584 0 127 127
0.283253 -0.526551 0.230996 0 127 127
-0.423501 0.360535 0.030191 0 127 127
0.367310 -0.599259 -0.015712 0 127 127
-0.471574 -0.467773 0.086045 0 127 127
0.389993 0.130507 0.428301 153 0 76
0.008759 -0.526551 0.074985 0 127 127
-0.361650 0.172053 -0.514286 0 127 127
0.161813 -0.599259 -0.358046 127 0 127
0.096376 0.557612 -0.569090 0 127 127
0.233265 0.378173 0.483104 153 0 76
0.165589 -0.526551 -0.313316 0 127 127
-0.370004 -0.624610 -0.573028 127 0 127
-0.298317 -0.697532 -0.232422 127 0 127
-0.273433 -0.526551 0.066506 0 127 127
0.489892 0.525068 -0.274889 0 127 127
-0.311027 0.780486 -0.122780 0 127 127
0.489892 0.025660 0.008640 0 127 127
0.334301 -0.599259 0.115557 0 127 127
0.489892 -0.348432 0.377218 0 127 127
0.374316 0.780486 0.139032 0 127 127
0.360408 -0.697532 0.174575 127 0 127
-0.423501 0.628980 0.239627 0 127 127
-0.019654 0.237796 0.428301 153 0 76
-0.186725 -0.697532 -0.374898 127 0 127
0.467245 -0.697532 0.189673 127 0 127
0.441819 0.221048 -0.046008 0 127 127
-0.423501 0.499570 -0.108730 0 127 127
-0.452032 0.780486 -0.095096 0 127 127
0.154205 -0.697532 -0.101227 127 0 127
0.503087 -0.659319 -0.438743 127 0 127
-0.382515 -0.260743 -0.569090 0 127 127
-0.139047 -0.599259 -0.043482 127 0 127
0.489892 -0.271901 -0.440081 0 127 127
-0.100010 -0.042647 0.491708 153 0 76
-0.272845 -0.634708 0.495642 127 0 127
0.282976 0.780486 -0.398500 0 127 127
-0.245086 0.739709 0.399107 0 127 127
0.489892 0.532912 -0.092272 0 127 127
-0.098219 0.338561 0.428301 153 0 76
0.068092 0.009868 -0.569090 0 127 127
-0.236939 -0.697532 -0.139775 127 0 127
-0.153792 -0.599259 -0.148752 127 0 127
0.499212 -0.697532 0.328187 127 0 127
-0.011213 -0.382072 0.492174 153 0 76
-0.423501 -0.129432 -0.436093 0 127 127
0.106462 -0.526551 -0.128977 0 127 127
-0.423501 0.450160 0.307417 0 127 127
-0.137450 -0.285098 0.491353 153 0 76
-0.161461 0.673580 0.483104 153 0 76
-0.257820 0.046477 -0.569090 0 127 127
-0.363871 -0.503853 0.428301 153 0 76
0.485768 -0.218806 0.483248 153 0 76
-0.087055 -0.334357 -0.514286 0 127 127
-0.322399 -0.599259 0.407581 0 127 127
0.489892 -0.121092 0.146387 0 127 127
0.363057 0.280999 -0.569090 0 127 127
0.140517 -0.697532 0.347597 127 0 127
0.219706 0.753684 0.416389 153 0 76
-0.423501 0.197021 -0.048582 0 127 127
0.258731 -0.104433 0.483104 153 0 76
-0.471574 0.466616 -0.047488 0 127 127
0.441819 0.320693 -0.384772 0 127 127
0.489892 -0.338927 -0.277373 0 127 127
0.290884 0.477965 -0.569090 0 127 127
0.489892 -0.031284 -0.104241 0 127 127
-0.469288 0.780486 -0.465565 0 127 127
-0.458205 0.728870 0.428301 153 0 76
0.441819 -0.255648 -0.306059 0 127 127
0.043403 0.780486 -0.224365 0 127 127
-0.104099 -0.679816 0.495642 127 0 127
0.489892 0.306911 -0.358894 0 127 127
0.172277 0.156235 0.483104 153 0 76
0.489892 0.630252 -0.363070 0 127 127
-0.356365 -0.490931 -0.514286 0 127 127
0.087794 0.153192 -0.514286 0 127 127
-0.471574 -0.448111 -0.053792 0 127 127
0.489892 0.285804 -0.506046 0 127 127
-0.423501 0.654118 0.286772 0 127 127
0.441819 0.464294 0.025737 0 127 127
-0.423501 -0.280514 -0.091335 0 127 127
0.489892 -0.480665 -0.013313 0 127 127
-0.203404 0.427345 -0.514286 0 127 127
0.489892 0.385113 0.153307 0 127 127
0.489892 0.407547 -0.528455 0 127 127
0.467798 -0.697532 0.136496 127 0 127
0.066835 0.780486 0.423456 0 127 127
-0.093447 0.744750 0.429557 153 0 76
0.177325 0.711695 0.381151 0 127 127
0.371585 -0.303134 0.486983 153 0 76
-0.473497 0.774323 0.376180 0 127 127
0.060877 0.711695 -0.342552 0 127 127
0.161819 0.437586 0.483104 153 0 76
0.359281 0.541173 -0.569090 0 127 127
0.489892 -0.031019 -0.394093 0 127 127
0.425552 0.581366 0.428301 153 0 76
-0.471574 0.610685 0.062923 0 127 127
-0.219542 0.577985 0.428301 153 0 76
0.007694 -0.479978 0.428301 153 0 76
0.150654 0.260936 0.483104 153 0 76
-0.053197 -0.341992 0.483104 153 0 76
-0.471574 0.091789 -0.470681 0 127 127
-0.454665 0.367133 0.428301 153 0 76
-0.471574 0.255484 -0.274603 0 127 127
0.062539 0.780486 0.309528 0 127 127
-0.423501 0.394433 -0.382313 0 127 127
0.441819 -0.355123 0.108615 0 127 127
-0.471574 0.133281 0.209030 0 127 127
-0.269324 0.192449 0.428301 153 0 76
0.108531 -0.196853 0.428301 153 0 76
-0.423501 -0.090245 0.091595 0 127 127
0.441819 -0.175836 0.334926 0 127 127
-0.349167 -0.595342 -0.381381 0 127 127
0.199681 0.711695 -0.093652 0 127 127
-0.326733 0.347578 0.488442 153 0 76
0.489892 -0.438483 -0.208411 0 127 127
-0.471574 -0.370266 0.295512 0 127 127
-0.423501 -0.290406 -0.447610 0 127 127
0.072562 -0.599259 -0.415574 0 127 127
-0.109999 -0.526551 -0.465311 0 127 127
0.436486 -0.136465 0.483104 153 0 76
-0.471574 -0.365341 0.136863 0 127 127
-0.036553 0.730938 0.428301 153 0 76
0.441819 -0.030713 -0.147325 0 127 127
0.285529 -0.222275 -0.514286 0 127 127
0.489892 0.541439 0.209661 0 127 127
0.270017 -0.595342 -0.523992 0 127 127
-0.134680 0.780486 0.056052 0 127 127
-0.248548 -0.697532 -0.414186 127 0 127
0.441819 -0.116162 0.008556 0 127 127
-0.423501 0.542719 0.254312 0 127 127
0.491815 0.752070 -0.197099 0 127 127
0.391725 -0.623215 0.495642 127 0 127
-0.025977 -0.697532 -0.520103 127 0 127
0.093926 0.250834 0.428301 153 0 76
-0.238955 0.740352 0.464836 153 0 76
-0.147925 -0.697532 -0.016828 127 0 127
-0.423501 -0.443692 -0.277540 0 127 127
-0.413281 -0.043934 0.428301 153 0 76
-0.471574 0.648663 -0.029955 0 127 127
0.469565 -0.599259 0.424351 127 0 127
0.059992 0.711695 0.054763 0 127 127
0.292145 -0.374951 0.483104 153 0 76
-0.471574 -0.567728 0.065912 0 127 127
-0.471574 -0.393996 0.192325 0 127 127
-0.471574 0.368983 0.150167 0 127 127
-0.471574 0.235140 0.051222 0 127 127
0.489892 -0.177347 0.285410 0 127 127
0.135686 -0.305451 0.428301 153 0 76
-0.471574 -0.192387 -0.458210 0 127 127
-0.471574 -0.449467 0.355061 0 127 127
-0.172337 -0.595342 -0.216543 127 0 127
0.489892 0.145519 0.286365 0 127 127
0.001284 0.570034 0.492213 153 0 76
0.489892 0.139369 -0.182933 0 127 127
0.299085 0.711695 0.082647 0 127 127
0.466176 -0.697532 -0.112621 127 0 127
0.115127 -0.697532 -0.007713 127 0 127
-0.334223 -0.595342 -0.059955 127 0 127
0.452382 0.680728 0.399107 153 0 76
0.441819 -0.194908 -0.064674 0 127 127
-0.471574 0.050764 -0.171136 0 127 127
-0.168507 -0.526551 -0.223047 0 127 127
0.055311 -0.508202 -0.569090 0 127 127
-0.342970 -0.697532 -0.042982 127 0 127
0.303988 0.011247 0.488747 153 0 76
-0.028075 -0.526551 -0.449846 0 127 127
0.070498 0.497447 0.483104 153 0 76
-0.423501 -0.410614 -0.472876 0 127 127
0.160169 0.381685 0.428301 153 0 76
-0.471574 0.268802 -0.396655 0 127 127
-0.423501 0.607971 0.137467 0 127 127
0.216961 -0.283204 0.428301 153 0 76
-0.214937 0.079541 -0.569090 0 127 127
0.336155 -0.444570 0.428301 153 0 76
0.323393 -0.697532 -0.420484 127 0 127
0.188901 -0.619282 0.495642 127 0 127
0.489892 -0.130793 -0.336867 0 127 127
0.441819 -0.206337 -0.392499 0 127 127
-0.213723 -0.526551 -0.192248 0 127 127
0.418444 0.780486 -0.095188 0 127 127
0.033778 0.780486 -0.518352 0 127 127
0.248724 -0.697532 -0.296240 127 0 127
-0.366802 0.484558 0.428301 153 0 76
0.007903 -0.411689 -0.514286 0 127 127
0.330545 -0.444196 -0.514286 0 127 127
0.458922 -0.599259 0.219086 127 0 127
0.025137 -0.595342 0.450787 153 0 76
0.441819 0.643628 0.099321 0 127 127
0.240124 -0.651695 -0.573028 127 0 127
-0.471574 0.368001 -0.236985 0 127 127
-0.184314 0.780486 0.286710 0 127 127
-0.423501 -0.094030 -0.233129 0 127 127
0.339594 0.514004 0.428301 153 0 76
0.489892 0.697665 0.354259 0 127 127
0.441819 0.582389 0.011885 0 127 127
-0.423501 -0.436235 -0.381713 0 127 127
-0.073239 0.780486 -0.285653 0 127 127
0.200592 0.776162 -0.569090 0 127 127
0.489892 0.364514 0.390137 0 127 127
-0.226384 -0.599259 -0.285226 0 127 127
0.441819 0.150758 -0.250476 0 127 127
-0.233106 0.398125 -0.569090 0 127 127
-0.471574 0.126454 -0.513352 0 127 127
-0.471574 0.688619 -0.512123 0 127 127
-0.318159 0.744750 0.457568 0 127 127
0.441819 0.307588 0.311843 0 127 127
-0.222623 0.711695 0.011087 0 127 127
0.264486 -0.599259 -0.350799 127 0 127
0.441819 0.455193 0.115549 0 127 127
-0.439790 0.780486 -0.523677 0 127 127
0.441819 -0.163201 -0.297255 0 127 127
-0.325785 0.301298 -0.569090 0 127 127
-0.454925 -0.261725 0.428301 153 0 76
0.020295 0.470570 0.428301 153 0 76
0.115886 -0.526551 0.342719 0 127 127
0.231887 -0.697532 -0.449088 127 0 127
0.441432 -0.493543 0.375434 0 127 127
-0.001065 -0.344681 0.428301 153 0 76
0.171440 -0.526551 0.055494 0 127 127
-0.453574 -0.599259 -0.511964 127 0 127
0.405270 0.707470 -0.514286 0 127 127
-0.233793 -0.599259 0.066408 0 127 127
0.441819 0.291044 -0.052652 0 127 127
-0.471574 0.289972 0.044325 0 127 127
0.420597 0.780486 -0.565024 0 127 127
0.079220 0.780486 0.108737 0 127 127
0.273427 0.711695 0.157117 0 127 127
-0.423501 0.191927 -0.164860 0 127 127
0.489892 -0.146238 -0.226484 0 127 127
0.429247 -0.697532 -0.422830 127 0 127
0.441819 0.001865 0.304384 0 127 127
0.489892 -0.477015 0.141741 0 127 127
0.363036 -0.595342 -0.098248 0 127 127
0.009474 -0.697532 -0.324643 127 0 127
-0.252439 -0.697532 -0.523753 127 0 127
0.152674 -0.697532 -0.369615 127 0 127
0.441819 0.411314 0.273652 0 127 127
0.056991 0.555782 -0.514286 0 127 127
-0.418389 0.149309 -0.569090 0 127 127
-0.471574 0.081880 -0.008729 0 127 127
0.489892 0.591200 0.150922 0 127 127
-0.442422 -0.697532 -0.244770 127 0 127
-0.071838 -0.449449 0.491976 153 0 76
-0.087470 0.780486 0.246209 0 127 127
-0.404039 0.586327 0.428301 153 0 76
-0.440365 0.261264 0.484191 153 0 76
-0.423501 -0.291422 -0.345230 0 127 127
-0.031228 0.630579 0.483104 153 0 76
0.155469 0.563951 -0.569090 0 127 127
0.072919 0.352672 0.428301 153 0 76
0.441819 -0.462523 0.304359 0 127 127
-0.346707 -0.213457 0.428301 153 0 76
-0.423501 -0.405784 0.354209 0 127 127
0.432222 -0.514064 -0.065952 0 127 127
-0.423501 0.386252 -0.215751 0 127 127
0.069778 0.711695 -0.028655 0 127 127
-0.471574 0.560259 -0.566202 0 127 127
0.174595 -0.526551 -0.416420 0 127 127
-0.070956 -0.697532 -0.313471 127 0 127
-0.028981 -0.599259 0.277122 127 0 127
0.441819 -0.105567 0.291189 0 127 127
0.441819 -0.085602 -0.373971 0 127 127
-0.116920 -0.595342 -0.261973 0 127 127
0.251952 0.452138 -0.514286 0 127 127
0.025044 -0.202675 -0.569090 0 127 127
0.489892 0.359601 -0.098290 0 127 127
0.410199 -0.324037 0.428301 153 0 76
-0.053445 0.234432 -0.514286 0 127 127
-0.306387 -0.059684 0.428301 153 0 76
-0.471574 0.072902 -0.337308 0 127 127
-0.019073 0.420046 0.428301 153 0 76
-0.182314 -0.697532 0.195054 127 0 127
-0.471574 -0.213920 0.004650 0 127 127
0.489892 -0.286691 -0.549971 0 127 127
-0.423501 -0.301298 0.004470 0 127 127
-0.146411 -0.352573 -0.569090 0 127 127
0.441819 0.211145 0.139305 0 127 127
0.050980 -0.635843 -0.573028 127 0 127
0.336027 0.744750 0.438511 153 0 76
0.156062 -0.595342 0.231106 127 0 127
0.489892 -0.059201 -0.149474 0 127 127
-0.471574 -0.355689 -0.129658 0 127 127
0.247584 -0.697532 0.415041 127 0 127
-0.327284 -0.697532 -0.471621 127 0 127
0.491815 0.736059 0.216924 0 127 127
-0.323442 -0.526551 -0.471234 0 127 127
0.441819 0.550466 0.074433 0 127 127
-0.423501 -0.153970 -0.061460 0 127 127
-0.471574 -0.410913 0.261199 0 127 127
0.489892 0.037079 -0.190714 0 127 127
0.146038 -0.599259 0.151907 0 127 127
0.166306 -0.399175 0.428301 153 0 76
-0.356725 -0.599259 0.459235 127 0 127
-0.043757 -0.697532 0.007853 127 0 127
0.384652 0.063122 -0.569090 0 127 127
0.441819 -0.473433 -0.328291 0 127 127
-0.471574 0.749116 -0.377365 0 127 127
-0.193634 -0.526551 0.371734 0 127 127
0.441819 -0.204371 -0.185603 0 127 127
0.264637 -0.526551 0.297033 0 127 127
0.203425 -0.074753 -0.514286 0 127 127
0.489892 -0.436840 -0.303419 0 127 127
-0.269024 0.711695 -0.387350 0 127 127
-0.165665 0.711695 0.172519 0 127 127
0.258110 -0.599259 -0.462587 0 127 127
-0.321671 -0.595342 0.092501 127 0 127
-0.013848 -0.622215 0.495642 127 0 127
0.301571 -0.697532 0.095911 127 0 127
0.255057 0.514779 0.428301 153 0 76
