-0.357140 0.349697 0.190567 0.500000 0.000000 0.500000
0.507938 -0.053075 -0.025231 0.800000 0.200000 0.500000
-0.317925 0.404153 -0.105161 0.300000 0.000000 0.600000
-0.653358 0.359416 0.215506 0.300000 0.000000 0.600000
0.716383 -0.551869 0.137516 0.800000 0.200000 0.500000
-0.242777 -0.551869 0.145658 0.800000 0.200000 0.500000
0.473845 0.067064 0.190567 0.300000 0.600000 0.000000
-0.614886 -0.053075 0.044084 0.800000 0.200000 0.500000
-0.482681 -0.053075 -0.021981 0.800000 0.200000 0.500000
0.069436 0.192165 -0.112291 0.300000 0.000000 0.600000
0.098813 0.201407 0.215506 0.300000 0.600000 0.000000
0.101742 0.157842 0.190567 0.000000 1.000000 0.000000
0.244643 -0.005671 -0.162746 0.500000 0.500000 0.000000
0.132694 0.133973 -0.164192 0.500000 0.500000 0.000000
-0.212962 0.138129 -0.109542 0.600000 0.000000 0.300000
0.338710 0.264142 -0.183529 0.600000 0.300000 0.000000
0.769576 0.158255 0.079478 0.600000 0.000000 0.300000
0.087306 0.289882 -0.162746 0.600000 0.300000 0.000000
-0.602885 -0.084020 -0.208468 0.600000 0.300000 0.000000
0.328975 0.026135 0.096602 0.600000 0.300000 0.000000
0.034243 0.168679 -0.208468 0.600000 0.300000 0.000000
0.744636 -0.637758 0.207618 0.000000 0.000000 1.000000
0.569100 0.404153 0.152013 0.300000 0.000000 0.600000
0.031377 -0.024206 0.215506 0.000000 0.000000 1.000000
0.283252 0.280007 -0.082369 0.600000 0.000000 0.300000
0.180111 0.138129 -0.026320 0.600000 0.000000 0.300000
-0.248795 0.318210 0.135399 0.300000 0.000000 0.600000
0.148110 0.404153 0.148501 0.300000 0.000000 0.600000
-0.575731 0.387896 -0.208468 0.600000 0.300000 0.000000
0.233586 -0.526929 0.053434 0.800000 0.200000 0.500000
0.316106 -0.551869 0.172206 0.800000 0.200000 0.500000
-0.110920 -0.078015 0.148560 0.800000 0.200000 0.500000
0.153356 0.138129 0.170900 0.600000 0.000000 0.300000
0.789220 0.246040 0.190567 0.600000 0.000000 0.300000
0.794516 0.101241 -0.022965 0.600000 0.000000 0.300000
0.397210 0.044821 -0.183529 0.600000 0.300000 0.000000
-0.672482 -0.053075 0.164124 0.800000 0.200000 0.500000
0.122987 -0.526929 0.200666 0.800000 0.200000 0.500000
0.240336 0.379213 -0.168327 0.300000 0.000000 0.600000
0.405390 0.404153 0.168843 0.300000 0.000000 0.600000
0.536121 0.007559 0.190567 0.300000 0.600000 0.000000
-0.367484 0.404153 0.101628 0.300000 0.000000 0.600000
-0.710784 -0.053075 -0.130382 0.800000 0.200000 0.500000
0.779040 0.404153 -0.023742 0.600000 0.000000 0.300000
-0.109706 0.062486 -0.162746 0.500000 0.500000 0.000000
-0.696736 -0.078015 0.090613 0.800000 0.200000 0.500000
0.374697 0.151292 0.191749 0.300000 0.600000 0.000000
0.494011 -0.053075 0.143023 0.800000 0.200000 0.500000
0.299878 0.283441 0.120926 0.600000 0.000000 0.300000
-0.706218 0.404153 -0.184643 0.600000 0.300000 0.000000
-0.300434 -0.551869 -0.112912 0.800000 0.200000 0.500000
-0.539927 -0.102954 0.204188 0.500000 0.000000 0.500000
-0.239374 0.388186 0.215506 0.300000 0.000000 0.600000
0.698914 0.273087 0.197809 0.300000 0.600000 0.000000
-0.645740 -0.576809 -0.194021 0.800000 0.200000 0.500000
-0.113664 0.199211 0.215506 0.300000 0.600000 0.000000
-0.294518 0.320364 0.178150 0.300000 0.000000 0.600000
-0.248795 0.012274 -0.131087 0.000000 1.000000 0.000000
-0.270805 0.082561 -0.208468 0.600000 0.300000 0.000000
0.240830 -0.102954 -0.192776 0.600000 0.300000 0.000000
-0.191358 0.404153 0.035920 0.300000 0.000000 0.600000
-0.228689 0.207041 -0.162746 0.600000 0.300000 0.000000
0.063553 0.169909 -0.162746 0.600000 0.300000 0.000000
0.020240 0.241896 -0.162746 0.600000 0.300000 0.000000
0.784930 -0.576809 -0.009995 0.800000 0.200000 0.500000
0.769576 -0.059511 -0.095117 0.600000 0.000000 0.300000
-0.565024 -0.551869 0.047221 0.800000 0.200000 0.500000
-0.760059 -0.534197 0.093384 0.800000 0.200000 0.500000
0.755372 0.161911 0.215506 0.000000 0.000000 1.000000
-0.199682 0.234286 0.190567 0.300000 0.600000 0.000000
0.328975 0.248959 0.072792 0.600000 0.300000 0.000000
0.381291 -0.536041 0.215506 0.800000 0.200000 0.500000
0.007639 0.228232 -0.208468 0.600000 0.300000 0.000000
-0.259750 0.404153 -0.134340 0.300000 0.000000 0.600000
-0.721979 -0.331968 -0.183529 0.000000 1.000000 0.000000
0.547778 0.102344 0.190567 0.300000 0.600000 0.000000
0.483052 0.404153 -0.086090 0.300000 0.000000 0.600000
-0.085137 -0.035763 -0.162746 0.500000 0.500000 0.000000
-0.039115 -0.102954 -0.198422 0.600000 0.300000 0.000000
0.647776 -0.526929 0.082893 0.800000 0.200000 0.500000
-0.661835 0.379213 0.098685 0.300000 0.000000 0.600000
-0.016545 0.163069 0.098021 0.600000 0.000000 0.300000
-0.028867 0.035981 0.231794 0.800000 0.200000 0.500000
-0.710179 0.047202 -0.185682 0.600000 0.300000 0.000000
0.794516 -0.535718 0.075038 0.800000 0.200000 0.500000
-0.081006 0.089238 0.190567 0.000000 0.000000 1.000000
-0.192192 0.203327 -0.208468 0.600000 0.300000 0.000000
0.284417 0.192165 0.038526 0.600000 0.000000 0.300000
-0.038441 0.379213 0.180064 0.300000 0.000000 0.600000
0.764536 0.254238 -0.208468 1.000000 0.000000 0.000000
0.317925 0.111430 0.190567 1.000000 0.000000 0.000000
0.667845 0.192394 -0.183529 0.600000 0.300000 0.000000
-0.394274 0.003630 -0.208468 0.600000 0.300000 0.000000
-0.536843 -0.526929 -0.003865 0.800000 0.200000 0.500000
-0.525150 -0.053075 0.082233 0.800000 0.200000 0.500000
0.328975 0.020701 -0.109101 0.600000 0.300000 0.000000
0.004879 -0.053075 0.186096 0.800000 0.200000 0.500000
0.027961 0.090494 0.190567 0.000000 0.000000 1.000000
0.305382 -0.025638 -0.208468 0.600000 0.300000 0.000000
-0.401801 0.400421 -0.208468 0.600000 0.300000 0.000000
0.174839 -0.102954 0.214569 0.500000 0.000000 0.500000
0.320220 0.075858 -0.208468 0.600000 0.300000 0.000000
0.015166 -0.078015 -0.009791 0.800000 0.200000 0.500000
-0.760059 -0.464721 -0.203097 0.000000 1.000000 0.000000
0.243894 -0.534267 0.215506 0.800000 0.200000 0.500000
-0.675607 0.379213 0.019266 0.300000 0.000000 0.600000
-0.664056 0.228077 0.215506 0.500000 0.000000 0.500000
-0.287746 -0.526929 0.186266 0.800000 0.200000 0.500000
-0.202560 -0.078015 0.046062 0.800000 0.200000 0.500000
0.416272 0.196297 -0.183529 0.600000 0.300000 0.000000
-0.437799 -0.000536 -0.183529 0.600000 0.300000 0.000000
0.558614 0.265562 0.198880 0.300000 0.600000 0.000000
-0.714825 -0.191521 -0.208468 0.000000 1.000000 0.000000
0.170911 0.205208 0.215506 0.300000 0.600000 0.000000
0.432552 0.062150 -0.208468 0.600000 0.300000 0.000000
-0.760059 0.147895 -0.108384 0.300000 0.000000 0.600000
0.181071 0.379213 0.097667 0.300000 0.000000 0.600000
0.611840 0.379213 0.042004 0.300000 0.000000 0.600000
0.198621 0.125160 -0.183529 0.600000 0.300000 0.000000
-0.295424 0.404153 -0.003334 0.300000 0.000000 0.600000
0.360186 -0.053075 -0.083731 0.800000 0.200000 0.500000
0.696278 0.379213 -0.002378 0.300000 0.000000 0.600000
0.573751 -0.053075 0.166314 0.800000 0.200000 0.500000
-0.710179 -0.287944 -0.194087 0.000000 1.000000 0.000000
-0.651795 -0.053075 -0.165164 0.800000 0.200000 0.500000
0.395656 -0.053075 -0.159926 0.800000 0.200000 0.500000
-0.047105 0.001574 -0.208468 0.600000 0.300000 0.000000
-0.712994 0.143548 0.215506 0.500000 0.500000 0.000000
0.293744 0.349987 -0.208468 0.600000 0.300000 0.000000
0.377954 0.404153 -0.156625 0.300000 0.000000 0.600000
0.782341 0.404153 0.119774 0.600000 0.000000 0.300000
0.091511 0.303255 0.215506 0.300000 0.600000 0.000000
0.153153 0.238049 -0.162746 0.600000 0.300000 0.000000
-0.194405 -0.576809 0.209294 0.800000 0.200000 0.500000
0.707571 0.404153 0.176665 0.300000 0.000000 0.600000
-0.735119 0.217970 0.003656 0.300000 0.000000 0.600000
-0.248795 0.295617 0.050013 0.300000 0.000000 0.600000
0.294902 -0.053075 0.144018 0.800000 0.200000 0.500000
0.676357 -0.014491 -0.208468 0.600000 0.300000 0.000000
-0.124003 0.000233 -0.179372 0.500000 0.500000 0.000000
0.358656 0.124926 -0.183529 0.600000 0.300000 0.000000
-0.735119 0.310163 -0.024170 0.300000 0.000000 0.600000
0.399497 0.379213 -0.050868 0.300000 0.000000 0.600000
0.335170 -0.078015 0.085194 0.800000 0.200000 0.500000
-0.250567 0.167226 0.012254 0.300000 0.000000 0.600000
0.019503 0.381230 0.215506 0.300000 0.000000 0.600000
0.489422 -0.551869 -0.094587 0.800000 0.200000 0.500000
0.355012 -0.102954 -0.199373 0.600000 0.300000 0.000000
0.215082 -0.032292 -0.120438 0.500000 0.000000 0.500000
0.395886 -0.526929 0.026155 0.800000 0.200000 0.500000
-0.710179 0.380072 0.205368 0.300000 0.000000 0.600000
-0.075826 0.163069 0.151710 0.600000 0.000000 0.300000
0.794516 0.167453 0.144485 0.600000 0.000000 0.300000
0.744125 0.033842 0.196128 0.000000 0.500000 0.500000
-0.573100 0.080884 0.190567 0.500000 0.000000 0.500000
-0.338406 -0.551869 0.039432 0.800000 0.200000 0.500000
-0.581064 0.379213 -0.109631 0.300000 0.000000 0.600000
0.484394 -0.576809 -0.204035 0.800000 0.200000 0.500000
-0.389112 -0.078015 0.003683 0.800000 0.200000 0.500000
-0.707116 0.286810 0.219507 0.600000 0.300000 0.000000
0.749287 -0.541614 0.215506 0.000000 0.000000 1.000000
0.341269 0.404153 -0.068754 0.300000 0.000000 0.600000
0.619794 0.404153 0.207125 0.300000 0.000000 0.600000
0.207632 -0.032292 0.135055 0.500000 0.000000 0.500000
-0.598499 0.379213 0.026142 0.300000 0.000000 0.600000
0.389170 -0.053075 -0.206624 0.600000 0.300000 0.000000
0.201098 -0.526929 0.085990 0.800000 0.200000 0.500000
-0.294518 0.205860 0.046119 0.300000 0.000000 0.600000
0.610258 -0.053075 -0.198124 0.600000 0.300000 0.000000
0.000771 0.293243 -0.208468 0.600000 0.300000 0.000000
0.328975 0.163516 0.008417 0.600000 0.300000 0.000000
0.232544 -0.065004 0.190567 0.800000 0.200000 0.500000
-0.363775 0.145662 -0.208468 0.600000 0.300000 0.000000
0.561721 -0.551869 0.143943 0.800000 0.200000 0.500000
0.544236 0.379213 -0.080170 0.300000 0.000000 0.600000
-0.058070 0.350117 -0.165610 0.600000 0.300000 0.000000
0.769576 0.192364 -0.001224 0.600000 0.000000 0.300000
-0.678559 0.379213 -0.100314 0.300000 0.000000 0.600000
-0.242717 -0.078015 -0.157773 0.800000 0.200000 0.500000
0.745163 -0.008569 -0.183529 1.000000 0.000000 0.000000
-0.485256 0.090973 -0.183529 0.600000 0.300000 0.000000
0.412001 0.379213 0.086676 0.300000 0.000000 0.600000
0.645990 -0.551869 -0.052071 0.800000 0.200000 0.500000
-0.269578 0.000723 0.058054 0.300000 0.000000 0.600000
0.063194 -0.023979 0.001768 0.500000 0.000000 0.500000
-0.248795 0.339528 -0.045373 0.300000 0.000000 0.600000
0.769576 0.002024 0.003347 0.600000 0.000000 0.300000
-0.057790 0.138129 -0.060819 0.600000 0.000000 0.300000
-0.477124 0.151482 0.190567 0.500000 0.000000 0.500000
0.222330 0.379213 -0.087121 0.300000 0.000000 0.600000
0.011080 -0.006498 -0.208468 0.600000 0.300000 0.000000
-0.727545 0.404153 -0.087688 0.300000 0.000000 0.600000
-0.566572 -0.551869 0.106805 0.800000 0.200000 0.500000
0.794516 0.238308 -0.136550 0.600000 0.000000 0.300000
-0.218775 0.404153 -0.155904 0.300000 0.000000 0.600000
-0.662606 0.314679 0.215506 0.500000 0.000000 0.500000
0.256606 0.295534 -0.208468 0.600000 0.300000 0.000000
0.146220 -0.053075 0.075161 0.800000 0.200000 0.500000
-0.513069 0.404153 -0.013940 0.300000 0.000000 0.600000
0.410473 -0.551869 -0.058873 0.800000 0.200000 0.500000
-0.722250 -0.551869 0.074896 0.800000 0.200000 0.500000
-0.182219 -0.526929 0.004160 0.800000 0.200000 0.500000
0.008995 0.404153 -0.099249 0.300000 0.000000 0.600000
0.200219 -0.526929 -0.011462 0.800000 0.200000 0.500000
0.151577 0.138129 -0.061959 0.600000 0.000000 0.300000
-0.054454 -0.526929 -0.083196 0.800000 0.200000 0.500000
0.758600 -0.078015 0.045039 0.800000 0.200000 0.500000
0.221595 -0.526929 -0.205059 0.800000 0.200000 0.500000
0.239134 0.379213 0.163434 0.300000 0.000000 0.600000
-0.760059 0.261469 0.036886 0.300000 0.000000 0.600000
-0.135658 0.242462 -0.162746 0.600000 0.300000 0.000000
0.077870 0.138129 -0.064148 0.600000 0.000000 0.300000
-0.294518 0.073463 -0.098668 0.300000 0.000000 0.600000
-0.760059 0.306113 0.089024 0.300000 0.000000 0.600000
-0.746309 -0.526929 -0.021951 0.800000 0.200000 0.500000
-0.254465 0.257210 0.198880 0.300000 0.600000 0.000000
-0.716289 -0.551869 -0.176036 0.800000 0.200000 0.500000
0.510746 0.312446 -0.183529 0.600000 0.300000 0.000000
0.283252 0.292534 0.018205 0.600000 0.000000 0.300000
-0.485304 0.404153 0.153819 0.300000 0.000000 0.600000
0.467769 0.159042 0.190567 0.300000 0.600000 0.000000
0.781749 -0.590882 -0.183529 1.000000 0.000000 0.000000
-0.101340 0.379213 0.037276 0.300000 0.000000 0.600000
-0.460198 0.063999 0.198880 0.500000 0.000000 0.500000
-0.507182 -0.526929 0.145184 0.800000 0.200000 0.500000
-0.760059 0.058421 -0.150296 0.300000 0.000000 0.600000
0.370846 -0.031783 0.215506 0.300000 0.600000 0.000000
-0.760059 -0.231916 0.200477 0.500000 0.500000 0.000000
0.681419 -0.053075 0.091173 0.800000 0.200000 0.500000
-0.068993 0.316134 -0.208468 0.600000 0.300000 0.000000
-0.105902 0.138129 -0.149800 0.600000 0.000000 0.300000
-0.087377 -0.032292 -0.015932 0.500000 0.000000 0.500000
0.787561 -0.397370 -0.208468 1.000000 0.000000 0.000000
0.289882 -0.576809 0.199194 0.800000 0.200000 0.500000
-0.106802 -0.023979 0.115626 0.500000 0.000000 0.500000
0.769576 0.093152 -0.171771 0.600000 0.000000 0.300000
-0.196796 -0.532437 0.190567 0.800000 0.200000 0.500000
0.689999 -0.078015 -0.132382 0.800000 0.200000 0.500000
-0.164238 0.379213 0.083118 0.300000 0.000000 0.600000
0.771081 -0.526929 -0.068813 0.800000 0.200000 0.500000
-0.409524 0.379213 0.123193 0.300000 0.000000 0.600000
-0.269578 0.305736 -0.108380 0.300000 0.000000 0.600000
0.408171 -0.012147 0.190567 0.300000 0.600000 0.000000
-0.496097 -0.576809 0.201257 0.800000 0.200000 0.500000
-0.588762 -0.526929 -0.033972 0.800000 0.200000 0.500000
-0.144164 0.167226 0.197872 0.300000 0.600000 0.000000
-0.255144 0.034449 0.215506 0.000000 0.000000 1.000000
-0.735119 0.360331 -0.015963 0.300000 0.000000 0.600000
-0.680771 -0.078015 0.032414 0.800000 0.200000 0.500000
0.280040 -0.526929 -0.155411 0.800000 0.200000 0.500000
0.769576 -0.556296 0.174589 0.800000 0.200000 0.500000
0.464030 0.379213 -0.166687 0.300000 0.000000 0.600000
-0.101864 0.183852 -0.019904 0.300000 0.000000 0.600000
-0.578786 -0.007675 0.215506 0.500000 0.000000 0.500000
0.139035 -0.047909 0.215506 0.000000 0.000000 1.000000
-0.571759 0.200784 -0.183529 0.600000 0.300000 0.000000
0.175818 0.192165 0.165514 0.300000 0.000000 0.600000
0.617127 0.404153 -0.059121 0.300000 0.000000 0.600000
-0.280904 -0.078015 -0.106829 0.800000 0.200000 0.500000
-0.265421 0.104557 0.072287 0.000000 1.000000 0.000000
-0.216938 0.362578 -0.208468 0.600000 0.300000 0.000000
-0.206439 0.138129 -0.001855 0.600000 0.000000 0.300000
-0.027151 -0.032292 0.074484 0.500000 0.000000 0.500000
-0.178508 0.400952 0.215506 0.300000 0.000000 0.600000
0.115735 0.017890 0.190567 0.000000 0.000000 1.000000
-0.170789 -0.078015 -0.151482 0.800000 0.200000 0.500000
-0.294518 0.033458 0.035236 0.300000 0.000000 0.600000
-0.760059 -0.487127 0.196650 0.500000 0.500000 0.000000
0.629276 -0.576809 0.191937 0.800000 0.200000 0.500000
0.360014 -0.526929 -0.200242 0.800000 0.200000 0.500000
-0.059568 0.223944 0.215506 0.300000 0.600000 0.000000
0.440685 -0.551869 -0.167982 0.800000 0.200000 0.500000
0.397661 0.404153 -0.116642 0.300000 0.000000 0.600000
-0.583977 -0.053075 0.215371 0.500000 0.000000 0.500000
0.299878 0.008355 0.165138 1.000000 0.000000 0.000000
0.083144 0.404153 -0.199932 0.600000 0.300000 0.000000
0.016583 0.348293 -0.179372 0.600000 0.300000 0.000000
-0.760059 0.262312 0.125267 0.300000 0.000000 0.600000
-0.294518 0.208744 -0.123199 0.300000 0.000000 0.600000
0.089063 0.379213 -0.110159 0.300000 0.000000 0.600000
0.746758 -0.214197 0.190567 0.000000 0.000000 1.000000
0.596796 0.109706 0.190567 0.300000 0.600000 0.000000
0.769576 0.086368 0.178627 0.600000 0.000000 0.300000
-0.735119 -0.564365 0.155780 0.800000 0.200000 0.500000
-0.337748 -0.095945 -0.208468 0.600000 0.300000 0.000000
0.058000 -0.571499 0.190567 0.800000 0.200000 0.500000
-0.369563 -0.551869 -0.010032 0.800000 0.200000 0.500000
0.570718 -0.551869 -0.115249 0.800000 0.200000 0.500000
0.289866 0.371073 0.215506 0.300000 0.000000 0.600000
0.512450 0.252589 0.190567 0.300000 0.600000 0.000000
0.105179 0.183852 0.058264 0.300000 0.000000 0.600000
0.089468 0.204869 -0.208468 0.600000 0.300000 0.000000
-0.461414 0.404153 -0.119118 0.300000 0.000000 0.600000
-0.450808 -0.053075 -0.053690 0.800000 0.200000 0.500000
-0.186598 0.163069 0.211542 0.000000 1.000000 0.000000
0.116564 0.379213 0.166948 0.300000 0.000000 0.600000
0.769576 -0.040438 0.126002 0.600000 0.000000 0.300000
-0.735119 0.061192 0.055699 0.300000 0.000000 0.600000
-0.451794 -0.053075 0.094165 0.800000 0.200000 0.500000
-0.155909 -0.053075 -0.053925 0.800000 0.200000 0.500000
-0.684174 -0.526929 0.053932 0.800000 0.200000 0.500000
0.071554 0.048436 0.228039 0.800000 0.200000 0.500000
0.651937 -0.053075 0.017238 0.800000 0.200000 0.500000
0.188046 0.003144 0.190567 0.000000 0.000000 1.000000
0.328975 0.113465 -0.125138 0.600000 0.300000 0.000000
0.070513 0.163069 0.103604 0.600000 0.000000 0.300000
-0.079227 -0.551869 -0.166059 0.800000 0.200000 0.500000
-0.599501 0.298107 -0.208468 0.600000 0.300000 0.000000
0.657689 0.104199 -0.183529 0.600000 0.300000 0.000000
0.744636 -0.308888 -0.202914 1.000000 0.000000 0.000000
-0.657629 -0.551869 -0.067203 0.800000 0.200000 0.500000
-0.106365 0.183852 0.127688 0.300000 0.000000 0.600000
0.020078 0.312965 0.215506 0.300000 0.600000 0.000000
-0.571182 -0.078015 -0.147368 0.800000 0.200000 0.500000
-0.118527 0.267500 0.215506 0.300000 0.600000 0.000000
0.483601 0.379213 -0.037592 0.300000 0.000000 0.600000
-0.269578 -0.044800 0.120328 0.300000 0.000000 0.600000
0.283252 0.329841 0.125456 0.600000 0.000000 0.300000
-0.226405 0.183852 0.044987 0.300000 0.000000 0.600000
-0.556549 0.123185 -0.208468 0.600000 0.300000 0.000000
0.285262 0.163069 0.178566 0.600000 0.000000 0.300000
-0.442637 0.298585 -0.208468 0.600000 0.300000 0.000000
-0.530010 0.404153 0.194704 0.300000 0.000000 0.600000
-0.638214 -0.102909 0.190567 0.500000 0.000000 0.500000
-0.476643 -0.570611 -0.183529 0.800000 0.200000 0.500000
-0.758299 -0.331531 0.215506 0.500000 0.500000 0.000000
0.193256 0.200174 -0.208468 0.600000 0.300000 0.000000
0.634355 -0.058566 0.215506 0.500000 0.000000 0.500000
0.425252 -0.078015 -0.080925 0.800000 0.200000 0.500000
0.304035 -0.021370 0.035818 0.600000 0.300000 0.000000
0.516512 0.061598 -0.183529 0.600000 0.300000 0.000000
0.028003 -0.053075 -0.081797 0.800000 0.200000 0.500000
0.053820 -0.053075 0.124503 0.800000 0.200000 0.500000
0.735962 -0.526929 -0.189011 0.800000 0.200000 0.500000
0.328975 0.040209 0.038256 0.600000 0.300000 0.000000
0.691815 -0.078015 -0.064769 0.800000 0.200000 0.500000
0.743973 -0.526929 -0.143793 0.800000 0.200000 0.500000
0.682711 0.404153 -0.152181 0.300000 0.000000 0.600000
0.076254 -0.032292 -0.164876 0.500000 0.500000 0.000000
-0.046499 0.183852 0.054265 0.300000 0.000000 0.600000
-0.495280 0.178383 -0.183529 0.600000 0.300000 0.000000
-0.280917 0.212246 -0.183529 0.600000 0.300000 0.000000
-0.500282 0.320317 -0.183529 0.600000 0.300000 0.000000
-0.096058 -0.078015 -0.161019 0.800000 0.200000 0.500000
0.299878 0.302895 0.205088 0.300000 0.600000 0.000000
-0.710179 -0.420352 -0.183950 0.000000 1.000000 0.000000
-0.147854 0.163069 0.151935 0.600000 0.000000 0.300000
-0.576041 -0.526929 -0.075713 0.800000 0.200000 0.500000
0.011197 0.379213 -0.017197 0.300000 0.000000 0.600000
0.355892 0.190139 -0.183529 0.600000 0.300000 0.000000
0.794516 0.284150 0.063325 0.600000 0.000000 0.300000
-0.677154 -0.551869 0.012862 0.800000 0.200000 0.500000
-0.407131 -0.576207 -0.183529 0.800000 0.200000 0.500000
-0.683704 0.179129 -0.208468 0.600000 0.300000 0.000000
-0.710179 -0.301353 0.205086 0.500000 0.500000 0.000000
-0.090657 -0.032292 -0.105659 0.500000 0.000000 0.500000
-0.248795 0.117931 0.125962 0.000000 1.000000 0.000000
-0.482232 0.006738 -0.183529 0.600000 0.300000 0.000000
-0.294518 0.173903 0.178905 0.300000 0.000000 0.600000
0.769576 0.309844 -0.168518 0.600000 0.000000 0.300000
0.339200 0.055496 0.190567 0.300000 0.600000 0.000000
-0.038629 0.092966 0.215506 0.000000 0.000000 1.000000
-0.159458 -0.023979 0.149112 0.500000 0.000000 0.500000
0.255294 -0.032292 0.013366 0.500000 0.000000 0.500000
0.205917 -0.053075 -0.161994 0.800000 0.200000 0.500000
0.624210 0.151236 -0.208468 0.600000 0.300000 0.000000
0.328975 0.246046 -0.111577 0.600000 0.300000 0.000000
-0.140462 0.404153 -0.035307 0.300000 0.000000 0.600000
0.426409 0.243443 0.198880 0.300000 0.600000 0.000000
-0.514441 -0.078015 0.143327 0.800000 0.200000 0.500000
-0.537938 0.251305 -0.208468 0.600000 0.300000 0.000000
-0.295305 0.379213 0.087917 0.300000 0.000000 0.600000
-0.123615 -0.101060 0.190567 0.500000 0.000000 0.500000
0.670427 0.194956 0.198880 0.300000 0.600000 0.000000
0.794516 0.277697 -0.185542 1.000000 0.000000 0.000000
0.303556 0.259754 -0.208468 0.600000 0.300000 0.000000
-0.164948 -0.078015 0.093511 0.800000 0.200000 0.500000
0.731317 -0.078015 0.167644 0.800000 0.200000 0.500000
0.794516 0.375925 0.171283 0.600000 0.000000 0.300000
0.283252 0.297460 -0.123961 0.600000 0.000000 0.300000
0.363793 -0.078015 -0.002535 0.800000 0.200000 0.500000
0.554564 -0.551869 -0.074962 0.800000 0.200000 0.500000
-0.306232 -0.551869 -0.047152 0.800000 0.200000 0.500000
-0.213630 -0.551869 0.105356 0.800000 0.200000 0.500000
-0.294518 0.138770 -0.162157 0.300000 0.000000 0.600000
0.328975 0.078280 -0.017600 0.600000 0.300000 0.000000
-0.739174 0.087007 0.190567 0.500000 0.500000 0.000000
0.088943 -0.078015 -0.055696 0.800000 0.200000 0.500000
0.061444 -0.551869 -0.150013 0.800000 0.200000 0.500000
0.575961 -0.565508 -0.183529 0.800000 0.200000 0.500000
-0.037788 -0.023979 0.180112 0.500000 0.000000 0.500000
-0.294518 0.360206 0.008658 0.300000 0.000000 0.600000
-0.473548 -0.078015 0.012000 0.800000 0.200000 0.500000
-0.153823 0.379213 -0.086782 0.300000 0.000000 0.600000
0.457191 0.091188 -0.183529 0.600000 0.300000 0.000000
0.451429 0.404153 0.194852 0.300000 0.000000 0.600000
0.167770 0.163069 0.207241 0.000000 1.000000 0.000000
0.681110 0.343068 -0.183529 0.600000 0.300000 0.000000
0.577674 0.068856 -0.183529 0.600000 0.300000 0.000000
0.142028 -0.551869 -0.151818 0.800000 0.200000 0.500000
-0.294518 0.035778 -0.043796 0.300000 0.000000 0.600000
-0.610645 0.363759 0.215506 0.300000 0.000000 0.600000
0.764235 0.379213 -0.104894 0.300000 0.000000 0.600000
-0.251169 0.350117 -0.123769 0.300000 0.000000 0.600000
0.560504 -0.078015 0.111167 0.800000 0.200000 0.500000
0.593348 -0.053075 0.204386 0.500000 0.000000 0.500000
-0.565400 0.379213 -0.066752 0.300000 0.000000 0.600000
0.304035 0.149753 -0.023542 0.600000 0.300000 0.000000
0.367841 0.377119 0.190567 0.300000 0.000000 0.600000
0.299878 0.240137 0.018983 0.600000 0.000000 0.300000
-0.294518 0.006737 0.163968 0.300000 0.000000 0.600000
0.794516 0.322579 0.126440 0.600000 0.000000 0.300000
-0.735119 0.351629 -0.082277 0.300000 0.000000 0.600000
0.634816 0.403395 -0.208468 0.600000 0.300000 0.000000
0.744636 0.141340 -0.199436 0.600000 0.300000 0.000000
0.364355 -0.078015 -0.133082 0.800000 0.200000 0.500000
-0.048311 0.288032 0.215506 0.300000 0.600000 0.000000
-0.249050 -0.551869 -0.070803 0.800000 0.200000 0.500000
-0.650642 0.190884 0.190567 0.500000 0.000000 0.500000
-0.317301 0.144179 0.244667 0.000000 0.500000 0.500000
0.291565 0.008348 -0.172032 1.000000 0.000000 0.000000
0.654787 0.300237 0.210363 0.300000 0.600000 0.000000
0.326648 0.158574 -0.183529 0.600000 0.300000 0.000000
0.298622 0.163069 0.091909 0.600000 0.000000 0.300000
0.284472 -0.526929 -0.084426 0.800000 0.200000 0.500000
-0.200380 0.255064 -0.162746 0.600000 0.300000 0.000000
-0.760059 0.399926 -0.010348 0.300000 0.000000 0.600000
0.755702 -0.078015 -0.019232 0.800000 0.200000 0.500000
0.474851 0.331243 -0.208468 0.600000 0.300000 0.000000
-0.735119 0.263070 -0.167700 0.300000 0.000000 0.600000
-0.575587 -0.526929 -0.168621 0.800000 0.200000 0.500000
0.724904 0.348217 0.190567 0.300000 0.600000 0.000000
-0.174412 0.163069 -0.044389 0.600000 0.000000 0.300000
0.289487 -0.028280 -0.084909 0.500000 0.000000 0.500000
-0.347092 -0.526929 0.114615 0.800000 0.200000 0.500000
0.753313 0.063895 -0.208468 1.000000 0.000000 0.000000
0.149911 0.163069 0.136681 0.600000 0.000000 0.300000
0.279829 -0.576809 -0.185075 0.800000 0.200000 0.500000
-0.080905 0.404153 -0.053610 0.300000 0.000000 0.600000
0.015300 -0.053843 -0.208468 0.600000 0.300000 0.000000
0.259256 0.153568 0.215506 0.000000 1.000000 0.000000
-0.240498 0.247804 -0.179372 0.600000 0.300000 0.000000
-0.664873 -0.076517 -0.208468 0.600000 0.300000 0.000000
-0.422556 0.215125 -0.183529 0.600000 0.300000 0.000000
-0.527222 -0.053075 -0.031743 0.800000 0.200000 0.500000
-0.299311 -0.078015 0.035300 0.800000 0.200000 0.500000
-0.721863 -0.078015 -0.020628 0.800000 0.200000 0.500000
-0.277110 -0.078015 0.152333 0.800000 0.200000 0.500000
-0.618179 -0.551869 0.055953 0.800000 0.200000 0.500000
0.600925 0.187988 0.198880 0.300000 0.600000 0.000000
0.692850 0.277112 -0.208468 0.600000 0.300000 0.000000
-0.021423 -0.023979 -0.027100 0.500000 0.000000 0.500000
0.320248 0.219155 -0.183529 0.600000 0.300000 0.000000
-0.271836 0.117640 0.215506 0.500000 0.500000 0.000000
-0.637312 0.110290 0.190567 0.500000 0.000000 0.500000
0.283252 0.208997 0.172409 0.600000 0.000000 0.300000
-0.760059 0.098240 0.002178 0.300000 0.000000 0.600000
-0.246171 -0.576809 -0.187603 0.800000 0.200000 0.500000
0.772335 -0.083194 0.215506 0.000000 0.000000 1.000000
-0.394754 0.379213 -0.157908 0.300000 0.000000 0.600000
0.794516 0.091496 -0.088639 0.600000 0.000000 0.300000
0.018961 -0.551869 0.150100 0.800000 0.200000 0.500000
0.211189 0.163069 0.119441 0.600000 0.000000 0.300000
-0.434835 -0.060830 -0.183529 0.800000 0.200000 0.500000
-0.384309 0.265377 -0.208468 0.600000 0.300000 0.000000
0.747359 0.297728 -0.208468 1.000000 0.000000 0.000000
0.727029 -0.053075 0.057629 0.800000 0.200000 0.500000
0.574510 0.317627 -0.208468 0.600000 0.300000 0.000000
-0.580122 -0.078015 0.167997 0.800000 0.200000 0.500000
0.439739 -0.551869 0.132484 0.800000 0.200000 0.500000
0.162684 -0.551869 -0.084381 0.800000 0.200000 0.500000
0.001256 0.167226 -0.171210 0.600000 0.300000 0.000000
0.357362 0.189622 0.190567 0.300000 0.600000 0.000000
0.023469 0.080828 -0.208468 0.600000 0.300000 0.000000
-0.029518 0.404153 0.141673 0.300000 0.000000 0.600000
0.223258 0.087995 0.190567 0.000000 0.000000 1.000000
0.462653 -0.053075 -0.170042 0.800000 0.200000 0.500000
0.346245 -0.526929 -0.044483 0.800000 0.200000 0.500000
-0.323442 -0.053075 -0.026225 0.800000 0.200000 0.500000
0.466620 -0.018123 0.198880 0.300000 0.600000 0.000000
-0.403380 -0.526929 -0.094415 0.800000 0.200000 0.500000
0.640060 0.345561 -0.208468 0.600000 0.300000 0.000000
-0.433646 0.300237 0.211873 0.500000 0.000000 0.500000
0.619266 -0.002256 0.190567 0.300000 0.600000 0.000000
0.499745 0.200960 -0.208468 0.600000 0.300000 0.000000
0.492921 0.029190 0.198880 0.300000 0.600000 0.000000
-0.627116 0.379213 -0.145647 0.300000 0.000000 0.600000
-0.428719 0.136325 0.190567 0.500000 0.000000 0.500000
0.610011 0.348167 0.190567 0.300000 0.600000 0.000000
-0.225138 0.099952 0.190567 0.000000 0.000000 1.000000
0.755086 -0.053075 -0.159215 0.800000 0.200000 0.500000
-0.279171 -0.003539 -0.183529 0.300000 0.000000 0.600000
0.794516 0.300099 -0.095692 0.600000 0.000000 0.300000
-0.125081 0.112117 -0.183529 0.600000 0.300000 0.000000
0.049195 0.379213 -0.051399 0.300000 0.000000 0.600000
0.214155 0.138129 0.080550 0.600000 0.000000 0.300000
-0.157941 -0.102954 -0.187406 0.600000 0.300000 0.000000
-0.452969 -0.055335 0.190567 0.800000 0.200000 0.500000
-0.622133 0.021836 -0.183529 0.600000 0.300000 0.000000
0.546445 -0.053075 0.080680 0.800000 0.200000 0.500000
-0.321731 -0.576694 0.190567 0.800000 0.200000 0.500000
0.171451 0.163069 0.019345 0.600000 0.000000 0.300000
-0.265421 0.100480 -0.026397 0.000000 1.000000 0.000000
-0.586381 0.169609 -0.208468 0.600000 0.300000 0.000000
0.356097 0.404153 0.110107 0.300000 0.000000 0.600000
-0.639900 0.404153 -0.063252 0.300000 0.000000 0.600000
-0.735119 -0.565892 0.015227 0.800000 0.200000 0.500000
0.082771 -0.069102 0.215506 0.500000 0.000000 0.500000
0.283252 0.349527 -0.044522 0.600000 0.000000 0.300000
0.421403 -0.078015 0.161507 0.800000 0.200000 0.500000
0.708242 0.066316 -0.208468 0.600000 0.300000 0.000000
-0.553830 0.053360 -0.208468 0.600000 0.300000 0.000000
0.794516 0.225524 0.100021 0.600000 0.000000 0.300000
-0.276650 -0.551869 0.099320 0.800000 0.200000 0.500000
-0.167582 0.192165 -0.073610 0.300000 0.000000 0.600000
-0.701992 -0.526929 -0.031722 0.800000 0.200000 0.500000
0.419804 -0.078015 0.119451 0.800000 0.200000 0.500000
-0.656143 0.076436 0.214431 0.500000 0.000000 0.500000
-0.147696 0.324455 0.215506 0.300000 0.600000 0.000000
0.331993 0.404153 0.163335 0.300000 0.000000 0.600000
0.283252 0.236801 0.106669 0.600000 0.000000 0.300000
-0.171849 -0.526929 0.081557 0.800000 0.200000 0.500000
-0.225658 0.143583 0.215506 0.000000 1.000000 0.000000
0.440967 0.304187 -0.183529 0.600000 0.300000 0.000000
0.624466 -0.053075 -0.100393 0.800000 0.200000 0.500000
-0.127754 0.404153 0.088716 0.300000 0.000000 0.600000
0.794516 0.280029 0.213897 0.000000 0.000000 1.000000
-0.460543 0.145829 -0.208468 0.600000 0.300000 0.000000
-0.223039 0.183852 -0.122517 0.300000 0.000000 0.600000
0.376409 0.090453 0.190567 0.300000 0.600000 0.000000
-0.419855 -0.551869 0.147037 0.800000 0.200000 0.500000
0.354153 -0.551869 0.094146 0.800000 0.200000 0.500000
0.472071 -0.078015 0.118089 0.800000 0.200000 0.500000
-0.465316 -0.551869 -0.022085 0.800000 0.200000 0.500000
-0.353965 0.297242 0.198880 0.500000 0.000000 0.500000
-0.760059 -0.014983 0.017219 0.300000 0.000000 0.600000
-0.701187 -0.022792 -0.183529 0.600000 0.300000 0.000000
0.794218 -0.195657 -0.183529 1.000000 0.000000 0.000000
-0.207643 0.138129 -0.052099 0.600000 0.000000 0.300000
-0.269578 0.278048 -0.180803 0.300000 0.000000 0.600000
0.713635 -0.563370 0.190567 0.800000 0.200000 0.500000
0.746047 -0.078015 0.120439 0.800000 0.200000 0.500000
0.356340 0.296773 0.215506 0.300000 0.600000 0.000000
-0.656776 0.345468 -0.183529 0.600000 0.300000 0.000000
0.794516 -0.058827 0.052649 0.600000 0.000000 0.300000
0.030539 0.192165 0.165886 0.300000 0.000000 0.600000
-0.265437 -0.078015 -0.068427 0.800000 0.200000 0.500000
0.166958 -0.030531 -0.183529 0.600000 0.300000 0.000000
0.687269 -0.102007 0.215506 0.500000 0.000000 0.500000
-0.760059 -0.059847 -0.043041 0.300000 0.000000 0.600000
-0.066980 0.404153 -0.203048 0.600000 0.300000 0.000000
-0.537328 -0.053075 -0.075417 0.800000 0.200000 0.500000
-0.126785 0.073588 0.190567 0.000000 0.000000 1.000000
0.026402 -0.023979 -0.052457 0.500000 0.000000 0.500000
0.336157 0.379213 -0.147625 0.300000 0.000000 0.600000
-0.379697 -0.078015 0.173961 0.800000 0.200000 0.500000
0.543911 -0.078015 0.047803 0.800000 0.200000 0.500000
0.082305 0.075045 0.190567 0.000000 0.000000 1.000000
-0.614278 0.367786 -0.208468 0.600000 0.300000 0.000000
-0.232673 0.404153 0.035680 0.300000 0.000000 0.600000
-0.710179 -0.111925 -0.204094 0.000000 1.000000 0.000000
0.769576 -0.084950 -0.060188 0.600000 0.000000 0.300000
0.211086 0.350117 -0.169977 0.600000 0.300000 0.000000
0.283252 0.083331 0.190374 1.000000 0.000000 0.000000
0.258576 -0.078015 -0.158933 0.800000 0.200000 0.500000
-0.209063 -0.023979 0.060409 0.500000 0.000000 0.500000
-0.134663 -0.023979 0.062669 0.500000 0.000000 0.500000
0.005532 0.036003 0.190567 0.000000 0.000000 1.000000
0.657397 0.133130 0.198880 0.300000 0.600000 0.000000
0.430039 0.311028 0.190567 0.300000 0.600000 0.000000
-0.242190 0.350117 -0.178372 0.600000 0.300000 0.000000
0.269647 0.163069 -0.043741 0.600000 0.000000 0.300000
-0.142965 -0.053075 0.125098 0.800000 0.200000 0.500000
0.279266 -0.023979 0.182078 0.500000 0.000000 0.500000
0.585959 -0.078015 -0.166315 0.800000 0.200000 0.500000
-0.062037 -0.055786 -0.208468 0.600000 0.300000 0.000000
-0.033526 -0.053075 -0.089832 0.800000 0.200000 0.500000
0.121284 0.379213 0.067032 0.300000 0.000000 0.600000
0.180688 -0.053075 -0.086477 0.800000 0.200000 0.500000
0.270659 -0.526929 0.035443 0.800000 0.200000 0.500000
-0.467959 -0.544758 0.215506 0.800000 0.200000 0.500000
-0.492086 0.132576 -0.183529 0.600000 0.300000 0.000000
-0.294518 0.168213 -0.116508 0.300000 0.000000 0.600000
-0.331014 -0.078015 0.166079 0.800000 0.200000 0.500000
-0.366684 0.183292 0.190567 0.500000 0.000000 0.500000
-0.760059 -0.099003 -0.171109 0.300000 0.000000 0.600000
-0.294518 0.290532 -0.142576 0.300000 0.000000 0.600000
0.588198 -0.078015 -0.034293 0.800000 0.200000 0.500000
0.104595 -0.053075 0.170687 0.800000 0.200000 0.500000
0.609267 0.379213 -0.024805 0.300000 0.000000 0.600000
-0.035901 0.138129 0.010424 0.600000 0.000000 0.300000
0.059364 -0.023979 0.044488 0.500000 0.000000 0.500000
0.769576 -0.015234 -0.148901 0.600000 0.000000 0.300000
-0.339202 -0.078015 0.086459 0.800000 0.200000 0.500000
0.621853 -0.099350 0.215506 0.500000 0.000000 0.500000
-0.213239 0.379213 -0.056641 0.300000 0.000000 0.600000
0.111272 0.346233 0.190567 0.300000 0.600000 0.000000
-0.735119 0.349056 -0.150416 0.300000 0.000000 0.600000
0.150020 0.240361 0.215506 0.300000 0.600000 0.000000
0.698019 0.002454 0.215506 0.300000 0.600000 0.000000
0.571780 -0.526929 0.104790 0.800000 0.200000 0.500000
-0.370273 0.109129 0.198880 0.500000 0.000000 0.500000
0.172195 -0.567319 0.215506 0.800000 0.200000 0.500000
-0.700842 0.212687 0.190567 0.500000 0.000000 0.500000
-0.503470 -0.078015 -0.172773 0.800000 0.200000 0.500000
0.459031 -0.053075 -0.080083 0.800000 0.200000 0.500000
0.328975 0.334095 -0.101514 0.600000 0.300000 0.000000
-0.294518 0.291478 0.206979 0.500000 0.500000 0.000000
0.769576 0.234718 -0.057883 0.600000 0.000000 0.300000
0.112598 0.192165 -0.110573 0.300000 0.000000 0.600000
-0.265421 0.129001 0.011190 0.000000 1.000000 0.000000
-0.098756 0.163069 0.194969 0.000000 1.000000 0.000000
0.289412 -0.048918 -0.020981 1.000000 0.000000 0.000000
-0.159695 -0.551869 0.174962 0.800000 0.200000 0.500000
-0.670438 0.404153 -0.028275 0.300000 0.000000 0.600000
-0.047447 -0.078015 -0.119872 0.800000 0.200000 0.500000
-0.026060 0.379213 -0.059450 0.300000 0.000000 0.600000
-0.294518 -0.015297 -0.120685 0.300000 0.000000 0.600000
-0.760059 -0.066980 0.045056 0.300000 0.000000 0.600000
0.183029 0.111787 0.190567 0.000000 0.000000 1.000000
-0.567943 -0.063275 -0.208468 0.600000 0.300000 0.000000
0.585894 -0.526929 -0.039250 0.800000 0.200000 0.500000
-0.007253 0.192165 -0.104017 0.300000 0.000000 0.600000
0.304035 0.296960 -0.051898 0.600000 0.300000 0.000000
0.328975 0.301104 -0.167998 0.600000 0.300000 0.000000
0.616788 0.085884 -0.208468 0.600000 0.300000 0.000000
0.514313 -0.053075 0.178156 0.800000 0.200000 0.500000
-0.248795 0.251830 -0.016450 0.300000 0.000000 0.600000
0.283252 0.093689 0.057465 1.000000 0.000000 0.000000
-0.380978 0.404153 -0.084518 0.300000 0.000000 0.600000
-0.760059 0.046260 -0.025024 0.300000 0.000000 0.600000
-0.477355 0.000961 0.199635 0.500000 0.000000 0.500000
0.353837 -0.078015 0.048876 0.800000 0.200000 0.500000
0.283252 0.074843 -0.114203 1.000000 0.000000 0.000000
0.794516 0.227052 0.155187 0.600000 0.000000 0.300000
0.745594 0.404153 -0.130787 0.300000 0.000000 0.600000
0.769576 0.033230 0.144748 0.600000 0.000000 0.300000
-0.242494 0.183852 0.174226 0.300000 0.000000 0.600000
0.225240 -0.053075 -0.049950 0.800000 0.200000 0.500000
-0.445374 0.379213 -0.028019 0.300000 0.000000 0.600000
0.491006 0.354751 0.190567 0.300000 0.000000 0.600000
0.214879 -0.014935 -0.208468 0.600000 0.300000 0.000000
-0.589119 0.404153 -0.013464 0.300000 0.000000 0.600000
-0.743852 0.402484 -0.208468 0.000000 1.000000 0.000000
-0.024043 -0.078015 0.111960 0.800000 0.200000 0.500000
0.159171 -0.551869 0.085112 0.800000 0.200000 0.500000
-0.078843 0.296922 0.190567 0.300000 0.600000 0.000000
0.794516 0.185015 0.103651 0.600000 0.000000 0.300000
0.322989 0.174644 0.215506 1.000000 0.000000 0.000000
-0.594685 0.100127 -0.208468 0.600000 0.300000 0.000000
0.328975 0.338727 0.013495 0.600000 0.300000 0.000000
-0.074776 0.138129 -0.020305 0.600000 0.000000 0.300000
-0.440939 0.084766 -0.208468 0.600000 0.300000 0.000000
0.620676 0.263655 0.190567 0.300000 0.600000 0.000000
0.135880 0.081768 0.190567 0.000000 0.000000 1.000000
-0.133052 -0.023979 -0.087188 0.500000 0.000000 0.500000
0.794516 0.368826 -0.057263 0.600000 0.000000 0.300000
0.441958 0.149365 -0.208468 0.600000 0.300000 0.000000
-0.337449 -0.526929 -0.090039 0.800000 0.200000 0.500000
-0.760059 0.105361 -0.054521 0.300000 0.000000 0.600000
-0.760059 0.096778 0.117508 0.300000 0.000000 0.600000
-0.735119 0.254969 -0.037201 0.300000 0.000000 0.600000
0.184306 0.183852 0.052568 0.300000 0.000000 0.600000
-0.735119 0.179897 0.162252 0.300000 0.000000 0.600000
0.678390 0.077374 0.198880 0.300000 0.600000 0.000000
0.438374 -0.078015 -0.000384 0.800000 0.200000 0.500000
0.066590 -0.053075 -0.025927 0.800000 0.200000 0.500000
0.328975 0.191522 0.143819 0.600000 0.300000 0.000000
0.445543 -0.053075 0.097884 0.800000 0.200000 0.500000
-0.735119 -0.071129 0.108362 0.800000 0.200000 0.500000
0.530699 0.278191 -0.208468 0.600000 0.300000 0.000000
-0.633611 -0.542244 0.215506 0.800000 0.200000 0.500000
0.215091 0.192165 -0.087972 0.300000 0.000000 0.600000
-0.760059 0.029079 0.058409 0.300000 0.000000 0.600000
0.328975 0.321830 0.178213 0.600000 0.300000 0.000000
-0.463960 0.361185 0.215506 0.300000 0.000000 0.600000
-0.662446 0.246130 -0.183529 0.600000 0.300000 0.000000
0.235469 0.298349 0.215506 0.300000 0.600000 0.000000
0.345156 -0.551869 -0.140541 0.800000 0.200000 0.500000
0.411912 -0.053075 0.073850 0.800000 0.200000 0.500000
-0.217998 -0.032292 -0.158560 0.500000 0.000000 0.500000
-0.337448 0.379213 -0.166382 0.300000 0.000000 0.600000
-0.040021 -0.039748 -0.162746 0.500000 0.500000 0.000000
-0.749735 0.404153 -0.121096 0.300000 0.000000 0.600000
0.408873 0.094508 -0.208468 0.600000 0.300000 0.000000
0.571197 -0.053075 0.032278 0.800000 0.200000 0.500000
0.435521 -0.551869 -0.090180 0.800000 0.200000 0.500000
-0.632377 -0.072065 0.215506 0.500000 0.000000 0.500000
0.086992 0.138129 0.012974 0.600000 0.000000 0.300000
0.323596 0.404153 -0.204605 0.600000 0.300000 0.000000
0.244779 0.138129 0.034953 0.600000 0.000000 0.300000
-0.720519 0.263652 0.189727 0.600000 0.300000 0.000000
0.035178 0.155553 0.215506 0.000000 1.000000 0.000000
-0.306787 0.088154 0.190567 0.500000 0.000000 0.500000
0.221470 0.404153 -0.011144 0.300000 0.000000 0.600000
0.218316 0.099948 -0.208468 0.600000 0.300000 0.000000
-0.760059 0.336508 0.210725 0.500000 0.500000 0.000000
0.299878 0.084928 -0.055640 1.000000 0.000000 0.000000
-0.557240 0.379213 0.009363 0.300000 0.000000 0.600000
-0.056949 -0.017439 0.215506 0.000000 0.000000 1.000000
0.726755 0.379213 0.134280 0.300000 0.000000 0.600000
0.362851 -0.078015 0.169914 0.800000 0.200000 0.500000
0.714839 0.001466 -0.208468 0.600000 0.300000 0.000000
-0.255030 -0.032130 0.162626 0.500000 0.000000 0.500000
-0.550166 0.156381 -0.183529 0.600000 0.300000 0.000000
-0.760059 -0.537795 -0.112152 0.800000 0.200000 0.500000
-0.152905 0.394162 -0.208468 0.600000 0.300000 0.000000
0.008985 0.163069 0.011069 0.600000 0.000000 0.300000
-0.314012 -0.551869 0.001015 0.800000 0.200000 0.500000
0.131757 0.194511 -0.208468 0.600000 0.300000 0.000000
-0.577698 -0.078015 -0.043079 0.800000 0.200000 0.500000
-0.205220 -0.088630 0.215506 0.500000 0.000000 0.500000
-0.294518 0.081688 -0.176381 0.300000 0.000000 0.600000
-0.050450 -0.053075 -0.018023 0.800000 0.200000 0.500000
0.054409 -0.062786 -0.208468 0.600000 0.300000 0.000000
0.030180 -0.551869 0.092148 0.800000 0.200000 0.500000
-0.608385 -0.526929 0.007585 0.800000 0.200000 0.500000
0.769576 0.163942 0.037907 0.600000 0.000000 0.300000
0.543443 -0.078015 -0.133178 0.800000 0.200000 0.500000
-0.235493 0.354273 0.191948 0.300000 0.000000 0.600000
-0.525855 0.404153 0.099300 0.300000 0.000000 0.600000
-0.248795 0.126752 -0.142803 0.000000 1.000000 0.000000
-0.611491 -0.042284 -0.208468 0.600000 0.300000 0.000000
0.515094 0.379213 0.162080 0.300000 0.000000 0.600000
0.744636 -0.227530 -0.188976 1.000000 0.000000 0.000000
-0.172176 -0.032292 -0.083725 0.500000 0.000000 0.500000
-0.337588 0.096100 -0.208468 0.600000 0.300000 0.000000
0.090180 0.088963 -0.208468 0.600000 0.300000 0.000000
0.719316 0.237006 -0.208468 0.600000 0.300000 0.000000
0.070217 0.275292 0.190567 0.300000 0.600000 0.000000
-0.064759 -0.551869 0.090789 0.800000 0.200000 0.500000
-0.029230 -0.526929 -0.145206 0.800000 0.200000 0.500000
0.304035 0.012425 -0.055759 0.600000 0.300000 0.000000
0.257303 0.138129 -0.091749 0.600000 0.000000 0.300000
-0.268567 0.404153 -0.173418 0.300000 0.000000 0.600000
-0.200887 0.138129 0.037736 0.600000 0.000000 0.300000
-0.624221 0.286710 0.190567 0.500000 0.000000 0.500000
0.072511 0.379213 0.121195 0.300000 0.000000 0.600000
0.783601 0.365525 0.215506 0.000000 0.000000 1.000000
-0.707259 0.154678 -0.183529 0.600000 0.300000 0.000000
-0.648489 0.045911 -0.208468 0.600000 0.300000 0.000000
0.062422 0.221246 0.215506 0.300000 0.600000 0.000000
-0.760059 -0.528647 0.018499 0.800000 0.200000 0.500000
0.328975 -0.033484 -0.133561 0.600000 0.300000 0.000000
0.617103 0.116909 -0.183529 0.600000 0.300000 0.000000
-0.531479 0.379213 0.056645 0.300000 0.000000 0.600000
0.297549 0.404153 -0.015925 0.300000 0.000000 0.600000
-0.041493 0.404153 -0.131691 0.300000 0.000000 0.600000
-0.238755 -0.526929 -0.150249 0.800000 0.200000 0.500000
-0.071838 0.138129 0.114971 0.600000 0.000000 0.300000
0.246056 0.207411 0.215506 0.300000 0.600000 0.000000
-0.272851 0.379213 -0.038018 0.300000 0.000000 0.600000
0.142882 -0.053075 -0.207187 0.600000 0.300000 0.000000
0.371763 0.379213 0.081794 0.300000 0.000000 0.600000
-0.735119 0.172088 -0.030060 0.300000 0.000000 0.600000
-0.162407 0.167226 -0.169126 0.600000 0.300000 0.000000
-0.014692 -0.551869 -0.080874 0.800000 0.200000 0.500000
-0.062415 0.379213 0.010240 0.300000 0.000000 0.600000
0.495062 -0.526929 0.190970 0.800000 0.200000 0.500000
-0.707145 0.334024 -0.183529 0.600000 0.300000 0.000000
-0.280008 -0.053075 -0.182791 0.800000 0.200000 0.500000
-0.530673 -0.551869 -0.181500 0.800000 0.200000 0.500000
-0.619545 -0.526929 0.132647 0.800000 0.200000 0.500000
0.550696 -0.551869 0.059138 0.800000 0.200000 0.500000
0.356192 -0.022745 -0.208468 0.600000 0.300000 0.000000
-0.248795 0.011828 0.023414 0.000000 1.000000 0.000000
-0.157224 -0.060859 0.215506 0.500000 0.000000 0.500000
0.788282 0.404153 0.056051 0.600000 0.000000 0.300000
-0.187439 0.317682 0.190567 0.300000 0.600000 0.000000
-0.426148 0.242134 0.190567 0.500000 0.000000 0.500000
0.711378 -0.530518 0.215506 0.800000 0.200000 0.500000
0.235247 0.256425 -0.162746 0.600000 0.300000 0.000000
-0.232386 0.404153 0.129058 0.300000 0.000000 0.600000
0.358936 0.220175 0.215506 0.300000 0.600000 0.000000
0.500385 -0.102954 -0.208188 0.600000 0.300000 0.000000
0.283252 0.062583 0.082168 1.000000 0.000000 0.000000
0.418791 0.379213 -0.016459 0.300000 0.000000 0.600000
-0.132813 -0.053075 0.019197 0.800000 0.200000 0.500000
-0.363734 -0.551869 0.170311 0.800000 0.200000 0.500000
-0.464452 0.229145 0.190567 0.500000 0.000000 0.500000
-0.161095 0.096601 -0.179372 0.500000 0.500000 0.000000
0.018897 0.163069 -0.035677 0.600000 0.000000 0.300000
-0.209324 -0.551869 -0.159423 0.800000 0.200000 0.500000
-0.502156 0.234840 -0.208468 0.600000 0.300000 0.000000
-0.186806 -0.551869 -0.085675 0.800000 0.200000 0.500000
-0.532773 -0.551869 0.171282 0.800000 0.200000 0.500000
-0.409853 0.089015 -0.183529 0.600000 0.300000 0.000000
-0.069237 0.163069 -0.141051 0.600000 0.000000 0.300000
-0.180107 -0.053075 -0.019932 0.800000 0.200000 0.500000
-0.248795 0.038765 -0.038649 0.000000 1.000000 0.000000
0.772292 -0.102954 0.006236 0.600000 0.000000 0.300000
0.791693 0.041597 -0.183529 1.000000 0.000000 0.000000
-0.700597 -0.551869 0.126109 0.800000 0.200000 0.500000
-0.542394 -0.053075 0.039675 0.800000 0.200000 0.500000
-0.553441 -0.551869 -0.144738 0.800000 0.200000 0.500000
0.128238 0.330163 -0.162746 0.600000 0.300000 0.000000
0.719193 0.379213 0.079723 0.300000 0.000000 0.600000
-0.226715 0.183852 -0.026718 0.300000 0.000000 0.600000
0.247342 -0.526929 0.145674 0.800000 0.200000 0.500000
0.712638 0.228631 0.215506 0.300000 0.600000 0.000000
-0.202323 -0.006828 -0.208468 0.600000 0.300000 0.000000
-0.298674 -0.040003 0.199238 0.500000 0.000000 0.500000
-0.695968 0.404153 0.104788 0.300000 0.000000 0.600000
-0.722014 -0.037334 0.215506 0.500000 0.500000 0.000000
0.514556 -0.526929 -0.024730 0.800000 0.200000 0.500000
-0.550538 0.015346 -0.183529 0.600000 0.300000 0.000000
0.091194 -0.053075 -0.199078 0.600000 0.300000 0.000000
-0.656981 -0.078015 -0.067089 0.800000 0.200000 0.500000
-0.403834 0.379213 0.174135 0.300000 0.000000 0.600000
0.229033 0.404153 0.029954 0.300000 0.000000 0.600000
-0.323794 -0.078015 -0.101945 0.800000 0.200000 0.500000
-0.334811 -0.526929 -0.187642 0.800000 0.200000 0.500000
0.001840 -0.053075 -0.040132 0.800000 0.200000 0.500000
-0.543579 -0.551869 -0.068539 0.800000 0.200000 0.500000
-0.045430 -0.032292 0.141697 0.500000 0.000000 0.500000
-0.644815 -0.526929 0.077544 0.800000 0.200000 0.500000
0.774052 0.401156 -0.183529 0.600000 0.000000 0.300000
0.712629 -0.078015 -0.018039 0.800000 0.200000 0.500000
-0.139777 0.404153 0.011433 0.300000 0.000000 0.600000
0.233515 0.366999 0.215506 0.300000 0.000000 0.600000
0.794516 -0.073916 0.089258 0.600000 0.000000 0.300000
-0.760059 0.141033 0.183679 0.300000 0.000000 0.600000
0.071622 0.379213 0.079643 0.300000 0.000000 0.600000
-0.760059 -0.083146 -0.074398 0.300000 0.000000 0.600000
-0.294518 0.282574 0.018083 0.300000 0.000000 0.600000
0.794516 0.299490 0.174386 0.600000 0.000000 0.300000
0.357663 0.379213 -0.039547 0.300000 0.000000 0.600000
0.248564 -0.526929 0.089486 0.800000 0.200000 0.500000
-0.649235 -0.018707 0.198880 0.500000 0.000000 0.500000
-0.144291 0.049190 0.215506 0.000000 0.000000 1.000000
0.464548 0.249293 -0.183529 0.600000 0.300000 0.000000
0.150122 0.349639 0.190567 0.300000 0.600000 0.000000
-0.621272 0.203187 -0.183529 0.600000 0.300000 0.000000
0.283252 0.259136 -0.116784 0.600000 0.000000 0.300000
-0.760059 -0.000988 0.186842 0.300000 0.000000 0.600000
-0.685809 -0.078015 -0.146888 0.800000 0.200000 0.500000
-0.386874 0.379213 -0.005115 0.300000 0.000000 0.600000
0.102314 0.119168 -0.183529 0.600000 0.300000 0.000000
0.163516 0.383643 -0.183529 0.300000 0.000000 0.600000
0.769576 -0.097742 0.171992 0.600000 0.000000 0.300000
0.794516 0.113642 0.015466 0.600000 0.000000 0.300000
-0.279791 0.383247 0.190567 0.300000 0.000000 0.600000
0.613860 -0.551869 0.156644 0.800000 0.200000 0.500000
0.151615 0.138129 -0.111358 0.600000 0.000000 0.300000
0.400305 0.286721 -0.208468 0.600000 0.300000 0.000000
-0.760059 0.154064 0.013484 0.300000 0.000000 0.600000
-0.735119 0.147487 -0.070169 0.300000 0.000000 0.600000
0.432582 -0.008254 -0.208468 0.600000 0.300000 0.000000
-0.294518 0.110318 -0.086532 0.300000 0.000000 0.600000
0.304035 0.365407 -0.114976 0.600000 0.300000 0.000000
-0.076794 0.138129 -0.182163 0.600000 0.000000 0.300000
0.134745 -0.078015 -0.025590 0.800000 0.200000 0.500000
0.065848 0.379213 0.040991 0.300000 0.000000 0.600000
0.256814 0.183852 -0.161907 0.300000 0.000000 0.600000
0.163197 0.020895 -0.162746 0.500000 0.500000 0.000000
-0.746257 -0.143255 0.190567 0.500000 0.500000 0.000000
-0.248795 0.001637 -0.027489 0.000000 1.000000 0.000000
0.333668 -0.078015 -0.070459 0.800000 0.200000 0.500000
-0.749022 -0.231131 -0.183529 0.000000 1.000000 0.000000
-0.129959 0.311004 -0.208468 0.600000 0.300000 0.000000
0.253096 0.379213 0.050016 0.300000 0.000000 0.600000
-0.565713 0.379213 0.172380 0.300000 0.000000 0.600000
0.328975 0.251650 -0.029676 0.600000 0.300000 0.000000
0.026558 0.130724 -0.208468 0.600000 0.300000 0.000000
0.014198 0.234405 0.215506 0.300000 0.600000 0.000000
-0.191323 -0.053075 0.017155 0.800000 0.200000 0.500000
