ply
format ascii 1.0
element vertex 1300
property float x
property float y
property float z
property uchar red
property uchar green
property uchar blue
end_header
0.329597 -0.680775 0.442764 0 0 255
-0.337925 0.352681 0.298980 255 0 0
0.259608 -0.801792 -0.058199 0 127 127
0.208310 0.767940 0.308818 76 153 0
0.099428 -0.502017 0.540842 0 0 255
-0.518353 0.469262 -0.057421 76 153 0
-0.357082 -0.261312 -0.450855 0 0 255
-0.366111 0.758168 -0.084983 76 153 0
-0.511333 0.488564 0.082161 76 153 0
-0.477612 0.733732 -0.218473 76 153 0
0.450959 0.032766 0.316092 0 0 255
-0.306444 0.517366 -0.307241 255 0 0
-0.505014 0.602400 -0.152317 76 153 0
0.133034 -0.788489 0.170086 0 127 127
0.245226 -0.351932 -0.520971 0 0 255
0.060052 0.422253 -0.527822 76 153 0
0.519356 -0.160042 0.194331 0 0 255
-0.538618 -0.780797 0.167836 0 0 255
0.422147 0.771836 -0.249020 76 153 0
-0.369684 -0.139697 -0.440339 0 0 255
-0.448311 -0.851299 -0.248178 0 0 255
-0.524261 -0.241658 0.194728 0 0 255
0.396089 0.530016 0.173873 255 0 0
0.179704 0.418427 -0.498801 76 153 0
0.157081 -0.841696 -0.429222 0 127 127
-0.310348 -0.214003 -0.486386 0 0 255
-0.189500 0.339994 0.411674 255 0 0
-0.123950 -0.820545 0.297031 0 0 255
-0.556120 0.233655 0.030816 0 0 255
-0.315271 0.666445 -0.295738 255 0 0
-0.180754 -0.272207 -0.549098 0 0 255
0.449888 -0.851299 -0.126487 0 0 255
-0.273642 -0.820545 0.054572 0 0 255
-0.389386 -0.217883 0.397185 0 0 255
0.409152 0.089638 -0.398641 0 0 255
0.506106 0.676831 0.087059 76 153 0
0.364770 -0.497321 -0.443080 0 0 255
0.540305 -0.831016 0.004142 0 0 255
0.533298 -0.585941 -0.195389 0 0 255
-0.156093 -0.097618 -0.558271 0 0 255
-0.520820 -0.022757 0.199879 0 0 255
-0.015846 0.668437 0.505665 76 153 0
0.412815 0.551601 0.047637 255 0 0
0.199160 0.341663 0.404608 255 0 0
0.326752 0.425622 0.329663 255 0 0
0.278716 0.513191 -0.450678 76 153 0
-0.402598 0.036476 -0.413636 0 0 255
-0.042587 0.605715 -0.469990 255 0 0
-0.205833 0.635542 -0.424700 255 0 0
-0.544517 -0.233786 0.145712 0 0 255
-0.445533 0.259706 0.296355 0 0 255
-0.390596 0.636370 -0.259047 255 0 0
0.271911 0.163729 0.478259 0 0 255
-0.018963 -0.382454 0.551374 0 0 255
-0.354646 0.604610 -0.395931 76 153 0
-0.372045 0.291840 0.348170 0 0 255
0.402369 -0.644423 0.385549 0 0 255
-0.507487 0.438412 0.111375 76 153 0
-0.506542 0.743843 0.118551 76 153 0
-0.366758 0.771836 0.323072 76 153 0
0.320832 0.573774 -0.418361 76 153 0
0.493544 0.078157 0.253212 0 0 255
0.134429 0.771836 -0.098895 76 153 0
-0.046775 0.405990 0.423713 76 153 0
-0.063952 0.298234 0.488666 0 0 255
0.239325 0.613570 0.329253 255 0 0
0.177376 -0.358198 -0.549112 0 0 255
-0.229634 -0.813122 -0.522906 0 0 255
-0.156651 -0.432782 0.531460 0 0 255
-0.311608 -0.700081 0.460218 0 0 255
-0.462854 0.491294 0.225520 76 153 0
-0.348775 -0.767893 0.432170 0 0 255
0.456780 0.640482 -0.028983 255 0 0
0.505666 0.754272 0.090401 76 153 0
-0.338853 0.561155 -0.265005 255 0 0
-0.395373 0.346082 -0.259697 255 0 0
0.411063 -0.085515 0.369157 0 0 255
-0.068909 0.771836 0.461119 76 153 0
-0.492946 0.027862 0.266444 0 0 255
-0.180539 -0.448089 -0.550237 0 0 255
-0.556696 -0.180155 -0.107939 0 0 255
0.013136 -0.851299 -0.410260 0 0 255
-0.482678 -0.229903 -0.311686 0 0 255
-0.390964 0.301933 -0.333178 0 0 255
-0.022466 0.164715 0.547870 0 0 255
0.561513 -0.549018 0.023547 0 0 255
-0.134166 0.771836 0.378932 76 153 0
-0.447639 -0.117901 0.327755 0 0 255
-0.492150 0.001281 -0.297248 0 0 255
0.368330 0.267480 -0.406162 0 0 255
-0.100368 -0.843387 -0.381000 0 0 255
-0.382763 0.420654 0.267161 255 0 0
0.222106 0.771836 0.234560 76 153 0
-0.358229 0.771836 0.041928 76 153 0
-0.056557 0.565189 0.422425 255 0 0
-0.045978 0.531800 -0.530279 76 153 0
-0.227244 0.730013 -0.481007 76 153 0
0.097785 0.771836 0.098869 76 153 0
-0.137123 0.655391 -0.412654 255 0 0
0.513712 -0.471076 -0.241018 0 0 255
0.019925 -0.534210 -0.580069 0 0 255
0.489296 0.743579 -0.179202 76 153 0
-0.495269 0.731867 -0.175845 76 153 0
0.032015 0.380563 0.458461 76 153 0
0.413555 0.274585 0.318714 0 0 255
-0.424264 0.488330 0.285504 76 153 0
-0.270154 0.771836 0.058587 76 153 0
-0.294284 -0.796234 -0.153964 0 127 127
0.427528 -0.520590 -0.380221 0 0 255
0.191089 -0.615674 -0.544969 0 0 255
0.117499 -0.851299 -0.444399 0 0 255
0.122035 -0.785430 0.237739 0 127 127
0.456202 0.471646 -0.143881 255 0 0
-0.235498 0.771836 0.184691 76 153 0
0.067388 0.771836 0.316592 76 153 0
-0.490667 0.446485 0.158374 76 153 0
-0.493755 0.673244 0.150919 76 153 0
-0.049370 -0.555993 -0.576916 0 0 255
-0.356640 0.419017 -0.394401 76 153 0
-0.371925 -0.580708 -0.441685 0 0 255
-0.448624 0.640042 0.097158 255 0 0
-0.341109 -0.851299 0.361742 0 0 255
-0.126699 0.771836 0.108021 76 153 0
0.438108 0.658989 0.011993 255 0 0
-0.464686 -0.159389 0.305915 0 0 255
-0.018289 -0.469314 -0.580526 0 0 255
-0.364093 0.771836 -0.331356 76 153 0
-0.218193 0.651662 -0.377565 255 0 0
0.516737 0.542488 0.006305 76 153 0
-0.020392 -0.752575 0.020341 0 127 127
-0.448067 0.378866 0.249033 76 153 0
-0.323491 -0.640412 -0.479265 0 0 255
0.545659 -0.195780 0.129043 0 0 255
-0.062492 0.771836 0.046368 76 153 0
-0.560806 -0.607878 -0.094792 0 0 255
0.159503 0.177235 -0.553320 0 0 255
0.284049 -0.398581 0.475753 0 0 255
-0.376652 0.472837 -0.303428 255 0 0
0.365873 0.503320 -0.222031 255 0 0
0.090599 -0.820545 0.126588 0 0 255
-0.274836 -0.820545 -0.044983 0 0 255
-0.439069 0.431346 -0.196306 255 0 0
0.122515 -0.851299 -0.491107 0 0 255
-0.178274 0.635021 0.472711 76 153 0
-0.404496 -0.529153 -0.416286 0 0 255
0.439127 -0.157268 0.333233 0 0 255
0.522486 -0.359439 -0.218227 0 0 255
-0.195645 -0.529222 -0.544464 0 0 255
0.280226 -0.566848 -0.507756 0 0 255
-0.319647 -0.557282 0.453057 0 0 255
0.409478 -0.398893 0.374061 0 0 255
0.381062 0.771836 0.055493 76 153 0
0.554979 -0.228837 -0.088229 0 0 255
0.171693 -0.833713 -0.522473 0 0 255
0.396366 0.771836 0.232610 76 153 0
-0.543936 -0.171215 0.146212 0 0 255
0.064538 -0.481345 -0.573901 0 0 255
-0.233178 0.415969 -0.430825 76 153 0
-0.220804 -0.846459 0.297813 0 0 255
0.392920 -0.594915 -0.422158 0 0 255
0.374823 0.429737 0.217125 255 0 0
-0.335600 -0.071801 -0.466021 0 0 255
0.535672 -0.803267 0.158748 0 0 255
-0.231507 0.588994 0.450661 76 153 0
-0.466518 0.727242 0.216676 76 153 0
-0.124995 0.628462 0.389098 255 0 0
0.439924 -0.231761 -0.361449 0 0 255
-0.334489 0.412931 0.382818 76 153 0
0.409387 0.013893 -0.399021 0 0 255
0.248491 -0.319706 0.490846 0 0 255
0.492369 -0.126977 0.259006 0 0 255
0.349607 -0.233513 0.424301 0 0 255
-0.553366 0.094787 0.093041 0 0 255
-0.012124 0.064932 -0.578366 0 0 255
-0.179098 0.771836 -0.285944 76 153 0
0.297613 -0.483575 0.465936 0 0 255
-0.009768 0.416682 -0.490574 255 0 0
-0.474373 0.383939 -0.226292 76 153 0
0.276658 -0.725349 0.481600 0 0 255
0.501898 -0.249944 0.237772 0 0 255
-0.519186 0.291807 -0.026257 0 0 255
-0.368134 0.696457 0.357001 76 153 0
-0.431865 -0.057643 0.347767 0 0 255
-0.061945 0.466248 -0.483704 255 0 0
0.389884 0.091122 0.391139 0 0 255
0.061759 -0.773083 0.141944 0 127 127
-0.550446 0.011847 0.118718 0 0 255
0.276269 0.008033 0.477383 0 0 255
-0.464411 0.465627 -0.129350 255 0 0
-0.237734 -0.420985 0.497804 0 0 255
0.509071 0.297874 -0.015245 0 0 255
0.398512 0.612676 0.114654 255 0 0
0.312955 0.279543 0.409378 0 0 255
0.521909 0.260841 0.131624 0 0 255
-0.100496 -0.820545 -0.155357 0 0 255
-0.520904 0.524396 0.009462 76 153 0
0.231932 0.471180 0.360670 255 0 0
0.096168 0.771836 0.007170 76 153 0
0.505708 0.180928 0.222365 0 0 255
0.300617 0.771836 -0.148835 76 153 0
0.051285 0.334341 -0.480117 0 0 255
0.186532 0.439431 -0.390290 76 153 0
-0.554667 -0.386229 -0.132059 0 0 255
-0.439590 -0.457494 -0.369902 0 0 255
-0.552586 -0.098216 0.107118 0 0 255
-0.493604 0.314028 -0.002248 0 0 255
-0.542254 -0.147564 -0.178511 0 0 255
0.148578 -0.851299 0.470303 0 0 255
-0.391038 -0.832973 -0.215233 0 127 127
0.005836 0.378866 -0.503535 76 153 0
0.219318 -0.435069 -0.532199 0 0 255
0.518257 0.475898 -0.023342 76 153 0
0.469540 -0.044956 0.292580 0 0 255
-0.075422 0.771836 0.174635 76 153 0
0.462687 -0.034162 -0.329994 0 0 255
0.425274 -0.798810 -0.385678 0 0 255
0.373381 -0.078009 0.404978 0 0 255
0.355055 -0.341610 0.420872 0 0 255
-0.544559 0.144033 -0.168746 0 0 255
0.279380 0.591705 0.324262 255 0 0
-0.491370 -0.851299 -0.122969 0 0 255
-0.074423 0.534477 -0.448653 255 0 0
0.086523 0.771836 -0.488747 76 153 0
-0.224377 0.395179 0.369983 255 0 0
0.371803 -0.353180 -0.436681 0 0 255
-0.462289 0.348473 -0.042180 255 0 0
0.274434 0.482838 -0.330894 255 0 0
0.004768 0.502662 0.428640 255 0 0
-0.122416 0.547261 0.412272 255 0 0
0.431303 0.391843 -0.092260 76 153 0
-0.366651 -0.578668 0.417138 0 0 255
0.221068 -0.472785 0.503119 0 0 255
0.076333 0.082464 0.540632 0 0 255
0.395556 0.603710 -0.150370 255 0 0
0.322152 -0.562224 -0.476233 0 0 255
-0.264969 -0.239801 -0.514022 0 0 255
0.032581 0.686816 0.502859 76 153 0
-0.246024 0.771836 0.306332 76 153 0
-0.544099 -0.431554 -0.178150 0 0 255
-0.242799 -0.726230 0.497528 0 0 255
-0.541119 0.243735 0.102600 0 0 255
0.443815 -0.421812 -0.358100 0 0 255
-0.117588 -0.842808 0.496685 0 0 255
-0.201216 -0.820545 0.196589 0 0 255
-0.533241 -0.594438 -0.206712 0 0 255
0.088021 -0.851299 0.433717 0 0 255
0.123165 0.528029 0.387958 255 0 0
0.484305 0.309269 0.075173 0 0 255
-0.308070 0.699655 0.403090 76 153 0
0.511744 0.465241 0.044229 76 153 0
-0.238323 0.512480 -0.387863 255 0 0
-0.410116 0.703313 -0.332522 76 153 0
-0.510491 0.292646 -0.084971 0 0 255
-0.424031 -0.522957 0.362191 0 0 255
0.030504 -0.425313 -0.578070 0 0 255
0.473654 0.303394 0.145367 255 0 0
0.559123 -0.265966 -0.058323 0 0 255
-0.471250 -0.851299 -0.178230 0 0 255
0.038516 -0.236986 0.547388 0 0 255
-0.492068 -0.822860 -0.270767 0 0 255
0.455587 0.771836 0.128704 76 153 0
-0.033201 -0.851299 0.480699 0 0 255
0.273924 0.771836 -0.076227 76 153 0
-0.300390 0.535190 0.285913 255 0 0
0.198914 0.311625 0.434280 0 0 255
-0.348621 -0.819054 -0.223004 0 127 127
-0.495638 -0.851299 -0.004561 0 0 255
-0.570503 -0.609438 -0.007379 0 0 255
0.354496 0.568444 -0.272196 255 0 0
-0.418516 -0.137564 0.365888 0 0 255
0.419952 -0.327982 -0.388348 0 0 255
0.454775 0.410375 -0.147325 255 0 0
0.249742 -0.850918 0.279878 0 0 255
0.092026 0.771836 -0.444946 76 153 0
-0.413488 0.403681 -0.171510 255 0 0
-0.559533 -0.161517 0.057023 0 0 255
0.232811 -0.244705 0.496893 0 0 255
-0.115850 -0.820545 0.178819 0 0 255
-0.167086 -0.619115 0.528250 0 0 255
0.393383 0.490250 -0.155615 255 0 0
0.268761 -0.050073 -0.509421 0 0 255
-0.473379 -0.494406 0.297621 0 0 255
0.249553 -0.829494 -0.497468 0 0 255
-0.561694 0.076394 0.030554 0 0 255
0.226087 0.430342 -0.431864 76 153 0
-0.086594 -0.154626 0.541203 0 0 255
0.504511 -0.793594 -0.267880 0 0 255
-0.126343 0.643694 0.427147 255 0 0
-0.184462 -0.188416 -0.547062 0 0 255
0.394568 -0.411259 -0.419617 0 0 255
-0.090793 0.340745 0.442765 255 0 0
-0.373587 0.679794 -0.380127 76 153 0
0.408548 0.314579 0.252008 255 0 0
-0.081569 0.211369 -0.568409 0 0 255
0.019614 -0.795689 -0.087639 0 127 127
0.350099 -0.541543 0.426065 0 0 255
0.254896 0.538890 -0.371629 255 0 0
0.117484 -0.035410 0.535870 0 0 255
0.562037 0.131302 -0.009172 0 0 255
-0.378539 0.092086 -0.431934 0 0 255
0.201918 0.706635 0.461020 76 153 0
0.187615 -0.820545 0.084418 0 127 127
-0.255750 0.637238 0.440620 76 153 0
0.551806 0.027563 -0.101503 0 0 255
-0.013369 0.771836 -0.274715 76 153 0
-0.459084 0.472760 0.119406 255 0 0
-0.484103 0.631005 0.174221 76 153 0
-0.435665 -0.820985 -0.182625 0 127 127
-0.338901 -0.848056 0.173478 0 0 255
-0.343495 0.396280 -0.346915 255 0 0
0.439117 -0.158524 -0.361837 0 0 255
0.012308 0.594636 -0.534108 76 153 0
-0.385957 -0.071851 0.398801 0 0 255
0.342953 0.348973 0.290391 255 0 0
0.529500 -0.320091 -0.200727 0 0 255
0.551134 -0.330422 0.093146 0 0 255
-0.023886 -0.032107 0.548778 0 0 255
0.388134 0.466939 0.139707 255 0 0
-0.040371 0.771836 0.202976 76 153 0
0.204382 -0.812530 -0.356535 0 127 127
0.285499 0.680926 0.416893 76 153 0
0.409413 0.435876 0.073476 255 0 0
-0.204143 -0.820545 0.089945 0 0 255
-0.352571 0.008151 0.423863 0 0 255
-0.036159 -0.788489 0.164068 0 127 127
-0.230315 -0.322421 0.500289 0 0 255
0.319050 -0.813604 0.440704 0 0 255
0.109777 -0.308449 0.538403 0 0 255
0.010901 -0.788489 0.178553 0 127 127
-0.170743 0.725614 0.475831 76 153 0
0.030942 0.771836 0.159923 76 153 0
-0.063180 -0.226386 0.544685 0 0 255
0.178905 -0.820545 -0.236533 0 0 255
-0.509129 0.612893 0.098900 76 153 0
0.424405 0.446143 -0.220646 255 0 0
-0.557909 -0.468738 0.082340 0 0 255
-0.022746 -0.820545 -0.173291 0 0 255
0.335201 0.193338 -0.460968 0 0 255
0.140969 -0.820545 0.016086 0 0 255
-0.437489 0.671354 0.268268 76 153 0
0.562472 -0.788539 0.026380 0 0 255
0.462040 0.119194 -0.329449 0 0 255
-0.544302 -0.672067 -0.181127 0 0 255
-0.122896 0.771836 0.220924 76 153 0
-0.565266 -0.060814 0.009220 0 0 255
-0.171349 -0.311677 0.524649 0 0 255
0.351155 0.321146 -0.343074 0 0 255
0.399895 0.771836 0.179289 76 153 0
0.342955 0.377644 -0.288534 255 0 0
-0.430261 0.288191 -0.307720 0 0 255
0.089259 0.538714 -0.523977 76 153 0
-0.011737 0.463314 0.428326 255 0 0
-0.291066 -0.461966 0.474325 0 0 255
0.546227 0.208679 -0.136226 0 0 255
-0.478207 0.771836 -0.084054 76 153 0
0.410216 0.643694 -0.208692 255 0 0
-0.429014 -0.782265 -0.386626 0 0 255
-0.508322 -0.694027 -0.268305 0 0 255
-0.200153 0.616569 -0.386546 255 0 0
0.251241 -0.677556 0.491843 0 0 255
-0.208930 0.385174 -0.440869 255 0 0
-0.118149 0.771836 0.457266 76 153 0
-0.129703 0.069979 0.534279 0 0 255
0.462021 -0.851299 0.123545 0 0 255
-0.399927 0.613716 -0.150880 255 0 0
0.544478 0.196611 0.121437 0 0 255
0.079974 0.382412 0.418739 255 0 0
0.447617 0.612112 -0.098583 255 0 0
-0.177605 0.074357 0.519754 0 0 255
-0.141853 0.771836 -0.146757 76 153 0
-0.279639 -0.160205 -0.507470 0 0 255
0.236808 0.771836 0.394881 76 153 0
0.033565 -0.820545 -0.024677 0 0 255
0.241033 0.203879 0.490810 0 0 255
0.125954 0.516991 0.490566 76 153 0
-0.551078 0.250555 -0.027011 0 0 255
-0.510290 0.141656 -0.251512 0 0 255
0.424230 0.602514 -0.308156 76 153 0
0.335237 0.387205 -0.407308 76 153 0
-0.109352 0.267392 0.512805 0 0 255
-0.512262 0.059860 -0.247930 0 0 255
-0.118822 0.469561 0.391655 255 0 0
-0.147693 -0.820545 -0.227892 0 0 255
0.213207 0.636090 0.456344 76 153 0
0.401094 0.457412 -0.338307 76 153 0
0.515444 0.729558 -0.044707 76 153 0
0.483002 0.378866 0.003781 76 153 0
-0.360998 0.142428 0.416463 0 0 255
0.058156 0.162366 0.542581 0 0 255
0.202864 -0.067170 0.508238 0 0 255
-0.535222 0.180759 0.162177 0 0 255
-0.054779 -0.820545 0.087606 0 0 255
-0.216907 0.771836 -0.410577 76 153 0
-0.280571 0.492377 0.301121 255 0 0
0.368313 -0.695179 0.413156 0 0 255
-0.292129 0.604165 0.339422 255 0 0
0.464186 0.771836 -0.112407 76 153 0
-0.247627 -0.484774 -0.522667 0 0 255
0.500914 -0.405141 0.242384 0 0 255
-0.424576 0.524377 0.116161 255 0 0
0.256946 0.378866 -0.412665 255 0 0
-0.060427 -0.161554 -0.573267 0 0 255
-0.522935 -0.652729 0.203852 0 0 255
-0.416362 -0.809042 -0.248658 0 127 127
-0.540078 -0.361930 0.158275 0 0 255
0.525330 0.072436 0.176558 0 0 255
-0.385527 -0.421143 -0.430139 0 0 255
-0.562236 -0.320759 -0.071799 0 0 255
-0.423905 0.447715 0.285972 76 153 0
-0.299460 0.758529 -0.219169 76 153 0
-0.225073 0.771836 0.453204 76 153 0
0.118037 -0.783451 -0.279601 0 127 127
0.248515 0.411971 0.347945 255 0 0
0.040967 -0.026481 -0.574474 0 0 255
0.218468 0.505160 -0.399168 255 0 0
0.365814 0.641807 0.256792 255 0 0
0.394956 0.669858 0.176608 255 0 0
-0.452052 0.409296 0.136384 76 153 0
-0.399355 0.601797 0.219052 255 0 0
-0.264728 0.771836 0.383642 76 153 0
0.279679 -0.770778 -0.509200 0 0 255
-0.214920 -0.125799 -0.534072 0 0 255
-0.370254 -0.036925 -0.439188 0 0 255
-0.453789 -0.114269 -0.348287 0 0 255
0.159971 -0.723554 -0.558503 0 0 255
0.413782 0.525313 -0.159737 255 0 0
-0.409792 -0.075508 -0.405274 0 0 255
0.513915 -0.284954 -0.237845 0 0 255
0.460649 -0.801786 -0.337747 0 0 255
0.253593 0.339249 0.376319 255 0 0
-0.030869 -0.770869 -0.052209 0 127 127
-0.211172 0.647746 0.353402 255 0 0
-0.564140 -0.554959 -0.067233 0 0 255
0.525685 0.261281 -0.140219 0 0 255
-0.398611 0.629858 0.125477 255 0 0
-0.470838 0.501572 -0.234827 76 153 0
-0.102374 0.378866 -0.488788 76 153 0
0.309544 0.481835 -0.427023 76 153 0
-0.236979 -0.851299 -0.391520 0 0 255
-0.268335 0.231354 0.477575 0 0 255
0.250263 -0.635417 -0.520576 0 0 255
-0.235846 0.771836 0.130381 76 153 0
-0.205776 -0.563158 0.511890 0 0 255
-0.347115 -0.831479 0.401300 0 0 255
0.297636 -0.110519 0.463325 0 0 255
-0.291785 0.378866 -0.392714 255 0 0
-0.558108 -0.012084 -0.090117 0 0 255
0.216554 0.744849 -0.483537 76 153 0
-0.408030 0.380282 0.306660 76 153 0
-0.066005 -0.820545 -0.186447 0 0 255
-0.472360 0.437802 -0.068975 255 0 0
-0.399419 -0.714648 0.392939 0 0 255
0.300517 -0.820545 0.026576 0 0 255
0.268856 0.497873 0.429664 76 153 0
-0.108414 0.771836 -0.257008 76 153 0
-0.393337 0.742363 0.325808 76 153 0
-0.227383 0.758168 -0.323846 76 153 0
0.079312 -0.294852 -0.570919 0 0 255
0.493107 0.003019 -0.283930 0 0 255
-0.158107 -0.813692 -0.552137 0 0 255
0.273671 0.465691 -0.398973 255 0 0
-0.035498 -0.788489 0.117110 0 127 127
-0.421431 0.476172 -0.045582 255 0 0
-0.471280 0.378866 0.119585 76 153 0
0.050071 0.695193 -0.430656 255 0 0
-0.559627 0.040763 -0.076347 0 0 255
0.002362 -0.750770 -0.032813 0 127 127
-0.315573 0.378866 0.362038 76 153 0
0.517297 -0.723156 -0.235996 0 0 255
0.298170 0.637962 -0.435750 76 153 0
-0.442902 0.387240 -0.038962 255 0 0
-0.007344 0.471792 -0.436884 255 0 0
0.496433 0.233883 -0.260164 0 0 255
-0.416908 0.482230 0.051356 255 0 0
0.354027 0.157725 0.418190 0 0 255
0.348688 0.600980 0.274362 255 0 0
0.192358 -0.055308 -0.541099 0 0 255
0.016125 -0.820545 0.060668 0 0 255
-0.095957 0.417022 -0.523699 76 153 0
-0.297093 0.109519 0.465728 0 0 255
0.140791 0.771836 0.346135 76 153 0
0.194423 0.141792 0.510487 0 0 255
0.471473 0.413063 0.193651 76 153 0
-0.258128 0.537989 -0.346922 255 0 0
-0.352245 0.420869 -0.281102 255 0 0
-0.511992 0.533099 -0.105733 76 153 0
-0.506313 0.525240 0.120291 76 153 0
0.292813 -0.820545 -0.191530 0 0 255
0.300374 -0.028279 0.460652 0 0 255
-0.310810 -0.811973 -0.480443 0 0 255
-0.206398 -0.820545 -0.186479 0 0 255
0.214027 0.470157 0.456004 76 153 0
0.099079 0.240336 -0.557033 0 0 255
0.116499 0.697843 0.412825 255 0 0
0.555980 -0.767750 -0.103399 0 0 255
-0.030740 -0.235907 -0.577589 0 0 255
-0.022552 -0.820545 -0.252697 0 0 255
-0.471850 0.446450 0.044268 255 0 0
-0.073551 0.771836 -0.031543 76 153 0
0.010617 0.494155 0.505750 76 153 0
-0.003712 0.336366 -0.485663 255 0 0
-0.466709 -0.661574 -0.336408 0 0 255
-0.000914 0.256028 0.532976 0 0 255
0.026937 0.550607 -0.532182 76 153 0
0.119566 -0.416962 -0.566298 0 0 255
0.303600 0.601457 -0.304975 255 0 0
0.218050 0.771836 0.150485 76 153 0
-0.100360 0.208822 0.537369 0 0 255
0.072257 0.771836 0.145055 76 153 0
-0.323209 -0.771021 -0.144020 0 127 127
0.039800 -0.445295 0.548377 0 0 255
-0.161802 -0.851299 -0.413219 0 0 255
0.534296 -0.110603 -0.186129 0 0 255
-0.404653 0.487094 0.110891 255 0 0
-0.015980 -0.820545 -0.061431 0 0 255
0.425782 -0.481182 -0.382139 0 0 255
0.444854 -0.756521 0.331198 0 0 255
0.341583 0.771836 -0.284186 76 153 0
0.352365 0.637873 -0.302898 255 0 0
0.051099 0.771836 -0.105628 76 153 0
-0.444836 0.670220 -0.004308 255 0 0
-0.071576 0.771836 0.332838 76 153 0
0.136957 0.631781 0.382245 255 0 0
0.186859 -0.769474 0.127026 0 127 127
-0.088750 0.642278 0.397587 255 0 0
-0.280835 0.771836 -0.291883 76 153 0
-0.156136 -0.011147 -0.557737 0 0 255
0.209420 0.378866 -0.446092 76 153 0
-0.479601 0.771836 0.055853 76 153 0
-0.233246 0.410827 -0.391758 255 0 0
0.036526 -0.623881 -0.578382 0 0 255
0.559675 -0.170847 -0.050115 0 0 255
0.191358 0.771836 -0.251767 76 153 0
-0.532564 -0.755062 -0.210661 0 0 255
0.029281 0.290784 -0.529782 0 0 255
0.411693 -0.721024 -0.402672 0 0 255
0.436728 -0.582816 -0.368794 0 0 255
0.536379 0.042828 -0.178888 0 0 255
-0.395119 0.483433 -0.352066 76 153 0
-0.537575 -0.327354 -0.192399 0 0 255
0.440095 0.378866 -0.275317 76 153 0
-0.327030 0.623204 -0.280413 255 0 0
0.416060 0.642518 -0.051570 255 0 0
-0.419358 0.447643 0.032744 255 0 0
0.441325 0.497550 -0.016136 255 0 0
0.294342 0.452548 -0.315618 255 0 0
-0.203180 0.227316 -0.535529 0 0 255
-0.398061 0.547009 -0.208755 255 0 0
0.008113 0.771836 0.471830 76 153 0
-0.287173 0.660460 -0.324635 255 0 0
0.116279 0.604184 -0.419390 255 0 0
-0.560081 -0.568879 0.070073 0 0 255
0.548964 -0.203062 -0.132834 0 0 255
-0.343477 -0.554005 -0.463329 0 0 255
0.384334 0.599626 0.148881 255 0 0
-0.260071 -0.004943 -0.514649 0 0 255
0.005344 -0.142045 -0.579807 0 0 255
0.406761 0.557800 0.093621 255 0 0
-0.388946 0.398288 0.202179 255 0 0
0.005870 -0.569221 0.553533 0 0 255
0.229328 0.127129 0.496116 0 0 255
0.454404 0.281504 -0.282819 0 0 255
0.325498 0.771836 0.259207 76 153 0
-0.239323 -0.090976 -0.523756 0 0 255
-0.027866 0.643694 -0.470601 255 0 0
-0.057430 -0.820545 -0.311257 0 0 255
-0.377248 -0.174872 0.406200 0 0 255
0.263720 0.292771 0.428133 0 0 255
-0.414043 0.611420 0.073118 255 0 0
-0.517105 -0.446924 0.214960 0 0 255
0.457978 0.039594 -0.335463 0 0 255
0.094705 -0.827928 0.522903 0 0 255
-0.519988 0.455274 0.016420 76 153 0
-0.318514 -0.723061 -0.483659 0 0 255
-0.424010 0.351295 0.164087 255 0 0
0.202260 0.197219 0.506910 0 0 255
0.069275 -0.774126 -0.075109 0 127 127
0.392521 0.449988 -0.277051 255 0 0
-0.418329 -0.170157 -0.395006 0 0 255
0.356260 0.771836 -0.200680 76 153 0
0.072498 -0.820545 -0.282256 0 0 255
-0.526373 -0.102296 0.187619 0 0 255
0.422416 0.631833 0.154736 255 0 0
0.099361 0.410931 -0.522647 76 153 0
0.375453 0.472837 0.223224 255 0 0
-0.178936 -0.820244 0.510374 0 0 255
-0.262252 0.191395 0.483993 0 0 255
-0.496083 0.463656 -0.173880 76 153 0
-0.275820 -0.842007 -0.463535 0 0 255
0.438939 0.430123 0.011721 76 153 0
0.372064 -0.297134 0.407512 0 0 255
-0.253189 0.057588 0.488546 0 0 255
0.557339 -0.042523 -0.062436 0 0 255
0.066699 0.758614 -0.368800 76 153 0
0.259262 0.600980 0.360348 255 0 0
0.489108 0.248128 0.228947 0 0 255
-0.395990 -0.818053 -0.410159 0 0 255
-0.437835 -0.329847 0.342452 0 0 255
-0.110403 0.694834 -0.521797 76 153 0
0.535814 -0.509076 0.159627 0 0 255
-0.561037 -0.664143 -0.095416 0 0 255
0.085631 0.428042 -0.479983 76 153 0
0.361998 0.387910 0.233840 255 0 0
0.472305 0.678220 -0.220221 76 153 0
0.480058 -0.557541 0.283517 0 0 255
-0.318003 0.648783 -0.424048 76 153 0
0.560899 -0.015289 -0.034244 0 0 255
0.110533 0.667523 -0.443296 255 0 0
0.230893 -0.814697 0.100034 0 127 127
-0.231225 0.164616 -0.525585 0 0 255
0.335324 0.507499 0.378661 76 153 0
0.133377 0.771836 0.298012 76 153 0
0.395082 0.451564 -0.151513 255 0 0
0.249672 0.421930 0.441239 76 153 0
0.092310 -0.692416 0.542839 0 0 255
0.138394 0.246703 0.519770 0 0 255
-0.485239 0.291621 0.163563 0 0 255
0.305660 0.022320 0.456244 0 0 255
0.406973 0.189148 0.371999 0 0 255
-0.410514 -0.432939 0.378991 0 0 255
0.528337 0.098142 -0.197508 0 0 255
0.365046 0.771836 0.306753 76 153 0
-0.513700 -0.380038 -0.250798 0 0 255
0.070864 -0.820545 0.018524 0 0 255
-0.515166 0.662943 -0.081627 76 153 0
-0.472514 0.770256 -0.230780 76 153 0
0.340254 0.665190 -0.403459 76 153 0
0.286607 0.672691 0.318717 255 0 0
0.324360 0.577375 0.249341 255 0 0
0.053647 0.517311 -0.450785 255 0 0
0.566103 -0.756272 -0.002564 0 0 255
-0.428001 0.397841 0.194446 255 0 0
0.516824 -0.772277 -0.237846 0 0 255
0.260222 0.771529 0.436289 76 153 0
-0.291087 0.644749 0.293051 255 0 0
0.518652 -0.433653 -0.228553 0 0 255
0.472915 0.739302 -0.218750 76 153 0
-0.055272 0.578150 -0.529055 76 153 0
-0.353957 0.458106 -0.396460 76 153 0
-0.557098 0.159068 -0.090553 0 0 255
-0.350326 -0.430109 0.428632 0 0 255
0.469835 0.067691 0.291175 0 0 255
0.070024 0.603837 -0.428029 255 0 0
0.079842 -0.106408 -0.569801 0 0 255
-0.504838 -0.500621 -0.273930 0 0 255
-0.071088 0.771836 -0.185503 76 153 0
0.052235 0.016500 0.544172 0 0 255
0.129064 -0.544129 0.537175 0 0 255
0.226822 0.771836 0.076026 76 153 0
0.119256 -0.774126 -0.066660 0 127 127
-0.026510 -0.287052 0.549850 0 0 255
-0.297498 0.452309 -0.439782 76 153 0
0.279177 0.771836 0.268126 76 153 0
0.203891 0.388008 0.376626 255 0 0
0.246217 0.283104 -0.478491 0 0 255
0.435114 -0.653764 -0.371540 0 0 255
0.140349 0.771836 0.483429 76 153 0
-0.537059 -0.082673 -0.190120 0 0 255
-0.036846 0.771836 0.408639 76 153 0
-0.088403 0.327491 -0.480358 255 0 0
0.201522 -0.851299 -0.465215 0 0 255
-0.443258 0.506514 0.007682 255 0 0
0.503504 0.635320 0.106824 76 153 0
-0.514212 0.596722 -0.088876 76 153 0
0.488153 0.666917 -0.181961 76 153 0
0.097682 0.200604 -0.565744 0 0 255
-0.556136 -0.739090 0.107224 0 0 255
0.418512 0.391445 -0.234873 255 0 0
-0.518499 0.412461 0.027731 76 153 0
-0.106852 0.699222 -0.441021 255 0 0
0.025641 -0.820545 0.239480 0 0 255
-0.473648 0.522706 0.199461 76 153 0
0.543813 -0.102475 0.134455 0 0 255
-0.565735 -0.287526 -0.043818 0 0 255
-0.562297 0.106940 -0.053268 0 0 255
-0.187259 0.515226 0.363307 255 0 0
-0.510610 -0.299311 -0.257094 0 0 255
-0.306500 0.600980 -0.352050 255 0 0
-0.332660 0.165112 0.438051 0 0 255
0.367972 -0.845701 0.081358 0 0 255
-0.458178 0.771836 0.174249 76 153 0
0.081430 -0.823421 -0.558301 0 0 255
0.445557 0.472837 0.016326 255 0 0
-0.556033 -0.806101 -0.109346 0 0 255
-0.029331 -0.493405 0.550626 0 0 255
-0.023023 0.461611 0.504720 76 153 0
0.496253 -0.407948 -0.282257 0 0 255
-0.544418 -0.022427 0.142905 0 0 255
-0.376703 0.621221 -0.206948 255 0 0
0.564276 -0.339503 -0.022290 0 0 255
0.081963 0.491515 -0.447057 255 0 0
-0.491800 -0.086564 0.269920 0 0 255
-0.529771 -0.214515 -0.209613 0 0 255
-0.434637 0.771836 -0.016120 76 153 0
-0.348264 -0.843004 -0.161165 0 0 255
-0.412001 0.491488 -0.117208 255 0 0
-0.553216 -0.496155 -0.147725 0 0 255
0.456566 -0.237026 0.311228 0 0 255
-0.008758 0.762733 0.348451 76 153 0
0.208629 -0.820545 -0.190888 0 0 255
-0.209243 0.478733 -0.488464 76 153 0
0.497326 -0.708765 -0.284001 0 0 255
-0.269390 0.571937 -0.364024 255 0 0
-0.499514 -0.133476 0.252913 0 0 255
0.103905 0.402601 -0.444168 255 0 0
0.312381 -0.820545 -0.138559 0 0 255
-0.378134 0.379921 0.273193 255 0 0
0.366838 0.386551 0.354371 76 153 0
-0.178240 0.378866 -0.469943 76 153 0
0.129720 0.643681 0.425749 255 0 0
0.215580 0.566953 -0.483940 76 153 0
-0.053135 0.663327 -0.430856 255 0 0
0.554075 -0.290101 -0.097687 0 0 255
0.328455 0.437254 -0.356936 255 0 0
0.180632 0.600980 -0.430701 255 0 0
-0.231261 0.602127 -0.367538 255 0 0
-0.436622 0.329955 -0.198254 0 0 255
0.120122 0.530625 -0.439904 255 0 0
0.071400 0.244758 0.529661 0 0 255
-0.211553 -0.477599 -0.537567 0 0 255
-0.458208 0.293686 -0.251245 0 0 255
-0.557287 0.120739 -0.090739 0 0 255
0.349850 0.430123 0.257982 255 0 0
-0.423257 -0.700370 -0.393387 0 0 255
0.496763 -0.163689 0.248928 0 0 255
-0.045415 0.284691 -0.535273 0 0 255
0.296480 0.623951 0.408467 76 153 0
-0.544559 0.045912 0.141580 0 0 255
-0.170552 0.771836 -0.014086 76 153 0
-0.502704 -0.851240 0.078773 0 0 255
-0.507243 0.049298 0.231619 0 0 255
0.256472 0.336730 -0.404742 0 0 255
0.215145 -0.791341 -0.008166 0 127 127
-0.520512 -0.822750 -0.202283 0 0 255
0.276071 0.380076 0.326801 255 0 0
-0.109018 0.623919 -0.423498 255 0 0
0.041673 0.771836 0.071695 76 153 0
-0.312338 -0.281992 0.456751 0 0 255
0.149261 -0.797482 -0.083899 0 127 127
-0.140489 0.070265 -0.561437 0 0 255
-0.156632 -0.851299 0.383076 0 0 255
0.428520 0.378983 0.084819 255 0 0
0.425970 0.156984 -0.376114 0 0 255
-0.234113 0.454711 0.362513 255 0 0
0.005710 -0.803735 -0.581026 0 0 255
-0.165827 -0.370927 -0.555871 0 0 255
0.261895 -0.851299 0.414383 0 0 255
0.462814 0.414337 0.078092 76 153 0
0.309348 -0.716900 0.458553 0 0 255
0.558028 -0.509255 -0.076921 0 0 255
0.180935 0.539974 0.364028 255 0 0
0.268948 -0.835095 -0.260195 0 0 255
0.139277 0.771836 -0.314879 76 153 0
-0.472154 -0.380906 -0.326768 0 0 255
0.258708 0.405988 -0.368704 255 0 0
-0.271941 0.608352 -0.383494 255 0 0
0.089815 0.587177 0.417443 255 0 0
0.370774 -0.032254 -0.435240 0 0 255
0.214725 0.699222 -0.385867 255 0 0
-0.208095 -0.043936 0.507831 0 0 255
0.178795 -0.791341 0.056746 0 127 127
-0.329119 -0.760784 -0.033256 0 127 127
-0.418931 -0.363122 0.367390 0 0 255
0.544602 0.243537 -0.070746 0 0 255
-0.165110 -0.595020 -0.557505 0 0 255
-0.366793 0.672274 -0.262143 255 0 0
0.065237 -0.820545 0.179947 0 127 127
0.526175 -0.381621 0.181060 0 0 255
-0.444543 0.402425 -0.002078 255 0 0
-0.467508 -0.045576 0.301206 0 0 255
0.415616 0.280155 -0.335898 0 0 255
-0.438365 0.600980 -0.137429 255 0 0
-0.552207 0.219168 -0.125164 0 0 255
0.115998 0.589947 0.491877 76 153 0
-0.438391 0.513305 -0.295673 76 153 0
-0.132834 0.597697 0.490263 76 153 0
0.513282 0.736854 0.032550 76 153 0
0.175550 -0.851299 -0.392904 0 0 255
0.416065 -0.851299 -0.052754 0 0 255
0.428582 0.658513 0.084346 255 0 0
-0.362687 0.473609 0.361181 76 153 0
0.404212 0.378866 -0.329540 76 153 0
0.450797 0.433807 0.128348 76 153 0
0.332475 -0.420469 -0.467327 0 0 255
-0.188966 -0.851299 -0.358432 0 0 255
-0.277282 0.378866 0.379283 255 0 0
-0.290918 0.065469 0.470772 0 0 255
0.121015 -0.822527 -0.360847 0 127 127
0.384090 0.378866 0.269857 76 153 0
0.255819 -0.684829 -0.518570 0 0 255
0.439617 -0.094744 -0.360609 0 0 255
0.030087 -0.820545 -0.116239 0 0 255
-0.569191 -0.659255 -0.033272 0 0 255
0.479745 0.287172 -0.207610 0 0 255
-0.165446 0.418097 0.430300 255 0 0
-0.168552 0.607190 0.371056 255 0 0
-0.510487 -0.420599 -0.259139 0 0 255
0.416719 -0.240129 -0.391766 0 0 255
0.362732 0.633223 -0.227914 255 0 0
-0.329629 0.448625 0.330971 255 0 0
-0.354676 0.433980 -0.332345 255 0 0
-0.047619 -0.734244 -0.578138 0 0 255
-0.066199 -0.771546 0.197013 0 127 127
0.339111 0.539119 -0.404335 76 153 0
0.336456 -0.168515 -0.462521 0 0 255
-0.005874 0.643263 -0.535558 76 153 0
0.362749 0.611355 0.199311 255 0 0
0.513835 0.771836 0.008558 76 153 0
0.300312 0.378866 0.401319 76 153 0
0.042966 -0.407549 0.547750 0 0 255
0.117773 0.397525 0.447171 76 153 0
-0.553384 0.095263 -0.121463 0 0 255
-0.219869 -0.022193 -0.531404 0 0 255
-0.541133 0.252513 0.065775 0 0 255
0.407870 0.397382 0.145430 255 0 0
-0.446250 0.472837 -0.015971 255 0 0
0.055955 -0.851299 -0.495480 0 0 255
-0.096624 -0.820545 -0.247789 0 0 255
0.447692 0.467643 0.248999 76 153 0
-0.011674 0.339100 0.454253 0 0 255
0.198949 0.643694 0.391676 255 0 0
-0.228135 0.086982 0.498748 0 0 255
0.039402 0.378866 -0.520953 76 153 0
0.031006 0.771836 -0.027944 76 153 0
0.538725 -0.585530 0.153700 0 0 255
0.283911 0.557062 -0.446691 76 153 0
-0.165881 0.378866 0.447323 76 153 0
0.476543 0.484322 -0.209990 76 153 0
-0.277671 -0.250984 0.480247 0 0 255
-0.386406 0.651879 0.334841 76 153 0
-0.082871 0.019703 -0.569304 0 0 255
0.230143 0.638587 -0.412050 255 0 0
-0.354466 -0.506467 -0.454566 0 0 255
-0.024961 -0.454053 0.550983 0 0 255
-0.538158 -0.308216 0.162135 0 0 255
-0.228497 0.692292 -0.480488 76 153 0
0.252464 0.730541 -0.468663 76 153 0
0.043046 -0.308125 0.547187 0 0 255
-0.510094 -0.780642 0.236696 0 0 255
-0.419638 0.389681 -0.243216 76 153 0
-0.247816 0.327260 0.394251 255 0 0
-0.455477 -0.415417 0.320235 0 0 255
0.172388 -0.788843 -0.322217 0 127 127
0.453882 0.332607 -0.141044 255 0 0
0.282156 -0.186009 0.475727 0 0 255
0.501126 -0.622624 -0.273586 0 0 255
0.481420 0.752207 0.169635 76 153 0
0.392624 -0.212053 0.391144 0 0 255
0.314791 -0.851299 0.269988 0 0 255
0.271962 0.472837 0.354343 255 0 0
-0.508610 0.399007 0.102847 76 153 0
-0.440229 -0.851299 -0.058662 0 0 255
0.482244 0.587423 0.167646 76 153 0
-0.089591 0.771836 0.101491 76 153 0
-0.454859 -0.531855 -0.350676 0 0 255
0.323962 0.771836 -0.367127 76 153 0
-0.244938 0.600980 0.369577 255 0 0
0.331253 0.535470 -0.268938 255 0 0
-0.314810 -0.303086 -0.483581 0 0 255
-0.427892 -0.270255 0.354870 0 0 255
-0.420623 0.363166 -0.180798 255 0 0
-0.037480 -0.845512 -0.531485 0 0 255
-0.328376 -0.762071 -0.189404 0 127 127
-0.315600 0.123265 -0.480012 0 0 255
0.453174 0.600980 -0.013876 255 0 0
0.426202 -0.024982 0.348879 0 0 255
0.199886 -0.716074 0.513345 0 0 255
-0.561683 0.185124 -0.054631 0 0 255
-0.254923 -0.446169 -0.519415 0 0 255
-0.558129 -0.795489 0.094469 0 0 255
0.399665 0.573836 -0.193820 255 0 0
-0.507907 -0.622602 -0.268279 0 0 255
0.374430 0.736033 -0.373056 76 153 0
-0.373148 0.583541 0.352119 76 153 0
-0.037511 -0.313558 -0.577129 0 0 255
0.507153 -0.360164 -0.255255 0 0 255
0.494472 -0.324654 -0.285356 0 0 255
0.397308 0.446297 0.242233 255 0 0
0.109927 -0.765133 0.200538 0 127 127
0.520257 -0.031496 -0.218883 0 0 255
-0.044342 0.640200 0.441179 255 0 0
0.005827 -0.307768 0.552085 0 0 255
0.466227 -0.160645 -0.326526 0 0 255
-0.335451 -0.793435 -0.002396 0 127 127
0.366451 -0.800930 -0.443176 0 0 255
-0.350209 -0.831638 -0.427188 0 0 255
-0.060551 0.530120 0.401299 255 0 0
0.560314 -0.020220 0.010311 0 0 255
0.299383 0.514428 0.281892 255 0 0
0.232598 -0.151670 -0.525006 0 0 255
0.468457 -0.743115 0.300316 0 0 255
0.400498 0.664762 -0.339084 76 153 0
-0.285326 0.771836 0.306757 76 153 0
0.159844 0.771836 -0.366134 76 153 0
0.430463 0.405303 -0.300033 76 153 0
-0.399515 0.394581 -0.205245 76 153 0
0.248037 0.639377 0.369740 255 0 0
-0.328616 -0.761656 -0.080238 0 127 127
-0.023716 0.405416 -0.533209 76 153 0
-0.570790 -0.791131 -0.026697 0 0 255
-0.564851 -0.226004 0.019351 0 0 255
0.032273 0.727970 -0.531479 76 153 0
-0.387682 0.476218 0.151862 255 0 0
0.204545 -0.796542 0.511895 0 0 255
-0.303316 0.233942 0.454063 0 0 255
0.552181 0.242807 -0.016230 0 0 255
0.307666 0.216345 0.453357 0 0 255
0.244849 -0.128662 0.491214 0 0 255
0.444856 0.426543 0.252695 76 153 0
0.446554 0.474162 -0.279062 76 153 0
0.057375 0.470286 0.499595 76 153 0
-0.012961 -0.820545 -0.001629 0 0 255
-0.366581 0.550148 0.200290 255 0 0
-0.317801 -0.412509 0.453467 0 0 255
-0.441473 0.563261 0.021235 255 0 0
0.200716 0.509396 0.461518 76 153 0
0.056326 0.621262 0.401252 255 0 0
0.182562 -0.007290 0.516290 0 0 255
0.110049 -0.240200 0.537988 0 0 255
-0.495933 0.568837 -0.174242 76 153 0
-0.310665 0.549120 -0.429679 76 153 0
-0.051152 -0.851299 0.443827 0 0 255
-0.523361 0.745471 -0.009197 76 153 0
0.521145 -0.833631 -0.146477 0 0 255
-0.148079 0.771836 0.064569 76 153 0
0.040236 -0.344823 -0.576341 0 0 255
0.496218 0.213112 0.244813 0 0 255
0.456248 -0.851299 -0.056629 0 0 255
0.456147 -0.724210 -0.344768 0 0 255
-0.209376 0.414029 0.459829 76 153 0
0.468335 -0.833501 -0.279824 0 0 255
-0.515198 -0.526672 -0.249293 0 0 255
0.510555 -0.654868 -0.251287 0 0 255
-0.414329 0.643286 -0.213901 255 0 0
-0.442758 0.374774 0.031737 255 0 0
0.020814 0.771836 0.289100 76 153 0
0.065221 -0.612481 0.545960 0 0 255
-0.222817 0.771836 -0.168563 76 153 0
0.327485 -0.820545 0.083931 0 0 255
-0.518386 0.740667 -0.057172 76 153 0
0.502044 0.134393 -0.260462 0 0 255
0.427802 0.530963 -0.303501 76 153 0
-0.139036 -0.820545 0.147827 0 0 255
0.472897 -0.389418 -0.319906 0 0 255
-0.169927 -0.649971 -0.555838 0 0 255
0.387361 0.588303 -0.356205 76 153 0
0.555901 -0.354568 0.057962 0 0 255
-0.265968 0.459716 0.435396 76 153 0
0.026112 0.631377 -0.471556 255 0 0
-0.440999 0.554997 0.263694 76 153 0
0.421198 0.699222 0.111681 255 0 0
-0.322997 -0.846608 -0.221930 0 0 255
-0.431770 0.037809 -0.375606 0 0 255
-0.325068 0.325138 -0.366605 0 0 255
0.534338 -0.714066 -0.194724 0 0 255
-0.557159 0.018886 0.067434 0 0 255
0.047787 0.638059 0.440122 255 0 0
-0.260999 0.334098 -0.406928 0 0 255
0.315389 0.695795 -0.323162 255 0 0
-0.182549 0.488971 0.470940 76 153 0
-0.287223 -0.792132 -0.117666 0 127 127
0.139724 0.688820 -0.515361 76 153 0
0.020143 -0.837003 0.518200 0 0 255
-0.565594 0.128412 -0.001265 0 0 255
0.264459 0.636019 0.309968 255 0 0
0.098906 0.055454 -0.566391 0 0 255
0.344904 -0.005869 -0.454908 0 0 255
-0.121850 0.611483 -0.520290 76 153 0
-0.559866 -0.728451 -0.107023 0 0 255
0.007760 0.561611 0.506127 76 153 0
-0.152457 0.771836 0.146286 76 153 0
-0.567194 -0.289166 0.004223 0 0 255
0.476528 -0.286195 0.285659 0 0 255
0.510669 0.434455 -0.080976 76 153 0
0.066186 0.550350 0.498435 76 153 0
0.027356 -0.820545 0.114749 0 0 255
0.218960 -0.231865 -0.531134 0 0 255
-0.184947 0.140075 -0.544901 0 0 255
-0.187123 0.771836 0.466164 76 153 0
0.280905 0.233039 -0.496945 0 0 255
0.509031 0.592651 0.064837 76 153 0
-0.116816 -0.820545 -0.022765 0 0 255
0.413781 0.771836 0.022489 76 153 0
-0.342693 0.472837 0.268819 255 0 0
0.259615 -0.798985 0.081833 0 127 127
0.188980 0.260219 0.491490 0 0 255
-0.260619 0.643694 -0.384220 255 0 0
0.487645 0.710468 0.154607 76 153 0
0.088831 -0.777927 -0.137473 0 127 127
0.311651 -0.317231 -0.482587 0 0 255
0.166361 -0.231993 0.524342 0 0 255
-0.032026 0.397700 0.459063 76 153 0
0.166015 0.228195 -0.548506 0 0 255
0.012359 0.582495 0.427640 255 0 0
-0.040319 0.244768 0.534351 0 0 255
-0.527995 -0.713374 0.192509 0 0 255
-0.432894 -0.043455 -0.374877 0 0 255
0.499418 -0.501607 0.247385 0 0 255
0.311269 0.511267 -0.294981 255 0 0
-0.047393 -0.821261 0.328476 0 0 255
-0.300318 -0.122981 0.464870 0 0 255
0.066394 0.532849 0.399927 255 0 0
-0.530439 0.205009 -0.201955 0 0 255
0.137466 0.137128 0.532280 0 0 255
0.181158 -0.596942 0.520391 0 0 255
0.342262 0.294388 -0.394120 0 0 255
-0.360406 0.543252 -0.391511 76 153 0
-0.283868 0.771836 -0.188307 76 153 0
0.556546 -0.609374 -0.092407 0 0 255
0.448266 -0.636647 0.325665 0 0 255
0.015408 -0.098939 0.549662 0 0 255
-0.029187 -0.684052 0.551706 0 0 255
-0.560403 -0.032531 0.044964 0 0 255
-0.058800 0.632765 -0.528591 76 153 0
-0.333690 0.542149 0.383431 76 153 0
-0.480070 -0.851299 -0.047155 0 0 255
-0.387318 -0.497882 -0.429298 0 0 255
0.341329 -0.851299 -0.226471 0 0 255
-0.344097 0.689251 -0.404025 76 153 0
-0.483306 0.138861 -0.307527 0 0 255
-0.250377 -0.282171 -0.520319 0 0 255
0.440147 0.699222 -0.012387 255 0 0
-0.380606 0.461600 0.215561 255 0 0
-0.146541 0.446571 -0.466711 255 0 0
-0.284717 0.075856 -0.503958 0 0 255
-0.486753 0.771836 -0.018911 76 153 0
-0.091096 -0.827197 0.525151 0 0 255
0.393067 0.771836 0.096970 76 153 0
-0.198901 0.467607 -0.409171 255 0 0
-0.208523 -0.836759 -0.503886 0 0 255
-0.097195 0.277994 -0.536163 0 0 255
0.394680 -0.845011 -0.348116 0 0 255
0.002015 0.771836 -0.506209 76 153 0
-0.331883 0.210053 -0.466915 0 0 255
0.402534 0.267026 -0.368436 0 0 255
-0.566832 -0.493050 0.015589 0 0 255
-0.445195 -0.851299 0.076160 0 0 255
-0.145818 0.431250 -0.431159 76 153 0
-0.206233 0.771836 0.108336 76 153 0
0.066813 0.626596 0.498352 76 153 0
-0.109198 -0.326715 -0.567765 0 0 255
-0.555918 -0.234606 0.087568 0 0 255
-0.283823 0.652546 -0.450275 76 153 0
0.431081 -0.515394 0.346963 0 0 255
0.544843 0.060825 0.124407 0 0 255
0.388167 -0.851299 -0.084155 0 0 255
-0.096712 0.771836 -0.300937 76 153 0
-0.129924 -0.407973 0.536908 0 0 255
0.189888 0.771836 0.454973 76 153 0
-0.271341 0.573439 0.431273 76 153 0
-0.359977 0.771836 -0.188985 76 153 0
0.399871 0.523459 0.311321 76 153 0
0.230693 0.699222 0.339561 255 0 0
-0.550935 -0.291497 0.127823 0 0 255
0.354775 0.120230 -0.446457 0 0 255
0.048549 -0.849583 0.494332 0 0 255
0.530791 0.154430 -0.190772 0 0 255
0.390285 -0.151903 0.392521 0 0 255
0.462105 0.607728 -0.244847 76 153 0
0.108011 -0.797482 -0.107149 0 127 127
-0.216874 0.580203 0.349997 255 0 0
-0.048850 -0.359856 0.547314 0 0 255
0.382234 0.604669 -0.263972 255 0 0
-0.398573 0.416055 -0.347565 76 153 0
-0.409341 0.565894 -0.128153 255 0 0
-0.464750 -0.459373 -0.337129 0 0 255
0.231294 -0.767985 0.061639 0 127 127
-0.215602 -0.767361 -0.537619 0 0 255
-0.387411 0.471143 -0.181097 255 0 0
0.372952 -0.205652 -0.434774 0 0 255
0.469175 0.426234 -0.058359 255 0 0
0.464358 0.759326 0.210826 76 153 0
0.454548 0.506274 -0.263091 76 153 0
0.165424 0.384084 -0.456992 255 0 0
-0.507409 -0.161900 -0.262843 0 0 255
0.555409 0.142370 -0.069285 0 0 255
0.380111 0.555652 0.210234 255 0 0
-0.182401 0.600980 0.405095 255 0 0
0.033040 -0.796386 0.551220 0 0 255
0.496337 -0.088891 0.248876 0 0 255
0.332834 0.771836 0.334488 76 153 0
0.403146 -0.793622 -0.414469 0 0 255
-0.032841 0.771836 -0.305799 76 153 0
-0.429816 -0.612206 0.355460 0 0 255
0.559090 -0.265606 0.029977 0 0 255
0.293096 0.444885 0.411064 76 153 0
0.100710 -0.610906 -0.569860 0 0 255
0.373370 0.041156 -0.432738 0 0 255
0.341343 0.471493 0.315168 255 0 0
-0.506851 -0.517842 0.240738 0 0 255
-0.557313 -0.308440 -0.108674 0 0 255
-0.357426 -0.174244 -0.449986 0 0 255
0.392248 0.197408 -0.417167 0 0 255
0.142356 0.558829 -0.514271 76 153 0
0.547972 -0.654876 0.130874 0 0 255
-0.359656 -0.340400 -0.449429 0 0 255
0.138069 -0.451657 -0.564055 0 0 255
-0.002761 0.526586 -0.535968 76 153 0
0.560296 -0.078022 0.012894 0 0 255
-0.409285 0.667903 -0.128287 255 0 0
-0.508528 0.414192 -0.132049 76 153 0
-0.331033 0.378866 -0.379351 76 153 0
0.070811 -0.771657 -0.574690 0 0 255
-0.352263 -0.281075 0.426110 0 0 255
0.015077 -0.045038 0.549406 0 0 255
-0.255860 0.511908 -0.469154 76 153 0
0.290494 -0.820545 -0.052533 0 0 255
-0.055535 0.396479 -0.451140 76 153 0
-0.565332 -0.342324 0.020614 0 0 255
0.076831 0.687911 -0.525613 76 153 0
-0.424920 0.595646 -0.009502 255 0 0
-0.335576 0.607069 -0.330750 255 0 0
0.251612 0.771836 -0.430498 76 153 0
0.421863 -0.401170 -0.386521 0 0 255
-0.338493 -0.820545 -0.072970 0 127 127
0.296902 -0.030523 -0.491912 0 0 255
-0.315808 0.496649 0.397152 76 153 0
0.270397 0.758168 -0.267821 76 153 0
0.268266 0.574798 0.430116 76 153 0
0.438477 0.549458 0.009190 255 0 0
0.396502 -0.832111 0.350775 0 0 255
0.179216 0.672203 -0.499003 76 153 0
0.213873 0.579473 -0.377364 255 0 0
-0.181691 0.430123 -0.442204 255 0 0
0.349182 0.294053 0.360712 0 0 255
-0.417087 0.445889 -0.162822 255 0 0
-0.176980 -0.689864 0.524574 0 0 255
-0.029905 -0.081294 -0.576839 0 0 255
0.419837 0.589150 -0.022881 255 0 0
0.408263 0.655583 -0.110796 255 0 0
0.140679 0.357009 -0.446678 0 0 255
-0.026866 -0.105318 0.548792 0 0 255
-0.553210 0.136289 0.092471 0 0 255
-0.321106 -0.737471 0.000675 0 127 127
0.178561 -0.793476 -0.110359 0 127 127
-0.228909 -0.820545 -0.101037 0 0 255
-0.190341 0.771836 0.256537 76 153 0
-0.258959 -0.820479 0.477064 0 0 255
-0.370235 -0.851299 -0.242656 0 127 127
-0.391444 0.179158 -0.421427 0 0 255
0.260873 -0.285851 0.485515 0 0 255
0.418872 0.418638 -0.147449 255 0 0
-0.438210 0.771836 -0.073698 76 153 0
0.368948 0.541459 -0.214606 255 0 0
-0.012182 0.636987 0.407667 255 0 0
0.248417 -0.592880 0.492507 0 0 255
-0.536728 -0.274927 -0.193688 0 0 255
-0.544957 -0.814300 0.124539 0 0 255
0.391868 -0.851299 0.250266 0 0 255
0.429824 -0.469234 0.348183 0 0 255
0.050744 0.472837 -0.456555 255 0 0
0.190776 -0.820545 0.239447 0 0 255
-0.520156 -0.451708 -0.236244 0 0 255
0.145022 0.447933 0.436862 255 0 0
0.093498 0.188345 0.537783 0 0 255
0.167170 -0.561561 -0.554554 0 0 255
0.493061 0.632845 0.141532 76 153 0
0.387546 0.323722 -0.290823 0 0 255
-0.568477 -0.575993 0.006593 0 0 255
-0.355626 0.607551 0.276040 255 0 0
-0.424734 -0.851299 -0.296338 0 0 255
0.023680 0.582268 -0.454730 255 0 0
0.405629 -0.568976 0.380617 0 0 255
0.440360 0.421357 -0.023467 255 0 0
-0.053325 0.477535 -0.529311 76 153 0
0.461135 0.697957 0.218608 76 153 0
-0.501750 -0.708068 0.255794 0 0 255
0.106515 0.771836 0.373391 76 153 0
-0.462973 -0.203366 0.308546 0 0 255
-0.088837 -0.788810 0.120540 0 127 127
-0.482505 0.316702 -0.087261 0 0 255
0.009096 0.411328 -0.456650 255 0 0
-0.548717 0.110255 -0.156273 0 0 255
0.435822 0.306170 -0.257004 0 0 255
-0.293371 0.742923 -0.442949 76 153 0
0.553012 -0.069756 0.067868 0 0 255
-0.434976 0.404331 -0.099171 255 0 0
0.495947 0.485709 0.134564 76 153 0
0.256930 0.447156 -0.466813 76 153 0
-0.390464 -0.851299 0.196722 0 0 255
-0.026984 0.712700 -0.532779 76 153 0
0.260215 0.698095 0.436294 76 153 0
-0.479988 0.647062 -0.212735 76 153 0
0.118874 -0.302535 -0.565753 0 0 255
-0.247370 0.396401 -0.472671 76 153 0
-0.241917 -0.288517 0.495281 0 0 255
-0.485779 0.312248 0.072741 255 0 0
0.223231 -0.115109 -0.528668 0 0 255
-0.177298 0.771836 -0.212253 76 153 0
-0.449325 -0.586087 0.329799 0 0 255
0.557144 -0.607750 0.059218 0 0 255
-0.203234 0.472837 0.398961 255 0 0
0.221839 0.766849 -0.327017 76 153 0
0.181634 0.411184 -0.414425 255 0 0
-0.085902 -0.593816 0.543737 0 0 255
-0.290354 -0.792614 -0.028090 0 127 127
-0.186159 0.370116 0.391990 255 0 0
0.499175 -0.713724 0.251031 0 0 255
-0.097561 0.699222 0.398123 255 0 0
0.119470 0.473326 -0.520000 76 153 0
-0.012873 0.008281 0.550003 0 0 255
-0.404352 0.560763 0.311453 76 153 0
0.548710 -0.405586 0.114732 0 0 255
-0.124436 0.397315 0.411435 255 0 0
-0.473710 0.437613 -0.227892 76 153 0
0.099107 0.315205 -0.492484 0 0 255
0.353283 -0.303094 -0.450544 0 0 255
0.358844 0.081569 0.415023 0 0 255
0.307234 0.771836 -0.057605 76 153 0
-0.471242 0.396752 -0.077465 255 0 0
0.007439 -0.216421 -0.579945 0 0 255
0.239600 0.430123 -0.388489 255 0 0
-0.335557 0.489949 -0.302850 255 0 0
-0.146008 0.265656 0.507974 0 0 255
-0.098025 -0.260913 -0.568870 0 0 255
0.261714 0.771836 -0.152053 76 153 0
0.319453 -0.801888 -0.478462 0 0 255
0.439254 0.299541 0.239904 0 0 255
-0.495837 -0.072152 -0.289487 0 0 255
-0.157567 -0.061630 -0.557446 0 0 255
0.204589 -0.533274 -0.538886 0 0 255
-0.317393 0.545738 -0.326522 255 0 0
-0.280912 0.770753 0.423929 76 153 0
-0.236826 -0.851299 0.419864 0 0 255
0.174687 -0.128752 -0.548857 0 0 255
-0.308937 0.582634 0.402424 76 153 0
-0.046561 0.168921 -0.573254 0 0 255
0.250495 0.607264 -0.396434 255 0 0
-0.135030 -0.031169 0.534140 0 0 255
0.201285 0.310777 -0.462926 0 0 255
0.299815 0.378866 -0.391278 76 153 0
0.164248 -0.466981 0.526619 0 0 255
0.204366 -0.756925 -0.280342 0 127 127
0.502653 0.737383 -0.141864 76 153 0
0.529042 -0.834752 -0.072868 0 0 255
0.129468 0.305307 0.470848 0 0 255
-0.262335 -0.820545 0.136122 0 0 255
0.055488 0.657180 -0.528423 76 153 0
-0.388519 0.667140 0.203210 255 0 0
-0.491086 0.736729 0.157363 76 153 0
-0.392428 -0.457543 -0.425097 0 0 255
0.269419 0.690397 -0.457812 76 153 0
0.385258 0.405878 0.330366 76 153 0
-0.550673 -0.009945 -0.146499 0 0 255
0.466452 0.522499 0.205772 76 153 0
0.340933 0.758168 0.124537 76 153 0
0.148604 -0.769729 -0.341123 0 127 127
-0.441603 0.515925 0.262907 76 153 0
0.559107 -0.425592 0.036605 0 0 255
0.258850 0.378866 0.416406 76 153 0
0.238247 0.771836 -0.027910 76 153 0
0.302107 -0.633673 -0.492110 0 0 255
0.060141 -0.820545 0.055827 0 0 255
-0.205728 0.533143 -0.406343 255 0 0
-0.368689 0.152136 -0.439074 0 0 255
-0.052115 0.073555 0.544473 0 0 255
0.511804 0.649035 -0.072358 76 153 0
-0.200041 -0.412359 -0.541946 0 0 255
-0.361807 -0.688875 -0.450201 0 0 255
-0.470537 0.319231 -0.145317 0 0 255
0.194015 0.600980 0.392964 255 0 0
-0.215088 0.088626 -0.532723 0 0 255
-0.108968 0.682865 0.493406 76 153 0
-0.083593 0.411602 0.418865 255 0 0
-0.139093 0.468580 -0.411838 255 0 0
-0.126452 -0.820545 0.213824 0 0 255
0.050151 0.460038 0.422665 255 0 0
-0.048977 0.725561 0.501304 76 153 0
-0.355944 -0.148288 0.422363 0 0 255
0.077684 -0.820545 -0.100837 0 0 255
-0.310962 0.353044 0.324578 255 0 0
0.063158 -0.793188 0.231709 0 127 127
-0.075588 -0.811845 0.157835 0 127 127
-0.189333 -0.820545 -0.097804 0 0 255
-0.130344 -0.352418 0.536544 0 0 255
0.485762 0.612673 -0.187734 76 153 0
-0.319982 -0.165055 0.450073 0 0 255
0.036479 0.758168 0.358200 76 153 0
-0.355881 -0.785068 -0.126336 0 127 127
-0.388433 0.546484 0.150050 255 0 0
0.163944 -0.547938 0.527229 0 0 255
0.461966 -0.183086 0.303702 0 0 255
0.192610 0.621505 -0.387772 255 0 0
0.291928 0.020068 -0.495377 0 0 255
0.415869 0.623311 0.024440 255 0 0
0.026983 0.090867 -0.575663 0 0 255
0.133639 0.699222 -0.430066 255 0 0
0.518837 -0.470893 0.200061 0 0 255
0.081633 0.649902 0.397920 255 0 0
0.444814 0.378866 -0.183368 76 153 0
-0.118977 0.164256 -0.563746 0 0 255
-0.237764 0.378866 0.447713 76 153 0
0.553309 -0.724637 -0.121864 0 0 255
-0.097830 0.171304 0.537911 0 0 255
0.023813 -0.851299 0.439648 0 0 255
-0.339415 0.274731 -0.426875 0 0 255
-0.324752 0.450386 -0.363293 255 0 0
0.551543 -0.475928 0.096192 0 0 255
-0.318258 0.459044 0.296814 255 0 0
-0.084708 -0.506278 0.543407 0 0 255
