ply
format ascii 1.0
element vertex 1285
property float x
property float y
property float z
property uchar red
property uchar green
property uchar blue
end_header
-0.324317 0.106009 0.130941 0 127 127
0.630195 -0.265650 0.282209 204 51 127
-0.101584 -0.008471 -0.377693 0 255 0
-0.173206 0.069250 0.242684 0 255 0
-0.691424 0.069250 0.250041 127 127 0
0.603546 -0.151123 -0.382191 0 0 255
0.119843 0.046145 0.266664 0 255 0
-0.660686 -0.087261 0.352232 0 255 0
-0.089906 0.096557 0.213608 0 255 0
0.339000 0.106009 -0.352040 153 76 0
-0.696177 -0.065234 -0.352062 255 0 0
-0.695957 0.069250 0.362667 0 255 0
-0.646829 0.069250 0.363878 153 0 76
-0.548408 0.101522 0.368851 153 0 76
0.130450 0.095506 -0.333252 0 255 0
-0.472319 0.069250 0.135914 0 255 0
-0.096376 -0.008926 0.025144 153 0 76
-0.046215 0.069250 0.282131 0 255 0
-0.507958 0.079753 0.058387 0 255 0
-0.332750 -0.045227 0.269788 153 0 76
0.510464 0.106009 0.292036 153 0 76
-0.328683 0.106009 -0.232195 127 127 0
-0.471572 0.007550 -0.377693 0 255 0
0.325115 -0.022632 -0.377693 0 255 0
-0.024468 0.069250 -0.083436 204 51 127
-0.712203 0.069250 -0.276216 204 51 127
-0.661874 -0.008468 -0.231531 0 0 255
-0.561226 -0.045227 0.332050 153 0 76
0.576297 0.106009 -0.260538 76 0 153
0.575677 0.015814 -0.147182 0 255 0
0.100081 -0.008926 -0.074303 0 127 127
0.030935 0.106009 -0.180279 0 255 0
-0.338094 0.079753 0.307017 0 255 0
-0.690430 -0.376214 -0.348120 255 0 0
0.101477 0.079753 0.079336 0 255 0
-0.616539 -0.084739 -0.377693 255 0 0
-0.645792 -0.662311 0.291320 0 255 0
0.005228 0.095506 0.312405 153 0 76
0.595632 0.004398 0.247052 0 255 0
-0.657798 -0.367354 -0.315698 255 0 0
-0.630013 0.107059 -0.007088 204 51 127
0.640793 0.017585 0.090560 255 0 0
0.347958 -0.016032 -0.165871 0 127 127
-0.001961 0.002310 0.186558 0 127 127
-0.684545 0.106009 -0.358490 204 51 127
-0.378031 0.069250 -0.287997 0 255 0
0.573396 -0.045227 -0.249437 153 0 76
0.238963 -0.008926 0.023716 0 127 127
-0.646017 0.064093 -0.309426 255 0 0
0.560238 -0.008926 0.206203 0 127 127
0.258059 0.069250 0.081310 0 255 0
0.393941 -0.004267 0.349081 255 0 0
-0.203958 0.079753 0.255129 0 255 0
0.096331 -0.022122 0.305863 0 127 127
0.022607 0.062949 0.224146 0 255 0
-0.282243 0.046145 -0.309652 0 0 255
0.666368 0.071609 -0.005149 0 255 0
-0.136625 0.079753 -0.347333 0 255 0
0.202396 0.079753 -0.226817 0 255 0
0.549970 0.079753 -0.186057 153 0 76
0.267998 0.106009 0.323448 153 0 76
-0.622660 -0.052879 -0.309447 0 0 255
0.622551 0.107059 0.298273 153 0 76
-0.465174 -0.037678 -0.354587 0 255 0
-0.400429 0.079753 0.271579 0 255 0
0.147416 -0.045227 0.259936 153 0 76
-0.132156 0.107059 -0.086175 0 127 127
0.374020 -0.008926 0.271621 153 0 76
0.356082 -0.022122 0.026616 0 127 127
0.154726 0.069250 -0.336084 0 255 0
-0.284969 0.107059 0.195929 0 255 0
-0.622660 -0.016765 0.103193 0 0 255
-0.020542 0.000984 0.004312 0 127 127
-0.046558 -0.022122 0.091141 0 127 127
0.167473 0.106009 0.343406 153 0 76
-0.635673 0.069250 0.063607 0 255 0
0.503911 -0.055668 -0.354587 0 255 0
-0.622663 -0.113642 0.278922 0 255 0
-0.175985 -0.008926 0.269913 153 0 76
-0.512943 0.095506 -0.324244 0 0 255
0.651801 -0.216217 0.281074 204 51 127
0.155946 -0.016734 -0.164435 0 127 127
0.112653 0.069250 -0.187876 0 255 0
0.619676 -0.642824 0.290872 204 51 127
0.217666 0.069250 -0.341701 0 0 255
0.626180 0.027296 0.352232 204 51 127
0.696506 0.089985 -0.144977 76 0 153
0.243530 0.069250 0.187163 0 255 0
0.014516 -0.045227 -0.014165 0 127 127
-0.602705 0.034849 -0.176949 76 0 153
-0.227043 0.027840 -0.354587 0 255 0
0.318379 0.079753 -0.035828 0 255 0
0.533354 0.079753 0.163958 0 255 0
-0.712463 0.096732 -0.129609 204 51 127
-0.572157 0.046145 0.212707 0 255 0
-0.495668 0.106009 -0.196959 127 127 0
-0.080727 -0.008926 -0.145228 153 0 76
0.487474 0.095506 0.151378 0 255 0
-0.003719 0.076176 0.352232 0 255 0
0.485816 0.069250 -0.285065 0 255 0
-0.084228 0.069250 -0.087053 0 255 0
-0.602705 0.039963 0.021266 255 0 0
0.426926 -0.021135 -0.155430 0 127 127
0.440819 0.069250 -0.344484 0 255 0
0.235093 0.107059 -0.123351 0 255 0
0.290959 -0.009519 -0.184175 127 0 127
-0.139371 0.107059 -0.007789 0 127 127
-0.418441 -0.008926 0.097046 153 0 76
-0.652707 0.069250 0.299842 0 255 0
0.307433 -0.008926 0.285215 0 127 127
0.445674 0.107059 0.268365 153 0 76
-0.015409 0.069250 -0.324967 0 0 255
0.575677 0.014481 0.053690 0 255 0
0.531283 0.035896 0.325976 0 255 0
-0.089935 0.091770 0.381030 153 0 76
0.411900 -0.022122 -0.310925 76 0 153
0.091402 0.107059 0.116647 0 127 127
-0.212265 0.079753 -0.225182 0 255 0
0.541810 0.069250 -0.392942 0 255 0
-0.090164 -0.022122 -0.081427 153 0 76
0.070192 -0.005626 -0.377693 0 255 0
0.598883 -0.262107 -0.354062 0 0 255
-0.172878 -0.009519 -0.193953 76 0 153
-0.644571 0.106009 -0.218443 76 0 153
-0.353000 -0.010778 0.349081 153 0 76
0.673240 0.069250 0.123426 76 0 153
0.177082 0.069250 0.158322 0 255 0
0.127681 0.026994 0.325976 255 0 0
-0.388544 0.046145 0.327489 0 255 0
0.404273 0.095506 0.145500 0 127 127
-0.427282 0.106009 -0.155588 0 127 127
-0.552578 0.079753 -0.304095 0 255 0
-0.651393 -0.397283 -0.377263 255 0 0
0.626351 -0.555270 -0.374101 0 0 255
0.538265 0.079753 0.123816 0 255 0
-0.667847 -0.718438 -0.331430 255 0 0
0.045275 0.106009 0.274207 153 0 76
-0.154535 0.018047 -0.179195 76 0 153
0.666028 -0.256216 -0.345317 0 0 255
-0.176613 0.106009 -0.216078 0 255 0
0.422500 0.095506 -0.022656 0 127 127
-0.630150 -0.455895 -0.320779 255 0 0
0.457953 -0.012130 0.352232 255 0 0
-0.195173 0.079753 -0.343936 0 255 0
0.616455 0.106009 -0.107122 76 0 153
-0.518817 0.040486 0.325976 153 0 76
0.502539 0.096557 0.219509 0 255 0
-0.426835 0.046145 -0.189103 76 0 153
0.633279 -0.311733 -0.314324 0 0 255
-0.575357 -0.008926 0.207471 153 0 76
0.663898 -0.030587 -0.283535 255 0 0
-0.507196 0.069250 0.137581 0 255 0
0.506212 -0.022122 -0.070803 0 127 127
0.114940 0.033954 -0.377693 0 255 0
-0.253509 -0.020779 0.352232 153 0 76
-0.268946 0.107059 -0.065282 0 127 127
-0.635292 0.032491 0.067467 255 0 0
0.669150 -0.008195 -0.348836 0 0 255
-0.600823 0.069250 -0.197207 0 255 0
0.616199 0.069250 -0.065252 0 255 0
0.562067 -0.022122 0.004220 153 0 76
-0.553242 0.095506 0.317330 153 0 76
0.031075 -0.045227 0.125595 0 127 127
-0.159137 0.107059 0.078827 0 127 127
-0.070978 0.079753 0.037623 0 255 0
0.042552 0.069250 0.340035 0 255 0
-0.494621 -0.014075 0.352232 153 0 76
-0.677954 0.087782 -0.113901 0 255 0
-0.380538 -0.008926 0.227978 153 0 76
-0.163610 0.095506 0.339709 153 0 76
0.663898 0.067112 -0.295189 255 0 0
-0.690926 0.044113 0.079185 127 127 0
0.564377 0.069250 0.175101 0 255 0
-0.324020 0.075492 -0.382944 0 0 255
0.335403 0.069250 -0.118152 0 255 0
0.216813 0.069250 0.309614 0 255 0
-0.664328 0.106009 0.159888 76 0 153
-0.559737 0.107059 0.148545 127 127 0
-0.533018 0.046145 0.270374 0 255 0
-0.666658 -0.113494 0.279487 0 255 0
0.335248 0.079753 0.199018 0 255 0
0.655439 -0.339623 0.347313 204 51 127
0.163532 0.079753 -0.291623 0 255 0
-0.625499 -0.243280 0.317027 0 255 0
0.442311 -0.008926 0.084869 0 127 127
-0.234807 0.100626 -0.401295 0 0 255
-0.436988 0.025575 0.325976 153 0 76
0.619103 -0.121918 -0.382775 0 0 255
0.050068 0.077295 -0.382944 0 0 255
-0.630047 -0.451176 0.298130 0 255 0
0.436840 0.046145 0.284480 0 255 0
-0.241839 -0.045227 -0.344744 76 0 153
0.662372 -0.423308 -0.348445 0 0 255
0.429930 0.107059 -0.166787 0 127 127
0.211790 0.095506 -0.003691 0 127 127
0.118056 -0.045227 0.320124 153 0 76
0.296112 0.046145 0.300673 0 255 0
0.414815 -0.000122 -0.199150 127 0 127
-0.683834 -0.677742 -0.371586 255 0 0
-0.021033 0.106009 0.135700 127 127 0
-0.114563 0.069250 0.316868 0 255 0
0.542616 0.022986 -0.199150 127 0 127
0.017994 -0.003476 -0.158650 127 127 0
-0.485587 0.079753 0.296371 0 255 0
-0.690926 0.058911 0.027776 0 255 0
0.375596 0.076872 -0.382944 0 0 255
0.624688 0.106009 0.018979 76 153 0
0.359359 0.095506 0.011610 0 127 127
0.647025 -0.680061 0.291728 204 51 127
-0.215712 0.106009 0.328265 153 0 76
0.627579 -0.042929 0.278714 204 51 127
-0.491129 -0.022122 0.156300 153 0 76
-0.587497 0.069250 0.157299 0 255 0
0.657773 -0.633558 -0.340792 0 0 255
0.663898 0.040115 -0.263802 255 0 0
0.543119 -0.035699 0.078562 153 0 76
0.634732 -0.008468 0.229414 255 0 0
0.639484 0.079753 -0.203859 0 255 0
-0.267474 0.069250 0.245985 0 255 0
0.630709 -0.380599 0.346421 204 51 127
0.221654 0.006022 0.352232 255 0 0
-0.066026 0.048657 -0.042078 204 51 127
-0.667821 0.020225 0.230190 255 0 0
-0.606074 0.069250 0.358729 153 0 76
0.445029 0.106009 -0.225933 127 127 0
0.495338 -0.043542 0.352232 153 0 76
-0.676337 -0.158607 0.351251 0 255 0
-0.492455 -0.045227 0.290446 153 0 76
0.017994 -0.001651 0.288684 0 127 127
0.162706 0.011308 -0.199150 127 0 127
0.004550 -0.022122 0.240791 127 127 0
-0.079573 0.079753 0.349559 153 0 76
0.355756 0.045726 0.349081 0 255 0
-0.650178 0.023466 -0.360889 255 0 0
0.574654 -0.045227 0.253983 153 0 76
0.663898 0.020771 0.251470 255 0 0
-0.649795 -0.576483 -0.373676 255 0 0
-0.490377 0.106009 0.331610 0 255 0
0.288955 0.069250 -0.328483 0 0 255
-0.007601 0.106009 0.028871 0 255 0
0.364096 0.069250 0.268237 0 255 0
0.485733 -0.008926 -0.160722 127 0 127
-0.232400 -0.008926 0.235112 153 0 76
0.603959 0.107059 0.199757 76 153 0
-0.525599 0.106009 -0.260503 127 127 0
0.640793 -0.077178 -0.235046 255 0 0
0.551195 0.107059 0.167182 127 127 0
-0.164876 0.107059 -0.088110 0 127 127
0.149628 0.107059 0.016379 0 127 127
-0.185489 0.079753 0.057423 0 255 0
0.674114 0.106009 0.077674 76 0 153
0.640793 0.040383 0.173894 153 0 76
0.527993 0.069250 0.057147 0 255 0
-0.288528 0.069250 0.068663 0 255 0
0.649105 -0.274112 0.348738 204 51 127
-0.263826 0.069302 0.388988 153 0 76
-0.375475 0.074500 -0.382944 0 0 255
0.163390 0.046145 0.238171 0 255 0
0.578643 0.069250 0.029731 153 0 76
-0.687511 0.095506 -0.294409 204 51 127
-0.293271 0.107059 -0.165862 0 127 127
-0.494239 0.107059 0.045981 127 127 0
0.564726 0.095506 -0.356179 153 76 0
0.100559 0.079753 -0.253852 0 255 0
-0.599836 0.059372 0.226202 255 0 0
0.281225 0.106009 -0.062186 0 127 127
-0.378024 -0.008926 0.113736 153 0 76
0.381755 -0.008926 0.074537 0 127 127
0.489987 -0.022122 -0.017313 0 127 127
-0.432615 0.095506 -0.305883 0 255 0
-0.667821 -0.010160 -0.292522 127 127 0
-0.453471 -0.029409 0.352232 153 0 76
-0.233941 0.095506 0.036330 0 127 127
-0.690926 0.025594 0.167781 127 127 0
0.057599 -0.022122 -0.069028 0 127 127
0.663898 0.002270 -0.093631 255 0 0
-0.478439 0.079753 -0.329907 0 255 0
0.264632 -0.008926 0.283553 0 127 127
0.294374 -0.045227 0.322892 153 0 76
0.053416 0.106009 -0.045794 0 127 127
0.038999 0.060911 0.077475 204 51 127
0.490907 -0.043871 -0.309426 76 0 153
-0.219557 -0.022122 0.293817 153 0 76
-0.690926 -0.052444 0.251045 127 127 0
-0.106530 0.107059 0.133491 0 255 0
-0.098817 0.107059 0.178685 0 255 0
-0.280505 0.069250 0.118897 0 255 0
-0.591447 -0.008926 -0.165812 153 0 76
-0.109853 0.095506 0.241323 0 255 0
-0.617695 0.095506 -0.034930 76 0 153
0.136409 0.097358 -0.406132 0 0 255
-0.055557 0.046145 -0.229858 204 51 127
0.078686 0.107059 -0.353961 0 0 255
0.347882 0.106009 0.315074 0 255 0
0.170102 0.106009 -0.191806 127 127 0
0.482776 -0.008926 0.221768 0 127 127
-0.354454 -0.022122 -0.310069 76 0 153
0.662813 0.069250 -0.381439 76 0 153
0.194277 0.106009 0.293823 153 0 76
-0.570147 -0.038846 0.094513 76 153 0
0.663898 0.037539 0.142026 255 0 0
0.394758 -0.008926 -0.010349 0 127 127
0.365084 0.019827 0.325976 255 0 0
0.660219 0.079753 0.039436 0 255 0
0.461569 0.099951 -0.135239 127 127 0
0.440602 0.079753 0.251304 0 255 0
-0.262438 -0.022122 0.047933 153 0 76
-0.001961 -0.011146 -0.069209 127 127 0
0.595632 -0.043554 -0.348121 153 0 76
0.194425 0.069250 0.364443 0 255 0
-0.622660 -0.027537 -0.099708 153 76 0
0.210363 -0.045227 0.254644 153 0 76
0.143267 0.102214 0.173518 0 255 0
0.512813 0.106009 -0.331509 0 0 255
-0.423850 0.106009 -0.101264 0 127 127
-0.541347 0.079753 -0.109320 0 255 0
0.624806 -0.444108 -0.376326 0 0 255
0.664936 0.069250 0.086998 255 0 0
-0.302102 0.045936 0.352232 0 255 0
0.572754 0.079753 -0.209685 0 255 0
-0.690926 0.044031 0.122546 127 127 0
-0.649347 0.042748 0.278714 255 0 0
-0.341075 0.106009 0.334864 0 255 0
-0.602705 0.027873 -0.082278 153 76 0
0.641777 0.040027 -0.382944 0 0 255
-0.488123 0.090155 -0.412967 0 0 255
-0.661457 -0.237240 0.281557 0 255 0
-0.017744 0.106009 -0.140266 0 127 127
0.632245 -0.189107 0.280451 204 51 127
-0.634516 -0.028423 0.233534 0 0 255
0.121776 0.079753 0.148408 0 255 0
0.669150 -0.056779 0.286591 204 51 127
-0.254427 0.069250 -0.129953 0 255 0
-0.596266 0.046145 -0.353610 0 255 0
-0.507109 -0.022122 0.080242 153 0 76
-0.683605 -0.688229 0.292040 0 255 0
-0.331859 -0.008926 0.287813 153 0 76
0.486803 0.046145 0.279597 0 255 0
0.583174 -0.022122 -0.178584 153 0 76
-0.268352 0.069250 -0.417009 0 0 255
-0.176278 -0.022122 -0.126316 153 0 76
-0.065106 -0.008926 0.253276 153 0 76
-0.437555 0.046145 0.275677 0 255 0
-0.698271 0.107059 0.267892 204 51 127
-0.622660 -0.003166 -0.196341 0 0 255
0.639345 -0.380808 -0.316030 0 0 255
0.000541 0.079753 0.053447 204 51 127
0.062857 -0.045227 -0.328107 76 0 153
0.447390 0.106009 -0.003440 0 127 127
0.097883 -0.040617 -0.377330 0 255 0
-0.455073 0.040435 -0.377693 0 255 0
0.064869 -0.022122 0.088352 0 127 127
0.561910 0.106009 0.226391 76 153 0
-0.315822 0.106009 0.091779 0 127 127
-0.112141 -0.008926 0.115702 153 0 76
0.647094 0.006649 -0.330616 0 0 255
0.182909 -0.045227 0.230235 153 0 76
0.598997 -0.267334 0.341082 204 51 127
0.659845 -0.538863 0.308675 204 51 127
-0.259709 0.095506 0.103575 0 255 0
-0.553346 0.069250 0.226709 0 255 0
0.353343 0.058312 0.215699 0 255 0
0.416693 -0.008926 0.238707 153 0 76
0.666774 -0.222092 -0.352498 0 0 255
-0.642924 0.095506 -0.350706 153 76 0
-0.317341 -0.022122 0.108652 153 0 76
-0.025067 0.012338 0.299528 76 0 153
0.444681 -0.008926 0.206471 0 127 127
0.668671 -0.135355 -0.349716 0 0 255
-0.179944 0.069250 -0.013114 0 255 0
0.637456 0.095506 0.242325 76 153 0
-0.693197 -0.249722 -0.346641 255 0 0
0.180678 -0.045227 0.326335 153 0 76
0.136869 -0.022122 0.291515 153 0 76
-0.690926 0.042995 -0.308202 127 127 0
-0.127576 -0.015267 0.349081 153 0 76
-0.089095 -0.022122 0.331380 153 0 76
0.332395 0.106009 -0.023666 0 255 0
-0.690926 0.024928 0.267338 127 127 0
-0.667821 -0.024229 0.258104 0 0 255
-0.170804 0.069250 0.313010 0 255 0
0.633997 -0.489827 -0.318724 0 0 255
0.383629 0.042017 -0.199150 127 0 127
0.595632 -0.081805 0.345813 204 51 127
0.455722 0.069250 0.081200 0 255 0
0.586116 0.095506 0.170471 76 153 0
0.393334 0.106009 -0.160637 0 127 127
-0.690926 -0.027911 -0.174616 127 127 0
-0.672686 -0.060156 0.278714 127 127 0
-0.476855 0.046026 -0.179195 76 0 153
0.546405 -0.008926 -0.061269 0 127 127
-0.448477 -0.008926 0.150550 153 0 76
-0.569005 0.038331 0.325976 153 0 76
-0.539170 0.069250 -0.011965 0 255 0
-0.025067 0.020845 0.054638 76 0 153
-0.669741 -0.203950 -0.311661 255 0 0
0.540198 0.079753 -0.310052 0 255 0
0.036171 0.079753 0.108995 0 255 0
-0.413309 0.003263 0.352232 153 0 76
0.076728 -0.022122 0.191532 0 127 127
0.017994 0.027525 -0.072733 127 127 0
-0.224219 0.095506 -0.195183 0 255 0
-0.690926 -0.017658 0.148569 127 127 0
0.477246 0.023638 0.352232 255 0 0
0.110982 0.079753 0.336374 0 255 0
-0.428110 -0.022122 -0.141536 153 0 76
-0.634941 -0.008468 0.038568 0 0 255
0.626591 -0.325768 0.347614 204 51 127
-0.467716 -0.009519 -0.195732 76 0 153
0.067766 -0.022122 0.012571 0 127 127
0.627251 -0.008468 -0.184663 204 51 127
0.410335 0.106009 -0.358048 153 76 0
0.310824 0.069250 -0.388133 0 0 255
0.296017 0.095506 0.088516 0 127 127
-0.588863 0.102880 -0.396469 0 0 255
0.665180 -0.294955 -0.348277 0 0 255
-0.307040 -0.024955 -0.377693 0 255 0
-0.618252 0.095506 0.024932 76 0 153
-0.655191 0.032491 -0.203661 255 0 0
-0.334554 0.095506 -0.000364 0 127 127
0.601643 -0.388272 -0.359059 0 0 255
0.557313 -0.062271 -0.377693 0 255 0
-0.507856 -0.022122 0.112550 153 0 76
0.196073 -0.022122 -0.028441 0 127 127
-0.593544 -0.022122 -0.319209 76 153 0
-0.406149 0.095506 -0.019742 0 127 127
0.663574 -0.368404 0.310918 204 51 127
-0.522255 0.079753 0.224170 0 255 0
0.491422 0.046145 -0.309616 0 0 255
-0.357654 0.069250 -0.133828 0 255 0
0.024720 -0.045227 0.260191 153 0 76
0.055223 0.040641 -0.179195 127 0 127
0.492391 -0.008926 0.320436 255 0 0
-0.490038 0.106009 -0.343722 0 0 255
-0.351600 0.001832 -0.377693 0 255 0
-0.420294 0.107059 0.267183 153 0 76
0.134072 -0.009173 0.352232 255 0 0
-0.312778 0.106009 0.280585 153 0 76
-0.491064 0.095506 -0.133454 127 127 0
0.250471 -0.045227 0.326285 153 0 76
-0.658957 0.079753 -0.163494 255 0 0
0.490852 0.106009 -0.193023 127 127 0
0.661184 -0.477652 0.312535 204 51 127
-0.105304 0.046145 0.221322 0 255 0
-0.519689 0.106009 0.250846 153 0 76
0.174852 0.106009 -0.128714 0 127 127
0.663898 -0.007591 0.137324 255 0 0
0.592539 0.095506 0.110213 76 0 153
0.170687 0.069250 0.189474 0 255 0
0.153629 0.070636 -0.382944 0 0 255
-0.681150 -0.045376 0.013502 127 127 0
-0.350285 0.046145 0.256791 0 255 0
-0.485528 -0.021020 -0.377693 0 255 0
-0.660643 0.032491 0.009624 127 127 0
0.623419 0.032491 -0.289480 153 0 76
-0.172921 -0.045227 -0.343201 76 0 153
0.548707 0.095506 -0.013139 127 127 0
-0.256458 0.054255 -0.377693 0 255 0
-0.050542 0.079753 -0.116726 204 51 127
0.024386 -0.022122 -0.035544 127 127 0
0.303798 0.079753 -0.245558 0 255 0
-0.624108 -0.179710 0.323740 0 255 0
0.477473 0.034578 -0.377693 0 255 0
-0.352268 -0.022122 0.097479 153 0 76
0.326504 -0.022122 -0.128598 0 127 127
-0.552668 0.004146 0.352232 153 0 76
0.538372 -0.008926 0.094902 0 127 127
-0.191493 0.069250 -0.256323 0 255 0
-0.270667 0.095506 -0.110511 0 127 127
-0.690926 0.061530 -0.065712 204 51 127
0.605038 0.069250 -0.401696 0 0 255
-0.051485 0.062949 0.234212 0 255 0
0.325416 0.005255 0.325976 0 127 127
0.217862 -0.022122 -0.084757 0 127 127
0.374774 0.106009 0.254417 153 0 76
0.056702 0.079753 -0.121174 0 255 0
0.223307 0.079753 -0.264330 0 255 0
-0.094381 -0.045227 0.253035 153 0 76
0.543119 -0.040460 0.205600 153 0 76
0.194812 0.046145 -0.347345 0 255 0
0.574058 0.069250 -0.057023 0 255 0
0.168616 0.023004 -0.354587 0 255 0
-0.487214 0.079753 -0.298570 0 255 0
-0.009360 0.106009 -0.374324 153 76 0
-0.329121 -0.008926 -0.162379 153 0 76
-0.630816 -0.314962 -0.314404 255 0 0
0.454459 0.046145 -0.323155 0 0 255
0.402138 0.095506 0.034163 0 127 127
-0.389295 0.106009 -0.345309 0 0 255
0.120204 0.046145 -0.329998 0 0 255
0.395145 0.069250 0.163206 0 255 0
-0.289420 0.055840 0.215699 0 255 0
0.181392 0.069250 -0.399437 0 0 255
0.047643 -0.021376 0.325976 255 0 0
0.232958 0.104996 -0.393447 0 0 255
0.012039 -0.045227 -0.133811 0 127 127
-0.207310 0.106009 -0.021552 0 127 127
-0.248847 0.107059 -0.344425 153 76 0
0.044283 0.107059 0.237975 153 0 76
-0.068122 -0.008705 -0.179195 76 0 153
0.022679 -0.008926 0.202698 0 127 127
-0.006792 -0.045227 -0.039642 0 127 127
-0.056064 0.069250 -0.177724 0 255 0
-0.622660 -0.016463 -0.288912 0 0 255
0.663592 -0.367551 -0.352210 0 0 255
-0.114176 0.028161 -0.354587 0 255 0
-0.011564 0.079753 -0.047722 0 255 0
-0.066026 -0.040225 0.130267 0 127 127
-0.235327 -0.008926 -0.126997 153 0 76
0.356661 -0.022122 0.333248 255 0 0
-0.459815 0.079753 0.348321 0 255 0
0.236688 0.107059 -0.324608 0 0 255
0.212193 -0.022122 0.193787 0 127 127
-0.440547 0.095506 -0.212275 0 255 0
0.288426 0.069250 -0.084706 0 255 0
-0.654157 -0.008468 0.181964 0 0 255
-0.610672 0.069250 -0.389142 255 0 0
0.278530 0.095029 0.378053 153 0 76
-0.061460 0.009127 -0.377693 0 255 0
0.595724 0.106009 0.142056 76 0 153
-0.416891 0.046145 0.313283 0 255 0
-0.594634 0.069250 0.038245 0 255 0
-0.218226 0.069250 0.014729 0 255 0
-0.208015 0.069250 0.088547 0 255 0
0.283594 0.001234 0.349081 255 0 0
-0.622588 0.046145 0.121098 255 0 0
0.361541 0.079753 0.347254 0 255 0
0.580120 -0.045227 0.167116 153 0 76
0.436997 -0.050978 -0.354587 76 0 153
0.276603 0.095506 -0.277360 0 0 255
0.302775 -0.022122 -0.313625 76 0 153
-0.085400 -0.022122 0.209840 153 0 76
0.249057 0.072744 -0.382944 0 0 255
0.368060 0.095506 -0.254362 0 255 0
-0.370730 -0.037789 -0.377693 0 255 0
0.027712 0.011626 0.325976 255 0 0
0.039658 -0.022122 0.066133 0 127 127
0.341804 0.079753 -0.301962 0 255 0
-0.441748 0.101644 0.368589 153 0 76
-0.598098 0.069250 -0.033945 0 255 0
-0.667821 -0.078057 -0.264520 127 127 0
-0.648547 -0.008468 -0.003457 0 0 255
0.640793 -0.000918 -0.024358 255 0 0
0.666368 0.077601 0.257652 76 0 153
0.195708 -0.024093 -0.309426 76 0 153
-0.655314 -0.446467 -0.376279 255 0 0
-0.631862 -0.534161 -0.340801 255 0 0
0.175814 -0.008926 0.080935 0 127 127
-0.236076 -0.022122 -0.097657 153 0 76
0.347616 -0.022122 -0.320913 76 0 153
-0.441699 0.079753 -0.054223 0 255 0
-0.074877 -0.008926 0.300873 153 0 76
-0.667821 -0.017577 -0.118751 0 0 255
0.632987 -0.507062 0.343670 204 51 127
-0.602685 0.079753 0.105169 0 255 0
-0.113457 0.079753 -0.231391 127 127 0
-0.633308 -0.600280 -0.340268 255 0 0
-0.117076 0.095506 -0.289794 0 0 255
-0.220066 0.046145 0.227225 0 255 0
-0.152801 0.107059 0.282153 153 0 76
-0.136649 0.079753 0.189214 0 255 0
-0.725111 0.071187 -0.246710 204 51 127
-0.619560 0.106009 0.314424 153 0 76
-0.688456 0.101969 -0.016538 204 51 127
-0.589029 0.106009 -0.121715 127 127 0
-0.109398 -0.043394 -0.309426 76 0 153
-0.282972 0.106009 0.305623 153 0 76
0.479311 0.095506 0.276887 153 0 76
0.406432 -0.008926 0.312544 255 0 0
0.080760 0.014132 -0.179195 127 0 127
0.627573 0.069250 0.171101 153 0 76
0.336703 0.069250 -0.331316 0 0 255
-0.266430 -0.008926 0.204581 153 0 76
0.250625 0.032396 0.349081 0 255 0
-0.624621 -0.203172 -0.330972 255 0 0
0.109752 0.069250 -0.289271 0 255 0
0.120882 0.079753 -0.123548 0 255 0
0.582857 0.046145 0.084877 153 0 76
0.356460 0.010848 -0.179195 127 0 127
0.640793 -0.027251 -0.132481 255 0 0
0.640793 0.029828 0.005880 255 0 0
-0.262576 -0.022745 -0.377693 0 255 0
-0.093860 0.106009 -0.327528 0 0 255
-0.561718 0.079753 0.178342 0 255 0
-0.050735 0.079753 -0.262311 0 255 0
-0.425861 -0.008926 -0.055412 153 0 76
-0.053150 0.069250 -0.304702 0 255 0
0.551194 0.099376 -0.403359 0 0 255
-0.362797 0.063794 0.215699 0 255 0
0.622365 0.079753 0.270356 0 255 0
0.663898 -0.048276 -0.107965 255 0 0
0.564227 0.046145 0.348752 255 0 0
-0.437651 0.079753 -0.251255 0 255 0
0.033500 0.069250 -0.235863 0 255 0
-0.523422 -0.022122 -0.093592 153 0 76
-0.513240 -0.053118 -0.377693 0 255 0
0.567180 -0.017794 -0.097186 0 127 127
0.006650 0.094573 0.378533 153 0 76
-0.633969 0.032491 0.166268 153 76 0
0.232201 0.095506 0.079622 0 127 127
0.067304 0.079753 0.059060 0 255 0
-0.197982 -0.045227 0.220977 153 0 76
-0.492154 -0.022122 0.264021 153 0 76
0.691975 0.095233 -0.201750 76 0 153
0.382380 0.069250 -0.275246 0 255 0
-0.629234 -0.264788 -0.313164 255 0 0
0.213085 0.015405 -0.179195 127 0 127
0.612515 -0.357512 -0.315455 0 0 255
0.014199 -0.022122 0.164364 0 127 127
-0.449913 -0.045227 0.286309 153 0 76
-0.572947 -0.045227 0.285455 153 0 76
-0.365603 -0.022122 0.058711 153 0 76
-0.439664 0.095506 0.239281 153 0 76
-0.037137 0.095506 -0.352116 0 255 0
-0.184363 0.107059 -0.132907 0 127 127
0.009071 0.069250 0.137453 0 255 0
0.621916 -0.045227 -0.210351 204 51 127
0.146331 0.106009 0.320727 153 0 76
-0.598374 -0.015980 -0.020795 153 0 76
-0.716819 0.069250 -0.343338 204 51 127
0.130934 0.106009 0.281546 153 0 76
0.006945 -0.022122 0.347005 255 0 0
0.386391 0.106009 -0.384959 0 0 255
-0.187603 0.107059 0.282636 153 0 76
-0.144455 0.043374 -0.199150 76 0 153
-0.140297 -0.045227 0.243852 153 0 76
-0.420048 -0.008926 -0.022987 153 0 76
0.640793 0.047247 0.081256 153 0 76
0.017994 0.037156 0.149540 127 127 0
0.038929 0.079753 -0.065059 0 255 0
-0.665342 -0.031019 -0.382944 255 0 0
0.623920 0.069250 0.226811 0 255 0
0.427703 0.079753 0.132900 0 255 0
0.603648 -0.034725 0.251912 153 0 76
-0.417183 0.106009 0.326861 153 0 76
-0.025067 -0.019569 0.294367 255 0 0
-0.585736 0.107059 -0.223455 76 0 153
-0.372461 0.046145 0.280954 0 255 0
-0.622660 0.024085 -0.117488 153 76 0
-0.627576 -0.045227 0.046749 76 153 0
-0.690926 -0.047844 -0.262067 127 127 0
0.459561 -0.022122 -0.112304 0 127 127
0.657663 0.043644 0.278714 204 51 127
-0.594620 -0.066185 -0.354587 0 255 0
0.663898 -0.030022 0.078595 255 0 0
-0.078650 0.079753 0.269883 0 255 0
0.481983 0.079753 0.104992 0 255 0
0.571844 0.046145 -0.280230 153 0 76
-0.692438 -0.278029 -0.313491 255 0 0
-0.032428 0.069250 -0.157592 204 51 127
0.017994 0.039325 0.044373 127 127 0
-0.573472 0.107059 0.211590 127 127 0
-0.265033 -0.008926 -0.044416 153 0 76
-0.413321 0.095506 0.106205 0 127 127
-0.624086 0.032491 -0.303825 255 0 0
0.008437 0.106009 -0.217986 127 127 0
-0.426036 -0.061565 -0.377693 0 255 0
0.433918 -0.008926 -0.016622 0 127 127
-0.688456 0.099830 0.329161 153 0 76
-0.643437 -0.631414 0.340965 0 255 0
-0.661762 -0.008468 0.077445 0 0 255
0.273598 0.095506 0.044876 0 127 127
-0.325389 0.069250 0.241961 0 255 0
0.419604 0.069250 0.271193 0 255 0
-0.374034 0.019398 -0.199150 76 0 153
-0.654258 -0.671047 0.340103 0 255 0
-0.555644 0.069250 -0.190749 255 0 0
0.297504 0.095506 -0.191799 0 255 0
-0.622660 0.014312 -0.059737 153 76 0
-0.039081 -0.033674 -0.332085 76 0 153
-0.622660 0.041525 -0.007957 255 0 0
-0.610821 -0.015820 0.264232 153 76 0
-0.684936 -0.627377 0.305576 0 255 0
0.434283 0.079753 0.305523 0 255 0
-0.674122 -0.016099 -0.324515 255 0 0
0.640793 -0.039321 0.201354 204 51 127
-0.011472 0.107059 0.189140 127 127 0
0.664229 0.095506 0.203577 76 0 153
0.665917 0.021062 -0.382944 0 0 255
-0.529139 -0.013002 -0.377693 0 255 0
-0.251883 0.019983 0.325976 153 0 76
0.460198 0.069250 -0.218373 0 255 0
-0.219244 0.106009 -0.330531 153 76 0
-0.213517 -0.010528 0.324798 153 0 76
-0.303189 -0.008926 0.051591 153 0 76
0.353877 0.079753 -0.164196 0 255 0
0.200223 -0.008926 0.227483 0 127 127
-0.368988 0.079753 0.141071 0 255 0
-0.409013 0.096557 0.152497 0 255 0
0.640024 -0.565071 0.342409 204 51 127
0.575677 0.012219 -0.011183 0 255 0
-0.538343 0.079753 -0.221041 0 255 0
-0.051003 0.107059 0.125541 0 127 127
0.408008 0.069250 0.057946 0 255 0
-0.648002 0.099102 0.373100 153 0 76
-0.622458 0.037501 0.349081 153 0 76
-0.336196 0.069250 -0.325723 0 255 0
-0.677954 0.086526 0.280646 0 255 0
-0.498749 0.096557 -0.029488 127 127 0
0.472435 -0.022122 0.086569 0 127 127
0.497502 0.103941 0.352232 153 0 76
0.662864 -0.047283 -0.309426 0 0 255
0.017994 0.043860 -0.174044 204 51 127
0.285652 -0.022122 0.116451 0 127 127
0.594168 -0.027087 0.215699 153 0 76
0.635162 0.069250 0.053465 0 255 0
-0.050451 -0.008926 0.225711 76 0 153
-0.424819 0.079753 -0.186671 0 255 0
-0.667821 0.012297 -0.052988 127 127 0
-0.673664 0.095506 0.051328 76 0 153
-0.059971 0.106009 -0.210387 127 127 0
-0.391106 0.107059 0.217709 127 127 0
0.637073 0.107059 -0.136082 76 153 0
0.606740 0.079753 -0.152228 0 255 0
-0.119215 0.095506 -0.180948 127 127 0
0.200914 0.069250 -0.014867 0 255 0
0.036600 -0.045227 0.155624 0 127 127
0.129026 0.107059 0.356029 153 0 76
-0.667821 -0.033428 -0.086082 0 0 255
-0.437133 0.107059 0.125625 0 127 127
0.553638 0.079753 -0.106674 0 255 0
0.665932 -0.260570 0.318994 204 51 127
0.387982 -0.008926 0.154799 0 127 127
-0.622222 0.079753 -0.217968 0 255 0
0.299389 0.046145 0.239870 0 255 0
0.049588 0.022881 0.352232 255 0 0
0.382709 -0.045227 0.225406 153 0 76
0.060177 0.069250 -0.188433 0 255 0
0.357860 0.095506 0.080306 0 127 127
0.268811 0.107059 0.186415 0 255 0
-0.677954 0.091354 0.218628 204 51 127
-0.038924 -0.022122 -0.196415 0 127 127
-0.668814 -0.060537 0.119177 127 127 0
-0.067051 0.032782 -0.179195 76 0 153
-0.657998 0.079753 0.110267 0 255 0
0.334633 0.032846 -0.199150 127 0 127
0.136219 0.106009 -0.055959 0 127 127
0.480810 -0.008926 0.123108 0 127 127
0.501384 -0.008926 0.196166 0 127 127
0.213460 0.069250 -0.195080 0 255 0
0.504279 0.095506 -0.234676 0 255 0
0.450098 0.106009 0.130821 0 127 127
0.331544 0.095506 -0.253844 0 255 0
0.038988 -0.045227 0.200576 0 127 127
-0.035474 0.085942 0.384832 153 0 76
-0.463452 0.069250 -0.383546 0 255 0
0.300861 0.079753 0.283594 0 255 0
-0.018536 0.106009 -0.272647 153 76 0
-0.642094 0.079753 -0.101118 255 0 0
-0.691777 -0.286601 0.348466 0 255 0
-0.062698 -0.008926 -0.074787 153 0 76
0.597827 -0.213844 -0.369921 0 0 255
-0.131105 0.079753 -0.061055 0 255 0
-0.194976 0.040212 0.352232 0 255 0
-0.550625 -0.008926 0.071363 153 0 76
0.663898 0.039036 -0.166064 255 0 0
0.506572 0.025896 -0.377693 0 255 0
0.481222 0.069250 0.219279 0 255 0
0.461406 0.088430 0.383420 153 0 76
-0.392804 0.095506 -0.258147 127 127 0
0.516304 0.046145 0.257689 0 255 0
-0.451566 -0.015976 0.323267 153 0 76
0.663898 -0.048282 0.163261 255 0 0
0.584509 0.106009 -0.114659 76 153 0
-0.149996 0.069250 0.107215 0 255 0
0.052763 -0.031060 -0.377693 0 255 0
-0.407165 -0.022122 -0.315126 76 0 153
0.284474 0.085560 -0.372442 0 255 0
0.630917 -0.256337 -0.380085 0 0 255
0.170738 0.046145 0.272604 0 255 0
0.699031 0.085825 0.123403 76 0 153
-0.324157 0.106009 -0.097860 0 127 127
-0.427543 -0.035311 0.215699 153 0 76
0.091653 0.069250 0.290609 0 255 0
0.645409 0.079753 0.324360 204 51 127
-0.503032 0.046602 0.352232 0 255 0
-0.160904 0.107059 0.219982 127 127 0
0.531982 0.069250 0.241484 0 255 0
0.294300 -0.045227 -0.337730 76 0 153
-0.628925 -0.399909 -0.345847 255 0 0
0.439317 -0.045227 0.299281 153 0 76
-0.545975 0.069250 0.102125 0 255 0
0.398937 0.107059 0.359756 153 0 76
-0.168666 -0.008926 0.090049 153 0 76
-0.609925 -0.045227 0.287470 153 0 76
-0.294405 0.030058 -0.199150 76 0 153
0.643075 -0.359740 0.284370 204 51 127
0.669150 0.026778 -0.335546 0 0 255
-0.304379 0.095506 -0.217545 127 127 0
-0.492217 -0.043571 -0.309426 76 0 153
0.009276 0.016940 -0.354587 0 255 0
-0.141424 0.069250 -0.224764 0 255 0
-0.370524 0.095506 0.110322 0 255 0
0.083548 0.106009 -0.267930 153 76 0
-0.418957 0.045576 -0.354587 0 255 0
-0.335192 0.079753 0.059173 0 255 0
0.663898 0.024355 -0.290845 255 0 0
0.661246 -0.474795 -0.328554 0 0 255
0.487831 0.069250 -0.408370 0 0 255
-0.368926 0.106009 0.313022 153 0 76
0.515181 0.033766 0.352232 255 0 0
0.113130 -0.045227 0.248652 153 0 76
-0.684625 -0.088214 0.285578 127 127 0
-0.575404 0.107059 -0.065608 0 255 0
0.212381 0.014783 -0.377693 0 255 0
0.430784 0.069250 0.224744 0 255 0
-0.699917 0.069250 0.057615 204 51 127
0.418334 0.107059 -0.085990 0 127 127
0.210697 0.084216 0.341729 153 0 76
-0.379285 0.106009 -0.187486 127 127 0
0.017994 0.029522 0.009500 127 127 0
-0.229882 0.106009 -0.064933 0 127 127
-0.066026 0.068907 0.115000 0 255 0
0.115967 0.017874 0.352232 255 0 0
0.328112 -0.022122 0.120687 0 127 127
-0.048341 -0.008926 -0.037203 76 0 153
-0.557485 0.044315 -0.354587 0 255 0
0.484189 0.079753 -0.366050 0 255 0
-0.659523 -0.419876 0.285752 0 255 0
-0.208530 0.107059 0.237807 153 0 76
0.642145 -0.088481 -0.309426 0 0 255
0.290330 -0.022122 0.197135 0 127 127
-0.622660 -0.074908 0.280386 0 255 0
0.371207 0.095506 0.199566 0 255 0
-0.661235 -0.137305 -0.382468 255 0 0
-0.695528 -0.143170 0.319343 0 255 0
0.602640 0.079753 -0.345743 0 255 0
-0.043817 0.046145 0.040578 76 0 153
-0.585022 0.005360 0.352232 153 0 76
-0.065312 -0.045227 0.206052 153 0 76
-0.182368 0.100590 -0.277919 153 76 0
0.264121 0.039185 -0.354587 0 0 255
-0.626956 0.069250 -0.145815 255 0 0
0.011777 0.046145 0.252821 0 255 0
0.598652 0.107059 -0.226693 0 255 0
0.009856 0.079753 -0.300457 0 255 0
-0.406618 0.076384 -0.382944 0 0 255
0.599007 0.106009 -0.170641 76 153 0
0.694053 0.069250 -0.347168 76 0 153
0.630617 -0.582264 -0.321007 0 0 255
-0.486496 0.069250 -0.152630 0 255 0
-0.688367 -0.445810 -0.376292 255 0 0
0.337451 0.106009 0.057786 0 127 127
-0.177563 -0.045227 0.326892 153 0 76
0.244299 0.095506 -0.226665 127 127 0
0.595632 0.001709 0.093969 0 255 0
-0.113693 0.079753 -0.327927 0 255 0
-0.646535 -0.257535 -0.380061 255 0 0
0.607543 -0.657990 0.318142 204 51 127
-0.667821 -0.071001 0.163902 127 127 0
-0.393258 0.095506 -0.096923 0 255 0
-0.649466 -0.355308 -0.378104 255 0 0
-0.589928 0.046145 0.265886 0 255 0
0.124177 0.095506 -0.244087 127 127 0
-0.579328 0.079753 -0.249833 0 255 0
0.037793 0.106009 -0.224258 127 127 0
0.575677 0.019267 -0.066581 0 255 0
-0.513485 0.106009 0.311662 153 0 76
-0.549184 -0.022122 -0.311008 76 0 153
-0.296206 0.095506 0.047299 0 255 0
-0.167923 0.069250 -0.351961 0 0 255
0.222536 0.020502 0.325976 255 0 0
-0.337045 0.069250 0.150995 0 255 0
-0.215975 0.043420 -0.377693 0 255 0
-0.659660 -0.695473 -0.371294 255 0 0
0.646862 0.079753 -0.348132 0 255 0
-0.379139 -0.045227 0.248528 153 0 76
0.151502 0.007002 0.325976 255 0 0
0.676344 0.069250 -0.098480 76 0 153
0.692263 0.094959 0.354451 76 0 153
-0.639868 0.069250 -0.248818 0 255 0
0.632606 -0.497675 0.287539 204 51 127
0.539113 0.107059 0.077839 127 127 0
-0.624256 0.032491 0.235243 153 76 0
0.187793 -0.022122 0.000321 0 127 127
0.029512 0.079753 -0.141630 0 255 0
-0.718687 0.069250 -0.188831 204 51 127
0.574998 -0.045227 0.126380 153 0 76
0.076373 0.069250 0.158820 0 255 0
-0.167960 0.091089 -0.372442 0 255 0
-0.554069 -0.008926 0.266921 153 0 76
-0.206489 -0.045227 0.250649 153 0 76
-0.358225 0.106009 -0.016756 0 127 127
-0.480319 0.046145 0.240054 0 255 0
0.158138 -0.022122 0.326244 255 0 0
0.175731 0.106009 -0.252218 127 127 0
-0.674122 0.021367 0.303659 127 127 0
-0.507841 0.079753 0.272989 0 255 0
-0.186101 0.079753 0.207684 0 255 0
0.290063 0.079753 -0.144436 0 255 0
-0.267340 -0.022122 0.322068 153 0 76
0.263036 0.046145 0.249613 0 255 0
-0.349963 0.079275 0.352232 153 0 76
-0.000370 0.020893 0.338148 255 0 0
-0.337103 -0.045227 0.338903 153 0 76
0.640793 0.022250 -0.118986 255 0 0
0.366009 0.069250 -0.336952 0 0 255
-0.145766 -0.022122 0.202614 153 0 76
-0.192773 0.107059 -0.367873 0 0 255
0.185635 -0.022122 -0.137654 0 127 127
-0.540381 0.069250 0.323244 0 255 0
0.423158 0.079753 -0.057252 0 255 0
-0.667821 -0.034024 0.203460 0 0 255
0.102349 0.079753 -0.316495 0 255 0
-0.053861 0.046145 0.179876 204 51 127
-0.001961 -0.003755 0.263358 127 127 0
-0.066026 -0.023789 -0.291377 0 127 127
0.576462 0.095506 0.257026 0 255 0
0.017994 -0.005385 -0.117864 127 127 0
0.240724 -0.022122 -0.035559 0 127 127
0.477268 0.107059 -0.327969 0 0 255
0.138617 -0.045227 -0.310928 76 0 153
0.602461 -0.425663 0.338775 204 51 127
0.083927 0.107059 -0.027293 0 127 127
-0.717138 0.091907 -0.394010 204 51 127
0.399014 0.095506 0.095566 0 255 0
-0.696177 -0.083629 -0.375484 255 0 0
0.123641 0.106009 -0.207456 127 127 0
-0.019134 0.095506 0.287417 153 0 76
0.611335 0.079753 -0.296543 0 255 0
-0.025515 -0.022122 -0.119962 0 127 127
0.173468 0.079753 0.307957 0 255 0
-0.690926 -0.048252 0.056726 127 127 0
-0.359791 0.095506 0.184296 127 127 0
-0.570147 -0.027571 -0.138841 76 153 0
0.609001 0.079753 0.336400 0 255 0
-0.572348 -0.022876 -0.377693 0 255 0
0.484872 0.046145 0.324317 0 255 0
0.662718 0.075848 0.352232 204 51 127
-0.706301 0.069250 -0.090232 127 127 0
0.129801 -0.015865 -0.354587 0 255 0
-0.198397 -0.008926 0.030361 153 0 76
-0.708940 0.099335 -0.238146 204 51 127
0.268626 0.014266 -0.179195 127 0 127
-0.031833 -0.045227 -0.258875 0 127 127
0.125864 -0.008926 -0.058887 0 127 127
0.640625 0.095506 0.181349 76 0 153
-0.519882 0.096557 -0.051016 0 255 0
0.613064 -0.008468 -0.287664 204 51 127
-0.597423 0.079753 -0.098261 0 255 0
0.161601 -0.022122 0.229909 153 0 76
-0.486778 -0.045227 0.319578 153 0 76
-0.247006 0.106009 0.278697 153 0 76
0.324452 0.095506 -0.084132 0 127 127
0.692335 0.094891 0.193925 76 0 153
-0.122078 0.069250 0.229564 0 255 0
-0.094065 -0.028669 -0.354587 0 255 0
0.106748 0.079753 -0.089805 0 255 0
0.189879 0.013524 0.349081 255 0 0
0.147585 0.095506 -0.017240 0 127 127
-0.185418 -0.008926 0.171001 153 0 76
-0.266949 0.079753 -0.030665 0 255 0
0.622635 0.002500 -0.382944 0 0 255
-0.312630 -0.022122 0.227145 153 0 76
-0.690926 0.013034 -0.074871 127 127 0
-0.360676 0.046145 -0.339151 0 0 255
0.241664 0.079753 0.016631 0 255 0
0.625478 -0.279740 -0.313534 0 0 255
0.038999 0.052982 -0.210467 204 51 127
-0.557763 0.079753 -0.377905 0 255 0
-0.023324 0.051224 0.336478 76 0 153
0.039824 0.069250 -0.092718 0 255 0
0.250026 0.106009 -0.296189 0 0 255
0.586640 -0.045227 0.052324 204 51 127
-0.649319 0.005583 -0.309426 255 0 0
-0.112851 0.040151 0.352232 153 0 76
-0.564180 0.107059 0.021368 0 255 0
0.606349 -0.142983 0.351590 204 51 127
-0.696177 -0.086422 0.318326 0 255 0
0.419775 0.036843 0.349081 255 0 0
-0.586914 -0.008926 -0.089209 153 0 76
-0.371274 0.069250 0.008247 0 255 0
0.104349 0.069250 0.375745 153 0 76
-0.525700 -0.045227 0.330076 153 0 76
0.252407 -0.029516 -0.309426 76 0 153
0.635428 -0.008468 0.178680 255 0 0
0.526795 -0.022122 -0.118728 0 127 127
0.700176 0.069250 -0.215578 76 0 153
-0.557700 0.069250 -0.153177 0 255 0
-0.655245 0.069250 -0.345066 0 255 0
-0.302916 -0.045227 -0.337491 76 0 153
0.038999 0.062186 -0.281212 204 51 127
0.578087 0.046145 0.197242 0 255 0
0.481621 0.013752 -0.179195 127 0 127
-0.659361 -0.457747 0.286621 0 255 0
0.548187 -0.022122 -0.294050 153 0 76
0.637094 -0.126636 0.279016 204 51 127
-0.664016 -0.583712 0.342003 0 255 0
-0.630850 -0.045227 -0.031140 0 0 255
-0.558159 -0.065893 -0.377693 0 255 0
0.663898 -0.086835 0.264528 255 0 0
0.317548 0.046145 0.266073 0 255 0
0.351725 -0.022122 -0.080383 0 127 127
-0.576412 -0.022122 -0.199687 76 153 0
-0.356659 0.106009 -0.329627 0 0 255
0.230958 0.107059 -0.022956 0 127 127
-0.454299 -0.045227 -0.328070 76 0 153
-0.097251 0.017367 0.325976 153 0 76
-0.668414 0.079753 0.026982 127 127 0
-0.208797 0.046145 0.323962 153 0 76
-0.570147 -0.042514 -0.300814 76 153 0
-0.016998 -0.045227 0.052380 0 127 127
-0.680920 0.095506 -0.074189 76 0 153
-0.463228 0.095506 -0.148720 0 255 0
0.022633 0.106009 -0.324083 0 0 255
0.663898 -0.006800 -0.266175 255 0 0
-0.472149 -0.054933 -0.377693 0 255 0
-0.617836 -0.045227 -0.228814 76 153 0
-0.633594 0.032491 0.096849 153 76 0
-0.589718 0.095506 -0.292397 0 255 0
-0.634985 0.069250 -0.053704 0 255 0
0.092466 0.107059 -0.383355 0 0 255
0.575677 0.003508 0.323844 0 255 0
-0.279525 0.069250 0.148289 0 255 0
0.214208 0.095506 -0.178607 127 127 0
0.520826 0.106009 -0.303214 0 255 0
-0.465615 0.107059 0.079575 0 127 127
0.064394 0.069250 -0.304308 0 0 255
-0.335603 0.000804 0.325976 153 0 76
-0.378538 0.095506 0.283290 153 0 76
0.223934 -0.022122 0.325036 153 0 76
-0.582210 0.046145 -0.004138 0 255 0
-0.670900 -0.059879 -0.146889 127 127 0
0.571540 -0.045227 -0.194729 153 0 76
0.669150 -0.088094 -0.375607 0 0 255
0.640793 -0.061332 -0.169171 255 0 0
-0.061057 -0.009000 -0.354587 0 255 0
-0.579857 0.079753 -0.007794 0 255 0
0.602381 0.032491 0.023869 153 0 76
-0.678967 -0.207848 0.350179 0 255 0
0.649332 0.095506 0.114323 76 153 0
0.636644 -0.134041 0.351785 204 51 127
0.058351 -0.022122 0.265728 0 127 127
0.563518 0.069250 0.112472 153 0 76
-0.200397 -0.008926 0.131115 153 0 76
-0.483657 0.104120 0.016021 127 127 0
-0.143782 -0.017664 -0.377693 0 255 0
0.331553 0.046145 -0.350129 0 0 255
-0.435579 0.106009 0.302572 153 0 76
-0.317808 0.079753 0.178744 0 255 0
-0.140146 0.106009 -0.363260 153 76 0
0.080934 0.095506 -0.151702 0 127 127
0.339726 -0.008926 -0.018087 0 127 127
-0.432195 0.069250 0.255002 0 255 0
-0.066026 -0.038176 -0.001092 0 127 127
0.602016 -0.192922 -0.311389 0 0 255
-0.487991 0.041921 0.325976 0 255 0
-0.557911 0.026331 -0.377693 0 255 0
-0.029999 0.079753 0.156318 0 255 0
-0.475195 -0.008926 -0.063863 153 0 76
-0.006538 0.069250 -0.215953 204 51 127
-0.296521 -0.008926 0.001522 153 0 76
0.630770 0.069250 -0.176768 255 0 0
-0.696768 0.106009 0.170341 204 51 127
0.423795 0.107059 0.163963 0 255 0
0.663898 -0.024396 -0.151481 255 0 0
0.176374 0.079753 -0.170295 0 255 0
-0.639664 -0.391551 0.285101 0 255 0
-0.508477 -0.008926 -0.119610 153 0 76
0.478021 0.079753 -0.193432 0 255 0
0.365843 0.069250 0.123483 0 255 0
-0.622660 -0.039450 0.345735 153 0 76
0.659014 -0.576831 0.315025 204 51 127
-0.064942 0.106009 -0.306548 0 0 255
0.299413 0.019813 0.325976 255 0 0
0.473005 0.095506 0.049094 0 255 0
-0.080918 -0.022122 0.050687 153 0 76
0.051109 0.069250 0.280463 0 255 0
0.663898 0.013757 -0.202551 255 0 0
-0.078457 0.079753 -0.011952 204 51 127
-0.408484 -0.022122 0.331733 153 0 76
-0.663094 -0.446683 -0.317658 255 0 0
-0.211006 -0.022122 0.187931 153 0 76
-0.105835 -0.022122 -0.127790 153 0 76
-0.690926 -0.019603 0.219835 127 127 0
-0.570147 -0.038564 -0.085703 76 153 0
0.189844 0.079753 -0.318805 0 255 0
0.687045 0.099218 0.150298 76 0 153
-0.687055 -0.530498 0.315661 0 255 0
-0.290145 -0.048738 -0.377693 0 255 0
0.049892 -0.012678 -0.354587 0 127 127
-0.606617 0.046145 -0.223444 255 0 0
0.600931 -0.100294 -0.370027 0 0 255
0.579900 0.107059 0.307603 153 0 76
-0.690926 0.031155 -0.156398 127 127 0
-0.050268 0.003801 0.352232 153 0 76
-0.328781 0.028987 0.349081 153 0 76
-0.659183 -0.184128 0.280337 0 255 0
-0.636257 0.032491 -0.174895 153 76 0
-0.552512 0.107059 -0.314306 153 76 0
0.569387 0.069250 0.214083 0 255 0
-0.211963 0.046145 -0.335713 0 0 255
0.017994 0.005603 0.051257 127 127 0
0.322990 0.069250 0.322029 0 255 0
-0.009126 0.069250 -0.395868 0 0 255
0.165326 0.069250 0.376169 153 0 76
-0.151475 0.046145 0.246900 0 255 0
-0.380510 0.043530 -0.377693 0 255 0
-0.109225 0.087137 -0.414912 0 0 255
-0.013274 0.000984 0.134793 0 127 127
0.395514 -0.022122 -0.347613 0 255 0
0.596267 -0.142542 0.287224 204 51 127
-0.674641 -0.617571 -0.321880 255 0 0
0.640793 -0.035842 0.250477 255 0 0
-0.622660 0.045021 0.319881 153 0 76
-0.394236 -0.045227 -0.341842 76 0 153
0.600184 0.106009 -0.082999 76 0 153
0.095647 0.106009 0.338486 153 0 76
-0.202120 0.091417 0.381329 153 0 76
-0.507842 0.079753 0.194359 0 255 0
0.455034 0.079753 -0.273290 0 255 0
0.385554 0.046145 0.250394 0 255 0
0.543854 0.046145 0.088846 153 0 76
0.251607 0.046145 0.306230 0 255 0
-0.666351 0.079753 -0.044726 204 51 127
0.434966 -0.022122 0.282148 0 127 127
0.266330 -0.008926 0.254338 0 127 127
-0.562622 -0.008926 0.156321 153 0 76
-0.049039 -0.045227 -0.053821 0 127 127
0.025566 0.095506 0.158988 127 127 0
0.663898 -0.023445 0.023987 255 0 0
-0.667821 -0.043688 -0.207040 0 0 255
0.522532 0.069250 -0.275138 0 255 0
0.470170 -0.009519 -0.198025 127 0 127
-0.333992 0.103835 0.362949 153 0 76
-0.597260 -0.022122 -0.250244 76 153 0
0.130688 0.079753 0.198321 0 255 0
0.575677 0.045809 -0.107181 153 0 76
-0.038949 -0.022122 -0.274917 0 127 127
-0.272244 0.106009 -0.309529 153 76 0
-0.406455 0.005956 -0.354587 0 255 0
0.614839 0.037743 -0.363079 0 0 255
-0.676334 0.011402 0.352232 0 255 0
-0.562425 0.016555 -0.199150 76 0 153
0.587782 0.046145 0.289255 204 51 127
0.011062 0.046145 -0.313708 204 51 127
0.422670 0.106009 -0.248283 127 127 0
-0.068354 0.107059 0.327680 0 255 0
-0.392449 0.106009 -0.154257 0 255 0
-0.649970 0.069250 0.181351 255 0 0
0.038999 -0.027949 -0.257536 0 127 127
-0.598119 0.095506 -0.185286 76 0 153
0.393453 0.046145 -0.327657 0 0 255
0.386654 0.095506 0.300581 153 0 76
0.603468 -0.471698 0.314324 204 51 127
0.161898 0.046145 0.326559 0 255 0
0.627639 0.009848 -0.309426 0 0 255
-0.292243 -0.022122 -0.115142 153 0 76
-0.639330 0.107059 -0.160936 204 51 127
-0.025067 0.021659 -0.147677 76 0 153
0.677583 0.069250 -0.127381 76 0 153
-0.521430 -0.022122 -0.338371 76 0 153
-0.602705 0.008588 0.066794 153 76 0
-0.000824 0.107059 -0.011951 0 127 127
-0.204861 0.079753 -0.285373 0 255 0
-0.425974 0.069250 0.020933 0 255 0
0.301548 0.095506 -0.293254 0 0 255
0.200962 0.095506 0.198512 127 127 0
0.159708 0.095506 0.119206 0 127 127
0.559555 0.095506 -0.152498 127 127 0
0.515774 0.046145 -0.198235 127 0 127
-0.019718 -0.045227 0.122864 0 127 127
0.627219 -0.008468 -0.084524 204 51 127
0.300078 -0.002615 -0.377693 0 255 0
-0.234418 0.007788 0.349081 153 0 76
0.524778 0.022491 -0.354587 0 255 0
-0.348710 0.079753 0.277293 0 255 0
0.302248 0.095506 0.002927 0 255 0
-0.043047 -0.045227 0.340352 153 0 76
-0.414053 0.095506 0.076003 0 255 0
-0.656024 0.079753 0.233358 255 0 0
-0.156219 0.107059 -0.318271 153 76 0
0.056067 -0.008926 0.112447 0 127 127
0.378565 0.069250 -0.177613 0 255 0
-0.037173 -0.022122 0.008898 76 0 153
-0.045021 0.018943 0.166702 76 0 153
-0.303928 0.000047 -0.354587 0 255 0
0.185571 0.107059 -0.356979 0 0 255
0.207032 0.046145 0.221361 0 255 0
-0.649231 -0.333873 0.347438 0 255 0
-0.195609 -0.011563 -0.354587 0 255 0
-0.695460 -0.146292 -0.344364 255 0 0
-0.627267 -0.225917 0.281297 0 255 0
0.554565 0.069250 0.145122 153 0 76
-0.294176 0.095506 -0.057309 0 127 127
0.610150 0.032491 -0.136092 153 0 76
-0.652927 -0.466247 0.344558 0 255 0
-0.536700 0.069250 -0.046826 0 255 0
0.010218 -0.045227 -0.162586 0 127 127
0.439969 -0.008926 0.023356 0 127 127
-0.635262 -0.689596 0.328990 0 255 0
-0.653386 0.032491 -0.275479 255 0 0
0.214735 0.079753 -0.087863 0 255 0
-0.524202 0.034836 -0.199150 76 0 153
-0.023084 0.046063 -0.377693 0 255 0
-0.674122 -0.043410 -0.350677 127 127 0
-0.309959 -0.045227 0.310567 153 0 76
-0.645132 0.069250 -0.396447 0 255 0
0.511278 0.079753 -0.348020 0 255 0
-0.205314 -0.008926 0.225465 153 0 76
0.539127 -0.011215 -0.167515 0 127 127
-0.243700 0.069250 0.113675 0 255 0
0.669150 -0.091356 0.336120 204 51 127
-0.655688 0.044964 -0.382944 255 0 0
-0.014206 0.046145 -0.160413 204 51 127
-0.635663 -0.700023 -0.323917 255 0 0
0.661705 -0.453809 -0.350679 0 0 255
-0.597763 -0.009970 0.324798 153 0 76
0.575677 0.008847 0.131903 0 255 0
-0.205692 0.096557 0.182303 0 255 0
-0.002622 -0.042208 -0.377693 0 255 0
-0.579169 0.069250 -0.306693 255 0 0
-0.624001 -0.166279 0.279927 0 255 0
0.381384 0.079753 0.221292 0 255 0
0.647619 -0.660740 0.340327 204 51 127
-0.632542 -0.565275 0.311962 0 255 0
-0.556497 0.106009 -0.201312 127 127 0
0.306096 0.079753 0.199424 0 255 0
-0.696177 0.011294 -0.364730 127 127 0
0.633250 0.069250 -0.395582 0 0 255
0.482830 0.069250 -0.157149 0 255 0
0.066493 0.046145 0.248254 0 255 0
-0.114749 0.069250 0.162448 0 255 0
0.234243 -0.022122 -0.127381 0 127 127
0.193441 -0.041419 -0.377693 0 255 0
-0.667092 -0.023650 0.352232 0 255 0
0.641408 -0.530722 0.288298 204 51 127
-0.256970 0.046145 -0.199007 76 0 153
0.561443 0.046145 -0.325883 153 0 76
0.648381 -0.055817 0.320724 204 51 127
0.342353 0.107059 -0.148766 0 127 127
-0.476930 -0.008926 -0.009850 153 0 76
-0.623182 0.005579 0.278714 0 255 0
0.403231 0.069250 -0.137690 0 255 0
0.379812 0.046145 0.312063 0 255 0
-0.511227 0.069250 -0.222869 0 255 0
0.097934 -0.022122 -0.129435 0 127 127
-0.626988 -0.097438 -0.329072 255 0 0
-0.238952 0.046145 0.296636 0 255 0
0.170933 0.095506 0.063851 0 255 0
0.243193 -0.045227 0.265241 153 0 76
0.016413 -0.045227 0.101028 0 127 127
-0.149147 0.107059 0.173729 127 127 0
-0.667821 0.050631 -0.032360 127 127 0
-0.701293 0.069250 0.306573 0 255 0
-0.696964 0.107059 0.065369 204 51 127
-0.223364 0.079753 0.166207 0 255 0
-0.655928 -0.355988 0.284284 0 255 0
0.574571 0.106009 -0.006964 76 0 153
0.324724 0.095506 0.162836 127 127 0
0.597597 -0.203305 0.284111 204 51 127
0.287055 -0.054077 -0.373727 0 255 0
0.184680 0.046145 0.297551 0 255 0
0.119440 -0.008926 0.248184 0 127 127
0.575677 0.013142 0.223203 0 255 0
-0.149621 0.095506 -0.183234 127 127 0
-0.074480 0.046145 0.231943 0 255 0
0.679335 0.103070 -0.124158 76 0 153
0.142667 0.106009 -0.297993 0 0 255
-0.069842 0.046145 -0.320578 0 0 255
-0.236911 0.069250 -0.301859 0 255 0
0.443672 0.095506 -0.315313 0 255 0
-0.667821 0.051682 0.201297 255 0 0
-0.045021 0.011909 -0.005521 76 0 153
-0.001961 0.028595 -0.012338 127 127 0
0.016666 0.106009 0.053686 0 127 127
-0.039189 0.005468 0.325976 153 0 76
0.009952 -0.022122 -0.223287 0 127 127
0.565385 -0.037452 0.352232 153 0 76
0.663898 -0.055271 -0.254541 255 0 0
0.575677 0.036309 0.033633 0 255 0
0.656450 -0.694052 -0.350098 0 0 255
-0.267457 -0.022122 0.293450 153 0 76
-0.105381 0.079753 -0.140305 0 255 0
-0.420484 0.107059 -0.365090 0 0 255
-0.270068 0.002472 -0.354587 0 255 0
-0.347320 -0.008926 0.017491 153 0 76
0.479396 -0.022122 0.279710 0 127 127
0.020399 -0.006231 -0.199150 127 0 127
0.648288 0.107059 -0.249374 76 153 0
-0.085226 -0.008926 0.084330 153 0 76
-0.388479 -0.008926 0.304409 153 0 76
0.639282 0.032491 0.118009 255 0 0
0.022591 0.095506 0.254038 0 255 0
0.278848 -0.045227 0.268453 153 0 76
