ply
format ascii 1.0
element vertex 1267
property float x
property float y
property float z
property uchar red
property uchar green
property uchar blue
end_header
0.506755 0.096375 0.249061 153 76 0
0.525459 0.173010 -0.169870 0 127 127
-0.313380 0.173010 -0.003283 0 127 127
-0.475450 0.153365 0.177221 0 127 127
-0.282130 0.153365 0.032298 0 127 127
0.613504 0.173010 -0.153838 0 127 127
0.140041 0.078776 -0.207690 204 51 127
0.409689 0.037149 0.131063 0 0 255
-0.485199 0.116329 -0.207690 204 51 127
-0.327017 0.116432 0.249061 76 153 0
0.010757 0.125829 0.110121 0 127 127
-0.820891 -0.129763 0.025631 76 0 153
-0.020503 0.082559 0.146919 153 0 76
-0.311363 0.153365 -0.074051 0 127 127
0.143093 0.153365 0.130324 0 127 127
0.010757 0.066141 0.249639 0 127 127
-0.707051 0.016966 -0.207690 204 51 127
0.812938 0.072972 -0.032986 127 127 0
-0.552497 0.153365 0.164961 0 127 127
0.019732 0.068235 0.222720 153 0 76
-0.490946 0.173010 -0.204539 0 127 127
-0.818115 -0.534862 -0.197868 153 0 76
0.581753 -0.388556 0.034601 0 0 255
-0.417740 0.043160 0.249061 76 153 0
0.251978 -0.373772 -0.227336 0 255 0
0.822761 -0.277725 -0.223595 153 0 76
-0.820891 0.142868 -0.232630 153 0 76
-0.186604 0.153365 0.273670 0 127 127
0.048703 0.060330 -0.186235 204 51 127
0.258396 0.173010 0.255467 0 127 127
-0.273292 0.069869 0.268707 76 153 0
-0.279709 -0.356164 -0.207690 0 255 0
-0.549951 -0.269465 0.255172 204 51 127
-0.089176 0.017603 0.250699 153 0 76
0.788487 -0.208124 -0.197868 153 0 76
0.112765 0.027290 0.214686 0 0 255
-0.656601 0.080450 0.169955 0 255 0
0.530519 0.092351 0.188416 76 0 153
0.546605 0.120626 0.048029 76 0 153
-0.549951 0.057400 0.252050 76 153 0
0.344746 0.153365 -0.006854 0 127 127
0.124220 0.074912 0.268707 153 76 0
0.693559 0.113484 0.134717 0 0 255
-0.236308 -0.055075 -0.207690 204 51 127
0.472472 0.153365 0.260968 0 127 127
-0.020332 0.052015 0.172151 153 0 76
-0.791423 0.061565 -0.187125 255 0 0
0.793293 -0.079999 -0.181591 127 127 0
0.084180 -0.391388 -0.227336 0 255 0
-0.558955 -0.346594 0.236397 127 0 127
0.174197 0.173010 0.246553 0 127 127
0.571465 0.107416 -0.175057 76 153 0
0.208824 0.173010 0.041136 0 127 127
-0.053208 0.153365 0.202418 0 127 127
-0.616720 0.146550 -0.227336 204 51 127
0.049418 0.173010 0.279144 0 127 127
0.846091 0.173010 0.016284 0 127 127
-0.740409 0.108860 0.085791 0 255 0
-0.706988 0.153365 -0.034882 0 127 127
0.010757 0.024699 -0.175697 0 127 127
-0.088962 0.153365 -0.159284 0 127 127
0.318776 0.022396 0.266781 153 76 0
-0.220606 0.173010 -0.176665 0 127 127
0.748677 -0.027337 -0.227336 204 51 127
-0.036738 0.086395 -0.031633 153 0 76
0.797467 -0.045971 -0.058789 127 127 0
0.278360 0.173010 0.150146 0 127 127
0.457402 0.038973 0.268707 153 76 0
0.259161 0.173010 0.027415 0 127 127
0.038316 0.115712 0.028883 153 0 76
0.812938 0.020291 -0.182324 76 0 153
-0.776568 0.022891 -0.227336 204 51 127
0.324590 -0.016276 0.270344 153 0 76
0.123023 0.153365 -0.219130 0 127 127
0.560824 -0.389408 -0.183800 255 0 0
0.222626 0.027290 -0.097930 0 0 255
-0.575581 -0.216081 0.237602 204 51 127
0.079399 0.027290 -0.083218 0 0 255
-0.849789 0.153365 -0.099798 0 127 127
-0.569596 0.023412 -0.112069 127 0 127
0.030403 0.084801 0.008720 153 0 76
-0.527411 0.051233 -0.019418 76 0 153
-0.487605 0.019939 -0.207690 204 51 127
0.497094 0.022396 0.252892 153 0 76
-0.320895 0.173010 0.057182 0 127 127
-0.659153 -0.007967 -0.207690 204 51 127
-0.589241 -0.027266 0.247950 0 255 0
-0.058608 0.153365 0.008996 0 127 127
0.560824 -0.373623 0.041552 255 0 0
-0.341873 0.122623 -0.227336 204 51 127
0.783470 -0.340464 0.037567 76 0 153
-0.549951 0.026653 -0.077658 127 0 127
-0.538452 0.161983 -0.237158 0 127 127
0.427761 0.120275 -0.207690 204 51 127
-0.417490 -0.047108 -0.227336 204 51 127
-0.790770 0.153365 -0.231096 0 127 127
0.791603 0.153365 0.089177 0 127 127
0.374141 0.128505 -0.227336 204 51 127
0.545901 0.126087 0.233101 76 0 153
-0.589241 -0.520231 0.260643 204 51 127
0.776546 0.153365 -0.158077 0 127 127
0.460185 -0.332051 -0.207690 0 255 0
0.062299 0.153365 0.224027 0 127 127
0.788937 -0.129564 0.005133 76 0 153
0.812938 0.120441 -0.128622 127 127 0
0.614159 -0.386076 0.014956 0 0 255
0.010757 0.061376 -0.112499 0 127 127
0.758176 0.001405 0.097667 0 0 255
-0.331855 -0.328436 -0.227336 0 255 0
-0.559853 -0.391791 0.038749 127 0 127
0.280780 0.173010 0.288287 0 127 127
0.562315 0.153365 -0.075588 0 127 127
0.530519 0.111478 -0.084483 76 0 153
0.218129 0.161947 0.312908 0 127 127
0.039043 0.153365 0.273268 0 127 127
-0.781601 -0.011518 -0.214072 153 0 76
-0.285155 0.134204 -0.227336 204 51 127
0.349958 0.050169 -0.227336 204 51 127
0.810318 0.015878 0.049943 153 76 0
0.580469 -0.368427 -0.006244 255 0 0
-0.226385 0.173010 -0.110862 0 127 127
0.086117 0.043893 0.249061 153 76 0
-0.277681 0.022396 0.251119 153 0 76
0.022205 0.100670 0.154287 153 0 76
-0.570108 0.153365 0.198573 0 127 127
0.122098 0.057410 -0.190041 204 51 127
0.783470 -0.317778 0.016063 76 0 153
-0.811069 0.122952 -0.092621 255 0 0
-0.448774 0.173010 0.255122 0 127 127
-0.194342 0.153365 -0.110708 0 127 127
0.021924 0.153365 0.298554 0 127 127
0.414510 0.040279 -0.177666 204 51 127
0.416277 -0.015376 -0.207690 204 51 127
0.551820 -0.326065 0.273958 153 76 0
-0.549951 0.040440 0.013775 127 0 127
-0.820891 -0.031382 -0.219880 153 0 76
-0.318311 0.153365 0.051141 0 127 127
-0.558775 0.022396 -0.021390 127 0 127
0.576863 -0.053711 0.276892 153 76 0
0.184457 -0.081858 -0.227336 204 51 127
-0.086097 0.027290 -0.026567 76 0 153
0.301633 0.077990 -0.189664 204 51 127
-0.346712 0.153365 -0.095460 0 127 127
-0.271732 0.173010 0.198190 0 127 127
-0.529288 0.022467 -0.005745 76 0 153
0.478800 0.153365 -0.017096 0 127 127
0.551820 0.082409 0.139911 76 153 0
-0.187789 0.153365 -0.155781 0 127 127
-0.439287 0.050086 -0.227336 204 51 127
-0.239173 0.027290 0.194723 76 0 153
-0.181288 0.092879 -0.227336 204 51 127
0.810673 -0.067565 -0.237158 153 0 76
0.510251 -0.042088 -0.207690 204 51 127
-0.146650 0.037149 0.058381 76 0 153
-0.696267 0.173010 -0.099678 0 127 127
0.444414 0.153365 -0.107396 0 127 127
-0.611069 0.153365 -0.193699 0 127 127
-0.569596 0.101995 0.046304 127 0 127
0.114417 -0.072268 -0.207690 204 51 127
-0.569596 0.091504 -0.165743 127 0 127
-0.811064 0.088035 0.005133 76 0 153
-0.635853 0.153365 -0.006867 0 127 127
-0.569596 0.076139 -0.043866 127 0 127
-0.622859 0.101938 0.203840 0 255 0
0.627431 0.097357 0.228968 0 0 255
-0.558955 -0.367485 -0.149903 127 0 127
-0.578600 -0.375868 -0.204718 127 0 127
-0.051967 0.153365 0.303719 0 127 127
0.471187 -0.030767 -0.207690 204 51 127
0.810662 0.048996 0.044958 0 0 255
-0.292598 0.027290 -0.035665 76 0 153
-0.200161 0.037149 0.089082 76 0 153
-0.381280 0.173010 0.057325 0 127 127
-0.020377 0.114709 0.104052 153 0 76
-0.441830 0.090234 0.268707 76 153 0
0.793293 0.035250 0.001623 127 127 0
-0.121314 0.065295 0.281428 127 127 0
-0.297982 0.004711 0.270344 153 0 76
-0.282483 0.014423 -0.227336 204 51 127
0.360250 0.059061 -0.189711 204 51 127
-0.791423 -0.030449 -0.153352 255 0 0
-0.299074 0.153365 0.017089 0 127 127
0.556408 -0.549440 0.276892 153 76 0
-0.022756 0.026005 -0.143374 153 0 76
-0.210718 0.153365 -0.195032 0 127 127
-0.510860 0.132791 -0.207690 204 51 127
0.527191 0.023245 -0.018103 76 0 153
-0.006632 0.173010 -0.052736 0 127 127
-0.008513 0.133719 -0.026458 0 127 127
0.741413 -0.326307 -0.218948 0 255 0
0.584010 -0.185353 0.276892 153 76 0
0.394625 0.173010 0.126183 0 127 127
0.711611 0.002563 0.116588 0 0 255
-0.830687 0.153365 -0.152642 0 127 127
0.387932 0.009392 -0.227336 204 51 127
-0.630238 0.153365 0.093989 0 127 127
-0.030866 0.130800 0.249061 76 153 0
0.609068 0.153365 0.230123 0 0 255
-0.647831 0.150019 0.178763 0 255 0
0.706813 0.089855 0.149248 0 0 255
-0.618302 0.173010 0.214030 0 127 127
0.555909 0.173010 -0.180237 0 127 127
-0.425833 0.115834 -0.207690 204 51 127
0.809947 0.153365 0.061128 0 127 127
0.822761 0.092602 -0.199325 153 0 76
0.715124 0.153365 -0.103642 0 127 127
0.785821 -0.062564 -0.197868 153 0 76
0.197347 0.019608 -0.207690 204 51 127
-0.020330 0.109954 0.132877 153 0 76
0.667032 0.133900 -0.227336 204 51 127
-0.787391 0.173010 -0.230962 0 127 127
-0.277816 0.173010 -0.122591 0 127 127
0.717944 0.173010 -0.195756 0 127 127
-0.002720 0.022396 -0.065247 0 127 127
-0.171267 0.031494 0.249061 76 153 0
0.049974 -0.364248 -0.207690 0 255 0
0.242806 0.153365 0.248088 255 0 0
-0.138482 0.091941 0.268707 76 153 0
0.784709 -0.543561 0.005133 76 0 153
-0.139030 -0.391995 -0.227336 0 255 0
-0.748002 0.167132 0.181160 0 127 127
0.133109 -0.082378 -0.210261 204 51 127
-0.692625 0.153365 -0.072658 0 127 127
0.793293 0.044610 -0.058658 127 127 0
0.672246 -0.028402 0.183963 0 0 255
-0.325817 0.173010 0.165099 0 127 127
0.591110 0.034986 0.241261 153 76 0
0.392229 0.153365 0.107392 0 127 127
-0.157554 0.153365 -0.019985 0 127 127
0.804768 -0.586606 -0.208406 153 0 76
-0.796146 0.153365 -0.002548 0 127 127
0.572503 -0.329581 0.150412 255 0 0
0.589607 -0.241079 0.237602 153 76 0
0.186016 0.036654 0.114645 0 0 255
-0.235687 -0.018718 0.250699 153 0 76
-0.137998 0.173010 0.014422 0 127 127
-0.425418 0.027290 0.148117 76 0 153
0.758189 0.153365 0.121918 0 127 127
-0.544289 -0.082378 -0.210504 204 51 127
-0.578600 -0.375743 0.062620 127 0 127
0.124640 -0.015821 -0.227336 204 51 127
0.369287 0.043650 0.249061 153 76 0
-0.257193 0.153365 0.302994 0 127 127
0.431931 0.173010 0.233536 0 127 127
-0.588545 0.153365 0.203873 0 127 127
-0.511437 -0.061950 0.250699 153 0 76
0.022275 0.121788 -0.071637 153 0 76
0.554263 0.173010 -0.046890 0 127 127
0.554477 0.140188 -0.227336 204 51 127
-0.360167 0.131508 -0.192530 153 76 0
0.359178 0.118560 0.268707 153 76 0
-0.168120 0.037149 -0.003084 76 0 153
0.120874 0.153365 0.281189 0 127 127
-0.027843 0.021190 -0.035520 153 0 76
-0.263807 -0.385745 -0.207690 0 255 0
0.728145 -0.395065 -0.224123 0 255 0
0.343386 0.128927 0.268707 153 76 0
-0.222049 0.019706 0.270344 153 0 76
0.049891 0.153365 0.192623 0 127 127
0.293736 0.153365 0.247674 255 0 0
0.795467 -0.042855 -0.130691 127 127 0
-0.193160 -0.340724 -0.207690 0 255 0
0.321799 0.027290 -0.145189 0 0 255
-0.217165 0.093364 0.249061 76 153 0
-0.760243 0.123591 0.093714 0 255 0
-0.283305 0.173010 -0.231199 0 127 127
0.485938 -0.395065 -0.220464 0 255 0
0.571465 0.099735 0.211970 76 153 0
-0.016721 0.113550 -0.207690 204 51 127
-0.038336 0.051878 -0.024774 153 0 76
0.548972 0.068235 -0.024444 76 0 153
-0.018494 0.131490 -0.227336 204 51 127
-0.612328 0.153365 0.255764 0 127 127
-0.572192 -0.493894 0.276892 204 51 127
0.599604 0.153365 -0.210732 204 51 127
0.305022 0.015952 -0.207690 204 51 127
-0.020560 0.045165 0.028495 153 0 76
0.184465 0.153365 0.229411 0 127 127
0.604490 0.068926 -0.207690 204 51 127
-0.459334 0.036781 0.178236 76 0 153
0.541356 0.008466 -0.227336 204 51 127
-0.560006 0.133719 -0.152000 127 0 127
0.512732 0.065613 -0.227336 204 51 127
0.820539 0.153365 -0.125922 0 127 127
0.070199 0.065971 -0.207690 204 51 127
-0.811069 0.053889 -0.119740 255 0 0
0.381468 0.153365 -0.150999 0 127 127
-0.381898 0.037141 -0.161919 153 76 0
-0.549951 0.133831 0.251369 255 0 0
-0.398008 0.027290 0.035733 76 0 153
0.791186 -0.064710 0.064517 0 0 255
0.228399 0.021823 0.273618 153 0 76
-0.549951 -0.419977 0.258399 204 51 127
-0.309691 0.040122 0.268707 76 153 0
0.671999 0.094064 0.184210 0 0 255
0.580469 -0.331101 0.234814 255 0 0
0.548265 0.173010 -0.197599 0 127 127
0.679264 0.153365 0.159755 0 0 255
-0.313984 -0.357319 -0.207690 0 255 0
-0.647920 0.042472 0.178673 0 255 0
0.580469 -0.358848 -0.146970 255 0 0
0.555405 0.173010 0.194236 0 127 127
-0.102373 0.093662 0.268707 76 153 0
-0.791423 0.137593 -0.142171 255 0 0
-0.532773 0.016653 -0.207690 204 51 127
0.294337 0.037122 0.021131 0 0 255
0.490383 0.089300 -0.207690 204 51 127
-0.450169 0.092835 -0.207690 204 51 127
-0.726193 0.164831 -0.237158 0 127 127
-0.739469 0.153365 -0.057109 0 127 127
0.440995 0.173010 0.093704 0 127 127
-0.549951 0.046625 0.119910 127 0 127
-0.558955 -0.330253 0.175356 127 0 127
-0.781601 -0.477714 0.032295 76 0 153
0.808213 -0.404564 -0.237158 153 0 76
-0.490956 -0.073382 -0.227336 204 51 127
-0.791423 0.094268 -0.026345 255 0 0
0.568199 0.173010 -0.137753 0 127 127
-0.402400 0.173010 0.186062 0 127 127
0.514119 0.096217 -0.206072 204 51 127
0.206864 -0.063935 -0.207690 204 51 127
-0.832617 0.173010 -0.232296 0 127 127
-0.182359 0.173010 0.156816 0 127 127
-0.004093 0.066035 -0.227336 204 51 127
-0.222611 0.173010 0.303881 0 127 127
-0.166891 0.153365 -0.195063 0 127 127
0.565088 0.173010 0.032789 0 127 127
0.585469 0.109251 -0.227336 204 51 127
-0.342498 0.035995 -0.227336 204 51 127
-0.317755 0.027290 -0.004488 76 0 153
-0.026320 -0.358120 -0.227336 0 255 0
0.057025 0.153365 -0.213549 204 51 127
0.580469 -0.389758 -0.080121 255 0 0
-0.537675 0.173010 0.037026 0 127 127
-0.328501 0.027290 -0.032329 76 0 153
0.053829 0.153365 0.253317 0 127 127
-0.098377 0.083430 -0.207690 204 51 127
0.793293 0.056575 -0.096984 127 127 0
-0.549951 0.085536 -0.192637 127 0 127
-0.779346 0.153365 0.137573 0 127 127
0.240899 0.153365 -0.178666 0 127 127
-0.484962 -0.377911 -0.207690 0 255 0
0.640691 0.043130 0.215651 0 0 255
-0.197106 0.027309 0.233327 76 0 153
0.718239 -0.347186 -0.207690 0 255 0
-0.674853 -0.071336 -0.207690 204 51 127
0.816561 -0.521091 0.044424 76 0 153
-0.509871 -0.010440 0.270344 153 0 76
0.181947 0.173010 -0.206174 0 127 127
0.551820 0.061912 0.006634 76 153 0
-0.781601 -0.443139 -0.223881 153 0 76
0.119175 0.111004 0.268707 153 76 0
-0.185375 0.153365 0.173930 0 127 127
-0.533646 0.173010 0.248211 0 127 127
0.400883 0.036662 0.268707 153 76 0
-0.549951 0.153290 0.254810 255 0 0
-0.569596 0.025073 -0.049051 127 0 127
-0.321448 -0.395065 -0.209940 0 255 0
-0.222574 0.125772 0.249061 76 153 0
0.708263 -0.032318 0.126866 0 0 255
-0.558955 -0.355059 -0.133875 127 0 127
0.388386 -0.327245 -0.227336 0 255 0
0.763175 -0.075457 0.066273 0 0 255
-0.043135 -0.361428 -0.207690 0 255 0
0.453146 0.036467 -0.153825 204 51 127
0.494143 -0.029775 -0.227336 204 51 127
-0.166974 0.173010 0.192464 0 127 127
0.319680 0.027290 0.123184 0 0 255
0.038075 0.096491 0.073316 153 0 76
0.434526 0.037149 0.199869 0 0 255
0.368779 0.173010 -0.107954 0 127 127
-0.192724 0.027290 0.141483 76 0 153
-0.285071 0.037016 0.019771 76 0 153
-0.510419 0.153365 -0.214879 204 51 127
-0.403432 0.153365 0.165297 0 127 127
0.027174 0.087881 0.084814 153 0 76
0.636308 0.173010 -0.191439 0 127 127
-0.501258 0.034962 0.249061 76 153 0
0.591110 -0.317976 0.265022 153 76 0
-0.753200 0.153365 -0.216400 204 51 127
-0.169042 -0.067273 -0.207690 204 51 127
-0.603849 0.173010 -0.225219 0 127 127
0.812938 0.150084 -0.159432 127 127 0
-0.543552 0.153365 -0.193391 0 127 127
-0.461473 0.059126 0.249061 76 153 0
0.802928 -0.509031 -0.197868 153 0 76
0.103847 -0.353529 -0.227336 0 255 0
-0.223350 0.133719 0.265711 76 153 0
-0.466455 0.037149 -0.098411 76 0 153
0.201277 0.027290 0.210154 0 0 255
0.281717 0.153365 -0.019055 0 127 127
0.822761 -0.062968 0.029492 76 0 153
-0.104352 0.124624 0.249061 76 153 0
-0.254608 0.173010 -0.216012 0 127 127
-0.617268 -0.341471 -0.227336 0 255 0
-0.805061 -0.399923 -0.197868 153 0 76
0.580469 -0.330440 -0.009472 255 0 0
0.034942 0.131933 0.203913 153 0 76
0.236828 0.081807 0.249061 153 76 0
-0.091396 0.021090 0.270344 153 0 76
-0.540733 0.087881 0.159282 127 0 127
0.551820 -0.197310 0.265202 153 76 0
0.010757 0.033782 0.029292 0 127 127
0.076902 0.027290 0.157263 0 0 255
0.016424 0.068235 -0.018649 153 0 76
-0.808480 0.173010 -0.017775 0 127 127
0.130546 0.027290 -0.085663 0 0 255
0.566153 0.142439 0.276892 153 76 0
0.356870 0.173010 -0.010324 0 127 127
-0.583773 0.173010 0.293071 0 127 127
0.331352 0.085731 -0.189663 204 51 127
0.467134 -0.364167 -0.227336 0 255 0
-0.552089 0.022396 0.112871 127 0 127
0.254952 0.100987 -0.189669 204 51 127
-0.811069 0.038679 -0.036871 255 0 0
-0.452655 0.133719 0.247578 255 0 0
-0.017711 0.153365 0.298215 0 127 127
0.544204 0.153365 0.180285 0 127 127
-0.131619 0.153365 0.023751 0 127 127
-0.025367 0.173010 -0.145440 0 127 127
-0.522860 0.153365 0.265466 0 127 127
0.340492 -0.349800 -0.227336 0 255 0
0.362217 0.127203 -0.207690 204 51 127
-0.811069 -0.060102 -0.169576 255 0 0
0.730659 0.153365 0.079429 0 127 127
-0.789067 -0.527223 0.005133 76 0 153
-0.368124 0.173010 0.119480 0 127 127
0.607968 0.173010 -0.118398 0 127 127
0.530550 0.061747 0.068381 76 0 153
0.455375 0.173010 -0.080293 0 127 127
-0.711294 -0.055004 -0.207690 204 51 127
-0.157020 0.128195 -0.207690 204 51 127
0.783470 -0.491118 -0.215784 153 0 76
-0.042437 -0.056170 -0.227336 204 51 127
0.591212 0.153365 -0.237061 0 127 127
0.713844 0.173010 0.056485 0 127 127
-0.040145 0.153365 0.181841 0 127 127
-0.011444 0.153365 0.110669 0 127 127
-0.638101 0.153365 -0.215985 0 127 127
-0.799910 -0.086875 0.044424 76 0 153
-0.440904 0.027290 0.029309 76 0 153
-0.198669 0.117593 0.268707 76 153 0
-0.330600 0.173010 0.025110 0 127 127
-0.781601 -0.333441 0.027834 127 127 0
0.580469 -0.388679 -0.129785 255 0 0
0.551820 -0.026511 0.240520 153 76 0
0.769812 0.153365 -0.198990 0 127 127
-0.252584 0.153365 -0.160990 0 127 127
-0.586832 -0.461538 0.276892 204 51 127
0.560824 -0.354242 -0.076754 255 0 0
-0.231330 0.027290 -0.148985 76 0 153
0.045971 0.153365 0.134868 0 127 127
0.741253 0.149220 0.119303 153 0 76
-0.647896 0.096395 0.206539 0 255 0
0.800761 -0.489573 0.044424 76 0 153
-0.637824 0.173010 -0.038066 0 127 127
-0.249529 0.153365 0.268734 0 127 127
0.252569 0.108585 0.268707 153 76 0
-0.558955 -0.337197 0.060329 127 0 127
-0.800023 0.064730 0.005133 76 0 153
0.793293 0.144989 -0.184058 127 127 0
0.812938 0.129497 -0.151074 127 127 0
0.129941 0.027290 0.137010 0 0 255
-0.053052 0.022820 0.268707 76 153 0
0.073768 0.153365 -0.109348 0 127 127
0.469090 0.133719 0.260267 255 0 0
0.571465 0.118165 0.106820 76 153 0
0.543879 -0.011523 0.250699 153 0 76
-0.671795 0.157343 -0.237158 0 127 127
-0.490708 0.037149 -0.011923 76 0 153
0.191387 0.049654 0.249061 153 76 0
-0.256481 -0.340382 -0.227336 0 255 0
-0.477731 0.067167 0.282733 0 255 0
-0.410713 0.046437 -0.227336 204 51 127
-0.523546 0.153365 -0.022999 0 127 127
-0.060256 0.026831 0.100513 76 0 153
0.792488 -0.253891 0.044424 76 0 153
0.099384 -0.010978 -0.207690 204 51 127
0.220388 0.173010 0.136845 0 127 127
-0.213866 -0.009038 0.250699 153 0 76
0.038607 0.104353 0.220818 153 0 76
-0.465640 0.173010 -0.139455 0 127 127
-0.781601 -0.347770 0.009159 76 0 153
0.726744 0.153365 0.107902 0 127 127
0.003079 -0.008921 0.270344 153 0 76
0.822761 -0.029006 0.006644 76 0 153
0.177394 0.153365 0.193290 0 127 127
0.422292 0.022396 0.252519 153 76 0
0.661950 0.153365 -0.109104 0 127 127
-0.791423 0.032314 -0.107750 255 0 0
-0.052124 0.042600 0.249061 76 153 0
-0.045947 0.173010 0.027287 0 127 127
-0.642638 0.173010 -0.161761 0 127 127
-0.024579 0.153365 0.267364 0 127 127
-0.781601 0.132562 0.007753 76 0 153
0.600629 -0.039962 0.255884 0 0 255
-0.558955 -0.380153 -0.080944 127 0 127
0.105939 0.153365 0.311626 0 127 127
0.409132 0.173010 -0.114358 0 127 127
0.523139 0.024011 0.067046 76 0 153
0.008445 0.153365 0.249696 255 0 0
-0.232361 0.153365 0.195021 0 127 127
0.793293 0.082656 -0.008253 127 127 0
0.460189 0.153365 0.114286 0 127 127
0.355595 0.099304 -0.207690 204 51 127
-0.811069 0.002066 -0.150088 255 0 0
0.007620 0.133719 0.017858 0 127 127
-0.730541 0.153365 -0.000580 0 127 127
-0.808162 -0.139593 0.005133 76 0 153
0.155305 0.173010 0.203125 0 127 127
0.306756 -0.068579 -0.227336 204 51 127
0.463090 -0.008840 -0.227336 204 51 127
0.793293 -0.026527 -0.033328 127 127 0
0.152772 0.026670 -0.166420 204 51 127
-0.735116 0.173010 -0.203637 0 127 127
-0.566620 -0.462007 0.276892 204 51 127
-0.293602 0.134053 -0.196512 153 76 0
0.762091 0.108619 0.065894 0 0 255
-0.440110 0.153365 -0.165407 0 127 127
0.546830 0.039244 0.149178 76 0 153
-0.002761 -0.027293 -0.227336 204 51 127
0.437517 -0.059144 -0.207690 204 51 127
0.790476 -0.421376 0.044424 76 0 153
-0.589241 -0.467530 0.258388 204 51 127
0.812878 0.173010 -0.176231 0 127 127
-0.440953 0.153365 -0.207845 0 127 127
-0.108214 0.057666 -0.206072 153 76 0
0.699417 0.153365 0.204756 0 127 127
-0.098771 0.173010 0.165788 0 127 127
-0.301383 0.027290 -0.057367 76 0 153
0.373934 -0.076615 -0.227336 204 51 127
0.562842 0.133719 -0.037074 76 153 0
0.104534 -0.009312 0.250699 153 0 76
-0.257035 0.027315 0.234163 76 0 153
-0.196672 0.173010 -0.125748 0 127 127
0.521046 0.024407 -0.035233 76 0 153
-0.583200 0.173010 0.263151 0 127 127
0.017306 0.038990 0.264322 153 76 0
0.267565 -0.071690 -0.227336 204 51 127
-0.063827 0.037141 0.074689 76 0 153
0.816813 0.112016 0.005133 76 0 153
-0.812245 -0.110928 0.044424 76 0 153
0.773951 0.046745 0.053983 0 0 255
0.133845 0.088086 0.249061 153 76 0
-0.820891 -0.192515 0.028874 76 0 153
0.585625 -0.023285 -0.227336 204 51 127
0.155429 0.027290 0.159384 0 0 255
-0.712679 0.153365 -0.210396 204 51 127
0.689999 0.173010 -0.162087 0 127 127
0.502338 -0.011818 0.250699 153 0 76
-0.817941 -0.475404 -0.237158 153 0 76
0.222502 -0.340041 -0.207690 0 255 0
0.392507 0.153365 -0.067926 0 127 127
0.228893 0.049857 -0.206072 204 51 127
-0.507482 0.038061 0.014203 76 0 153
-0.457307 0.027290 0.064540 76 0 153
0.793293 0.097098 -0.107759 127 127 0
0.203318 0.173010 -0.032095 0 127 127
-0.483879 0.133719 0.269097 255 0 0
-0.709800 0.153365 0.141778 0 127 127
0.156983 0.027344 0.238549 0 0 255
0.343868 0.173010 -0.132013 0 127 127
-0.008888 0.123204 -0.004555 0 127 127
0.138332 0.082402 -0.227336 204 51 127
-0.506691 0.076788 0.249061 76 153 0
-0.810580 -0.036627 -0.070925 255 0 0
0.624824 0.153365 0.271567 0 127 127
0.257216 0.153365 -0.016965 0 127 127
0.560824 -0.386313 -0.062603 255 0 0
0.017681 0.173010 -0.052972 0 127 127
0.022201 0.051180 -0.054379 153 0 76
-0.572711 0.173010 -0.116647 0 127 127
0.022320 0.122411 -0.187258 153 0 76
-0.536854 0.076583 0.020514 127 0 127
0.797192 -0.026890 -0.197868 127 127 0
0.839736 0.173010 -0.096059 0 127 127
-0.608445 0.173010 0.132415 0 127 127
0.621213 0.083298 0.207371 0 0 255
0.354599 0.014341 -0.227336 204 51 127
-0.425306 -0.382578 -0.227336 0 255 0
0.062345 0.037620 -0.125257 153 0 76
-0.209893 0.053934 0.268707 76 153 0
0.154487 0.027290 0.052669 0 0 255
0.405560 -0.326307 -0.218626 0 255 0
0.007741 0.153365 -0.029389 0 127 127
0.038583 0.063235 0.103375 153 0 76
0.247290 0.153365 -0.086134 0 127 127
0.038576 0.062331 -0.099130 153 0 76
0.646380 0.143949 -0.207690 204 51 127
-0.758700 0.002788 0.095263 0 255 0
-0.063304 0.164918 0.312908 0 127 127
0.002760 -0.064671 -0.227336 204 51 127
0.038607 0.077341 -0.118399 153 0 76
0.560824 -0.337919 -0.189649 255 0 0
0.422964 0.173010 0.079522 0 127 127
0.020391 -0.048614 -0.207690 204 51 127
-0.008661 0.022396 0.037088 0 127 127
0.812938 0.016684 -0.107629 127 127 0
0.456830 0.050070 -0.227336 204 51 127
-0.116175 0.082747 -0.207690 204 51 127
-0.641239 0.134533 0.217865 0 0 255
0.542185 0.173010 0.094045 0 127 127
-0.578600 -0.389246 0.164021 127 0 127
-0.239221 0.173010 0.176218 0 127 127
0.602851 -0.006341 -0.227336 204 51 127
-0.187612 -0.046706 -0.207690 204 51 127
-0.132950 -0.021545 -0.227336 204 51 127
0.277121 0.173010 0.229636 0 127 127
0.243248 -0.331979 -0.227336 0 255 0
-0.589241 -0.168927 0.261278 204 51 127
-0.549951 0.097467 0.252306 204 51 127
0.812938 0.091943 -0.107940 127 127 0
-0.375591 0.172819 0.309825 0 127 127
-0.338831 0.153365 -0.130404 0 127 127
-0.512246 0.025642 0.224881 76 0 153
0.540056 0.071122 -0.207690 204 51 127
0.236369 0.027290 0.166098 0 0 255
-0.743638 -0.329581 0.030004 127 127 0
-0.227532 -0.359322 -0.227336 0 255 0
0.357122 0.037149 0.111990 0 0 255
-0.117166 -0.008054 -0.207690 204 51 127
0.240578 0.116920 -0.207690 204 51 127
0.206284 0.108691 0.249061 153 76 0
-0.061977 0.037340 -0.044755 76 0 153
0.783470 -0.148064 -0.228154 153 0 76
-0.257312 0.173010 -0.140935 0 127 127
-0.781601 -0.517376 -0.214733 153 0 76
-0.054419 0.153365 -0.155217 0 127 127
-0.445613 0.032416 -0.227336 204 51 127
-0.328127 -0.363120 -0.227336 0 255 0
-0.603053 0.173010 0.263831 0 127 127
-0.036576 0.153365 0.001919 0 127 127
-0.045171 0.137663 -0.227336 204 51 127
-0.462204 0.024752 -0.177876 153 76 0
-0.260755 0.050768 0.249061 76 153 0
-0.730408 0.173010 -0.001489 0 127 127
0.044952 0.022396 0.250070 153 76 0
-0.666492 0.142688 0.160022 0 255 0
-0.388927 0.037149 -0.001061 76 0 153
0.509467 0.173010 -0.128372 0 127 127
0.649728 0.133719 0.210417 153 0 76
0.673093 -0.395065 -0.215855 0 255 0
0.494987 0.173010 0.003322 0 127 127
0.658567 0.051936 0.169859 0 0 255
0.141312 0.153365 -0.159671 0 127 127
-0.384336 0.042687 -0.180440 153 76 0
-0.549951 0.058105 0.173174 127 0 127
0.293975 0.173010 -0.222122 0 127 127
0.795877 0.103549 0.044424 76 0 153
0.010757 0.102005 -0.021637 0 127 127
0.661317 0.115576 -0.227336 204 51 127
0.551820 -0.150632 0.272267 153 76 0
-0.572223 -0.404788 0.276892 204 51 127
0.425949 -0.004238 -0.227336 204 51 127
0.019454 0.173010 0.012231 0 127 127
-0.795185 -0.186224 -0.197868 153 0 76
0.060432 0.165517 0.312908 0 127 127
0.787992 0.034839 -0.197868 153 0 76
0.591110 -0.286374 0.276881 153 76 0
0.591110 0.121985 0.264985 153 76 0
-0.578600 -0.380694 -0.014862 127 0 127
-0.113904 0.141504 0.273618 255 0 0
-0.090524 0.173010 0.228824 0 127 127
-0.673748 0.153365 0.216253 0 127 127
-0.647884 0.065597 -0.227336 204 51 127
0.303208 0.083922 -0.227336 204 51 127
0.575656 0.173010 0.286530 0 127 127
-0.486280 0.037149 -0.037241 76 0 153
0.377618 0.173010 0.172153 0 127 127
0.532339 0.134295 0.273618 255 0 0
-0.627491 0.096341 -0.207690 204 51 127
0.580469 -0.367146 0.160168 255 0 0
0.529333 0.173010 0.171687 0 127 127
-0.432535 -0.041894 0.270344 153 0 76
0.019979 0.087881 -0.110241 153 0 76
0.580469 -0.347338 0.139125 255 0 0
-0.460334 0.063900 0.282006 0 255 0
-0.743680 -0.042411 -0.207690 204 51 127
0.713907 0.099503 0.114283 0 0 255
0.783470 -0.140423 0.040624 76 0 153
-0.096751 0.153365 0.235842 0 127 127
-0.379240 -0.033558 -0.227336 204 51 127
0.647749 -0.082378 -0.210274 204 51 127
-0.549879 0.087881 0.221990 127 0 127
-0.794932 0.153365 0.117278 0 127 127
-0.423996 -0.335630 -0.207690 0 255 0
0.626518 0.173010 0.035736 0 127 127
0.104365 0.153365 0.126456 0 127 127
0.016963 -0.350591 -0.207690 0 255 0
-0.795872 0.043161 -0.237158 153 0 76
0.250564 0.153365 0.068600 0 127 127
0.581743 -0.070754 -0.227336 204 51 127
0.438886 0.022396 0.257365 153 76 0
-0.652943 0.173010 0.112458 0 127 127
-0.355377 0.172263 -0.234631 0 127 127
0.216897 0.153365 0.045923 0 127 127
0.635725 -0.005973 0.220638 0 0 255
-0.678928 0.159137 0.250233 0 127 127
0.518310 0.057061 0.249061 153 76 0
-0.395168 0.021467 -0.198682 153 76 0
-0.545057 0.109409 0.175658 76 0 153
0.051321 0.173010 -0.008590 0 127 127
-0.394113 0.163589 -0.237158 0 127 127
0.580469 -0.367333 -0.029505 255 0 0
-0.635121 -0.076900 -0.207690 204 51 127
0.725858 0.076780 -0.207690 204 51 127
0.223752 0.027290 -0.135568 0 0 255
-0.679865 0.142062 -0.207690 204 51 127
0.571465 0.040789 0.065514 76 153 0
-0.788194 0.074770 -0.197868 153 0 76
0.511034 0.040607 -0.175099 76 0 153
-0.346074 0.027290 0.200828 76 0 153
-0.141297 0.133719 0.254333 255 0 0
0.042755 0.153365 0.018355 0 127 127
0.300813 -0.353697 -0.227336 0 255 0
-0.766559 0.099593 -0.207690 204 51 127
0.198930 0.027290 -0.098072 0 0 255
-0.372220 0.037149 -0.102429 76 0 153
0.023954 0.027878 -0.089200 153 0 76
0.367160 -0.374026 -0.227336 0 255 0
0.159621 0.153365 -0.189600 0 127 127
-0.105018 0.117124 0.268707 76 153 0
0.069058 0.037143 0.027999 153 0 76
0.744312 0.014533 0.083748 0 0 255
-0.549951 0.031006 0.263767 204 51 127
0.314987 0.027290 -0.001620 0 0 255
0.847562 0.170393 -0.236501 0 127 127
0.523519 0.023940 0.128374 76 0 153
-0.567142 0.153365 0.254259 204 51 127
0.593831 0.153365 0.145605 0 127 127
0.460671 0.173010 0.198128 0 127 127
-0.553205 0.173010 -0.056409 0 127 127
-0.083066 -0.082378 -0.220963 204 51 127
0.061707 0.002751 0.272411 153 0 76
-0.076555 0.153365 -0.110738 0 127 127
-0.430108 0.153365 0.284012 0 127 127
0.551820 0.088175 0.071409 76 153 0
0.491464 -0.061998 -0.227336 204 51 127
-0.811069 0.053434 -0.155183 255 0 0
-0.820891 -0.024212 0.028819 76 0 153
-0.833283 0.173010 0.075557 0 127 127
-0.545026 0.056286 -0.152212 76 0 153
0.709070 0.135357 0.119140 0 0 255
0.840155 0.153365 0.079272 0 127 127
-0.863456 0.158030 -0.161250 0 127 127
0.044405 0.081906 -0.227336 204 51 127
0.211625 0.027290 0.008854 0 0 255
-0.796268 0.048770 -0.197868 153 0 76
-0.742925 0.153365 -0.234037 0 127 127
0.342797 0.153365 0.200246 0 127 127
-0.438798 0.153365 0.123403 0 127 127
-0.192288 -0.380354 -0.227336 0 255 0
-0.553683 0.153365 -0.027578 0 127 127
-0.632400 -0.361184 -0.207690 0 255 0
0.533543 -0.038514 -0.227336 204 51 127
-0.076600 0.088547 -0.189663 153 76 0
0.038883 0.085790 0.268707 153 76 0
-0.303311 -0.395065 -0.208364 0 255 0
-0.215101 0.037123 -0.016963 76 0 153
0.299480 0.036912 0.154688 0 0 255
-0.430173 0.153365 0.245740 0 127 127
-0.549951 0.087333 -0.151161 127 0 127
-0.602054 0.007499 -0.227336 204 51 127
-0.081234 0.153365 -0.230586 0 127 127
-0.128422 0.097988 -0.227336 204 51 127
-0.019029 0.173010 -0.109090 0 127 127
-0.683549 0.052249 0.142893 0 255 0
0.591110 -0.524411 0.270457 153 76 0
0.315980 -0.027875 0.250699 153 0 76
0.322128 0.173010 0.033404 0 127 127
-0.514322 0.098374 0.249061 76 153 0
0.546927 0.110771 0.070734 76 0 153
0.229403 0.037111 0.052540 0 0 255
0.407248 0.153365 0.080239 0 127 127
0.504457 0.153365 -0.218510 0 127 127
-0.781601 -0.185128 -0.229505 153 0 76
-0.206550 -0.365449 -0.207690 0 255 0
0.350875 0.063683 0.249061 153 76 0
-0.555314 -0.004173 -0.207690 204 51 127
0.571465 0.119324 -0.090163 76 153 0
-0.811350 0.012692 -0.237158 153 0 76
-0.399279 0.160921 0.312908 0 127 127
-0.253152 -0.013273 0.250699 153 0 76
0.793293 0.082353 -0.125962 127 127 0
-0.397741 0.139882 0.273618 255 0 0
0.010757 0.108020 -0.056389 0 127 127
0.022331 0.061335 0.173011 153 0 76
0.007893 0.134200 0.273618 255 0 0
-0.479863 0.037235 0.249061 76 153 0
-0.459221 0.082234 -0.190118 153 76 0
-0.529290 0.117579 0.096963 76 0 153
-0.027115 0.068235 -0.038360 0 127 127
-0.813000 0.153365 0.063959 0 127 127
0.017306 0.058632 0.266403 153 76 0
-0.016824 -0.326307 -0.209944 0 255 0
0.510574 0.082587 -0.227336 204 51 127
-0.542175 0.024671 0.096066 76 0 153
-0.728926 0.032878 -0.227336 204 51 127
-0.552679 0.022396 0.033352 127 0 127
0.571465 0.069437 0.002574 76 153 0
-0.805778 -0.030124 0.005133 76 0 153
-0.569596 0.120049 0.168397 127 0 127
-0.528649 0.099101 -0.054255 76 0 153
-0.811069 -0.012073 -0.126420 255 0 0
-0.234009 0.153365 -0.191324 0 127 127
0.863505 0.171556 -0.025742 0 127 127
-0.170935 0.153365 0.286822 0 127 127
-0.617340 0.142251 0.209384 0 255 0
-0.367927 0.173010 -0.070491 0 127 127
-0.811187 0.022396 -0.063647 76 153 0
0.010757 0.079493 -0.200733 0 127 127
0.338939 0.173010 0.074904 0 127 127
0.180884 0.104786 0.268707 153 76 0
0.017306 0.112826 0.267562 153 76 0
-0.589241 -0.050465 0.251769 204 51 127
0.427202 0.153365 -0.152479 0 127 127
-0.343930 0.173010 0.234882 0 127 127
-0.791223 0.173010 -0.176278 0 127 127
-0.549951 0.034746 0.201444 127 0 127
0.004454 0.153365 0.229100 0 127 127
0.173264 0.153365 0.095739 0 127 127
-0.028533 0.074976 -0.100651 0 127 127
0.650986 -0.016929 -0.207690 204 51 127
0.038607 0.084094 -0.021626 153 0 76
0.010757 0.107905 0.204651 0 127 127
-0.820891 -0.174839 0.040468 76 0 153
-0.414541 0.147869 0.237602 255 0 0
0.384709 0.037139 0.230973 0 0 255
0.783470 0.024254 0.030806 76 0 153
0.145790 0.027290 -0.141262 0 0 255
-0.689999 -0.020258 0.136415 0 255 0
0.310972 0.153365 0.171160 0 127 127
0.618768 0.059601 0.209826 0 0 255
-0.781601 0.068495 -0.219165 153 0 76
-0.060671 0.133719 0.256013 255 0 0
0.510982 0.173010 0.152284 0 127 127
-0.697713 -0.355773 0.034601 127 127 0
0.586908 -0.573547 0.237602 153 76 0
0.018099 0.164404 0.312908 0 127 127
-0.598568 0.091304 -0.227336 204 51 127
-0.811069 -0.053508 -0.024372 255 0 0
0.178420 0.128747 -0.204099 204 51 127
0.635185 0.153365 0.244429 0 127 127
-0.007351 0.036960 -0.227336 204 51 127
0.570161 0.003025 -0.207690 204 51 127
-0.810953 0.153365 0.097482 0 127 127
0.474249 -0.382050 -0.207690 0 255 0
0.257830 0.152490 -0.207690 204 51 127
0.514529 0.039012 -0.158520 76 0 153
-0.795267 -0.152395 -0.197868 153 0 76
-0.528084 0.053903 0.045916 76 0 153
0.741932 0.153365 0.141700 0 127 127
0.551820 0.028870 0.072542 76 153 0
-0.090162 0.027290 0.138944 76 0 153
0.464991 -0.348366 -0.207690 0 255 0
0.781058 0.010980 -0.207690 204 51 127
0.580469 -0.381780 -0.039035 255 0 0
0.424126 -0.049233 -0.227336 204 51 127
-0.641679 -0.045459 -0.227336 204 51 127
0.739993 0.107687 0.115927 0 0 255
-0.549951 -0.517826 0.253056 204 51 127
0.551820 -0.344958 0.269960 153 76 0
-0.279330 0.136442 -0.207690 204 51 127
-0.739043 0.026014 0.087163 0 255 0
-0.692354 0.153365 0.166005 0 0 255
0.232058 0.173010 -0.172552 0 127 127
-0.188373 0.037149 0.110357 76 0 153
-0.001965 0.153365 0.003050 0 127 127
-0.782898 0.173010 0.072849 0 127 127
-0.304558 0.037113 -0.149439 76 0 153
0.523901 0.044213 -0.045058 76 0 153
0.812938 0.045962 -0.158704 127 127 0
0.046461 -0.007932 0.270344 153 0 76
0.497153 0.173010 -0.188673 0 127 127
0.606103 -0.375437 -0.207690 0 255 0
-0.613080 0.103820 0.241502 0 255 0
-0.549951 -0.219174 0.247339 204 51 127
0.130166 0.133719 0.260631 153 76 0
-0.830356 0.173010 0.027977 0 127 127
-0.568658 0.173010 -0.172331 0 127 127
0.096765 0.173010 0.168871 0 127 127
0.417838 -0.334145 -0.227336 0 255 0
0.366121 0.153365 0.265387 0 127 127
-0.224999 0.027290 0.169808 76 0 153
-0.810379 -0.100747 -0.237158 153 0 76
-0.732938 0.095828 -0.207690 204 51 127
-0.622976 0.047637 0.231565 0 255 0
-0.682392 0.173010 0.042803 0 127 127
0.284699 0.143839 -0.207690 204 51 127
-0.347940 -0.021610 0.250699 153 0 76
-0.648025 0.071852 0.206409 0 255 0
0.118483 0.080400 0.249061 153 76 0
-0.541789 0.024297 0.049118 76 0 153
0.441237 -0.081647 -0.227336 204 51 127
0.010757 0.037577 0.081218 0 127 127
0.814934 0.133719 -0.058314 76 0 153
-0.258647 0.137670 0.237602 255 0 0
-0.578600 -0.351087 -0.084968 127 0 127
-0.618558 0.173010 -0.011610 0 127 127
-0.072856 0.022396 0.257337 153 0 76
-0.181873 0.057156 -0.227336 204 51 127
0.189425 0.059752 -0.207690 204 51 127
0.771371 0.102229 0.084417 0 0 255
0.546924 0.054257 0.160971 76 0 153
-0.505992 0.153365 0.181895 0 127 127
-0.279415 0.153365 0.273528 0 127 127
-0.804033 -0.436514 0.044424 76 0 153
-0.091503 0.153365 0.162810 0 127 127
-0.229648 0.153365 0.289092 0 127 127
0.360329 0.022396 0.255223 153 76 0
-0.569596 0.051102 -0.041478 127 0 127
0.453272 -0.343504 -0.227336 0 255 0
0.329905 0.133719 0.255101 153 76 0
-0.731331 0.153365 -0.134874 0 127 127
-0.615493 0.173010 0.154707 0 127 127
-0.197047 0.027290 -0.045173 76 0 153
-0.702687 0.173010 0.172094 0 127 127
-0.344519 0.027290 -0.088440 76 0 153
0.189770 0.114698 0.249061 153 76 0
-0.049974 0.173010 -0.117326 0 127 127
0.219369 0.153365 0.087826 0 127 127
-0.515326 0.153365 -0.140946 0 127 127
0.220607 0.037149 -0.061774 0 0 255
-0.615449 0.153365 -0.133424 0 127 127
0.010757 0.036776 -0.192895 0 127 127
-0.020529 0.120909 -0.076651 153 0 76
-0.477926 0.037149 0.054914 76 0 153
0.288695 0.036670 0.234045 0 0 255
-0.265978 0.173010 0.030669 0 127 127
0.473910 0.153365 -0.183081 0 127 127
0.813309 -0.162071 0.044424 76 0 153
-0.108345 0.173010 -0.001840 0 127 127
0.783470 -0.420949 0.026782 76 0 153
0.777663 -0.395065 -0.207801 0 255 0
0.022361 0.087413 -0.148877 153 0 76
-0.628227 0.153365 0.074990 0 127 127
0.451336 -0.034543 -0.207690 204 51 127
0.687178 -0.340532 -0.227336 0 255 0
0.513021 0.025829 0.216412 76 0 153
-0.549951 0.023446 -0.112408 127 0 127
-0.090118 0.153365 0.092033 0 127 127
0.404020 0.037149 0.004597 0 0 255
0.290990 0.103725 0.268707 153 76 0
-0.820891 -0.396029 -0.228929 153 0 76
-0.405064 -0.018635 0.270344 153 0 76
-0.549951 -0.159244 0.260910 204 51 127
0.816212 0.152012 -0.188928 76 0 153
-0.329800 0.098657 0.268707 76 153 0
-0.578600 -0.358328 0.125398 127 0 127
0.190430 0.027290 0.059168 0 0 255
0.172741 0.153365 0.014025 0 127 127
-0.081249 0.036874 -0.157133 153 76 0
0.591110 0.099521 0.241098 153 76 0
0.783470 -0.367582 -0.233878 153 0 76
-0.081835 0.048478 0.268707 76 153 0
-0.500571 0.027297 0.001012 76 0 153
0.180329 0.037149 -0.039004 0 0 255
-0.582173 0.164592 0.312908 0 127 127
-0.807607 -0.558267 0.005133 76 0 153
0.591110 -0.179272 0.258107 153 76 0
-0.170451 0.153365 -0.173112 0 127 127
-0.506303 -0.040624 0.270344 153 0 76
-0.549951 -0.101938 0.251549 204 51 127
-0.111441 0.126421 -0.227336 204 51 127
-0.791423 0.002630 -0.088472 255 0 0
-0.806758 -0.365260 -0.197868 153 0 76
0.717758 0.173010 0.150450 0 127 127
-0.348583 0.027290 0.023652 76 0 153
0.065739 0.173010 0.285732 0 127 127
-0.478223 0.037149 0.018276 76 0 153
-0.765494 -0.031695 0.088440 0 255 0
-0.781601 -0.104321 -0.200832 153 0 76
0.446221 -0.037569 0.270344 153 0 76
0.111512 0.173010 -0.197643 0 127 127
-0.820891 -0.213787 0.006212 76 0 153
-0.727055 0.153365 0.177991 0 127 127
-0.008369 0.022396 -0.034223 0 127 127
0.551820 -0.439070 0.263762 153 76 0
0.812501 0.173010 -0.125306 0 127 127
0.402488 -0.386996 -0.227336 0 255 0
0.094064 0.153365 0.036845 0 127 127
-0.426926 0.173010 0.049781 0 127 127
-0.549951 0.125729 0.141134 127 0 127
-0.171536 0.101355 0.249061 76 153 0
-0.008888 0.052639 -0.123141 0 127 127
0.193078 0.153365 0.305401 0 127 127
-0.271573 0.027290 -0.136619 76 0 153
-0.793762 -0.508694 -0.237158 153 0 76
0.257347 0.022396 0.252102 153 0 76
0.530519 0.093819 0.209204 76 0 153
-0.751180 0.173010 0.079517 0 127 127
-0.214177 0.153365 0.259198 0 127 127
-0.569596 0.059623 -0.189452 127 0 127
0.541420 0.173010 0.206390 0 127 127
-0.442706 0.158116 0.312908 0 127 127
0.826325 0.153365 -0.040629 0 127 127
-0.536854 0.071458 -0.087631 127 0 127
0.033229 0.173010 0.001310 0 127 127
-0.819839 0.153365 0.030601 76 0 153
0.703461 0.173010 -0.002825 0 127 127
-0.210478 -0.009623 -0.207690 204 51 127
0.510784 0.153365 -0.169881 0 127 127
-0.560393 0.173010 0.293818 0 127 127
0.591110 -0.468507 0.253830 153 76 0
-0.373273 0.153365 0.207151 0 127 127
0.577738 -0.157362 0.237602 153 76 0
-0.240092 -0.395065 -0.209515 0 255 0
0.812182 0.153365 0.021643 0 127 127
-0.025625 0.153365 -0.058865 0 127 127
-0.774222 0.093920 0.051834 0 255 0
0.038607 0.099343 -0.068881 153 0 76
0.591110 -0.142969 0.267561 153 76 0
0.785934 0.132900 0.069791 0 0 255
0.822095 0.016301 0.005133 76 0 153
0.857079 0.173010 -0.126923 0 127 127
0.010944 0.153365 0.049368 0 127 127
-0.094907 0.153365 0.006490 0 127 127
-0.087394 0.027290 0.098300 76 0 153
-0.805730 -0.586606 -0.223346 153 0 76
-0.196565 0.038027 -0.171845 153 76 0
-0.569596 0.079235 -0.015064 127 0 127
-0.006841 0.173010 -0.171363 0 127 127
0.822761 -0.553945 -0.215763 153 0 76
0.574536 -0.285154 0.237602 153 76 0
-0.020435 0.103632 0.040589 153 0 76
0.012129 0.173010 0.265951 0 127 127
0.022199 0.106899 -0.125747 153 0 76
-0.203257 0.153365 0.275585 0 127 127
0.319882 0.153365 -0.083985 0 127 127
-0.158615 0.037149 0.160041 76 0 153
0.077999 0.173010 -0.028235 0 127 127
-0.157162 0.106289 0.268707 76 153 0
-0.049131 0.153365 0.238171 255 0 0
-0.458851 0.100942 0.249061 76 153 0
-0.050334 -0.380453 -0.207690 0 255 0
0.814573 -0.143162 0.044424 76 0 153
-0.020555 0.109622 0.238784 153 0 76
0.546490 0.124499 -0.057544 76 0 153
0.436805 0.027290 0.146361 0 0 255
0.198979 -0.327829 -0.227336 0 255 0
0.115852 0.153365 0.001174 0 127 127
-0.066233 0.153365 -0.074475 0 127 127
0.783470 -0.314994 -0.206853 153 0 76
0.659754 0.153365 0.028307 0 127 127
0.085365 0.027290 -0.036189 0 0 255
-0.628860 0.173010 -0.067512 0 127 127
0.022918 0.153365 0.032867 0 127 127
0.431928 0.096340 -0.189760 204 51 127
-0.008888 0.027014 0.092383 0 127 127
0.630002 0.153365 0.015571 0 127 127
0.796397 0.153365 -0.103296 0 127 127
0.279251 0.036636 -0.076687 0 0 255
-0.137738 -0.082378 -0.223088 204 51 127
0.205621 0.037149 -0.081463 0 0 255
0.812938 0.092765 -0.045929 127 127 0
0.010757 0.094623 0.221994 0 127 127
-0.438278 0.153365 0.156924 0 127 127
-0.265762 0.036970 0.119535 76 0 153
-0.021883 0.127640 0.086284 153 0 76
-0.075528 -0.389189 -0.207690 0 255 0
-0.771890 0.138371 0.054176 0 255 0
-0.508638 0.173010 0.247723 0 127 127
-0.745018 -0.035328 0.109004 0 255 0
0.802227 0.136474 0.044424 0 0 255
-0.331733 0.173010 0.258279 0 127 127
0.415625 0.102996 -0.189663 204 51 127
-0.189288 0.133719 0.265198 76 153 0
-0.781601 -0.045458 -0.221903 153 0 76
0.832735 0.153365 -0.103158 0 127 127
0.110510 0.173010 0.034858 0 127 127
0.206075 0.153365 -0.205094 0 127 127
0.274470 0.153365 0.037675 0 127 127
-0.454374 0.027290 0.152290 76 0 153
-0.504480 0.153365 -0.117403 0 127 127
0.449816 0.173010 -0.165374 0 127 127
-0.820891 -0.215259 -0.209793 153 0 76
0.691328 0.173010 -0.113358 0 127 127
-0.756339 -0.034966 0.069793 0 255 0
0.812938 0.108115 -0.070235 127 127 0
0.562575 -0.391791 -0.154820 255 0 0
-0.166298 0.037149 0.092296 76 0 153
-0.807390 -0.342449 0.005133 76 0 153
0.102933 0.145999 0.273618 255 0 0
0.439093 0.070787 -0.207690 204 51 127
0.794890 0.076610 0.060797 0 0 255
0.372588 0.008632 0.250699 153 0 76
0.253764 -0.395065 -0.208590 0 255 0
0.010757 0.063152 -0.050710 0 127 127
0.746848 0.084732 0.109043 0 0 255
-0.465478 0.153365 0.003609 0 127 127
-0.008888 0.078577 -0.122543 0 127 127
-0.186228 0.173010 0.033393 0 127 127
-0.521403 0.077678 -0.207690 204 51 127
0.591110 -0.103888 0.261668 153 76 0
-0.468780 0.173010 -0.173538 0 127 127
0.276123 -0.391197 -0.227336 0 255 0
0.534592 0.173010 -0.021734 0 127 127
-0.067466 0.037143 -0.107346 76 0 153
-0.500460 0.153365 0.069398 0 127 127
0.640236 -0.344121 0.014956 0 0 255
0.599978 0.173010 -0.051810 0 127 127
0.580469 -0.350183 -0.168899 255 0 0
0.413200 0.036143 -0.156257 204 51 127
-0.167783 0.173010 -0.208879 0 127 127
0.793293 0.004055 -0.181301 127 127 0
-0.659623 0.081577 -0.207690 204 51 127
0.174352 0.173010 -0.189966 0 127 127
0.385582 0.153365 -0.109598 0 127 127
-0.262095 0.027290 -0.112382 76 0 153
0.232998 0.153365 -0.094888 0 127 127
0.479671 0.173010 0.199548 0 127 127
0.730742 0.173010 0.181001 0 127 127
-0.494214 0.173010 -0.138806 0 127 127
0.675881 0.173010 -0.019024 0 127 127
0.142698 -0.017374 0.270344 153 0 76
-0.489613 0.027290 0.132370 76 0 153
0.567862 0.050049 0.276892 153 76 0
-0.349630 0.153365 -0.231980 0 127 127
0.010757 0.048393 -0.139059 0 127 127
-0.342777 0.153365 -0.060118 0 127 127
0.566971 -0.329581 0.016521 255 0 0
0.590322 -0.083480 0.276892 153 76 0
-0.047715 0.173010 0.159592 0 127 127
-0.578600 -0.360880 0.029311 127 0 127
-0.301696 0.037090 -0.002862 76 0 153
0.323065 0.173010 0.128571 0 127 127
0.219019 0.070461 0.249061 153 76 0
-0.811069 0.083187 -0.045640 255 0 0
0.563351 -0.076617 0.276892 153 76 0
-0.163502 0.115856 -0.227336 204 51 127
-0.024008 0.068235 0.183631 0 127 127
-0.595632 0.105170 0.259025 0 255 0
-0.443449 0.022396 0.271527 153 0 76
-0.602548 0.069566 0.252080 0 255 0
-0.072718 0.072958 -0.227336 204 51 127
-0.020522 0.120605 -0.175666 153 0 76
0.494818 0.153365 -0.204981 0 127 127
-0.528993 0.063120 0.026602 76 0 153
0.812938 0.080166 -0.156843 127 127 0
0.337152 0.037149 0.144319 0 0 255
0.720551 0.001193 -0.227336 204 51 127
0.412344 0.036157 -0.137655 0 0 255
0.510426 0.026261 -0.085264 76 0 153
-0.419504 0.027290 0.045380 76 0 153
0.242693 0.173010 0.164906 0 127 127
0.005948 0.173010 -0.067285 0 127 127
-0.554729 0.139575 -0.227336 204 51 127
-0.451585 -0.038926 0.270344 153 0 76
0.783470 -0.032409 -0.210405 153 0 76
0.467562 0.173010 0.077162 0 127 127
-0.533368 0.079815 0.268707 76 153 0
0.397689 0.133719 0.255984 255 0 0
-0.049682 0.005702 0.270344 153 0 76
0.812938 0.058099 -0.120263 127 127 0
0.111912 0.153365 0.209718 0 127 127
-0.461800 0.045261 0.268707 76 153 0
0.616191 -0.049805 0.212415 0 0 255
0.230322 0.173010 0.267596 0 127 127
-0.791423 0.004724 -0.006205 255 0 0
0.101661 0.173010 0.198401 0 127 127
-0.071939 0.173010 0.299617 0 127 127
-0.161378 0.153365 0.147269 0 127 127
0.199575 0.122326 -0.205987 204 51 127
0.572138 0.173010 0.003129 0 127 127
-0.699808 -0.072766 -0.207690 204 51 127
-0.313158 0.037149 -0.128095 76 0 153
0.808934 -0.344648 0.005133 76 0 153
0.793293 0.131199 -0.163665 127 127 0
-0.149687 0.095072 -0.207690 204 51 127
-0.388611 0.173010 0.195253 0 127 127
-0.121157 0.153365 0.147010 0 127 127
0.678679 0.153365 0.197286 0 127 127
-0.194157 0.153365 0.080658 0 127 127
-0.362902 0.153365 0.025108 0 127 127
0.523771 -0.351750 -0.227336 0 255 0
0.518227 0.066397 0.268707 153 76 0
-0.530285 0.127667 0.225237 76 0 153
0.822761 0.042495 -0.218654 153 0 76
0.428953 0.016384 -0.207690 204 51 127
-0.634350 -0.059876 0.209821 0 255 0
0.404171 0.153365 0.057753 0 127 127
-0.045748 0.042592 0.204092 153 0 76
0.783470 -0.061276 -0.233162 153 0 76
0.752060 0.173010 -0.079352 0 127 127
0.267769 0.025660 -0.172612 204 51 127
-0.681327 0.173010 0.098291 0 127 127
0.551820 -0.032425 0.273094 153 76 0
-0.599690 -0.082378 -0.223861 204 51 127
-0.008888 0.055633 -0.146464 0 127 127
0.560824 -0.377066 -0.144515 255 0 0
0.812938 -0.007748 -0.049592 127 127 0
-0.277218 0.036325 -0.106880 76 0 153
0.121094 0.130085 -0.191897 204 51 127
0.688211 0.173010 0.156244 0 127 127
-0.555154 0.042847 -0.207690 127 0 127
-0.407866 0.173010 0.235202 0 127 127
-0.706858 0.173010 -0.031159 0 127 127
-0.539828 0.084494 -0.207690 127 0 127
-0.118702 0.173010 0.168332 0 127 127
-0.570752 -0.233056 0.276892 204 51 127
0.733588 0.134563 0.094518 0 0 255
-0.705380 0.106284 0.148811 0 255 0
-0.664179 -0.005357 0.190187 0 255 0
-0.459866 -0.060498 -0.227336 204 51 127
0.826913 0.153365 -0.205922 0 127 127
0.080740 0.173010 0.202204 0 127 127
0.142139 0.036148 0.203776 0 0 255
-0.811935 0.038640 0.044424 76 0 153
0.269801 0.036148 0.156595 0 0 255
-0.293996 -0.022729 -0.207690 204 51 127
-0.820724 -0.503551 0.044424 76 0 153
-0.581890 -0.286536 0.237602 204 51 127
0.591110 -0.067661 0.246145 153 76 0
0.277441 -0.366735 -0.207690 0 255 0
0.783470 -0.334284 0.022246 0 0 255
0.212500 0.173010 -0.194306 0 127 127
0.812938 -0.051041 -0.145611 127 127 0
0.481028 0.153365 -0.091983 0 127 127
0.485339 0.153365 -0.041012 0 127 127
-0.223378 0.173010 -0.216496 0 127 127
-0.710854 0.014573 0.115471 0 255 0
0.401642 0.022396 0.256041 153 0 76
0.327708 0.027290 0.096836 0 0 255
0.154643 -0.007304 -0.207690 204 51 127
-0.737842 0.173010 -0.158082 0 127 127
-0.763835 -0.376187 -0.207690 0 255 0
-0.647735 -0.077548 -0.227336 204 51 127
0.803769 -0.396246 0.005133 76 0 153
-0.167139 0.033062 0.268707 76 153 0
0.143066 0.027290 0.111757 0 0 255
-0.657334 0.153365 -0.029680 0 127 127
0.591110 -0.245917 0.255164 153 76 0
0.728074 0.172050 0.199685 0 127 127
0.635702 0.031181 -0.207690 204 51 127
0.027700 0.153365 0.229523 0 127 127
0.301270 0.173010 0.211003 0 127 127
0.009190 0.133719 0.058035 0 127 127
0.109121 0.044736 0.249061 153 76 0
0.175740 0.173010 -0.046877 0 127 127
-0.787494 -0.232856 -0.197868 153 0 76
0.177354 0.027290 0.018943 0 0 255
0.673618 -0.053586 -0.207690 204 51 127
0.811033 -0.411247 -0.197868 153 0 76
0.785193 -0.071391 0.044424 76 0 153
0.152742 0.104912 0.268707 153 76 0
0.662295 0.005202 -0.227336 204 51 127
-0.413126 0.022396 0.266034 153 0 76
-0.359865 0.027099 -0.163787 153 76 0
-0.202098 0.027290 0.022095 76 0 153
-0.615035 -0.382920 0.014956 127 127 0
0.343474 0.096982 -0.227336 204 51 127
-0.668500 -0.040462 -0.227336 204 51 127
0.357824 0.141954 -0.227336 204 51 127
-0.591412 -0.361030 0.014956 127 127 0
0.334029 0.027290 -0.024817 0 0 255
0.324454 0.105876 0.268707 153 76 0
-0.057028 0.026293 -0.148498 153 0 76
0.352104 0.113614 -0.189670 204 51 127
-0.679781 0.121486 -0.227336 204 51 127
0.551820 -0.413232 0.260866 153 76 0
0.571465 0.108694 0.198162 76 153 0
-0.536854 0.085223 0.045040 127 0 127
0.571465 0.035525 -0.002458 76 153 0
-0.435223 0.129539 -0.191710 153 76 0
-0.697330 -0.041049 -0.227336 204 51 127
0.745681 0.173010 -0.102635 0 127 127
-0.420826 0.125917 0.268707 76 153 0
