ply
format ascii 1.0
element vertex 1265
property float x
property float y
property float z
property uchar red
property uchar green
property uchar blue
end_header
-0.747224 0.153365 -0.183233 0 127 127
-0.734599 0.154361 -0.237158 0 127 127
0.107916 0.028945 0.046524 0 0 255
0.354269 0.070301 0.249061 153 76 0
-0.549951 0.106221 0.199577 127 0 127
0.783470 -0.361628 0.044397 76 0 153
-0.449787 0.173010 0.061186 0 127 127
0.158594 0.153365 0.155722 0 127 127
0.325646 0.173010 -0.210252 0 127 127
-0.647297 -0.328679 -0.207690 0 255 0
-0.493809 0.153365 0.213787 0 127 127
0.193171 0.170260 0.312384 0 127 127
0.158641 0.173010 0.107554 0 127 127
-0.074602 0.173010 0.002144 0 127 127
0.534497 0.173010 -0.216145 0 127 127
0.532175 0.100390 -0.095029 76 0 153
-0.299444 -0.042609 -0.227336 204 51 127
0.165231 0.133719 0.241671 255 0 0
-0.688583 -0.082378 -0.217226 204 51 127
0.545272 0.099199 0.241093 76 153 0
-0.675262 0.059757 0.151215 0 255 0
0.050311 -0.369972 -0.227336 0 255 0
0.359233 0.035493 -0.038606 0 0 255
0.818152 0.153365 -0.218617 153 0 76
-0.495523 0.166253 -0.237158 0 127 127
-0.739175 0.170592 0.188776 0 127 127
0.500714 0.062288 -0.227336 204 51 127
0.267093 0.153365 -0.200331 0 127 127
0.276234 -0.024778 0.270344 153 0 76
0.563936 -0.310251 0.276892 153 76 0
0.501292 0.153365 0.091600 0 127 127
0.113535 0.173010 0.278786 0 127 127
-0.551845 0.153365 -0.134115 0 127 127
0.207454 0.173010 -0.147984 0 127 127
-0.760736 0.049446 -0.227336 204 51 127
0.796564 -0.512084 -0.237158 153 0 76
0.109691 0.153365 0.109469 0 127 127
-0.574514 0.173010 0.189968 0 127 127
0.255908 0.035493 0.021264 0 0 255
-0.035082 0.088316 0.052026 0 127 127
-0.794029 -0.483418 0.005133 76 0 153
-0.826283 0.173010 0.005021 0 127 127
0.110406 0.173010 0.135519 0 127 127
-0.556689 0.153365 -0.032407 0 127 127
0.551820 -0.236914 0.246802 153 76 0
0.537080 -0.360008 -0.227336 0 255 0
-0.203296 0.041260 -0.227336 204 51 127
0.258200 -0.375591 -0.227336 0 255 0
-0.429048 0.028945 0.239311 76 0 153
-0.811069 0.065358 -0.165633 255 0 0
-0.711918 0.153365 -0.211654 204 51 127
0.479183 0.173010 0.039825 0 127 127
-0.781601 -0.304417 -0.230297 153 0 76
-0.411448 0.153365 0.093055 0 127 127
0.580261 -0.118811 0.276892 153 76 0
-0.035082 0.084518 0.144267 153 0 76
-0.082624 0.153365 0.176795 0 127 127
-0.558955 -0.387059 -0.143763 127 0 127
0.689695 -0.024395 -0.207690 204 51 127
-0.528288 0.153365 0.182247 0 127 127
0.033501 0.153365 0.168234 0 127 127
0.532175 0.058082 -0.136022 76 0 153
0.275865 0.043572 -0.204416 204 51 127
0.580469 -0.344309 -0.127605 255 0 0
-0.021985 0.041584 0.175673 153 0 76
-0.005193 0.084781 0.270344 76 153 0
0.058797 0.028945 0.064576 153 0 76
0.560757 -0.437688 0.237602 153 76 0
0.640096 0.173010 -0.126716 0 127 127
-0.703431 0.056968 -0.227336 204 51 127
-0.240633 0.173010 -0.144383 0 127 127
-0.487571 -0.079677 -0.227336 204 51 127
-0.782399 -0.057315 -0.237158 153 0 76
-0.035082 0.130571 0.035943 153 0 76
-0.569596 0.026988 -0.008106 127 0 127
0.313768 0.144355 -0.227336 204 51 127
-0.327726 0.044010 0.268707 76 153 0
-0.784164 -0.555928 0.005133 76 0 153
-0.015000 -0.356441 -0.207690 0 255 0
-0.820891 -0.472983 -0.220370 153 0 76
-0.272689 0.153365 0.290115 0 127 127
-0.804632 -0.100377 0.044424 76 0 153
-0.172051 0.028945 -0.087323 76 0 153
-0.717640 -0.329581 0.031521 127 127 0
-0.791501 0.034138 -0.237158 153 0 76
0.435873 0.153365 0.070551 0 127 127
-0.528209 0.153365 -0.110258 0 127 127
0.660923 0.146285 0.167492 0 0 255
0.783470 -0.422683 -0.201995 153 0 76
0.586742 0.103936 -0.207690 204 51 127
-0.618875 0.173010 -0.010202 0 127 127
-0.426875 0.035493 -0.056812 76 0 153
-0.496030 0.173010 0.152790 0 127 127
-0.407128 0.153365 0.169113 0 127 127
-0.628669 0.035218 -0.227336 204 51 127
-0.819522 -0.396806 -0.237158 153 0 76
-0.507718 0.028945 0.019768 76 0 153
-0.569596 0.041751 0.048853 127 0 127
0.783470 -0.113073 -0.234025 153 0 76
-0.820891 -0.519099 -0.213813 153 0 76
-0.383514 0.173010 0.017897 0 127 127
0.683157 0.153365 -0.164236 0 127 127
0.151185 0.173010 -0.041614 0 127 127
-0.556664 -0.501491 0.276892 204 51 127
-0.813459 -0.188888 0.005133 76 0 153
0.070290 0.173010 0.077880 0 127 127
0.357217 0.173010 0.090075 0 127 127
-0.530853 -0.394132 -0.227336 0 255 0
0.010757 0.076158 0.234844 153 0 76
-0.047456 0.062926 0.249061 76 153 0
0.734110 0.153365 0.074642 0 127 127
-0.239781 0.029965 -0.207690 204 51 127
0.274130 0.027550 0.249061 0 0 255
0.865325 0.166654 -0.117769 0 127 127
-0.195536 0.153365 -0.171652 0 127 127
0.448469 -0.329466 -0.227336 0 255 0
-0.782209 -0.553850 -0.197868 153 0 76
-0.074879 0.153365 -0.051927 0 127 127
0.561154 -0.461494 0.276892 153 76 0
0.617128 0.060825 -0.227336 204 51 127
-0.169095 0.089070 -0.227336 204 51 127
-0.569596 0.043292 0.210957 127 0 127
0.066252 0.153365 0.288632 0 127 127
0.631461 0.109657 -0.227336 204 51 127
0.301503 0.040584 0.268707 153 76 0
0.816212 0.134180 -0.079351 76 0 153
-0.187651 0.173010 0.279803 0 127 127
-0.763370 0.153365 0.053175 0 127 127
-0.790678 -0.181262 -0.237158 153 0 76
0.822761 0.100055 -0.210937 153 0 76
-0.724409 0.153365 0.004197 0 127 127
-0.213916 0.028945 0.095219 76 0 153
0.389939 0.173010 0.066570 0 127 127
-0.762997 0.038106 0.063106 0 255 0
0.084004 0.102086 0.249061 153 76 0
0.237760 0.096085 0.268707 153 76 0
-0.248879 0.173010 0.075784 0 127 127
-0.761627 0.137847 -0.227336 204 51 127
-0.417711 0.035493 -0.155157 153 76 0
0.728527 0.173010 -0.116531 0 127 127
-0.626075 0.173010 0.271525 0 127 127
0.588547 -0.245345 0.276892 153 76 0
-0.692228 0.153365 0.064584 0 127 127
-0.569596 0.102435 -0.157270 127 0 127
-0.008888 0.074848 0.079384 0 127 127
0.461945 0.054054 -0.204416 204 51 127
0.605172 0.173010 0.216588 0 127 127
-0.035082 0.059294 -0.165146 153 0 76
-0.183989 0.173010 -0.194918 0 127 127
0.813105 0.173010 0.078266 0 127 127
-0.458801 0.173010 0.009616 0 127 127
-0.449026 0.028945 0.025356 76 0 153
-0.488986 0.005845 -0.227336 204 51 127
0.479731 0.028945 -0.049463 0 0 255
0.483354 0.173010 0.248984 0 127 127
-0.459457 0.173010 -0.139280 0 127 127
0.285850 0.173010 0.126075 0 127 127
0.216769 0.028945 -0.108209 0 0 255
-0.491178 0.005958 0.250699 153 0 76
0.186782 0.153365 0.022365 0 127 127
0.803815 -0.023498 0.051834 0 0 255
0.353721 0.153365 -0.084785 0 127 127
0.639818 -0.391396 0.034601 0 0 255
-0.014197 0.153365 0.025522 0 127 127
0.364646 0.047828 -0.191319 204 51 127
0.444115 0.035493 0.183122 0 0 255
0.734610 0.007623 -0.227336 204 51 127
-0.644237 0.153365 -0.210053 0 127 127
0.812938 0.059740 -0.050752 127 127 0
-0.142966 0.035493 -0.165177 153 76 0
-0.820891 -0.456218 0.033259 76 0 153
0.065623 -0.326307 -0.225931 0 255 0
0.404857 0.035493 0.142981 0 0 255
0.038780 0.153365 -0.017201 0 127 127
-0.034758 0.029891 -0.227336 204 51 127
-0.647901 0.038308 0.206534 0 255 0
0.736812 0.111901 -0.227336 204 51 127
0.395377 0.173010 -0.011467 0 127 127
-0.326577 0.028945 0.241292 76 0 153
0.338039 -0.027835 -0.227336 204 51 127
-0.017219 0.141671 -0.207690 204 51 127
0.561772 -0.391791 0.120794 255 0 0
0.178264 0.055215 -0.227336 204 51 127
0.822761 -0.557071 -0.236408 153 0 76
-0.270890 0.028945 -0.084943 76 0 153
0.822761 -0.449928 0.038294 76 0 153
-0.142075 0.028945 -0.052462 76 0 153
0.669894 -0.357912 -0.227336 0 255 0
-0.748114 0.173010 -0.210911 0 127 127
0.792930 0.088672 0.044424 0 0 255
-0.326511 -0.366603 -0.207690 0 255 0
-0.463801 -0.032711 -0.227336 204 51 127
-0.359580 0.139029 0.237602 255 0 0
0.580469 -0.354572 0.152274 255 0 0
-0.486997 0.106279 -0.227336 204 51 127
0.508690 0.028945 0.241516 76 0 153
-0.727494 -0.357923 0.014956 127 127 0
0.015297 0.087881 -0.081012 0 127 127
-0.549951 0.022667 0.222432 127 0 127
-0.569401 0.060627 0.237602 204 51 127
-0.358470 0.040184 -0.204416 204 51 127
-0.356366 0.097709 0.249061 76 153 0
-0.370871 0.028945 0.083133 76 0 153
-0.442762 0.083645 0.249061 76 153 0
-0.787052 -0.248173 0.044424 76 0 153
-0.336312 0.153365 -0.122397 0 127 127
-0.507170 0.153365 -0.041225 0 127 127
0.554103 0.133719 -0.127031 76 153 0
0.227575 0.052530 0.268707 153 76 0
-0.099086 0.035493 -0.012410 76 0 153
-0.549951 0.069898 -0.046527 76 0 153
0.215111 0.173010 0.150339 0 127 127
0.633112 0.173010 -0.200668 0 127 127
-0.536260 0.153365 0.151390 0 127 127
-0.146426 0.065257 -0.191319 153 76 0
0.401327 0.079717 -0.227336 204 51 127
0.105746 0.028945 0.000899 0 0 255
-0.720131 0.173010 0.149059 0 127 127
-0.231678 -0.057581 -0.207690 204 51 127
0.386044 0.153365 -0.065731 0 127 127
0.239062 -0.060790 -0.207690 204 51 127
-0.652425 0.173010 0.045776 0 127 127
-0.051126 0.155622 -0.237158 0 127 127
0.108127 0.173010 0.181117 0 127 127
0.161469 0.173010 -0.122945 0 127 127
0.865325 0.158425 -0.000704 0 127 127
-0.820891 -0.299935 -0.205945 153 0 76
0.023854 0.042407 0.157172 0 127 127
0.524785 0.074603 0.249061 153 76 0
0.560979 -0.329581 0.032460 255 0 0
0.152103 -0.043778 -0.227336 204 51 127
-0.541969 0.173010 -0.002438 0 127 127
-0.141681 0.091470 -0.204416 204 51 127
-0.811069 -0.041567 -0.036025 255 0 0
-0.219469 0.153365 0.156836 0 127 127
-0.150585 0.173010 -0.146580 0 127 127
-0.527679 0.042186 0.268707 76 153 0
-0.549951 -0.029655 0.241937 204 51 127
0.775228 0.011093 0.085183 153 76 0
-0.093648 -0.358337 -0.227336 0 255 0
-0.063382 0.028945 -0.060183 76 0 153
0.842113 0.153365 -0.177219 0 127 127
-0.783422 -0.278663 -0.197868 153 0 76
-0.791423 0.126656 -0.063562 255 0 0
0.327670 0.173010 0.092814 0 127 127
0.575256 -0.391791 0.012548 255 0 0
0.443951 0.009784 -0.227336 204 51 127
-0.067245 0.173010 0.033220 0 127 127
-0.291294 0.153365 -0.211415 204 51 127
-0.559219 -0.329581 -0.197541 127 0 127
-0.384226 0.035493 0.213446 76 0 153
-0.811069 0.076659 -0.069919 255 0 0
-0.008888 0.079940 -0.163812 0 127 127
-0.405694 0.147598 -0.207690 204 51 127
-0.811069 0.102408 -0.172643 255 0 0
-0.549951 -0.521535 0.246680 204 51 127
-0.001873 -0.082378 -0.214035 204 51 127
-0.292847 0.153365 -0.045676 0 127 127
-0.139879 0.133719 0.250105 255 0 0
0.257071 0.153365 0.184349 0 127 127
0.510977 0.153365 -0.086831 0 127 127
0.391636 0.153365 0.297166 0 127 127
0.523675 0.153365 -0.129894 0 127 127
0.822761 -0.131110 -0.236796 153 0 76
0.011079 0.000469 -0.207690 204 51 127
0.614171 0.153365 0.164002 0 127 127
-0.273599 0.133719 0.239408 255 0 0
-0.127145 0.049795 -0.207690 153 76 0
0.551820 -0.086771 0.249268 153 76 0
0.077753 -0.050489 -0.207690 204 51 127
0.747070 0.020307 0.080979 0 0 255
0.238776 0.153365 0.091043 0 127 127
-0.736457 0.153365 -0.032298 0 127 127
-0.008888 0.048148 -0.106888 0 127 127
-0.549951 -0.083534 0.242234 204 51 127
0.241732 0.173010 -0.112206 0 127 127
0.317134 0.153365 -0.153663 0 127 127
-0.039439 -0.079415 -0.207690 204 51 127
0.620980 -0.024026 0.235447 0 0 255
-0.794210 0.153365 -0.180142 0 127 127
-0.373863 0.173010 -0.064985 0 127 127
0.315147 0.173010 0.031404 0 127 127
0.597393 0.153365 -0.163578 0 127 127
-0.035082 0.130676 0.120359 153 0 76
0.721327 0.173010 -0.169043 0 127 127
-0.323164 0.173010 0.080629 0 127 127
-0.264590 0.035493 0.054272 76 0 153
0.123020 -0.021764 -0.227336 204 51 127
-0.724522 0.117196 -0.227336 204 51 127
0.500568 0.153365 -0.179199 0 127 127
-0.439063 0.112177 0.268707 76 153 0
-0.341443 0.035493 -0.006692 76 0 153
0.793293 0.091512 -0.020413 127 127 0
-0.027910 0.173010 -0.082866 0 127 127
0.141882 0.153365 0.250608 0 127 127
-0.712756 0.173010 0.114938 0 127 127
-0.008992 -0.046609 -0.207690 204 51 127
0.769717 -0.390524 0.014956 0 0 255
0.040028 -0.054485 -0.207690 204 51 127
0.812938 0.110717 -0.134924 127 127 0
0.692739 0.153365 0.207696 0 127 127
0.793293 0.024616 -0.104838 127 127 0
0.677849 0.153365 -0.089454 0 127 127
-0.041011 0.153365 -0.104102 0 127 127
-0.542542 0.022396 0.166782 76 0 153
0.169887 0.173010 0.241652 0 127 127
0.693419 0.084098 -0.227336 204 51 127
0.675354 0.153365 -0.050824 0 127 127
-0.066740 0.035493 0.159443 76 0 153
0.036951 0.108450 0.151428 153 0 76
-0.584368 -0.392224 -0.207690 0 255 0
-0.558955 -0.371130 -0.193272 127 0 127
-0.378401 0.126209 -0.207690 153 76 0
0.822761 -0.417813 0.008520 76 0 153
-0.758060 0.173010 -0.118946 0 127 127
-0.084604 -0.061896 -0.227336 204 51 127
-0.218606 0.173010 0.214943 0 127 127
-0.040592 0.173010 0.249709 0 127 127
-0.015253 0.101791 -0.227336 204 51 127
-0.275088 -0.080078 -0.227336 204 51 127
0.816840 -0.465550 -0.237158 153 0 76
-0.434477 0.173010 0.242876 0 127 127
-0.385500 0.173010 0.180743 0 127 127
0.010757 0.045960 0.069159 0 127 127
0.188837 0.001675 0.250699 153 0 76
-0.398024 0.173010 0.225416 0 127 127
-0.309675 0.046148 -0.207690 204 51 127
0.238447 -0.013648 -0.207690 204 51 127
-0.348887 0.028945 0.057630 76 0 153
-0.370620 0.153399 0.312908 0 127 127
-0.820891 -0.016206 -0.227361 153 0 76
-0.566915 -0.391791 -0.009189 127 0 127
-0.041397 0.129724 -0.227336 204 51 127
-0.514473 0.153365 0.243243 255 0 0
0.413525 0.153365 0.259834 255 0 0
0.380679 -0.025543 -0.207690 204 51 127
0.030402 0.087881 -0.198093 153 0 76
0.037404 0.102253 -0.227336 204 51 127
0.563156 -0.391791 -0.145248 255 0 0
-0.814065 -0.284756 0.044424 76 0 153
0.244905 0.173010 -0.045756 0 127 127
-0.095358 0.028945 0.043234 76 0 153
-0.789254 -0.098385 -0.197868 153 0 76
0.551820 0.083241 -0.073708 76 153 0
0.010757 0.046203 0.102587 0 127 127
-0.150049 0.028945 0.118692 76 0 153
-0.555135 -0.220238 0.276892 204 51 127
-0.432845 0.153365 0.006692 0 127 127
0.727726 -0.008998 0.100404 0 0 255
0.034001 0.044175 -0.227336 204 51 127
-0.530305 0.062955 0.169747 76 0 153
-0.662147 -0.008878 0.192228 0 255 0
0.793293 -0.026425 -0.154326 127 127 0
0.211103 -0.394593 -0.207690 0 255 0
-0.413010 0.042546 0.268707 76 153 0
-0.340950 0.153365 0.217047 0 127 127
-0.032165 0.022396 -0.069070 153 0 76
-0.700147 0.029852 0.126224 0 255 0
0.399726 -0.395065 -0.208003 0 255 0
0.476171 -0.009084 0.250699 153 0 76
0.255274 0.003673 0.250699 153 0 76
-0.820891 -0.222352 -0.229641 153 0 76
0.486173 0.127241 -0.191319 204 51 127
0.564616 -0.329581 0.075802 255 0 0
-0.618498 0.153365 -0.235916 204 51 127
-0.443658 -0.024299 0.270344 153 0 76
-0.273604 0.173010 0.090958 0 127 127
-0.774524 0.153365 0.141208 0 127 127
0.507238 -0.383379 -0.227336 0 255 0
0.682146 0.173010 0.082613 0 127 127
0.298132 0.153365 -0.200340 0 127 127
0.115096 -0.395065 -0.209223 0 255 0
-0.099315 0.035493 0.187644 76 0 153
0.538123 0.153365 0.240594 0 127 127
-0.383664 -0.023194 -0.207690 204 51 127
0.542088 0.153365 -0.236411 0 127 127
0.490084 0.028945 0.097492 0 0 255
0.599692 0.173010 0.280420 0 127 127
-0.532004 0.022396 -0.046966 76 0 153
-0.350784 0.173010 0.043080 0 127 127
-0.137009 0.028945 0.007043 76 0 153
-0.112535 0.035493 -0.139800 76 0 153
-0.549951 0.076877 0.051804 127 0 127
0.379866 0.153365 0.127766 0 127 127
0.554772 0.022396 0.133187 76 153 0
0.532175 0.048202 0.174834 76 0 153
0.014146 0.087881 0.061638 153 0 76
0.040422 0.153365 -0.091020 0 127 127
0.760698 -0.376363 -0.227336 0 255 0
0.215344 0.170322 -0.236572 0 127 127
0.403914 0.035493 -0.110264 0 0 255
0.409040 0.130370 -0.227336 204 51 127
-0.008888 0.072747 0.160738 0 127 127
0.123968 -0.326536 -0.207690 0 255 0
-0.008002 0.022396 0.052933 0 127 127
0.326046 0.113707 0.268707 153 76 0
-0.549951 0.099643 0.113768 127 0 127
0.761047 0.109458 0.094784 0 0 255
-0.544633 0.153365 0.230602 0 127 127
0.551820 0.108705 0.015584 76 0 153
0.818249 -0.068016 -0.237158 153 0 76
0.625604 0.173010 0.261584 0 127 127
0.567866 0.153365 0.244925 153 76 0
0.311435 0.028945 0.212561 0 0 255
0.005303 0.153365 0.001365 0 127 127
-0.362398 0.173010 -0.111281 0 127 127
0.310159 0.016125 -0.227336 204 51 127
0.788220 0.173010 -0.034185 0 127 127
0.106588 0.153365 0.041152 0 127 127
-0.530305 0.111020 -0.020482 76 0 153
0.507895 0.035493 -0.144389 76 0 153
0.409033 0.035493 -0.053135 0 0 255
-0.111844 0.035493 -0.088179 76 0 153
0.033527 0.133719 -0.039905 153 0 76
0.257112 0.107347 -0.191319 204 51 127
0.023854 0.110999 0.206800 153 0 76
-0.818122 -0.331870 -0.237158 153 0 76
-0.703453 0.143212 0.150745 0 0 255
-0.791375 -0.586402 0.042991 76 0 153
0.562409 0.133719 0.071357 76 153 0
0.571170 -0.003469 0.276892 153 76 0
0.793293 -0.027433 -0.049264 127 127 0
0.532175 0.049186 -0.084481 76 0 153
-0.522401 -0.049401 -0.227336 204 51 127
-0.208517 0.153365 -0.225109 0 127 127
0.465364 0.153365 -0.208871 204 51 127
-0.119638 0.153365 0.018408 0 127 127
0.783470 -0.261147 -0.232991 153 0 76
0.208600 0.095814 -0.191319 204 51 127
-0.260438 -0.056166 -0.207690 204 51 127
-0.232241 0.153365 -0.175417 0 127 127
0.759778 -0.046556 0.068216 0 0 255
-0.085473 0.084099 0.268707 76 153 0
-0.033673 0.022396 0.076322 153 0 76
-0.466063 0.035493 -0.058177 76 0 153
0.034137 0.022396 0.175749 153 0 76
0.697914 0.047237 0.158185 0 0 255
-0.249850 -0.017662 -0.207690 204 51 127
0.556104 0.173010 -0.174974 0 127 127
0.716887 0.153365 -0.011494 0 127 127
0.595733 0.020556 0.232959 0 0 255
-0.061583 0.021203 0.273618 76 153 0
0.364132 -0.372700 -0.207690 0 255 0
0.808707 -0.545745 0.005133 76 0 153
-0.540139 0.153365 -0.183584 0 127 127
0.229431 -0.376886 -0.227336 0 255 0
0.436774 0.173010 -0.032059 0 127 127
-0.212825 0.153365 0.024313 0 127 127
-0.206572 0.028945 -0.091772 76 0 153
-0.139579 0.153365 -0.053351 0 127 127
-0.489533 0.048372 0.268707 76 153 0
0.551820 0.106099 -0.158835 76 153 0
-0.597512 0.173010 -0.107138 0 127 127
-0.791423 0.004134 -0.153425 255 0 0
-0.452261 0.153365 0.231918 0 127 127
0.779736 0.143341 0.080656 153 0 76
-0.572502 0.173010 -0.131051 0 127 127
0.486543 0.153365 -0.024516 0 127 127
-0.392576 -0.351422 -0.207690 0 255 0
0.560824 -0.348119 -0.044051 255 0 0
0.112062 0.012886 -0.227336 204 51 127
-0.158207 0.173010 0.051928 0 127 127
-0.566415 -0.005533 0.276892 204 51 127
-0.207360 0.173010 0.183038 0 127 127
-0.541795 -0.003556 -0.227336 204 51 127
-0.033253 0.173010 0.117739 0 127 127
-0.516712 0.153365 0.004153 0 127 127
0.481144 0.173010 0.193009 0 127 127
0.367964 0.031008 0.268707 153 76 0
-0.820891 -0.352926 0.005958 76 0 153
0.545272 0.125525 0.224081 76 0 153
-0.574696 -0.509511 0.237602 204 51 127
-0.464156 0.153365 -0.166945 0 127 127
-0.003238 0.153365 0.149941 0 127 127
-0.569596 0.094793 -0.184933 127 0 127
0.789244 -0.331222 0.005133 76 0 153
0.010757 0.126755 0.247620 153 76 0
-0.364254 0.173010 0.259458 0 127 127
-0.397082 0.173010 0.120550 0 127 127
0.167443 -0.008564 -0.207690 204 51 127
0.295114 0.153365 0.203302 0 127 127
-0.597711 -0.018362 -0.207690 204 51 127
0.321279 -0.395065 -0.223270 0 255 0
-0.194210 0.173010 0.235429 0 127 127
0.247169 0.173010 0.224229 0 127 127
0.822761 -0.155422 0.006064 76 0 153
0.125221 0.035493 0.173413 0 0 255
-0.333481 0.132264 -0.227336 204 51 127
-0.549951 0.068804 -0.002906 127 0 127
0.735169 -0.015859 -0.207690 204 51 127
0.346900 0.153365 -0.168766 0 127 127
-0.503130 0.028945 0.052236 76 0 153
-0.730679 -0.044559 -0.227336 204 51 127
0.367453 0.028945 -0.158211 0 0 255
0.580469 -0.331334 0.172701 255 0 0
0.463963 0.035493 0.023080 0 0 255
0.573362 0.034590 0.276892 153 76 0
0.417385 0.074405 -0.204416 204 51 127
-0.406400 0.153365 0.055231 0 127 127
0.272653 0.035493 -0.167774 204 51 127
-0.727749 0.091530 -0.207690 204 51 127
-0.681096 0.153365 -0.067323 0 127 127
0.274900 0.153365 -0.005361 0 127 127
0.399089 0.080109 0.268707 153 76 0
-0.101862 0.153365 -0.029306 0 127 127
-0.690640 0.094483 0.135772 0 255 0
0.106021 0.173010 -0.008273 0 127 127
-0.440717 -0.327708 -0.227336 0 255 0
0.304773 0.173010 0.250228 0 127 127
-0.334008 -0.056132 -0.227336 204 51 127
-0.479656 0.028945 -0.030175 76 0 153
0.422256 0.153365 0.119815 0 127 127
-0.606101 0.173010 -0.044335 0 127 127
-0.218429 0.035493 0.059522 76 0 153
-0.334401 0.044170 -0.227336 204 51 127
-0.731534 0.108164 0.122545 0 255 0
0.616537 0.011603 -0.207690 204 51 127
-0.791423 0.082942 -0.123402 255 0 0
0.108457 0.173010 -0.069519 0 127 127
-0.283463 -0.002599 -0.227336 204 51 127
-0.449896 0.024368 -0.207690 204 51 127
0.136607 0.173010 0.208492 0 127 127
0.541852 0.153365 0.055256 0 127 127
0.636419 0.153365 -0.153301 0 127 127
-0.745386 0.008608 0.080793 0 255 0
-0.254691 0.022396 0.249563 153 0 76
0.664337 0.153365 0.061584 0 127 127
-0.002149 0.039842 0.270344 76 153 0
0.544667 0.087881 -0.044706 76 153 0
0.532175 0.098466 -0.181575 76 0 153
0.116821 0.098314 0.249061 153 76 0
0.822761 -0.222537 0.032432 76 0 153
-0.182297 0.053172 -0.191319 153 76 0
-0.490189 0.173010 -0.016244 0 127 127
-0.144812 0.173010 -0.032761 0 127 127
0.435207 0.153365 -0.097968 0 127 127
-0.578600 -0.391109 -0.093066 127 0 127
-0.660310 0.153365 0.224994 0 127 127
0.294631 -0.002614 -0.207690 204 51 127
-0.116304 0.008077 -0.207690 204 51 127
-0.271127 0.070634 0.249061 76 153 0
0.114419 0.066672 0.279282 0 127 127
0.614796 0.153365 0.242049 0 0 255
-0.647670 0.006020 0.211406 0 255 0
0.822761 -0.390638 0.042088 76 0 153
-0.849573 0.153365 0.003924 0 127 127
-0.060670 0.028945 -0.117745 153 0 76
0.001692 0.022396 -0.151045 0 127 127
-0.720384 -0.002700 0.105901 0 255 0
0.573972 0.050521 0.237602 153 76 0
-0.558955 -0.382199 0.209695 127 0 127
-0.035082 0.067520 0.201030 0 127 127
-0.326893 0.092092 0.268707 76 153 0
-0.811069 -0.006026 -0.108277 255 0 0
-0.575727 -0.329581 -0.008924 127 0 127
0.280367 0.035493 0.065681 0 0 255
0.568069 0.022396 -0.191015 76 153 0
-0.587202 0.153132 0.237602 0 127 127
-0.182543 0.107339 0.249061 76 153 0
0.600441 0.153365 0.137556 0 127 127
-0.549951 0.064856 -0.175512 127 0 127
-0.356414 0.173010 0.155351 0 127 127
-0.050353 0.173010 0.197867 0 127 127
0.447254 0.028945 0.238640 0 0 255
0.662132 0.095040 0.194120 0 0 255
-0.003003 0.173010 0.211723 0 127 127
-0.188914 0.106713 -0.191319 153 76 0
0.558371 0.153365 0.011393 0 127 127
-0.107255 0.055855 -0.227336 204 51 127
0.312696 0.035493 -0.160964 0 0 255
-0.538357 0.045857 -0.204416 204 51 127
0.187666 0.151639 -0.207690 0 127 127
-0.188191 0.153365 -0.120868 0 127 127
0.190267 0.035493 0.196521 0 0 255
-0.433829 0.153365 0.198292 0 127 127
-0.543402 0.054682 0.193266 76 0 153
0.369239 0.094018 0.268707 153 76 0
0.232607 0.049018 -0.204416 204 51 127
-0.707753 0.173010 0.046774 0 127 127
0.726955 0.077269 -0.227336 204 51 127
-0.110156 0.153365 0.209655 0 127 127
-0.166713 0.035493 -0.150087 153 76 0
-0.619580 -0.051444 0.234976 0 255 0
-0.501208 -0.366196 -0.227336 0 255 0
-0.677219 -0.026547 -0.207690 204 51 127
-0.249883 0.153365 -0.044933 0 127 127
0.134355 0.153365 0.183864 0 127 127
0.551820 0.147066 0.276662 255 0 0
-0.598117 0.173010 -0.148069 0 127 127
0.659520 -0.329581 0.016272 0 0 255
-0.134537 0.130371 -0.207690 204 51 127
-0.558955 -0.362293 -0.164022 127 0 127
-0.565908 -0.165666 0.276892 204 51 127
0.371703 0.153365 0.253890 255 0 0
0.551820 0.108751 0.129624 76 153 0
0.230678 0.111084 -0.227336 204 51 127
-0.385906 0.173010 0.080714 0 127 127
-0.611280 -0.350693 -0.207690 0 255 0
-0.820891 -0.134776 -0.209991 153 0 76
-0.400765 0.077477 -0.227336 204 51 127
0.480200 0.043858 0.268707 153 76 0
0.116945 0.153365 -0.046117 0 127 127
0.511272 0.012042 0.273618 153 0 76
0.793293 -0.028075 -0.007188 127 127 0
-0.804774 -0.068011 0.044424 76 0 153
-0.595916 0.041721 0.258740 204 51 127
-0.549951 0.086155 0.023099 127 0 127
0.273670 -0.395065 -0.212465 0 255 0
0.009265 0.153365 -0.135023 0 127 127
-0.454711 -0.364110 -0.227336 0 255 0
-0.008888 0.115747 -0.155082 0 127 127
-0.210554 0.028945 -0.003083 76 0 153
0.570235 -0.391791 0.170205 255 0 0
0.426266 0.153365 0.174201 0 127 127
0.096736 0.153365 0.240511 0 127 127
-0.807168 -0.007921 0.005133 255 0 0
0.306150 0.115583 0.249061 153 76 0
0.085921 0.173010 0.199674 0 127 127
0.036951 0.081484 0.103494 153 0 76
-0.011781 0.153365 0.189751 0 127 127
0.765870 -0.343363 0.014956 0 0 255
0.431224 0.173010 -0.067074 0 127 127
0.036951 0.076272 -0.131287 153 0 76
-0.165415 0.085846 0.268707 76 153 0
0.353723 0.173010 -0.029449 0 127 127
0.811088 0.100618 -0.237158 153 0 76
0.321233 0.082858 0.249061 153 76 0
-0.569596 0.133523 0.130837 127 0 127
0.097220 0.017823 0.273618 153 0 76
0.473339 0.153365 0.092622 0 127 127
0.747795 -0.044554 -0.207690 204 51 127
0.732143 0.062314 0.095969 0 0 255
0.087914 0.095757 -0.207690 204 51 127
-0.129042 0.173010 0.085836 0 127 127
-0.832779 0.153365 -0.107503 0 127 127
0.379474 -0.348613 -0.227336 0 255 0
0.837824 0.153365 -0.023574 0 127 127
0.675077 0.173010 0.114949 0 127 127
0.778729 -0.021130 -0.207690 153 0 76
0.758894 0.153365 0.007290 0 127 127
0.644801 0.015306 0.216165 153 76 0
0.615832 0.153365 0.099524 0 127 127
-0.459007 0.065319 -0.207690 204 51 127
0.514579 -0.046191 -0.227336 204 51 127
-0.630026 0.097591 0.196643 0 255 0
-0.429572 0.153365 -0.193356 0 127 127
-0.115668 0.173010 0.129931 0 127 127
0.241968 0.153365 0.018303 0 127 127
0.016119 -0.013719 0.262544 153 0 76
-0.269320 0.173010 0.042094 0 127 127
0.174153 0.128057 -0.191319 204 51 127
-0.643698 0.173010 -0.155845 0 127 127
0.819546 -0.408787 -0.237158 153 0 76
-0.814343 0.019254 -0.027700 255 0 0
0.652174 0.038283 0.176279 0 0 255
0.196466 -0.361387 -0.207690 0 255 0
0.364876 0.151831 -0.227336 204 51 127
-0.791423 -0.032062 -0.053956 255 0 0
-0.806895 -0.226849 0.044424 76 0 153
-0.796829 0.100893 0.005133 255 0 0
0.392923 0.050330 -0.204416 204 51 127
0.267294 0.159117 -0.237158 0 127 127
0.013310 0.153365 0.118038 0 127 127
-0.046031 -0.051446 -0.207690 204 51 127
0.081288 0.066599 0.268707 153 76 0
0.010757 0.127380 0.067311 0 127 127
-0.088753 0.153365 0.078268 0 127 127
0.765735 0.072480 -0.227336 204 51 127
0.134302 0.028945 -0.141003 0 0 255
-0.154883 0.035493 0.166715 76 0 153
-0.349631 0.153365 0.110979 0 127 127
-0.488373 0.173010 0.192482 0 127 127
0.788880 -0.289047 -0.197868 153 0 76
0.373150 -0.062059 -0.227336 204 51 127
0.560824 -0.389599 0.220139 255 0 0
0.597254 0.173010 0.039386 0 127 127
-0.719003 -0.364660 -0.227336 0 255 0
0.600038 0.173010 -0.113248 0 127 127
0.053265 0.153365 -0.201680 204 51 127
-0.130937 0.085199 0.268707 76 153 0
-0.791423 -0.070396 -0.189847 255 0 0
0.796693 -0.478860 -0.197868 153 0 76
0.067777 0.153365 0.104241 0 127 127
0.490118 0.153365 0.167147 0 127 127
0.036951 0.104140 -0.100299 153 0 76
0.148153 0.016640 -0.207690 204 51 127
-0.421865 0.173010 0.036069 0 127 127
0.822761 -0.267250 -0.207152 153 0 76
0.532175 0.055862 0.216959 76 0 153
0.679816 0.126188 0.148519 0 0 255
0.216358 0.173010 -0.026007 0 127 127
0.231047 0.079944 -0.227336 204 51 127
-0.549951 0.080627 0.240795 76 153 0
0.591110 -0.104804 0.249659 153 76 0
0.228581 0.153365 0.164622 0 127 127
0.059817 0.028945 -0.126786 153 0 76
-0.590349 0.128621 -0.227336 204 51 127
0.822761 -0.584858 0.030500 76 0 153
0.036951 0.049699 0.211634 153 0 76
-0.521194 0.028945 0.148390 76 0 153
0.579327 -0.571207 0.237602 153 76 0
-0.781601 -0.306147 0.043176 76 0 153
0.310914 0.076029 -0.204416 204 51 127
0.775731 0.173010 -0.009364 0 127 127
0.762192 0.153365 -0.080300 0 127 127
0.400723 0.153365 -0.171419 0 127 127
0.175488 0.153365 0.192448 0 127 127
0.017422 0.153365 0.254301 255 0 0
0.822761 0.009280 -0.207924 153 0 76
0.846055 0.173010 -0.158063 0 127 127
0.071001 -0.004714 0.250699 153 0 76
0.672207 0.153365 -0.015884 0 127 127
0.440793 0.091442 0.268707 76 153 0
0.425478 -0.022863 -0.227336 204 51 127
-0.789499 -0.212632 -0.197868 153 0 76
0.457926 0.101298 -0.227336 204 51 127
0.036951 0.088199 -0.000205 153 0 76
-0.771812 0.173010 -0.045238 0 127 127
0.631418 -0.326307 -0.211707 0 255 0
-0.035082 0.046173 0.042592 153 0 76
-0.257511 0.153365 -0.131629 0 127 127
0.350234 0.035493 0.162978 0 0 255
-0.049900 0.153365 0.044044 0 127 127
-0.065729 0.120441 0.268707 76 153 0
-0.357297 0.173010 -0.206089 0 127 127
0.010757 0.053105 -0.067768 153 0 76
-0.397784 0.173010 -0.200159 0 127 127
-0.758963 -0.359656 -0.207690 0 255 0
-0.155018 0.003400 0.250699 153 0 76
-0.776060 0.106571 0.077830 0 255 0
0.168613 -0.346681 -0.227336 0 255 0
-0.647321 -0.030580 -0.207690 204 51 127
0.105437 0.173010 0.221334 0 127 127
0.343182 0.173010 0.133464 0 127 127
-0.154576 -0.374722 -0.207690 0 255 0
0.252456 0.141151 0.237602 255 0 0
0.450123 0.028945 -0.131898 0 0 255
-0.008849 0.153365 0.080441 0 127 127
-0.026607 0.043643 -0.204416 204 51 127
0.691615 -0.363167 0.034601 0 0 255
-0.052556 0.173010 -0.153547 0 127 127
0.034794 0.038518 0.268707 153 76 0
0.187697 0.173010 0.269033 0 127 127
-0.599428 0.007194 0.227372 0 255 0
-0.491306 0.153365 0.027268 0 127 127
0.820893 0.153365 0.014321 0 127 127
0.186769 0.173010 -0.052419 0 127 127
-0.392540 0.153365 -0.000812 0 127 127
0.578551 0.153365 -0.017766 0 127 127
-0.791669 -0.080109 -0.030867 255 0 0
-0.503017 0.153365 0.281533 0 127 127
-0.574750 -0.329581 -0.143680 127 0 127
0.397802 0.028945 0.000949 0 0 255
0.357909 0.028945 -0.130832 0 0 255
-0.075708 0.035493 -0.086010 76 0 153
0.687694 0.173010 0.169691 0 127 127
0.582893 -0.284268 0.237602 153 76 0
0.591110 -0.340404 0.243073 153 76 0
-0.091245 0.099042 -0.207690 204 51 127
0.071231 0.173010 -0.050348 0 127 127
-0.743068 0.173010 0.022299 0 127 127
0.563893 -0.391791 -0.045798 255 0 0
0.816212 0.135775 -0.020092 76 0 153
0.162392 0.153365 0.009554 0 127 127
-0.035082 0.078159 -0.064292 153 0 76
0.709704 0.153365 0.038225 0 127 127
0.170762 0.035493 -0.045471 0 0 255
0.625568 0.173010 -0.021895 0 127 127
-0.531427 0.173010 0.085748 0 127 127
0.816580 -0.235891 -0.237158 153 0 76
-0.820891 -0.173363 0.041196 76 0 153
0.793293 -0.002941 -0.088291 127 127 0
-0.526341 0.173010 -0.087425 0 127 127
0.036951 0.112117 -0.173722 153 0 76
0.646794 0.125904 0.209523 153 0 76
-0.549951 -0.421570 0.238249 204 51 127
0.136896 -0.373348 -0.207690 0 255 0
-0.708234 0.153365 -0.116476 0 127 127
-0.569596 0.054369 0.147905 127 0 127
-0.469197 0.153365 0.058527 0 127 127
-0.157903 0.028945 -0.114544 76 0 153
0.793293 0.048926 -0.005104 127 127 0
0.030366 0.133719 0.043765 153 0 76
0.541186 0.111633 0.268707 153 76 0
0.136739 0.022741 0.249061 0 0 255
0.571465 0.126039 -0.188451 76 153 0
-0.666890 0.153365 -0.175054 0 127 127
0.710044 -0.387136 0.034601 0 0 255
-0.255515 0.035493 -0.026217 76 0 153
-0.781601 0.098647 -0.227270 204 51 127
-0.289286 0.103553 -0.204416 153 76 0
-0.784912 -0.240630 -0.237158 153 0 76
-0.755114 0.173010 0.121386 0 127 127
0.532175 0.047280 0.100381 76 0 153
0.499286 -0.019705 0.270344 153 0 76
0.290637 0.153365 -0.165821 0 127 127
-0.549951 0.107801 0.058987 127 0 127
-0.791423 0.028922 -0.118413 255 0 0
0.210130 0.133719 0.248422 255 0 0
0.515552 0.133719 -0.196943 204 51 127
-0.444922 0.173010 -0.088358 0 127 127
0.117539 0.173010 0.088201 0 127 127
0.812938 0.074617 -0.156078 127 127 0
-0.577270 -0.391791 0.049890 127 0 127
-0.759045 -0.391791 0.018489 127 127 0
-0.598271 0.173010 0.033462 0 127 127
-0.173478 0.163874 0.312908 0 127 127
-0.606076 0.134375 0.220695 0 255 0
0.708386 -0.031658 0.132832 0 0 255
0.822761 -0.136102 0.032049 76 0 153
0.451444 0.173010 0.219360 0 127 127
0.835844 0.173010 0.038575 0 127 127
0.137551 0.173010 0.159805 0 127 127
0.106876 0.153365 -0.191223 0 127 127
-0.618678 0.039698 0.235881 0 255 0
-0.300670 0.035493 0.010079 76 0 153
0.550875 0.068235 0.173799 76 0 153
-0.569596 0.083264 0.102053 127 0 127
0.444710 -0.023533 -0.207690 204 51 127
0.377604 0.173010 0.207076 0 127 127
-0.349179 0.153365 0.291125 0 127 127
-0.530305 0.051310 0.054944 76 0 153
0.550120 0.068235 -0.184555 76 0 153
-0.021985 0.095599 -0.182041 0 127 127
-0.811069 0.075840 -0.012936 255 0 0
-0.569596 0.074173 0.204831 127 0 127
0.723851 0.173010 -0.029220 0 127 127
-0.067531 -0.342235 -0.227336 0 255 0
-0.543395 0.087440 -0.227336 204 51 127
0.571465 0.063097 0.027582 76 153 0
-0.035082 0.127404 0.093224 153 0 76
0.545272 0.036289 0.068243 76 153 0
-0.730660 0.093406 0.095581 0 255 0
0.756506 0.135192 -0.227336 204 51 127
0.544502 0.049308 -0.204416 204 51 127
-0.781601 0.117182 0.039437 76 0 153
0.589844 -0.384400 0.034601 0 0 255
0.483588 0.022396 -0.195715 204 51 127
-0.798946 0.053828 -0.197868 153 0 76
-0.215883 0.035493 0.184891 76 0 153
0.773388 0.153365 0.115613 0 127 127
0.362900 0.079082 -0.191319 204 51 127
0.399723 -0.074544 -0.227336 204 51 127
0.527797 0.083819 -0.204416 204 51 127
-0.563230 0.080299 -0.207690 204 51 127
0.629040 -0.356824 -0.227336 0 255 0
0.258850 0.153365 0.128402 0 127 127
0.301507 0.088629 -0.227336 204 51 127
-0.598004 -0.362960 0.014956 127 127 0
0.571465 0.084665 0.112319 76 153 0
0.091407 0.173010 0.052452 0 127 127
-0.315473 0.153365 0.063341 0 127 127
0.113561 0.164585 -0.237158 0 127 127
-0.615275 0.153365 0.189212 0 127 127
0.378652 -0.038488 0.270344 153 0 76
-0.578600 -0.332773 0.041505 127 127 0
0.043145 0.004550 0.273618 153 0 76
0.816212 0.142514 -0.153824 127 127 0
0.563396 -0.404500 0.276892 153 76 0
-0.585001 -0.163441 0.237602 204 51 127
-0.228288 -0.013441 -0.227336 204 51 127
-0.734962 -0.046389 0.099514 0 255 0
-0.708180 0.153365 -0.179100 0 127 127
0.561322 0.153365 0.154454 0 127 127
0.742223 0.173010 0.155729 0 127 127
-0.401712 0.173010 0.291291 0 127 127
0.162508 0.105413 0.268707 153 76 0
-0.589241 -0.451026 0.241258 204 51 127
0.554438 0.133719 0.179506 76 153 0
-0.045589 0.153365 -0.172086 0 127 127
0.640136 0.153365 0.078443 0 127 127
0.711997 0.039946 -0.227336 204 51 127
0.544560 0.087881 0.055813 76 0 153
-0.751218 0.139060 0.107418 0 255 0
0.311715 0.153365 0.049909 0 127 127
-0.675226 0.126662 -0.207690 204 51 127
0.254405 0.028945 -0.011372 0 0 255
0.551820 0.127328 -0.070860 76 153 0
-0.830085 0.173010 -0.217399 0 127 127
0.235530 0.173010 0.109548 0 127 127
-0.850688 0.153365 0.048298 0 127 127
-0.501867 0.123946 0.268707 76 153 0
-0.399274 0.108649 -0.191319 153 76 0
0.004782 0.173010 0.038928 0 127 127
0.489333 0.113331 0.249061 153 76 0
0.048780 0.153365 0.078366 0 127 127
0.272518 0.035493 0.112942 0 0 255
-0.299097 0.173010 0.215129 0 127 127
-0.267692 0.153365 -0.103268 0 127 127
0.244810 0.153365 -0.093711 0 127 127
-0.216281 0.173010 -0.119802 0 127 127
-0.317617 0.035493 -0.118066 76 0 153
0.328657 0.153365 0.221443 0 127 127
0.287536 -0.061045 -0.227336 204 51 127
0.583099 -0.156255 0.237602 153 76 0
0.535853 0.173010 -0.109165 0 127 127
0.783470 -0.186821 -0.207262 153 0 76
-0.543402 0.052780 0.118558 127 0 127
-0.392739 0.173010 -0.138959 0 127 127
-0.444949 0.117645 -0.191319 153 76 0
0.023854 0.037154 -0.202602 204 51 127
-0.560341 -0.138828 0.237602 204 51 127
0.442936 0.173010 -0.173914 0 127 127
-0.768338 0.173010 -0.159792 0 127 127
0.551820 0.110981 0.197199 76 153 0
0.545272 0.047827 0.146974 76 0 153
0.425982 0.153365 -0.135114 0 127 127
0.512553 0.035493 0.047179 76 0 153
0.697797 -0.356281 -0.227336 0 255 0
0.780699 0.085278 -0.207690 204 51 127
0.818780 -0.320691 -0.197868 153 0 76
-0.318348 0.153365 0.298210 0 127 127
-0.008888 0.097278 -0.092367 153 0 76
0.641579 0.173010 -0.096104 0 127 127
0.571465 0.127782 0.119614 76 153 0
-0.060796 0.153365 -0.129657 0 127 127
-0.791423 -0.052578 0.001963 255 0 0
-0.549951 0.118954 0.257003 204 51 127
-0.598869 0.108162 -0.207690 204 51 127
0.010757 0.031056 0.207007 0 127 127
0.366032 -0.326307 -0.218477 0 255 0
-0.157550 0.173010 0.203010 0 127 127
-0.115391 0.153365 -0.065446 0 127 127
-0.809847 -0.558463 0.044424 76 0 153
-0.770342 0.173010 -0.017543 0 127 127
-0.303017 0.153365 0.151540 0 127 127
-0.791423 0.083525 -0.088648 255 0 0
0.363511 0.121461 -0.191319 204 51 127
-0.013922 0.153365 -0.069872 0 127 127
0.608110 -0.058252 0.220530 0 0 255
-0.781812 -0.152744 -0.197868 153 0 76
0.036951 0.133676 0.197453 153 0 76
0.047120 0.168599 -0.237158 0 127 127
0.211168 0.173010 0.225294 0 127 127
-0.224863 -0.012024 0.270344 153 0 76
0.494095 0.153365 0.286960 0 127 127
-0.543402 0.112681 -0.139153 127 0 127
-0.622415 -0.369369 0.034601 127 127 0
-0.671274 -0.364202 -0.227336 0 255 0
0.183642 0.074020 -0.207690 204 51 127
-0.569029 0.173010 -0.174042 0 127 127
-0.549951 0.111746 -0.080503 127 0 127
0.261330 0.035493 -0.049124 0 0 255
-0.253988 0.122349 -0.191319 153 76 0
-0.687751 0.173010 -0.027882 0 127 127
-0.518670 -0.004689 0.250699 153 0 76
-0.095544 -0.076791 -0.207690 204 51 127
0.477388 0.173010 -0.096858 0 127 127
0.278504 0.108044 -0.227336 204 51 127
-0.609700 0.153365 0.146537 0 127 127
0.067227 0.153365 0.208313 0 127 127
-0.715319 -0.390598 0.014956 127 127 0
-0.820891 0.130024 0.015176 76 0 153
0.812938 0.070795 -0.108108 127 127 0
0.532175 0.120391 0.050652 76 0 153
0.652509 0.153365 0.037082 0 127 127
-0.169936 0.173010 0.172143 0 127 127
-0.195232 0.035493 0.140613 76 0 153
0.061820 0.119335 0.249061 153 76 0
-0.256970 -0.349341 -0.227336 0 255 0
0.812497 -0.158577 -0.197868 153 0 76
-0.268829 0.153365 0.257212 255 0 0
-0.377236 0.153365 -0.039169 0 127 127
0.289864 0.153365 -0.125155 0 127 127
-0.308294 -0.007977 0.250699 153 0 76
0.211528 -0.014440 -0.207690 204 51 127
0.452718 0.173010 0.104111 0 127 127
0.010757 0.048076 0.184618 0 127 127
-0.792334 -0.031044 -0.106682 255 0 0
0.010757 0.056403 0.134321 0 127 127
0.551820 -0.176614 0.262556 153 76 0
-0.038771 0.000399 0.250699 153 0 76
0.793293 0.001463 -0.028994 127 127 0
-0.403035 0.015694 -0.207690 153 76 0
-0.034585 0.047117 0.268707 76 153 0
-0.457684 0.153365 -0.121018 0 127 127
0.540092 0.091736 -0.227336 204 51 127
-0.233559 0.106803 0.268707 76 153 0
0.349527 0.120996 -0.227336 204 51 127
-0.127932 0.173010 0.238365 0 127 127
0.010757 0.077788 0.021319 153 0 76
0.777797 0.173010 0.046913 0 127 127
0.796259 -0.391980 0.005133 76 0 153
0.382147 0.028945 -0.050972 0 0 255
-0.543402 0.121514 -0.183020 76 0 153
0.240619 0.153365 0.258368 255 0 0
-0.425110 0.110935 -0.227336 204 51 127
0.803265 -0.504437 0.044424 76 0 153
0.013812 -0.378465 -0.207690 0 255 0
0.333378 -0.055891 -0.227336 204 51 127
0.005818 0.008043 0.250699 153 0 76
-0.035082 0.125917 -0.132064 153 0 76
-0.061060 0.146398 0.273618 255 0 0
0.658955 -0.072890 -0.207690 204 51 127
0.564227 -0.038468 0.276892 153 76 0
-0.739648 -0.391277 -0.207690 0 255 0
-0.589241 -0.200368 0.276359 204 51 127
0.178842 0.063605 0.268707 153 76 0
0.816237 0.172159 0.111367 0 127 127
0.710152 0.153365 -0.219057 0 127 127
-0.510094 0.040766 -0.204416 204 51 127
0.199478 0.038715 -0.207690 204 51 127
-0.306825 0.138404 -0.227336 204 51 127
-0.021985 0.024838 -0.096347 0 127 127
0.038556 0.153365 -0.138763 0 127 127
0.793293 -0.050892 -0.171566 127 127 0
-0.568424 0.133719 0.040647 127 0 127
-0.814133 0.167371 0.115029 0 127 127
0.380436 0.014617 -0.207690 204 51 127
0.341712 0.035493 0.213992 0 0 255
-0.543402 0.096860 0.171239 76 0 153
0.551820 0.050464 -0.118563 76 0 153
0.783470 -0.142406 0.027765 76 0 153
-0.366452 0.153365 0.058600 0 127 127
-0.576594 -0.329581 -0.045238 127 0 127
-0.165420 0.028945 -0.034856 76 0 153
-0.353908 0.054777 0.249061 76 153 0
0.322910 0.153365 -0.085378 0 127 127
-0.558955 -0.365442 -0.113452 127 0 127
-0.179867 0.135618 0.273618 255 0 0
0.270962 -0.326307 -0.224798 0 255 0
0.808419 0.173010 -0.053737 0 127 127
0.787247 0.026274 -0.197868 153 0 76
0.167587 0.035493 0.064678 0 0 255
0.150682 0.028945 0.106898 0 0 255
-0.075342 0.020586 0.250699 153 0 76
0.573107 0.094085 0.237602 153 76 0
0.225744 0.173010 0.057702 0 127 127
0.783470 -0.492890 0.014305 76 0 153
0.030403 0.081224 0.134085 153 0 76
-0.735468 0.153365 -0.130659 0 127 127
0.525026 0.153365 0.143633 0 127 127
-0.496352 0.153365 0.134752 0 127 127
-0.578600 -0.353662 -0.179860 127 0 127
0.010310 0.109390 -0.227336 204 51 127
0.551451 0.068235 -0.006358 76 0 153
-0.701984 0.155429 0.227178 0 127 127
-0.005094 0.153365 -0.159294 0 127 127
0.055657 0.028945 -0.032801 153 0 76
0.486794 0.076817 0.249061 153 76 0
-0.245141 0.173010 0.175061 0 127 127
0.433826 0.173010 0.278590 0 127 127
-0.281193 0.173010 0.183556 0 127 127
-0.350792 0.173010 -0.078291 0 127 127
0.062389 -0.012263 -0.207690 204 51 127
-0.373371 -0.326444 -0.207690 0 255 0
-0.792185 -0.036877 0.044424 0 255 0
-0.543402 0.128229 0.097289 127 0 127
-0.791423 0.056929 -0.091157 255 0 0
0.569253 0.173010 -0.045165 0 127 127
0.690990 0.147579 0.137298 0 0 255
-0.402607 0.028945 0.190552 76 0 153
-0.406348 0.035493 0.136514 76 0 153
-0.811069 -0.045964 -0.168913 255 0 0
0.685066 -0.027240 0.171089 0 0 255
0.176674 0.173010 -0.166877 0 127 127
0.057551 0.129237 -0.191319 204 51 127
0.533563 0.173010 -0.053307 0 127 127
0.794430 0.012708 0.065899 153 76 0
-0.060694 0.173010 -0.089745 0 127 127
-0.558955 -0.360954 0.229584 127 0 127
0.241831 0.173010 -0.011491 0 127 127
0.135497 0.052743 -0.191319 204 51 127
-0.411040 0.045847 -0.227336 204 51 127
-0.781601 0.029742 0.030671 76 0 153
0.822761 -0.095429 -0.210945 153 0 76
0.140690 0.127764 -0.227336 204 51 127
-0.631326 -0.015560 0.223179 0 255 0
-0.547730 0.145129 -0.207690 204 51 127
0.462156 0.153365 0.262366 255 0 0
0.151413 0.035493 0.041273 0 0 255
0.190739 0.173010 0.090072 0 127 127
0.458418 0.173010 0.017552 0 127 127
0.335398 0.173010 0.175019 0 127 127
-0.160499 0.173010 0.110266 0 127 127
0.512925 -0.016747 -0.207690 204 51 127
0.344900 0.173010 0.308981 0 127 127
0.518204 0.035493 -0.066528 0 0 255
-0.800388 0.153365 0.017581 0 127 127
0.352087 0.173010 -0.103672 0 127 127
0.075192 0.035493 0.183284 0 0 255
0.571465 0.108446 -0.078054 76 153 0
0.702900 0.108158 0.125337 0 0 255
0.308616 0.173010 -0.169346 0 127 127
0.202993 0.173010 0.177601 0 127 127
-0.198995 -0.010033 -0.207690 204 51 127
-0.781601 -0.094783 0.032444 76 0 153
-0.643652 0.173010 -0.037757 0 127 127
0.562894 -0.497021 0.237602 153 76 0
0.664438 0.153365 -0.196636 204 51 127
-0.008888 0.080294 -0.027340 0 127 127
0.171692 -0.395065 -0.225003 0 255 0
0.822761 0.126901 -0.202818 153 0 76
0.331579 0.119508 -0.207690 204 51 127
-0.549951 0.131345 -0.113473 127 0 127
0.782071 0.043442 0.073670 0 0 255
-0.333973 -0.019609 0.270344 153 0 76
-0.811069 0.114652 -0.076706 255 0 0
0.818377 0.058723 0.044424 76 0 153
0.604683 -0.031884 -0.207690 204 51 127
-0.641107 0.119142 0.185515 0 255 0
-0.678426 0.149381 0.175879 0 0 255
-0.808148 -0.427754 -0.197868 153 0 76
-0.742532 -0.028500 -0.207690 204 51 127
-0.275973 0.173010 -0.169189 0 127 127
-0.424109 -0.039170 -0.227336 204 51 127
-0.326770 0.153365 0.181167 0 127 127
0.189678 0.114199 -0.207690 204 51 127
0.503589 0.173010 -0.062740 0 127 127
-0.791423 0.009830 -0.014086 255 0 0
0.417784 0.028945 -0.132240 0 0 255
0.708453 0.173010 0.148551 0 127 127
0.437383 -0.070200 -0.227336 204 51 127
-0.706705 -0.061066 -0.207690 204 51 127
0.591110 0.041186 0.256967 153 76 0
0.338985 0.039144 0.268707 153 0 76
0.421633 -0.374513 -0.207690 0 255 0
0.413692 -0.009445 0.250699 153 0 76
-0.274897 0.171554 0.311090 0 127 127
0.702252 0.003450 0.125987 0 0 255
0.589355 0.173010 -0.003324 0 127 127
0.442444 0.173010 0.050024 0 127 127
0.755479 0.037589 -0.207690 204 51 127
-0.554662 -0.400078 0.276892 204 51 127
0.010757 0.074235 -0.184461 153 0 76
-0.210881 0.173010 -0.159216 0 127 127
0.226820 0.153365 -0.160359 0 127 127
-0.250981 0.103713 -0.227336 204 51 127
0.500558 0.075418 -0.204416 204 51 127
-0.589241 0.124094 0.268413 0 255 0
0.581262 0.153365 0.172395 0 127 127
-0.304759 0.035493 -0.041660 76 0 153
-0.088494 0.153365 -0.204716 0 127 127
-0.549951 -0.114128 0.271533 204 51 127
0.316583 -0.025972 0.270344 153 0 76
-0.005133 0.022396 -0.014913 0 127 127
0.660493 0.151361 0.195765 0 127 127
-0.410781 0.133764 0.237602 255 0 0
0.402854 0.035493 -0.165731 204 51 127
-0.841366 0.173010 0.081024 0 127 127
0.178287 0.009328 0.273618 153 0 76
-0.031642 0.133719 -0.086277 153 0 76
-0.406013 0.173010 -0.046682 0 127 127
-0.781601 -0.532862 0.027883 76 0 153
-0.820891 -0.192372 -0.201638 153 0 76
-0.093135 -0.387652 -0.207690 0 255 0
-0.498141 -0.042888 0.270344 153 0 76
0.084023 0.173010 -0.144370 0 127 127
-0.309114 0.173010 -0.116718 0 127 127
-0.001402 -0.024218 -0.227336 204 51 127
-0.543402 0.114521 0.023792 127 0 127
0.566517 0.173010 0.292746 0 127 127
-0.471837 0.093835 -0.204416 204 51 127
-0.495719 0.153365 -0.175922 0 127 127
0.385778 0.022396 0.250547 153 0 76
-0.837225 0.153365 -0.026974 0 127 127
-0.591789 -0.331473 0.014956 127 127 0
0.815743 -0.007793 -0.237158 153 0 76
-0.680903 0.062490 -0.207690 204 51 127
-0.530305 0.068644 -0.063972 127 0 127
0.822761 -0.183430 -0.225500 153 0 76
0.418360 -0.326307 -0.220451 0 255 0
-0.658775 0.153365 -0.109921 0 127 127
0.783470 -0.236990 -0.208253 153 0 76
-0.085162 0.173010 -0.145066 0 127 127
-0.137894 0.028945 0.067292 76 0 153
0.666924 0.173010 -0.156815 0 127 127
0.023854 0.041216 -0.174823 0 127 127
0.617103 -0.007700 0.211499 0 0 255
-0.569596 0.024189 0.072138 127 0 127
-0.561781 0.153365 -0.096900 0 127 127
-0.791423 0.122093 -0.013817 255 0 0
0.177160 0.153365 0.065201 0 127 127
0.571465 0.095485 0.076804 76 153 0
-0.480049 0.173010 -0.214584 0 127 127
-0.035082 0.069754 0.078440 153 0 76
0.285734 0.064066 -0.191319 204 51 127
0.215224 -0.326307 -0.210346 0 255 0
-0.813413 -0.277470 -0.237158 153 0 76
0.816212 0.012955 -0.133296 127 127 0
-0.197928 0.086208 -0.227336 204 51 127
0.317165 0.173010 0.290642 0 127 127
-0.243954 0.153365 0.130143 0 127 127
0.804304 0.042448 -0.237158 153 0 76
0.591110 -0.373606 0.255772 153 76 0
0.551820 -0.378961 0.242708 153 76 0
-0.283031 0.173010 0.015038 0 127 127
0.752320 0.173010 -0.034542 0 127 127
0.370909 0.173010 0.112444 0 127 127
-0.668973 0.128925 0.157531 0 255 0
0.793293 0.056444 -0.133383 127 127 0
0.098243 0.153365 0.287007 0 127 127
0.350408 0.153365 -0.007253 0 127 127
0.284938 0.173010 -0.108532 0 127 127
-0.034517 0.022396 -0.120158 153 0 76
0.580469 -0.373216 0.066642 255 0 0
0.551522 -0.060647 -0.227336 204 51 127
0.780541 0.173010 -0.147831 0 127 127
0.812938 0.020342 -0.014172 76 0 153
-0.464728 -0.395065 -0.222431 0 255 0
-0.549951 0.094180 0.085798 127 0 127
-0.123210 0.035493 -0.115896 76 0 153
0.043954 0.173010 -0.035088 0 127 127
0.488466 0.035493 0.002779 0 0 255
-0.649251 0.101254 -0.227336 204 51 127
-0.084525 0.136075 0.237602 255 0 0
0.159702 0.173010 -0.011976 0 127 127
0.011439 0.153365 -0.208394 0 127 127
0.131912 0.173010 -0.123209 0 127 127
-0.488344 0.153365 -0.061937 0 127 127
0.293887 0.173010 0.006754 0 127 127
-0.168116 0.153365 -0.203405 0 127 127
-0.588221 -0.193034 0.237602 204 51 127
-0.415617 0.173010 0.005647 0 127 127
-0.798546 -0.080330 0.005133 76 0 153
-0.589241 -0.026227 0.274658 204 51 127
-0.549951 0.087274 -0.026994 127 0 127
0.279448 0.082566 0.268707 153 76 0
-0.574982 0.120453 -0.207690 204 51 127
0.010757 0.111472 -0.056655 0 127 127
0.793293 0.010155 -0.171678 127 127 0
-0.082052 0.035493 0.070858 76 0 153
0.092441 0.035493 -0.061643 0 0 255
-0.724718 0.173010 -0.085573 0 127 127
-0.672504 0.018801 -0.207690 204 51 127
-0.138035 -0.025550 -0.207690 204 51 127
-0.311374 0.028945 0.185570 76 0 153
-0.268347 -0.012820 0.250699 153 0 76
-0.439783 -0.076786 -0.207690 204 51 127
0.551820 -0.296356 0.247835 153 76 0
-0.187349 -0.002325 0.250699 153 0 76
0.346368 0.022396 -0.201017 204 51 127
0.817177 -0.291404 -0.237158 153 0 76
0.408813 0.153365 -0.208936 0 127 127
0.655195 0.173010 0.148188 0 127 127
-0.443535 0.153365 -0.043791 0 127 127
0.231201 0.028945 0.111637 0 0 255
-0.573627 0.153365 0.149644 0 127 127
-0.174976 0.153365 -0.076416 0 127 127
0.465585 0.121465 0.268707 153 76 0
0.305544 0.173010 0.164515 0 127 127
0.023854 0.046180 -0.090337 0 127 127
-0.148131 0.173010 -0.068188 0 127 127
0.812617 0.173010 -0.105517 0 127 127
-0.634619 -0.341546 -0.227336 0 255 0
-0.806263 0.092231 -0.237158 153 0 76
-0.063348 0.028945 -0.166129 153 0 76
-0.668482 -0.338921 0.014956 127 127 0
-0.611933 0.153365 -0.188811 0 127 127
-0.549951 -0.268217 0.253384 204 51 127
0.434453 0.153365 -0.216460 0 127 127
-0.292683 -0.373784 -0.227336 0 255 0
0.162640 0.153365 0.127632 0 127 127
0.662435 -0.389463 0.014956 0 0 255
0.340078 0.153365 -0.062611 0 127 127
-0.709063 0.109932 -0.207690 204 51 127
-0.791423 0.033065 -0.158617 255 0 0
-0.809285 -0.522686 -0.237158 153 0 76
-0.304441 0.153365 0.257624 255 0 0
0.660565 0.143916 -0.227336 0 127 127
0.404903 0.022853 -0.204416 204 51 127
0.589847 -0.312649 0.276892 153 76 0
-0.338656 -0.008135 -0.207690 204 51 127
-0.003696 0.119123 -0.207690 0 127 127
0.501280 0.028945 0.140025 0 0 255
