ply
format ascii 1.0
element vertex 1272
property float x
property float y
property float z
property uchar red
property uchar green
property uchar blue
end_header
-0.273289 -0.267602 -0.251628 0 0 255
-0.312561 0.298201 0.215434 153 76 0
0.323315 -0.133043 -0.251628 127 0 127
-0.175824 -0.276410 0.139157 0 0 255
-0.056017 0.288461 -0.109903 255 0 0
0.935209 -0.261930 -0.168666 0 0 255
0.113645 0.123539 -0.217541 204 51 127
0.497315 -0.011322 0.220595 127 0 127
-0.895754 0.023782 -0.077139 153 0 76
0.654504 0.268983 -0.245653 255 0 0
0.180607 0.039977 0.245069 127 0 127
0.810945 0.261626 0.186634 153 76 0
0.509370 0.161530 -0.232150 204 51 127
0.001574 0.272885 0.215852 127 0 127
0.462608 -0.256932 0.157786 204 51 127
-0.894942 -0.172286 0.186634 153 0 76
-0.910203 -0.245138 0.215852 76 0 153
-0.777952 0.182493 0.215822 127 0 127
0.470164 0.231251 -0.068014 204 51 127
0.915731 -0.158899 -0.026724 76 0 153
0.884810 -0.028715 -0.251628 0 127 127
-0.521223 -0.012733 0.220595 127 0 127
0.278916 -0.256055 -0.232150 127 0 127
0.896253 -0.024783 0.111872 76 0 153
-0.727017 -0.256932 -0.093388 0 0 255
-0.915232 0.192708 0.139114 153 0 76
-0.854262 0.153387 0.245040 127 0 127
-0.780685 0.288461 -0.020297 255 0 0
0.231223 -0.256932 -0.159088 0 0 255
0.867537 0.288461 0.118820 255 0 0
0.084672 0.182048 0.245040 127 0 127
-0.268698 0.083963 0.220595 127 0 127
0.896253 -0.216450 -0.169064 76 0 153
-0.895754 0.178238 0.049833 153 0 76
0.820440 0.288461 -0.184540 255 0 0
-0.406776 0.089144 0.220595 127 0 127
-0.406369 -0.153285 0.229802 127 0 127
0.767288 0.150208 -0.232150 204 51 127
0.369132 -0.215533 -0.217541 204 51 127
0.470164 0.224809 0.014191 204 51 127
0.000373 0.233817 0.245040 127 0 127
0.079101 -0.015175 -0.232150 204 51 127
-0.289714 0.116165 -0.232150 127 127 0
0.724518 0.189977 -0.232150 204 51 127
0.705309 0.094663 -0.217541 204 51 127
-0.227293 -0.276410 -0.101821 0 0 255
-0.175099 -0.090374 0.220595 127 0 127
0.234345 -0.227056 0.215822 127 0 127
-0.915232 0.125980 0.025984 153 0 76
0.090864 -0.276410 -0.137555 0 0 255
0.915731 0.221692 -0.139187 76 0 153
0.761650 -0.086129 0.240396 127 0 127
-0.133674 -0.090866 -0.232150 204 51 127
0.797533 0.268983 0.004111 255 0 0
0.268723 -0.135300 0.232380 127 0 127
-0.236697 -0.256932 -0.137976 0 0 255
-0.469665 0.228038 -0.167059 255 0 0
-0.739333 0.288461 -0.055733 255 0 0
0.290575 0.042365 0.245069 127 0 127
-0.333112 0.268983 -0.197582 255 0 0
0.503245 0.288461 -0.023702 255 0 0
-0.915232 0.175363 -0.055561 153 0 76
0.896253 -0.078998 -0.192718 76 0 153
0.014858 0.226668 -0.157783 0 0 255
-0.440448 0.242374 -0.026246 255 0 0
0.014858 -0.181641 -0.165639 0 0 255
-0.062311 0.268983 0.099725 255 0 0
0.611530 -0.276410 -0.106337 0 0 255
-0.216209 -0.276410 -0.010321 0 0 255
0.702824 -0.256932 0.027498 0 0 255
0.415106 0.110330 0.220595 127 0 127
-0.744678 -0.276410 -0.047115 0 0 255
-0.469665 0.244353 -0.204761 204 51 127
-0.895754 0.259574 -0.115076 255 0 0
-0.849572 0.093693 -0.232150 204 51 127
0.534320 -0.276410 0.094166 0 0 255
0.039535 0.031362 -0.217541 204 51 127
0.037644 0.173454 0.220595 127 0 127
-0.745789 0.088127 -0.217541 204 51 127
0.218005 -0.276410 -0.205438 0 0 255
-0.502317 0.288461 -0.247261 255 0 0
0.896253 -0.094565 0.130216 76 0 153
0.894057 -0.147080 0.216036 127 0 127
0.076466 -0.276410 0.104419 0 0 255
-0.915232 0.261716 -0.186812 255 0 0
0.763458 0.268983 0.162704 255 0 0
-0.019922 0.154765 -0.232150 204 51 127
-0.867105 0.268983 0.154475 255 0 0
0.887525 0.046095 -0.232150 0 127 127
0.107262 0.103856 0.220595 127 0 127
0.922375 0.288461 0.155254 255 0 0
0.275428 -0.256932 -0.121805 0 0 255
0.470164 0.015202 0.070592 204 51 127
0.440947 0.198793 -0.037439 204 51 127
-0.014359 -0.054614 0.138151 0 0 255
-0.740488 0.080519 0.220595 127 0 127
0.235550 0.018606 -0.232150 204 51 127
0.402303 0.268983 -0.203804 255 0 0
-0.771972 -0.025127 0.220595 127 0 127
0.645575 -0.276410 -0.166851 0 0 255
0.915513 -0.276410 0.065663 0 0 255
-0.822087 0.077933 -0.232150 0 255 0
0.271419 0.288461 -0.195331 255 0 0
0.745814 -0.114617 0.220595 127 0 127
-0.748989 0.268983 -0.170309 255 0 0
0.518599 0.280865 0.215852 153 76 0
0.341536 -0.188374 0.245040 127 0 127
0.329662 -0.276410 0.049337 0 0 255
-0.048290 -0.132656 -0.232150 204 51 127
-0.915232 0.252756 0.179573 153 76 0
-0.468321 -0.220462 -0.232150 204 51 127
0.014858 0.062035 0.106788 0 0 255
0.141019 -0.152649 -0.232150 204 51 127
0.915731 0.176424 -0.119988 76 0 153
0.485068 0.263241 -0.217541 204 51 127
-0.869588 -0.073666 -0.232150 0 255 0
-0.895754 0.026108 -0.135291 153 0 76
-0.054625 0.231742 0.215822 127 0 127
0.006597 -0.286149 0.199688 76 0 153
0.420125 0.268983 0.055509 255 0 0
-0.915232 0.064419 -0.168574 153 0 76
-0.895754 0.071902 -0.123475 153 0 76
-0.604311 0.003087 -0.232150 153 0 76
0.896253 0.063162 -0.016253 76 0 153
-0.339402 0.268983 0.006945 255 0 0
-0.368262 -0.003671 -0.232150 204 51 127
-0.632484 0.190454 0.215822 127 0 127
-0.469665 -0.250967 0.123971 0 0 255
0.173690 -0.256932 0.111137 0 0 255
-0.169326 0.103388 0.245069 127 0 127
0.017643 0.044166 0.245069 127 0 127
-0.278867 0.268983 -0.047674 255 0 0
-0.895754 0.003680 0.153339 153 0 76
0.810479 0.072590 0.217344 127 0 127
-0.761026 -0.276410 0.085266 0 0 255
-0.327205 0.225424 -0.232150 204 51 127
-0.791004 0.268983 0.105476 255 0 0
0.055217 -0.256932 -0.176076 0 0 255
0.554454 0.268983 -0.019808 255 0 0
0.915731 -0.098530 0.092366 76 0 153
0.714150 -0.088177 0.220595 127 0 127
0.014858 0.092568 -0.100263 0 0 255
-0.895754 -0.045002 -0.094292 153 0 76
-0.137570 0.288461 0.047253 255 0 0
-0.101490 -0.063692 -0.217541 204 51 127
0.896253 0.241635 0.037258 76 0 153
-0.428087 -0.053498 0.245069 127 0 127
-0.160555 0.268983 -0.026267 255 0 0
-0.682389 0.268983 -0.165680 255 0 0
-0.377877 0.288461 -0.243236 255 0 0
0.529766 0.088971 0.245069 127 0 127
0.179062 -0.221240 0.245040 127 0 127
0.858142 0.219022 -0.232150 204 51 127
0.783874 -0.276410 0.104685 0 0 255
0.014858 0.138212 0.141133 0 0 255
-0.746511 -0.048390 0.220595 127 0 127
-0.903989 0.268983 -0.250144 0 255 0
0.440947 0.081833 0.072632 204 51 127
0.035231 0.288461 -0.116511 255 0 0
0.788114 -0.096678 -0.232150 204 51 127
-0.632451 -0.260923 -0.251628 0 0 255
-0.440448 0.110403 0.067792 255 0 0
0.396101 -0.276410 0.077203 0 0 255
0.238348 0.268983 -0.015827 255 0 0
-0.608261 -0.256932 -0.185225 0 0 255
0.563966 0.092755 -0.232150 204 51 127
0.915731 -0.094890 -0.011389 76 0 153
0.695183 0.164700 0.220595 127 0 127
0.470164 -0.078122 -0.213567 204 51 127
-0.359890 0.114261 -0.217541 204 51 127
-0.731234 0.120528 0.220595 127 0 127
0.696915 0.268983 -0.018979 255 0 0
-0.623078 0.288461 -0.067557 255 0 0
0.409628 -0.056141 0.220595 127 0 127
0.470164 -0.123794 -0.196372 204 51 127
0.470164 0.253146 -0.145391 204 51 127
0.470164 0.116040 0.156580 204 51 127
-0.281231 -0.084425 0.245069 127 0 127
0.014858 -0.233668 -0.161328 0 0 255
-0.265210 -0.276410 -0.083262 0 0 255
-0.546684 0.182294 0.245040 127 0 127
0.014858 -0.165269 -0.053368 0 0 255
0.014858 -0.014255 -0.134115 0 0 255
-0.675713 -0.256932 -0.184140 0 0 255
-0.494574 -0.256932 0.100211 0 0 255
-0.795740 -0.286149 0.191363 76 0 153
0.813901 0.288461 0.026743 255 0 0
-0.477257 -0.065165 -0.217541 255 0 0
0.848707 -0.276410 -0.142882 0 0 255
0.091281 -0.276410 -0.170072 0 0 255
-0.895754 0.209377 0.129575 153 0 76
-0.723632 -0.247187 0.224446 127 0 127
0.080807 0.268983 0.001895 255 0 0
-0.391743 0.288461 0.046009 255 0 0
0.340489 -0.007891 0.245069 127 0 127
0.582938 -0.038602 0.245069 127 0 127
-0.706155 -0.074725 0.220595 127 0 127
0.440947 0.097750 -0.180960 204 51 127
-0.014359 -0.130925 0.021250 0 0 255
-0.469665 0.079036 -0.033707 255 0 0
-0.395748 -0.276410 0.049597 0 0 255
-0.547735 0.220628 -0.232150 204 51 127
-0.528535 -0.276410 0.012857 0 0 255
0.896253 -0.015332 -0.128928 76 0 153
0.142998 0.261487 0.186634 153 76 0
0.254851 -0.256932 0.148869 0 0 255
0.140013 0.288461 -0.162265 255 0 0
0.157088 -0.276410 -0.048125 0 0 255
0.454041 0.288461 0.151185 255 0 0
-0.709430 -0.202035 -0.217541 204 51 127
0.770164 -0.276410 -0.133068 0 0 255
0.338406 -0.078494 0.220595 127 0 127
0.713779 -0.256932 -0.138911 0 0 255
0.935209 -0.253316 0.206397 76 0 153
-0.622494 -0.195560 0.215822 127 0 127
0.324479 0.255828 0.215852 153 76 0
-0.469665 -0.016398 -0.148027 255 0 0
-0.908525 0.100104 -0.232150 153 0 76
0.352661 -0.051994 0.220595 127 0 127
0.910428 -0.024009 -0.251628 0 127 127
-0.551170 -0.033146 0.245069 127 0 127
-0.125261 -0.276410 -0.018908 0 0 255
-0.440448 -0.148080 -0.059147 255 0 0
0.808487 0.288461 -0.065307 255 0 0
-0.016121 -0.148324 0.220595 127 0 127
0.440947 0.192948 -0.120351 204 51 127
-0.680332 -0.203980 0.245040 127 0 127
0.504949 0.268983 -0.061980 255 0 0
0.014858 0.241453 0.026903 0 0 255
-0.406999 0.172897 0.220595 127 0 127
0.527231 -0.276410 0.004112 0 0 255
-0.349705 -0.158632 -0.251628 127 127 0
0.006350 -0.256932 -0.137979 0 0 255
0.803308 0.174633 -0.217541 204 51 127
-0.469665 -0.166973 0.045740 255 0 0
0.115825 -0.020221 0.220595 127 0 127
0.322951 -0.227714 0.189677 76 0 153
-0.014359 -0.188920 0.023078 0 0 255
0.052688 0.131548 0.220595 127 0 127
-0.112722 -0.153762 0.229789 127 0 127
-0.189569 -0.147853 -0.217541 204 51 127
0.802641 0.288461 0.147117 255 0 0
-0.440448 0.006202 -0.074364 255 0 0
0.088138 -0.251161 -0.217541 204 51 127
-0.433877 -0.276410 -0.085716 0 0 255
-0.375122 0.298201 0.191661 153 76 0
0.440947 -0.245742 0.012587 204 51 127
-0.362071 -0.276410 0.160276 0 0 255
0.612010 0.288461 0.085626 255 0 0
-0.915232 -0.214745 0.083705 153 0 76
-0.552783 -0.249363 -0.232150 204 51 127
-0.354605 0.288461 0.096313 255 0 0
0.633645 -0.256932 -0.152416 0 0 255
-0.635135 0.152332 0.220595 127 0 127
0.853693 0.264768 -0.217541 255 0 0
-0.275882 -0.276410 0.044616 0 0 255
0.608164 0.298201 0.201305 153 76 0
0.242255 -0.276410 -0.066260 0 0 255
-0.534939 -0.117106 0.236532 127 0 127
0.896253 0.187432 0.163838 76 0 153
0.253489 0.173466 0.220532 127 0 127
-0.659095 0.268983 -0.026279 255 0 0
-0.274390 0.288461 0.026531 255 0 0
0.113501 -0.052990 0.245069 127 0 127
0.194618 -0.092738 0.245069 127 0 127
-0.440448 0.115960 -0.028431 255 0 0
-0.285422 0.268983 -0.140625 255 0 0
-0.298137 -0.256932 -0.113687 0 0 255
-0.218552 0.257049 0.216034 153 76 0
0.440947 -0.133065 0.075754 204 51 127
0.038710 0.268983 0.053035 255 0 0
0.014858 -0.083849 -0.027658 0 0 255
-0.934711 -0.113115 0.191987 153 0 76
0.794339 -0.256932 0.080768 0 0 255
-0.444246 -0.182607 0.245040 127 0 127
-0.923496 0.288461 -0.193341 255 0 0
0.014858 0.137389 0.185344 0 0 255
0.556917 0.268983 -0.126201 255 0 0
-0.765871 -0.276410 -0.002776 0 0 255
0.827235 -0.038433 0.215822 127 0 127
-0.757318 0.288461 -0.130909 255 0 0
0.159131 0.268983 -0.114317 255 0 0
0.677449 -0.276410 -0.151376 0 0 255
0.935209 0.199009 0.193967 76 153 0
0.440947 0.010559 0.027551 204 51 127
0.763014 0.054435 0.220595 127 0 127
0.394933 0.020351 -0.217541 204 51 127
0.663221 0.019451 0.245069 127 0 127
-0.344340 -0.256932 -0.075094 0 0 255
-0.469665 0.125944 0.043227 255 0 0
0.027103 -0.028921 0.245069 127 0 127
0.896253 -0.209370 0.115509 76 0 153
0.385912 -0.276410 0.004733 0 0 255
-0.084674 -0.218692 0.245040 127 0 127
0.123020 -0.211733 -0.217541 204 51 127
0.607172 0.268983 -0.202800 255 0 0
-0.848936 0.268983 -0.151114 255 0 0
0.698250 0.015408 0.220595 127 0 127
0.440947 -0.140188 -0.190676 204 51 127
-0.364802 0.268983 0.056577 255 0 0
-0.556162 -0.119093 -0.232150 204 51 127
0.441936 -0.264988 0.215852 76 0 153
0.559832 -0.123259 -0.232150 204 51 127
0.304391 0.039659 -0.251628 127 0 127
-0.233887 0.288461 0.006623 255 0 0
-0.775170 -0.093552 0.220595 127 0 127
-0.915232 0.064889 -0.073087 153 0 76
-0.722938 0.288461 -0.207773 255 0 0
0.915731 0.031640 0.011661 76 0 153
0.874432 -0.282818 0.186634 76 0 153
0.704875 0.288461 -0.089113 255 0 0
-0.915232 -0.007869 -0.102970 153 0 76
0.150844 -0.085035 -0.217541 204 51 127
-0.668715 0.268983 -0.057520 255 0 0
0.554158 0.121521 0.220595 127 0 127
-0.626975 0.268983 -0.009353 255 0 0
-0.456514 0.057294 0.245069 127 0 127
0.179860 -0.276410 0.080351 0 0 255
-0.345451 0.268983 -0.047206 255 0 0
-0.540866 -0.276410 0.042205 0 0 255
-0.186946 -0.174471 0.215822 127 0 127
0.611996 -0.028868 0.220595 127 0 127
-0.880773 -0.098590 0.245040 127 0 127
-0.410501 0.268983 0.056566 255 0 0
0.163105 0.275648 -0.251628 255 0 0
0.328471 0.268983 0.004525 255 0 0
-0.229976 -0.256932 0.027691 0 0 255
-0.315425 0.288461 0.085864 255 0 0
-0.781672 0.144353 -0.217541 204 51 127
0.042956 0.223160 -0.217541 204 51 127
-0.176609 -0.118090 -0.232150 204 51 127
-0.255577 0.268983 -0.125563 255 0 0
0.100690 0.123883 0.244421 127 0 127
0.193973 0.288461 0.142119 255 0 0
-0.434411 -0.196295 -0.232150 204 51 127
0.382285 0.288461 -0.024838 255 0 0
0.014858 0.177137 0.156213 0 0 255
0.651750 0.174907 0.238304 127 0 127
0.120803 -0.139383 -0.217541 204 51 127
-0.700894 -0.043455 -0.217541 204 51 127
-0.440448 -0.244857 0.077810 0 0 255
0.454706 -0.226533 -0.217541 204 51 127
-0.109424 -0.013528 0.245069 127 0 127
-0.589812 0.047665 0.220595 127 0 127
0.305156 -0.215591 0.215822 76 0 153
-0.018041 -0.211300 -0.232150 204 51 127
0.264879 0.268983 -0.024376 255 0 0
-0.594248 -0.256932 -0.086223 0 0 255
0.896253 0.240474 -0.225792 76 0 153
0.562656 -0.169011 0.244084 127 0 127
-0.673032 -0.276410 0.121360 0 0 255
-0.641586 -0.256932 0.164938 0 0 255
-0.050331 0.268983 0.058465 255 0 0
-0.895760 -0.224242 0.223773 127 0 127
0.596089 -0.256932 -0.002415 0 0 255
0.423616 -0.011575 0.245069 127 0 127
-0.263153 0.186761 -0.251628 127 127 0
0.915731 0.201370 0.078608 76 0 153
-0.346632 0.109851 0.220595 127 0 127
-0.020900 0.056999 0.220595 127 0 127
-0.146032 -0.015718 -0.232150 204 51 127
0.795556 -0.198554 0.245040 127 0 127
0.082542 -0.034763 0.245069 127 0 127
-0.895754 0.056377 0.103376 153 0 76
-0.871275 0.051012 -0.251628 0 255 0
0.668523 -0.019632 0.245069 127 0 127
0.721185 -0.256932 -0.005693 0 0 255
-0.915232 -0.119259 0.053768 153 0 76
0.637454 -0.276410 -0.053749 0 0 255
0.799868 0.268983 -0.232724 204 51 127
0.915731 0.141676 -0.195101 76 0 153
0.237631 -0.112036 0.244090 127 0 127
0.332399 0.200298 0.215822 127 0 127
-0.844872 -0.256932 -0.063442 0 0 255
-0.014359 0.148445 -0.046468 0 0 255
0.136219 0.121319 -0.232150 204 51 127
0.247629 0.268983 0.163773 255 0 0
-0.610246 0.268983 -0.197606 255 0 0
-0.824154 0.298201 0.191128 153 76 0
0.895230 -0.225485 -0.217541 76 0 153
-0.535641 -0.276410 -0.020031 0 0 255
-0.487392 -0.256932 -0.192163 0 0 255
0.345373 -0.276410 -0.191422 0 0 255
-0.014359 0.181726 -0.084870 0 0 255
0.837188 0.252026 0.240784 127 0 127
0.055822 -0.286149 0.198170 76 0 153
-0.389332 0.268983 0.179443 153 76 0
0.639520 0.288461 0.040487 255 0 0
-0.672869 -0.025997 0.245069 127 0 127
-0.262000 0.288461 -0.025658 255 0 0
0.100418 -0.276410 0.087693 0 0 255
-0.137598 -0.276410 -0.124880 0 0 255
-0.644509 0.156307 -0.232150 204 51 127
-0.600219 0.092390 -0.232150 153 0 76
-0.423442 -0.024990 -0.232150 204 51 127
0.440947 0.180347 0.112187 204 51 127
-0.769991 0.128362 0.220595 127 0 127
-0.921099 -0.142712 -0.251628 0 255 0
-0.324821 -0.140885 -0.251628 127 127 0
-0.090509 0.042086 -0.232150 204 51 127
-0.624768 0.084141 0.245069 127 0 127
-0.854149 0.221960 -0.232150 204 51 127
-0.356110 -0.276410 0.045226 0 0 255
-0.398883 0.130986 -0.217541 204 51 127
-0.101108 -0.226049 -0.217541 204 51 127
0.474327 -0.110595 -0.217541 204 51 127
-0.446737 0.029475 0.220595 127 0 127
-0.091518 -0.115076 -0.217541 204 51 127
-0.895754 0.240485 -0.047160 153 0 76
0.440947 -0.223496 -0.039533 204 51 127
-0.009966 0.028503 -0.232150 204 51 127
0.800349 0.223703 0.215822 153 76 0
0.445381 -0.129394 -0.232150 204 51 127
-0.295889 0.266165 -0.232150 127 127 0
-0.895754 -0.244029 0.151376 153 0 76
-0.257496 0.062507 0.245069 127 0 127
-0.474036 0.288461 0.127751 255 0 0
0.264772 -0.276410 -0.101881 0 0 255
-0.915232 -0.133204 0.137285 153 0 76
-0.208613 0.264575 0.186634 153 76 0
0.590051 -0.276410 0.154862 0 0 255
-0.683430 -0.233932 -0.217541 204 51 127
-0.902480 0.076834 0.215852 153 0 76
0.014858 0.259641 0.163837 0 0 255
-0.606148 -0.276410 0.038505 0 0 255
-0.915232 0.070101 0.040243 153 0 76
0.703033 0.268983 0.140436 255 0 0
0.116183 -0.276410 -0.142008 0 0 255
0.473659 0.205985 0.245040 127 0 127
0.643250 0.201385 0.245040 127 0 127
-0.017849 -0.063118 0.220595 127 0 127
-0.305581 0.171147 0.220595 127 0 127
-0.645407 0.239766 0.212517 127 0 127
-0.895754 -0.052852 0.114677 153 0 76
-0.440448 0.213400 -0.018837 255 0 0
-0.765003 0.209431 -0.232150 204 51 127
-0.014359 0.209653 0.017844 0 0 255
0.088353 0.288461 0.141715 255 0 0
0.876009 -0.196871 -0.217541 204 51 127
-0.323771 0.288461 -0.157706 255 0 0
-0.250404 -0.256932 0.152163 0 0 255
0.182322 0.268983 0.100072 255 0 0
0.233964 0.288461 -0.197623 255 0 0
-0.227560 0.124120 0.244024 127 0 127
0.175015 0.268884 0.215852 127 0 127
0.186653 0.288461 -0.079464 255 0 0
-0.242390 0.216942 -0.232150 127 127 0
-0.380654 0.116394 -0.232150 204 51 127
-0.455413 0.268983 0.068824 255 0 0
-0.105428 0.288461 -0.137921 255 0 0
0.623308 -0.276410 0.137131 0 0 255
0.010367 0.268983 -0.077668 255 0 0
-0.609242 0.298201 0.193158 153 76 0
0.014858 -0.251661 0.081326 0 0 255
-0.234688 0.255394 -0.251628 204 51 127
0.656102 -0.256932 -0.109990 0 0 255
-0.586935 0.220959 0.215822 127 0 127
0.564177 0.268983 0.066817 255 0 0
-0.895754 0.233771 0.173306 153 0 76
0.014858 -0.070948 -0.063710 0 0 255
-0.293311 -0.256932 0.074120 0 0 255
-0.469665 -0.179837 -0.163775 255 0 0
-0.432759 0.288461 0.167357 255 0 0
-0.439081 0.268983 -0.211359 255 0 0
-0.469665 0.026974 -0.125052 255 0 0
0.444645 0.268983 0.099247 204 51 127
0.244046 0.288461 -0.110348 255 0 0
-0.424614 0.268983 -0.036152 255 0 0
-0.876276 0.169215 0.212223 153 0 76
-0.172163 -0.256932 -0.105593 0 0 255
-0.915232 0.138095 -0.209600 153 0 76
-0.772899 0.268983 -0.127312 255 0 0
0.882020 0.288461 0.089985 255 0 0
-0.148488 -0.202103 -0.217541 204 51 127
0.896253 -0.146072 0.133950 76 0 153
-0.014359 -0.000843 0.044408 0 0 255
-0.591256 0.064078 -0.232150 204 51 127
0.602934 -0.219841 -0.232150 204 51 127
-0.469665 -0.094024 -0.169129 255 0 0
-0.469665 -0.184275 0.109830 255 0 0
0.294618 0.068107 -0.232150 204 51 127
-0.934711 0.112949 -0.250444 0 255 0
0.014858 -0.138039 0.054679 0 0 255
0.440947 0.146749 -0.015097 204 51 127
-0.558220 -0.233128 0.186634 76 0 153
0.463786 0.115848 0.186634 204 51 127
-0.209945 -0.134897 -0.232150 204 51 127
0.554276 0.264863 0.186634 153 76 0
0.064201 -0.276410 -0.107668 0 0 255
0.761333 -0.256932 -0.211061 0 0 255
0.133361 -0.276410 -0.104420 0 0 255
0.808959 0.288461 -0.028247 255 0 0
0.874337 -0.111636 -0.232150 204 51 127
-0.593321 -0.256932 -0.117679 0 0 255
-0.847656 0.288461 -0.111147 255 0 0
-0.868851 -0.276410 0.055517 0 0 255
-0.264415 -0.173834 -0.217541 204 51 127
0.587156 0.259234 0.218788 127 0 127
0.752496 -0.276410 0.032460 0 0 255
0.763094 -0.276410 -0.016041 0 0 255
0.620430 -0.227496 0.245040 127 0 127
-0.283424 -0.256932 -0.030358 0 0 255
0.164038 -0.142512 -0.232150 204 51 127
0.896253 0.136239 -0.125103 76 0 153
-0.088320 -0.256932 -0.204813 0 0 255
-0.809982 0.141133 0.220373 127 0 127
0.437894 -0.227714 0.215108 76 0 153
-0.461057 -0.010376 -0.217541 255 0 0
-0.915232 -0.117989 -0.064186 153 0 76
-0.592602 0.288461 -0.001637 255 0 0
-0.002166 0.242581 -0.217541 204 51 127
0.929090 0.164631 0.186634 76 153 0
0.832419 -0.081040 -0.217541 0 127 127
0.538639 0.298201 0.188479 153 76 0
-0.895754 0.245596 -0.088625 153 0 76
0.290663 0.082693 0.220595 127 0 127
0.624977 0.288461 0.141567 255 0 0
0.470164 -0.117585 -0.116549 204 51 127
0.086534 0.100574 0.245069 127 0 127
0.310975 -0.033152 -0.232150 204 51 127
-0.178401 -0.276410 -0.072701 0 0 255
0.573705 -0.276410 -0.101568 0 0 255
0.864665 -0.276410 -0.164430 0 0 255
0.405915 0.060234 -0.232150 204 51 127
0.896253 0.263120 0.011843 255 0 0
-0.025591 0.288461 -0.147073 255 0 0
0.935209 -0.244875 -0.249664 0 127 127
0.803186 -0.276410 0.039815 0 0 255
0.212614 0.077959 0.245069 127 0 127
0.494305 -0.122020 -0.232150 204 51 127
0.371629 0.268983 0.102648 255 0 0
0.272116 0.268983 0.085871 255 0 0
-0.040896 -0.256932 0.157045 0 0 255
0.642630 -0.276410 -0.026786 0 0 255
-0.575110 -0.256932 0.003281 0 0 255
-0.257689 0.073550 -0.232150 204 51 127
0.604757 0.193550 0.245040 127 0 127
-0.574151 -0.163469 0.239087 127 0 127
-0.829227 -0.256932 -0.223133 0 0 255
0.440947 0.039698 0.066925 204 51 127
0.527795 0.268983 -0.038986 255 0 0
0.767037 0.149291 0.231572 127 0 127
0.534809 -0.256932 -0.238851 0 0 255
0.625697 0.268983 -0.141033 255 0 0
0.760674 0.288461 0.133924 255 0 0
0.512946 0.031402 -0.217541 204 51 127
0.915731 -0.030939 -0.004308 76 0 153
0.915731 0.255532 -0.034709 76 0 153
0.641159 0.010208 0.220595 127 0 127
0.828674 0.288461 0.161966 255 0 0
-0.706249 0.259241 0.228496 127 0 127
-0.229388 0.084122 0.245069 127 0 127
-0.827450 -0.196594 0.215822 127 0 127
0.003648 0.288461 0.127681 255 0 0
-0.895754 -0.100892 -0.196859 153 0 76
-0.874484 -0.113326 -0.251628 0 255 0
-0.316812 0.288461 -0.046087 255 0 0
0.896253 -0.080858 0.101012 76 0 153
-0.653679 -0.256932 -0.067791 0 0 255
-0.532375 0.063570 0.220595 127 0 127
-0.014359 -0.040817 -0.033055 0 0 255
-0.364831 0.028124 0.245069 127 0 127
-0.785303 0.268983 -0.179042 255 0 0
0.528003 0.237100 0.215822 153 76 0
-0.140156 -0.255570 0.186634 0 0 255
0.663203 0.073203 0.245069 127 0 127
-0.772767 -0.050793 0.220595 127 0 127
0.294733 -0.166050 0.241486 127 0 127
0.652864 -0.256932 0.064853 0 0 255
-0.469665 -0.005933 -0.035917 255 0 0
-0.683142 0.252118 -0.232150 204 51 127
-0.116767 0.288461 -0.223929 255 0 0
0.915731 -0.032887 0.063857 76 0 153
-0.165127 -0.182719 0.245040 127 0 127
-0.578707 0.030076 0.245069 127 0 127
0.296198 -0.206896 -0.232150 204 51 127
0.028953 0.230119 0.215822 127 0 127
0.740810 -0.003252 -0.232150 204 51 127
0.215905 -0.276410 0.041029 0 0 255
-0.275915 -0.276410 0.120784 0 0 255
-0.915232 0.209634 0.023042 153 0 76
0.415235 -0.115775 -0.217541 204 51 127
-0.151655 -0.276410 0.082648 0 0 255
-0.796089 0.178411 0.241645 127 0 127
-0.247207 -0.276410 0.036302 0 0 255
-0.243284 -0.241584 0.186634 76 0 153
-0.895346 0.117139 0.215852 153 0 76
0.121141 0.052019 0.245069 127 0 127
-0.177090 -0.123230 0.235559 127 0 127
0.620391 0.090896 -0.232150 204 51 127
0.682953 -0.256932 0.086285 0 0 255
0.470164 0.115859 0.036239 204 51 127
0.896253 0.130701 -0.151753 76 0 153
0.644383 0.246841 -0.217541 204 51 127
-0.639586 -0.256932 0.046442 0 0 255
-0.744673 0.288461 -0.080694 255 0 0
0.333807 0.109623 0.220595 127 0 127
-0.053248 0.268983 -0.160514 255 0 0
0.797467 0.122097 -0.232150 204 51 127
-0.847915 -0.276410 0.031293 0 0 255
0.311639 -0.125228 0.220595 127 0 127
0.884039 -0.054366 -0.232150 0 127 127
-0.575974 0.086183 0.245069 127 0 127
0.825969 -0.102161 -0.251628 0 127 127
0.915731 0.097100 0.030395 76 0 153
0.268100 -0.276410 -0.040121 0 0 255
0.915731 0.260167 0.083752 255 0 0
0.149301 0.288461 0.054473 255 0 0
0.055798 0.288461 -0.101400 255 0 0
0.164651 -0.088710 0.220595 127 0 127
0.172345 0.288461 0.014726 255 0 0
0.144888 -0.256932 0.099982 0 0 255
-0.685240 0.268966 0.186634 153 76 0
-0.770345 0.268983 0.169252 255 0 0
-0.705944 -0.256932 -0.067775 0 0 255
0.896253 -0.122910 -0.025518 76 0 153
0.300576 0.147443 0.232341 127 0 127
0.497623 0.230620 0.215822 127 0 127
-0.042007 0.288461 -0.042005 255 0 0
-0.806519 0.286941 0.215852 153 76 0
-0.189686 0.268983 0.031679 255 0 0
0.340757 -0.256932 0.128012 0 0 255
-0.525632 0.091148 0.245069 127 0 127
0.470164 0.173543 -0.107128 204 51 127
0.307962 -0.256932 0.025960 0 0 255
0.137351 -0.161844 0.215822 127 0 127
-0.704240 -0.256932 -0.184152 0 0 255
-0.437751 -0.208386 0.245040 127 0 127
0.360151 0.217127 -0.232150 204 51 127
-0.895754 0.041034 -0.167777 153 0 76
0.536995 0.268983 -0.099398 255 0 0
0.556759 0.162452 0.220595 127 0 127
-0.091458 0.039804 0.245069 127 0 127
-0.794644 0.268983 -0.155332 255 0 0
-0.284652 -0.027748 -0.251628 127 127 0
-0.896093 -0.251585 0.186634 0 0 255
-0.550438 0.288461 0.127707 255 0 0
0.071148 -0.256932 0.131086 0 0 255
-0.266145 -0.286149 0.192386 76 0 153
-0.477752 0.183093 -0.232150 204 51 127
0.470164 0.125649 0.133438 204 51 127
0.470164 0.247460 0.056944 204 51 127
-0.818231 -0.237540 0.243327 127 0 127
-0.872071 0.048346 0.215822 153 0 76
-0.579107 0.288461 -0.046274 255 0 0
0.535473 0.288461 -0.229992 255 0 0
0.896253 0.041287 0.059856 76 0 153
-0.591115 0.288461 0.050009 255 0 0
0.896253 0.244908 -0.078131 76 0 153
-0.775624 0.102338 0.234949 127 0 127
0.896253 0.017807 -0.111003 76 0 153
-0.672635 0.288461 -0.109104 255 0 0
0.470164 0.167638 -0.168783 204 51 127
0.915731 -0.169038 0.068572 76 0 153
0.443674 0.059302 -0.232150 204 51 127
0.896253 -0.199768 -0.065001 76 0 153
0.014858 -0.209694 -0.017720 0 0 255
0.146731 0.268983 -0.203140 255 0 0
-0.449971 0.195265 0.245040 127 0 127
0.432959 -0.276410 -0.160888 0 0 255
0.289731 -0.276410 -0.164799 0 0 255
0.897053 0.288461 -0.106256 255 0 0
-0.289635 -0.237813 -0.251628 127 127 0
0.313595 0.268983 -0.037377 255 0 0
0.896253 0.217201 0.182013 76 0 153
0.384032 -0.227714 0.197489 76 0 153
0.896253 -0.165801 -0.171562 76 0 153
-0.062618 -0.256932 -0.083616 0 0 255
-0.915232 -0.129033 0.079580 153 0 76
0.440947 0.230944 0.123627 204 51 127
-0.915232 0.104112 0.085904 153 0 76
0.383616 -0.256932 0.155277 0 0 255
-0.680516 -0.276410 0.184172 76 0 153
-0.440448 -0.062894 0.107409 255 0 0
0.915731 -0.122811 0.083897 76 0 153
-0.748535 0.268983 0.140356 255 0 0
-0.582856 -0.256932 -0.199047 0 0 255
0.456865 -0.201145 -0.232150 204 51 127
-0.716246 0.268983 0.092042 255 0 0
-0.915232 -0.143944 0.016195 153 0 76
0.273229 -0.276410 0.012794 0 0 255
0.622302 -0.176542 0.245040 127 0 127
0.650353 0.288461 -0.041155 255 0 0
0.915731 0.078471 -0.206174 76 0 153
0.014858 0.244844 -0.189159 0 0 255
-0.895754 0.045292 -0.227475 0 255 0
-0.372617 -0.194998 0.215822 127 0 127
-0.413707 0.070819 0.245069 127 0 127
0.572880 0.268983 0.103681 255 0 0
-0.831218 0.258091 0.235270 127 0 127
0.470164 -0.156813 0.088064 204 51 127
0.893559 0.146161 -0.232150 0 127 127
-0.440448 -0.211910 0.153281 255 0 0
-0.542429 -0.161424 0.233626 127 0 127
-0.020789 -0.256932 -0.081084 0 0 255
-0.416774 0.288461 0.110290 255 0 0
-0.895754 0.034294 0.162123 153 0 76
-0.291292 -0.205326 -0.217541 204 51 127
-0.020677 -0.256932 -0.133793 0 0 255
-0.008652 0.192166 0.245040 127 0 127
0.039755 -0.256932 0.080853 0 0 255
0.142559 -0.276410 -0.068288 0 0 255
0.144333 0.158304 -0.232150 204 51 127
0.470164 0.062488 -0.040346 204 51 127
-0.388319 0.028379 0.220595 127 0 127
0.014858 0.158495 -0.033480 0 0 255
0.915731 0.161394 0.119632 76 0 153
-0.730571 0.268983 -0.194369 255 0 0
0.160776 -0.256932 0.153467 0 0 255
0.633945 0.101841 0.245069 127 0 127
-0.244411 -0.091394 -0.232150 127 127 0
0.005776 -0.164864 -0.232150 204 51 127
-0.865748 0.263216 -0.232150 204 51 127
-0.212802 -0.256932 -0.041825 0 0 255
-0.660261 0.216482 0.245040 127 0 127
-0.440448 -0.147857 0.057254 255 0 0
0.896253 0.109311 0.122324 76 0 153
0.209877 -0.256932 -0.142274 0 0 255
-0.424590 -0.276410 -0.056201 0 0 255
0.466346 0.288461 -0.043303 255 0 0
-0.182271 0.288461 -0.003577 255 0 0
-0.440448 -0.120710 0.156749 255 0 0
-0.236883 0.022014 -0.217541 204 51 127
-0.351088 0.081560 -0.217541 204 51 127
0.915731 -0.243068 0.161759 76 0 153
0.176357 -0.256932 -0.090841 0 0 255
0.507507 -0.257582 0.215852 76 0 153
-0.163192 0.204171 0.215822 127 0 127
0.723041 0.245519 0.215822 153 76 0
0.432963 -0.101108 -0.232150 204 51 127
-0.203909 0.112515 0.220595 127 0 127
0.715538 0.071710 0.220595 127 0 127
-0.758847 0.058798 -0.217541 204 51 127
-0.842140 0.210193 0.245040 127 0 127
-0.728149 0.061524 0.245069 127 0 127
0.162368 0.293960 0.186634 153 76 0
0.687105 0.203952 -0.232150 204 51 127
0.354975 -0.276410 -0.148216 0 0 255
-0.691801 -0.133541 0.233112 127 0 127
0.440903 0.090559 -0.217541 204 51 127
0.743863 -0.276410 -0.171635 0 0 255
-0.227382 -0.276410 -0.033755 0 0 255
0.144327 -0.040520 -0.217541 204 51 127
0.755663 0.268983 0.033536 255 0 0
-0.272260 0.158218 0.220595 127 0 127
-0.934711 -0.154779 0.210705 153 0 76
-0.440448 0.061037 -0.044902 255 0 0
0.302361 0.288461 -0.066549 255 0 0
-0.559092 -0.276410 -0.004751 0 0 255
-0.306820 0.140068 0.220595 127 0 127
-0.049419 -0.276410 -0.220554 0 0 255
0.319781 -0.276410 -0.177037 0 0 255
-0.440448 0.169365 -0.086519 255 0 0
0.070088 -0.256932 -0.090905 0 0 255
-0.469665 -0.104076 0.181572 255 0 0
-0.415548 -0.199809 0.215822 127 0 127
-0.436336 0.288461 0.068543 255 0 0
0.287574 0.097746 0.245069 127 0 127
-0.692816 -0.276410 -0.164015 0 0 255
-0.925796 0.189652 0.215852 153 0 76
0.685739 0.268983 0.103746 255 0 0
0.285380 0.268983 0.022356 255 0 0
0.915731 -0.068390 0.021796 76 0 153
0.467894 0.004738 0.220595 127 0 127
-0.122028 -0.256932 -0.122002 0 0 255
0.493490 -0.256932 0.110686 0 0 255
-0.079740 -0.276410 0.160867 0 0 255
-0.461384 -0.182596 0.215822 127 0 127
0.675474 0.288461 0.030510 255 0 0
0.490259 -0.256932 0.029193 0 0 255
-0.357948 -0.107185 -0.232150 204 51 127
0.531743 -0.276410 0.120138 0 0 255
0.896253 -0.170405 -0.041837 76 0 153
-0.787891 0.268983 -0.048833 255 0 0
0.168967 -0.276410 -0.202828 0 0 255
0.896253 -0.226700 0.080632 76 0 153
0.128015 0.288461 -0.091959 255 0 0
0.350859 -0.232160 -0.250040 127 0 127
0.720409 0.268983 0.085743 255 0 0
0.152915 -0.058329 0.245069 127 0 127
-0.199821 -0.263109 0.186634 76 0 153
-0.915232 0.176261 -0.015060 153 0 76
-0.373533 -0.256932 0.013110 0 0 255
-0.480806 0.288461 -0.080919 255 0 0
-0.084217 0.268983 -0.028025 255 0 0
-0.313968 0.109576 -0.232150 204 51 127
-0.601862 0.148675 -0.217541 204 51 127
-0.130333 -0.276410 -0.073862 0 0 255
-0.024787 -0.118656 -0.232150 204 51 127
0.234008 -0.111877 -0.251628 127 0 127
-0.915232 0.068819 -0.036294 153 0 76
-0.268244 -0.276410 0.015017 0 0 255
-0.756327 0.288461 -0.028121 255 0 0
-0.793880 0.066705 -0.217541 204 51 127
-0.014359 -0.143169 0.176103 0 0 255
0.078937 0.268983 -0.206941 255 0 0
0.885271 -0.256932 0.091388 0 0 255
-0.705684 -0.092204 -0.217541 204 51 127
-0.493468 -0.276410 -0.228908 0 0 255
0.536346 0.054042 0.220595 127 0 127
-0.254528 0.147482 -0.232150 127 127 0
0.569065 -0.256932 -0.083509 0 0 255
0.854697 -0.256932 0.090630 0 0 255
-0.678128 0.254204 0.239706 127 0 127
-0.258891 0.268983 0.064438 255 0 0
-0.165556 0.268983 -0.090912 255 0 0
0.507017 0.288461 -0.208338 255 0 0
-0.476356 -0.031171 -0.232150 204 51 127
-0.870824 -0.276410 -0.106008 0 0 255
0.561232 -0.256932 0.058090 0 0 255
-0.052542 -0.256932 0.123998 0 0 255
-0.843346 -0.222860 -0.251628 0 255 0
-0.915232 0.210990 -0.063935 153 0 76
0.014858 -0.063333 0.128392 0 0 255
-0.885682 0.116861 0.244711 127 0 127
0.876774 -0.075239 0.189409 76 153 0
-0.207199 -0.061039 0.245069 127 0 127
0.896253 -0.143216 0.101453 76 0 153
-0.313827 -0.029510 0.245069 127 0 127
-0.335718 0.268983 0.182925 255 0 0
-0.469665 -0.188416 0.151480 255 0 0
0.374609 -0.013553 -0.217541 204 51 127
0.915731 -0.233509 -0.030405 76 0 153
-0.269306 -0.230865 -0.217541 204 51 127
0.558035 0.077164 0.245069 127 0 127
0.875044 0.095327 -0.217541 204 51 127
-0.014359 0.015888 -0.069136 0 0 255
-0.440448 0.044666 -0.118122 255 0 0
0.581138 0.143797 0.220595 127 0 127
-0.376796 0.063211 0.220595 127 0 127
-0.338844 -0.256932 0.086833 0 0 255
0.729174 -0.276410 -0.232571 0 0 255
0.502434 0.128831 0.220595 127 0 127
0.574120 -0.256932 0.088947 0 0 255
-0.895754 0.244225 0.125699 153 0 76
-0.520588 -0.181970 -0.232150 204 51 127
-0.781295 0.298201 0.187187 153 76 0
-0.724624 0.110453 -0.232150 204 51 127
0.804204 -0.276410 -0.012129 0 0 255
-0.663281 -0.276410 -0.051537 0 0 255
-0.469665 0.125256 0.152217 255 0 0
-0.440448 0.230135 -0.113968 255 0 0
0.640054 -0.276410 0.170899 0 0 255
-0.014359 0.109126 -0.102252 0 0 255
0.099354 0.058956 -0.217541 204 51 127
-0.543280 0.134007 -0.217541 204 51 127
0.089755 -0.183547 -0.232150 204 51 127
0.839972 0.268983 0.089696 255 0 0
0.848948 -0.256932 -0.028035 0 0 255
0.767379 0.268983 -0.232842 204 51 127
-0.469665 -0.051798 -0.109099 255 0 0
0.470164 0.214984 -0.133583 204 51 127
0.935209 -0.275465 0.100684 0 0 255
0.470164 0.011884 -0.120960 204 51 127
0.780105 0.288461 -0.216597 255 0 0
-0.481050 -0.259613 0.215852 76 0 153
0.514675 -0.019005 -0.217541 204 51 127
-0.691204 0.030274 -0.232150 204 51 127
-0.705983 -0.014644 0.220595 127 0 127
0.462372 0.288461 0.111623 255 0 0
0.266742 0.268983 -0.169189 255 0 0
0.321692 0.136508 -0.251628 204 51 127
0.841422 -0.023677 0.281647 0 127 127
0.440947 0.075645 0.026759 204 51 127
0.824311 -0.256932 0.097695 0 0 255
-0.257228 0.019135 -0.232150 204 51 127
0.896253 0.067561 -0.051766 76 0 153
-0.863494 0.223033 0.245040 127 0 127
-0.007132 -0.276410 -0.045585 0 0 255
0.039952 0.288461 -0.237331 255 0 0
0.440947 0.163472 0.158137 204 51 127
0.294780 -0.276410 -0.247774 0 0 255
0.896253 -0.090476 0.182025 76 0 153
-0.440448 0.090830 -0.001123 255 0 0
-0.179235 -0.050851 0.245069 127 0 127
-0.451544 -0.178278 -0.232150 204 51 127
-0.131892 -0.092705 0.245069 127 0 127
0.470164 -0.056684 -0.201528 204 51 127
0.470164 0.167342 0.154574 204 51 127
-0.057326 -0.172838 -0.232150 204 51 127
-0.344480 -0.256932 -0.153207 0 0 255
-0.079833 -0.276410 -0.059403 0 0 255
0.915731 -0.175119 -0.219363 76 0 153
-0.014359 -0.241245 0.103190 0 0 255
0.044930 0.248118 -0.232150 204 51 127
-0.364639 -0.276410 -0.005401 0 0 255
-0.803867 -0.058532 -0.217541 204 51 127
0.835021 -0.276410 0.126613 0 0 255
0.861571 -0.074633 -0.251628 0 127 127
-0.018868 -0.190185 0.245040 127 0 127
-0.874769 -0.276410 -0.005887 0 0 255
0.657190 -0.228452 0.215822 127 0 127
-0.210840 -0.256932 -0.089958 0 0 255
0.519818 -0.276410 -0.227227 0 0 255
0.014858 -0.099257 0.096564 0 0 255
0.915731 -0.074174 0.138189 76 0 153
-0.707728 -0.131625 -0.232150 204 51 127
0.014858 0.074316 0.184835 0 0 255
-0.751871 0.138854 0.234990 127 0 127
-0.444019 0.124085 -0.232150 204 51 127
-0.868329 0.122027 -0.217541 204 51 127
-0.537053 0.288461 0.023706 255 0 0
-0.042498 0.288461 0.105825 255 0 0
-0.472341 0.189393 0.215822 127 0 127
0.896253 -0.112759 -0.190333 76 0 153
-0.752829 0.217471 0.245040 127 0 127
0.579022 0.288461 0.123065 255 0 0
-0.469665 -0.086851 0.085985 255 0 0
0.266143 -0.264327 0.215852 76 0 153
-0.062862 0.288120 0.215852 153 76 0
-0.915232 0.018725 0.087347 153 0 76
0.159862 -0.276410 0.001377 0 0 255
0.118916 0.268983 -0.062032 255 0 0
0.896253 0.194447 -0.229506 204 51 127
0.400599 -0.200251 0.245040 127 0 127
-0.895754 0.062425 0.074475 153 0 76
-0.160971 0.135257 -0.217541 204 51 127
0.505166 -0.276410 -0.038143 0 0 255
-0.231093 0.268983 -0.043985 255 0 0
0.431757 0.288461 0.140945 255 0 0
-0.722245 -0.046617 0.245069 127 0 127
-0.876276 0.090852 0.199274 153 0 76
-0.895754 -0.169242 -0.016455 153 0 76
-0.859314 0.268983 0.185891 153 76 0
-0.580773 0.288461 0.130602 255 0 0
-0.144431 -0.049827 0.220595 127 0 127
0.174688 -0.256932 0.054226 0 0 255
-0.279854 0.167272 -0.251628 127 127 0
-0.646950 0.268983 0.077591 255 0 0
-0.215676 0.059074 -0.217541 204 51 127
0.470164 0.266637 0.016263 204 51 127
-0.915232 -0.105331 -0.153136 153 0 76
-0.520081 0.253585 0.240112 127 0 127
0.224014 0.288461 -0.092679 255 0 0
-0.098887 0.268983 -0.097452 255 0 0
-0.440448 -0.088242 0.044631 255 0 0
0.020925 -0.256932 0.022778 0 0 255
-0.915232 -0.092132 -0.052859 153 0 76
0.818674 -0.256932 -0.170012 0 0 255
-0.597047 -0.196837 0.245040 127 0 127
0.190336 0.268983 0.124730 255 0 0
0.807185 -0.276410 0.144690 0 0 255
-0.915232 -0.094019 -0.118086 153 0 76
0.905868 -0.055611 0.215852 76 153 0
0.496148 -0.276410 0.059311 0 0 255
-0.251924 -0.079432 0.220595 127 0 127
-0.358499 0.288461 -0.227977 255 0 0
-0.784653 0.247672 -0.217541 204 51 127
0.357023 -0.105495 -0.232150 127 0 127
0.860599 0.013329 -0.232150 204 51 127
-0.437926 0.288461 -0.161569 255 0 0
-0.371382 0.268983 0.088249 255 0 0
0.128827 -0.276410 0.040015 0 0 255
0.421731 0.078725 0.245069 127 0 127
-0.895754 0.250362 -0.196362 153 0 76
0.707171 -0.055994 -0.232150 204 51 127
0.915731 0.223757 0.168493 76 0 153
0.153454 -0.276410 0.056059 0 0 255
-0.339831 -0.130215 0.220595 127 0 127
0.638740 0.111900 0.220595 127 0 127
0.336034 -0.258048 0.215852 76 0 153
-0.401899 0.268983 -0.100283 255 0 0
-0.389536 0.109086 0.220595 127 0 127
-0.014280 0.088461 -0.232150 204 51 127
0.338656 0.199688 -0.217541 204 51 127
0.619267 -0.276410 0.035529 0 0 255
-0.841163 0.135711 -0.251628 0 255 0
0.734127 -0.276410 0.061477 0 0 255
0.034616 -0.040202 -0.217541 204 51 127
0.371821 0.173321 -0.232150 204 51 127
-0.071078 0.268983 -0.237496 255 0 0
-0.593375 0.177809 0.215822 127 0 127
0.600947 -0.163515 0.215822 127 0 127
-0.895754 -0.035510 -0.159923 153 0 76
-0.364088 0.226553 0.215822 127 0 127
-0.330836 -0.256932 0.135876 0 0 255
0.014858 0.091351 0.043413 0 0 255
0.309108 -0.276410 0.000864 0 0 255
-0.665963 -0.208716 -0.217541 204 51 127
-0.014359 -0.254596 0.053685 0 0 255
0.554099 -0.048564 0.245069 127 0 127
-0.501244 -0.256932 0.039355 0 0 255
-0.014359 0.245713 -0.040914 0 0 255
0.244479 -0.276410 -0.148920 0 0 255
0.149762 0.268983 -0.062404 255 0 0
0.527821 0.268983 -0.244181 255 0 0
-0.903198 0.131233 0.186634 153 0 76
0.882165 0.066402 0.245040 127 0 127
-0.626411 -0.256932 -0.082977 0 0 255
0.493396 -0.230919 0.215822 76 0 153
-0.469665 0.026709 -0.002797 255 0 0
-0.440448 0.104297 -0.198060 204 51 127
-0.247835 -0.201706 -0.251628 127 127 0
-0.295243 -0.243319 0.186634 76 0 153
0.915731 -0.107260 0.141175 76 0 153
-0.891569 0.288461 -0.009927 255 0 0
-0.915232 0.212683 -0.018189 153 0 76
-0.423726 0.247998 0.245040 127 0 127
-0.283011 0.087451 -0.232150 204 51 127
0.691786 -0.020821 0.220595 127 0 127
0.802528 0.039256 -0.232150 204 51 127
-0.915232 -0.187377 -0.164431 153 0 76
-0.547073 0.178020 -0.232150 204 51 127
-0.538922 -0.076531 0.245069 127 0 127
0.376021 0.016376 0.220595 127 0 127
0.050589 0.288461 -0.187275 255 0 0
0.896253 0.007895 -0.227371 0 127 127
-0.915232 0.012537 0.136841 153 0 76
-0.268362 0.133617 0.220595 127 0 127
0.435231 -0.256932 -0.238395 0 0 255
-0.690774 0.056683 0.245069 127 0 127
-0.014359 0.042791 0.100696 0 0 255
-0.649678 -0.276410 0.010969 0 0 255
0.014858 -0.069958 0.020295 0 0 255
-0.411666 -0.276410 0.031103 0 0 255
-0.328998 0.251835 0.240860 127 0 127
-0.814910 -0.276410 -0.002318 0 0 255
-0.430117 0.097969 0.245069 127 0 127
0.209292 -0.276410 -0.009477 0 0 255
-0.306705 -0.156346 -0.217541 204 51 127
-0.745194 0.239766 0.193365 153 76 0
-0.014359 0.149820 0.107126 0 0 255
0.440947 0.185317 0.059237 204 51 127
-0.195667 -0.253360 -0.217541 204 51 127
-0.895754 -0.014065 -0.037517 153 0 76
0.668126 0.298201 0.201667 153 76 0
0.734901 -0.094171 0.245069 127 0 127
-0.915232 -0.098761 0.104209 153 0 76
-0.320827 0.198924 -0.232150 204 51 127
0.393304 0.004997 0.245069 127 0 127
0.871867 -0.143436 -0.232150 204 51 127
0.935171 -0.050808 -0.251628 0 127 127
-0.895754 -0.042576 -0.002765 153 0 76
-0.527371 0.288461 -0.186684 255 0 0
0.014858 -0.032977 -0.182477 0 0 255
-0.662115 0.293288 0.186634 153 76 0
0.896253 0.199422 0.130576 76 0 153
-0.109523 -0.256932 0.076090 0 0 255
-0.795006 0.286855 -0.251628 255 0 0
-0.589081 0.288461 -0.126681 255 0 0
0.587686 -0.256932 -0.058963 0 0 255
0.873186 0.268983 -0.115626 255 0 0
-0.469665 -0.197125 -0.106831 255 0 0
-0.440448 0.164959 -0.197112 255 0 0
-0.895762 0.164608 0.226841 127 0 127
-0.298308 0.018460 -0.232150 204 51 127
-0.534532 -0.230355 0.215852 127 0 127
0.330233 0.252161 -0.251628 255 0 0
0.497076 -0.256932 -0.086550 0 0 255
-0.062908 0.166290 -0.232150 204 51 127
-0.848712 -0.276410 -0.213621 0 0 255
0.916912 0.288461 0.178957 255 0 0
-0.248704 -0.276410 -0.009847 0 0 255
-0.613736 -0.026812 -0.217541 204 51 127
-0.915232 -0.144478 -0.062706 153 0 76
-0.691900 0.123202 0.220595 127 0 127
0.915731 0.235950 0.105536 76 0 153
-0.528744 0.268983 -0.048511 255 0 0
-0.915232 -0.215594 -0.228099 153 0 76
-0.816217 -0.028061 0.215822 127 0 127
0.915731 0.115465 0.072474 76 0 153
-0.497837 0.076209 0.220595 127 0 127
0.605633 -0.276410 -0.216466 0 0 255
0.470164 -0.153348 0.148796 204 51 127
-0.781390 -0.276410 0.048801 0 0 255
-0.707329 0.288461 -0.086274 255 0 0
-0.245587 -0.169072 -0.232150 127 127 0
-0.350361 0.203346 -0.233211 204 51 127
-0.934326 0.266042 0.186634 255 0 0
0.887569 0.269339 -0.251628 255 0 0
-0.380421 -0.276410 -0.079827 0 0 255
0.892367 0.288461 0.135545 255 0 0
0.265223 -0.015443 -0.251628 127 0 127
-0.221541 -0.256932 -0.189404 0 0 255
0.296548 0.268983 0.122664 255 0 0
0.641777 -0.276410 -0.112294 0 0 255
-0.174566 0.249324 0.215852 127 0 127
-0.895754 -0.229239 0.084368 153 0 76
-0.915232 -0.047223 -0.201711 153 0 76
-0.841741 0.288461 0.121016 255 0 0
-0.397490 0.268983 -0.025338 255 0 0
0.111892 0.291100 0.186634 153 76 0
-0.537968 -0.276410 0.089399 0 0 255
-0.123433 0.075244 -0.217541 204 51 127
-0.908154 0.074937 -0.232150 153 0 76
-0.564167 -0.256932 0.093464 0 0 255
0.440947 -0.144615 -0.054896 204 51 127
0.234465 -0.232421 -0.217541 204 51 127
0.896253 -0.108449 -0.134954 76 0 153
-0.853638 0.268983 -0.071010 255 0 0
0.305627 0.120471 -0.217541 204 51 127
-0.448315 0.268983 -0.069053 255 0 0
-0.436639 0.225742 -0.232150 204 51 127
-0.915232 0.211240 -0.153999 153 0 76
0.785682 0.268983 -0.026054 255 0 0
0.570063 0.100857 0.220595 127 0 127
0.423802 0.268983 -0.017131 255 0 0
0.896253 0.131664 0.057892 76 0 153
-0.811987 0.268983 -0.192052 255 0 0
0.933551 0.156757 -0.251628 0 127 127
0.671884 -0.276410 0.122095 0 0 255
-0.839970 -0.024541 -0.232150 0 255 0
0.357226 0.288461 -0.022654 255 0 0
-0.799731 0.268983 0.037488 255 0 0
0.890177 0.003897 0.215852 127 0 127
0.896253 -0.233070 -0.048921 76 0 153
0.915731 -0.232089 0.058407 76 0 153
0.896253 -0.171230 0.005052 76 0 153
-0.014359 0.020796 -0.179661 0 0 255
0.867219 0.185402 -0.232150 0 127 127
-0.895754 0.126448 0.058105 153 0 76
0.846445 0.268983 -0.053939 255 0 0
0.136567 -0.037188 0.220595 127 0 127
-0.243947 0.232805 0.245040 127 0 127
0.056986 -0.276410 0.125337 0 0 255
0.150116 -0.266945 0.215852 76 0 153
-0.846781 0.008445 0.245040 127 0 127
-0.440448 -0.162056 0.034930 255 0 0
-0.424943 -0.256932 -0.014085 0 0 255
0.722215 0.214378 -0.232150 204 51 127
-0.340102 0.088343 -0.251628 127 127 0
-0.304004 -0.108913 0.245069 127 0 127
0.354786 -0.252576 -0.217541 0 0 255
0.826638 0.180178 0.215822 127 0 127
-0.119425 0.268983 0.026052 255 0 0
0.338905 0.248915 -0.217541 204 51 127
0.217847 -0.234765 0.186634 76 0 153
0.862264 -0.256932 -0.238307 0 127 127
-0.915232 -0.095576 0.163242 153 0 76
0.014858 -0.169448 0.107503 0 0 255
0.462761 0.134955 -0.217541 204 51 127
0.224663 -0.256932 0.014893 0 0 255
-0.540988 0.268983 0.092556 255 0 0
0.292390 0.298201 0.196307 153 76 0
-0.319157 0.065756 0.245069 127 0 127
0.581842 -0.256932 -0.143972 0 0 255
-0.228765 0.022527 0.245069 127 0 127
-0.319603 -0.276410 -0.049437 0 0 255
0.483166 0.126837 -0.232150 204 51 127
0.120981 -0.286149 0.189742 76 0 153
0.014858 0.233350 0.073870 0 0 255
-0.810772 -0.102945 -0.217541 204 51 127
0.850513 0.112089 -0.232150 0 127 127
0.051409 -0.111952 0.244258 127 0 127
0.827237 -0.162205 -0.232150 0 127 127
0.238687 -0.276410 0.155033 0 0 255
-0.934711 -0.190815 0.194812 153 0 76
-0.061325 -0.091182 -0.217541 204 51 127
-0.673034 -0.160141 -0.217541 204 51 127
-0.855945 0.182476 -0.232150 0 255 0
-0.869249 -0.156166 -0.232150 0 255 0
-0.116487 -0.101212 -0.217541 204 51 127
0.819691 0.288461 -0.122988 255 0 0
-0.645965 -0.228917 0.215852 76 0 153
-0.292076 -0.115772 -0.232150 204 51 127
-0.915232 -0.060669 -0.179583 153 0 76
0.902515 0.288461 -0.013749 255 0 0
0.359122 0.268983 0.024088 255 0 0
0.440947 0.110846 0.089731 204 51 127
0.335750 -0.286149 0.192300 76 0 153
0.726286 -0.256932 -0.033980 0 0 255
0.723025 -0.276410 -0.124799 0 0 255
-0.469665 0.041346 0.133490 255 0 0
0.870607 0.268983 0.162506 255 0 0
-0.718554 -0.276410 -0.141611 0 0 255
0.934755 0.268983 -0.154625 255 0 0
-0.111891 -0.003462 0.220595 127 0 127
-0.014359 -0.034478 0.086318 0 0 255
-0.383757 -0.085600 0.220595 127 0 127
0.332955 0.171881 -0.232150 127 0 127
0.277676 -0.062785 -0.232150 127 0 127
0.014858 -0.036739 -0.144021 0 0 255
0.019319 0.026963 0.220595 127 0 127
0.896253 -0.151335 0.161180 76 0 153
0.132258 0.268983 -0.038776 255 0 0
0.896253 -0.010059 0.030925 76 0 153
-0.645285 -0.035939 0.245069 127 0 127
-0.915232 -0.199729 0.015683 153 0 76
0.269395 0.083067 -0.232150 204 51 127
-0.342124 0.268983 -0.162349 255 0 0
-0.815553 -0.231043 0.186634 76 0 153
-0.895754 -0.128975 0.013663 153 0 76
-0.183032 -0.256932 0.152599 0 0 255
-0.090925 -0.197856 0.215822 127 0 127
0.564573 -0.276410 -0.065522 0 0 255
-0.424388 0.288461 -0.096635 255 0 0
0.044739 -0.236147 -0.217541 204 51 127
0.671814 0.200859 0.215822 127 0 127
-0.044147 0.034821 0.220595 127 0 127
0.632604 0.239766 0.208663 153 76 0
0.030683 0.114591 -0.232150 204 51 127
-0.402082 0.288461 0.136947 255 0 0
-0.281530 -0.126016 0.220595 127 0 127
0.612716 0.268983 -0.069578 255 0 0
0.099852 -0.045083 -0.217541 204 51 127
0.475319 0.088289 0.245069 127 0 127
-0.587848 -0.055015 0.220595 127 0 127
-0.169053 0.268983 0.153358 255 0 0
-0.335980 0.096558 0.245069 127 0 127
0.247481 -0.276410 -0.230796 0 0 255
-0.694787 0.268983 0.019109 255 0 0
0.739626 0.058342 0.245069 127 0 127
0.721545 -0.276410 -0.098221 0 0 255
0.235041 0.037976 0.245069 127 0 127
0.896253 -0.195977 -0.014864 76 0 153
-0.014359 0.031914 0.007187 0 0 255
0.780082 -0.164556 -0.217541 204 51 127
0.896253 -0.144259 -0.084114 76 0 153
0.587490 0.117983 0.245069 127 0 127
-0.895754 -0.109806 -0.228031 0 255 0
-0.384717 -0.256932 -0.170313 0 0 255
-0.555677 -0.276410 -0.190504 0 0 255
-0.469665 0.071903 -0.108273 255 0 0
-0.895754 -0.228861 0.173933 153 0 76
-0.505083 0.268983 -0.092803 255 0 0
-0.440448 -0.140190 -0.162459 255 0 0
-0.411597 -0.084261 -0.232150 204 51 127
-0.243625 -0.276410 -0.125549 0 0 255
0.014858 0.128393 -0.035569 0 0 255
0.243256 -0.275691 0.186634 76 0 153
-0.168239 -0.276410 0.059071 0 0 255
-0.810856 0.268983 0.160850 255 0 0
0.896253 -0.141157 -0.136776 76 0 153
0.474570 -0.158339 -0.232150 204 51 127
0.632124 -0.167311 0.215822 127 0 127
0.896253 -0.242103 -0.183092 76 0 153
-0.050903 0.268983 -0.060461 255 0 0
-0.504643 -0.276410 -0.201307 0 0 255
0.070148 0.288461 -0.120828 255 0 0
0.248119 0.288461 0.021267 255 0 0
0.101660 0.181831 -0.217541 204 51 127
0.463099 0.224870 0.215822 153 76 0
-0.311735 -0.276410 0.115162 0 0 255
-0.495817 0.288461 -0.006452 255 0 0
-0.190865 0.288461 0.163655 255 0 0
0.845928 0.034655 0.245040 127 0 127
0.355552 -0.243657 0.215822 127 0 127
-0.536924 0.288461 -0.155020 255 0 0
0.049415 -0.276410 0.162446 0 0 255
0.723964 -0.233086 -0.217541 204 51 127
0.582608 0.268983 -0.025335 255 0 0
0.014858 0.003624 -0.057551 0 0 255
0.067441 -0.205045 -0.217541 204 51 127
0.105222 -0.256932 0.139202 0 0 255
-0.560724 0.268983 -0.161696 255 0 0
-0.451033 -0.060804 0.245069 127 0 127
-0.469665 0.064027 -0.170408 255 0 0
0.896253 0.205495 -0.199377 76 0 153
0.251336 0.288461 0.061087 255 0 0
0.440947 0.240001 0.063887 204 51 127
0.062413 0.024000 0.220595 127 0 127
-0.934711 -0.064735 -0.234962 0 255 0
0.117537 0.288461 -0.170873 255 0 0
-0.829425 0.222686 -0.232150 204 51 127
0.777641 -0.256932 -0.023018 0 0 255
-0.915232 -0.162428 0.000784 153 0 76
-0.619254 0.258837 0.186634 255 0 0
0.915731 -0.107944 0.025245 76 0 153
-0.440448 0.062665 -0.207516 204 51 127
-0.895754 -0.092242 0.128502 153 0 76
0.482110 -0.276410 -0.176773 0 0 255
0.311655 0.215645 -0.217541 204 51 127
0.449113 -0.276410 -0.227692 0 0 255
-0.476575 0.090284 -0.217541 204 51 127
0.440947 -0.082291 -0.210570 204 51 127
0.080936 -0.242676 0.239362 127 0 127
-0.909045 -0.178837 0.215852 153 0 76
-0.779549 -0.276410 -0.029159 0 0 255
-0.262742 0.060056 -0.251628 127 127 0
-0.331496 0.288461 -0.244428 255 0 0
0.286181 -0.096069 0.245069 127 0 127
0.014858 -0.054817 -0.164170 0 0 255
