ply
format ascii 1.0
element vertex 1248
property float x
property float y
property float z
property uchar red
property uchar green
property uchar blue
end_header
0.515998 0.104312 -0.087681 0 127 127
0.362064 -0.592214 -0.519983 0 127 127
-0.410866 -0.744421 0.206147 0 127 127
-0.502741 -0.273650 -0.492234 0 127 127
-0.502741 0.331597 -0.261722 0 127 127
-0.403839 -0.452794 0.509480 153 0 76
-0.502741 -0.339233 -0.077968 0 127 127
-0.123326 -0.803077 -0.337951 127 0 127
-0.502741 0.136676 -0.258671 0 127 127
-0.502741 -0.612551 -0.320862 0 127 127
-0.327248 0.400508 -0.519983 0 127 127
0.218456 0.131463 -0.519983 0 127 127
-0.084484 0.444005 -0.519983 0 127 127
-0.502741 -0.505646 0.455702 0 127 127
-0.024730 0.687499 0.485153 0 127 127
0.515998 -0.458269 0.237321 0 127 127
-0.387115 0.246969 -0.519983 0 127 127
0.320292 0.687499 -0.308554 0 127 127
0.515998 0.349493 -0.190813 0 127 127
0.515998 0.661568 -0.180613 0 127 127
-0.397035 0.435486 -0.519983 0 127 127
-0.374058 -0.047613 0.494157 153 0 76
0.030445 -0.502386 -0.519983 0 127 127
-0.293488 0.687499 -0.209710 0 127 127
0.285211 0.618659 0.509480 153 0 76
0.194994 -0.803077 0.389035 127 0 127
-0.502741 -0.393449 0.351127 0 127 127
0.061313 -0.803077 -0.020918 127 0 127
-0.502741 -0.173300 0.238845 0 127 127
-0.129984 0.687499 -0.512978 0 127 127
0.515998 0.308704 -0.489490 0 127 127
0.515998 0.321137 -0.131530 0 127 127
-0.502741 0.282000 0.502988 153 0 76
-0.502741 0.464047 0.269129 0 127 127
-0.286781 0.635467 0.509480 153 0 76
0.359680 0.687499 -0.190164 0 127 127
-0.502741 -0.189200 0.047320 0 127 127
-0.475618 -0.744421 -0.282073 0 127 127
-0.374058 -0.143732 0.489396 153 0 76
0.515998 0.602778 -0.454158 0 127 127
0.200982 0.687499 0.299879 0 127 127
-0.502741 -0.422558 0.267402 0 127 127
0.515998 0.406947 -0.420831 0 127 127
0.013490 -0.803077 0.016770 127 0 127
0.274402 -0.803077 -0.170091 127 0 127
-0.420675 -0.744421 0.253657 0 127 127
0.331738 -0.803077 0.252928 127 0 127
0.245305 0.687499 0.221529 0 127 127
-0.272624 -0.771481 -0.391300 127 0 127
0.280612 0.663623 0.509480 153 0 76
-0.252431 0.225721 0.466585 153 76 0
-0.404986 0.012398 -0.519983 0 127 127
-0.502741 -0.280128 0.239396 0 127 127
0.165938 -0.803077 -0.100995 127 0 127
0.515998 0.371467 -0.137033 0 127 127
-0.502741 -0.628356 0.421930 0 127 127
0.512862 -0.097062 -0.519983 0 127 127
0.515998 0.630365 -0.319208 0 127 127
0.515998 -0.441053 -0.016628 0 127 127
0.515998 -0.593961 -0.012211 0 127 127
-0.502741 -0.218824 0.311718 0 127 127
0.515998 -0.452744 -0.309065 0 127 127
0.045272 -0.128916 0.466585 153 76 0
0.515998 0.122959 -0.383102 0 127 127
0.515998 -0.459971 0.147585 0 127 127
-0.095808 0.687499 0.125700 0 127 127
-0.502741 -0.449375 0.434078 0 127 127
0.230350 0.687499 -0.518148 0 127 127
-0.120554 0.134706 -0.519983 0 127 127
-0.124608 0.048401 0.466585 153 76 0
-0.233474 -0.150456 0.466585 153 76 0
0.477810 0.116683 0.509480 153 0 76
-0.012531 -0.785085 0.391520 127 0 127
0.515998 0.031000 -0.021159 0 127 127
-0.502741 -0.384385 -0.077469 0 127 127
0.515998 -0.025063 -0.460958 0 127 127
0.430381 -0.019655 0.509480 153 0 76
-0.314869 -0.449507 -0.519983 0 127 127
-0.284441 0.687499 0.278554 0 127 127
0.515998 0.474683 -0.122608 0 127 127
-0.488622 0.188344 0.509480 153 0 76
0.412634 -0.744421 0.265936 0 127 127
0.274867 -0.803077 -0.255612 127 0 127
-0.502741 0.085691 -0.379042 0 127 127
0.515998 0.359379 -0.485319 0 127 127
-0.146392 -0.502469 -0.519983 0 127 127
-0.235922 0.687499 -0.284202 0 127 127
0.515998 0.337735 -0.301342 0 127 127
-0.502741 -0.158889 -0.275022 0 127 127
0.515998 0.368878 0.441906 0 127 127
0.433872 0.687499 0.189795 0 127 127
-0.023645 -0.744421 -0.483757 0 127 127
-0.397055 -0.090074 -0.519983 0 127 127
-0.502741 0.115382 -0.280770 0 127 127
-0.025022 -0.597771 -0.519983 0 127 127
-0.362194 0.217323 0.466585 153 76 0
0.031016 0.200686 -0.519983 0 127 127
0.292246 0.440155 -0.519983 0 127 127
0.410042 -0.638500 -0.519983 0 127 127
-0.376094 -0.744421 0.320447 0 127 127
-0.502741 0.625615 0.449558 0 127 127
-0.207006 -0.014864 -0.519983 0 127 127
-0.226736 0.070637 0.466585 153 76 0
-0.057702 -0.803077 0.174231 127 0 127
-0.091709 -0.803077 0.072306 127 0 127
0.196099 -0.475557 0.509480 153 0 76
-0.502741 -0.342715 -0.388082 0 127 127
0.387315 -0.778744 -0.179686 127 0 127
0.245848 0.687499 -0.002111 0 127 127
0.275685 -0.744421 -0.448286 0 127 127
-0.502741 0.659979 -0.273037 0 127 127
-0.502741 0.317754 -0.313245 0 127 127
-0.295435 -0.663726 0.466585 0 127 127
0.334856 0.687499 -0.120519 0 127 127
-0.140978 -0.564413 -0.519983 0 127 127
0.515998 0.557657 0.026809 0 127 127
-0.415973 -0.513012 0.509480 153 0 76
0.340004 0.533494 0.509480 153 0 76
-0.394646 0.687499 -0.494795 0 127 127
0.277292 -0.795127 -0.391300 127 0 127
0.410832 0.687499 0.032292 0 127 127
0.270025 0.143307 0.466585 153 76 0
0.027705 0.538132 -0.519983 0 127 127
0.515998 0.075638 0.441254 0 127 127
0.344456 0.177584 -0.519983 0 127 127
-0.478593 -0.567261 -0.519983 0 127 127
0.359570 0.422472 0.466585 153 0 76
0.515998 0.406670 0.348049 0 127 127
0.107812 -0.744421 -0.450063 0 127 127
-0.144183 -0.803077 0.104239 127 0 127
-0.468986 0.687499 -0.276547 0 127 127
-0.502741 -0.077443 0.390152 0 127 127
0.055439 0.687499 -0.163909 0 127 127
-0.502741 -0.268250 0.294410 0 127 127
0.188204 0.228710 0.466585 153 76 0
-0.502741 0.348179 -0.423096 0 127 127
0.321029 0.687499 0.202253 0 127 127
0.190719 0.571208 0.509480 153 0 76
0.429056 -0.523480 0.509480 153 0 76
0.515998 -0.567075 -0.162635 0 127 127
-0.234980 0.687499 0.266799 0 127 127
0.515998 -0.170775 -0.309683 0 127 127
0.110970 0.505198 0.484530 153 76 0
-0.169100 0.687499 -0.292541 0 127 127
-0.375151 0.687499 -0.256066 0 127 127
0.515998 -0.237510 0.147019 0 127 127
-0.292024 0.687499 0.121143 0 127 127
-0.178108 0.070011 0.466585 153 76 0
0.440732 0.687499 -0.089048 0 127 127
0.095178 -0.298214 -0.519983 0 127 127
-0.502741 -0.049240 0.153793 0 127 127
-0.157052 0.687499 -0.433624 0 127 127
0.300056 -0.472113 -0.519983 0 127 127
0.294526 0.264249 -0.519983 0 127 127
0.106201 0.343464 0.466585 153 76 0
-0.502741 -0.028082 0.233034 0 127 127
0.163371 -0.324132 -0.519983 0 127 127
0.113876 0.687499 -0.305817 0 127 127
0.398867 -0.744421 0.368660 0 127 127
0.515998 0.459381 0.268307 0 127 127
-0.009852 0.687499 -0.113608 0 127 127
-0.502741 0.474795 -0.078417 0 127 127
-0.436471 0.464123 0.535639 76 0 153
-0.502741 0.174544 -0.357815 0 127 127
-0.374058 -0.422052 0.491613 153 0 76
0.515998 -0.729092 -0.000523 0 127 127
-0.166670 0.687499 0.353366 0 127 127
-0.367464 0.687499 0.284376 0 127 127
0.326192 -0.690020 -0.519983 0 127 127
-0.502741 -0.725009 0.104262 0 127 127
-0.502741 -0.033261 0.093459 0 127 127
0.419022 0.452733 0.509480 153 0 76
-0.285853 -0.803077 -0.067514 127 0 127
0.515998 0.334497 0.315247 0 127 127
0.119452 -0.553237 0.509480 153 0 76
-0.374058 -0.020360 0.508640 153 0 76
0.515998 -0.211907 -0.069984 0 127 127
-0.316834 0.687499 -0.161359 0 127 127
-0.282596 -0.256606 0.466585 153 76 0
-0.488207 -0.651342 -0.519983 0 127 127
0.053276 -0.720161 -0.519983 0 127 127
0.391971 -0.680031 -0.519983 0 127 127
-0.420281 0.259008 0.535819 76 0 153
-0.502741 0.531896 -0.270906 0 127 127
-0.274949 -0.121371 -0.519983 0 127 127
0.480088 0.621608 0.509480 153 0 76
0.291711 0.687499 -0.096983 0 127 127
0.326037 -0.803077 -0.155494 127 0 127
-0.502741 0.381526 -0.009555 0 127 127
0.476185 0.629801 -0.519983 0 127 127
0.303240 0.567978 0.509480 153 0 76
0.243672 -0.433947 0.466585 153 76 0
0.282130 -0.486224 0.509480 153 0 76
0.220884 -0.803077 0.105987 127 0 127
0.228600 -0.489178 0.509480 153 0 76
0.515998 -0.028777 0.491542 153 0 76
0.032286 -0.803077 0.307078 127 0 127
0.163678 0.349851 -0.519983 0 127 127
0.428822 0.543037 0.509480 153 0 76
0.515998 0.661686 -0.234373 0 127 127
0.515998 -0.303407 -0.303076 0 127 127
-0.502741 -0.496038 -0.106329 0 127 127
0.021524 0.687499 0.349607 0 127 127
-0.502741 0.547902 0.401711 0 127 127
0.353678 0.011260 0.466585 153 76 0
-0.232082 0.522072 0.509480 153 0 76
0.146679 -0.211859 -0.519983 0 127 127
-0.126233 -0.490869 0.509480 153 0 76
0.515998 0.641732 0.210149 0 127 127
-0.045303 -0.388654 0.466585 153 76 0
-0.502741 0.641225 -0.106746 0 127 127
0.239511 -0.720933 -0.519983 0 127 127
-0.001685 -0.157914 -0.519983 0 127 127
-0.391163 0.625609 0.509480 153 0 76
-0.198142 0.181995 0.466585 153 76 0
-0.502741 -0.409099 -0.167741 0 127 127
-0.105802 0.394587 0.466585 153 76 0
0.515998 -0.507233 0.175751 0 127 127
0.380589 0.240008 -0.519983 0 127 127
-0.048427 0.415761 -0.519983 0 127 127
-0.371014 0.687499 0.039968 0 127 127
0.479900 -0.744421 0.446294 0 127 127
0.515998 -0.628411 -0.054156 0 127 127
0.295457 0.536787 -0.519983 0 127 127
0.358867 0.135987 0.466585 153 76 0
0.515998 -0.683116 0.338653 0 127 127
0.151419 0.371535 0.466585 153 76 0
0.291297 0.182800 0.466585 153 76 0
0.229214 -0.409116 0.466585 153 76 0
-0.502741 0.067986 -0.317745 0 127 127
-0.502741 0.017246 0.210201 0 127 127
0.088876 -0.803077 0.122342 127 0 127
-0.502741 0.114456 0.222276 0 127 127
0.515998 -0.518654 0.206467 0 127 127
-0.502741 -0.721182 -0.248863 0 127 127
-0.493556 -0.196475 -0.519983 0 127 127
0.485070 0.466336 -0.519983 0 127 127
-0.441300 0.687499 -0.121801 0 127 127
-0.013396 0.183540 0.466585 153 76 0
0.104479 0.687499 -0.182055 0 127 127
0.144047 0.687499 -0.064503 0 127 127
-0.067439 -0.453608 0.505941 153 0 76
0.410066 0.687499 -0.306242 0 127 127
-0.481203 0.687499 -0.427174 0 127 127
0.487340 0.142051 0.509480 153 0 76
0.262732 0.030579 0.466585 153 76 0
-0.332659 0.550114 0.509480 153 0 76
0.140154 0.687499 0.359940 0 127 127
-0.292176 0.611122 -0.519983 0 127 127
0.515998 -0.024514 0.287050 0 127 127
0.183225 0.038371 -0.519983 0 127 127
-0.304493 -0.803077 0.386772 127 0 127
-0.446597 0.687499 0.135563 0 127 127
-0.488360 0.687499 0.169841 0 127 127
0.178270 0.687499 0.482957 0 127 127
0.352788 -0.159597 0.466585 153 76 0
0.253710 -0.082600 -0.519983 0 127 127
0.419669 0.573330 -0.519983 0 127 127
0.228767 -0.803077 -0.186861 127 0 127
0.143047 0.135076 -0.519983 0 127 127
0.515998 0.316924 0.446924 0 127 127
-0.046551 -0.145827 -0.519983 0 127 127
0.515998 0.330026 0.508708 153 0 76
0.478228 0.687499 -0.304575 0 127 127
0.515998 -0.055381 -0.177225 0 127 127
0.478589 0.410761 -0.519983 0 127 127
-0.502741 -0.383526 0.015048 0 127 127
0.452147 -0.587899 0.509480 153 0 76
0.244726 -0.299112 -0.519983 0 127 127
0.446170 0.465004 0.509480 153 0 76
0.410961 -0.697954 -0.519983 0 127 127
0.398903 0.687499 0.343958 0 127 127
0.089871 -0.181754 -0.519983 0 127 127
-0.502741 -0.680906 -0.249718 0 127 127
0.357733 -0.803077 0.254424 127 0 127
-0.502741 -0.524744 -0.063583 0 127 127
-0.178625 0.476487 0.466585 153 76 0
0.164893 0.329002 0.466585 153 76 0
-0.502741 -0.583922 0.437296 0 127 127
0.489662 -0.744421 0.086016 0 127 127
0.364342 0.687499 0.443927 0 127 127
-0.182037 -0.292126 -0.519983 0 127 127
-0.367885 -0.803077 -0.391294 127 0 127
-0.418386 -0.744421 -0.102966 0 127 127
0.371194 -0.658862 0.466585 0 127 127
0.433127 0.687499 0.048763 0 127 127
-0.080205 -0.803077 -0.359924 127 0 127
-0.061005 0.467488 -0.519983 0 127 127
0.515998 0.517689 0.089344 0 127 127
-0.036474 0.358553 -0.519983 0 127 127
-0.273377 -0.706370 -0.519983 0 127 127
-0.502741 -0.220972 0.357901 0 127 127
-0.025390 -0.635909 0.501725 153 0 76
0.171450 -0.803077 0.299086 127 0 127
0.160285 0.012906 0.466585 153 76 0
-0.050449 -0.076794 0.466585 153 76 0
-0.186301 -0.668916 0.466585 0 127 127
-0.067280 -0.744421 -0.494113 0 127 127
0.515998 -0.390867 0.095510 0 127 127
-0.165154 0.687499 -0.039246 0 127 127
-0.153319 0.090050 -0.519983 0 127 127
0.515998 0.237987 -0.513514 0 127 127
-0.319197 -0.803077 0.163540 127 0 127
-0.255117 -0.084316 0.466585 153 76 0
-0.243614 -0.803077 0.108816 127 0 127
0.110454 0.687499 0.288909 0 127 127
0.140404 -0.453608 0.481267 153 76 0
-0.502741 -0.309627 0.479210 153 0 76
-0.459499 -0.397992 0.509480 153 0 76
0.210492 0.042213 0.466585 153 76 0
0.352723 -0.091826 -0.519983 0 127 127
0.364677 -0.118830 0.466585 153 76 0
0.318252 -0.744421 -0.494940 0 127 127
0.515998 -0.137756 0.184510 0 127 127
-0.368218 0.687499 0.090484 0 127 127
0.496607 0.396185 0.509480 153 0 76
0.065582 -0.744421 -0.481185 0 127 127
0.081926 0.093689 0.466585 153 76 0
0.311037 -0.803077 -0.186886 127 0 127
-0.211469 -0.429643 0.466585 153 76 0
0.515998 -0.480596 -0.084093 0 127 127
0.093878 -0.453608 0.502948 153 76 0
0.515998 0.019224 0.356766 0 127 127
-0.071694 -0.431918 -0.519983 0 127 127
-0.356232 0.322135 0.466585 153 76 0
-0.406855 -0.744421 -0.058462 0 127 127
0.364310 -0.359015 0.466585 153 0 76
-0.502741 0.148559 0.508648 153 0 76
0.144619 0.299643 -0.519983 0 127 127
0.515998 0.147852 -0.184660 0 127 127
-0.502741 -0.218565 -0.410609 0 127 127
0.258367 0.576680 -0.519983 0 127 127
0.251405 -0.475809 -0.519983 0 127 127
-0.091762 -0.699721 0.466585 0 127 127
0.512958 -0.744421 -0.093765 0 127 127
0.065137 -0.803077 -0.325642 127 0 127
0.156467 -0.803077 -0.147489 127 0 127
0.319450 -0.781407 -0.391300 127 0 127
-0.502741 0.649851 -0.157756 0 127 127
-0.144084 -0.128445 -0.519983 0 127 127
-0.502741 0.268841 0.300343 0 127 127
-0.064913 0.687499 -0.112332 0 127 127
0.515998 -0.098822 -0.099876 0 127 127
-0.249402 0.624451 0.509480 153 0 76
0.515998 0.595661 0.390929 0 127 127
-0.355496 0.687499 0.161679 0 127 127
-0.469816 -0.744421 -0.217686 0 127 127
0.380505 0.687499 0.070422 0 127 127
0.515998 -0.284752 0.396349 0 127 127
-0.224512 0.687499 -0.364547 0 127 127
-0.404554 0.149017 -0.519983 0 127 127
0.023981 0.147476 -0.519983 0 127 127
0.515998 0.237650 -0.233269 0 127 127
0.369466 0.687499 -0.413490 0 127 127
-0.302919 0.310975 0.466585 153 76 0
0.467195 -0.060664 -0.519983 0 127 127
-0.269110 -0.802323 -0.391300 127 0 127
-0.486758 -0.482348 -0.519983 0 127 127
-0.374058 0.045810 0.488522 153 0 76
-0.293567 -0.803077 0.192304 127 0 127
-0.502741 0.641969 -0.330329 0 127 127
-0.220718 0.256462 -0.519983 0 127 127
0.515998 0.573953 0.435188 0 127 127
0.171076 -0.397242 -0.519983 0 127 127
0.135972 -0.689693 0.466585 0 127 127
0.515998 -0.289369 -0.183831 0 127 127
-0.374058 -0.800145 -0.102943 127 0 127
-0.502741 -0.694020 -0.198767 0 127 127
0.255187 0.687499 0.101994 0 127 127
-0.152790 -0.470579 0.509480 153 76 0
0.339446 -0.074924 0.466585 153 76 0
0.251812 -0.803077 0.239540 127 0 127
-0.312785 0.687499 0.295944 0 127 127
0.515998 0.144332 0.394870 0 127 127
-0.502741 0.559529 0.327521 0 127 127
0.321967 0.687499 0.260113 0 127 127
-0.463308 -0.284105 -0.519983 0 127 127
0.515998 -0.427035 -0.165385 0 127 127
0.470773 0.687499 -0.047800 0 127 127
0.452637 0.387162 0.509480 153 0 76
-0.502741 0.144233 0.414241 0 127 127
0.091963 -0.308231 0.466585 153 76 0
-0.502741 0.443747 -0.148246 0 127 127
-0.347145 0.048578 0.466585 153 76 0
0.252787 -0.803077 0.271340 127 0 127
-0.199263 -0.803077 0.332019 127 0 127
-0.502741 0.462688 -0.450908 0 127 127
0.515998 0.649504 0.109292 0 127 127
-0.502741 0.207519 0.454378 0 127 127
-0.035947 -0.803077 -0.382983 127 0 127
-0.502741 -0.356673 0.406109 0 127 127
0.132667 0.208952 -0.519983 0 127 127
-0.086733 -0.803077 -0.142228 127 0 127
-0.502741 -0.643512 0.029626 0 127 127
-0.502741 0.022272 0.007785 0 127 127
0.257982 -0.673716 -0.519983 0 127 127
-0.502741 0.637277 0.012480 0 127 127
-0.502741 -0.726944 -0.201956 0 127 127
-0.122610 0.687499 -0.254814 0 127 127
-0.502741 0.371159 0.296199 0 127 127
0.515998 -0.117658 0.447065 0 127 127
-0.193185 0.510611 -0.519983 0 127 127
-0.193946 0.687499 0.386656 0 127 127
-0.502741 -0.559117 0.202176 0 127 127
-0.220919 -0.803077 0.090457 127 0 127
-0.401046 0.161594 0.509480 153 0 76
0.509837 -0.486728 -0.519983 0 127 127
-0.502741 -0.130236 -0.269935 0 127 127
-0.502741 -0.668345 -0.394063 0 127 127
0.440015 -0.149275 0.509480 153 0 76
-0.466870 -0.744421 0.276942 0 127 127
-0.476065 -0.744421 -0.079672 0 127 127
0.062450 0.687499 0.018480 0 127 127
-0.502741 0.088119 -0.120417 0 127 127
0.150788 -0.606061 -0.519983 0 127 127
-0.502741 -0.562799 0.237528 0 127 127
0.078118 0.542131 -0.519983 0 127 127
0.261068 0.505198 0.483823 153 0 76
0.271946 -0.036439 0.466585 153 76 0
0.515998 0.540605 0.199862 0 127 127
0.234638 0.687499 0.284264 0 127 127
-0.012569 -0.543071 -0.519983 0 127 127
0.405451 0.687499 -0.267961 0 127 127
-0.495869 0.486720 -0.519983 0 127 127
0.318259 0.505198 0.483692 153 0 76
-0.307133 0.687499 0.233510 0 127 127
-0.434725 0.687499 0.286612 0 127 127
0.496347 0.687499 -0.169580 0 127 127
0.310299 0.687499 0.477715 0 127 127
0.231905 0.003524 0.466585 153 76 0
-0.374058 -0.795215 -0.158745 127 0 127
0.515998 -0.347209 -0.448479 0 127 127
-0.123695 0.687499 0.023660 0 127 127
0.149997 0.687499 0.024611 0 127 127
0.030658 0.559158 0.509480 153 0 76
-0.038203 0.687499 0.109407 0 127 127
-0.502741 -0.685726 -0.286223 0 127 127
0.116953 0.069518 0.466585 153 76 0
-0.502741 -0.456686 0.103083 0 127 127
0.204383 -0.744421 0.435232 0 127 127
-0.319384 -0.803077 0.100992 127 0 127
-0.502741 0.496832 0.387408 0 127 127
-0.502741 0.126282 0.171307 0 127 127
-0.040572 -0.803077 -0.181623 127 0 127
-0.004472 -0.107832 -0.519983 0 127 127
-0.069668 -0.396636 0.466585 153 76 0
0.121674 0.687499 0.456965 0 127 127
0.036611 -0.803077 0.132106 127 0 127
-0.502741 0.604645 -0.171409 0 127 127
-0.502741 -0.482738 0.148137 0 127 127
0.515998 -0.624250 -0.384631 0 127 127
-0.502741 0.587278 -0.129935 0 127 127
0.515998 -0.724606 0.448857 0 127 127
0.187889 -0.198042 0.466585 153 76 0
-0.502741 0.002611 -0.086194 0 127 127
0.251681 0.414169 0.466585 153 76 0
0.247467 0.687499 -0.063022 0 127 127
0.515998 0.103133 0.179761 0 127 127
0.515998 0.221024 -0.447362 0 127 127
-0.335082 0.687499 -0.293696 0 127 127
0.515998 0.148039 -0.302665 0 127 127
-0.027963 -0.768615 -0.391300 127 0 127
0.334206 -0.481629 0.509480 153 0 76
0.462761 0.017296 -0.519983 0 127 127
-0.497884 0.233680 -0.519983 0 127 127
0.391079 0.687499 -0.222264 0 127 127
0.515998 0.522874 -0.093151 0 127 127
-0.416869 0.287299 -0.519983 0 127 127
0.058709 0.594224 -0.519983 0 127 127
0.278402 0.399059 -0.519983 0 127 127
0.515998 -0.539889 -0.059235 0 127 127
-0.502741 0.605039 -0.457613 0 127 127
0.067935 0.002155 0.466585 153 76 0
0.108519 0.687499 0.120420 0 127 127
-0.088682 0.341411 -0.519983 0 127 127
-0.078397 -0.803077 -0.027242 127 0 127
-0.447832 0.374162 0.540284 76 0 153
-0.502741 -0.397590 -0.390378 0 127 127
-0.502741 0.035840 -0.369251 0 127 127
0.392074 -0.744421 -0.265547 0 127 127
0.013911 -0.279689 0.466585 153 76 0
-0.502741 -0.631067 -0.119397 0 127 127
-0.502741 0.230258 -0.371750 0 127 127
0.515998 0.483417 -0.257644 0 127 127
-0.473899 0.445558 0.514165 76 0 153
-0.502741 -0.212425 -0.182055 0 127 127
0.515998 0.171086 -0.412755 0 127 127
0.486275 -0.733640 -0.519983 0 127 127
0.515998 -0.632028 0.066780 0 127 127
-0.502741 0.090630 -0.214271 0 127 127
-0.037349 0.117561 0.466585 153 76 0
-0.455707 -0.744421 -0.148485 0 127 127
-0.502741 0.390508 0.314967 0 127 127
0.262415 0.523676 0.509480 153 0 76
-0.345020 -0.270110 0.466585 153 76 0
-0.502741 -0.038111 -0.078641 0 127 127
-0.502741 -0.463195 -0.193609 0 127 127
0.307377 0.507935 0.509480 153 0 76
-0.502741 -0.064935 -0.124772 0 127 127
-0.322819 0.663654 0.509480 153 0 76
-0.062845 0.687499 0.374837 0 127 127
0.317597 0.344470 -0.519983 0 127 127
0.311840 -0.235203 -0.519983 0 127 127
0.454558 0.196834 -0.519983 0 127 127
0.200622 -0.228888 -0.519983 0 127 127
-0.126611 -0.466365 -0.519983 0 127 127
0.396103 0.378699 -0.519983 0 127 127
-0.502741 -0.694080 0.057881 0 127 127
-0.456082 0.037845 -0.519983 0 127 127
-0.502741 -0.249931 0.011592 0 127 127
0.167048 0.687499 -0.174041 0 127 127
-0.349238 -0.219722 0.466585 153 76 0
-0.502741 0.661628 -0.225388 0 127 127
-0.502741 -0.569670 0.343908 0 127 127
-0.308999 0.687499 0.325430 0 127 127
-0.232034 -0.161478 -0.519983 0 127 127
0.515998 0.423520 0.166274 0 127 127
-0.030122 -0.270998 -0.519983 0 127 127
0.515998 -0.669226 -0.146973 0 127 127
0.196657 0.687499 0.339340 0 127 127
0.160836 -0.744421 -0.482102 0 127 127
0.515998 0.014410 0.420808 0 127 127
0.481468 0.685663 0.509480 153 0 76
-0.502741 -0.118550 -0.394389 0 127 127
-0.502741 0.592097 0.495672 153 0 76
-0.502741 -0.530364 0.414486 0 127 127
-0.502741 -0.380143 -0.480697 0 127 127
0.222693 -0.581460 -0.519983 0 127 127
0.515998 0.396554 0.080936 0 127 127
0.515998 0.420111 -0.336472 0 127 127
0.515998 -0.403484 0.226998 0 127 127
0.515998 -0.366171 0.467643 0 127 127
0.515998 -0.314248 -0.424544 0 127 127
0.189470 0.220063 -0.519983 0 127 127
0.515998 0.566346 -0.494583 0 127 127
0.471676 -0.333875 -0.519983 0 127 127
0.500739 -0.744421 0.293965 0 127 127
-0.478283 0.335870 0.509480 153 0 76
-0.427976 0.639800 0.509480 153 0 76
0.515998 -0.581262 -0.339892 0 127 127
-0.407250 -0.568468 0.509480 153 0 76
-0.502741 0.295973 0.086530 0 127 127
-0.064336 -0.277721 -0.519983 0 127 127
-0.311923 0.004581 -0.519983 0 127 127
-0.502741 0.559587 0.148491 0 127 127
0.337653 0.687499 -0.224108 0 127 127
0.210386 -0.056551 -0.519983 0 127 127
0.096858 0.291896 0.466585 153 76 0
0.387315 -0.759904 0.218564 127 0 127
0.312145 -0.635909 0.496439 153 0 76
0.515998 -0.062134 0.445720 0 127 127
0.032946 0.254731 -0.519983 0 127 127
0.087523 0.024058 0.466585 153 76 0
-0.140397 -0.154574 -0.519983 0 127 127
-0.041772 -0.803077 0.347354 127 0 127
-0.333697 -0.563278 0.509480 153 0 76
-0.502741 0.397610 -0.077820 0 127 127
-0.155151 -0.544584 0.509480 153 0 76
-0.443949 -0.199857 -0.519983 0 127 127
0.253773 0.687499 -0.392181 0 127 127
-0.374058 0.373531 0.482939 153 0 76
0.496884 0.687499 0.189789 0 127 127
-0.168622 0.687499 0.059274 0 127 127
0.131419 0.687499 -0.504501 0 127 127
0.462968 -0.744421 0.238025 0 127 127
-0.234202 0.683883 -0.519983 0 127 127
-0.233552 0.648931 -0.519983 0 127 127
0.339588 0.687499 0.066166 0 127 127
-0.070425 0.365539 -0.519983 0 127 127
0.495959 -0.658880 -0.519983 0 127 127
-0.502741 0.083099 0.462111 0 127 127
0.409489 0.687499 -0.356267 0 127 127
0.126025 -0.174570 -0.519983 0 127 127
0.320699 -0.692394 0.466585 0 127 127
-0.420281 0.358764 0.540891 76 0 153
-0.239870 -0.342819 -0.519983 0 127 127
0.320508 0.687499 0.030495 0 127 127
-0.502741 -0.237127 -0.032242 0 127 127
0.442654 -0.744421 -0.002231 0 127 127
-0.325512 -0.673011 0.466585 0 127 127
-0.502741 -0.304892 0.166899 0 127 127
-0.006245 0.640724 0.509480 153 0 76
-0.208055 -0.211059 -0.519983 0 127 127
-0.397728 -0.744421 -0.329261 0 127 127
-0.339889 -0.683516 -0.519983 0 127 127
0.258892 -0.803077 -0.299342 127 0 127
-0.335637 -0.744421 -0.419463 127 0 127
-0.502741 0.064880 0.289085 0 127 127
0.494423 -0.159649 0.509480 153 0 76
-0.502741 0.126231 -0.149765 0 127 127
0.387315 0.469271 0.492091 153 0 76
0.515998 0.588805 -0.323602 0 127 127
-0.289393 0.687499 0.474914 0 127 127
0.390637 -0.635909 0.485026 153 0 76
0.515998 0.361161 0.284088 0 127 127
-0.097464 -0.052887 0.466585 153 76 0
0.310256 0.216806 -0.519983 0 127 127
-0.502741 -0.518128 0.310559 0 127 127
0.515998 0.147458 0.354543 0 127 127
-0.227398 -0.092150 -0.519983 0 127 127
0.099336 0.458205 -0.519983 0 127 127
-0.167135 0.687499 -0.478445 0 127 127
0.219210 -0.703479 -0.519983 0 127 127
0.005166 0.486682 -0.519983 0 127 127
-0.333508 0.606756 0.509480 153 0 76
0.075041 -0.389378 0.466585 153 76 0
0.368032 0.040475 -0.519983 0 127 127
-0.267132 -0.469321 -0.519983 0 127 127
-0.165946 -0.327599 -0.519983 0 127 127
-0.502741 -0.604876 -0.017090 0 127 127
0.515998 0.226863 0.074163 0 127 127
-0.267402 0.629698 -0.519983 0 127 127
-0.502741 -0.191491 0.391234 0 127 127
-0.502741 -0.180504 0.095498 0 127 127
0.515998 -0.547107 0.502129 153 0 76
-0.502741 0.605121 -0.513399 0 127 127
0.103745 0.581771 -0.519983 0 127 127
0.515998 -0.263341 0.411301 0 127 127
0.227329 0.479174 0.466585 153 76 0
0.333750 -0.570767 0.509480 153 0 76
-0.502741 0.039765 0.180955 0 127 127
-0.276434 -0.173389 0.466585 153 76 0
-0.426357 0.687499 -0.163446 0 127 127
-0.502741 -0.141019 -0.356546 0 127 127
-0.502741 -0.304259 -0.137770 0 127 127
0.034860 -0.803077 -0.030195 127 0 127
0.515998 -0.357684 0.070594 0 127 127
0.145999 0.477074 -0.519983 0 127 127
-0.502741 -0.586912 -0.352017 0 127 127
0.515998 0.394993 -0.496087 0 127 127
-0.502741 0.404472 -0.285754 0 127 127
-0.502741 0.061055 0.482595 153 0 76
-0.315509 -0.196004 0.466585 153 76 0
-0.502741 0.219158 -0.173319 0 127 127
0.428583 -0.096459 -0.519983 0 127 127
0.515998 0.477200 0.102018 0 127 127
-0.502741 -0.434574 0.184758 0 127 127
-0.502741 0.505284 0.247438 0 127 127
-0.502741 0.386865 0.122549 0 127 127
-0.502741 0.302096 0.171502 0 127 127
-0.374058 -0.791239 -0.306813 127 0 127
-0.384143 -0.744421 -0.222377 0 127 127
-0.062129 0.055874 -0.519983 0 127 127
-0.371578 -0.697823 0.466585 0 127 127
0.240699 -0.157995 0.466585 153 76 0
-0.271895 -0.635909 0.473709 153 0 76
0.060482 -0.803077 -0.212681 127 0 127
-0.502741 -0.544780 0.264534 0 127 127
0.194455 0.687499 -0.448598 0 127 127
0.515998 -0.036625 -0.262471 0 127 127
-0.339526 0.687499 -0.081848 0 127 127
-0.459168 0.213887 0.534992 76 0 153
0.515998 0.609042 0.046417 0 127 127
-0.197869 0.025239 -0.519983 0 127 127
0.235327 -0.524538 -0.519983 0 127 127
-0.397844 -0.448472 -0.519983 0 127 127
0.118542 -0.751596 0.391520 127 0 127
0.515998 0.555536 0.362430 0 127 127
-0.057415 0.687499 -0.493641 0 127 127
0.440450 -0.744421 -0.245441 0 127 127
-0.502741 -0.040231 0.418001 0 127 127
-0.027461 -0.744421 0.445108 0 127 127
0.388597 -0.308036 -0.519983 0 127 127
-0.059465 -0.744421 0.410070 0 127 127
0.422748 -0.355828 -0.519983 0 127 127
-0.342221 0.687499 0.056750 0 127 127
-0.502741 -0.161302 0.294630 0 127 127
0.164573 -0.266789 -0.519983 0 127 127
-0.502741 0.359541 0.437473 0 127 127
0.515998 0.201912 -0.184899 0 127 127
0.458350 -0.744421 0.177756 0 127 127
0.480514 0.687499 -0.210291 0 127 127
0.360556 0.687499 -0.304231 0 127 127
-0.427782 -0.038030 -0.519983 0 127 127
-0.502741 -0.131304 0.070843 0 127 127
-0.502741 0.376483 -0.038789 0 127 127
-0.502741 -0.240796 -0.305165 0 127 127
0.515998 0.266153 -0.031429 0 127 127
-0.502741 0.615028 -0.428826 0 127 127
0.515998 0.474294 0.404096 0 127 127
-0.063513 -0.803077 0.366888 127 0 127
-0.502741 0.305112 -0.266525 0 127 127
-0.487891 0.077148 0.509480 153 0 76
0.515998 -0.420535 0.322148 0 127 127
-0.253938 0.239579 -0.519983 0 127 127
-0.502741 -0.231844 0.054424 0 127 127
-0.394092 -0.744421 0.183521 0 127 127
0.358733 -0.491302 -0.519983 0 127 127
0.390118 -0.718210 0.466585 0 127 127
0.464688 -0.285605 -0.519983 0 127 127
-0.502741 0.269831 -0.287652 0 127 127
-0.144326 -0.767059 -0.391300 127 0 127
-0.502741 0.065517 0.190302 0 127 127
-0.502741 0.035393 -0.511019 0 127 127
-0.066783 0.095572 -0.519983 0 127 127
0.441411 -0.438582 0.509480 153 0 76
-0.064488 0.687499 0.192904 0 127 127
-0.310683 0.491996 -0.519983 0 127 127
-0.374058 -0.751508 -0.390530 127 0 127
-0.320310 -0.803077 -0.189876 127 0 127
0.075242 0.523292 0.509480 153 0 76
0.247613 0.358438 0.466585 153 76 0
0.355908 0.505198 0.477300 153 0 76
-0.343012 -0.803077 0.332907 127 0 127
0.491908 0.233279 -0.519983 0 127 127
-0.502741 -0.249711 -0.499924 0 127 127
-0.502741 -0.713119 -0.030860 0 127 127
0.392907 -0.744421 0.164552 127 0 127
0.515998 -0.411814 0.409701 0 127 127
-0.502741 -0.328135 -0.041671 0 127 127
-0.288811 0.568117 -0.519983 0 127 127
-0.344460 0.505198 0.491369 153 0 76
0.399585 0.024070 -0.519983 0 127 127
0.515998 0.513023 0.302962 0 127 127
0.408315 0.297035 0.509480 153 0 76
0.515998 -0.470755 0.096306 0 127 127
-0.183401 0.383371 0.466585 153 76 0
-0.400493 -0.626276 -0.519983 0 127 127
-0.502741 -0.653997 0.430937 0 127 127
-0.502741 -0.571836 -0.179434 0 127 127
-0.109997 0.276758 -0.519983 0 127 127
0.515998 0.250070 -0.282705 0 127 127
-0.354565 0.687499 0.420534 0 127 127
0.084274 -0.451167 -0.519983 0 127 127
0.072064 0.687499 -0.105846 0 127 127
0.194944 0.634513 0.509480 153 0 76
0.218909 0.663742 0.509480 153 0 76
-0.502741 0.685079 0.350326 0 127 127
-0.335462 -0.004930 -0.519983 0 127 127
0.515998 0.399515 0.007072 0 127 127
0.515998 -0.222068 -0.457443 0 127 127
0.427438 -0.180856 -0.519983 0 127 127
-0.260613 -0.598237 0.509480 153 0 76
-0.338931 0.687499 0.465334 0 127 127
-0.377812 0.536658 -0.519983 0 127 127
-0.072659 0.675324 0.509480 153 0 76
0.062321 0.307297 -0.519983 0 127 127
0.072084 0.131429 -0.519983 0 127 127
0.515998 0.023077 0.262748 0 127 127
-0.502741 -0.292550 -0.024136 0 127 127
-0.502741 -0.258600 -0.450772 0 127 127
0.515998 -0.693332 0.154907 0 127 127
-0.502741 0.653340 -0.465592 0 127 127
-0.158373 -0.618037 -0.519983 0 127 127
-0.502741 -0.490032 -0.197056 0 127 127
0.185248 0.687499 -0.488341 0 127 127
0.515998 0.450997 -0.501127 0 127 127
0.515998 0.129319 -0.338916 0 127 127
0.515998 -0.673802 0.408888 0 127 127
0.016064 -0.555950 0.509480 153 0 76
0.170579 0.287490 -0.519983 0 127 127
0.515998 -0.222900 0.326152 0 127 127
-0.000486 -0.346550 -0.519983 0 127 127
-0.502741 0.463925 0.171669 0 127 127
0.515998 -0.100958 -0.156108 0 127 127
-0.374058 -0.239176 0.485259 153 0 76
0.210766 0.261012 -0.519983 0 127 127
-0.402587 -0.077472 0.509480 153 0 76
-0.070474 0.563025 -0.519983 0 127 127
-0.322862 -0.803077 -0.029096 127 0 127
-0.218879 -0.258394 -0.519983 0 127 127
0.515998 -0.241484 -0.387603 0 127 127
0.345413 0.628533 -0.519983 0 127 127
-0.120902 0.687499 0.075512 0 127 127
-0.417119 0.538607 0.509480 153 0 76
-0.502741 -0.730999 0.204714 0 127 127
-0.379206 -0.744421 0.372348 0 127 127
-0.338982 0.459479 -0.519983 0 127 127
0.314498 -0.779593 0.391520 127 0 127
0.513651 -0.744421 0.219051 0 127 127
0.515998 0.356795 0.236850 0 127 127
-0.184119 0.687499 -0.072646 0 127 127
-0.058487 0.180982 -0.519983 0 127 127
0.020286 -0.027105 -0.519983 0 127 127
-0.196251 -0.803077 0.134220 127 0 127
-0.374058 -0.181820 0.484723 153 0 76
0.013761 -0.803077 0.118577 127 0 127
0.339738 0.687499 0.404470 0 127 127
0.515998 0.296277 -0.409226 0 127 127
0.400516 0.498000 -0.519983 0 127 127
-0.502741 -0.139959 -0.136609 0 127 127
0.449883 0.339351 0.509480 153 0 76
0.145445 -0.269260 0.466585 153 76 0
-0.502741 0.113917 -0.007903 0 127 127
0.076783 -0.803077 0.287522 127 0 127
-0.502741 0.490216 -0.129676 0 127 127
-0.502741 0.545146 0.273391 0 127 127
0.272810 -0.803077 0.067803 127 0 127
-0.446442 -0.744421 0.247489 0 127 127
0.515998 -0.390934 -0.107271 0 127 127
-0.250649 0.687499 0.046914 0 127 127
0.515998 -0.514068 0.262903 0 127 127
-0.266519 0.687499 -0.344168 0 127 127
0.223697 0.406319 -0.519983 0 127 127
0.250135 -0.803077 -0.029461 127 0 127
-0.502741 0.141062 -0.216550 0 127 127
-0.023761 0.687499 -0.157226 0 127 127
-0.502741 0.027245 -0.202230 0 127 127
0.170521 -0.237693 -0.519983 0 127 127
-0.074844 0.687499 -0.401498 0 127 127
-0.234055 0.687499 0.492227 153 0 76
-0.086085 0.687499 -0.499082 0 127 127
0.515998 -0.269980 -0.216348 0 127 127
-0.157388 -0.636414 0.466585 153 0 76
0.515998 0.030575 -0.076322 0 127 127
-0.374058 -0.798795 0.100947 127 0 127
0.304193 0.687499 0.103216 0 127 127
-0.402289 0.023198 0.509480 153 0 76
0.515998 -0.025547 0.026607 0 127 127
0.476465 0.005578 0.509480 153 0 76
-0.500715 -0.744421 0.150478 0 127 127
0.515998 0.635273 -0.519932 0 127 127
0.515998 -0.133550 0.278649 0 127 127
-0.307395 -0.803077 0.278542 127 0 127
0.488341 0.687499 -0.458369 0 127 127
-0.288040 -0.485981 -0.519983 0 127 127
-0.502741 -0.171620 0.185552 0 127 127
0.515998 0.073833 0.302063 0 127 127
0.515998 -0.724039 -0.211384 0 127 127
0.065521 -0.803077 -0.261200 127 0 127
0.515998 -0.341479 0.217636 0 127 127
-0.288454 -0.099793 -0.519983 0 127 127
0.515998 -0.335719 0.371389 0 127 127
-0.279306 0.687499 0.366996 0 127 127
0.515998 0.482621 0.471095 0 127 127
-0.131442 0.687499 -0.410275 0 127 127
0.515998 -0.078295 -0.463711 0 127 127
0.263466 -0.522341 0.509480 153 0 76
-0.502741 -0.240935 0.100912 0 127 127
0.412658 -0.744421 -0.181334 0 127 127
0.030018 -0.011087 0.466585 153 76 0
-0.174816 -0.251153 -0.519983 0 127 127
-0.502741 0.568994 0.188828 0 127 127
-0.502741 -0.242719 0.331257 0 127 127
0.134024 -0.803077 -0.169589 127 0 127
0.515998 -0.356124 -0.050471 0 127 127
-0.159094 -0.803077 -0.303807 127 0 127
0.515998 0.021734 -0.148146 0 127 127
-0.369472 -0.727285 0.466585 0 127 127
0.515998 0.316912 0.391071 0 127 127
0.128646 -0.482361 -0.519983 0 127 127
0.515998 0.065797 0.485658 153 0 76
0.515998 -0.168741 -0.346999 0 127 127
-0.280996 -0.645400 -0.519983 0 127 127
-0.502741 -0.523203 -0.265614 0 127 127
-0.096300 0.078170 0.466585 153 76 0
0.276727 0.077505 -0.519983 0 127 127
-0.346431 -0.803077 -0.375093 127 0 127
-0.031288 0.524203 -0.519983 0 127 127
-0.249338 0.687499 0.394826 0 127 127
0.434777 0.687499 -0.176938 0 127 127
0.515998 -0.412866 -0.374954 0 127 127
-0.173750 0.418709 -0.519983 0 127 127
0.515998 0.617239 -0.147654 0 127 127
-0.502741 0.018586 -0.064585 0 127 127
-0.420281 0.233180 0.517437 76 0 153
-0.502741 0.015349 0.098882 0 127 127
-0.502741 0.452761 -0.171423 0 127 127
-0.344629 -0.322636 0.466585 153 76 0
0.515998 0.437015 0.025599 0 127 127
0.450628 0.228008 0.509480 153 0 76
-0.291868 0.687499 0.192682 0 127 127
-0.405384 0.576675 0.509480 153 0 76
0.377417 -0.600751 0.509480 153 0 76
-0.502741 -0.395268 0.326340 0 127 127
0.515998 -0.574665 0.349615 0 127 127
-0.476017 0.423890 -0.519983 0 127 127
-0.208526 0.382807 0.466585 153 76 0
-0.467110 0.687499 0.018428 0 127 127
0.515998 -0.526082 0.303905 0 127 127
-0.502741 -0.520680 -0.388705 0 127 127
-0.374058 -0.773389 -0.009076 127 0 127
-0.372897 0.265431 0.466585 153 76 0
0.497911 0.479672 0.509480 153 0 76
0.514027 0.188594 -0.519983 0 127 127
0.515998 -0.680831 0.050746 0 127 127
-0.219045 0.687499 0.050000 0 127 127
0.198228 0.687499 -0.161681 0 127 127
-0.502741 0.004035 -0.020876 0 127 127
-0.502741 0.349164 -0.476227 0 127 127
0.414759 0.160121 0.509480 153 0 76
0.515998 -0.030279 0.122848 0 127 127
0.006919 -0.430221 0.466585 153 76 0
0.378608 0.687499 0.205261 0 127 127
-0.502741 -0.436586 0.481263 153 0 76
-0.502741 0.686560 -0.439842 0 127 127
-0.367810 0.469303 -0.519983 0 127 127
0.023950 -0.803077 0.073621 127 0 127
0.429833 0.687499 -0.411159 0 127 127
-0.393865 0.378749 -0.519983 0 127 127
-0.132289 -0.514932 0.509480 153 0 76
0.073106 0.436420 0.466585 153 76 0
0.297907 -0.418325 -0.519983 0 127 127
-0.502741 0.345520 0.035650 0 127 127
-0.392689 0.687499 0.133996 0 127 127
0.370678 0.578226 0.509480 153 0 76
-0.022439 0.092595 -0.519983 0 127 127
-0.502741 -0.484395 0.404227 0 127 127
-0.046312 0.481309 0.466585 153 76 0
-0.502741 0.189508 -0.205833 0 127 127
0.344354 -0.457130 -0.519983 0 127 127
-0.386511 0.482699 0.509480 153 0 76
0.400698 0.687499 0.161270 0 127 127
0.515998 0.623207 0.431344 0 127 127
-0.502741 0.206935 0.142747 0 127 127
0.387315 -0.779002 -0.370359 127 0 127
0.515998 0.449197 -0.176292 0 127 127
0.515998 0.342539 0.363576 0 127 127
0.055096 -0.614441 0.509480 153 0 76
0.085805 -0.432062 0.466585 153 76 0
0.515998 -0.680142 0.005839 0 127 127
0.515998 -0.166598 0.422959 0 127 127
0.083176 -0.423812 -0.519983 0 127 127
0.256549 -0.677179 0.466585 0 127 127
-0.502741 0.429220 0.050373 0 127 127
0.237761 0.123002 0.466585 153 76 0
0.313919 -0.278146 -0.519983 0 127 127
0.515998 -0.406482 0.489813 153 0 76
0.301568 -0.803077 -0.295606 127 0 127
-0.502741 0.353799 -0.136531 0 127 127
-0.436663 -0.535122 -0.519983 0 127 127
-0.188468 0.587550 0.509480 153 0 76
0.515998 -0.674791 -0.207407 0 127 127
0.515998 -0.370617 -0.362472 0 127 127
0.494490 -0.584516 0.509480 153 0 76
-0.502741 0.247918 0.225955 0 127 127
0.442746 -0.601495 -0.519983 0 127 127
-0.362935 -0.803077 -0.216723 127 0 127
0.491760 0.687499 0.355829 0 127 127
0.070131 -0.114189 0.466585 153 76 0
-0.502741 -0.433873 -0.426798 0 127 127
-0.279498 0.155301 -0.519983 0 127 127
-0.347265 0.261780 0.466585 153 76 0
0.387315 -0.768899 0.145588 127 0 127
-0.271472 0.687499 -0.509530 0 127 127
-0.502741 -0.593966 0.386910 0 127 127
-0.358729 0.415927 -0.519983 0 127 127
0.497153 0.687499 -0.277243 0 127 127
-0.474156 -0.371501 -0.519983 0 127 127
-0.243829 -0.394993 0.466585 153 76 0
0.489253 -0.234467 -0.519983 0 127 127
0.269377 0.130998 -0.519983 0 127 127
-0.502741 0.168675 -0.012512 0 127 127
-0.312913 0.184566 -0.519983 0 127 127
0.116821 -0.803077 0.324511 127 0 127
0.131846 0.034651 -0.519983 0 127 127
0.515998 -0.081749 0.252876 0 127 127
0.386137 -0.258934 -0.519983 0 127 127
-0.225496 0.550511 -0.519983 0 127 127
-0.397959 0.687499 0.338412 0 127 127
-0.373744 -0.803077 0.296762 127 0 127
-0.005985 -0.803077 -0.114085 127 0 127
-0.052169 -0.593615 0.509480 153 0 76
-0.374058 -0.310457 0.483551 153 0 76
-0.502741 -0.241745 0.380160 0 127 127
-0.502741 0.227920 -0.115825 0 127 127
-0.254914 0.687499 -0.410587 0 127 127
-0.502741 0.546815 0.048708 0 127 127
0.515998 0.166147 0.014827 0 127 127
0.515998 -0.404803 -0.446768 0 127 127
-0.261602 0.109423 0.466585 153 76 0
-0.502741 0.621809 -0.125947 0 127 127
0.515998 -0.591360 0.471235 153 0 76
-0.100771 -0.272938 0.466585 153 76 0
0.218742 -0.242497 0.466585 153 76 0
-0.188069 -0.803077 0.038990 127 0 127
-0.502741 0.579167 -0.096607 0 127 127
-0.502741 -0.695483 0.316281 0 127 127
-0.502741 -0.286254 0.215516 0 127 127
-0.502741 -0.548651 0.145670 0 127 127
0.323141 -0.357052 0.466585 153 76 0
0.204773 0.687499 0.100641 0 127 127
0.096476 0.496600 -0.519983 0 127 127
0.185463 -0.441603 0.466585 153 76 0
0.379938 -0.537821 0.509480 153 0 76
0.421131 0.687499 -0.109539 0 127 127
-0.237419 -0.803077 -0.383152 127 0 127
0.358314 -0.541053 -0.519983 0 127 127
0.497295 -0.529400 -0.519983 0 127 127
0.515998 0.128698 -0.077815 0 127 127
0.515998 0.434899 -0.254270 0 127 127
-0.502741 -0.067030 -0.422523 0 127 127
-0.374058 -0.383580 0.494032 153 0 76
-0.502741 0.199479 0.492676 153 0 76
-0.087713 -0.490373 -0.519983 0 127 127
-0.050668 -0.803077 0.051690 127 0 127
0.509957 0.027939 0.509480 153 0 76
-0.388450 -0.178801 -0.519983 0 127 127
0.508887 -0.744421 -0.160463 0 127 127
0.515998 0.284594 0.172730 0 127 127
-0.163025 -0.520455 0.509480 153 0 76
-0.000999 -0.744421 -0.508522 0 127 127
-0.307241 0.017667 0.466585 153 76 0
-0.013253 -0.803077 -0.301543 127 0 127
-0.001220 -0.012928 0.466585 153 76 0
0.420383 -0.744421 -0.324757 0 127 127
-0.416273 0.687499 0.314438 0 127 127
0.113377 -0.569066 -0.519983 0 127 127
0.515998 0.002579 -0.041261 0 127 127
0.515998 -0.162877 -0.057730 0 127 127
-0.502741 -0.574235 -0.389439 0 127 127
0.133544 -0.419150 -0.519983 0 127 127
-0.502741 0.528059 0.374475 0 127 127
-0.502741 0.231188 0.502265 153 0 76
0.109861 -0.731131 -0.519983 0 127 127
0.436453 -0.744421 -0.519890 0 127 127
-0.417561 -0.407287 0.509480 153 0 76
-0.030328 0.138926 -0.519983 0 127 127
-0.502741 0.138580 0.265175 0 127 127
-0.502741 -0.480723 0.499026 153 0 76
-0.502741 -0.302101 -0.495126 0 127 127
-0.374058 -0.266595 0.471730 153 76 0
0.515998 -0.639165 0.373394 0 127 127
0.368187 0.031300 0.466585 153 76 0
-0.233455 -0.803077 0.050983 127 0 127
0.301479 -0.803077 0.298091 127 0 127
-0.187067 -0.261486 0.466585 153 76 0
0.515998 0.552362 0.121563 0 127 127
0.429825 0.642337 0.509480 153 0 76
-0.502741 -0.569609 -0.008227 0 127 127
0.515998 0.601703 -0.203703 0 127 127
0.158392 -0.803077 -0.075503 127 0 127
0.499051 0.487003 -0.519983 0 127 127
0.491496 -0.744421 0.192959 0 127 127
-0.502741 -0.404781 -0.307206 0 127 127
0.515998 0.489440 0.022197 0 127 127
-0.502741 0.393547 -0.502140 0 127 127
-0.380717 0.055416 -0.519983 0 127 127
0.031588 0.569292 -0.519983 0 127 127
0.504293 0.590350 -0.519983 0 127 127
-0.502741 0.656668 0.266021 0 127 127
0.515998 -0.225847 -0.516769 0 127 127
-0.359045 0.502439 0.471848 153 0 76
-0.163978 -0.335609 0.466585 153 76 0
-0.361154 0.687499 0.337009 0 127 127
0.142533 -0.713311 0.466585 0 127 127
-0.502741 -0.742691 -0.138038 0 127 127
0.515998 -0.429611 0.207867 0 127 127
0.515998 -0.350999 -0.118360 0 127 127
0.004984 0.687499 0.481180 0 127 127
-0.403325 -0.185747 0.509480 153 0 76
0.212552 -0.119416 -0.519983 0 127 127
-0.260304 -0.058404 -0.519983 0 127 127
0.515998 -0.492882 0.330184 0 127 127
0.350783 -0.803077 0.199495 127 0 127
-0.502741 -0.577130 -0.095602 0 127 127
-0.420281 0.287607 0.514419 76 0 153
0.071034 -0.803077 0.162011 127 0 127
-0.339849 0.362787 -0.519983 0 127 127
-0.140436 -0.772295 0.391520 127 0 127
0.489616 -0.285669 0.509480 153 0 76
-0.147798 0.185723 -0.519983 0 127 127
-0.153493 0.128562 -0.519983 0 127 127
0.515998 0.062084 -0.220195 0 127 127
0.515998 -0.695931 -0.355817 0 127 127
0.446596 -0.381269 -0.519983 0 127 127
0.515998 -0.005885 -0.341449 0 127 127
0.114989 -0.136146 -0.519983 0 127 127
0.515998 -0.341313 -0.203574 0 127 127
0.261702 -0.803077 0.117424 127 0 127
-0.374058 -0.776978 -0.336671 127 0 127
0.455053 -0.311964 0.509480 153 0 76
-0.296786 -0.803077 0.021411 127 0 127
0.196300 -0.774978 -0.391300 127 0 127
0.392175 -0.744421 -0.002701 0 127 127
-0.013637 0.047543 -0.519983 0 127 127
0.515998 0.528232 0.162463 0 127 127
0.343169 -0.505312 0.509480 153 0 76
-0.314569 -0.286509 0.466585 153 76 0
-0.188472 -0.635909 0.495980 153 0 76
-0.290338 0.338491 -0.519983 0 127 127
-0.178815 0.103209 0.466585 153 76 0
-0.377096 -0.744421 0.078689 127 0 127
-0.213459 0.337016 0.466585 153 76 0
-0.068657 -0.803077 0.265832 127 0 127
-0.502741 0.188710 -0.262204 0 127 127
0.515998 -0.484696 -0.400099 0 127 127
0.501103 -0.442284 -0.519983 0 127 127
0.515998 -0.656149 0.052081 0 127 127
-0.502741 0.051300 -0.081069 0 127 127
0.515998 0.215805 0.245280 0 127 127
0.515998 0.250126 0.152296 0 127 127
0.041619 0.687499 -0.309479 0 127 127
-0.502741 -0.293099 0.079006 0 127 127
-0.502741 0.365824 -0.378776 0 127 127
0.515998 -0.417898 -0.344002 0 127 127
0.515998 -0.279298 -0.395685 0 127 127
-0.482393 0.518813 0.509480 153 0 76
-0.502741 -0.330634 0.238693 0 127 127
-0.125797 -0.570302 0.509480 153 0 76
-0.502741 -0.081002 0.441973 0 127 127
0.468245 -0.144468 -0.519983 0 127 127
-0.502741 -0.051832 -0.459120 0 127 127
-0.502741 -0.261403 0.139000 0 127 127
0.225120 -0.390170 -0.519983 0 127 127
0.411992 -0.177421 0.509480 153 0 76
0.408856 0.417259 0.509480 153 0 76
0.515998 -0.291582 0.224991 0 127 127
-0.502741 -0.251102 0.271480 0 127 127
-0.051962 -0.017222 0.466585 153 76 0
-0.502741 0.497368 0.050496 0 127 127
-0.045258 -0.448676 -0.519983 0 127 127
0.387315 0.107204 0.489110 153 0 76
0.515998 0.485045 0.337155 0 127 127
-0.502741 -0.031108 -0.169432 0 127 127
-0.502741 0.184756 0.216492 0 127 127
0.323080 0.056146 0.466585 153 76 0
0.515998 0.489172 0.309319 0 127 127
0.497498 0.236421 0.509480 153 0 76
0.515998 -0.239319 -0.128149 0 127 127
0.454417 -0.262493 0.509480 153 0 76
-0.237111 -0.629121 0.509480 153 0 76
0.034263 -0.557186 -0.519983 0 127 127
0.515998 0.294685 -0.229535 0 127 127
-0.502741 0.646887 0.309853 0 127 127
0.426923 -0.463226 0.509480 153 0 76
0.230278 -0.803077 -0.329177 127 0 127
-0.136681 0.441502 -0.519983 0 127 127
-0.150973 0.045530 -0.519983 0 127 127
-0.272134 -0.803077 0.106307 127 0 127
-0.502741 -0.030800 0.032395 0 127 127
-0.229141 0.687499 -0.316962 0 127 127
0.496143 0.687499 0.098330 0 127 127
0.326343 -0.295619 0.466585 153 76 0
0.191227 -0.635909 0.488867 153 0 76
0.418228 -0.744421 0.078445 0 127 127
0.515998 -0.641547 -0.418338 0 127 127
0.310913 0.687499 -0.424281 0 127 127
-0.310774 0.687499 -0.184939 0 127 127
-0.013803 0.664430 0.509480 153 0 76
-0.190776 0.186255 -0.519983 0 127 127
0.056960 0.687499 -0.005782 0 127 127
-0.179401 -0.745009 0.391520 127 0 127
-0.502741 -0.681060 -0.496336 0 127 127
-0.502741 -0.491980 0.021568 0 127 127
0.515998 -0.484196 0.001134 0 127 127
-0.502741 -0.716359 -0.087850 0 127 127
0.203914 -0.635909 0.467466 153 0 76
0.422489 -0.744421 0.294988 0 127 127
-0.502741 -0.373191 0.080618 0 127 127
-0.270878 -0.132435 0.466585 153 76 0
-0.360366 0.173704 0.466585 153 76 0
-0.502741 0.499867 -0.387640 0 127 127
0.037606 -0.744421 -0.456761 0 127 127
-0.502741 0.168947 0.076460 0 127 127
-0.168868 0.452146 0.466585 153 76 0
0.007152 0.687499 -0.166026 0 127 127
0.299287 -0.290035 0.466585 153 76 0
-0.107151 0.434213 0.466585 153 76 0
-0.502741 -0.193743 -0.146090 0 127 127
0.515998 -0.392993 0.364787 0 127 127
-0.044660 -0.803077 -0.359330 127 0 127
0.400213 -0.744421 0.113022 0 127 127
-0.502741 0.331351 0.477816 153 0 76
0.221480 -0.330476 0.466585 153 76 0
0.515998 -0.129763 0.316755 0 127 127
-0.157589 0.184082 0.466585 153 76 0
0.405624 -0.744421 -0.083628 0 127 127
-0.137028 0.498341 0.466585 153 76 0
0.515998 0.463560 0.066821 0 127 127
0.515998 -0.667529 -0.238682 0 127 127
-0.502741 0.298913 0.377227 0 127 127
0.515998 0.107787 -0.158017 0 127 127
0.069862 -0.483700 0.509480 153 0 76
-0.229687 -0.744421 0.452523 0 127 127
0.515998 0.438203 -0.092118 0 127 127
0.376414 -0.141622 -0.519983 0 127 127
-0.051647 -0.744421 -0.416232 127 0 127
-0.250120 -0.602616 -0.519983 0 127 127
-0.169693 0.687499 -0.380166 0 127 127
-0.502741 -0.227696 0.173688 0 127 127
0.446086 -0.716133 0.466585 0 127 127
0.041309 -0.482224 0.509480 153 0 76
0.515998 -0.053413 0.213209 0 127 127
-0.439276 -0.726807 -0.519983 0 127 127
0.515998 0.526463 0.350177 0 127 127
-0.174903 0.687499 -0.248642 0 127 127
-0.319874 0.687499 0.506049 153 0 76
-0.502741 0.039023 0.143296 0 127 127
-0.502741 -0.173648 -0.329708 0 127 127
0.515998 -0.593989 0.366904 0 127 127
0.515998 0.018289 -0.183732 0 127 127
0.515998 0.040280 0.031537 0 127 127
0.257107 -0.597274 0.509480 153 0 76
0.388639 -0.744421 0.262446 0 127 127
-0.502741 0.579876 -0.498326 0 127 127
0.350498 0.113013 0.466585 153 76 0
-0.444387 -0.195295 0.509480 153 0 76
-0.480176 0.687499 -0.470968 0 127 127
-0.407768 0.687499 -0.470294 0 127 127
0.262052 0.179446 -0.519983 0 127 127
0.353272 0.095423 -0.519983 0 127 127
-0.400934 0.068580 0.509480 153 0 76
-0.502741 -0.021018 0.186981 0 127 127
-0.047892 -0.744421 -0.509887 0 127 127
-0.502741 0.684394 0.311426 0 127 127
0.387315 0.270235 0.508481 153 0 76
-0.502741 -0.154748 0.354597 0 127 127
-0.502741 -0.105245 0.349682 0 127 127
-0.087469 -0.295897 -0.519983 0 127 127
-0.502741 -0.651321 -0.174921 0 127 127
-0.329407 -0.803077 0.374144 127 0 127
0.388752 -0.744421 -0.516742 0 127 127
0.312164 0.687499 -0.208531 0 127 127
-0.201137 -0.077555 -0.519983 0 127 127
-0.350571 0.226994 -0.519983 0 127 127
-0.502741 -0.099620 -0.276038 0 127 127
-0.282525 0.466474 -0.519983 0 127 127
-0.132039 -0.023298 -0.519983 0 127 127
-0.502741 -0.709502 0.371569 0 127 127
0.445091 -0.536082 -0.519983 0 127 127
-0.374058 -0.773888 -0.071166 127 0 127
-0.502741 0.559825 -0.221800 0 127 127
-0.183763 0.687499 0.189239 0 127 127
0.116924 0.658084 -0.519983 0 127 127
-0.172147 -0.455184 -0.519983 0 127 127
0.515998 0.287841 0.116204 0 127 127
0.297841 -0.467840 0.509480 153 0 76
0.384491 -0.081794 0.466585 153 0 76
0.515998 -0.722709 -0.445420 0 127 127
0.515998 -0.446172 -0.376842 0 127 127
-0.502741 -0.475414 -0.033323 0 127 127
-0.502741 0.562015 0.094039 0 127 127
-0.140723 -0.803077 0.333362 127 0 127
0.515998 0.104102 -0.241289 0 127 127
0.233094 0.044608 -0.519983 0 127 127
-0.120705 0.472230 0.466585 153 76 0
-0.045164 -0.262345 0.466585 153 76 0
0.459946 -0.517024 -0.519983 0 127 127
-0.434901 0.686832 0.509480 153 0 76
0.515998 0.283331 -0.500020 0 127 127
-0.059471 -0.778940 0.391520 127 0 127
-0.502741 0.311514 -0.501751 0 127 127
0.515998 -0.229970 0.374545 0 127 127
0.195845 -0.803077 0.064151 127 0 127
0.282711 0.687499 0.373924 0 127 127
0.515998 -0.481828 0.368823 0 127 127
-0.397184 -0.429584 0.509480 153 0 76
-0.502741 -0.082038 -0.051797 0 127 127
-0.502741 -0.432062 0.146391 0 127 127
0.515998 0.146110 -0.393086 0 127 127
-0.502741 0.031808 0.237747 0 127 127
0.515998 -0.609006 -0.241003 0 127 127
-0.244582 -0.342421 0.466585 153 76 0
0.515998 0.355757 0.341363 0 127 127
-0.448259 0.687499 0.081512 0 127 127
0.060729 -0.044154 0.466585 153 76 0
-0.067128 -0.803077 -0.094316 127 0 127
