ply
format ascii 1.0
element vertex 1258
property float x
property float y
property float z
property uchar red
property uchar green
property uchar blue
end_header
0.447489 -0.342108 -0.138400 153 0 76
0.045970 0.345344 0.054228 76 0 153
-0.115009 -0.461902 -0.156803 76 0 153
-0.498423 -0.024669 -0.175857 0 255 0
-0.005700 0.283240 -0.130875 153 76 0
-0.035841 0.451052 0.881985 76 0 153
0.509168 -0.147678 -0.222370 153 0 76
0.420831 -0.234894 -0.223392 153 0 76
-0.055842 0.252353 0.951839 76 0 153
0.451287 -0.106328 -0.346436 127 127 0
0.069955 -0.374786 -0.160381 153 76 0
-0.044398 0.323407 -0.320866 153 76 0
0.041392 0.007151 -0.187570 153 76 0
-0.501977 -0.007057 -0.212719 0 255 0
0.013673 0.462781 0.336840 76 0 153
0.461741 -0.111011 -0.380011 127 127 0
0.493079 -0.322337 -0.146490 153 0 76
-0.069346 -0.157503 -0.259320 153 76 0
-0.542011 -0.291852 -0.165107 0 127 127
0.494591 -0.129978 -0.264253 127 127 0
0.482913 -0.386672 -0.310211 153 0 76
0.020647 -0.061458 -0.268189 153 76 0
0.054390 0.123246 -0.223256 153 76 0
0.046827 0.353639 0.876205 76 0 153
0.327152 -0.049784 -0.206030 127 127 0
-0.557969 -0.461902 -0.341115 127 0 127
0.043375 0.486759 0.794888 76 0 153
-0.070635 0.322370 -0.069140 76 0 153
-0.011631 0.395270 0.451372 76 0 153
-0.072289 0.330765 0.155779 76 0 153
0.484916 -0.065066 -0.289674 127 127 0
-0.030893 -0.216838 -0.142359 153 76 0
-0.107319 0.322365 -0.247462 153 76 0
0.026139 0.472606 0.848539 76 0 153
-0.044444 0.402036 -0.144113 153 76 0
0.103961 -0.410417 -0.206063 76 0 153
-0.059369 -0.140246 -0.266828 153 76 0
-0.613160 -0.423715 -0.250087 0 127 127
-0.059662 0.402130 0.800667 76 0 153
0.531459 -0.402323 -0.132437 153 0 76
-0.408937 -0.419548 -0.147525 0 127 127
0.044534 0.514301 0.734528 76 0 153
0.511839 -0.447491 -0.354573 76 153 0
-0.071838 0.347157 0.006184 76 0 153
-0.025854 0.326137 -0.313611 153 76 0
0.105718 -0.436508 -0.299104 76 0 153
-0.442419 -0.390242 -0.134814 0 127 127
0.079224 0.328370 -0.177285 153 76 0
-0.520244 -0.056447 -0.362636 0 255 0
-0.529865 -0.091781 -0.355509 0 255 0
0.411458 -0.047564 -0.222356 127 127 0
-0.378070 -0.099789 -0.234174 0 255 0
-0.495391 -0.311348 -0.151201 0 127 127
0.027137 0.540319 0.749987 76 0 153
-0.484934 -0.117578 -0.156179 0 255 0
-0.029874 0.444181 0.715821 76 0 153
0.026063 0.037442 -0.261640 153 76 0
-0.066905 0.338008 0.850618 76 0 153
-0.009823 -0.066349 -0.152369 153 76 0
-0.069129 -0.461902 -0.293100 76 0 153
-0.081421 0.230037 0.852213 153 0 76
0.497308 -0.158514 -0.186139 153 0 76
-0.093206 0.391354 -0.185236 153 76 0
0.047884 -0.351834 -0.290281 153 76 0
-0.001382 0.313065 -0.082190 153 76 0
-0.007256 0.574811 0.689420 76 0 153
0.479861 -0.458708 -0.070591 76 153 0
-0.674763 -0.098997 -0.224322 0 255 0
-0.018258 -0.396027 -0.317286 153 76 0
0.022999 0.474235 0.371137 76 0 153
0.445851 -0.145600 -0.186778 153 0 76
-0.059804 0.256237 -0.272073 153 76 0
-0.070481 0.321651 0.093436 76 0 153
0.118139 -0.461902 -0.171368 76 0 153
-0.014500 0.215452 0.969648 76 0 153
-0.069282 0.393279 0.826534 76 0 153
0.016192 0.444205 0.306009 76 0 153
-0.639098 -0.080696 -0.249395 0 255 0
0.010785 0.282332 0.091455 76 0 153
0.058177 0.154614 -0.212819 153 76 0
-0.031162 0.464698 0.638649 76 0 153
0.002241 -0.315875 -0.124588 153 76 0
0.082397 -0.341301 -0.219155 153 76 0
-0.530218 -0.071027 -0.155989 0 255 0
0.433451 -0.032016 -0.241932 127 127 0
-0.085952 -0.203497 -0.233270 153 76 0
-0.051218 0.142681 0.866446 76 0 153
-0.104639 0.373341 -0.238559 153 76 0
-0.066179 0.169863 -0.264258 153 76 0
-0.001968 0.495452 -0.251081 153 76 0
0.046139 0.263659 0.888926 76 0 153
0.440314 -0.232289 -0.174734 153 0 76
0.078445 0.374431 -0.234821 153 76 0
-0.060223 0.153897 -0.268153 153 76 0
0.006173 -0.461902 -0.311927 76 0 153
0.018424 0.392202 0.183696 76 0 153
-0.069981 0.376200 -0.289336 153 76 0
-0.455949 -0.103310 -0.164516 0 255 0
0.441428 -0.390801 -0.121825 153 0 76
-0.030416 0.304285 -0.326152 153 76 0
-0.056315 -0.226646 -0.153342 153 76 0
0.018841 0.250376 0.963848 153 0 76
0.076124 0.341981 -0.261075 153 76 0
0.037443 -0.253659 -0.160067 153 76 0
0.010259 0.552842 0.498679 76 0 153
0.030046 -0.312241 -0.295940 153 76 0
0.064925 -0.377161 -0.277488 153 76 0
0.084605 0.329526 -0.235493 153 76 0
-0.507234 -0.102040 -0.137768 0 255 0
-0.025700 -0.282513 -0.300352 153 76 0
0.456434 -0.461902 -0.152278 76 153 0
-0.002617 0.375807 -0.329549 153 76 0
0.581105 -0.441387 -0.129989 76 153 0
-0.547341 -0.461902 -0.309229 127 0 127
0.435948 -0.262405 -0.168581 153 0 76
-0.361602 -0.443185 -0.253197 0 127 127
-0.045592 -0.319934 -0.128064 153 76 0
0.457166 -0.070666 -0.391252 127 127 0
-0.072050 0.514252 0.621108 76 0 153
-0.454873 -0.125089 -0.252924 0 255 0
-0.166845 -0.453589 -0.199223 76 0 153
0.640370 -0.069139 -0.237916 127 127 0
0.024000 0.277239 -0.142969 153 76 0
-0.139733 -0.461902 -0.150778 76 0 153
-0.017860 0.397444 0.024562 76 0 153
-0.008742 0.109098 -0.282011 153 76 0
0.024185 0.469246 0.569461 76 0 153
-0.530859 -0.461902 -0.257892 127 0 127
-0.455850 -0.208448 -0.198605 0 127 127
0.511086 -0.191602 -0.231978 153 0 76
0.025389 0.309448 0.246716 76 0 153
0.499033 -0.210448 -0.178607 153 0 76
-0.044577 0.384885 -0.298235 153 76 0
0.514045 -0.304967 -0.267099 153 0 76
-0.329757 -0.067042 -0.236926 0 255 0
-0.481320 -0.067798 -0.150422 0 255 0
0.511708 -0.189037 -0.200404 153 0 76
-0.062571 -0.461902 -0.151540 76 0 153
0.084210 -0.358194 -0.209962 153 76 0
0.441178 -0.461902 -0.107080 76 153 0
0.579750 -0.420678 -0.244769 153 0 76
-0.531421 -0.229954 -0.252493 0 127 127
0.044589 0.363172 0.214422 76 0 153
-0.454756 -0.367279 -0.293293 0 127 127
-0.528421 -0.124718 -0.263126 0 255 0
0.638749 -0.054760 -0.214610 127 127 0
-0.442717 -0.286275 -0.252408 0 127 127
-0.109936 0.334803 -0.184021 153 76 0
-0.517603 -0.024030 -0.243296 0 255 0
-0.034386 0.419763 0.488409 76 0 153
0.021228 0.181771 0.955518 76 0 153
-0.517342 -0.082479 -0.309093 0 255 0
-0.038271 -0.374230 -0.311338 153 76 0
0.367747 -0.461902 -0.249155 76 153 0
-0.440530 -0.313221 -0.182344 0 127 127
0.529516 -0.100754 -0.183132 127 127 0
-0.094508 -0.308663 -0.256112 153 76 0
-0.023666 0.397646 0.917565 76 0 153
0.061819 -0.461902 -0.333026 76 0 153
-0.040875 -0.461902 -0.129041 76 0 153
0.560263 -0.366673 -0.207322 153 0 76
-0.084572 0.219914 0.895396 76 0 153
0.060966 0.231410 -0.225165 153 76 0
-0.465177 -0.445894 -0.074711 127 0 127
0.047895 0.316691 -0.292363 153 76 0
0.400151 -0.395747 -0.283337 153 0 76
-0.105157 -0.461902 -0.243718 76 0 153
-0.555469 -0.042968 -0.206872 0 255 0
-0.034336 0.394164 0.013732 76 0 153
-0.470600 -0.340692 -0.140358 0 127 127
0.024700 0.142320 0.839657 153 0 76
-0.495520 -0.461902 -0.163722 127 0 127
0.411309 -0.066718 -0.185662 127 127 0
-0.539202 -0.190828 -0.203590 0 127 127
-0.485492 -0.102405 -0.141908 0 255 0
-0.074169 0.252823 -0.259791 153 76 0
0.391271 -0.341790 -0.213704 153 0 76
0.551779 -0.358197 -0.247241 153 0 76
-0.582739 -0.394661 -0.165550 0 127 127
-0.075846 0.081372 -0.201509 153 76 0
-0.047868 -0.008583 -0.163984 153 76 0
0.462147 -0.161953 -0.253456 153 0 76
-0.096531 -0.419699 -0.114874 76 0 153
-0.071485 0.299725 -0.288076 153 76 0
0.032967 0.543482 0.521433 76 0 153
-0.511631 -0.413331 -0.323909 0 127 127
0.522514 -0.280495 -0.254830 153 0 76
0.498089 -0.080659 -0.097852 127 127 0
-0.006498 -0.193853 -0.289728 153 76 0
0.422937 -0.260710 -0.246968 153 0 76
0.025821 0.341563 -0.136713 153 76 0
-0.060722 -0.461902 -0.277638 76 0 153
0.045761 0.515423 0.530271 76 0 153
0.324431 -0.097898 -0.247121 127 127 0
0.032723 0.376159 0.042377 76 0 153
0.393431 -0.424224 -0.123445 153 0 76
0.027959 0.293801 0.064845 76 0 153
0.022378 0.363288 0.365817 76 0 153
-0.006591 -0.461902 -0.176611 76 0 153
0.532349 -0.118539 -0.213180 127 127 0
-0.052901 0.385212 0.400351 76 0 153
-0.625880 -0.104359 -0.236128 0 255 0
-0.018670 0.314197 0.823916 76 0 153
0.531129 -0.461902 -0.216193 76 153 0
-0.559442 -0.314251 -0.188251 0 127 127
0.578920 -0.418846 -0.186502 153 0 76
-0.563587 -0.363985 -0.156647 0 127 127
-0.410453 -0.370395 -0.240063 0 127 127
-0.013338 0.155298 0.963406 153 0 76
0.432333 -0.461902 -0.305095 76 153 0
-0.433312 -0.311470 -0.215922 0 127 127
-0.506909 -0.461902 -0.331100 127 0 127
0.343989 -0.446005 -0.148606 76 153 0
-0.014950 0.442651 0.285597 76 0 153
-0.031011 0.444962 0.536446 76 0 153
-0.531714 -0.124132 -0.169105 0 255 0
0.388335 -0.443641 -0.332400 76 153 0
-0.449714 -0.253103 -0.243918 0 127 127
0.087264 -0.391724 -0.203821 153 76 0
0.040963 0.360639 0.841481 76 0 153
0.035765 0.332872 0.915371 76 0 153
-0.508588 -0.437003 -0.081560 0 127 127
0.037708 0.377031 0.202596 76 0 153
-0.464950 -0.028526 -0.237764 0 255 0
0.546493 -0.461902 -0.304385 76 153 0
0.026323 -0.154195 -0.274376 153 76 0
0.002199 0.443814 -0.236692 153 76 0
-0.014457 0.535131 0.793273 76 0 153
-0.479748 -0.068617 -0.317611 0 255 0
-0.529329 -0.461748 -0.356267 127 0 127
-0.011755 0.579721 0.580044 76 0 153
-0.024821 0.404821 -0.085115 153 76 0
-0.086501 0.401700 -0.242853 153 76 0
-0.014634 -0.099016 -0.280823 153 76 0
0.405296 -0.107746 -0.228987 127 127 0
-0.522826 -0.064476 -0.084622 0 255 0
-0.123036 -0.434141 -0.307633 76 0 153
-0.061181 0.236295 0.826802 153 0 76
0.404021 -0.289515 -0.215543 153 0 76
0.011147 0.525104 0.448603 76 0 153
0.018589 0.416931 0.470396 76 0 153
0.011883 0.416267 -0.156663 153 76 0
-0.146554 -0.441435 -0.155925 76 0 153
0.028187 0.250142 0.831475 153 0 76
-0.014090 0.251833 0.968184 153 0 76
0.516932 -0.088770 -0.266375 127 127 0
-0.490436 -0.112252 -0.379114 0 255 0
-0.047148 0.513515 -0.187379 153 76 0
-0.411152 -0.362769 -0.202367 0 127 127
-0.059856 0.388159 -0.084916 153 76 0
0.048697 -0.014302 -0.211995 153 76 0
-0.046934 0.386694 0.109218 76 0 153
0.513081 -0.177225 -0.215558 153 0 76
-0.069911 0.384050 0.263794 76 0 153
0.045321 -0.461902 -0.216507 76 0 153
0.467789 -0.321470 -0.286428 153 0 76
-0.506748 -0.108487 -0.103031 0 255 0
0.556051 -0.362936 -0.188750 153 0 76
0.005837 -0.376852 -0.117836 153 76 0
0.070755 -0.282598 -0.235790 153 76 0
0.448973 -0.248802 -0.265219 153 0 76
0.005977 -0.461902 -0.138893 76 0 153
0.045754 -0.099119 -0.187539 153 76 0
0.051112 -0.253384 -0.176616 153 76 0
-0.012669 0.398288 -0.015210 76 0 153
0.025453 0.292133 0.087733 76 0 153
-0.448780 -0.131308 -0.193658 0 255 0
-0.073192 0.382229 0.856729 76 0 153
0.058882 -0.210825 -0.191906 153 76 0
0.024427 0.540853 -0.202099 153 76 0
-0.049947 0.384661 0.034173 76 0 153
-0.063752 0.333873 -0.302079 153 76 0
0.578135 -0.407665 -0.222556 153 0 76
0.455712 -0.414920 -0.106566 153 0 76
0.007240 0.269392 0.952128 76 0 153
-0.048323 0.268638 -0.097611 153 76 0
0.007476 -0.016382 -0.273881 153 76 0
0.030581 0.426419 0.881002 76 0 153
-0.528001 -0.173245 -0.242417 0 127 127
0.036763 0.305498 0.005636 76 0 153
0.021264 0.555639 0.721007 76 0 153
-0.639278 -0.461902 -0.200412 127 0 127
0.012139 0.434192 0.511398 76 0 153
0.591299 -0.435378 -0.159355 76 153 0
-0.047008 0.328309 -0.120839 153 76 0
-0.031991 -0.330935 -0.307135 153 76 0
-0.083058 0.196426 0.912712 153 0 76
-0.003460 0.355156 0.935503 76 0 153
-0.489078 -0.112158 -0.052347 0 255 0
0.619513 -0.056875 -0.237906 127 127 0
0.042290 0.385364 0.356783 76 0 153
-0.004500 -0.341615 -0.310042 153 76 0
-0.056662 -0.184007 -0.275667 153 76 0
-0.563535 -0.356798 -0.270466 0 127 127
0.050152 0.198275 -0.174689 153 76 0
-0.502765 -0.050668 -0.153392 0 255 0
-0.413414 -0.395491 -0.163724 0 127 127
0.366361 -0.425571 -0.152900 153 0 76
-0.415486 -0.068947 -0.228346 0 255 0
0.596513 -0.461902 -0.186670 76 153 0
0.497841 -0.104723 -0.072166 127 127 0
0.432571 -0.054606 -0.165167 127 127 0
-0.071867 0.310171 -0.082190 153 76 0
-0.058276 -0.078244 -0.259052 153 76 0
-0.014897 0.518636 -0.260073 153 76 0
-0.528457 -0.085028 -0.379356 0 255 0
-0.562236 -0.310170 -0.216623 0 127 127
0.437159 -0.309189 -0.158653 153 0 76
0.386526 -0.356123 -0.206491 153 0 76
-0.033273 0.271737 0.952167 76 0 153
0.037043 0.338169 -0.082190 153 76 0
-0.531755 -0.032016 -0.234682 0 255 0
0.372230 -0.064227 -0.204016 127 127 0
0.001215 0.444890 0.537806 76 0 153
0.471960 -0.176775 -0.173763 153 0 76
-0.533681 -0.435555 -0.343509 127 0 127
0.044227 0.450815 0.829157 76 0 153
-0.580389 -0.347995 -0.218708 0 127 127
0.000073 0.266200 -0.146111 153 76 0
-0.069164 0.538663 0.683318 76 0 153
-0.128412 -0.461902 -0.251961 76 0 153
0.029055 0.526162 0.475726 76 0 153
-0.065705 0.366074 0.108495 76 0 153
-0.062856 0.353088 0.908262 76 0 153
-0.539577 -0.133793 -0.195840 0 255 0
0.436819 -0.080961 -0.065727 127 127 0
-0.516795 -0.092670 -0.292814 0 255 0
0.488889 -0.133793 -0.225657 153 0 76
0.515317 -0.208021 -0.204984 153 0 76
0.026900 0.221961 -0.278733 153 76 0
-0.073357 0.347680 0.219091 76 0 153
-0.366160 -0.461902 -0.183385 127 0 127
-0.533177 -0.461902 -0.166048 127 0 127
-0.321672 -0.065071 -0.221098 0 255 0
0.491447 -0.059152 -0.053736 127 127 0
-0.595109 -0.399171 -0.191980 0 127 127
0.075157 0.378117 -0.186751 153 76 0
-0.518598 -0.133793 -0.238885 0 255 0
0.552956 -0.101251 -0.221964 127 127 0
-0.550747 -0.377593 -0.292100 0 127 127
0.032643 0.272152 -0.109573 153 76 0
-0.356378 -0.055853 -0.235685 0 255 0
0.508722 -0.223698 -0.246785 153 0 76
0.044321 0.353620 0.018398 76 0 153
-0.523127 -0.085699 -0.095227 0 255 0
-0.062721 0.408301 0.417478 76 0 153
-0.051670 0.549122 0.730207 76 0 153
-0.097234 0.281684 -0.211294 153 76 0
0.522211 -0.236505 -0.204354 153 0 76
-0.074963 0.057022 -0.220322 153 76 0
0.002813 0.555379 -0.238645 153 76 0
-0.072680 0.415292 0.372369 76 0 153
-0.072581 0.352962 0.254318 76 0 153
0.053239 0.153645 0.905013 153 0 76
-0.023113 0.147305 0.879360 76 0 153
-0.485106 -0.056067 -0.342571 0 255 0
0.448803 -0.461902 -0.135720 76 153 0
-0.001842 0.238434 -0.289089 153 76 0
0.494500 -0.092195 -0.109755 127 127 0
-0.560355 -0.285364 -0.236962 0 127 127
-0.556998 -0.375592 -0.144547 0 127 127
-0.499981 -0.222088 -0.166778 0 127 127
0.468759 -0.068513 -0.147526 127 127 0
0.023544 0.384802 0.129919 76 0 153
0.031454 0.297584 0.115030 76 0 153
0.457328 -0.461902 -0.347026 76 153 0
-0.647546 -0.102169 -0.186460 0 255 0
0.032731 0.442940 0.755441 76 0 153
-0.057438 0.410149 0.890142 76 0 153
-0.069123 0.316189 0.183307 76 0 153
0.472294 -0.340006 -0.135614 153 0 76
-0.018668 0.378967 0.419501 76 0 153
0.593158 -0.058186 -0.217979 127 127 0
-0.064519 0.370988 -0.082190 76 0 153
0.056948 0.183715 0.894916 76 0 153
-0.000370 0.260996 -0.118319 153 76 0
-0.567682 -0.445783 -0.089369 127 0 127
0.060248 0.304672 -0.111936 153 76 0
-0.026977 -0.130392 -0.148391 153 76 0
0.568188 -0.395832 -0.194794 153 0 76
0.424622 -0.225409 -0.199326 153 0 76
-0.021378 0.563563 -0.203856 153 76 0
0.045035 0.465645 0.480487 76 0 153
-0.001450 0.279576 0.135137 76 0 153
-0.050583 0.383948 0.910283 76 0 153
-0.491271 -0.272707 -0.276482 0 127 127
-0.066065 -0.296389 -0.287771 153 76 0
0.016735 -0.004423 -0.161580 153 76 0
-0.069413 0.304754 0.865301 76 0 153
-0.496039 -0.161430 -0.175867 0 127 127
0.039656 0.365754 -0.070019 76 0 153
0.023876 -0.085295 -0.162671 153 76 0
-0.632913 -0.055019 -0.232513 0 255 0
0.333176 -0.443946 -0.172575 76 153 0
0.035304 0.347294 0.308334 76 0 153
0.061419 -0.238147 -0.207923 153 76 0
-0.039563 -0.069081 -0.158384 153 76 0
-0.531486 -0.344095 -0.288396 0 127 127
0.483917 -0.144605 -0.178577 127 127 0
0.052211 -0.348490 -0.145078 153 76 0
-0.414964 -0.446328 -0.095921 127 0 127
-0.053706 0.392547 -0.133735 153 76 0
-0.398686 -0.435304 -0.127667 0 127 127
0.364239 -0.108069 -0.210231 127 127 0
-0.076640 0.306327 -0.131344 153 76 0
0.046285 0.331852 -0.003682 76 0 153
0.510292 -0.461902 -0.342047 76 153 0
0.030686 0.428694 -0.216601 153 76 0
0.019349 0.104729 -0.157437 153 76 0
0.083755 0.353757 -0.233156 153 76 0
0.045782 0.290143 -0.093171 153 76 0
-0.022754 -0.461902 -0.121841 76 0 153
-0.076361 0.376359 -0.127274 153 76 0
0.005338 0.291388 -0.302001 153 76 0
-0.062338 0.487774 0.425733 76 0 153
0.483873 -0.039927 -0.160270 127 127 0
0.552077 -0.461902 -0.139710 76 153 0
-0.652754 -0.105645 -0.238593 0 255 0
0.047355 0.506476 0.712238 76 0 153
-0.037465 0.571137 0.686338 76 0 153
-0.057420 -0.271987 -0.146278 153 76 0
0.058982 -0.231741 -0.192539 153 76 0
0.011986 0.407313 -0.128277 153 76 0
-0.057840 0.472371 0.690966 76 0 153
-0.001592 0.522650 0.810628 76 0 153
-0.127298 -0.411284 -0.250976 76 0 153
-0.675882 -0.069380 -0.207229 0 255 0
-0.073378 0.419740 -0.218993 153 76 0
-0.060072 0.471118 0.838439 76 0 153
-0.373613 -0.056390 -0.217284 0 255 0
0.070511 0.388840 -0.238558 153 76 0
0.082147 -0.461902 -0.331689 76 0 153
-0.085974 0.356514 -0.149431 153 76 0
-0.028863 0.431219 -0.250514 153 76 0
0.005849 0.209760 -0.287934 153 76 0
-0.055196 0.565417 0.632399 76 0 153
-0.466107 -0.231210 -0.175549 0 127 127
0.018727 -0.202945 -0.147555 153 76 0
-0.526308 -0.279611 -0.158223 0 127 127
-0.414530 -0.349482 -0.218844 0 127 127
-0.520637 -0.359449 -0.299140 0 127 127
-0.632768 -0.451241 -0.267486 127 0 127
-0.090951 0.249310 0.901909 153 0 76
0.407940 -0.461902 -0.176572 76 153 0
-0.563928 -0.434424 -0.102116 0 127 127
-0.068782 0.346406 -0.136713 153 76 0
-0.075900 0.251694 0.931362 153 0 76
-0.056020 -0.020755 -0.170899 153 76 0
0.361618 -0.067726 -0.237539 127 127 0
0.027683 0.479252 0.387001 76 0 153
0.488638 -0.055769 -0.082582 127 127 0
0.425910 -0.404257 -0.122938 153 0 76
-0.482962 -0.461902 -0.336737 127 0 127
-0.025938 0.066277 -0.153758 153 76 0
0.016968 0.425054 0.756699 76 0 153
-0.319959 -0.096111 -0.225010 0 255 0
0.016792 0.015450 -0.268414 153 76 0
0.570801 -0.461902 -0.289792 76 153 0
-0.070703 0.357790 0.191790 76 0 153
-0.057311 0.401840 -0.118187 153 76 0
0.030919 -0.059731 -0.170918 153 76 0
0.335519 -0.069689 -0.245012 127 127 0
-0.006880 -0.461902 -0.229324 76 0 153
0.014493 0.074731 -0.158037 153 76 0
-0.012378 0.560474 -0.235246 153 76 0
-0.485558 -0.461902 -0.289072 127 0 127
0.068901 0.280102 -0.203111 153 76 0
0.005246 0.419935 -0.272990 153 76 0
0.043279 0.292558 -0.284950 153 76 0
-0.447807 -0.252197 -0.190789 0 127 127
0.377527 -0.385192 -0.200939 153 0 76
-0.071704 0.317069 0.894774 76 0 153
0.499524 -0.075829 -0.152468 127 127 0
-0.057452 0.264454 -0.162331 153 76 0
0.067082 0.370840 -0.267765 153 76 0
-0.106200 -0.461902 -0.136652 76 0 153
-0.047419 0.440289 0.739828 76 0 153
0.048388 -0.072294 -0.227903 153 76 0
-0.478578 -0.107194 -0.084591 0 255 0
-0.467808 -0.123649 -0.264379 0 255 0
0.649181 -0.087158 -0.231601 127 127 0
0.516770 -0.220487 -0.231777 153 0 76
0.035470 0.065279 -0.175242 153 76 0
-0.115451 -0.461902 -0.316955 76 0 153
-0.387891 -0.461902 -0.265614 127 0 127
0.561942 -0.391224 -0.178756 153 0 76
-0.091094 0.336723 -0.096179 153 76 0
0.024835 -0.164530 -0.154165 153 76 0
0.023094 0.385093 0.095925 76 0 153
-0.429192 -0.078109 -0.240280 0 255 0
0.005541 0.300890 -0.352631 153 76 0
-0.117195 -0.412367 -0.279651 76 0 153
-0.086825 0.229018 0.927363 153 0 76
-0.061580 0.422804 -0.189439 153 76 0
-0.494163 -0.066679 -0.037516 0 255 0
0.037431 0.385732 0.233865 76 0 153
0.041092 0.365329 0.178163 76 0 153
0.038408 0.547901 0.570198 76 0 153
0.039521 0.301931 0.917183 76 0 153
0.024304 0.368089 -0.082190 153 76 0
0.480567 -0.461902 -0.190445 76 153 0
0.045342 0.148613 0.862722 153 0 76
0.072260 -0.461902 -0.194180 76 0 153
-0.032679 -0.315078 -0.305122 153 76 0
0.587317 -0.461902 -0.259332 76 153 0
0.470047 -0.084083 -0.397035 127 127 0
-0.451850 -0.066005 -0.166133 0 255 0
-0.487745 -0.091314 -0.036527 0 255 0
-0.053184 0.293103 -0.026014 76 0 153
-0.057100 0.553648 0.701271 76 0 153
0.045075 0.421448 0.817321 76 0 153
-0.039279 0.369361 -0.136713 153 76 0
-0.549610 -0.252565 -0.236190 0 127 127
0.044210 0.145847 0.930687 153 0 76
0.397493 -0.461902 -0.263811 76 153 0
-0.084650 -0.177895 -0.200268 153 76 0
0.404495 -0.420306 -0.304938 153 0 76
-0.542263 -0.213194 -0.228471 0 127 127
-0.068231 0.140257 -0.258383 153 76 0
-0.077589 0.342791 -0.082190 153 76 0
-0.047579 -0.221933 -0.281582 153 76 0
0.007640 0.281377 0.108062 76 0 153
0.561024 -0.461902 -0.277118 76 153 0
-0.537091 -0.165733 -0.209864 0 127 127
0.488675 -0.108881 -0.085592 127 127 0
-0.055654 0.085064 -0.166639 153 76 0
0.507186 -0.461902 -0.282915 76 153 0
0.076603 -0.461902 -0.143702 76 0 153
0.549628 -0.461902 -0.227579 76 153 0
0.020417 0.373965 0.806960 76 0 153
-0.022865 0.279174 0.057755 76 0 153
-0.031540 0.194851 0.827076 76 0 153
-0.005379 0.514210 0.420467 76 0 153
-0.512711 -0.059691 -0.099773 0 255 0
-0.020054 0.042792 -0.275475 153 76 0
0.062306 -0.429294 -0.098048 76 0 153
-0.427353 -0.322951 -0.202562 0 127 127
-0.143828 -0.418434 -0.216176 76 0 153
0.293670 -0.084597 -0.231400 127 127 0
-0.502508 -0.057991 -0.335046 0 255 0
-0.121508 -0.461902 -0.177896 76 0 153
-0.104439 -0.324169 -0.197856 153 76 0
0.484388 -0.337691 -0.291949 153 0 76
0.430268 -0.461902 -0.275342 76 153 0
0.061771 0.227292 0.882684 153 0 76
-0.442861 -0.045940 -0.190073 0 255 0
-0.072032 0.087650 -0.242073 153 76 0
0.082880 -0.459260 -0.092959 76 0 153
-0.389847 -0.422891 -0.263728 0 127 127
0.056855 -0.160917 -0.201368 153 76 0
-0.070733 0.331449 0.209332 76 0 153
-0.587375 -0.461902 -0.247528 127 0 127
-0.530102 -0.320363 -0.277809 0 127 127
0.519250 -0.129046 -0.241294 127 127 0
0.530197 -0.275999 -0.192519 153 0 76
-0.528441 -0.203883 -0.247269 0 127 127
0.046010 0.500034 0.534256 76 0 153
-0.072432 0.513077 0.663263 76 0 153
0.019579 0.406734 0.450138 76 0 153
-0.021732 0.278982 0.178254 76 0 153
0.553999 -0.407090 -0.282459 153 0 76
-0.054700 0.429623 -0.211377 153 76 0
0.024154 0.115676 -0.271709 153 76 0
0.374088 -0.446724 -0.109165 76 153 0
-0.373709 -0.427772 -0.209188 0 127 127
0.021801 0.225784 0.832142 76 0 153
-0.483504 -0.352902 -0.298254 0 127 127
-0.030514 -0.461902 -0.155762 76 0 153
-0.032715 0.281159 0.151738 76 0 153
-0.072187 0.404331 0.357299 76 0 153
-0.026498 0.386475 -0.082190 76 0 153
-0.073519 0.496465 0.737388 76 0 153
0.045571 0.177198 0.930686 76 0 153
0.008670 0.394071 0.082631 76 0 153
-0.441644 -0.253528 -0.218485 0 127 127
0.051661 0.139626 0.914956 153 0 76
-0.071026 0.525136 0.546758 76 0 153
0.469987 -0.052023 -0.379156 127 127 0
-0.075424 0.206897 0.945275 153 0 76
-0.035781 0.018085 -0.272044 153 76 0
0.018941 0.212797 -0.147661 153 76 0
-0.374331 -0.099867 -0.196210 0 255 0
-0.451380 -0.461902 -0.297830 127 0 127
-0.007588 -0.461902 -0.346325 76 0 153
-0.036659 0.457657 0.685444 76 0 153
-0.036935 0.111604 -0.278145 153 76 0
-0.014866 0.347290 -0.114780 153 76 0
0.380147 -0.422357 -0.288691 153 0 76
-0.038096 0.509116 0.420030 76 0 153
0.445372 -0.461902 -0.185464 76 153 0
0.053955 -0.403812 -0.131739 76 0 153
-0.057242 0.481484 0.623412 76 0 153
0.012319 0.364193 -0.136713 153 76 0
0.019669 0.388171 -0.134758 153 76 0
0.121549 -0.441140 -0.158576 76 0 153
0.507299 -0.160760 -0.231112 153 0 76
0.437225 -0.461902 -0.321023 76 153 0
0.506353 -0.153306 -0.199239 153 0 76
0.450789 -0.395152 -0.311609 153 0 76
-0.324451 -0.094130 -0.196157 0 255 0
-0.544794 -0.444878 -0.077726 127 0 127
-0.521981 -0.276839 -0.273440 0 127 127
0.004191 0.574768 0.678479 76 0 153
-0.015926 0.277785 0.027002 76 0 153
0.428979 -0.269886 -0.258367 153 0 76
0.381767 -0.402995 -0.262988 153 0 76
-0.072332 0.457293 0.787554 76 0 153
0.417718 -0.423039 -0.109680 153 0 76
0.039462 0.419076 0.428060 76 0 153
0.034947 0.365507 -0.299212 153 76 0
0.398342 -0.461902 -0.204825 76 153 0
-0.010558 0.417782 -0.113612 153 76 0
-0.021210 0.451992 0.691164 76 0 153
0.044187 0.225554 -0.166847 153 76 0
0.059639 0.202730 0.866473 153 0 76
0.498238 -0.032016 -0.245975 127 127 0
-0.546571 -0.323376 -0.267845 0 127 127
0.020496 0.394080 0.792146 76 0 153
0.455271 -0.083855 -0.037336 127 127 0
-0.583616 -0.461902 -0.147348 127 0 127
0.030034 0.447771 0.510835 76 0 153
-0.032560 0.498169 0.837958 76 0 153
0.035256 -0.433381 -0.079894 76 0 153
0.374994 -0.430278 -0.134449 153 0 76
-0.044958 0.400050 0.438968 76 0 153
-0.053150 0.350848 -0.342162 153 76 0
0.401683 -0.381138 -0.152537 153 0 76
0.434630 -0.045673 -0.262162 127 127 0
-0.554593 -0.043170 -0.228653 0 255 0
0.052669 0.382047 -0.112312 153 76 0
-0.032347 0.393519 0.782303 76 0 153
-0.017508 0.397550 0.156147 76 0 153
-0.348259 -0.109212 -0.237062 0 255 0
-0.036666 0.461758 0.667526 76 0 153
-0.602740 -0.436069 -0.132314 0 127 127
0.393734 -0.411063 -0.290698 153 0 76
0.038732 0.438265 0.465861 76 0 153
-0.015997 0.382485 -0.305338 153 76 0
0.074792 -0.293481 -0.223809 153 76 0
0.025586 0.398408 0.426290 76 0 153
0.369993 -0.103421 -0.225214 127 127 0
0.010495 0.282130 0.059894 76 0 153
0.383573 -0.461902 -0.178915 76 153 0
0.068782 -0.461902 -0.249177 76 0 153
0.313432 -0.074168 -0.245794 127 127 0
-0.003211 0.279233 0.161223 76 0 153
-0.364430 -0.438101 -0.195828 127 0 127
-0.003975 0.279017 -0.066787 76 0 153
0.045953 -0.301479 -0.283049 153 76 0
-0.060201 0.225280 -0.273844 153 76 0
0.079748 -0.396505 -0.257232 153 76 0
0.468274 -0.133793 -0.251413 127 127 0
-0.477380 -0.407394 -0.319485 0 127 127
0.002998 0.395467 0.445613 76 0 153
-0.070021 0.356307 0.077171 76 0 153
-0.473416 -0.287431 -0.153232 0 127 127
0.394068 -0.101697 -0.204522 127 127 0
0.448023 -0.461902 -0.242901 76 153 0
-0.489691 -0.065611 -0.126704 0 255 0
0.496083 -0.461902 -0.157472 76 153 0
0.102567 -0.429474 -0.136482 76 0 153
0.402876 -0.328110 -0.187612 153 0 76
-0.032758 0.358052 0.807979 76 0 153
-0.005254 -0.047322 -0.276991 153 76 0
-0.041092 -0.443965 -0.359414 76 0 153
-0.068447 0.313661 0.011738 76 0 153
-0.390914 -0.417254 -0.185099 0 127 127
0.427999 -0.235838 -0.187047 153 0 76
-0.393166 -0.407183 -0.232023 0 127 127
-0.578845 -0.095253 -0.230590 0 255 0
-0.003124 0.257334 0.837000 76 0 153
0.468582 -0.057956 -0.045466 127 127 0
0.010705 -0.426609 -0.349257 76 0 153
0.053192 0.173870 0.909500 76 0 153
0.042721 0.314394 -0.066491 76 0 153
-0.471729 -0.070583 -0.049075 0 255 0
-0.010531 0.386311 0.784243 76 0 153
-0.023044 0.388598 -0.129364 153 76 0
-0.069895 0.318716 0.125329 76 0 153
-0.515643 -0.250179 -0.267986 0 127 127
-0.462217 -0.179455 -0.193912 0 127 127
-0.048540 0.412460 -0.157755 153 76 0
0.436103 -0.210529 -0.243956 153 0 76
0.297501 -0.063374 -0.222465 127 127 0
-0.020076 0.327679 0.942805 76 0 153
0.047712 0.216900 0.858748 76 0 153
0.049001 0.337532 -0.134604 153 76 0
0.553185 -0.461902 -0.254888 76 153 0
-0.011236 0.466590 0.873812 76 0 153
-0.079426 -0.106353 -0.213540 153 76 0
-0.063668 -0.043567 -0.252575 153 76 0
-0.558499 -0.461902 -0.261624 127 0 127
0.053994 0.357975 -0.143954 153 76 0
0.046697 0.348915 0.201971 76 0 153
0.476763 -0.080683 -0.034469 127 127 0
0.500933 -0.187554 -0.245726 153 0 76
0.422976 -0.373939 -0.137497 153 0 76
-0.580030 -0.428370 -0.308114 127 0 127
-0.029352 0.421201 -0.271389 153 76 0
0.520841 -0.461902 -0.309458 76 153 0
0.030103 0.564511 0.628566 76 0 153
-0.068608 0.355974 0.302130 76 0 153
0.506470 -0.133793 -0.198528 127 127 0
0.588684 -0.068157 -0.192742 127 127 0
0.082233 0.304799 -0.222639 153 76 0
0.548771 -0.461902 -0.115359 76 153 0
0.402930 -0.444309 -0.088737 76 153 0
-0.027024 -0.226054 -0.288726 153 76 0
-0.438927 -0.301802 -0.246744 0 127 127
0.504685 -0.461902 -0.196216 76 153 0
-0.087175 0.195969 -0.206150 153 76 0
-0.000669 0.227550 0.820011 76 0 153
-0.064611 0.232984 -0.161062 153 76 0
-0.029481 0.513165 -0.255951 153 76 0
-0.577728 -0.090952 -0.196673 0 255 0
-0.008572 -0.431473 -0.357003 76 0 153
0.038639 0.133610 0.900836 153 0 76
-0.030211 0.430412 0.269334 76 0 153
-0.433084 -0.461902 -0.342784 127 0 127
0.010703 0.171832 0.832167 76 0 153
0.453017 -0.113190 -0.362893 127 127 0
-0.085489 -0.461902 -0.178149 76 0 153
-0.439566 -0.123648 -0.217376 0 255 0
-0.554742 -0.117694 -0.192107 0 255 0
-0.044649 0.383153 0.799595 76 0 153
0.042634 0.319147 0.196497 76 0 153
-0.125427 -0.430692 -0.129575 76 0 153
-0.504170 -0.331775 -0.140040 0 127 127
-0.023312 -0.461902 -0.103160 76 0 153
-0.423301 -0.359909 -0.170627 0 127 127
-0.045130 0.387861 -0.033201 76 0 153
0.007899 -0.461902 -0.107151 76 0 153
0.638560 -0.067411 -0.191789 127 127 0
-0.062685 0.370549 -0.058178 76 0 153
0.425526 -0.032016 -0.195228 127 127 0
0.047152 0.012091 -0.224836 153 76 0
-0.023698 0.147305 0.934511 153 0 76
0.365782 -0.422052 -0.168062 153 0 76
-0.468368 -0.098404 -0.059596 0 255 0
0.441063 -0.032016 -0.183620 127 127 0
-0.595368 -0.394620 -0.227093 0 127 127
0.566586 -0.404117 -0.255147 153 0 76
-0.020965 0.513761 -0.172133 153 76 0
0.021399 0.322698 -0.325575 153 76 0
-0.004189 0.341968 0.813782 76 0 153
0.044256 0.321652 0.008956 76 0 153
-0.000509 0.417491 0.243548 76 0 153
-0.011589 0.339788 -0.388161 153 76 0
0.006810 0.305674 -0.136713 153 76 0
-0.458578 -0.082789 -0.271075 0 255 0
-0.352025 -0.114284 -0.198133 0 255 0
-0.023342 0.467391 -0.191346 153 76 0
-0.004177 -0.180081 -0.142522 153 76 0
-0.000542 0.395895 0.052110 76 0 153
0.412038 -0.052911 -0.193735 127 127 0
0.020399 0.456371 0.707399 76 0 153
0.137124 -0.461902 -0.224778 76 0 153
-0.423079 -0.102656 -0.204101 0 255 0
-0.119491 -0.406147 -0.176224 153 76 0
-0.032654 0.220877 -0.142653 153 76 0
-0.045333 -0.461902 -0.275430 76 0 153
0.499641 -0.351938 -0.135484 153 0 76
-0.096621 0.380572 -0.250485 153 76 0
0.127257 -0.461902 -0.197670 76 0 153
0.523256 -0.315360 -0.260123 153 0 76
-0.086996 0.212780 -0.203775 153 76 0
-0.536684 -0.461902 -0.191302 127 0 127
0.067339 0.275874 -0.217977 153 76 0
-0.439147 -0.063782 -0.184540 0 255 0
-0.540447 -0.195884 -0.222965 0 127 127
-0.628715 -0.461902 -0.165498 127 0 127
-0.047258 0.315724 -0.136713 153 76 0
0.494881 -0.133793 -0.172864 153 0 76
0.477050 -0.325472 -0.142605 153 0 76
-0.093142 0.379931 -0.172450 153 76 0
-0.494632 -0.116371 -0.276727 0 255 0
0.500575 -0.322453 -0.280483 153 0 76
-0.429808 -0.100484 -0.234415 0 255 0
-0.671010 -0.062380 -0.221783 0 255 0
0.497849 -0.247273 -0.167586 153 0 76
-0.592595 -0.447877 -0.106508 127 0 127
-0.489036 -0.144634 -0.177857 0 127 127
0.526367 -0.461902 -0.121092 76 153 0
0.013613 0.245817 -0.285445 153 76 0
0.544435 -0.377931 -0.157106 153 0 76
0.530019 -0.461902 -0.172641 76 153 0
0.039190 0.405093 0.879209 76 0 153
0.038030 0.204866 -0.269846 153 76 0
0.435397 -0.146348 -0.201835 153 0 76
-0.524945 -0.174047 -0.184861 0 127 127
-0.495829 -0.461902 -0.132689 127 0 127
0.571498 -0.423939 -0.147677 153 0 76
-0.007897 0.142333 -0.145522 153 76 0
-0.070505 0.321768 0.073767 76 0 153
-0.424077 -0.461902 -0.195034 127 0 127
-0.070663 0.435840 0.840991 76 0 153
-0.067390 0.377368 0.345547 76 0 153
-0.025627 0.367330 -0.317105 153 76 0
0.004163 0.373581 -0.122877 153 76 0
0.425432 -0.117704 -0.175579 127 127 0
0.008330 -0.461902 -0.233080 76 0 153
-0.029976 0.395063 0.129008 76 0 153
-0.134863 -0.432577 -0.288601 76 0 153
-0.454011 -0.227028 -0.192251 0 127 127
-0.405596 -0.392573 -0.249245 0 127 127
0.530537 -0.407198 -0.304089 153 0 76
-0.472772 -0.323497 -0.283041 0 127 127
0.504013 -0.094211 -0.363844 127 127 0
0.471834 -0.443966 -0.360384 76 153 0
-0.024367 0.489100 -0.245096 153 76 0
-0.533599 -0.372212 -0.298808 0 127 127
-0.031407 0.225938 0.824830 76 0 153
-0.001684 -0.004020 -0.275542 153 76 0
0.518960 -0.340530 -0.150961 153 0 76
-0.011514 0.100257 -0.148839 153 76 0
0.466651 -0.245496 -0.161372 153 0 76
0.041099 0.163845 0.855037 76 0 153
0.041361 0.252251 0.941316 76 0 153
0.570103 -0.427580 -0.291123 153 0 76
0.011533 0.409715 0.231896 76 0 153
-0.605604 -0.056201 -0.215620 0 255 0
-0.003312 0.470800 -0.239844 153 76 0
-0.111103 -0.386823 -0.238033 153 76 0
-0.575645 -0.062957 -0.221085 0 255 0
0.012949 0.147305 0.861509 76 0 153
-0.582939 -0.461902 -0.207800 127 0 127
-0.057964 0.359585 0.342316 76 0 153
-0.489624 -0.115094 -0.075294 0 255 0
-0.020563 0.463365 0.621427 76 0 153
-0.597984 -0.461902 -0.226984 127 0 127
-0.564786 -0.328935 -0.246850 0 127 127
0.045343 0.028951 -0.196389 153 76 0
-0.083233 0.151264 -0.207354 153 76 0
-0.077066 0.390473 -0.158379 153 76 0
-0.027315 -0.259771 -0.140718 153 76 0
-0.507430 -0.461902 -0.275423 127 0 127
0.022606 -0.095759 -0.269636 153 76 0
-0.039846 0.133610 0.840117 153 0 76
-0.030978 0.432096 0.512656 76 0 153
-0.049127 0.370105 -0.082190 153 76 0
-0.022849 0.411349 0.223783 76 0 153
-0.035369 0.414846 -0.109121 153 76 0
-0.030221 -0.461902 -0.208969 76 0 153
-0.536394 -0.041257 -0.258163 0 255 0
0.498260 -0.461902 -0.120812 76 153 0
0.011649 -0.328078 -0.124613 153 76 0
-0.079308 0.114443 -0.204068 153 76 0
-0.048330 -0.195319 -0.149275 153 76 0
0.435313 -0.133793 -0.192255 127 127 0
0.503903 -0.133793 -0.229087 127 127 0
0.079214 0.323351 -0.251479 153 76 0
-0.467548 -0.067655 -0.275310 0 255 0
-0.503080 -0.461902 -0.226846 127 0 127
-0.372306 -0.461902 -0.149392 127 0 127
0.045265 0.460391 0.777164 76 0 153
-0.539357 -0.058470 -0.265041 0 255 0
0.017293 0.430073 -0.242533 153 76 0
-0.067385 0.421020 0.799420 76 0 153
-0.442283 -0.041137 -0.228777 0 255 0
0.583649 -0.451002 -0.306771 76 153 0
0.297821 -0.100538 -0.203122 127 127 0
0.427151 -0.215248 -0.230604 153 0 76
0.001583 0.578502 0.592567 76 0 153
0.038041 0.409661 -0.263163 153 76 0
0.037942 0.553279 0.617281 76 0 153
-0.075986 0.133610 0.887954 153 0 76
0.046286 0.343731 -0.058658 76 0 153
0.047362 0.512127 0.696413 76 0 153
0.070299 -0.461902 -0.265114 76 0 153
-0.152371 -0.440818 -0.262617 76 0 153
0.483021 -0.391460 -0.118651 153 0 76
-0.059303 -0.110376 -0.167851 153 76 0
-0.031631 -0.412834 -0.337380 76 0 153
-0.044476 0.525583 0.790182 76 0 153
-0.076326 0.099464 -0.194450 153 76 0
0.043017 0.495128 0.572151 76 0 153
0.035347 0.173129 -0.161191 153 76 0
0.555890 -0.432535 -0.118074 76 153 0
-0.037781 -0.461902 -0.180876 76 0 153
-0.108312 -0.336706 -0.212810 153 76 0
0.388782 -0.403399 -0.153632 153 0 76
0.044933 0.371874 0.851138 76 0 153
0.523692 -0.368929 -0.141217 153 0 76
0.513664 -0.461902 -0.076007 76 153 0
-0.517121 -0.071411 -0.042299 0 255 0
0.053571 0.129006 -0.198684 153 76 0
-0.478311 -0.095325 -0.113412 0 255 0
-0.435967 -0.461902 -0.305710 127 0 127
-0.613373 -0.423350 -0.184965 0 127 127
0.128668 -0.436360 -0.239928 76 0 153
0.478698 -0.032016 -0.256740 127 127 0
-0.069617 0.252353 0.863683 76 0 153
0.043490 0.411405 0.396471 76 0 153
-0.014994 0.538797 -0.255892 153 76 0
0.046058 0.431347 0.406210 76 0 153
0.029793 -0.461902 -0.068032 76 0 153
-0.090738 -0.327622 -0.162009 153 76 0
0.015886 -0.461902 -0.262723 76 0 153
-0.074979 -0.461902 -0.230718 76 0 153
0.034449 0.235668 0.964354 153 0 76
-0.479255 -0.255141 -0.161439 0 127 127
-0.032097 0.394605 -0.001392 76 0 153
-0.023802 0.575797 0.679990 76 0 153
-0.144756 -0.425484 -0.183246 76 0 153
0.312871 -0.054145 -0.200413 127 127 0
-0.071687 0.477482 0.455435 76 0 153
-0.059674 0.161549 0.847381 153 0 76
0.044280 0.353822 -0.005568 76 0 153
0.042869 0.454269 0.385137 76 0 153
0.342681 -0.434694 -0.190224 76 153 0
0.026811 0.302194 0.215580 76 0 153
0.039652 0.441704 0.351649 76 0 153
-0.105013 -0.410855 -0.289314 76 0 153
-0.084712 -0.185297 -0.234604 153 76 0
0.452166 -0.032016 -0.246156 127 127 0
0.014996 0.383345 -0.082190 153 76 0
-0.143374 -0.449411 -0.287441 76 0 153
-0.023134 -0.461902 -0.067483 76 0 153
0.517348 -0.247997 -0.245549 153 0 76
-0.496639 -0.377984 -0.308883 0 127 127
0.046197 0.406614 0.851913 76 0 153
-0.501425 -0.122625 -0.156671 0 255 0
-0.042567 0.292798 -0.300445 153 76 0
0.117924 -0.461902 -0.268494 76 0 153
0.049751 -0.384527 -0.293898 153 76 0
-0.056328 0.301931 -0.082190 76 0 153
-0.073166 0.199514 -0.260957 153 76 0
-0.457680 -0.032016 -0.209246 0 255 0
-0.035931 0.490957 0.383750 76 0 153
-0.586171 -0.461902 -0.176027 127 0 127
-0.562179 -0.420605 -0.123161 0 127 127
-0.608712 -0.461902 -0.150003 127 0 127
-0.039283 0.442219 0.297923 76 0 153
0.356544 -0.082845 -0.187151 127 127 0
0.449121 -0.046396 -0.158692 127 127 0
-0.034733 0.166711 -0.284606 153 76 0
0.506763 -0.461902 -0.316012 76 153 0
0.533264 -0.443016 -0.340661 76 153 0
-0.566169 -0.461902 -0.199710 127 0 127
0.470215 -0.177456 -0.256652 153 0 76
0.011810 0.332663 0.324006 76 0 153
0.053484 -0.328729 -0.280807 153 76 0
0.021482 -0.412922 -0.095343 76 0 153
-0.026571 -0.022245 -0.154879 153 76 0
0.567813 -0.079619 -0.195972 127 127 0
-0.480521 -0.196524 -0.175268 0 127 127
0.065365 0.350185 -0.153642 153 76 0
-0.619500 -0.440632 -0.152249 127 0 127
0.378554 -0.461777 -0.104243 76 153 0
-0.526230 -0.387908 -0.307926 0 127 127
-0.030886 0.226519 -0.288086 153 76 0
0.363048 -0.461902 -0.284235 76 153 0
-0.018679 0.168309 -0.143176 153 76 0
-0.030424 0.474992 0.351908 76 0 153
0.038047 0.085445 -0.255258 153 76 0
0.094945 -0.404901 -0.231528 76 0 153
0.411447 -0.289405 -0.244293 153 0 76
0.515945 -0.383430 -0.298665 153 0 76
-0.418291 -0.430945 -0.116148 0 127 127
0.538455 -0.070939 -0.190527 127 127 0
-0.107308 0.306279 -0.234517 153 76 0
-0.013646 0.398314 0.141469 76 0 153
-0.483534 -0.133793 -0.258289 0 255 0
-0.036042 -0.170972 -0.145778 153 76 0
-0.070304 0.398052 0.293847 76 0 153
-0.404793 -0.378664 -0.208404 0 127 127
-0.561251 -0.461902 -0.300884 127 0 127
-0.423117 -0.415204 -0.134519 0 127 127
-0.002485 0.540338 0.470020 76 0 153
-0.069347 -0.048348 -0.188490 153 76 0
-0.346112 -0.095184 -0.183877 0 255 0
0.039436 0.025791 -0.245914 153 76 0
0.001808 0.133610 0.845539 76 0 153
0.038888 0.308721 0.147012 76 0 153
0.438316 -0.461902 -0.171426 76 153 0
0.485776 -0.095520 -0.308330 127 127 0
-0.067002 0.119542 -0.173535 153 76 0
0.029001 0.356103 -0.126579 153 76 0
0.365868 -0.409219 -0.195824 153 0 76
0.042219 0.464539 0.746678 76 0 153
-0.405464 -0.459986 -0.326855 127 0 127
0.490935 -0.073189 -0.388767 127 127 0
-0.047745 0.498361 0.824502 76 0 153
0.463942 -0.215064 -0.169380 153 0 76
0.567230 -0.457758 -0.107076 76 153 0
-0.007627 0.194334 0.966132 76 0 153
-0.533538 -0.461902 -0.076789 127 0 127
-0.010868 0.147305 0.918546 153 0 76
0.037086 0.476696 0.542152 76 0 153
-0.103257 -0.362151 -0.177558 153 76 0
0.058736 0.347755 -0.283986 153 76 0
0.046748 0.481494 0.476512 76 0 153
0.357783 -0.461902 -0.227596 76 153 0
0.045515 0.331919 0.890906 76 0 153
0.016455 0.321461 -0.120269 153 76 0
-0.484738 -0.018182 -0.196031 0 255 0
0.414096 -0.363814 -0.282123 153 0 76
0.032279 0.553123 0.693458 76 0 153
0.035044 -0.094328 -0.172118 153 76 0
0.092966 -0.423103 -0.296898 76 0 153
0.046540 0.333179 0.136279 76 0 153
-0.018900 0.354646 -0.136713 153 76 0
-0.505561 -0.133793 -0.184703 0 127 127
-0.014348 0.163434 -0.287532 153 76 0
0.486635 -0.461902 -0.241904 76 153 0
-0.029518 -0.397963 -0.114113 153 76 0
-0.500380 -0.238796 -0.267791 0 127 127
-0.593536 -0.461902 -0.277316 127 0 127
0.024345 0.291366 -0.005854 76 0 153
-0.441708 -0.351520 -0.277465 0 127 127
-0.071841 0.366878 0.248496 76 0 153
-0.057727 0.042854 -0.174163 153 76 0
-0.046676 0.430322 0.887391 76 0 153
-0.062261 0.304415 0.055601 76 0 153
0.554443 -0.443789 -0.097287 76 153 0
0.438066 -0.133793 -0.225698 127 127 0
-0.013908 0.572522 0.541600 76 0 153
0.450592 -0.071114 -0.144083 127 127 0
-0.048732 0.290138 0.010686 76 0 153
-0.060375 0.138386 0.901193 153 0 76
-0.561526 -0.461902 -0.276408 127 0 127
0.044278 0.302343 -0.084422 76 0 153
0.044868 0.389116 0.285723 76 0 153
0.072659 -0.314569 -0.249054 153 76 0
-0.083928 0.282761 -0.261816 153 76 0
0.449559 -0.095604 -0.045110 127 127 0
0.310925 -0.083055 -0.183084 127 127 0
-0.013474 0.323827 -0.115267 153 76 0
-0.071643 0.440312 0.386201 76 0 153
-0.496564 -0.102215 -0.308161 0 255 0
-0.027578 0.579965 0.628580 76 0 153
0.600062 -0.431510 -0.214836 76 153 0
-0.053859 -0.167282 -0.155276 153 76 0
0.008935 -0.129262 -0.150067 153 76 0
0.440456 -0.086632 -0.376231 127 127 0
0.046821 0.283338 0.896084 76 0 153
-0.621809 -0.427491 -0.220280 0 127 127
-0.365609 -0.098755 -0.243241 0 255 0
-0.518730 -0.461902 -0.296036 127 0 127
0.045613 0.525748 0.563987 76 0 153
-0.035111 0.355687 -0.082190 153 76 0
-0.546263 -0.092780 -0.263923 0 255 0
0.457280 -0.106114 -0.090707 127 127 0
0.058164 0.225971 -0.190513 153 76 0
-0.525712 -0.312611 -0.156322 0 127 127
0.034179 0.267828 -0.269688 153 76 0
-0.492176 -0.116101 -0.356361 0 255 0
0.022068 0.317722 -0.355898 153 76 0
-0.109109 -0.381859 -0.183896 153 76 0
-0.009970 0.397737 -0.066487 76 0 153
-0.069665 0.411272 0.396815 76 0 153
-0.483852 -0.074011 -0.393086 0 255 0
0.089441 -0.417636 -0.135629 76 0 153
0.009439 0.159400 -0.146784 153 76 0
-0.002179 -0.411523 -0.334156 76 0 153
-0.064349 0.307523 -0.001362 76 0 153
0.422523 -0.461902 -0.251483 76 153 0
-0.062922 0.305439 0.172286 76 0 153
-0.052949 0.339876 -0.360615 153 76 0
-0.054331 0.285482 -0.140152 153 76 0
-0.537828 -0.032016 -0.186188 0 255 0
0.393406 -0.069542 -0.231132 127 127 0
0.652880 -0.083421 -0.211654 127 127 0
-0.099075 -0.377097 -0.265025 153 76 0
0.484349 -0.115197 -0.362982 127 127 0
-0.655746 -0.055808 -0.197352 0 255 0
0.012274 -0.112837 -0.153633 153 76 0
0.445146 -0.361757 -0.131106 153 0 76
0.018281 0.564020 0.548060 76 0 153
-0.072988 0.508210 0.526048 76 0 153
-0.605417 -0.411230 -0.201580 0 127 127
0.417828 -0.435851 -0.093712 76 153 0
-0.437643 -0.317499 -0.249704 0 127 127
-0.497975 -0.129436 -0.270149 0 255 0
0.497771 -0.181938 -0.182554 153 0 76
-0.124186 -0.406311 -0.194696 76 0 153
-0.047583 0.025152 -0.265871 153 76 0
-0.545315 -0.395473 -0.128870 0 127 127
-0.074776 0.139274 0.869013 153 0 76
-0.084326 -0.355891 -0.149721 153 76 0
-0.031495 0.363115 0.930534 76 0 153
0.035771 0.131953 -0.166933 153 76 0
-0.048031 0.289654 -0.045401 76 0 153
-0.048054 0.477007 0.374613 76 0 153
-0.075225 -0.252883 -0.258013 153 76 0
0.408125 -0.313100 -0.235388 153 0 76
-0.046751 0.454915 0.711419 76 0 153
0.006163 0.574115 0.562648 76 0 153
0.009120 0.057833 -0.273441 153 76 0
0.019771 0.470984 0.653850 76 0 153
0.432205 -0.097086 -0.161038 127 127 0
0.035354 0.545293 0.540925 76 0 153
-0.517249 -0.085553 -0.118883 0 255 0
0.584486 -0.461902 -0.145640 76 153 0
-0.623898 -0.077160 -0.187758 0 255 0
-0.081726 -0.133299 -0.219835 153 76 0
-0.030335 0.004364 -0.274454 153 76 0
-0.050122 0.544014 0.746409 76 0 153
0.415305 -0.059009 -0.247416 127 127 0
-0.599690 -0.461902 -0.122142 127 0 127
-0.099634 0.352995 -0.262621 153 76 0
-0.013892 0.271217 -0.291344 153 76 0
-0.067249 0.281233 -0.097781 153 76 0
0.556185 -0.377476 -0.177624 153 0 76
-0.478982 -0.034445 -0.165047 0 255 0
-0.580173 -0.374241 -0.254860 0 127 127
0.097022 -0.413424 -0.275526 76 0 153
-0.477417 -0.081289 -0.294963 0 255 0
-0.087557 -0.413138 -0.316936 76 0 153
-0.021480 -0.157959 -0.144697 153 76 0
0.099633 -0.461902 -0.248545 76 0 153
-0.029761 -0.461902 -0.330426 76 0 153
-0.033344 -0.100797 -0.152430 153 76 0
-0.037295 -0.424056 -0.346736 76 0 153
0.018900 0.462057 0.557044 76 0 153
-0.057448 -0.307538 -0.294662 153 76 0
0.034844 0.372819 -0.133797 153 76 0
-0.071511 0.352855 0.269206 76 0 153
-0.543784 -0.427184 -0.100509 0 127 127
-0.001982 0.396173 0.023986 76 0 153
-0.035295 -0.461902 -0.227798 76 0 153
-0.070347 0.431622 0.427263 76 0 153
-0.569787 -0.330184 -0.193095 0 127 127
0.042872 0.314746 0.163830 76 0 153
-0.071522 0.276455 0.883171 76 0 153
-0.042718 0.564080 0.702973 76 0 153
-0.475224 -0.375152 -0.304527 0 127 127
0.057790 -0.461902 -0.135924 76 0 153
0.012525 0.055463 -0.159009 153 76 0
-0.523819 -0.189693 -0.249440 0 127 127
-0.442941 -0.461902 -0.177274 127 0 127
0.047194 0.336447 0.066112 76 0 153
0.355431 -0.422721 -0.234307 153 0 76
0.033247 0.008708 -0.175197 153 76 0
-0.553211 -0.404706 -0.303047 0 127 127
-0.043351 0.192615 -0.147294 153 76 0
0.000240 -0.461902 -0.062564 76 0 153
-0.105648 -0.461902 -0.228837 76 0 153
0.448364 -0.322562 -0.146947 153 0 76
-0.083967 0.165056 -0.226535 153 76 0
-0.048640 0.460658 0.345187 76 0 153
-0.085395 -0.461902 -0.255334 76 0 153
-0.460119 -0.182674 -0.233309 0 127 127
-0.066595 -0.020745 -0.184315 153 76 0
0.310010 -0.056982 -0.232974 127 127 0
-0.146686 -0.461902 -0.169348 76 0 153
0.008147 0.453777 0.693822 76 0 153
0.027483 -0.461902 -0.211290 76 0 153
0.014816 -0.363294 -0.309586 153 76 0
-0.458230 -0.312544 -0.267760 0 127 127
0.043250 0.053780 -0.240267 153 76 0
-0.036208 0.340874 0.341681 76 0 153
-0.091899 -0.411189 -0.127069 76 0 153
0.009108 0.251748 -0.143146 153 76 0
0.468334 -0.121426 -0.155872 127 127 0
0.112107 -0.418610 -0.179010 76 0 153
-0.013120 -0.399202 -0.110969 76 0 153
0.031533 0.468152 0.701645 76 0 153
-0.052029 0.322392 -0.306036 153 76 0
-0.076644 -0.076110 -0.215609 153 76 0
0.502066 -0.284970 -0.157279 153 0 76
0.008343 -0.018266 -0.156991 153 76 0
-0.397971 -0.424631 -0.285248 0 127 127
-0.059895 0.181631 0.946339 153 0 76
-0.464593 -0.147241 -0.196016 0 255 0
0.036223 0.322015 0.244858 76 0 153
0.043928 0.539515 0.639382 76 0 153
-0.059013 0.324214 0.922094 76 0 153
-0.471252 -0.172435 -0.184477 0 127 127
-0.036250 -0.461902 -0.083118 76 0 153
0.562669 -0.443936 -0.326748 76 153 0
0.046045 0.529583 0.609235 76 0 153
-0.457943 -0.133793 -0.222481 0 255 0
-0.462127 -0.461902 -0.250351 127 0 127
-0.051470 0.139003 -0.156925 153 76 0
-0.554762 -0.461902 -0.163691 127 0 127
-0.027458 -0.461902 -0.256195 76 0 153
0.542112 -0.333607 -0.244233 153 0 76
0.048257 -0.146450 -0.181906 153 76 0
-0.544424 -0.366341 -0.139390 0 127 127
-0.065121 0.479851 0.701892 76 0 153
0.035862 -0.123866 -0.168711 153 76 0
-0.046537 0.111048 -0.157277 153 76 0
-0.537906 -0.401715 -0.307729 0 127 127
-0.042084 0.140772 -0.278510 153 76 0
0.037955 0.368333 0.054664 76 0 153
-0.515355 -0.461902 -0.218568 127 0 127
-0.079100 0.185443 -0.182602 153 76 0
0.481177 -0.461902 -0.141201 76 153 0
0.562222 -0.408034 -0.158013 153 0 76
-0.587951 -0.445443 -0.328531 127 0 127
0.044565 0.377840 0.261656 76 0 153
0.037072 -0.422982 -0.338529 76 0 153
-0.065221 0.449717 0.847038 76 0 153
0.027405 0.406608 0.252200 76 0 153
0.544883 -0.333272 -0.193110 153 0 76
-0.057177 -0.461902 -0.307285 76 0 153
-0.502953 -0.422490 -0.332835 0 127 127
-0.062333 0.340960 0.294103 76 0 153
-0.627717 -0.434227 -0.201052 0 127 127
0.041116 0.535565 0.709949 76 0 153
0.042609 0.414222 0.310106 76 0 153
-0.132305 -0.461902 -0.212117 76 0 153
-0.612475 -0.430413 -0.266698 0 127 127
0.455041 -0.461902 -0.290245 76 153 0
0.022376 0.339467 -0.310189 153 76 0
0.039260 0.296884 0.860002 76 0 153
-0.354088 -0.457968 -0.229552 127 0 127
-0.069352 0.359662 0.062092 76 0 153
0.564636 -0.432655 -0.303875 76 153 0
0.502305 -0.077880 -0.083568 127 127 0
-0.035876 0.147305 0.861480 76 0 153
-0.090937 -0.461902 -0.277239 76 0 153
0.430086 -0.461902 -0.185681 76 153 0
0.406837 -0.461902 -0.161351 76 153 0
-0.090436 -0.266796 -0.232815 153 76 0
-0.623808 -0.461902 -0.183207 127 0 127
0.546043 -0.061966 -0.208220 127 127 0
0.013014 0.391817 0.058033 76 0 153
-0.052809 -0.061078 -0.166540 153 76 0
-0.161820 -0.445756 -0.211500 76 0 153
0.521150 -0.032016 -0.217498 127 127 0
-0.020226 -0.116872 -0.281766 153 76 0
-0.045182 0.156369 0.836724 76 0 153
-0.057694 0.523763 -0.213415 153 76 0
-0.056695 0.379564 0.136241 76 0 153
0.005524 0.334588 0.938716 76 0 153
-0.512565 -0.052334 -0.063145 0 255 0
-0.358172 -0.461902 -0.198802 127 0 127
0.039112 0.195845 0.847719 76 0 153
-0.469426 -0.301650 -0.154782 0 127 127
-0.096490 0.355661 -0.162600 153 76 0
0.068025 -0.407384 -0.296804 76 0 153
-0.569965 -0.347240 -0.253780 0 127 127
0.017056 0.515450 -0.183091 153 76 0
0.025196 0.047021 -0.167325 153 76 0
0.533020 -0.461902 -0.148245 76 153 0
0.613694 -0.461902 -0.200465 76 153 0
0.038498 0.100223 -0.173757 153 76 0
0.463364 -0.117731 -0.275156 127 127 0
0.043441 0.390564 0.878394 76 0 153
-0.000960 0.512983 -0.257534 153 76 0
0.112957 -0.438227 -0.286330 76 0 153
0.358018 -0.461902 -0.201489 76 153 0
-0.072964 0.439952 0.821944 76 0 153
-0.061588 0.372217 0.038368 76 0 153
-0.060404 0.433596 0.870129 76 0 153
-0.120908 -0.451392 -0.111474 76 0 153
0.496644 -0.035264 -0.262693 127 127 0
0.037723 0.337992 0.283507 76 0 153
0.018562 -0.400223 -0.314937 153 76 0
-0.001597 0.341826 0.348288 76 0 153
-0.419897 -0.461902 -0.134896 127 0 127
-0.008586 0.296050 -0.306582 153 76 0
0.032200 0.394996 -0.090251 153 76 0
-0.042312 0.389734 -0.067981 76 0 153
-0.009755 0.277927 0.148133 76 0 153
0.036033 0.334276 -0.127565 153 76 0
