ply
format ascii 1.0
element vertex 1268
property float x
property float y
property float z
property uchar red
property uchar green
property uchar blue
end_header
-0.750123 0.142679 0.148770 204 51 127
-0.790035 0.121777 -0.010867 0 127 127
0.545089 -0.453391 -0.079134 0 0 255
0.700157 0.042601 0.226378 76 0 153
-0.461360 0.438251 0.278482 76 0 153
-0.203409 0.134299 0.190773 204 51 127
0.687102 -0.300348 0.237810 76 0 153
-0.495206 0.173007 0.301549 76 153 0
0.504492 0.111084 0.295907 76 0 153
0.434094 -0.453391 0.216960 0 0 255
-0.378961 0.247823 -0.212549 76 153 0
-0.497218 0.111101 0.007655 204 51 127
0.722010 0.016112 -0.212549 76 153 0
-0.777048 0.088509 -0.224148 76 153 0
-0.447960 0.111101 -0.071102 204 51 127
0.715219 -0.111907 0.301681 76 0 153
0.707783 0.149765 0.035818 255 0 0
-0.012065 -0.082654 -0.212549 76 153 0
0.454055 0.134299 -0.013143 204 51 127
0.358698 0.271420 0.279702 76 0 153
0.443609 0.111101 0.077410 204 51 127
0.362387 0.385320 0.288349 76 0 153
-0.087508 0.134299 0.233319 204 51 127
0.381859 0.298711 -0.212549 76 153 0
-0.725325 0.111101 -0.103695 204 51 127
-0.519098 -0.453391 0.158666 0 0 255
-0.641987 0.134299 0.033172 204 51 127
0.250625 -0.448610 0.255284 0 0 255
-0.738192 0.111101 -0.050082 204 51 127
0.044528 0.143485 0.327731 153 76 0
-0.722315 0.361722 0.301681 153 0 76
0.049603 0.134299 -0.013142 204 51 127
-0.796519 0.130723 -0.223110 76 153 0
0.046549 0.056349 -0.224148 76 153 0
-0.059239 -0.453391 -0.036263 0 0 255
0.456573 -0.453391 0.121506 0 0 255
-0.633465 0.192000 -0.212549 76 153 0
0.750035 -0.430091 0.301285 76 0 153
0.454534 0.138303 0.255284 153 0 76
0.728056 0.226481 -0.078594 127 0 127
-0.143616 0.111101 0.168411 204 51 127
-0.395156 0.132860 0.295190 76 153 0
-0.282135 0.178232 0.298125 76 153 0
-0.754208 -0.161164 0.233171 153 0 76
-0.186983 0.134299 0.141647 204 51 127
-0.771267 -0.430193 0.000986 0 0 255
-0.069322 -0.430193 0.061235 0 0 255
0.331780 -0.555923 -0.224148 76 153 0
0.678044 -0.056747 0.264467 76 0 153
-0.647062 0.111101 0.208437 204 51 127
-0.529958 -0.185085 -0.224148 76 153 0
0.342407 0.134299 -0.007141 204 51 127
0.123462 -0.430193 -0.108576 0 0 255
-0.755418 0.197540 0.301681 153 0 76
0.710538 0.474541 0.039935 0 0 255
-0.142178 -0.453391 0.001276 0 0 255
0.385226 -0.068257 -0.224148 76 153 0
-0.587888 0.103724 0.255284 204 51 127
-0.089676 -0.430193 0.150312 0 0 255
-0.733225 -0.453391 -0.081646 0 0 255
-0.195500 -0.375847 -0.224148 76 153 0
0.476174 0.380595 -0.224148 76 153 0
-0.755383 -0.011313 0.228176 153 0 76
0.672707 0.365157 0.227348 76 0 153
0.547310 -0.453391 0.228631 0 0 255
-0.683730 -0.081023 -0.224148 76 153 0
-0.768980 -0.592581 0.267816 153 0 76
0.641390 0.134299 -0.194654 204 51 127
0.641579 0.182513 -0.224148 76 153 0
-0.630514 0.242563 -0.224148 76 153 0
0.690739 -0.359690 -0.212549 76 153 0
-0.774541 0.277530 0.069180 0 127 127
0.032656 -0.174305 -0.224148 76 153 0
0.624580 0.094788 -0.212549 76 153 0
0.692650 0.134299 0.186228 76 0 153
-0.010719 0.468410 0.295123 76 0 153
-0.339963 -0.453391 0.117567 0 0 255
0.728056 0.331282 -0.029887 127 0 127
-0.071518 -0.356985 -0.224148 76 153 0
0.736703 0.211238 -0.020633 127 0 127
0.651666 -0.430193 -0.002358 0 0 255
0.728056 0.393338 0.085888 127 0 127
-0.713670 -0.285887 -0.212549 76 153 0
0.229887 0.214784 0.279702 76 0 153
0.389911 -0.557300 -0.224148 76 153 0
0.750035 -0.298271 0.292046 76 0 153
-0.750123 0.140111 -0.110900 204 51 127
-0.376834 -0.453391 -0.122929 0 0 255
0.683821 -0.230043 0.263069 76 0 153
-0.796519 -0.329413 0.274138 153 0 76
0.401815 -0.453391 -0.014566 0 0 255
0.377851 -0.025640 -0.212549 76 153 0
-0.735396 -0.453391 0.048934 0 0 255
-0.321500 -0.270696 -0.212549 76 153 0
-0.150391 0.280598 0.288349 76 153 0
-0.751898 0.103368 -0.187528 204 51 127
0.703638 0.105100 0.081958 255 0 0
0.152163 0.134299 0.218207 204 51 127
-0.144079 0.027678 -0.212549 76 153 0
0.712382 -0.363864 0.301681 76 0 153
0.108751 -0.430193 0.252004 0 0 255
-0.631401 -0.453391 -0.082718 0 0 255
0.721095 0.103368 -0.061836 255 0 0
0.100758 0.111101 -0.120451 204 51 127
0.104466 -0.250528 -0.212549 76 153 0
0.373318 -0.488222 -0.224148 76 153 0
0.638883 -0.430193 0.215361 0 0 255
-0.773560 -0.420615 0.241819 153 0 76
0.020478 0.111101 0.044435 204 51 127
0.615284 0.134299 0.025623 204 51 127
0.199024 0.111101 -0.129872 204 51 127
-0.678226 -0.143365 -0.224148 76 153 0
0.085129 -0.453391 -0.104456 0 0 255
0.029385 0.111101 -0.190287 204 51 127
0.525925 0.149765 0.255435 153 0 76
-0.719191 0.165978 0.267476 76 153 0
0.392861 -0.430193 -0.116753 0 0 255
-0.225052 0.111101 0.093993 204 51 127
-0.640731 0.244978 0.279702 76 153 0
0.746245 -0.530767 0.245491 76 0 153
0.588435 0.434508 0.295185 76 0 153
0.326384 0.130226 -0.224148 204 51 127
0.520336 0.111101 -0.027238 204 51 127
-0.521096 -0.453391 0.236300 0 0 255
0.194818 -0.527762 -0.212549 76 153 0
-0.615280 0.062754 -0.212549 76 153 0
-0.790285 0.149668 0.082982 0 127 127
-0.401795 0.134299 0.233059 204 51 127
0.353067 0.465901 0.255284 76 0 153
0.338856 0.111101 0.074317 204 51 127
0.394029 0.087995 -0.224148 76 153 0
-0.470667 -0.453391 0.030283 0 0 255
-0.255542 -0.592581 -0.213444 76 153 0
0.550629 0.134299 0.104101 204 51 127
-0.516556 -0.272649 -0.212549 76 153 0
0.204949 0.188950 -0.224148 76 153 0
-0.359083 0.428821 0.295400 76 153 0
-0.124381 0.111101 -0.015643 204 51 127
0.706217 -0.453391 -0.081016 0 0 255
-0.573461 0.328638 0.279702 76 153 0
0.511646 0.134299 0.179452 204 51 127
0.171655 0.134299 -0.187304 204 51 127
0.092938 -0.141677 -0.212549 76 153 0
0.029520 -0.453391 0.020975 0 0 255
-0.276056 -0.148662 -0.224148 76 153 0
-0.007207 0.336523 0.255284 153 76 0
0.401129 0.134299 0.108455 204 51 127
-0.285158 -0.277601 -0.224148 76 153 0
0.408644 -0.430193 -0.178993 0 0 255
-0.126858 0.134299 0.226906 204 51 127
-0.762003 -0.464318 -0.224148 76 153 0
0.750035 0.014677 0.247953 76 0 153
-0.785208 0.399555 0.044671 0 127 127
0.575737 0.134299 0.059622 204 51 127
0.531924 -0.430193 0.095913 0 0 255
-0.444426 0.174272 0.301641 76 153 0
0.493892 -0.430193 -0.101740 0 0 255
0.431754 0.189287 -0.224148 76 153 0
-0.783188 0.223997 0.080650 0 127 127
-0.216304 -0.430193 -0.186544 0 0 255
-0.463308 0.111101 -0.189764 204 51 127
0.021282 0.134299 0.114290 204 51 127
0.607955 0.229351 0.299639 76 0 153
-0.069639 0.198726 0.266769 153 76 0
-0.406710 0.134299 -0.012608 204 51 127
0.180166 0.174682 0.301577 76 0 153
-0.010470 0.021415 -0.212549 76 153 0
0.717828 -0.160170 -0.212549 76 153 0
0.138735 0.134299 -0.109933 204 51 127
-0.156633 -0.032555 -0.212549 76 153 0
0.531478 0.401696 0.278482 76 0 153
-0.783188 0.327697 0.040204 0 127 127
0.362971 -0.578987 -0.212549 76 153 0
-0.107141 -0.443206 -0.224148 76 153 0
-0.490340 -0.337337 -0.212549 76 153 0
0.243395 0.134299 -0.011356 204 51 127
0.156650 -0.308041 -0.212549 76 153 0
-0.481585 -0.430193 0.223562 0 0 255
-0.497327 0.141499 0.255284 153 0 76
0.744168 0.314117 0.217262 76 0 153
-0.255443 0.111101 0.004751 204 51 127
-0.029152 0.306565 0.294642 76 153 0
-0.024133 -0.367216 -0.224148 76 153 0
-0.644290 0.366586 -0.212549 76 153 0
-0.384823 0.447760 -0.212549 76 153 0
-0.055196 -0.157487 -0.212549 76 153 0
-0.054262 0.243282 0.295190 76 153 0
-0.723926 0.450425 0.224353 153 0 76
0.472853 -0.110653 -0.212549 76 153 0
-0.505084 0.193878 -0.212549 76 153 0
0.222889 -0.430193 -0.041132 0 0 255
-0.456259 0.134299 0.001826 204 51 127
-0.671095 0.413825 0.295634 76 153 0
0.293870 0.111101 0.083658 204 51 127
-0.286900 0.474541 0.275980 76 153 0
0.430369 -0.578678 -0.212549 76 153 0
-0.209043 0.134299 -0.023870 204 51 127
0.750035 -0.084444 0.263232 76 0 153
-0.000631 -0.044172 -0.224148 76 153 0
-0.287634 -0.430193 0.071174 0 0 255
-0.458289 0.355847 -0.212549 76 153 0
0.693174 -0.477883 0.301681 76 0 153
-0.219739 0.130192 0.329115 153 0 76
-0.222072 -0.453391 0.118086 0 0 255
-0.076871 0.169295 0.296529 76 153 0
0.103438 0.134299 -0.013398 204 51 127
0.726836 0.331171 -0.142238 127 0 127
0.637948 0.265416 0.255284 127 127 0
-0.513143 -0.525826 -0.224148 76 153 0
0.214735 0.134299 0.121218 204 51 127
0.251112 -0.430193 0.094908 0 0 255
0.743543 0.441467 -0.003604 127 0 127
-0.327323 -0.453391 -0.153450 0 0 255
0.252973 0.111101 -0.196793 204 51 127
-0.636972 -0.453391 0.025911 0 0 255
-0.350883 -0.165696 -0.224148 76 153 0
0.089034 -0.453391 -0.055675 0 0 255
-0.543724 0.190025 0.279702 76 153 0
-0.652325 0.134299 -0.019112 204 51 127
-0.719191 0.123914 0.272117 153 0 76
-0.641574 -0.453391 0.151761 0 0 255
-0.558677 0.134299 0.060413 204 51 127
-0.790023 0.143840 0.151889 0 127 127
-0.148896 -0.559678 -0.224148 76 153 0
-0.792138 0.210929 -0.151578 0 127 127
-0.328364 -0.581120 -0.224148 76 153 0
-0.409186 -0.450583 -0.224148 76 153 0
-0.439800 0.111101 0.143555 204 51 127
-0.750123 0.340989 -0.166371 76 0 153
-0.706292 0.328833 -0.212549 76 153 0
-0.750123 0.439212 -0.070391 153 0 76
-0.110992 0.404758 -0.212549 76 153 0
0.674295 0.055733 0.274846 76 0 153
-0.634402 -0.136797 -0.212549 76 153 0
-0.622409 -0.060789 -0.224148 76 153 0
-0.633349 0.458840 0.295072 76 153 0
0.260283 -0.001188 -0.224148 76 153 0
0.118355 0.236697 0.279702 76 0 153
0.743545 0.218422 0.196127 127 0 127
0.701798 -0.453391 -0.034465 0 0 255
0.718244 0.474541 0.281454 76 0 153
-0.795741 0.269369 -0.135576 0 127 127
0.503786 0.086047 -0.224148 76 153 0
0.151444 0.294349 0.288349 76 0 153
0.495868 -0.514979 -0.212549 76 153 0
-0.273382 -0.430193 0.124667 0 0 255
-0.765648 0.213801 0.224353 153 76 0
0.248782 -0.453391 -0.048580 0 0 255
-0.609491 0.142237 0.278482 76 153 0
-0.491143 0.134299 -0.118777 204 51 127
-0.692893 -0.430193 -0.060893 0 0 255
0.214367 -0.005199 -0.212549 76 153 0
-0.533718 0.111101 -0.123923 204 51 127
0.227043 0.438495 0.255284 76 0 153
0.023154 0.265905 0.262870 153 76 0
0.533528 -0.518061 -0.224148 76 153 0
-0.075948 0.447118 0.278482 76 0 153
0.726836 0.134810 -0.132733 127 0 127
-0.285349 0.130671 0.333687 153 0 76
-0.033227 0.247237 -0.212549 76 153 0
-0.078839 0.134299 0.068331 204 51 127
0.715150 0.090984 0.301681 76 0 153
-0.724155 0.022636 0.227044 153 0 76
-0.268445 0.363984 -0.212549 76 153 0
-0.407418 0.165203 -0.212549 76 153 0
-0.436339 0.134299 0.081399 204 51 127
-0.796421 0.274727 -0.224148 76 153 0
0.374564 0.134299 0.221098 204 51 127
0.051202 0.340838 -0.212549 76 153 0
-0.129513 -0.332690 -0.224148 76 153 0
-0.529654 0.111101 -0.180146 204 51 127
-0.378539 -0.430193 0.180314 0 0 255
-0.774541 0.323686 -0.037983 0 127 127
-0.302538 -0.437154 0.255284 0 0 255
0.053742 -0.466652 -0.224148 76 153 0
0.421664 0.111101 0.132163 204 51 127
-0.119848 -0.092124 -0.224148 76 153 0
0.002046 0.134299 -0.066503 204 51 127
-0.774541 0.232520 0.011773 0 127 127
-0.047771 -0.430193 -0.070021 0 0 255
0.507190 0.111101 0.226108 204 51 127
-0.264657 -0.430193 -0.083022 0 0 255
-0.576650 -0.556216 -0.212549 76 153 0
-0.344490 -0.453391 0.018905 0 0 255
0.238886 0.251125 0.279702 76 0 153
-0.697375 0.215874 -0.212549 76 153 0
0.569282 0.111101 -0.146092 204 51 127
0.494718 -0.453391 0.136799 0 0 255
0.386022 0.134299 -0.048421 204 51 127
-0.773846 0.474541 0.271128 153 0 76
0.715872 0.132338 -0.166152 153 0 76
-0.310564 0.459469 -0.212549 76 153 0
0.414672 0.137512 -0.224148 76 153 0
-0.149423 -0.453391 0.059865 0 0 255
0.703638 0.465387 -0.185091 153 0 76
-0.585582 -0.453391 -0.192737 0 0 255
-0.012335 -0.438712 -0.224148 76 153 0
-0.717844 -0.524936 -0.224148 76 153 0
-0.243688 0.111101 0.243477 153 0 76
0.651534 -0.429802 -0.224148 76 153 0
-0.476839 0.282411 0.279702 76 153 0
-0.301598 0.134299 0.150405 204 51 127
-0.544132 0.111101 0.196402 204 51 127
0.728056 0.205011 0.107314 127 0 127
0.085539 -0.430193 -0.138598 0 0 255
0.640788 0.134299 -0.136340 204 51 127
0.364829 -0.453391 -0.038837 0 0 255
0.652906 0.411580 -0.224148 76 153 0
0.677708 -0.240666 -0.212549 76 153 0
-0.731470 -0.264974 0.277486 153 0 76
-0.141464 0.134299 -0.090607 204 51 127
0.750035 0.184211 0.236619 76 0 153
-0.780655 0.109168 -0.128292 204 51 127
-0.729111 -0.194221 0.276528 153 0 76
-0.022486 -0.016740 -0.212549 76 153 0
0.622759 0.109178 0.294000 76 0 153
-0.512918 -0.453391 -0.048514 0 0 255
-0.625356 -0.362500 -0.212549 76 153 0
-0.440402 0.046461 -0.212549 76 153 0
0.412636 0.443189 0.278482 76 0 153
0.320912 -0.324258 -0.224148 76 153 0
-0.086473 0.250422 -0.212549 76 153 0
-0.150966 0.103368 0.267179 153 0 76
0.343199 -0.441719 -0.224148 76 153 0
-0.255274 0.134299 -0.121326 204 51 127
-0.774541 0.372087 -0.090966 0 127 127
0.427327 -0.430193 -0.036076 0 0 255
-0.151346 0.134299 -0.160298 204 51 127
0.541648 0.134299 -0.126164 204 51 127
0.211827 0.103368 0.277604 153 0 76
0.596910 0.111101 0.085369 204 51 127
-0.752978 -0.044462 0.301681 153 0 76
-0.120477 -0.453391 -0.183602 0 0 255
0.576966 0.111101 0.023303 204 51 127
-0.224880 0.297549 0.279702 76 153 0
0.253425 -0.453391 -0.151506 0 0 255
0.672707 0.129789 0.271859 127 127 0
0.234390 0.111101 -0.084371 204 51 127
-0.675601 -0.226305 -0.224148 76 153 0
0.106867 -0.430193 -0.003739 0 0 255
0.717424 0.103368 0.008760 255 0 0
-0.206592 0.115090 0.255284 204 51 127
0.312714 0.195548 0.288349 76 0 153
0.553248 -0.453391 0.150181 0 0 255
-0.022672 0.085814 -0.212549 76 153 0
0.579345 0.134299 -0.110836 204 51 127
-0.291460 0.111101 0.214212 204 51 127
0.202740 -0.430193 0.167615 0 0 255
-0.440764 -0.430193 -0.096889 0 0 255
0.212019 -0.430193 -0.138259 0 0 255
0.485462 -0.453391 0.008866 0 0 255
-0.644690 0.111101 0.154428 204 51 127
0.616108 -0.430193 0.042824 0 0 255
-0.397238 -0.430193 0.015359 0 0 255
0.741730 0.178355 0.077532 127 0 127
-0.598432 -0.324357 -0.224148 76 153 0
0.254527 -0.430193 -0.108718 0 0 255
0.743539 0.142806 0.176773 127 0 127
-0.044486 0.108819 0.278482 76 153 0
0.121185 0.051163 -0.224148 76 153 0
-0.492191 0.325721 -0.212549 76 153 0
-0.483201 0.134299 0.192789 204 51 127
-0.382027 0.367865 -0.212549 76 153 0
-0.456763 -0.296468 -0.212549 76 153 0
0.718344 -0.444280 0.255284 0 0 255
0.030388 -0.228302 -0.224148 76 153 0
0.687935 -0.453391 0.225845 0 0 255
0.222406 -0.430193 0.069502 0 0 255
-0.239586 0.111101 -0.061668 204 51 127
-0.510424 0.087396 -0.212549 76 153 0
-0.297609 -0.453391 -0.184373 0 0 255
-0.258223 -0.430193 -0.142144 0 0 255
0.566614 0.364429 0.279702 76 0 153
-0.315780 -0.453391 0.063212 0 0 255
-0.773321 0.178839 -0.189863 0 127 127
0.440034 0.355138 0.279702 76 0 153
0.521719 0.111101 0.107443 204 51 127
-0.716256 -0.331816 -0.224148 76 153 0
0.468457 -0.453391 0.251702 0 0 255
-0.785468 0.468742 -0.096707 0 127 127
-0.081314 0.060462 -0.224148 76 153 0
0.103670 0.111101 0.037054 204 51 127
0.715140 0.295501 -0.212549 76 153 0
-0.602941 -0.453391 -0.146792 0 0 255
0.199329 0.454270 -0.212549 76 153 0
0.750035 -0.096208 -0.223291 76 153 0
0.192814 0.146358 0.255284 153 0 76
-0.679301 0.134299 -0.065170 204 51 127
0.023154 0.224087 0.262678 153 76 0
-0.713649 -0.430193 -0.100390 0 0 255
0.239490 -0.453391 0.033449 0 0 255
0.268832 0.096378 -0.224148 76 153 0
-0.415148 0.111101 0.096493 204 51 127
-0.461152 0.149765 0.261063 153 0 76
0.013853 0.103368 0.261446 153 0 76
-0.116883 -0.033048 -0.212549 76 153 0
0.736703 0.373748 -0.003653 127 0 127
0.240577 0.226750 -0.212549 76 153 0
-0.139970 0.149765 0.274717 76 153 0
0.735697 0.468742 -0.067901 0 0 255
0.032548 -0.356532 -0.212549 76 153 0
0.750035 -0.557369 -0.212860 76 153 0
0.172055 -0.453391 0.159026 0 0 255
-0.179729 -0.430193 -0.206873 0 0 255
-0.098860 0.134299 -0.087917 204 51 127
-0.750123 0.435212 0.191277 153 76 0
0.196323 -0.453391 -0.007882 0 0 255
0.746287 0.086974 -0.212549 76 153 0
-0.573343 -0.430193 -0.058327 0 0 255
-0.746163 -0.430193 0.115879 0 0 255
0.204035 0.128311 -0.224148 76 153 0
0.530938 0.134299 -0.091034 204 51 127
-0.120574 0.134299 0.183960 204 51 127
0.311146 -0.430193 0.196459 0 0 255
0.333390 -0.516704 -0.224148 76 153 0
0.726836 0.428477 -0.044052 0 0 255
0.250394 0.449690 -0.224148 76 153 0
0.750035 -0.260369 0.238245 76 0 153
-0.753431 -0.083347 0.230577 153 0 76
-0.055587 -0.453391 0.097626 0 0 255
-0.167803 0.134299 -0.058600 204 51 127
-0.017169 0.152814 0.255284 153 76 0
-0.105231 -0.453391 0.109965 0 0 255
-0.171867 0.111101 0.214284 204 51 127
-0.079449 -0.453391 -0.081052 0 0 255
0.054246 0.392904 -0.224148 76 153 0
-0.587202 0.442015 -0.212549 76 153 0
-0.404190 0.221417 -0.212549 76 153 0
-0.346340 0.134299 -0.027819 204 51 127
0.291228 0.134299 0.153461 204 51 127
-0.293414 -0.430193 -0.026530 0 0 255
0.302465 -0.453391 -0.154523 0 0 255
-0.751305 -0.484427 0.301681 153 0 76
0.750035 -0.559238 0.283933 76 0 153
-0.332353 0.111101 -0.099035 204 51 127
-0.702692 0.461592 0.293871 76 153 0
-0.719068 -0.222943 -0.212549 76 153 0
0.179556 -0.430193 0.230107 0 0 255
-0.161750 -0.453391 -0.046632 0 0 255
-0.773321 0.396452 0.155653 0 127 127
-0.661993 -0.387621 -0.212549 76 153 0
0.558893 -0.424017 -0.224148 76 153 0
-0.750123 0.111223 0.176094 204 51 127
0.336083 -0.453391 0.016608 0 0 255
0.179276 0.134299 -0.079244 204 51 127
-0.723989 -0.040548 0.268207 153 0 76
0.449020 0.282037 0.288349 76 0 153
0.498196 0.153490 -0.212549 76 153 0
0.572197 0.171432 0.300949 76 0 153
-0.538589 0.355409 -0.224148 76 153 0
-0.156001 -0.430193 0.226718 0 0 255
0.646019 -0.430193 -0.054837 0 0 255
-0.600421 0.134299 0.200646 204 51 127
-0.796519 0.228922 -0.224104 76 153 0
0.750035 0.324664 0.267651 76 0 153
0.602750 -0.514130 -0.224148 76 153 0
-0.773321 -0.451121 -0.064120 0 0 255
-0.275580 -0.405380 -0.224148 76 153 0
0.002012 -0.453391 -0.048487 0 0 255
-0.595032 -0.394209 -0.224148 127 127 0
-0.277520 -0.034094 -0.212549 76 153 0
-0.184013 -0.430193 0.066798 0 0 255
-0.322156 0.259648 0.279702 76 153 0
-0.179798 0.461578 0.255284 76 0 153
-0.058028 -0.430193 0.229172 0 0 255
0.466174 -0.430193 -0.199651 0 0 255
-0.263523 0.245860 -0.212549 76 153 0
-0.773321 0.401770 0.092431 0 127 127
-0.064863 0.111101 -0.176017 204 51 127
0.728056 0.286152 -0.061104 127 0 127
-0.501394 0.111101 0.220437 204 51 127
0.085527 0.474541 0.255815 76 0 153
-0.551183 0.144993 0.278482 153 0 76
0.450168 -0.025737 -0.224148 76 153 0
-0.739977 0.393843 0.301681 153 0 76
-0.609951 0.111101 0.086959 204 51 127
-0.419046 0.384579 -0.212549 76 153 0
0.353070 0.111101 -0.101161 204 51 127
-0.242406 0.134299 0.055091 204 51 127
-0.758767 -0.508631 -0.212549 76 153 0
-0.748002 -0.430193 0.167958 0 0 255
0.743560 0.431230 0.096533 127 0 127
-0.184489 -0.430193 -0.026565 0 0 255
-0.320525 -0.077024 -0.212549 76 153 0
-0.220681 -0.271657 -0.212549 76 153 0
0.078524 0.175532 0.278482 76 0 153
-0.447179 -0.430193 0.179657 0 0 255
0.432557 0.134299 -0.070655 204 51 127
0.726846 0.111079 0.224353 76 0 153
0.370605 -0.430193 0.144563 0 0 255
-0.173785 -0.430193 0.105510 0 0 255
-0.773321 0.446647 0.001872 0 127 127
0.539501 0.272758 -0.212549 76 153 0
-0.347945 -0.430193 0.081458 0 0 255
-0.335359 0.442127 0.255284 76 0 153
-0.158495 0.111101 0.069611 204 51 127
0.264658 -0.453391 -0.085307 0 0 255
-0.642763 0.134095 0.336931 153 0 76
0.084189 0.111101 0.148205 204 51 127
-0.466041 0.111101 -0.129816 204 51 127
0.037405 0.111101 0.183505 204 51 127
-0.222742 -0.309800 -0.224148 76 153 0
0.556392 0.111101 -0.053863 204 51 127
-0.485422 -0.430193 -0.101293 0 0 255
-0.590219 -0.453391 0.052493 0 0 255
-0.034552 0.440191 -0.212549 76 153 0
0.239349 0.399555 0.297054 76 0 153
0.155254 -0.031714 -0.224148 76 153 0
0.712419 0.474541 0.121421 0 0 255
0.145153 0.103368 0.263839 153 0 76
0.665052 0.111101 0.080951 204 51 127
0.063975 0.111101 0.039648 204 51 127
0.690562 0.460594 0.224353 76 0 153
0.347466 -0.453391 -0.175706 0 0 255
-0.633991 0.428145 0.255859 76 0 153
-0.235473 0.447570 0.255284 76 0 153
-0.165189 0.392771 -0.212549 76 153 0
-0.572658 0.104902 -0.212549 76 153 0
-0.434195 -0.453391 -0.163279 0 0 255
-0.004958 0.390119 -0.212549 76 153 0
-0.576380 0.474541 -0.223814 76 153 0
0.750035 -0.316675 -0.221104 76 153 0
-0.186695 0.399555 0.278788 76 153 0
0.200886 -0.104560 -0.224148 76 153 0
0.359957 -0.453391 0.169451 0 0 255
-0.796519 -0.157496 -0.218501 76 153 0
0.737649 0.225267 -0.195150 127 0 127
-0.734092 0.362794 0.224353 153 0 76
0.345352 -0.453391 0.091367 0 0 255
-0.270747 0.308054 -0.224148 76 153 0
-0.416183 0.134299 0.044030 204 51 127
-0.041729 0.268352 0.255284 153 76 0
-0.772622 0.404917 0.224353 153 0 76
0.500789 0.134299 -0.142816 204 51 127
0.708382 -0.200097 0.301681 76 0 153
-0.652077 0.143477 -0.224148 76 153 0
0.157776 -0.430193 -0.174627 0 0 255
-0.712304 0.293398 0.295725 153 0 76
-0.773321 0.273119 -0.160381 0 127 127
0.728056 0.389232 0.144561 127 0 127
0.675053 0.245157 -0.224148 76 153 0
0.448806 0.134299 0.180713 204 51 127
-0.136293 0.134299 0.041067 204 51 127
-0.128418 -0.453391 0.184353 0 0 255
-0.068235 0.394934 -0.212549 76 153 0
-0.796519 -0.194283 0.263379 153 0 76
0.459460 0.417338 0.278482 76 0 153
0.723949 0.258109 0.224353 76 0 153
0.061101 -0.004854 -0.224148 76 153 0
0.194965 0.134299 -0.021635 204 51 127
0.343370 0.134299 0.233504 204 51 127
0.333075 0.111101 -0.074112 204 51 127
-0.594676 0.437422 0.295186 76 153 0
0.317068 0.111101 0.225442 204 51 127
-0.499187 -0.559364 -0.224148 76 153 0
0.427163 -0.430193 0.066838 0 0 255
0.294014 0.111101 -0.159283 204 51 127
-0.609886 0.310920 -0.212549 76 153 0
-0.434970 -0.453391 0.055251 0 0 255
0.449077 0.061349 -0.212549 76 153 0
-0.460784 -0.430193 0.117300 0 0 255
0.445982 0.201866 0.279702 76 0 153
0.641244 -0.430193 -0.176781 0 0 255
-0.120732 0.437570 -0.212549 76 153 0
-0.079853 0.111101 0.017489 204 51 127
-0.773321 0.391293 -0.197141 0 127 127
0.195766 0.111101 0.041302 204 51 127
0.728056 0.399093 -0.090708 127 0 127
-0.181794 0.173134 0.301565 76 153 0
-0.398012 -0.516209 -0.224148 76 153 0
-0.535577 -0.453391 0.053268 0 0 255
0.330696 0.111101 0.127485 204 51 127
-0.716472 0.134299 -0.127704 204 51 127
-0.410072 -0.053352 -0.212549 76 153 0
0.231733 0.134299 0.025232 204 51 127
0.661374 -0.453391 -0.079843 0 0 255
0.205675 0.363646 -0.212549 76 153 0
-0.275976 -0.453391 -0.006817 0 0 255
-0.730599 0.441685 0.301681 153 0 76
-0.733847 -0.131947 -0.212549 76 153 0
0.641580 0.441057 0.255284 127 127 0
0.724618 -0.430193 -0.202151 0 0 255
-0.270303 0.134299 0.171324 204 51 127
0.202613 0.345871 0.288349 76 0 153
-0.112259 -0.430193 0.007615 0 0 255
0.728841 -0.259202 -0.224148 76 153 0
0.218650 -0.408073 -0.212549 76 153 0
0.736139 -0.329822 0.238793 76 0 153
-0.770809 0.433299 -0.212549 76 0 153
-0.792505 -0.035638 -0.212549 76 153 0
-0.625941 0.111101 -0.164974 204 51 127
0.651509 -0.150254 -0.212549 76 153 0
-0.747644 -0.430193 -0.123927 0 0 255
-0.718426 -0.419651 -0.212549 0 0 255
0.036544 -0.453391 0.175793 0 0 255
-0.774541 0.320672 -0.124809 0 127 127
-0.052632 -0.430193 -0.163789 0 0 255
0.152085 -0.453391 -0.028719 0 0 255
0.230112 0.111101 0.074906 204 51 127
0.198507 -0.141574 -0.212549 76 153 0
0.681504 -0.160533 0.260613 76 0 153
0.750035 0.401736 -0.216378 76 153 0
-0.426413 -0.309822 -0.224148 76 153 0
-0.146341 -0.430193 -0.104206 0 0 255
-0.581056 0.133192 0.295190 76 153 0
-0.391586 -0.430193 -0.021386 0 0 255
0.037073 0.234733 -0.212549 76 153 0
-0.545045 -0.430193 -0.130275 0 0 255
0.147578 0.111101 0.117992 204 51 127
0.374403 -0.415597 -0.224148 76 153 0
0.451311 0.111101 0.043920 204 51 127
0.057079 -0.453391 -0.013801 0 0 255
0.173187 -0.435760 -0.224148 76 153 0
0.673889 0.111101 0.140401 204 51 127
0.539728 -0.433181 0.255284 0 0 255
-0.401463 -0.453391 -0.145252 0 0 255
0.146633 -0.453391 0.070355 0 0 255
0.000177 0.203114 0.278482 153 76 0
0.672707 0.162983 0.273146 127 127 0
0.020637 0.442553 0.255284 76 0 153
-0.101186 -0.453391 0.237285 0 0 255
0.649750 -0.200357 -0.224148 76 153 0
0.223411 0.111101 0.219352 204 51 127
0.205161 -0.453391 -0.096536 0 0 255
0.197089 -0.257024 -0.224148 76 153 0
0.247099 0.134299 -0.114182 204 51 127
0.672707 0.214907 0.293454 76 0 153
-0.629541 0.134299 -0.057897 204 51 127
0.305199 -0.430193 -0.191044 0 0 255
0.079220 0.111101 -0.197941 204 51 127
-0.099158 0.442180 0.255284 76 0 153
-0.211025 -0.430193 0.012672 0 0 255
0.699008 -0.453391 0.092967 0 0 255
0.186956 0.298675 -0.212549 76 153 0
-0.555323 -0.453391 -0.012846 0 0 255
0.147926 0.350175 0.288349 76 0 153
-0.355519 0.134299 -0.134924 204 51 127
0.313621 -0.453391 0.076919 0 0 255
-0.121060 0.322503 0.288349 76 153 0
-0.740918 0.377897 -0.224148 76 153 0
0.614714 0.111101 0.001955 204 51 127
0.657776 0.112565 0.295918 76 0 153
0.700561 -0.453391 0.186752 0 0 255
0.730898 -0.592581 0.254525 76 0 153
-0.740983 0.267451 -0.224148 76 153 0
0.250585 0.134299 0.220149 204 51 127
-0.014578 0.134299 0.020576 204 51 127
-0.051438 0.111101 -0.027980 204 51 127
-0.536483 0.284292 0.288349 76 153 0
-0.688493 0.217134 0.278482 76 153 0
-0.765168 0.458551 0.301681 153 0 76
-0.172907 -0.430193 0.141930 0 0 255
0.385083 -0.453391 -0.180499 0 0 255
0.521567 -0.290570 -0.224148 76 153 0
-0.688545 -0.453391 0.175765 0 0 255
-0.014547 -0.178250 -0.212549 76 153 0
-0.796519 0.238692 0.230825 153 0 76
-0.310750 0.134299 -0.122855 204 51 127
-0.407153 -0.129740 -0.212549 76 153 0
0.592338 -0.453391 0.229555 0 0 255
-0.340205 -0.453391 0.171367 0 0 255
-0.773380 0.327020 -0.201090 76 0 153
-0.144168 0.079633 -0.212549 76 153 0
-0.200833 0.134299 0.075923 204 51 127
0.162838 0.006948 -0.212549 76 153 0
0.408283 0.111101 0.007083 204 51 127
0.525668 -0.453391 -0.019490 0 0 255
-0.645879 0.134299 -0.130720 204 51 127
0.014516 0.086070 -0.224148 76 153 0
-0.735031 -0.371817 0.267050 153 0 76
0.743549 0.452744 0.060671 127 0 127
-0.279428 -0.430193 0.162370 0 0 255
-0.496270 0.111101 -0.095887 204 51 127
0.228177 -0.430193 0.146616 0 0 255
0.140454 0.317999 -0.224148 76 153 0
-0.746940 0.077442 -0.212549 76 153 0
-0.329445 0.003612 -0.212549 76 153 0
-0.740940 -0.549089 0.282654 153 0 76
-0.385666 0.111101 0.112582 204 51 127
-0.764995 -0.013755 0.301681 153 0 76
0.598426 0.383162 -0.212549 76 153 0
-0.290012 0.088753 -0.224148 76 153 0
-0.661423 -0.430193 -0.203571 0 0 255
0.578192 0.134299 0.140581 204 51 127
0.171664 0.238924 0.288349 76 0 153
-0.519074 0.134299 -0.159259 204 51 127
-0.796519 0.190766 -0.222300 76 153 0
-0.456992 0.111101 -0.034533 204 51 127
-0.163724 0.134299 -0.197040 204 51 127
0.744858 0.156873 0.025051 127 0 127
-0.190768 0.446316 0.295191 76 153 0
0.328784 0.111101 -0.189571 204 51 127
-0.470156 0.133462 -0.224148 76 153 0
-0.796519 0.045494 0.273967 153 0 76
-0.673350 0.134299 0.151073 204 51 127
0.537929 0.120752 -0.224148 76 153 0
-0.512830 0.111101 0.179752 204 51 127
-0.393062 0.111101 0.006324 204 51 127
-0.099029 -0.515879 -0.212549 76 153 0
0.554877 -0.017531 -0.212549 76 153 0
0.080473 -0.533359 -0.224148 76 153 0
-0.510594 0.154536 -0.224148 76 153 0
0.613679 0.253870 0.278482 76 0 153
-0.451018 -0.097324 -0.224148 76 153 0
0.353687 -0.238288 -0.212549 76 153 0
0.158838 0.115651 0.295297 76 0 153
-0.681463 -0.453391 -0.040611 0 0 255
-0.601170 0.373847 -0.224148 76 153 0
-0.683196 -0.453391 0.070643 0 0 255
-0.003442 0.134299 -0.187752 204 51 127
0.750035 -0.395546 0.274221 76 0 153
0.616174 -0.453391 -0.001556 0 0 255
0.750035 -0.017486 0.255174 76 0 153
0.704702 0.162542 0.301681 76 0 153
-0.796519 -0.562483 0.281502 153 0 76
0.726836 0.381233 0.200117 127 0 127
-0.046537 0.111101 0.019674 204 51 127
-0.133897 0.111101 -0.139924 204 51 127
-0.419198 0.134299 -0.174714 204 51 127
-0.342734 0.331596 -0.224148 76 153 0
-0.463533 -0.453391 0.081538 0 0 255
-0.004963 -0.114677 -0.212549 76 153 0
0.469470 0.122147 -0.212549 76 153 0
0.134559 -0.546942 -0.212549 76 153 0
-0.699888 -0.430193 0.024363 0 0 255
0.590662 -0.068983 -0.224148 76 153 0
0.723766 -0.244172 0.301681 76 0 153
-0.013703 0.240584 0.295918 76 0 153
0.491240 -0.430193 0.247468 0 0 255
-0.332069 0.076874 -0.212549 76 153 0
0.730048 -0.025532 0.301681 76 0 153
0.407484 -0.008884 -0.224148 76 153 0
-0.234890 -0.170920 -0.224148 76 153 0
-0.243315 0.111101 -0.147225 204 51 127
0.726792 0.474541 -0.135377 0 0 255
-0.184101 -0.329145 -0.212549 76 153 0
-0.308215 0.134299 -0.031064 204 51 127
0.431604 0.402396 -0.224148 76 153 0
0.633952 -0.560625 -0.224148 76 153 0
0.309762 -0.009816 -0.224148 76 153 0
0.634400 0.351048 -0.212549 76 153 0
-0.138064 0.111101 0.107993 204 51 127
0.750035 -0.452758 0.244552 76 0 153
0.694833 -0.560406 0.256287 76 0 153
-0.326781 0.134299 -0.060590 204 51 127
0.558682 -0.430193 0.122406 0 0 255
0.429190 -0.453391 -0.121270 0 0 255
0.524965 -0.063581 -0.212549 76 153 0
0.612942 -0.453391 0.155239 0 0 255
-0.024478 0.134299 0.191262 204 51 127
-0.696324 0.182813 -0.212549 76 153 0
-0.336190 0.111101 0.051092 204 51 127
-0.773321 0.320955 0.198384 153 76 0
0.281000 -0.453391 0.147687 0 0 255
-0.191305 0.111101 -0.127989 204 51 127
0.637907 -0.371657 -0.224148 76 153 0
0.269526 0.134299 0.120512 204 51 127
-0.773321 0.232930 -0.179556 76 0 153
0.672707 0.185728 0.243787 76 0 153
-0.168582 0.309656 -0.224148 76 153 0
0.715509 0.226108 -0.224148 76 153 0
-0.498095 -0.453391 0.049272 0 0 255
0.344125 0.145237 0.278482 153 0 76
0.696919 0.055852 0.301681 76 0 153
-0.715140 -0.430193 0.230257 0 0 255
0.465779 -0.430193 0.071962 0 0 255
-0.323589 -0.453391 0.208895 0 0 255
0.440030 0.111101 -0.137339 204 51 127
-0.570437 0.111101 -0.116591 204 51 127
-0.796519 0.031516 -0.219444 76 153 0
-0.601796 0.402520 0.301455 76 153 0
-0.232330 0.302471 -0.212549 76 153 0
0.312500 0.156114 0.296351 76 0 153
0.485797 -0.453391 0.224071 0 0 255
-0.773321 0.401971 -0.008910 0 127 127
0.222096 0.284241 0.288349 76 0 153
-0.749793 0.178131 -0.212549 76 0 153
0.229656 -0.453391 0.202786 0 0 255
-0.430642 0.194836 0.279702 76 153 0
-0.783188 0.281349 -0.075496 0 127 127
-0.434835 -0.430193 -0.192179 0 0 255
0.600571 -0.399484 -0.212549 76 153 0
0.081135 0.443181 -0.212549 76 153 0
-0.661701 -0.453391 0.247231 0 0 255
0.095565 0.386087 0.288349 76 0 153
0.625475 -0.453391 0.066865 0 0 255
0.040608 0.308203 0.278482 76 0 153
0.710329 0.203364 -0.166152 153 0 76
0.656091 -0.453391 0.133570 0 0 255
-0.360198 0.466099 0.295918 76 0 153
-0.400332 -0.453391 -0.190628 0 0 255
-0.107014 -0.410654 -0.224148 76 153 0
-0.327588 0.134299 0.216472 204 51 127
0.426490 0.093488 -0.224148 76 153 0
0.656221 0.134299 0.210051 204 51 127
0.458104 -0.263898 -0.224148 76 153 0
-0.410393 -0.430193 0.226002 0 0 255
0.607162 0.111101 0.129106 204 51 127
-0.404577 0.060318 -0.212549 76 153 0
-0.236369 -0.430193 0.082973 0 0 255
-0.438282 0.238124 -0.224148 76 153 0
-0.771156 0.103368 -0.161393 0 127 127
0.461259 -0.298232 -0.212549 76 153 0
0.585674 -0.430193 -0.139067 0 0 255
-0.331656 0.120299 0.295197 76 153 0
0.322897 -0.453391 0.215881 0 0 255
0.072172 0.111101 0.231833 204 51 127
0.614181 -0.430193 -0.115759 0 0 255
-0.757808 0.325651 0.301681 153 0 76
0.726836 0.270500 -0.190430 153 0 76
-0.495183 0.030342 -0.212549 76 153 0
-0.758558 0.182740 0.177956 153 76 0
0.536946 0.391105 -0.212549 76 153 0
0.556678 -0.430193 0.056538 0 0 255
0.736703 0.260263 0.107181 127 0 127
0.630940 0.134299 -0.044608 204 51 127
0.276632 0.046624 -0.224148 76 153 0
-0.671081 0.254648 0.295636 76 153 0
0.519879 -0.453139 -0.212549 0 0 255
-0.472158 -0.361473 -0.224148 127 127 0
0.702494 -0.592581 -0.220949 76 153 0
-0.328701 0.111101 -0.192058 204 51 127
-0.764734 -0.453391 0.214465 0 0 255
-0.127384 -0.199905 -0.224148 76 153 0
-0.246213 0.134299 0.145042 204 51 127
-0.295493 0.111101 -0.162354 204 51 127
-0.230896 -0.453391 0.224549 0 0 255
0.183446 0.433542 0.295184 76 0 153
-0.519767 0.363964 0.279702 76 153 0
0.672707 0.340392 0.298718 76 0 153
-0.783188 0.222413 -0.054903 0 127 127
-0.393795 0.282439 -0.212549 76 153 0
-0.513896 -0.456595 -0.224148 76 153 0
-0.330150 0.135849 -0.224148 76 153 0
0.198070 0.111101 0.241289 204 51 127
0.274074 0.111101 0.233699 204 51 127
-0.773321 0.212263 0.169192 0 127 127
0.434691 -0.176416 -0.212549 76 153 0
-0.558248 0.111101 -0.165106 204 51 127
-0.077256 0.199602 -0.224148 76 153 0
0.672707 0.359243 0.271814 127 127 0
0.414196 0.242679 0.288349 76 0 153
-0.035653 0.111101 -0.139436 204 51 127
-0.031286 0.156208 -0.212549 76 153 0
-0.681103 0.111101 -0.175571 204 51 127
-0.722056 0.017427 0.298929 153 0 76
-0.569490 -0.430193 0.011542 0 0 255
-0.274865 0.129413 0.278482 153 0 76
0.182638 0.134299 0.103760 204 51 127
0.712157 0.443817 0.301681 76 0 153
0.500206 0.296301 0.279702 76 0 153
0.719423 0.457734 -0.212549 153 0 76
0.726836 0.135713 -0.019652 255 0 0
0.657027 0.461573 0.293237 76 0 153
-0.430956 -0.425508 -0.224148 76 153 0
-0.278037 -0.217745 -0.212549 76 153 0
0.743873 0.427343 -0.091013 127 0 127
-0.626636 -0.430193 0.203664 0 0 255
-0.011713 -0.430193 0.229774 0 0 255
-0.790022 0.432491 0.121456 0 127 127
0.053100 -0.139699 -0.224148 76 153 0
0.676357 0.134299 -0.048588 204 51 127
0.684629 -0.453391 0.014060 0 0 255
-0.796519 -0.472124 0.268815 153 0 76
0.728056 0.303284 0.004752 127 0 127
0.690189 -0.054164 -0.224148 76 153 0
-0.469540 -0.450752 0.255284 0 0 255
-0.514840 0.134299 -0.066193 204 51 127
0.672707 0.397127 0.230930 76 0 153
0.095583 -0.453391 0.197184 0 0 255
0.407738 0.163823 0.298200 76 0 153
-0.104847 0.136478 -0.212549 76 153 0
0.553862 0.264772 0.279702 76 0 153
-0.047467 0.134299 -0.083508 204 51 127
0.520294 0.255832 0.288349 76 0 153
-0.055803 -0.023778 -0.212549 76 153 0
-0.618349 -0.016789 -0.224148 76 153 0
-0.051784 0.401541 0.278482 153 76 0
0.406875 0.134299 0.029255 204 51 127
0.576938 -0.284138 -0.224148 76 153 0
-0.521181 -0.394981 -0.224148 127 127 0
-0.736185 0.098199 0.224525 153 0 76
0.107016 0.134299 0.107762 204 51 127
0.165344 -0.587823 -0.224148 76 153 0
-0.392605 0.416041 0.278482 76 153 0
-0.796519 -0.227744 0.280511 153 0 76
0.135800 -0.453391 -0.158390 0 0 255
-0.259474 -0.453391 0.060804 0 0 255
0.613107 0.111101 0.226350 204 51 127
-0.755477 0.149765 -0.031736 204 51 127
0.276630 -0.510358 -0.224148 76 153 0
0.450556 0.111101 -0.046432 204 51 127
-0.418453 0.374211 0.288349 76 153 0
0.271930 0.345674 -0.224148 76 153 0
-0.504091 -0.430193 0.178787 0 0 255
-0.067149 0.134299 -0.116207 204 51 127
-0.739755 -0.286947 0.301681 153 0 76
-0.795987 0.171931 0.019506 0 127 127
-0.225105 -0.005666 -0.212549 76 153 0
0.726836 0.184640 -0.128753 127 0 127
-0.438862 0.134299 0.213081 204 51 127
0.138822 0.111101 -0.132819 204 51 127
0.401324 -0.430193 -0.071814 0 0 255
-0.680538 0.168194 0.255284 153 0 76
0.065341 -0.430193 -0.055980 0 0 255
0.590760 0.217578 -0.224148 76 153 0
-0.206421 -0.453391 -0.078491 0 0 255
0.057733 0.428145 0.269466 76 0 153
0.203300 -0.430193 0.100171 0 0 255
0.750035 -0.369961 -0.218791 76 153 0
0.218185 0.065453 -0.212549 76 153 0
-0.725324 0.134299 0.102454 204 51 127
0.153057 -0.376770 -0.212549 76 153 0
0.311533 -0.430193 -0.126693 0 0 255
0.130751 0.136535 0.278482 76 0 153
0.053608 0.111101 0.008499 204 51 127
-0.062568 -0.062226 -0.212549 76 153 0
0.436100 -0.484196 -0.224148 76 153 0
0.471789 -0.430193 -0.134630 0 0 255
0.253686 -0.112731 -0.212549 76 153 0
-0.609088 -0.453391 0.188169 0 0 255
-0.730657 0.302613 -0.212549 76 153 0
-0.758430 0.103368 0.101554 204 51 127
0.394738 -0.430193 0.185118 0 0 255
-0.104081 -0.292926 -0.224148 76 153 0
0.010675 0.134299 -0.103507 204 51 127
0.028434 -0.037942 -0.212549 76 153 0
-0.716299 -0.430193 0.104646 0 0 255
0.234271 0.111101 -0.032079 204 51 127
-0.692610 -0.453391 0.140866 0 0 255
-0.069164 -0.105252 -0.212549 76 153 0
0.299678 0.231843 0.279702 76 0 153
0.634229 -0.307955 -0.212549 76 153 0
0.076396 -0.430193 -0.169141 0 0 255
-0.358053 0.111101 0.134029 204 51 127
0.498863 0.134299 0.248838 153 0 76
0.243115 -0.453391 -0.190046 0 0 255
-0.165934 0.351240 -0.224148 76 153 0
0.725457 -0.430193 -0.093131 0 0 255
-0.767653 -0.133797 0.301681 153 0 76
-0.715482 0.106527 -0.224148 76 153 0
0.512775 -0.160489 -0.212549 76 153 0
-0.145093 0.134299 -0.002342 204 51 127
-0.304089 -0.133252 -0.224148 76 153 0
-0.796519 -0.404587 0.297987 153 0 76
-0.676897 0.007298 -0.212549 76 153 0
0.358163 0.032934 -0.212549 76 153 0
0.120662 -0.453391 0.125994 0 0 255
0.122125 -0.129036 -0.212549 76 153 0
-0.007473 0.148040 0.295107 76 0 153
-0.572568 -0.430193 0.140108 0 0 255
0.703638 0.132533 0.135358 255 0 0
0.347281 -0.430193 -0.052347 0 0 255
-0.773321 -0.431715 -0.166908 0 0 255
-0.721672 0.259977 0.224353 153 0 76
-0.783188 0.260316 -0.107423 0 127 127
-0.499022 0.388824 -0.212549 76 153 0
-0.223764 -0.112730 -0.224148 76 153 0
0.680106 -0.118607 0.263172 76 0 153
-0.672023 0.305869 -0.212549 76 153 0
-0.509938 0.463425 -0.224148 76 153 0
-0.565727 0.438709 0.278482 76 0 153
-0.107841 0.230718 0.279702 76 153 0
-0.628136 0.111101 -0.007748 204 51 127
0.206610 -0.453391 -0.169632 0 0 255
0.084710 0.134299 -0.165763 204 51 127
-0.213186 0.442528 -0.224148 76 153 0
-0.070395 0.111101 0.220025 204 51 127
0.042660 0.134299 -0.079557 204 51 127
-0.689620 0.134299 0.192409 204 51 127
0.421219 0.111101 0.197666 204 51 127
0.228547 -0.584799 -0.212549 76 153 0
-0.742604 0.111101 0.014495 204 51 127
-0.231897 0.137144 0.278482 76 153 0
-0.765779 -0.023109 -0.224148 76 153 0
0.477818 0.239688 -0.224148 76 153 0
-0.136971 0.444844 0.295190 76 153 0
-0.567080 -0.432974 -0.224148 76 153 0
0.080759 0.140933 0.295186 76 0 153
-0.581228 -0.004933 -0.224148 76 153 0
-0.790035 0.120768 -0.089541 0 127 127
-0.264571 -0.077791 -0.212549 76 153 0
0.425514 0.134299 -0.115748 204 51 127
0.234362 0.347953 0.288349 76 0 153
0.748330 0.243448 0.158749 127 0 127
0.289973 -0.453391 -0.049492 0 0 255
-0.529848 -0.149740 -0.224148 76 153 0
-0.760322 0.474541 0.162459 153 0 76
-0.404450 0.111101 0.138887 204 51 127
-0.242008 -0.453391 -0.090534 0 0 255
-0.761063 0.149765 -0.000592 204 51 127
-0.083193 -0.460317 -0.212549 76 153 0
0.585351 0.311118 -0.224148 76 153 0
0.210436 -0.430193 -0.075720 0 0 255
-0.448924 0.110051 -0.224148 76 153 0
0.456398 -0.453391 -0.160967 0 0 255
-0.292609 0.142678 0.255284 153 0 76
0.311865 0.129396 0.278482 76 0 153
0.726836 0.421866 0.026909 127 0 127
-0.344640 -0.453391 -0.206465 76 153 0
-0.394425 0.134299 0.191116 204 51 127
0.020680 0.111101 0.222111 204 51 127
0.013967 -0.453391 -0.096699 0 0 255
-0.481086 0.000210 -0.212549 76 153 0
0.719366 -0.535837 -0.224148 76 153 0
0.135348 0.474541 0.263421 76 0 153
-0.020562 -0.453391 -0.151711 0 0 255
-0.383515 0.182886 -0.224148 76 153 0
-0.218396 -0.453391 -0.120018 0 0 255
-0.129167 -0.430193 0.129292 0 0 255
-0.620679 0.134299 -0.100226 204 51 127
0.708270 0.149765 0.070904 255 0 0
-0.403560 -0.453391 0.101987 0 0 255
0.308956 0.134299 0.098935 204 51 127
0.743551 0.458259 0.157094 127 0 127
0.265678 0.191538 0.279702 76 0 153
-0.360123 0.165590 0.278482 76 153 0
-0.796519 0.279729 0.289526 153 0 76
0.401490 -0.453391 0.088916 0 0 255
-0.209532 -0.563763 -0.212549 76 153 0
-0.531543 -0.453391 -0.095166 0 0 255
-0.213550 0.348298 -0.224148 76 153 0
0.276202 0.436667 0.295186 76 0 153
0.432363 0.111101 -0.020721 204 51 127
0.105455 0.157165 -0.212549 76 153 0
0.657356 -0.430193 -0.139045 0 0 255
-0.445666 0.172176 -0.224148 76 153 0
-0.750123 0.409925 -0.172936 76 0 153
-0.348037 -0.453391 -0.077623 0 0 255
-0.546812 0.134299 -0.022903 204 51 127
-0.602237 -0.453391 0.119276 0 0 255
0.518120 0.452788 -0.224148 76 153 0
-0.062409 0.314184 -0.224148 76 153 0
-0.086097 0.271416 0.278482 76 153 0
0.726836 0.166298 -0.027123 127 0 127
0.697302 -0.430193 0.149673 0 0 255
-0.280015 -0.453391 0.217241 0 0 255
0.337158 0.134299 -0.143594 204 51 127
0.623704 -0.109141 -0.212549 76 153 0
-0.130254 0.111101 -0.072574 204 51 127
0.743756 -0.036520 -0.212549 76 153 0
0.138362 0.134299 -0.009580 204 51 127
0.133699 -0.453391 -0.055925 0 0 255
0.421954 -0.453391 0.128057 0 0 255
-0.342471 0.230801 -0.224148 76 153 0
0.507370 -0.430193 0.056394 0 0 255
0.552150 -0.453391 0.102128 0 0 255
-0.115974 0.355800 -0.212549 76 153 0
0.373294 -0.453391 -0.124769 0 0 255
-0.793614 0.165574 -0.053577 0 127 127
-0.766958 0.149765 -0.135550 204 51 127
-0.241782 0.049917 -0.212549 76 153 0
-0.794958 0.265292 0.142684 0 127 127
0.296980 0.111101 -0.096495 204 51 127
-0.385868 0.111101 -0.099087 204 51 127
-0.773321 0.452120 0.059282 153 0 76
-0.575078 -0.430193 0.225501 0 0 255
0.162555 -0.481335 -0.224148 76 153 0
0.566553 -0.430193 -0.023529 0 0 255
0.734832 0.347727 0.301681 76 0 153
-0.523434 0.111101 0.044635 204 51 127
-0.338006 0.323238 0.288349 76 153 0
0.630330 -0.453391 0.252722 0 0 255
0.743036 0.449034 0.218425 76 0 153
0.513289 0.195970 0.279702 76 0 153
0.117776 0.022281 -0.212549 76 153 0
-0.124421 -0.125419 -0.224148 76 153 0
-0.719908 0.081886 0.274220 153 0 76
0.646079 0.279633 0.295192 76 0 153
0.079613 0.186097 -0.224148 76 153 0
0.361622 0.237095 -0.212549 76 153 0
-0.166411 -0.453391 -0.155119 0 0 255
0.239393 -0.526923 -0.224148 76 153 0
-0.237283 0.181558 0.288349 76 153 0
-0.765782 -0.239069 -0.212549 76 153 0
0.665463 -0.453391 0.186698 0 0 255
-0.790032 0.126453 0.182187 0 127 127
-0.484476 -0.430193 0.080512 0 0 255
-0.764946 0.336223 0.224353 153 0 76
0.499830 -0.430193 -0.196200 0 0 255
0.735215 0.468742 0.194389 76 0 153
-0.673740 0.111101 -0.024191 204 51 127
0.728056 0.191100 0.012786 127 0 127
0.364392 0.134299 0.081928 204 51 127
-0.191824 0.134299 0.220540 204 51 127
-0.346493 0.046010 -0.224148 76 153 0
-0.118840 0.262647 0.288349 76 153 0
0.156278 -0.159103 -0.224148 76 153 0
-0.796519 0.143392 0.291606 153 0 76
0.690843 -0.468795 -0.212549 76 153 0
-0.218310 0.176197 -0.212549 76 153 0
0.176963 -0.453391 0.112748 0 0 255
-0.245143 -0.501626 -0.224148 76 153 0
0.086123 0.103368 0.259913 153 0 76
0.394629 -0.528728 -0.212549 76 153 0
-0.702612 0.408688 0.255284 76 153 0
0.726836 0.205499 0.158731 127 0 127
0.595182 0.399555 0.297010 76 0 153
0.145431 0.200039 -0.212549 76 153 0
0.082704 -0.430193 0.233106 0 0 255
-0.275303 -0.304792 -0.212549 76 153 0
-0.525158 -0.430193 0.004870 0 0 255
-0.288272 0.111101 -0.017967 204 51 127
0.517091 0.445557 0.255284 76 0 153
0.572558 0.111101 0.108295 204 51 127
0.058327 -0.430193 0.111770 0 0 255
0.150995 0.261391 -0.212549 76 153 0
0.702367 0.325873 0.301681 76 0 153
-0.796519 -0.520898 -0.212910 76 153 0
0.689456 -0.207716 -0.224148 76 153 0
-0.425825 -0.430193 0.001069 0 0 255
0.181647 -0.200886 -0.224148 76 153 0
-0.475710 -0.462677 -0.224148 76 153 0
-0.520981 -0.453391 0.089548 0 0 255
0.109268 -0.453391 -0.197615 0 0 255
-0.490436 -0.301222 -0.224148 76 153 0
-0.515218 -0.088403 -0.212549 76 153 0
0.386143 0.175647 0.278482 76 0 153
0.713803 0.103368 0.196325 204 51 127
0.384454 0.111101 -0.077922 204 51 127
-0.351549 0.391309 -0.224148 76 153 0
-0.796519 0.365196 0.298271 153 0 76
0.075564 0.066678 -0.212549 76 153 0
0.038968 0.259370 0.298777 76 0 153
0.012447 0.134299 0.189474 204 51 127
-0.023093 -0.430193 -0.011811 0 0 255
0.062961 -0.430193 -0.116252 0 0 255
0.425281 -0.067595 -0.224148 76 153 0
-0.750123 0.278578 0.207743 153 0 76
-0.766954 -0.290023 -0.212549 76 153 0
0.726836 0.203758 0.217780 76 0 153
0.124360 0.103701 -0.224148 76 153 0
-0.355080 -0.020864 -0.224148 76 153 0
-0.433214 0.324804 -0.212549 76 153 0
-0.628521 -0.592581 -0.220773 76 153 0
0.722908 -0.551651 0.246187 76 0 153
0.726836 0.184611 -0.198796 153 0 76
0.750035 0.073698 0.225779 76 0 153
0.496854 0.111101 0.194498 204 51 127
0.288623 0.111101 0.015513 204 51 127
-0.039274 -0.453391 -0.125381 0 0 255
-0.298238 0.187741 -0.212549 76 153 0
0.066062 0.121116 -0.224148 76 153 0
-0.345955 -0.137390 -0.212549 76 153 0
0.672707 0.240767 0.275559 76 0 153
-0.123207 -0.430193 0.066448 0 0 255
0.709822 -0.066182 0.230005 76 0 153
0.675325 0.024817 0.256322 76 0 153
-0.790022 0.431759 0.039938 153 0 76
0.666100 0.111101 0.239643 204 51 127
-0.242214 0.428197 0.278482 76 153 0
-0.774407 -0.486483 0.244015 153 0 76
0.162655 0.433532 0.255284 76 0 153
0.718902 -0.385159 0.240637 76 0 153
-0.246526 -0.430193 0.181256 0 0 255
-0.161250 -0.310775 -0.224148 76 153 0
-0.460222 0.134299 0.061458 204 51 127
-0.599598 0.134299 -0.071255 204 51 127
0.744187 0.152878 0.138854 127 0 127
-0.599603 0.111101 -0.103407 204 51 127
0.565451 -0.453391 0.187934 0 0 255
0.462918 -0.521065 -0.224148 76 153 0
-0.418792 0.111101 -0.056005 204 51 127
-0.075238 -0.202666 -0.224148 76 153 0
0.204142 0.134299 -0.156372 204 51 127
-0.001097 0.134299 0.091390 204 51 127
-0.188303 -0.453391 0.086846 0 0 255
0.271140 0.134299 0.195991 204 51 127
-0.075395 0.109338 0.294779 76 153 0
-0.369744 -0.453391 -0.032534 0 0 255
0.367608 0.437762 0.278482 76 0 153
-0.785487 -0.048791 0.229425 153 0 76
-0.256883 -0.453391 0.163048 0 0 255
-0.162470 0.134299 0.093563 204 51 127
-0.750123 0.387170 0.209974 153 76 0
0.307919 -0.063077 -0.224148 76 153 0
-0.740284 -0.430193 0.069373 0 0 255
-0.636203 -0.085873 -0.212549 76 153 0
0.190444 -0.430193 0.051306 0 0 255
0.082801 0.134299 -0.130069 204 51 127
-0.669422 0.134299 -0.192250 204 51 127
0.727530 0.141776 0.301681 76 0 153
0.352993 0.300102 -0.224148 76 153 0
-0.193944 0.138830 0.278482 76 153 0
-0.209943 0.248076 0.288349 76 153 0
0.712944 -0.085261 -0.224148 76 153 0
-0.638980 0.079929 -0.224148 76 153 0
-0.302821 0.198907 0.288349 76 153 0
0.332093 0.134299 -0.101570 204 51 127
-0.407363 0.111101 -0.142283 204 51 127
-0.525364 -0.430193 0.211623 0 0 255
0.292225 0.445760 -0.224148 76 153 0
0.083926 -0.453391 0.001344 0 0 255
-0.418018 0.134299 -0.108292 204 51 127
-0.417172 -0.430193 -0.077061 0 0 255
-0.654251 0.433350 0.278482 76 0 153
-0.663924 -0.453391 -0.138413 0 0 255
-0.482281 0.134299 0.099613 204 51 127
0.125042 -0.430193 0.042468 0 0 255
-0.483491 -0.189442 -0.224148 76 153 0
0.463676 0.449284 -0.212549 76 153 0
0.381389 0.111101 -0.195113 204 51 127
0.531009 -0.212370 -0.212549 76 153 0
-0.728418 -0.563967 -0.224148 76 153 0
0.215173 -0.040626 -0.212549 76 153 0
0.217271 -0.311436 -0.224148 76 153 0
-0.081996 -0.453391 -0.112651 0 0 255
0.672707 0.232141 0.227144 76 0 153
0.024659 0.403836 -0.224148 76 153 0
-0.472416 0.172467 0.278482 76 153 0
-0.550061 0.296075 -0.224148 76 153 0
-0.782441 -0.549506 0.246115 153 0 76
0.019039 -0.430193 0.236254 0 0 255
0.522442 0.111101 0.153807 204 51 127
-0.092625 -0.052980 -0.212549 76 153 0
-0.566419 -0.476183 -0.224148 76 153 0
-0.291788 -0.339363 -0.212549 76 153 0
0.699136 -0.453391 -0.110925 0 0 255
0.191444 0.212744 0.288349 76 0 153
-0.721565 0.131905 0.301681 153 0 76
-0.485146 -0.392595 -0.224148 76 153 0
0.659302 -0.453391 0.047805 0 0 255
0.687074 0.213936 -0.224148 76 153 0
-0.123340 0.178355 0.279123 76 153 0
-0.105998 -0.430193 -0.075521 0 0 255
-0.761688 -0.180236 -0.224148 76 153 0
-0.534631 0.134299 0.094958 204 51 127
0.656488 -0.453391 0.225042 0 0 255
-0.476222 -0.453391 -0.159176 0 0 255
0.123048 0.134299 0.199918 204 51 127
0.335847 -0.031110 -0.212549 76 153 0
0.136397 -0.430193 -0.012040 0 0 255
-0.069701 -0.314047 -0.212549 76 153 0
-0.299627 -0.562753 -0.212549 76 153 0
-0.174283 -0.234063 -0.224148 76 153 0
-0.336079 -0.430193 0.224583 0 0 255
0.341422 -0.175864 -0.212549 76 153 0
0.189294 -0.061931 -0.212549 76 153 0
0.750035 -0.328001 0.299652 76 0 153
0.702150 -0.014250 0.228273 76 0 153
-0.378072 0.134299 -0.196816 204 51 127
-0.525855 0.111101 -0.016376 204 51 127
-0.730319 -0.430193 -0.150311 0 0 255
-0.752946 -0.453391 -0.007084 0 0 255
0.738405 -0.410840 0.241493 76 0 153
0.414395 0.111101 -0.170722 204 51 127
-0.183503 0.088970 -0.212549 76 153 0
0.568396 0.273337 -0.224148 76 153 0
-0.796394 0.337785 0.145174 0 127 127
-0.498688 0.245752 -0.224148 76 153 0
-0.434998 -0.351741 -0.224148 127 127 0
0.621595 0.170444 0.278482 76 0 153
-0.172722 -0.513680 -0.212549 76 153 0
0.255838 0.134299 -0.078726 204 51 127
0.285164 -0.430193 0.233325 0 0 255
0.294418 -0.430193 0.114379 0 0 255
0.638202 0.134299 0.180876 204 51 127
-0.399539 0.193514 0.279702 76 153 0
-0.122558 -0.453391 -0.150443 0 0 255
0.499535 -0.430193 -0.005729 0 0 255
0.119141 0.474541 -0.215075 76 153 0
-0.029230 0.134299 0.110736 204 51 127
-0.224779 0.111101 0.192888 204 51 127
-0.326363 -0.430193 0.010716 0 0 255
0.750035 0.420620 0.257945 76 0 153
-0.247923 -0.430193 -0.186526 0 0 255
-0.368981 -0.430193 -0.188144 0 0 255
-0.003703 0.418036 0.295196 76 0 153
