ply
format ascii 1.0
element vertex 1275
property float x
property float y
property float z
property uchar red
property uchar green
property uchar blue
end_header
-0.031823 0.007615 0.202380 76 153 0
-0.182956 -0.305571 0.095425 76 153 0
-0.041670 -0.193151 -0.201461 76 153 0
-0.008122 -0.489397 0.205500 76 153 0
0.200227 -0.001367 -0.042965 76 153 0
-0.034505 0.599131 -0.089281 153 0 76
-0.172874 -0.682480 0.044399 76 153 0
-0.035556 -0.682480 -0.080780 76 153 0
-0.185603 -0.277041 -0.089413 76 153 0
0.119485 -0.511518 -0.166147 76 153 0
0.007557 0.968147 -0.066519 76 0 153
-0.201831 -0.548767 0.051176 76 153 0
-0.147684 -0.388598 0.144942 76 153 0
0.049156 -0.022714 0.199889 76 153 0
0.134265 -0.094888 -0.154806 76 153 0
-0.206037 -0.422834 0.010526 76 153 0
0.164791 0.057527 0.120577 76 153 0
0.125326 -0.310656 0.161288 76 153 0
-0.164149 -0.489117 -0.123862 76 153 0
-0.027292 -0.664643 0.192551 76 153 0
0.123196 -0.582330 0.166108 76 153 0
0.146245 -0.019945 0.144746 76 153 0
-0.209635 -0.577484 0.002556 76 153 0
-0.010585 -0.112547 -0.205553 76 153 0
-0.175561 -0.321221 0.108613 76 153 0
0.154538 -0.061672 0.133939 76 153 0
0.177637 0.289531 -0.104213 76 153 0
0.154316 0.323986 -0.131201 76 153 0
-0.091923 0.500764 0.026581 153 0 76
-0.156654 -0.287234 0.133253 76 153 0
0.058645 0.631307 -0.074493 153 0 76
-0.186452 -0.649154 -0.074626 76 153 0
0.114424 -0.682480 -0.118088 76 153 0
-0.014136 0.995165 0.069457 76 0 153
0.080546 0.678310 -0.039410 153 0 76
-0.107635 0.214261 0.176082 76 153 0
-0.123638 0.073763 0.163802 76 153 0
0.048829 -0.122233 0.199932 76 153 0
0.031210 0.065074 0.202251 76 153 0
0.089076 0.405488 0.117388 153 0 76
0.093770 0.583228 -0.004430 153 0 76
0.109619 -0.682480 -0.024236 76 153 0
0.067323 -0.467723 0.193362 76 153 0
-0.009437 0.758731 0.067149 153 0 76
-0.189300 0.259196 -0.080488 76 153 0
0.099738 0.447501 0.059017 153 0 76
0.009836 0.702484 0.084597 153 0 76
0.004432 -0.267773 0.205777 76 153 0
0.198834 -0.470974 -0.053550 76 153 0
-0.100001 0.000951 0.180485 76 153 0
0.056522 -0.260863 0.197836 76 153 0
0.155622 -0.179405 0.132526 76 153 0
-0.035254 -0.521873 0.201874 76 153 0
-0.035250 0.334371 0.197343 76 153 0
0.074035 0.099545 -0.190960 76 153 0
0.203697 -0.031218 0.016232 76 153 0
0.170369 -0.413997 -0.113685 76 153 0
0.130559 -0.649988 -0.151286 76 153 0
0.144171 -0.233054 -0.147205 76 153 0
0.025541 -0.321452 -0.203375 76 153 0
-0.114056 0.001226 -0.171533 76 153 0
-0.196936 0.031780 -0.062054 76 153 0
-0.096384 0.328858 -0.178940 76 153 0
-0.057991 -0.062718 0.197886 76 153 0
0.030463 -0.199034 0.202350 76 153 0
0.185759 -0.572384 -0.091724 76 153 0
0.152605 0.006385 0.136458 76 153 0
-0.144320 0.236703 -0.148310 76 153 0
0.043077 -0.441680 -0.201066 76 153 0
-0.055947 -0.170635 0.198733 76 153 0
0.004381 -0.500908 0.205783 76 153 0
-0.082648 0.269958 0.187673 76 153 0
-0.169629 0.337602 -0.107566 76 153 0
0.163703 -0.558633 -0.125495 76 153 0
-0.065858 -0.473655 0.194628 76 153 0
0.045952 0.662788 -0.080865 153 0 76
-0.202222 0.104993 -0.039883 76 153 0
-0.042710 -0.570087 0.203391 76 153 0
-0.198166 0.091212 -0.059083 76 153 0
0.058424 0.822428 -0.024086 76 0 153
-0.119551 -0.594940 -0.170081 76 153 0
-0.159953 -0.027171 0.128953 76 153 0
-0.190463 -0.526275 0.077100 76 153 0
-0.202383 -0.537137 -0.040500 76 153 0
-0.024277 0.327973 -0.200762 76 153 0
-0.026944 0.730499 0.073153 153 0 76
0.160834 -0.420652 -0.126112 76 153 0
-0.093857 -0.575562 -0.186143 76 153 0
0.071715 -0.399334 -0.191921 76 153 0
-0.031710 0.869454 -0.064007 76 0 153
-0.134684 0.418649 0.024094 153 0 76
0.150124 -0.461464 0.139692 76 153 0
0.078558 0.285856 -0.189086 76 153 0
-0.184935 0.224108 0.090648 76 153 0
-0.069703 0.358025 -0.177965 76 153 0
0.184551 -0.401728 -0.088117 76 153 0
0.085075 0.226445 -0.186387 76 153 0
0.089852 -0.287851 -0.184408 76 153 0
-0.135514 0.160516 0.154690 76 153 0
-0.077650 0.009332 0.189743 76 153 0
-0.202620 -0.445611 -0.036862 76 153 0
-0.048535 0.797492 -0.015487 153 0 76
0.095739 -0.514829 -0.181970 76 153 0
-0.149017 -0.548121 0.144980 76 153 0
0.084111 0.614806 0.044373 153 0 76
-0.095916 0.366021 0.161038 153 0 76
0.010573 -0.067879 -0.205345 76 153 0
-0.052096 0.659227 0.077481 153 0 76
-0.109049 0.191622 0.174997 76 153 0
-0.205803 -0.567478 -0.030615 76 153 0
0.204375 -0.352846 -0.011462 76 153 0
0.135773 0.368864 0.124063 153 0 76
0.203959 0.129760 -0.014615 76 153 0
0.204354 -0.300107 -0.011617 76 153 0
-0.020938 0.997990 -0.027743 76 0 153
-0.054114 0.809477 -0.028359 153 0 76
-0.058315 0.835115 -0.041514 76 0 153
0.204428 0.295165 0.010679 76 153 0
-0.147072 -0.214506 -0.146118 76 153 0
-0.150896 -0.682480 0.096980 76 153 0
0.141140 -0.281975 -0.149531 76 153 0
0.079937 0.415854 -0.112617 153 0 76
0.123097 -0.677438 0.137451 76 153 0
-0.106433 -0.636123 0.174067 76 153 0
0.188414 0.175435 0.078413 76 153 0
0.149624 -0.678693 0.104801 76 153 0
0.108848 -0.012822 -0.174309 76 153 0
0.197601 0.330257 0.035928 76 153 0
-0.205574 0.290474 -0.014421 76 153 0
-0.037174 -0.682480 -0.108425 76 153 0
-0.064653 -0.320524 -0.195504 76 153 0
-0.193371 -0.428113 -0.070660 76 153 0
-0.040469 0.304693 -0.201515 76 153 0
0.197889 -0.431250 -0.055916 76 153 0
-0.182455 -0.351384 0.096636 76 153 0
0.079236 -0.029966 0.188428 76 153 0
0.013136 -0.682480 0.006860 76 153 0
0.160480 -0.575428 0.130346 76 153 0
0.138189 0.145003 -0.151795 76 153 0
0.064834 0.054169 0.194394 76 153 0
0.005486 -0.681129 -0.181083 76 153 0
0.119137 -0.224958 -0.166414 76 153 0
0.175063 -0.645054 0.100152 76 153 0
0.010780 -0.673664 0.188198 76 153 0
0.204374 -0.504847 0.011086 76 153 0
-0.199527 0.003209 0.055420 76 153 0
0.058052 0.121561 0.197203 76 153 0
0.182184 -0.066998 0.093452 76 153 0
0.105530 -0.673025 -0.156606 76 153 0
0.183331 0.264021 0.090684 76 153 0
0.161487 -0.462900 -0.125260 76 153 0
-0.146326 -0.673045 -0.120672 76 153 0
-0.193149 0.004100 -0.071196 76 153 0
-0.194874 -0.622918 -0.066219 76 153 0
0.018093 0.797100 -0.058250 153 0 76
0.199923 0.146748 -0.045273 76 153 0
0.058199 0.757532 -0.035654 153 0 76
0.002986 0.212530 0.205967 76 153 0
-0.166167 -0.288392 0.120855 76 153 0
0.198651 0.273576 0.053698 76 153 0
0.051076 -0.653223 0.193774 76 153 0
-0.020407 0.931771 -0.064426 76 0 153
-0.148521 0.315024 0.142583 76 153 0
0.050667 0.296051 0.199690 76 153 0
-0.069898 0.857231 0.017274 76 0 153
0.177475 -0.680543 -0.032595 76 153 0
-0.034348 0.913458 -0.058651 76 0 153
0.092295 0.661268 0.002373 153 0 76
-0.186860 -0.632050 0.081690 76 153 0
0.199109 -0.352415 0.051078 76 153 0
0.014404 0.357054 0.190584 153 0 76
-0.111414 0.447799 -0.035256 153 0 76
0.095360 -0.273843 -0.182127 76 153 0
0.124621 0.219371 0.161829 76 153 0
-0.164908 -0.538875 -0.123431 76 153 0
-0.139041 0.203944 -0.152361 76 153 0
-0.127703 -0.308097 0.160683 76 153 0
-0.151232 0.399158 -0.040728 153 0 76
0.069356 -0.331369 -0.192898 76 153 0
0.203341 -0.336450 0.018934 76 153 0
0.046171 0.818895 -0.038202 153 0 76
-0.076922 0.519294 0.049532 153 0 76
0.159595 0.015387 -0.127726 76 153 0
0.144027 -0.570681 0.150017 76 153 0
0.109195 0.105554 -0.174043 76 153 0
-0.204725 -0.422760 -0.020875 76 153 0
0.035090 -0.481638 0.201740 76 153 0
0.202378 -0.325316 -0.026627 76 153 0
0.108336 0.058406 -0.174702 76 153 0
-0.203652 -0.154199 -0.029020 76 153 0
-0.041393 0.386323 0.164894 153 0 76
0.086331 -0.051437 -0.185867 76 153 0
-0.076853 -0.682480 -0.079130 76 153 0
0.201465 -0.294025 -0.033566 76 153 0
0.143248 -0.585595 0.150687 76 153 0
0.187919 0.287095 -0.079985 76 153 0
0.081535 -0.332569 0.187476 76 153 0
-0.201121 0.192624 -0.048249 76 153 0
-0.203789 -0.631634 0.015456 76 153 0
0.114823 -0.057141 -0.169724 76 153 0
0.147834 0.029543 0.142676 76 153 0
0.172884 0.377543 0.039240 153 0 76
0.138595 -0.312626 -0.151484 76 153 0
0.130321 0.002003 -0.157832 76 153 0
0.122907 -0.277310 0.163144 76 153 0
-0.041707 -0.251224 0.201078 76 153 0
0.134202 -0.327748 0.154477 76 153 0
-0.143300 0.410471 -0.014516 153 0 76
-0.035010 -0.067608 0.201960 76 153 0
0.196934 -0.549157 0.060896 76 153 0
-0.193785 0.122765 0.069282 76 153 0
-0.151367 -0.077937 -0.140520 76 153 0
-0.028117 -0.213619 -0.203245 76 153 0
-0.064015 -0.079880 0.195391 76 153 0
-0.188842 0.082344 -0.081594 76 153 0
-0.112083 -0.049094 -0.173046 76 153 0
-0.174353 0.376538 0.046125 153 0 76
0.205294 0.174848 0.004103 76 153 0
0.089043 0.076933 -0.184743 76 153 0
-0.164071 -0.356028 -0.123964 76 153 0
0.007559 0.981535 0.066142 76 0 153
0.198131 0.252896 -0.055332 76 153 0
0.039435 -0.369226 0.201168 76 153 0
-0.046611 -0.618161 -0.201110 76 153 0
-0.173457 0.168885 -0.111731 76 153 0
0.202662 -0.592499 0.041790 76 153 0
-0.197943 -0.113673 0.059245 76 153 0
0.195553 -0.126938 0.061179 76 153 0
0.050619 -0.201599 0.199696 76 153 0
0.002093 0.460953 -0.109464 153 0 76
0.199172 -0.317458 -0.050981 76 153 0
0.173816 -0.662628 -0.089748 76 153 0
0.135255 -0.328664 -0.154047 76 153 0
0.187923 0.018788 -0.079975 76 153 0
0.151755 0.399604 0.020859 153 0 76
0.077850 -0.058596 0.189002 76 153 0
0.027381 -0.603534 -0.204826 76 153 0
-0.115111 0.366620 -0.146201 76 153 0
0.014484 -0.682480 0.129163 76 153 0
-0.144447 -0.105743 0.147835 76 153 0
-0.109257 0.162223 0.174838 76 153 0
-0.174248 -0.200424 0.110323 76 153 0
-0.062540 -0.500811 0.196002 76 153 0
0.202998 -0.529743 0.021300 76 153 0
-0.005479 0.263962 -0.206225 76 153 0
0.066181 0.890462 -0.003639 76 0 153
-0.067089 -0.056798 -0.194495 76 153 0
0.130129 -0.163912 0.157603 76 153 0
0.066425 0.490029 -0.071371 153 0 76
-0.196690 -0.659399 0.021322 76 153 0
-0.022130 0.376818 0.176440 153 0 76
-0.070700 0.733478 -0.032218 153 0 76
0.130409 0.284609 0.157388 76 153 0
0.205422 0.149989 0.003128 76 153 0
-0.046757 0.712746 0.068943 153 0 76
0.073688 0.368546 0.168326 153 0 76
-0.203647 -0.256374 0.028680 76 153 0
0.062755 0.903162 -0.031753 76 0 153
0.204275 -0.254384 -0.012221 76 153 0
-0.076402 0.542128 -0.048995 153 0 76
0.026887 0.949876 -0.063822 76 0 153
-0.049672 0.464065 0.095708 153 0 76
-0.203501 -0.574052 0.049148 76 153 0
-0.167242 0.137040 -0.119831 76 153 0
0.193856 0.134675 -0.065652 76 153 0
0.135830 0.245200 0.153228 76 153 0
0.168281 0.138460 0.116028 76 153 0
0.090585 0.627786 -0.028701 153 0 76
0.076806 0.370157 -0.166203 153 0 76
-0.194220 0.300368 0.068233 76 153 0
0.110322 -0.130713 0.172801 76 153 0
-0.174647 -0.509822 0.109804 76 153 0
0.012422 0.997990 0.055341 76 0 153
-0.175862 -0.394502 0.108220 76 153 0
-0.203377 -0.096696 -0.031108 76 153 0
-0.189746 0.301290 -0.079411 76 153 0
-0.071810 0.866042 0.002748 76 0 153
0.104332 -0.682480 -0.061579 76 153 0
0.036836 -0.659671 0.193476 76 153 0
0.065183 -0.430818 -0.194626 76 153 0
0.119945 0.317485 -0.164409 76 153 0
0.204136 -0.131244 0.012897 76 153 0
-0.051314 0.534757 0.073842 153 0 76
-0.077362 -0.016462 -0.190240 76 153 0
0.182324 -0.597347 -0.098926 76 153 0
0.005845 0.016589 -0.205968 76 153 0
0.202291 -0.279541 0.026914 76 153 0
-0.011899 -0.544903 0.205798 76 153 0
0.114784 -0.015437 0.169377 76 153 0
-0.073491 -0.366679 -0.191843 76 153 0
0.181438 -0.300855 -0.095631 76 153 0
-0.081454 0.392054 -0.142783 153 0 76
-0.148062 -0.191994 0.144449 76 153 0
0.096313 0.484261 -0.022725 153 0 76
0.036767 0.613885 -0.088006 153 0 76
-0.070836 0.583536 0.063495 153 0 76
-0.200517 -0.227553 -0.052836 76 153 0
0.200114 -0.250406 -0.043824 76 153 0
-0.015385 -0.637293 -0.202356 76 153 0
0.053442 0.382688 0.164133 153 0 76
0.162030 -0.193287 -0.124553 76 153 0
0.141356 0.342528 0.139386 76 153 0
-0.068153 -0.477499 -0.194054 76 153 0
-0.010805 0.292362 -0.205524 76 153 0
0.146416 -0.252995 -0.144901 76 153 0
-0.036576 -0.104186 -0.202131 76 153 0
0.051013 0.050976 0.199644 76 153 0
0.091209 0.505168 -0.016377 153 0 76
0.200170 -0.457463 -0.043398 76 153 0
-0.067598 0.701534 0.053439 153 0 76
0.036151 -0.682480 -0.077704 76 153 0
-0.142427 0.079739 0.149386 76 153 0
-0.012798 0.835609 0.069633 76 0 153
0.186251 0.217818 0.083635 76 153 0
0.190191 0.029070 0.074122 76 153 0
-0.170761 -0.411967 -0.115245 76 153 0
-0.155193 -0.443937 -0.135534 76 153 0
0.176006 -0.393754 -0.106339 76 153 0
0.205413 -0.485611 0.003197 76 153 0
-0.102785 -0.449554 0.179332 76 153 0
-0.039407 0.952444 -0.059791 76 0 153
-0.072825 0.379721 -0.160125 153 0 76
0.027193 0.025544 -0.203157 76 153 0
-0.203712 0.037951 0.028185 76 153 0
-0.090309 0.106154 0.184500 76 153 0
0.148953 -0.652796 -0.132229 76 153 0
0.185099 -0.161329 -0.086793 76 153 0
0.181483 -0.360359 0.095146 76 153 0
-0.064382 0.390608 0.151217 153 0 76
0.101431 -0.578829 0.181970 76 153 0
-0.093103 -0.200253 -0.183720 76 153 0
-0.040482 -0.682480 -0.152417 76 153 0
0.199278 0.166279 0.049797 76 153 0
0.075236 0.723742 -0.025325 153 0 76
-0.193780 -0.563234 -0.075339 76 153 0
-0.008441 -0.287908 -0.205835 76 153 0
0.120245 0.077632 -0.165564 76 153 0
-0.080499 0.304290 -0.188848 76 153 0
0.021689 0.054204 -0.203882 76 153 0
-0.152751 -0.651477 0.129530 76 153 0
-0.027899 -0.028197 -0.203274 76 153 0
0.180351 -0.202745 -0.098256 76 153 0
-0.176099 -0.612554 -0.109758 76 153 0
0.026241 0.513345 0.087907 153 0 76
0.137186 0.119443 -0.152565 76 153 0
0.141051 0.170033 -0.149599 76 153 0
-0.093128 0.484536 -0.036319 153 0 76
-0.193967 -0.160117 0.068844 76 153 0
0.187693 -0.094321 0.080154 76 153 0
0.067470 -0.280333 0.193301 76 153 0
0.040284 0.400377 0.148568 153 0 76
0.002845 0.075169 -0.206363 76 153 0
-0.178106 -0.588738 -0.109671 76 153 0
0.178294 0.022542 -0.103221 76 153 0
0.020248 0.219867 -0.204072 76 153 0
-0.004128 -0.682480 -0.019834 76 153 0
-0.052575 -0.420356 -0.200025 76 153 0
-0.099093 0.027355 0.180861 76 153 0
-0.155591 -0.680543 -0.095738 76 153 0
-0.089181 -0.160562 0.184967 76 153 0
-0.026701 -0.646582 -0.199058 76 153 0
-0.043387 0.943262 0.051395 76 0 153
-0.176911 -0.518014 -0.107231 76 153 0
0.143864 0.192620 -0.147440 76 153 0
-0.160165 -0.305236 -0.129054 76 153 0
0.099981 -0.240262 -0.180212 76 153 0
0.158580 -0.538146 0.129156 76 153 0
-0.206702 0.226894 -0.005856 76 153 0
-0.052205 0.201939 -0.200074 76 153 0
0.031258 0.904504 -0.063536 76 0 153
0.190828 -0.503112 0.072584 76 153 0
-0.037842 0.207987 0.201587 76 153 0
-0.161321 0.382910 -0.063053 153 0 76
0.186156 -0.266564 0.083864 76 153 0
0.069024 0.704225 0.048494 153 0 76
-0.161791 0.248392 -0.126934 76 153 0
-0.063866 0.117732 0.195453 76 153 0
-0.119642 0.237917 0.166869 76 153 0
0.156212 -0.091342 0.131757 76 153 0
-0.116470 -0.329898 -0.169680 76 153 0
0.064930 0.088174 -0.194731 76 153 0
0.183678 -0.570102 0.096181 76 153 0
0.046001 0.894577 -0.048548 76 0 153
0.054637 -0.193092 -0.198995 76 153 0
0.130656 0.076608 0.157198 76 153 0
-0.206355 -0.555798 0.021393 76 153 0
0.201752 -0.117773 -0.031379 76 153 0
-0.145873 0.346317 0.132972 76 153 0
-0.105550 -0.079091 -0.178060 76 153 0
-0.200668 -0.160551 -0.051684 76 153 0
0.125069 -0.148806 -0.161862 76 153 0
0.086304 0.590303 0.037512 153 0 76
0.064496 0.115199 -0.194911 76 153 0
0.204577 -0.203845 -0.009927 76 153 0
0.180443 -0.674558 0.052190 76 153 0
0.167945 0.127003 -0.116844 76 153 0
-0.027084 0.234615 -0.203381 76 153 0
-0.024465 0.822598 -0.057132 153 0 76
0.143726 -0.586919 -0.150662 76 153 0
0.201854 -0.437752 -0.030610 76 153 0
0.153308 -0.594495 0.139181 76 153 0
0.166127 -0.634296 0.115555 76 153 0
-0.064332 0.452777 -0.093781 153 0 76
-0.050887 0.318070 0.198684 76 153 0
0.128797 -0.536555 -0.159267 76 153 0
-0.202265 -0.016769 -0.039554 76 153 0
-0.125531 0.223835 -0.162727 76 153 0
0.106381 0.214684 -0.176203 76 153 0
-0.043988 0.796274 -0.043739 153 0 76
-0.205607 0.145179 -0.014174 76 153 0
-0.187193 0.275146 0.085197 76 153 0
-0.184612 -0.530595 0.091392 76 153 0
-0.022567 0.850516 -0.067794 76 0 153
-0.083233 -0.682480 -0.121319 76 153 0
0.128604 -0.376220 0.158773 76 153 0
-0.154779 -0.445053 0.135695 76 153 0
0.101118 -0.324886 0.179364 76 153 0
0.061990 0.490420 0.074241 153 0 76
-0.063759 0.986828 -0.026952 76 0 153
0.054356 0.912707 0.037755 76 0 153
-0.099619 0.136788 -0.181020 76 153 0
0.068885 0.024767 0.192716 76 153 0
0.103718 0.457108 0.036598 153 0 76
-0.028571 -0.189014 0.202808 76 153 0
-0.063413 -0.343161 0.195640 76 153 0
0.074494 -0.389560 0.190392 76 153 0
-0.165351 -0.564735 -0.125996 76 153 0
0.081457 0.247713 0.187508 76 153 0
0.167136 0.331437 0.111384 76 153 0
0.081540 -0.682480 -0.075792 76 153 0
0.194582 -0.582863 0.070124 76 153 0
0.128047 0.260940 -0.159577 76 153 0
0.163137 -0.681947 0.071844 76 153 0
0.185990 -0.643363 0.074697 76 153 0
-0.125760 0.431346 -0.017988 153 0 76
-0.145408 0.405415 0.035725 153 0 76
-0.042319 -0.647585 -0.196790 76 153 0
0.054118 -0.589671 -0.201823 76 153 0
0.126176 -0.042289 -0.161013 76 153 0
0.058512 -0.671190 0.181234 76 153 0
-0.099059 0.166615 -0.181253 76 153 0
-0.023188 0.088240 0.203517 76 153 0
-0.072020 0.205396 -0.192452 76 153 0
0.147136 -0.630081 -0.141753 76 153 0
-0.055265 -0.236957 -0.199392 76 153 0
-0.003016 0.555601 0.091535 153 0 76
0.114245 0.157105 -0.170168 76 153 0
0.020655 -0.508174 -0.204018 76 153 0
0.073810 0.127682 -0.191053 76 153 0
-0.202930 -0.125114 0.034127 76 153 0
-0.205653 -0.382954 0.013449 76 153 0
0.115134 0.130306 -0.169486 76 153 0
0.060126 -0.678229 -0.173859 76 153 0
0.099645 -0.363529 -0.180352 76 153 0
0.165797 -0.611634 -0.121266 76 153 0
0.021007 0.050585 0.203594 76 153 0
-0.028251 0.928666 0.065063 76 0 153
-0.203960 0.049999 -0.026683 76 153 0
-0.182941 0.009972 -0.095840 76 153 0
-0.204756 -0.466154 -0.020638 76 153 0
-0.127274 0.348355 -0.149320 76 153 0
-0.006484 0.437237 -0.122609 153 0 76
0.084897 0.680031 0.027818 153 0 76
0.156795 0.098413 0.130997 76 153 0
-0.201647 0.298415 -0.044250 76 153 0
-0.165501 -0.635115 -0.118574 76 153 0
-0.170360 -0.670184 0.089672 76 153 0
0.002652 0.257880 0.206011 76 153 0
-0.165439 -0.430732 -0.122181 76 153 0
-0.104280 0.228297 -0.179034 76 153 0
-0.080020 0.408744 0.121411 153 0 76
0.020976 0.283811 0.203598 76 153 0
-0.190170 -0.464674 0.078009 76 153 0
0.203818 -0.618745 -0.017394 76 153 0
-0.175868 -0.630192 -0.106352 76 153 0
0.096039 -0.036207 -0.181845 76 153 0
0.037016 0.799584 -0.032982 153 0 76
0.025445 0.393692 0.158482 153 0 76
0.036594 0.652777 -0.085963 153 0 76
-0.178094 -0.301346 -0.105689 76 153 0
-0.130663 0.422022 -0.034576 153 0 76
0.198753 -0.289959 0.053452 76 153 0
0.001909 -0.143912 -0.206486 76 153 0
0.072273 -0.199037 0.191312 76 153 0
0.198179 0.031538 -0.055215 76 153 0
0.101488 0.416385 -0.093361 153 0 76
-0.176891 -0.538048 0.107354 76 153 0
0.081069 0.469788 0.065108 153 0 76
0.158416 -0.682480 0.053572 76 153 0
-0.088985 0.378697 0.154083 153 0 76
-0.082818 0.687095 0.033423 153 0 76
0.072162 -0.638415 -0.188761 76 153 0
0.084642 0.114155 0.186189 76 153 0
-0.205701 -0.235536 0.013084 76 153 0
-0.140454 0.216379 0.150899 76 153 0
-0.151149 0.125385 -0.140804 76 153 0
-0.104196 -0.024291 -0.179098 76 153 0
0.088238 0.605197 0.034231 153 0 76
-0.074955 -0.650326 0.185317 76 153 0
-0.183257 -0.427232 -0.095077 76 153 0
0.129572 -0.260755 -0.158407 76 153 0
-0.162591 0.232587 -0.125892 76 153 0
0.062985 -0.513687 0.195159 76 153 0
0.018886 0.997990 0.037179 76 0 153
-0.061526 -0.213626 0.196422 76 153 0
-0.187664 -0.170073 0.084061 76 153 0
0.169040 -0.369375 -0.115417 76 153 0
-0.063743 0.952081 0.032827 76 0 153
-0.197258 0.198966 -0.061274 76 153 0
0.172461 0.364104 0.070319 153 0 76
-0.088194 0.531084 -0.022558 153 0 76
-0.207356 -0.591641 0.018517 76 153 0
-0.194819 0.106314 -0.067163 76 153 0
0.022354 -0.386527 -0.203794 76 153 0
0.048501 0.334525 -0.195717 76 153 0
-0.206237 0.289254 0.009006 76 153 0
0.107037 0.404396 0.104194 153 0 76
0.198165 -0.488368 0.054872 76 153 0
0.117299 0.443472 0.008826 153 0 76
0.051421 -0.612356 0.200513 76 153 0
0.030422 0.202158 0.202355 76 153 0
0.066583 0.949876 -0.022476 76 0 153
0.128661 -0.282591 -0.159106 76 153 0
0.072944 -0.244969 -0.191412 76 153 0
0.061549 0.997469 0.034288 76 0 153
0.043254 0.928352 -0.055620 76 0 153
-0.090074 0.436227 -0.085590 153 0 76
-0.193955 -0.268274 0.068873 76 153 0
0.044407 0.533013 0.077951 153 0 76
-0.049728 0.985303 0.045858 76 0 153
0.056940 0.997990 0.003258 76 0 153
0.092764 0.271490 -0.183202 76 153 0
-0.206218 -0.334649 -0.009533 76 153 0
-0.080700 -0.266809 0.188480 76 153 0
-0.027175 0.997990 0.018421 76 0 153
-0.046144 0.008462 -0.200872 76 153 0
-0.006455 0.997990 -0.054617 76 0 153
-0.060654 0.476794 -0.082758 153 0 76
-0.166277 0.192636 -0.121089 76 153 0
-0.142155 -0.515948 0.149594 76 153 0
0.029330 0.270326 0.202499 76 153 0
-0.175159 0.197233 0.109136 76 153 0
-0.079085 0.608793 0.054750 153 0 76
0.168138 -0.091521 -0.116593 76 153 0
-0.077810 -0.682480 0.083496 76 153 0
0.120335 -0.682480 -0.093625 76 153 0
-0.203284 -0.224799 0.031440 76 153 0
-0.112108 0.138228 -0.173028 76 153 0
-0.096173 0.283425 -0.182448 76 153 0
-0.004704 0.224666 -0.206327 76 153 0
-0.059629 0.822606 0.006983 76 0 153
0.097707 0.383351 -0.141349 153 0 76
-0.136583 0.335477 -0.148073 76 153 0
-0.034828 0.516402 0.084386 153 0 76
0.142771 -0.673075 -0.123193 76 153 0
0.052677 0.592497 0.078494 153 0 76
-0.018331 -0.407736 -0.204533 76 153 0
-0.167562 0.214117 -0.119414 76 153 0
-0.206864 0.099475 -0.004623 76 153 0
-0.065462 0.960653 -0.023035 76 0 153
0.148353 -0.437711 -0.142377 76 153 0
0.146921 0.405823 0.009006 153 0 76
-0.088435 0.345510 0.176197 76 153 0
-0.185017 0.173801 -0.090828 76 153 0
-0.083455 0.355936 -0.173456 76 153 0
0.203710 -0.260869 0.016130 76 153 0
-0.071520 0.835294 -0.005331 76 0 153
0.116213 -0.448198 0.168280 76 153 0
-0.033546 -0.112603 0.202153 76 153 0
0.201708 -0.230848 0.031342 76 153 0
-0.146291 -0.010614 -0.146798 76 153 0
-0.199153 -0.659116 0.003475 76 153 0
-0.065478 0.293273 0.194785 76 153 0
0.076460 -0.311757 -0.189955 76 153 0
-0.167545 -0.462208 -0.119437 76 153 0
-0.153361 -0.363478 0.137544 76 153 0
0.146681 -0.115818 0.144178 76 153 0
-0.017370 0.089781 -0.204660 76 153 0
0.199759 0.227509 -0.046523 76 153 0
0.161526 0.335251 -0.117282 76 153 0
0.019838 0.530454 -0.087841 153 0 76
0.000059 0.201783 -0.206730 76 153 0
-0.080804 -0.441294 0.188437 76 153 0
0.189826 -0.400671 -0.075382 76 153 0
0.008213 0.416242 -0.138188 153 0 76
-0.056485 0.997990 0.015803 76 0 153
0.162878 -0.317208 0.123070 76 153 0
0.089977 -0.050371 0.183979 76 153 0
-0.123321 -0.682480 -0.004749 76 153 0
0.190237 -0.555342 0.078438 76 153 0
-0.094799 -0.682480 -0.058188 76 153 0
-0.026878 -0.682480 0.005154 76 153 0
0.070398 -0.547804 -0.193606 76 153 0
0.161685 -0.034063 0.124625 76 153 0
-0.123484 0.142502 0.163921 76 153 0
0.006030 -0.682480 0.139946 76 153 0
0.099402 0.398359 -0.119198 153 0 76
-0.045409 0.481552 -0.090076 153 0 76
-0.051617 0.954495 -0.049842 76 0 153
0.202604 -0.180085 -0.024914 76 153 0
0.112045 0.156857 0.171479 76 153 0
0.084140 0.352277 0.174218 76 153 0
-0.093749 -0.366541 0.183075 76 153 0
-0.001250 -0.403143 0.206405 76 153 0
-0.037182 0.490514 0.089991 153 0 76
0.116792 0.435740 0.037761 153 0 76
0.058491 -0.682480 -0.111090 76 153 0
-0.008116 -0.243998 0.205501 76 153 0
-0.198024 0.302823 -0.059373 76 153 0
0.080849 -0.361570 0.187760 76 153 0
0.167526 0.104216 0.117013 76 153 0
-0.200447 -0.207525 -0.053367 76 153 0
-0.099138 0.334654 0.175824 76 153 0
-0.001372 0.480678 -0.101434 153 0 76
-0.069189 -0.322908 0.193248 76 153 0
0.152789 -0.046786 -0.136595 76 153 0
0.113696 -0.298554 -0.170590 76 153 0
0.025445 0.226222 0.203010 76 153 0
-0.010250 -0.359849 -0.205597 76 153 0
0.094123 -0.178246 0.182262 76 153 0
-0.062210 0.344308 -0.187981 76 153 0
-0.154808 -0.009176 -0.136036 76 153 0
0.197724 0.232085 0.055937 76 153 0
-0.024384 0.463851 -0.105409 153 0 76
0.065521 0.860096 -0.025077 76 0 153
-0.148006 0.170620 0.144523 76 153 0
0.029105 0.446142 0.113511 153 0 76
-0.150006 -0.238270 0.141916 76 153 0
0.107116 0.371737 0.146222 153 0 76
0.137844 -0.544645 -0.153025 76 153 0
-0.190793 -0.291187 0.076506 76 153 0
-0.143596 0.379997 0.101292 153 0 76
-0.109472 0.352550 0.160309 76 153 0
-0.063814 0.997990 -0.003007 76 0 153
-0.074541 -0.188170 0.191031 76 153 0
0.108059 -0.301452 0.174538 76 153 0
0.005002 0.303947 0.205631 76 153 0
-0.108611 -0.331857 0.175333 76 153 0
-0.178455 -0.463837 0.104840 76 153 0
-0.192515 -0.106640 0.072349 76 153 0
0.061939 0.219527 -0.195970 76 153 0
0.129814 0.154052 0.157844 76 153 0
0.204625 0.125226 0.009184 76 153 0
-0.052593 0.841729 0.048594 76 0 153
-0.006120 0.997990 0.033330 76 0 153
0.144549 -0.503754 0.146538 76 153 0
0.188254 0.238953 0.078800 76 153 0
-0.200463 -0.513669 -0.053246 76 153 0
0.037957 0.468230 -0.098227 153 0 76
0.039856 0.797072 0.045343 153 0 76
-0.125803 -0.591894 0.165089 76 153 0
0.055701 0.425705 0.117482 153 0 76
-0.201558 0.321511 0.032046 76 153 0
0.080291 -0.468979 -0.188368 76 153 0
-0.003637 0.249732 -0.206468 76 153 0
0.027446 0.766202 -0.058582 153 0 76
0.103923 -0.107599 0.177711 76 153 0
-0.144821 -0.677110 0.115961 76 153 0
-0.204137 -0.550348 0.034690 76 153 0
-0.006325 0.394401 0.160391 153 0 76
-0.177556 -0.330216 -0.106389 76 153 0
0.138389 -0.539139 0.151714 76 153 0
0.005531 -0.324199 0.205632 76 153 0
0.082920 0.709178 -0.005924 153 0 76
-0.134009 -0.407344 -0.156222 76 153 0
0.060920 0.108232 0.196015 76 153 0
0.000634 -0.369944 0.206277 76 153 0
0.097315 -0.391037 -0.181317 76 153 0
0.101589 -0.343191 -0.179546 76 153 0
-0.023527 0.863747 0.067019 76 0 153
0.176290 -0.092196 0.105591 76 153 0
-0.154453 -0.396426 0.136121 76 153 0
-0.063948 -0.563031 0.197754 76 153 0
0.057303 0.502516 -0.074088 153 0 76
-0.070601 0.517400 -0.058654 153 0 76
-0.172044 -0.096393 0.113196 76 153 0
0.136828 0.417524 0.002899 153 0 76
-0.201478 -0.055613 0.045155 76 153 0
0.089095 0.203344 -0.184721 76 153 0
-0.204163 -0.401085 -0.025139 76 153 0
0.018297 -0.250804 0.203951 76 153 0
0.044504 -0.390135 -0.200878 76 153 0
0.068252 -0.102718 0.192978 76 153 0
-0.185927 -0.676313 -0.017580 76 153 0
0.114195 -0.325096 -0.170206 76 153 0
0.139152 -0.361439 -0.151056 76 153 0
-0.076229 0.020278 -0.190709 76 153 0
0.075748 -0.140960 -0.190250 76 153 0
-0.122803 0.323137 -0.162447 76 153 0
0.014996 0.647904 0.092628 153 0 76
-0.070688 0.885097 0.011275 76 0 153
-0.190882 0.173630 -0.076669 76 153 0
0.123052 0.256086 0.163033 76 153 0
0.063331 0.981199 0.019695 76 0 153
0.085340 -0.122093 0.185900 76 153 0
-0.010330 0.428691 0.127730 153 0 76
0.002920 0.031997 0.205976 76 153 0
0.166050 -0.213375 -0.119313 76 153 0
0.167083 -0.638862 -0.113320 76 153 0
-0.095338 -0.663017 0.172159 76 153 0
0.186152 -0.529050 -0.084133 76 153 0
-0.176793 0.261725 -0.107384 76 153 0
-0.045802 -0.662559 -0.191576 76 153 0
0.007662 -0.204542 -0.205729 76 153 0
0.069975 0.834021 0.004615 76 0 153
0.100368 -0.682480 -0.138341 76 153 0
-0.115266 0.068261 -0.170604 76 153 0
-0.046587 -0.346096 -0.200813 76 153 0
-0.105527 -0.614722 0.178552 76 153 0
-0.070030 -0.239937 0.192900 76 153 0
-0.050333 0.071519 0.199943 76 153 0
-0.017784 0.215297 0.204228 76 153 0
0.182753 -0.419806 -0.092456 76 153 0
-0.106212 0.400525 0.111778 153 0 76
-0.032827 0.439172 -0.117764 153 0 76
-0.073213 0.634867 0.061354 153 0 76
0.037122 -0.293204 -0.201850 76 153 0
0.199063 -0.013797 -0.051805 76 153 0
0.081567 -0.077732 -0.187840 76 153 0
0.012047 -0.295473 0.204774 76 153 0
0.177658 -0.112607 0.103808 76 153 0
0.030439 0.672622 0.085432 153 0 76
-0.190856 0.232574 -0.076731 76 153 0
-0.196962 -0.077388 0.061611 76 153 0
0.124630 -0.676107 -0.138413 76 153 0
-0.177038 -0.039433 -0.107065 76 153 0
0.018213 0.134450 0.203962 76 153 0
0.093397 -0.151449 -0.182940 76 153 0
-0.043908 0.101036 0.200789 76 153 0
-0.172496 0.156221 0.112607 76 153 0
0.042442 -0.682480 -0.109420 76 153 0
0.146414 -0.072555 0.144526 76 153 0
-0.068571 0.755912 -0.013986 153 0 76
-0.108027 0.381210 0.136779 153 0 76
0.006973 0.051001 0.205442 76 153 0
-0.085079 0.042572 -0.187043 76 153 0
-0.110197 -0.592130 0.177050 76 153 0
-0.206891 -0.065462 -0.004418 76 153 0
-0.207342 -0.133432 0.000617 76 153 0
0.030939 0.129070 0.202287 76 153 0
-0.019669 0.407806 -0.144609 153 0 76
-0.071971 0.173991 -0.192473 76 153 0
-0.205460 0.125717 0.014915 76 153 0
0.190759 0.192954 0.072752 76 153 0
-0.069562 -0.450857 -0.193470 76 153 0
0.177022 -0.626618 -0.103686 76 153 0
-0.201371 0.065340 -0.046349 76 153 0
-0.154994 -0.545760 -0.137218 76 153 0
0.189547 -0.663707 -0.048863 76 153 0
-0.173834 -0.617838 0.111419 76 153 0
-0.151726 -0.257088 0.139674 76 153 0
0.042019 0.379991 0.170761 153 0 76
-0.205872 0.310051 0.009193 76 153 0
0.089684 0.524758 -0.002432 153 0 76
-0.032636 -0.041781 -0.202650 76 153 0
-0.100945 -0.331602 -0.180471 76 153 0
0.202474 0.229317 0.025521 76 153 0
0.098011 -0.682480 0.020480 76 153 0
0.178172 -0.542284 -0.104457 76 153 0
0.140745 -0.105598 -0.149834 76 153 0
0.183591 -0.170758 0.090057 76 153 0
-0.204125 -0.204534 -0.025426 76 153 0
0.065933 0.677292 -0.061593 153 0 76
-0.149695 -0.600464 0.145453 76 153 0
-0.207134 -0.387809 -0.002577 76 153 0
0.070089 0.224285 0.192217 76 153 0
-0.176433 -0.232223 -0.107854 76 153 0
-0.174662 0.110119 0.109784 76 153 0
0.111891 -0.277141 -0.171974 76 153 0
-0.165295 -0.237999 -0.122369 76 153 0
-0.143588 0.360515 0.124689 153 0 76
-0.193816 0.355503 -0.004546 76 153 0
0.204910 0.021485 -0.007395 76 153 0
-0.105484 -0.680886 -0.147382 76 153 0
0.088595 -0.146712 0.184551 76 153 0
-0.147525 -0.270742 -0.145526 76 153 0
-0.123536 -0.448039 0.163881 76 153 0
-0.023244 -0.498637 0.203509 76 153 0
-0.059018 0.865261 -0.040599 76 0 153
0.181541 -0.274264 -0.095383 76 153 0
0.158053 -0.272861 -0.129736 76 153 0
-0.067038 0.444785 0.097033 153 0 76
0.203577 -0.209517 0.017145 76 153 0
0.123874 0.179390 0.162402 76 153 0
0.131251 -0.071541 -0.157119 76 153 0
-0.145409 -0.284345 -0.147474 76 153 0
-0.063857 0.540978 -0.064767 153 0 76
0.194428 -0.369880 0.063894 76 153 0
-0.195733 0.327417 -0.057539 76 153 0
0.198918 -0.471089 0.052534 76 153 0
-0.093203 0.506077 -0.011573 153 0 76
-0.145408 -0.290609 0.147098 76 153 0
0.123796 0.213850 -0.162839 76 153 0
0.059073 -0.116603 -0.197157 76 153 0
0.102473 0.433235 -0.070784 153 0 76
-0.122270 0.438263 0.007491 153 0 76
0.193462 0.240890 -0.066604 76 153 0
-0.083148 -0.055897 0.187466 76 153 0
-0.140011 0.398310 -0.070347 153 0 76
-0.175432 0.065571 0.108781 76 153 0
0.200646 -0.012398 0.039408 76 153 0
0.089362 -0.177906 -0.184611 76 153 0
0.062626 0.650091 -0.069814 153 0 76
0.151614 -0.532160 -0.138178 76 153 0
0.174264 -0.672986 0.070678 76 153 0
-0.149495 -0.429364 -0.142959 76 153 0
0.187842 0.270897 0.079795 76 153 0
0.204243 0.252694 0.012084 76 153 0
0.147012 -0.307376 0.143747 76 153 0
0.182432 0.134469 -0.093233 76 153 0
-0.198293 0.325808 0.050350 76 153 0
0.152621 -0.103742 -0.136815 76 153 0
0.001677 0.874016 -0.071266 76 0 153
0.126014 -0.459693 0.160760 76 153 0
0.150947 0.353250 0.119297 76 153 0
-0.088881 -0.682480 0.074172 76 153 0
0.173180 -0.552443 0.112023 76 153 0
0.040304 -0.111247 -0.201431 76 153 0
0.106410 -0.471585 -0.176180 76 153 0
0.080099 -0.116205 -0.188448 76 153 0
-0.202190 -0.326156 0.039749 76 153 0
-0.067427 -0.663389 -0.183906 76 153 0
0.204003 0.175719 -0.014287 76 153 0
-0.081478 0.691587 -0.034598 153 0 76
0.205173 -0.315123 0.005022 76 153 0
0.049694 0.955775 0.043832 76 0 153
-0.120387 -0.210057 0.166297 76 153 0
0.018496 -0.481317 0.203925 76 153 0
0.204647 -0.159901 0.009016 76 153 0
-0.065691 -0.682480 -0.148387 76 153 0
-0.119736 -0.682480 -0.087309 76 153 0
-0.142016 0.284894 0.149700 76 153 0
-0.137971 -0.579785 -0.156367 76 153 0
-0.037501 -0.353301 0.201632 76 153 0
0.102730 -0.022715 0.178627 76 153 0
-0.076036 -0.304841 0.190412 76 153 0
0.025270 -0.651247 0.197674 76 153 0
0.054152 -0.623355 -0.198799 76 153 0
-0.117560 0.443207 -0.020526 153 0 76
-0.190020 -0.063498 0.078372 76 153 0
0.110810 -0.059520 0.172427 76 153 0
-0.155885 -0.257769 -0.134632 76 153 0
0.055244 0.231197 0.198366 76 153 0
0.018898 0.373593 0.179181 153 0 76
-0.205775 0.186088 0.012520 76 153 0
-0.027044 0.076002 -0.203386 76 153 0
0.003538 0.526422 0.089862 153 0 76
0.202722 -0.271212 -0.024015 76 153 0
-0.163496 -0.379165 0.124336 76 153 0
0.033534 0.415706 0.134961 153 0 76
-0.044126 0.621336 -0.085516 153 0 76
-0.009941 -0.172161 0.205261 76 153 0
-0.002556 0.154070 -0.206610 76 153 0
0.046250 0.219053 -0.200648 76 153 0
-0.059440 0.345585 0.188174 76 153 0
0.158866 0.331587 0.122107 76 153 0
0.111554 -0.117451 0.171856 76 153 0
-0.075555 0.414334 -0.118912 153 0 76
-0.199881 -0.644353 0.027647 76 153 0
-0.207355 -0.197512 -0.000896 76 153 0
0.043657 -0.585963 0.203126 76 153 0
0.125124 -0.211057 0.161443 76 153 0
0.200609 0.124091 -0.040062 76 153 0
-0.170023 -0.006638 -0.116206 76 153 0
-0.144104 -0.682480 -0.034073 76 153 0
0.122834 0.410506 -0.074181 153 0 76
0.123295 -0.633772 0.160431 76 153 0
0.042740 -0.024599 -0.201111 76 153 0
0.078430 0.719628 0.018973 153 0 76
0.080168 -0.340429 -0.188419 76 153 0
0.140167 0.192310 0.149900 76 153 0
-0.018940 -0.575307 0.206625 76 153 0
0.141097 0.048547 -0.149564 76 153 0
-0.050510 -0.263634 -0.200297 76 153 0
-0.040477 0.743135 0.062193 153 0 76
0.081009 0.045960 -0.188071 76 153 0
0.088421 -0.196711 0.184623 76 153 0
0.011805 0.438248 -0.121026 153 0 76
0.206525 -0.551440 -0.005568 76 153 0
-0.164420 -0.663069 0.107523 76 153 0
-0.005296 -0.682480 0.101758 76 153 0
-0.035947 0.112229 0.201837 76 153 0
-0.135013 -0.540623 0.155645 76 153 0
-0.178531 0.231193 -0.105119 76 153 0
0.014828 0.187123 0.204408 76 153 0
0.124444 0.329821 0.157710 76 153 0
-0.060558 0.403102 -0.138225 153 0 76
0.030553 0.631433 -0.090168 153 0 76
-0.094321 0.170758 0.182838 76 153 0
0.203772 -0.540825 -0.019624 76 153 0
0.071792 0.009510 -0.191889 76 153 0
-0.202205 -0.235602 0.039636 76 153 0
0.012777 0.567669 -0.092031 153 0 76
-0.140880 -0.167338 -0.150949 76 153 0
-0.040285 -0.016925 0.201266 76 153 0
-0.151468 -0.682480 0.061268 76 153 0
-0.046365 0.156187 -0.200842 76 153 0
-0.169725 -0.522221 0.116124 76 153 0
-0.193040 -0.013796 0.071081 76 153 0
-0.198093 -0.440491 0.058882 76 153 0
0.200984 -0.500159 0.036839 76 153 0
0.192061 0.000768 -0.069985 76 153 0
0.203604 -0.606638 -0.028413 76 153 0
0.088158 -0.297870 0.184732 76 153 0
0.064280 -0.364773 -0.195000 76 153 0
-0.082913 -0.088037 -0.187941 76 153 0
0.019874 0.709046 -0.081972 153 0 76
-0.180069 -0.666213 -0.073495 76 153 0
0.036751 -0.414843 -0.201899 76 153 0
-0.204560 0.067113 0.021748 76 153 0
0.096701 -0.653745 -0.175136 76 153 0
-0.018757 0.609828 -0.094206 153 0 76
-0.047944 0.817363 -0.037345 153 0 76
0.066053 0.958107 0.004234 76 0 153
0.011680 -0.345111 -0.205200 76 153 0
-0.014074 0.505887 0.092016 153 0 76
-0.046607 -0.682480 -0.047830 76 153 0
0.200327 0.100830 0.041831 76 153 0
0.197988 0.340569 0.009686 76 153 0
0.095349 0.205368 0.181754 76 153 0
0.196098 -0.059047 0.059862 76 153 0
-0.016070 0.796388 -0.059572 153 0 76
0.058146 0.929801 -0.032588 76 0 153
0.142354 -0.660124 0.136436 76 153 0
-0.164415 0.364781 -0.092821 76 153 0
-0.166817 0.000317 0.120007 76 153 0
0.171846 -0.075380 0.111383 76 153 0
-0.186494 0.003246 0.086884 76 153 0
0.003092 -0.647891 0.201303 76 153 0
-0.184525 -0.471209 0.091639 76 153 0
0.130656 0.391250 0.097085 153 0 76
0.197690 -0.094521 0.056018 76 153 0
-0.082671 0.716052 0.005905 153 0 76
-0.179031 0.081179 0.104091 76 153 0
-0.205214 -0.174567 0.016780 76 153 0
-0.078155 0.661975 -0.051402 153 0 76
-0.011877 -0.317367 -0.205383 76 153 0
0.118770 -0.404613 0.166319 76 153 0
0.033611 0.997990 -0.020085 76 0 153
0.095383 0.617520 0.000636 153 0 76
-0.014844 0.311239 -0.204599 76 153 0
-0.158796 -0.479822 0.130461 76 153 0
-0.155570 -0.682480 0.075244 76 153 0
0.183187 0.244917 0.091031 76 153 0
-0.206447 -0.285084 0.007413 76 153 0
-0.093724 -0.682480 0.050288 76 153 0
0.185826 -0.238639 0.084661 76 153 0
-0.051232 0.430267 0.116352 153 0 76
-0.040153 0.529576 -0.080902 153 0 76
0.068273 0.996496 -0.017920 76 0 153
0.102070 -0.597239 0.181226 76 153 0
0.067511 0.067091 0.193284 76 153 0
0.120372 -0.682480 -0.046706 76 153 0
0.132061 0.238902 -0.156497 76 153 0
-0.059379 -0.682480 -0.029449 76 153 0
0.191490 -0.150880 -0.071365 76 153 0
0.064913 0.887320 -0.026544 76 0 153
-0.133304 0.005281 0.156386 76 153 0
0.003097 -0.188614 0.205952 76 153 0
0.085975 -0.483554 0.185636 76 153 0
0.181542 -0.609498 0.098147 76 153 0
0.187087 -0.518662 0.081615 76 153 0
0.200532 -0.308437 0.040269 76 153 0
-0.201964 -0.492471 0.041467 76 153 0
-0.169138 -0.306220 -0.117361 76 153 0
-0.021325 -0.666357 -0.192756 76 153 0
-0.203024 -0.309330 -0.033794 76 153 0
0.072587 -0.667747 0.178004 76 153 0
-0.037031 -0.147835 -0.202071 76 153 0
-0.156365 -0.096047 -0.134007 76 153 0
-0.005072 0.580165 0.094112 153 0 76
-0.099609 -0.180472 0.180647 76 153 0
-0.086355 0.659490 0.035805 153 0 76
-0.117223 0.258033 0.168725 76 153 0
-0.021989 -0.236334 -0.204052 76 153 0
0.196500 0.343122 -0.014658 76 153 0
0.071891 -0.127440 0.191470 76 153 0
-0.189765 0.322210 0.074481 76 153 0
0.035700 0.604833 0.087971 153 0 76
-0.201546 -0.303493 0.044640 76 153 0
-0.182849 -0.428573 0.095685 76 153 0
-0.054950 0.413825 0.129084 153 0 76
0.204128 -0.382212 0.012957 76 153 0
0.202951 -0.368370 -0.022273 76 153 0
0.139056 -0.134243 -0.151130 76 153 0
-0.141030 -0.241657 -0.150835 76 153 0
0.133537 -0.682480 -0.097455 76 153 0
-0.140454 0.163561 -0.151276 76 153 0
0.042476 0.238351 -0.201145 76 153 0
-0.189062 -0.229281 -0.081063 76 153 0
-0.059200 0.525657 0.068331 153 0 76
0.200231 -0.493223 -0.042936 76 153 0
0.138637 -0.444376 0.151074 76 153 0
0.063944 0.276811 0.194762 76 153 0
-0.125304 -0.019616 -0.162902 76 153 0
-0.084305 0.134899 0.186986 76 153 0
-0.070536 -0.682480 0.106833 76 153 0
-0.192590 -0.189396 0.072169 76 153 0
0.183512 0.279360 -0.090625 76 153 0
0.055218 0.779418 -0.020910 153 0 76
-0.117033 -0.362305 0.168871 76 153 0
-0.063461 -0.079764 -0.195998 76 153 0
0.186000 -0.133237 -0.084619 76 153 0
-0.187796 -0.246446 0.083742 76 153 0
-0.144009 -0.682480 0.008406 76 153 0
0.004220 -0.608606 -0.207486 76 153 0
-0.114094 -0.020830 0.171126 76 153 0
-0.097776 -0.682480 0.134097 76 153 0
0.151768 -0.228525 0.137548 76 153 0
0.160694 -0.169981 -0.126294 76 153 0
0.027108 -0.636360 0.200397 76 153 0
-0.019194 0.751312 -0.069048 153 0 76
-0.192670 -0.584103 -0.078956 76 153 0
0.034661 0.155942 0.201797 76 153 0
-0.180762 -0.104597 0.100722 76 153 0
-0.174907 0.379064 -0.025579 153 0 76
-0.033249 0.807757 0.051251 153 0 76
-0.057882 0.934343 -0.035609 76 0 153
0.120101 0.048115 -0.165675 76 153 0
-0.145876 -0.532260 -0.147159 76 153 0
-0.199689 0.339434 0.011597 76 153 0
0.010882 0.596195 0.094201 153 0 76
0.056574 0.997990 -0.036636 76 0 153
-0.052380 -0.277507 0.199673 76 153 0
-0.206522 -0.308330 -0.007218 76 153 0
0.200971 -0.214376 -0.037314 76 153 0
0.197937 -0.187589 0.055421 76 153 0
0.170506 -0.682480 -0.008290 76 153 0
-0.165529 -0.682480 0.022053 76 153 0
-0.203082 0.124652 -0.033350 76 153 0
-0.043298 0.023001 0.200869 76 153 0
0.042943 0.863760 -0.055859 76 0 153
0.011314 -0.682480 -0.061174 76 153 0
-0.050831 0.166590 0.199877 76 153 0
-0.202058 0.086639 0.040750 76 153 0
0.024063 0.929996 0.061876 76 0 153
0.156073 -0.327376 -0.132316 76 153 0
0.079917 0.417376 0.110540 153 0 76
0.178725 0.227768 0.101803 76 153 0
0.040823 -0.346539 -0.201363 76 153 0
-0.189824 -0.486250 -0.079222 76 153 0
-0.150523 -0.218471 0.141243 76 153 0
0.201210 -0.545472 0.041569 76 153 0
-0.134985 0.100880 0.155096 76 153 0
-0.072782 -0.103415 0.191760 76 153 0
0.172821 -0.280208 -0.110489 76 153 0
0.018529 0.954495 0.066547 76 0 153
0.137237 -0.508900 -0.152525 76 153 0
0.086409 0.687821 -0.015775 153 0 76
0.100067 -0.573185 -0.182907 76 153 0
-0.203800 -0.008472 0.027517 76 153 0
-0.050469 0.271672 -0.200302 76 153 0
0.149054 0.056319 -0.141463 76 153 0
-0.052406 -0.129539 -0.200047 76 153 0
0.143586 -0.682480 0.035491 76 153 0
0.119791 0.374227 0.134059 153 0 76
0.153733 -0.046869 0.134988 76 153 0
-0.054330 -0.292925 -0.199780 76 153 0
0.183716 -0.540860 0.090983 76 153 0
0.016982 0.715787 0.080219 153 0 76
0.056671 0.635220 0.075332 153 0 76
-0.208835 -0.587328 -0.008528 76 153 0
0.191484 -0.429305 0.071001 76 153 0
-0.200331 -0.287873 0.053479 76 153 0
0.058455 0.471550 0.085388 153 0 76
-0.132001 -0.235068 0.157385 76 153 0
0.140308 0.037589 0.149792 76 153 0
0.201224 0.007629 0.035015 76 153 0
-0.108997 -0.126135 -0.175414 76 153 0
-0.044873 -0.682480 0.107011 76 153 0
0.053223 -0.432887 -0.199580 76 153 0
-0.112987 0.413382 0.084483 153 0 76
0.005217 0.847602 -0.070800 76 0 153
-0.066278 0.058342 0.194453 76 153 0
0.174170 -0.596523 -0.112211 76 153 0
0.153770 -0.487346 0.134940 76 153 0
0.187077 0.155462 -0.082017 76 153 0
-0.160310 -0.118214 -0.128865 76 153 0
0.156773 -0.682480 0.023388 76 153 0
-0.104798 -0.551470 -0.180353 76 153 0
-0.179845 -0.656205 0.085455 76 153 0
0.204119 -0.313383 -0.013404 76 153 0
0.037252 -0.682480 -0.092264 76 153 0
0.120330 -0.600801 0.167493 76 153 0
0.193379 -0.362320 -0.066804 76 153 0
-0.195576 0.241786 0.064958 76 153 0
0.049153 0.997990 0.050004 76 0 153
0.198357 -0.656851 0.003925 76 153 0
0.020298 0.856678 0.067699 76 0 153
-0.196177 -0.317422 0.063507 76 153 0
0.200915 -0.395360 0.037362 76 153 0
0.005047 0.287624 -0.206073 76 153 0
0.084616 -0.388071 -0.186577 76 153 0
0.206072 -0.573082 -0.017873 76 153 0
0.069340 -0.077598 -0.192904 76 153 0
0.001658 -0.332919 -0.206519 76 153 0
0.020704 -0.164688 -0.204012 76 153 0
0.190719 0.346081 0.048725 76 153 0
-0.198744 -0.465970 0.057310 76 153 0
-0.032433 0.997990 0.036098 76 0 153
0.089511 0.553072 0.010229 153 0 76
-0.075697 0.487502 -0.063873 153 0 76
0.072417 -0.218208 0.191253 76 153 0
-0.205467 -0.250529 -0.015232 76 153 0
-0.174140 -0.395246 -0.110842 76 153 0
-0.190617 0.146899 -0.077309 76 153 0
-0.064054 0.761416 0.021550 153 0 76
0.082191 -0.496565 0.187204 76 153 0
-0.010575 0.805028 0.058822 153 0 76
0.156038 -0.452719 0.131985 76 153 0
0.177912 -0.116354 -0.103855 76 153 0
-0.047616 -0.613793 0.201077 76 153 0
-0.202847 -0.065953 -0.035134 76 153 0
0.158969 -0.591285 -0.132430 76 153 0
0.155868 0.358893 0.108013 153 0 76
0.167576 -0.605940 0.119412 76 153 0
-0.023122 -0.325787 0.203525 76 153 0
-0.106763 -0.078373 0.176751 76 153 0
-0.095153 -0.647248 0.177649 76 153 0
-0.135500 0.256138 0.154701 76 153 0
-0.082795 0.523001 0.037502 153 0 76
0.198056 -0.596529 0.060669 76 153 0
0.064503 -0.243827 0.194531 76 153 0
0.044606 0.102645 -0.200865 76 153 0
-0.163662 -0.418012 -0.124497 76 153 0
0.040773 -0.678728 0.179125 76 153 0
-0.019009 -0.682480 -0.133834 76 153 0
0.129311 -0.017796 -0.158607 76 153 0
-0.164002 0.031130 -0.124054 76 153 0
-0.133145 0.404610 0.069322 153 0 76
0.198518 -0.159301 0.054021 76 153 0
0.049549 0.893600 0.044021 76 0 153
-0.205329 -0.151927 -0.016285 76 153 0
0.089193 0.274474 0.184303 76 153 0
-0.032908 0.660597 -0.087226 153 0 76
0.011610 0.903618 0.069581 76 0 153
-0.193691 -0.384895 -0.069888 76 153 0
-0.167668 -0.445064 0.118899 76 153 0
-0.023358 0.561614 0.089661 153 0 76
0.155522 -0.255731 0.132657 76 153 0
0.045116 0.463021 0.097451 153 0 76
0.120401 -0.070461 -0.165444 76 153 0
-0.039739 0.279649 0.201338 76 153 0
0.021702 -0.041632 -0.203880 76 153 0
-0.170768 0.100580 -0.115236 76 153 0
-0.084116 -0.141128 -0.187442 76 153 0
0.189051 -0.387801 -0.077253 76 153 0
-0.068052 0.824620 -0.022801 76 0 153
-0.063367 -0.214222 -0.196037 76 153 0
-0.030356 0.367213 0.182565 153 0 76
-0.092105 0.568431 0.018202 153 0 76
-0.051720 -0.682480 0.149124 76 153 0
0.185543 -0.335297 0.085343 76 153 0
0.079347 0.327975 0.185174 76 153 0
0.006711 -0.019169 0.205476 76 153 0
0.029925 0.384182 0.168426 153 0 76
0.072885 -0.682480 0.038715 76 153 0
0.102596 0.249436 0.178730 76 153 0
0.129483 0.193439 0.158098 76 153 0
0.068035 0.168347 -0.193445 76 153 0
-0.025766 -0.601256 -0.205418 76 153 0
0.014597 0.997990 0.011719 76 0 153
-0.163873 -0.100545 0.123845 76 153 0
-0.186819 -0.606668 0.089878 76 153 0
0.043943 0.678427 -0.079224 153 0 76
0.096329 0.148966 0.181348 76 153 0
0.201610 0.149302 -0.032458 76 153 0
0.201365 0.109294 -0.034325 76 153 0
-0.200127 0.324810 -0.038504 76 153 0
-0.176016 -0.541029 -0.109189 76 153 0
-0.207099 -0.497016 -0.002837 76 153 0
0.204751 0.022379 0.008228 76 153 0
0.163625 0.094049 -0.122474 76 153 0
0.202623 -0.191197 0.024388 76 153 0
0.201163 -0.538979 -0.038512 76 153 0
-0.031570 0.799255 -0.053298 153 0 76
-0.188430 -0.030651 -0.082587 76 153 0
0.020040 -0.136638 0.203722 76 153 0
0.007791 -0.096931 0.205334 76 153 0
-0.194968 -0.603767 0.070767 76 153 0
0.128441 -0.433621 0.158898 76 153 0
0.115077 0.392413 0.115241 153 0 76
0.176361 -0.478078 -0.105876 76 153 0
-0.119624 0.169454 0.166882 76 153 0
0.142890 -0.176097 -0.148188 76 153 0
-0.093772 -0.113252 0.183065 76 153 0
-0.204578 -0.609429 -0.031259 76 153 0
0.017783 -0.319177 0.204019 76 153 0
0.049836 -0.135598 -0.200176 76 153 0
0.130667 0.171741 -0.157567 76 153 0
0.124707 -0.120366 -0.162140 76 153 0
-0.201429 -0.334840 -0.045908 76 153 0
0.182855 -0.351021 -0.092210 76 153 0
-0.076512 0.564921 -0.053400 153 0 76
-0.017007 -0.453326 0.204330 76 153 0
-0.096120 0.631059 -0.005085 153 0 76
0.097875 -0.681251 0.150978 76 153 0
0.178477 -0.126227 0.102404 76 153 0
0.014173 -0.526852 0.204422 76 153 0
0.086626 0.345826 -0.176523 76 153 0
0.069893 -0.682480 -0.047814 76 153 0
-0.180260 0.122453 -0.102312 76 153 0
-0.204918 -0.397931 0.019031 76 153 0
0.014501 0.369200 -0.183530 76 153 0
0.010795 0.917282 -0.066093 76 0 153
0.007662 0.739228 -0.074780 153 0 76
0.108429 -0.254289 0.174253 76 153 0
-0.205266 0.041773 -0.016758 76 153 0
-0.170793 -0.177879 -0.115204 76 153 0
-0.083565 0.482551 0.055816 153 0 76
-0.124218 -0.006735 -0.163735 76 153 0
0.107712 -0.282925 0.174804 76 153 0
0.032645 -0.222647 0.202062 76 153 0
0.070950 0.744931 0.014086 153 0 76
0.115261 0.102336 0.169011 76 153 0
-0.047762 0.183769 -0.200659 76 153 0
0.160911 -0.659281 0.112802 76 153 0
0.065627 0.949013 -0.007847 76 0 153
-0.084152 0.490044 -0.051534 153 0 76
-0.109053 -0.682480 0.069246 76 153 0
-0.025315 0.193914 -0.203614 76 153 0
-0.075968 0.647992 0.056377 153 0 76
-0.207376 0.079120 0.000355 76 153 0
0.180389 -0.251407 -0.098164 76 153 0
0.174572 0.309489 0.107316 76 153 0
-0.105657 0.277455 0.177600 76 153 0
-0.150712 -0.133842 -0.141374 76 153 0
0.049495 0.758353 -0.046431 153 0 76
-0.151482 0.050118 -0.140370 76 153 0
-0.138262 0.041041 -0.152959 76 153 0
0.035526 0.630297 0.087806 153 0 76
0.056956 -0.063482 -0.198034 76 153 0
-0.084911 -0.682480 -0.104369 76 153 0
0.141935 0.084584 0.148544 76 153 0
0.043084 0.850060 0.055373 76 0 153
-0.030662 0.770513 0.055574 153 0 76
-0.117242 -0.582417 -0.172273 76 153 0
0.167935 -0.388666 -0.116857 76 153 0
-0.098746 -0.612528 -0.182354 76 153 0
-0.123427 -0.661409 -0.153354 76 153 0
-0.193894 -0.050599 -0.069397 76 153 0
-0.088619 0.552986 -0.025646 153 0 76
0.146958 -0.036008 -0.144194 76 153 0
-0.072045 -0.682480 -0.053876 76 153 0
-0.145139 -0.323081 0.147304 76 153 0
0.081425 -0.260319 0.187521 76 153 0
-0.116886 -0.345982 -0.169361 76 153 0
0.192287 -0.238479 -0.069440 76 153 0
0.201308 0.125894 0.034375 76 153 0
-0.176072 -0.564981 0.111661 76 153 0
-0.126211 0.376313 -0.128688 76 153 0
-0.197322 -0.621037 0.060561 76 153 0
-0.156558 -0.426484 0.133378 76 153 0
0.107087 0.463128 -0.006088 153 0 76
0.070465 0.972429 -0.001269 76 0 153
-0.042378 0.046690 0.200990 76 153 0
0.088382 -0.376985 0.184639 76 153 0
0.093493 -0.131497 0.182522 76 153 0
0.017071 -0.606045 0.205618 76 153 0
-0.030586 0.448083 0.112330 153 0 76
0.033419 0.699783 -0.079112 153 0 76
0.055910 0.287010 -0.198467 76 153 0
0.162117 -0.343723 -0.124439 76 153 0
0.180272 -0.499525 0.098070 76 153 0
-0.120605 -0.557820 0.168465 76 153 0
-0.058310 0.021872 0.197754 76 153 0
0.069758 0.361204 -0.175446 76 153 0
0.054166 0.997990 0.020028 76 0 153
0.185395 0.254557 -0.086077 76 153 0
-0.188854 -0.128674 0.081186 76 153 0
-0.161196 -0.035149 -0.127710 76 153 0
-0.169123 -0.249793 0.117003 76 153 0
0.091197 0.424212 -0.095371 153 0 76
0.011999 -0.001863 -0.205158 76 153 0
0.020569 0.455008 0.109712 153 0 76
