-0.511050 -0.493158 0.264778 0.600000 0.000000 0.300000
-0.333971 -0.412625 0.382030 1.000000 0.000000 0.000000
0.006049 -0.301644 0.178738 0.600000 0.000000 0.300000
0.121734 0.028608 -0.520932 0.600000 0.000000 0.300000
0.501249 -0.050934 0.137076 0.600000 0.000000 0.300000
0.433516 -0.069696 -0.401978 0.600000 0.000000 0.300000
-0.446597 -0.297032 -0.063296 0.600000 0.000000 0.300000
-0.029758 0.620546 -0.272677 0.600000 0.000000 0.300000
0.501249 0.065399 0.085902 0.600000 0.000000 0.300000
0.033157 0.477956 0.486501 1.000000 0.000000 0.000000
0.501249 -0.079960 0.058726 0.600000 0.000000 0.300000
0.370762 0.160141 0.134575 0.300000 0.600000 0.000000
-0.465115 -0.457121 0.374912 1.000000 0.000000 0.000000
0.149661 -0.128999 0.417942 1.000000 0.000000 0.000000
-0.258421 -0.169223 0.417942 1.000000 0.000000 0.000000
-0.343096 -0.111430 0.417942 1.000000 0.000000 0.000000
0.299574 -0.180652 -0.475771 0.600000 0.000000 0.300000
-0.283818 0.099972 -0.464466 0.600000 0.000000 0.300000
-0.514070 -0.355597 0.429673 1.000000 0.000000 0.000000
0.396005 0.595174 0.385280 0.600000 0.000000 0.300000
0.001273 0.708741 -0.514560 0.600000 0.000000 0.300000
-0.265160 0.189228 0.028273 0.300000 0.600000 0.000000
-0.445456 -0.387774 -0.382480 0.600000 0.000000 0.300000
-0.013727 -0.315767 0.486501 1.000000 0.000000 0.000000
-0.188753 -0.341749 -0.520932 0.600000 0.000000 0.300000
0.444812 0.325356 -0.357234 0.600000 0.000000 0.300000
-0.514070 0.270324 0.177146 0.600000 0.000000 0.300000
0.501249 0.412756 0.077420 0.600000 0.000000 0.300000
0.444812 0.036336 0.186830 0.600000 0.000000 0.300000
-0.001363 0.336081 -0.513013 0.600000 0.000000 0.300000
-0.329944 0.655563 0.357807 1.000000 0.000000 0.000000
-0.514070 -0.186427 -0.240663 0.600000 0.000000 0.300000
-0.514070 -0.258890 0.112454 0.600000 0.000000 0.300000
0.123670 0.708741 0.097031 0.600000 0.000000 0.300000
0.444812 0.095690 0.236997 0.600000 0.000000 0.300000
-0.058781 0.159730 0.217026 0.300000 0.600000 0.000000
0.244419 -0.103237 -0.464466 0.600000 0.000000 0.300000
0.501249 0.256767 0.103624 0.600000 0.000000 0.300000
-0.514070 0.253156 -0.300995 0.600000 0.000000 0.300000
-0.217481 -0.099098 -0.472721 0.600000 0.000000 0.300000
-0.457893 0.090836 -0.319722 0.600000 0.000000 0.300000
-0.381896 0.161753 0.016913 0.300000 0.600000 0.000000
0.306559 0.668017 0.486501 1.000000 0.000000 0.000000
0.347547 -0.430357 0.382030 1.000000 0.000000 0.000000
-0.446597 0.144270 0.113082 0.600000 0.000000 0.300000
-0.416774 0.551295 -0.130023 0.600000 0.000000 0.300000
-0.514070 -0.048883 0.064034 0.600000 0.000000 0.300000
-0.200657 -0.485096 -0.178743 0.600000 0.000000 0.300000
-0.383656 -0.039764 0.486501 1.000000 0.000000 0.000000
0.122102 0.193572 -0.076038 0.300000 0.600000 0.000000
-0.514070 -0.486059 0.453995 1.000000 0.000000 0.000000
0.350852 0.599459 0.123089 0.600000 0.000000 0.300000
-0.127434 0.226187 0.417942 1.000000 0.000000 0.000000
0.367185 0.268558 -0.213341 0.300000 0.600000 0.000000
0.201454 -0.493158 0.306636 0.600000 0.000000 0.300000
0.412005 0.708741 0.082868 0.600000 0.000000 0.300000
0.451157 0.700521 0.418607 1.000000 0.000000 0.000000
0.256613 -0.553421 0.199949 0.600000 0.000000 0.300000
0.496945 0.037583 0.418607 1.000000 0.000000 0.000000
0.297839 -0.392256 -0.469528 0.600000 0.000000 0.300000
-0.061345 0.312011 -0.464466 0.600000 0.000000 0.300000
-0.002704 -0.738365 -0.144178 0.600000 0.000000 0.300000
-0.020324 -0.469106 0.210383 0.600000 0.000000 0.300000
0.019602 0.656864 0.486501 1.000000 0.000000 0.000000
-0.514070 0.484391 0.082726 0.600000 0.000000 0.300000
-0.457893 -0.029885 -0.338318 0.600000 0.000000 0.300000
-0.377158 0.164500 0.202912 0.300000 0.600000 0.000000
-0.514070 -0.688003 0.281636 0.600000 0.000000 0.300000
-0.393356 -0.713379 0.302509 0.600000 0.000000 0.300000
0.501674 -0.344337 -0.048610 0.000000 0.500000 0.500000
-0.010633 -0.472440 -0.279254 0.600000 0.000000 0.300000
-0.446597 -0.048614 0.114229 0.600000 0.000000 0.300000
0.444812 -0.113770 0.238808 0.600000 0.000000 0.300000
0.274649 0.451800 -0.464466 0.600000 0.000000 0.300000
0.080593 -0.363837 -0.520932 0.600000 0.000000 0.300000
0.054786 -0.432883 -0.011459 0.600000 0.000000 0.300000
-0.455311 -0.308420 -0.130046 0.600000 0.000000 0.300000
0.373916 -0.464770 0.488454 1.000000 0.000000 0.000000
-0.514070 0.649791 -0.473866 0.600000 0.000000 0.300000
-0.100772 -0.260127 0.417942 1.000000 0.000000 0.000000
-0.514070 0.472634 -0.372094 0.600000 0.000000 0.300000
0.012959 -0.419897 -0.472634 0.600000 0.000000 0.300000
0.082113 -0.466842 -0.260083 0.600000 0.000000 0.300000
0.261624 0.620546 -0.396060 0.600000 0.000000 0.300000
0.433516 -0.384828 -0.376921 0.600000 0.000000 0.300000
-0.394454 0.147464 -0.466959 0.600000 0.000000 0.300000
0.501249 -0.561219 -0.125197 0.600000 0.000000 0.300000
0.498872 0.319811 0.486501 1.000000 0.000000 0.000000
0.098847 -0.738365 -0.181635 0.600000 0.000000 0.300000
0.380387 0.258504 -0.464466 0.600000 0.000000 0.300000
-0.079853 0.708741 0.361419 0.600000 0.000000 0.300000
0.080622 0.708741 -0.002680 0.600000 0.000000 0.300000
-0.100911 -0.488416 0.077675 0.600000 0.000000 0.300000
-0.457893 0.270337 -0.137936 0.600000 0.000000 0.300000
0.454444 0.514025 -0.520932 0.600000 0.000000 0.300000
-0.323346 0.376452 -0.475771 0.600000 0.000000 0.300000
0.332482 -0.190863 -0.336130 0.600000 0.000000 0.300000
-0.088271 -0.488418 0.137542 0.600000 0.000000 0.300000
-0.358073 0.447573 0.486501 1.000000 0.000000 0.000000
0.433516 -0.223618 -0.365445 0.600000 0.000000 0.300000
-0.514070 0.398368 0.209060 0.600000 0.000000 0.300000
-0.265925 -0.309930 -0.206899 0.600000 0.000000 0.300000
-0.310252 -0.493158 0.312620 0.600000 0.000000 0.300000
-0.068359 -0.535250 0.199947 0.600000 0.000000 0.300000
0.266897 0.300437 0.486501 1.000000 0.000000 0.000000
0.264964 -0.497333 0.418607 1.000000 0.000000 0.000000
-0.502915 -0.096937 -0.520932 0.600000 0.000000 0.300000
-0.223087 0.601546 -0.464466 0.600000 0.000000 0.300000
-0.376084 0.214421 0.057292 0.300000 0.600000 0.000000
-0.309559 -0.550767 0.430698 1.000000 0.000000 0.000000
0.433516 0.007050 -0.267906 0.600000 0.000000 0.300000
-0.046004 0.134455 -0.253709 0.300000 0.600000 0.000000
-0.130943 0.197326 -0.000378 0.300000 0.600000 0.000000
-0.514070 0.278907 -0.121039 0.600000 0.000000 0.300000
0.416676 0.514339 0.486501 1.000000 0.000000 0.000000
0.437710 -0.308565 -0.004761 0.600000 0.000000 0.300000
-0.002201 -0.610275 0.290472 0.600000 0.000000 0.300000
0.476538 -0.738367 0.062587 0.600000 0.000000 0.300000
-0.095593 0.620546 -0.135783 0.600000 0.000000 0.300000
0.021295 0.708741 -0.064422 0.600000 0.000000 0.300000
0.403053 -0.415047 -0.520932 0.600000 0.000000 0.300000
0.043287 -0.716299 0.324989 0.600000 0.000000 0.300000
-0.514070 0.356031 0.463445 1.000000 0.000000 0.000000
0.433516 0.320314 0.113399 0.600000 0.000000 0.300000
-0.390119 -0.312002 -0.520932 0.600000 0.000000 0.300000
-0.183421 0.055153 -0.520932 0.600000 0.000000 0.300000
0.382325 0.088487 0.383856 1.000000 0.000000 0.000000
-0.465115 0.542223 0.406919 1.000000 0.000000 0.000000
0.150731 -0.396577 -0.466317 0.600000 0.000000 0.300000
-0.202631 -0.123572 0.486501 1.000000 0.000000 0.000000
-0.105075 -0.242061 0.486501 1.000000 0.000000 0.000000
-0.514070 -0.008638 0.360984 0.600000 0.000000 0.300000
-0.507133 0.050074 0.486501 1.000000 0.000000 0.000000
0.125438 -0.738363 -0.322375 0.600000 0.000000 0.300000
-0.446597 -0.377279 -0.000148 0.600000 0.000000 0.300000
-0.442404 -0.447317 0.229579 0.600000 0.000000 0.300000
0.104970 0.039405 0.417942 1.000000 0.000000 0.000000
-0.457893 0.094828 0.191240 0.600000 0.000000 0.300000
0.111511 -0.269806 -0.468192 0.600000 0.000000 0.300000
0.501249 0.199701 -0.189848 0.600000 0.000000 0.300000
0.236868 0.702708 0.486501 1.000000 0.000000 0.000000
-0.514070 -0.174456 -0.129856 0.600000 0.000000 0.300000
-0.357648 0.602561 -0.396942 0.600000 0.000000 0.300000
0.433516 0.360202 -0.224687 0.600000 0.000000 0.300000
0.224408 -0.465519 0.106957 0.600000 0.000000 0.300000
-0.379076 0.309342 0.165895 0.300000 0.600000 0.000000
-0.068523 -0.348887 -0.156904 0.600000 0.000000 0.300000
0.199383 -0.211771 0.417942 1.000000 0.000000 0.000000
0.433516 -0.328921 0.137669 0.600000 0.000000 0.300000
-0.100017 0.708741 0.098374 0.600000 0.000000 0.300000
-0.457893 -0.017011 0.214423 0.600000 0.000000 0.300000
0.433211 -0.387319 0.062883 0.600000 0.000000 0.300000
-0.031084 -0.455532 -0.418253 0.600000 0.000000 0.300000
-0.334632 0.612127 0.227769 0.600000 0.000000 0.300000
0.083449 0.708741 0.362540 0.600000 0.000000 0.300000
0.437837 0.007606 0.486501 1.000000 0.000000 0.000000
-0.113524 -0.317259 0.111070 0.600000 0.000000 0.300000
0.433516 -0.045459 -0.021421 0.600000 0.000000 0.300000
0.058036 -0.347368 -0.061064 0.600000 0.000000 0.300000
0.199793 0.017586 -0.469845 0.600000 0.000000 0.300000
0.351113 -0.045816 0.486501 1.000000 0.000000 0.000000
-0.468533 0.334024 0.486501 1.000000 0.000000 0.000000
0.388869 0.428780 -0.464466 0.600000 0.000000 0.300000
-0.110452 -0.321922 0.228383 0.600000 0.000000 0.300000
-0.353857 -0.467043 0.382030 1.000000 0.000000 0.000000
-0.286545 -0.339217 0.033335 0.600000 0.000000 0.300000
-0.210973 0.276297 0.285746 0.300000 0.600000 0.000000
0.499042 0.708741 -0.519915 0.600000 0.000000 0.300000
0.433516 -0.241599 -0.460989 0.600000 0.000000 0.300000
-0.105145 0.235074 -0.138136 0.300000 0.600000 0.000000
-0.350890 0.440152 -0.475771 0.600000 0.000000 0.300000
-0.348850 -0.349068 -0.135940 0.600000 0.000000 0.300000
-0.498365 0.385487 0.418607 1.000000 0.000000 0.000000
-0.125786 0.196600 0.168637 0.300000 0.600000 0.000000
0.138924 0.464845 -0.520932 0.600000 0.000000 0.300000
0.456468 -0.522917 0.199952 0.600000 0.000000 0.300000
0.501249 -0.152816 -0.217345 0.600000 0.000000 0.300000
0.016251 -0.157531 0.313682 0.600000 0.000000 0.300000
0.457315 -0.436563 0.486501 1.000000 0.000000 0.000000
-0.392500 -0.596290 0.268204 0.600000 0.000000 0.300000
-0.514070 0.310290 0.054300 0.600000 0.000000 0.300000
-0.148859 -0.738361 -0.369824 0.600000 0.000000 0.300000
0.407702 0.545291 0.065631 0.600000 0.000000 0.300000
0.370939 0.586067 -0.331193 0.600000 0.000000 0.300000
0.281384 -0.152999 0.486501 1.000000 0.000000 0.000000
-0.405140 0.205571 0.171902 0.300000 0.600000 0.000000
0.326067 -0.457629 -0.094992 0.600000 0.000000 0.300000
0.378298 -0.453803 0.006297 0.600000 0.000000 0.300000
0.261703 0.190649 -0.140721 0.300000 0.600000 0.000000
0.048501 -0.738363 -0.303750 0.600000 0.000000 0.300000
0.383413 -0.331713 0.382030 1.000000 0.000000 0.000000
-0.514070 0.309885 0.364576 0.600000 0.000000 0.300000
0.318455 0.184215 0.417942 1.000000 0.000000 0.000000
0.353837 -0.331891 0.035545 0.600000 0.000000 0.300000
-0.514070 0.626538 0.068928 0.600000 0.000000 0.300000
0.501249 -0.266630 -0.501086 0.600000 0.000000 0.300000
-0.446597 0.131619 0.310370 0.600000 0.000000 0.300000
0.191518 0.349957 0.486501 1.000000 0.000000 0.000000
-0.267587 0.620546 0.227859 0.600000 0.000000 0.300000
-0.268753 -0.484583 -0.084307 0.600000 0.000000 0.300000
0.501249 -0.419556 -0.405098 0.600000 0.000000 0.300000
0.451796 -0.738364 -0.246112 0.600000 0.000000 0.300000
0.190537 0.230255 0.486501 1.000000 0.000000 0.000000
0.501249 -0.293125 -0.243733 0.600000 0.000000 0.300000
-0.172762 0.620546 0.220161 0.600000 0.000000 0.300000
0.453144 0.532175 0.362587 1.000000 0.000000 0.000000
0.444812 0.117846 -0.350649 0.600000 0.000000 0.300000
-0.004543 -0.121280 -0.018532 0.600000 0.000000 0.300000
0.490371 0.154107 -0.520932 0.600000 0.000000 0.300000
0.449751 0.708741 0.206490 0.600000 0.000000 0.300000
0.148194 0.573580 -0.464466 0.600000 0.000000 0.300000
-0.269518 0.037756 0.381365 1.000000 0.000000 0.000000
0.403004 -0.127849 0.149848 0.600000 0.000000 0.300000
-0.137941 0.524942 0.360084 1.000000 0.000000 0.000000
0.373866 0.708741 -0.277212 0.600000 0.000000 0.300000
0.406468 0.120490 0.486501 1.000000 0.000000 0.000000
0.114552 0.277001 -0.473228 0.600000 0.000000 0.300000
-0.437394 -0.444590 -0.193855 0.600000 0.000000 0.300000
-0.514070 -0.444895 -0.279892 0.600000 0.000000 0.300000
-0.313030 0.488832 -0.475771 0.600000 0.000000 0.300000
0.284410 0.495014 -0.520932 0.600000 0.000000 0.300000
0.201061 -0.138423 0.486501 1.000000 0.000000 0.000000
0.433516 0.367588 -0.039169 0.600000 0.000000 0.300000
0.433516 0.261297 -0.452590 0.600000 0.000000 0.300000
-0.430936 -0.008622 -0.520932 0.600000 0.000000 0.300000
0.444812 -0.158661 -0.151853 0.600000 0.000000 0.300000
-0.514070 0.365328 -0.289812 0.600000 0.000000 0.300000
0.202928 0.620546 0.012305 0.600000 0.000000 0.300000
0.072380 0.230642 0.292809 0.300000 0.600000 0.000000
0.473487 -0.184858 0.486501 1.000000 0.000000 0.000000
-0.382723 -0.466716 0.010161 0.600000 0.000000 0.300000
-0.178803 -0.477664 -0.520932 0.600000 0.000000 0.300000
0.267548 -0.738367 -0.010756 0.600000 0.000000 0.300000
-0.077593 -0.738367 0.013837 0.600000 0.000000 0.300000
0.501249 0.303347 -0.153777 0.600000 0.000000 0.300000
-0.410569 -0.287148 0.031361 0.600000 0.000000 0.300000
-0.271010 -0.227382 -0.520932 0.600000 0.000000 0.300000
0.089432 0.576823 0.486501 1.000000 0.000000 0.000000
0.202200 0.008835 0.417942 1.000000 0.000000 0.000000
-0.109134 -0.213650 0.210731 0.600000 0.000000 0.300000
-0.428089 0.708741 -0.488089 0.600000 0.000000 0.300000
-0.446597 0.324436 0.167051 0.600000 0.000000 0.300000
-0.514070 0.659364 0.188394 0.600000 0.000000 0.300000
0.165981 -0.190750 -0.209257 0.600000 0.000000 0.300000
0.501249 -0.324441 0.219947 0.600000 0.000000 0.300000
0.444002 -0.172056 -0.520932 0.600000 0.000000 0.300000
0.113445 0.620546 -0.256614 0.600000 0.000000 0.300000
-0.004305 -0.116171 0.486501 1.000000 0.000000 0.000000
-0.453648 -0.341284 0.486501 1.000000 0.000000 0.000000
0.177014 -0.469128 0.077732 0.600000 0.000000 0.300000
-0.257166 0.708741 0.072000 0.600000 0.000000 0.300000
-0.514070 0.312979 -0.460705 0.600000 0.000000 0.300000
-0.514070 -0.539811 0.126534 0.600000 0.000000 0.300000
-0.514070 0.090795 0.317470 0.600000 0.000000 0.300000
-0.000328 0.708741 0.042773 0.600000 0.000000 0.300000
-0.438974 -0.451642 0.112770 0.600000 0.000000 0.300000
-0.190728 0.708741 0.206778 0.600000 0.000000 0.300000
0.363402 0.607367 -0.520932 0.600000 0.000000 0.300000
0.146303 -0.462745 -0.273507 0.600000 0.000000 0.300000
-0.446597 -0.192193 -0.388098 0.600000 0.000000 0.300000
-0.212474 0.289391 0.486501 1.000000 0.000000 0.000000
-0.380256 -0.282962 0.179285 0.600000 0.000000 0.300000
0.010854 0.127292 -0.417004 0.300000 0.600000 0.000000
0.151261 -0.488069 0.486501 1.000000 0.000000 0.000000
0.501249 0.069753 0.372083 0.600000 0.000000 0.300000
-0.248725 0.231647 -0.520932 0.600000 0.000000 0.300000
-0.446597 -0.184049 -0.069065 0.600000 0.000000 0.300000
0.105730 -0.123431 0.337307 0.600000 0.000000 0.300000
-0.514070 0.600812 -0.183673 0.600000 0.000000 0.300000
-0.310565 0.618109 0.027921 0.600000 0.000000 0.300000
-0.282445 0.620546 -0.448145 0.600000 0.000000 0.300000
0.228700 0.647228 0.552524 0.000000 1.000000 0.000000
-0.398451 -0.339125 -0.108872 0.600000 0.000000 0.300000
-0.025918 0.708741 -0.465943 0.600000 0.000000 0.300000
0.239400 -0.464105 -0.113434 0.600000 0.000000 0.300000
0.310612 0.385555 -0.520932 0.600000 0.000000 0.300000
0.183324 0.196884 0.417942 1.000000 0.000000 0.000000
-0.055392 -0.386782 -0.469327 0.600000 0.000000 0.300000
0.134797 -0.178071 0.486501 1.000000 0.000000 0.000000
-0.004543 -0.281260 -0.000847 0.600000 0.000000 0.300000
-0.514070 -0.515274 -0.022150 0.600000 0.000000 0.300000
-0.469904 -0.738362 -0.252454 0.600000 0.000000 0.300000
0.403734 0.708741 -0.086037 0.600000 0.000000 0.300000
0.018052 0.134358 -0.211651 0.300000 0.600000 0.000000
0.006215 -0.676262 -0.520932 0.600000 0.000000 0.300000
-0.076092 0.708741 -0.171865 0.600000 0.000000 0.300000
-0.481301 -0.572796 0.230797 0.600000 0.000000 0.300000
-0.308195 0.556402 0.486501 1.000000 0.000000 0.000000
0.279602 0.184722 -0.464466 0.600000 0.000000 0.300000
0.499722 -0.593411 0.263622 0.600000 0.000000 0.300000
0.501249 0.656874 0.059579 0.600000 0.000000 0.300000
-0.193506 0.220717 -0.520932 0.600000 0.000000 0.300000
0.305633 -0.289266 -0.520932 0.600000 0.000000 0.300000
-0.514070 0.095627 -0.260370 0.600000 0.000000 0.300000
-0.054847 0.139164 -0.471454 0.600000 0.000000 0.300000
0.123048 0.595430 0.360084 1.000000 0.000000 0.000000
0.501249 -0.247137 0.293513 0.600000 0.000000 0.300000
-0.081500 -0.549935 -0.520932 0.600000 0.000000 0.300000
0.300906 0.083523 -0.475771 0.600000 0.000000 0.300000
-0.258696 -0.504604 -0.521358 0.000000 0.500000 0.500000
0.053445 0.020255 0.486501 1.000000 0.000000 0.000000
-0.446597 -0.098708 0.094823 0.600000 0.000000 0.300000
-0.402996 0.375802 -0.072775 0.300000 0.600000 0.000000
-0.229616 -0.738361 -0.353827 0.600000 0.000000 0.300000
-0.115413 0.708741 0.009712 0.600000 0.000000 0.300000
-0.263842 -0.738362 -0.276202 0.600000 0.000000 0.300000
-0.347846 0.708741 0.217411 0.600000 0.000000 0.300000
0.368716 -0.738366 -0.065516 0.600000 0.000000 0.300000
0.404019 -0.738369 0.253309 0.600000 0.000000 0.300000
-0.076869 0.381138 -0.520932 0.600000 0.000000 0.300000
-0.316903 0.156973 0.218442 0.300000 0.600000 0.000000
0.292852 -0.431663 0.382030 1.000000 0.000000 0.000000
-0.001979 0.236361 0.486501 1.000000 0.000000 0.000000
0.359972 0.642454 0.486501 1.000000 0.000000 0.000000
0.501249 -0.694449 -0.179103 0.600000 0.000000 0.300000
-0.097744 -0.136963 0.486501 1.000000 0.000000 0.000000
0.044015 0.620546 0.085376 0.600000 0.000000 0.300000
0.365151 -0.738367 0.027216 0.600000 0.000000 0.300000
-0.051092 -0.056415 0.417942 1.000000 0.000000 0.000000
0.165887 0.049531 0.486501 1.000000 0.000000 0.000000
0.066517 -0.476043 -0.091292 0.600000 0.000000 0.300000
0.139657 -0.738367 0.036641 0.600000 0.000000 0.300000
0.036439 0.620546 -0.089184 0.600000 0.000000 0.300000
-0.230030 0.708741 -0.328564 0.600000 0.000000 0.300000
-0.412931 0.016817 0.486501 1.000000 0.000000 0.000000
0.449592 -0.265959 0.350109 1.000000 0.000000 0.000000
0.043054 0.127959 -0.098154 0.300000 0.600000 0.000000
0.053263 -0.458774 0.284346 0.600000 0.000000 0.300000
-0.042378 0.708741 0.213733 0.600000 0.000000 0.300000
0.093536 -0.226505 -0.520932 0.600000 0.000000 0.300000
0.325946 -0.738368 0.099745 0.600000 0.000000 0.300000
0.453144 -0.445155 0.383410 1.000000 0.000000 0.000000
0.016109 -0.240128 -0.043566 0.600000 0.000000 0.300000
-0.213986 0.195799 -0.294140 0.300000 0.600000 0.000000
-0.105455 -0.720951 -0.520932 0.600000 0.000000 0.300000
-0.368991 -0.626823 -0.520932 0.600000 0.000000 0.300000
-0.060624 0.172360 -0.072758 0.300000 0.600000 0.000000
0.118158 -0.342194 -0.339740 0.600000 0.000000 0.300000
-0.371130 0.260384 -0.298043 0.300000 0.600000 0.000000
0.501249 0.676893 -0.051649 0.600000 0.000000 0.300000
-0.231424 0.020722 -0.464466 0.600000 0.000000 0.300000
0.359879 0.318397 0.360084 1.000000 0.000000 0.000000
0.374417 0.169311 -0.521358 0.000000 0.500000 0.500000
0.363241 0.292982 0.054984 0.300000 0.600000 0.000000
-0.284877 0.407235 0.292138 0.300000 0.600000 0.000000
0.040592 -0.049401 0.417942 1.000000 0.000000 0.000000
0.207664 -0.321635 0.417942 1.000000 0.000000 0.000000
0.394775 0.017511 0.382030 1.000000 0.000000 0.000000
-0.201667 0.461797 -0.520932 0.600000 0.000000 0.300000
-0.053566 0.591742 -0.476452 0.600000 0.000000 0.300000
-0.029796 -0.482739 -0.055719 0.600000 0.000000 0.300000
-0.407251 -0.467594 0.382030 1.000000 0.000000 0.000000
-0.114770 -0.269026 0.278441 0.600000 0.000000 0.300000
-0.049047 -0.301272 0.071792 0.600000 0.000000 0.300000
0.433516 -0.339494 -0.411051 0.600000 0.000000 0.300000
0.501249 0.407549 -0.120087 0.600000 0.000000 0.300000
-0.021331 -0.224014 -0.520932 0.600000 0.000000 0.300000
-0.402136 0.351265 -0.211710 0.300000 0.600000 0.000000
0.401230 -0.108785 0.486501 1.000000 0.000000 0.000000
-0.331507 0.203031 -0.520932 0.600000 0.000000 0.300000
0.319906 -0.293570 0.486501 1.000000 0.000000 0.000000
0.502100 -0.027217 0.426654 1.000000 0.000000 0.000000
0.501249 -0.346209 0.398087 0.600000 0.000000 0.300000
-0.407761 -0.179867 0.182233 0.600000 0.000000 0.300000
0.159477 -0.128519 -0.458919 0.600000 0.000000 0.300000
0.433516 0.429222 -0.256680 0.600000 0.000000 0.300000
0.265159 0.620546 -0.293226 0.600000 0.000000 0.300000
0.502100 0.436911 0.435038 1.000000 0.000000 0.000000
-0.266402 0.351911 -0.442267 0.300000 0.600000 0.000000
0.062357 0.342102 -0.447678 0.300000 0.600000 0.000000
0.258488 0.498067 0.486501 1.000000 0.000000 0.000000
-0.013113 0.648607 0.560507 0.000000 1.000000 0.000000
-0.514070 0.518559 0.302628 0.600000 0.000000 0.300000
0.286489 0.708741 -0.134760 0.600000 0.000000 0.300000
-0.094577 -0.164663 0.313313 0.600000 0.000000 0.300000
-0.125593 0.295305 0.486501 1.000000 0.000000 0.000000
0.019115 -0.602115 -0.520932 0.600000 0.000000 0.300000
0.067869 0.078554 -0.464466 0.600000 0.000000 0.300000
-0.114229 -0.347216 0.486501 1.000000 0.000000 0.000000
0.501249 0.249770 0.374765 0.600000 0.000000 0.300000
-0.392381 0.708741 -0.244814 0.600000 0.000000 0.300000
0.353877 -0.175293 -0.521358 0.000000 0.500000 0.500000
-0.457196 0.561072 0.350109 1.000000 0.000000 0.000000
-0.496321 -0.599079 -0.520932 0.600000 0.000000 0.300000
-0.344254 0.105118 0.417942 1.000000 0.000000 0.000000
-0.198152 -0.451135 0.346663 0.600000 0.000000 0.300000
0.051030 0.128562 0.417942 1.000000 0.000000 0.000000
0.259142 0.090288 0.417942 1.000000 0.000000 0.000000
-0.114394 -0.131456 -0.464466 0.600000 0.000000 0.300000
0.087574 0.620546 0.303721 0.600000 0.000000 0.300000
0.177523 -0.219627 0.170705 0.600000 0.000000 0.300000
0.501249 -0.081960 -0.046137 0.600000 0.000000 0.300000
-0.457893 0.306458 -0.311362 0.600000 0.000000 0.300000
0.501249 0.656262 -0.261873 0.600000 0.000000 0.300000
0.267626 0.201454 -0.521358 0.000000 0.500000 0.500000
-0.337366 -0.684272 0.302509 0.600000 0.000000 0.300000
0.239946 0.082646 -0.520932 0.600000 0.000000 0.300000
0.347465 -0.319692 -0.212060 0.600000 0.000000 0.300000
0.040859 0.273371 -0.520932 0.600000 0.000000 0.300000
0.295824 -0.458573 -0.215471 0.600000 0.000000 0.300000
-0.514070 -0.012220 0.171582 0.600000 0.000000 0.300000
0.324285 0.611198 0.298729 0.600000 0.000000 0.300000
-0.212190 -0.738365 -0.120902 0.600000 0.000000 0.300000
0.501249 0.118624 -0.267860 0.600000 0.000000 0.300000
-0.261222 -0.347682 -0.170443 0.600000 0.000000 0.300000
-0.446597 0.068897 -0.084728 0.600000 0.000000 0.300000
-0.004983 -0.420247 -0.385985 0.600000 0.000000 0.300000
0.501249 0.393180 0.126300 0.600000 0.000000 0.300000
0.433516 0.143749 0.315625 0.600000 0.000000 0.300000
-0.249286 -0.354280 0.486501 1.000000 0.000000 0.000000
0.369313 0.235382 0.486501 1.000000 0.000000 0.000000
0.501249 0.029642 -0.216272 0.600000 0.000000 0.300000
-0.318794 -0.449599 -0.392949 0.600000 0.000000 0.300000
-0.330129 -0.738361 -0.334376 0.600000 0.000000 0.300000
0.288625 -0.738363 -0.373111 0.600000 0.000000 0.300000
-0.412763 0.402499 -0.254605 0.300000 0.600000 0.000000
-0.389679 0.505691 0.486501 1.000000 0.000000 0.000000
-0.175466 0.481409 -0.475771 0.600000 0.000000 0.300000
-0.212272 -0.605849 0.283425 0.600000 0.000000 0.300000
-0.402104 0.371683 0.166482 0.300000 0.600000 0.000000
-0.361962 -0.272464 -0.207319 0.600000 0.000000 0.300000
-0.435399 0.516703 -0.436900 0.600000 0.000000 0.300000
-0.441230 0.708741 0.083290 0.600000 0.000000 0.300000
-0.418663 -0.279962 -0.370052 0.600000 0.000000 0.300000
-0.055100 0.469891 0.360084 1.000000 0.000000 0.000000
-0.514070 -0.390014 0.024246 0.600000 0.000000 0.300000
-0.045566 -0.425407 -0.288400 0.600000 0.000000 0.300000
-0.360699 0.189442 0.486501 1.000000 0.000000 0.000000
-0.062848 0.181127 0.167590 0.300000 0.600000 0.000000
-0.151862 -0.019556 0.387957 1.000000 0.000000 0.000000
-0.335080 0.085227 -0.475771 0.600000 0.000000 0.300000
0.233815 -0.738362 -0.364419 0.600000 0.000000 0.300000
-0.465115 0.297326 0.412342 1.000000 0.000000 0.000000
-0.171838 0.620546 -0.154150 0.600000 0.000000 0.300000
-0.450056 0.707159 0.421542 1.000000 0.000000 0.000000
-0.457893 -0.101298 0.255210 0.600000 0.000000 0.300000
0.501249 0.517957 0.347302 0.600000 0.000000 0.300000
-0.418754 -0.402308 0.196414 0.600000 0.000000 0.300000
0.101200 -0.268896 -0.020365 0.600000 0.000000 0.300000
-0.314791 0.705857 0.385280 0.600000 0.000000 0.300000
-0.403649 -0.177018 0.041846 0.600000 0.000000 0.300000
-0.514496 -0.347578 -0.070334 0.000000 0.500000 0.500000
-0.417112 -0.403202 0.099895 0.600000 0.000000 0.300000
-0.298875 0.619577 -0.048653 0.600000 0.000000 0.300000
-0.004543 -0.213472 0.118701 0.600000 0.000000 0.300000
-0.226542 -0.527154 0.199950 0.600000 0.000000 0.300000
0.501249 -0.050065 -0.363450 0.600000 0.000000 0.300000
0.501249 -0.161970 0.075764 0.600000 0.000000 0.300000
-0.121763 0.149811 -0.520932 0.600000 0.000000 0.300000
-0.063985 0.488096 -0.464466 0.600000 0.000000 0.300000
-0.299081 0.164175 0.115885 0.300000 0.600000 0.000000
0.418894 0.306241 0.368204 1.000000 0.000000 0.000000
-0.343132 0.016018 -0.475771 0.600000 0.000000 0.300000
-0.514070 0.293124 -0.235573 0.600000 0.000000 0.300000
-0.354993 0.068204 -0.520932 0.600000 0.000000 0.300000
-0.514070 -0.122470 -0.258246 0.600000 0.000000 0.300000
0.501249 -0.458226 -0.520428 0.600000 0.000000 0.300000
0.253163 -0.599047 0.272595 0.600000 0.000000 0.300000
-0.427436 -0.243079 0.382030 1.000000 0.000000 0.000000
-0.514070 0.476116 -0.074488 0.600000 0.000000 0.300000
-0.514070 0.077424 -0.057759 0.600000 0.000000 0.300000
0.326815 0.610339 -0.272831 0.600000 0.000000 0.300000
-0.510989 -0.738361 -0.413253 0.600000 0.000000 0.300000
0.501249 0.200363 -0.426352 0.600000 0.000000 0.300000
0.501249 -0.243728 -0.297695 0.600000 0.000000 0.300000
0.444812 -0.286036 -0.322061 0.600000 0.000000 0.300000
0.462540 0.616091 -0.520932 0.600000 0.000000 0.300000
-0.322180 -0.320954 -0.520932 0.600000 0.000000 0.300000
-0.117206 -0.418658 -0.520932 0.600000 0.000000 0.300000
0.340871 0.699741 -0.520932 0.600000 0.000000 0.300000
-0.514070 0.658045 -0.064878 0.600000 0.000000 0.300000
0.192563 0.708741 0.328970 0.600000 0.000000 0.300000
-0.147737 -0.532803 -0.521358 0.000000 0.500000 0.500000
0.433516 0.288891 -0.207486 0.600000 0.000000 0.300000
0.402892 -0.548980 0.418607 1.000000 0.000000 0.000000
-0.212641 0.245929 0.134906 0.300000 0.600000 0.000000
-0.472232 -0.143626 0.418607 1.000000 0.000000 0.000000
-0.034837 -0.738370 0.272586 0.600000 0.000000 0.300000
-0.013904 -0.475852 -0.200560 0.600000 0.000000 0.300000
0.486198 0.611758 0.418607 1.000000 0.000000 0.000000
0.360325 -0.035635 0.417942 1.000000 0.000000 0.000000
-0.514070 -0.274260 0.450895 1.000000 0.000000 0.000000
0.051468 0.620546 -0.352329 0.600000 0.000000 0.300000
-0.514070 -0.279315 0.160248 0.600000 0.000000 0.300000
-0.514070 -0.652783 -0.235416 0.600000 0.000000 0.300000
0.368300 0.588040 0.283686 0.600000 0.000000 0.300000
-0.096188 -0.738363 -0.262394 0.600000 0.000000 0.300000
0.412885 -0.451141 -0.211081 0.600000 0.000000 0.300000
0.147154 0.032236 -0.475771 0.600000 0.000000 0.300000
-0.421826 -0.738299 -0.520932 0.600000 0.000000 0.300000
-0.306237 -0.557821 0.206954 0.600000 0.000000 0.300000
-0.044594 0.127292 -0.138426 0.300000 0.600000 0.000000
0.433516 -0.107410 -0.047424 0.600000 0.000000 0.300000
0.332565 0.608386 -0.386023 0.600000 0.000000 0.300000
-0.031387 0.167594 0.417942 1.000000 0.000000 0.000000
0.433516 0.350571 0.303505 0.600000 0.000000 0.300000
-0.012009 -0.430223 0.115477 0.600000 0.000000 0.300000
-0.148232 0.644784 0.546140 0.000000 1.000000 0.000000
-0.351925 -0.438199 -0.464466 0.600000 0.000000 0.300000
0.114456 -0.458552 0.285936 0.600000 0.000000 0.300000
0.038064 -0.738361 -0.466922 0.600000 0.000000 0.300000
-0.265879 0.647226 -0.520932 0.600000 0.000000 0.300000
0.415629 -0.712901 0.302509 0.600000 0.000000 0.300000
0.121680 0.282384 0.486501 1.000000 0.000000 0.000000
-0.446597 0.193629 0.279316 0.600000 0.000000 0.300000
0.444812 -0.151156 0.025084 0.600000 0.000000 0.300000
0.440994 0.256290 0.350033 0.600000 0.000000 0.300000
-0.514070 0.584548 0.235358 0.600000 0.000000 0.300000
0.450669 -0.738362 -0.462630 0.600000 0.000000 0.300000
0.501249 0.499004 0.011927 0.600000 0.000000 0.300000
0.234674 -0.272258 0.486501 1.000000 0.000000 0.000000
-0.286534 0.245124 -0.464466 0.600000 0.000000 0.300000
0.298623 -0.590971 -0.520932 0.600000 0.000000 0.300000
0.214837 0.620546 -0.419760 0.600000 0.000000 0.300000
0.275563 0.596895 0.360084 1.000000 0.000000 0.000000
-0.195742 0.487467 0.486501 1.000000 0.000000 0.000000
0.111834 0.102564 -0.520932 0.600000 0.000000 0.300000
-0.446597 -0.169027 -0.258121 0.600000 0.000000 0.300000
-0.164735 -0.351046 -0.251004 0.600000 0.000000 0.300000
-0.197556 -0.709729 -0.520932 0.600000 0.000000 0.300000
-0.134595 -0.238138 -0.474250 0.600000 0.000000 0.300000
-0.031203 0.188372 -0.112970 0.300000 0.600000 0.000000
0.444812 -0.241429 0.249081 0.600000 0.000000 0.300000
-0.514070 -0.522189 -0.376648 0.600000 0.000000 0.300000
-0.368781 0.593474 -0.520932 0.600000 0.000000 0.300000
-0.347910 0.607368 -0.321785 0.600000 0.000000 0.300000
0.032057 -0.081134 0.075368 0.600000 0.000000 0.300000
-0.376463 0.158991 0.118364 0.300000 0.600000 0.000000
0.125972 0.620546 0.068362 0.600000 0.000000 0.300000
0.037337 0.153202 0.257095 0.300000 0.600000 0.000000
-0.338775 0.281866 -0.440645 0.300000 0.600000 0.000000
-0.514070 0.462749 0.268625 0.600000 0.000000 0.300000
-0.514070 0.306458 0.291963 0.600000 0.000000 0.300000
0.072245 -0.449758 -0.463173 0.600000 0.000000 0.300000
-0.356812 0.576997 0.360084 1.000000 0.000000 0.000000
0.501249 0.636320 0.224766 0.600000 0.000000 0.300000
-0.268605 -0.493426 0.486501 1.000000 0.000000 0.000000
0.045264 0.659013 0.418607 1.000000 0.000000 0.000000
0.444812 0.195072 -0.122401 0.600000 0.000000 0.300000
0.455875 0.208902 0.486501 1.000000 0.000000 0.000000
-0.043810 -0.453378 -0.520932 0.600000 0.000000 0.300000
-0.339431 0.159301 -0.330826 0.300000 0.600000 0.000000
-0.514070 0.191981 0.097817 0.600000 0.000000 0.300000
0.155197 -0.093177 -0.520932 0.600000 0.000000 0.300000
-0.262191 0.630010 0.531174 0.000000 1.000000 0.000000
-0.099436 -0.628730 0.324989 0.600000 0.000000 0.300000
0.438017 0.385561 0.172273 0.600000 0.000000 0.300000
-0.123766 0.291503 -0.464466 0.600000 0.000000 0.300000
0.433516 0.220145 -0.043402 0.600000 0.000000 0.300000
0.447002 -0.294892 0.486501 1.000000 0.000000 0.000000
-0.250470 -0.635747 0.324989 0.600000 0.000000 0.300000
-0.417788 0.549776 0.116260 0.600000 0.000000 0.300000
0.234455 0.707159 0.434105 1.000000 0.000000 0.000000
-0.457893 0.347368 0.214655 0.600000 0.000000 0.300000
0.400840 -0.449599 0.294277 0.600000 0.000000 0.300000
0.170085 -0.738365 -0.131612 0.600000 0.000000 0.300000
0.108932 -0.738362 -0.376302 0.600000 0.000000 0.300000
-0.103753 0.356763 0.360084 1.000000 0.000000 0.000000
-0.514070 0.502725 0.165795 0.600000 0.000000 0.300000
0.173701 0.616359 0.486501 1.000000 0.000000 0.000000
-0.282150 -0.720094 0.324989 0.600000 0.000000 0.300000
0.166058 -0.284932 0.030241 0.600000 0.000000 0.300000
0.501249 -0.388650 -0.245456 0.600000 0.000000 0.300000
-0.414591 -0.256164 -0.061944 0.600000 0.000000 0.300000
-0.514070 -0.262246 0.259465 0.600000 0.000000 0.300000
0.453144 0.395750 0.406536 1.000000 0.000000 0.000000
0.199370 0.288192 0.413942 1.000000 0.000000 0.000000
-0.102610 0.278183 0.273593 0.300000 0.600000 0.000000
-0.267926 -0.420793 0.486501 1.000000 0.000000 0.000000
-0.364178 0.086003 0.486501 1.000000 0.000000 0.000000
-0.272501 0.708741 -0.433690 0.600000 0.000000 0.300000
-0.316665 0.616895 -0.133034 0.600000 0.000000 0.300000
-0.344788 -0.349127 0.086136 0.600000 0.000000 0.300000
0.319821 0.707159 0.420303 1.000000 0.000000 0.000000
-0.013391 -0.191125 0.417942 1.000000 0.000000 0.000000
0.444812 0.028275 -0.340597 0.600000 0.000000 0.300000
-0.403814 -0.738364 -0.113206 0.600000 0.000000 0.300000
0.501249 0.004058 -0.156542 0.600000 0.000000 0.300000
0.441272 0.106747 -0.181693 0.600000 0.000000 0.300000
-0.117588 0.620546 0.035169 0.600000 0.000000 0.300000
0.258130 0.588926 -0.464466 0.600000 0.000000 0.300000
-0.368511 0.708741 -0.016092 0.600000 0.000000 0.300000
-0.188592 0.290883 0.407120 1.000000 0.000000 0.000000
0.501249 -0.060745 0.289447 0.600000 0.000000 0.300000
-0.081481 0.183343 0.486501 1.000000 0.000000 0.000000
0.501249 0.654945 -0.460612 0.600000 0.000000 0.300000
-0.097742 0.507457 -0.520932 0.600000 0.000000 0.300000
0.385121 -0.309089 0.228926 0.600000 0.000000 0.300000
0.089468 -0.177900 0.417942 1.000000 0.000000 0.000000
-0.514070 -0.526649 -0.121624 0.600000 0.000000 0.300000
0.440892 -0.738363 -0.296317 0.600000 0.000000 0.300000
0.048426 -0.738367 0.064526 0.600000 0.000000 0.300000
0.501249 0.226911 0.231648 0.600000 0.000000 0.300000
0.501249 -0.103945 0.212637 0.600000 0.000000 0.300000
0.501249 -0.567733 -0.216381 0.600000 0.000000 0.300000
-0.137691 -0.355447 0.417942 1.000000 0.000000 0.000000
0.103314 -0.224012 0.185116 0.600000 0.000000 0.300000
0.351351 -0.598657 -0.520932 0.600000 0.000000 0.300000
0.417928 0.526687 0.138561 0.600000 0.000000 0.300000
0.093778 -0.239363 0.071792 0.600000 0.000000 0.300000
-0.370488 0.595324 -0.221772 0.600000 0.000000 0.300000
-0.214953 -0.261095 -0.520932 0.600000 0.000000 0.300000
0.294473 -0.368222 -0.520932 0.600000 0.000000 0.300000
-0.115473 0.049385 0.381365 1.000000 0.000000 0.000000
-0.514070 0.386304 -0.039284 0.600000 0.000000 0.300000
0.046531 -0.101201 -0.464466 0.600000 0.000000 0.300000
-0.178655 0.707159 0.445917 1.000000 0.000000 0.000000
-0.280332 -0.514485 0.199955 0.600000 0.000000 0.300000
-0.446597 -0.153381 0.160894 0.600000 0.000000 0.300000
-0.172117 -0.065178 0.486501 1.000000 0.000000 0.000000
-0.204230 -0.593741 -0.520932 0.600000 0.000000 0.300000
0.203762 0.083302 0.486501 1.000000 0.000000 0.000000
-0.375101 0.358314 -0.475771 0.600000 0.000000 0.300000
0.440603 0.708741 -0.002039 0.600000 0.000000 0.300000
0.501249 -0.510138 0.154700 0.600000 0.000000 0.300000
-0.119081 -0.484734 -0.160096 0.600000 0.000000 0.300000
0.444812 0.354942 0.230996 0.600000 0.000000 0.300000
0.433516 -0.195082 -0.248616 0.600000 0.000000 0.300000
0.433516 0.254363 -0.389803 0.600000 0.000000 0.300000
-0.294167 -0.410189 -0.520932 0.600000 0.000000 0.300000
-0.067665 0.024600 0.398898 1.000000 0.000000 0.000000
-0.051821 -0.089395 -0.483265 0.600000 0.000000 0.300000
0.307126 0.648888 0.553275 0.000000 1.000000 0.000000
0.332563 0.349992 0.486501 1.000000 0.000000 0.000000
0.204525 0.708741 -0.398905 0.600000 0.000000 0.300000
-0.052482 -0.238236 -0.480686 0.600000 0.000000 0.300000
-0.130478 0.382485 -0.467433 0.600000 0.000000 0.300000
-0.263924 -0.408968 -0.464466 0.600000 0.000000 0.300000
0.364398 0.169082 -0.368028 0.300000 0.600000 0.000000
-0.107087 -0.246978 0.109886 0.600000 0.000000 0.300000
0.400326 -0.154871 -0.428518 0.600000 0.000000 0.300000
0.000504 -0.738368 0.153228 0.600000 0.000000 0.300000
0.000656 -0.738364 -0.209525 0.600000 0.000000 0.300000
0.444812 -0.118277 -0.106210 0.600000 0.000000 0.300000
-0.049540 -0.213691 -0.037170 0.600000 0.000000 0.300000
-0.082802 0.614852 0.486501 1.000000 0.000000 0.000000
0.402519 -0.126357 -0.140897 0.600000 0.000000 0.300000
0.114109 -0.738365 -0.128670 0.600000 0.000000 0.300000
-0.265277 -0.085037 -0.464466 0.600000 0.000000 0.300000
-0.514070 -0.371334 -0.389154 0.600000 0.000000 0.300000
-0.001807 -0.550767 0.454894 1.000000 0.000000 0.000000
-0.494524 -0.738361 -0.362006 0.600000 0.000000 0.300000
0.502100 0.703478 0.474938 1.000000 0.000000 0.000000
-0.514070 -0.200487 -0.307126 0.600000 0.000000 0.300000
-0.102188 0.210983 -0.429922 0.300000 0.600000 0.000000
-0.368488 0.708741 -0.471526 0.600000 0.000000 0.300000
-0.122321 0.452036 0.486501 1.000000 0.000000 0.000000
0.501249 0.608699 -0.175015 0.600000 0.000000 0.300000
-0.514070 -0.094181 -0.321925 0.600000 0.000000 0.300000
-0.109646 0.708741 -0.392250 0.600000 0.000000 0.300000
-0.415820 -0.024592 0.382030 1.000000 0.000000 0.000000
-0.395832 0.708741 -0.144265 0.600000 0.000000 0.300000
-0.091414 -0.616726 -0.520932 0.600000 0.000000 0.300000
-0.455702 0.428324 0.064139 0.600000 0.000000 0.300000
-0.214862 0.089123 0.486501 1.000000 0.000000 0.000000
-0.444172 -0.448279 0.179281 0.600000 0.000000 0.300000
0.444812 -0.125965 -0.326134 0.600000 0.000000 0.300000
-0.464817 0.696394 -0.520932 0.600000 0.000000 0.300000
0.433961 -0.738368 0.089421 0.600000 0.000000 0.300000
0.501249 -0.604486 0.172728 0.600000 0.000000 0.300000
0.227278 0.708741 0.265962 0.600000 0.000000 0.300000
0.067315 -0.323720 0.486501 1.000000 0.000000 0.000000
-0.446597 -0.366181 0.251030 0.600000 0.000000 0.300000
0.354394 0.597338 0.182744 0.600000 0.000000 0.300000
0.229376 0.708741 0.204657 0.600000 0.000000 0.300000
0.076249 0.509803 -0.464466 0.600000 0.000000 0.300000
-0.040254 0.522272 0.486501 1.000000 0.000000 0.000000
0.444812 -0.247135 0.071661 0.600000 0.000000 0.300000
-0.514070 -0.163145 0.272174 0.600000 0.000000 0.300000
0.433516 -0.250488 0.297180 0.600000 0.000000 0.300000
-0.452249 0.209439 0.486501 1.000000 0.000000 0.000000
0.074214 -0.257208 0.338140 0.600000 0.000000 0.300000
0.381553 0.313599 0.165922 0.300000 0.600000 0.000000
-0.514070 -0.138042 -0.356615 0.600000 0.000000 0.300000
0.262678 0.666345 -0.520932 0.600000 0.000000 0.300000
0.157280 -0.738366 -0.042947 0.600000 0.000000 0.300000
0.311184 -0.338623 -0.339641 0.600000 0.000000 0.300000
0.444812 0.375183 -0.171274 0.600000 0.000000 0.300000
-0.466941 0.405576 -0.520932 0.600000 0.000000 0.300000
0.207801 -0.218011 -0.204559 0.600000 0.000000 0.300000
-0.248198 0.572431 0.360084 1.000000 0.000000 0.000000
-0.457893 0.133899 -0.151322 0.600000 0.000000 0.300000
-0.216739 0.620546 0.050017 0.600000 0.000000 0.300000
-0.174346 -0.493158 0.366154 0.600000 0.000000 0.300000
0.433516 -0.279381 -0.066499 0.600000 0.000000 0.300000
-0.061909 -0.738366 -0.089900 0.600000 0.000000 0.300000
-0.514070 -0.229240 0.192140 0.600000 0.000000 0.300000
0.425786 -0.450188 0.021814 0.600000 0.000000 0.300000
-0.043386 0.620546 0.120423 0.600000 0.000000 0.300000
-0.514070 0.016926 -0.008830 0.600000 0.000000 0.300000
-0.211818 -0.046923 -0.520932 0.600000 0.000000 0.300000
0.336508 -0.239233 -0.207754 0.600000 0.000000 0.300000
0.376623 0.101199 -0.464466 0.600000 0.000000 0.300000
-0.384043 -0.453197 -0.288279 0.600000 0.000000 0.300000
0.373557 0.227726 -0.410060 0.300000 0.600000 0.000000
0.010704 0.367815 0.360084 1.000000 0.000000 0.000000
0.376815 0.162525 -0.110557 0.300000 0.600000 0.000000
-0.282076 -0.273457 0.486501 1.000000 0.000000 0.000000
0.071552 0.608302 0.572080 0.000000 1.000000 0.000000
0.235703 -0.738369 0.241469 0.600000 0.000000 0.300000
-0.452037 -0.414891 -0.520932 0.600000 0.000000 0.300000
0.373481 -0.738368 0.141107 0.600000 0.000000 0.300000
-0.428409 0.531966 -0.183980 0.600000 0.000000 0.300000
-0.414442 -0.404655 -0.096135 0.600000 0.000000 0.300000
-0.514070 0.324332 0.158336 0.600000 0.000000 0.300000
0.216260 -0.450892 0.328726 0.600000 0.000000 0.300000
0.023213 0.708741 -0.349543 0.600000 0.000000 0.300000
-0.095394 -0.759651 0.310861 0.600000 0.000000 0.300000
0.036860 0.228706 -0.448440 0.300000 0.600000 0.000000
0.307286 -0.247914 0.170957 0.600000 0.000000 0.300000
-0.270403 -0.493158 0.272107 0.600000 0.000000 0.300000
-0.465115 0.081543 0.399973 1.000000 0.000000 0.000000
0.430430 0.487679 -0.361152 0.600000 0.000000 0.300000
0.407681 -0.401215 0.235807 0.600000 0.000000 0.300000
-0.437002 -0.449599 -0.342528 0.600000 0.000000 0.300000
-0.514070 -0.605681 0.172822 0.600000 0.000000 0.300000
-0.514070 0.067881 -0.477188 0.600000 0.000000 0.300000
-0.289609 0.708741 0.177119 0.600000 0.000000 0.300000
-0.443503 0.708741 -0.209750 0.600000 0.000000 0.300000
0.369493 0.229777 0.292181 0.300000 0.600000 0.000000
0.059768 -0.417538 0.486501 1.000000 0.000000 0.000000
0.016633 0.142817 0.486501 1.000000 0.000000 0.000000
-0.411651 -0.454906 0.295230 0.600000 0.000000 0.300000
0.000126 0.484893 -0.520932 0.600000 0.000000 0.300000
-0.264982 0.209150 0.282666 0.300000 0.600000 0.000000
0.501249 -0.424941 0.187710 0.600000 0.000000 0.300000
-0.424145 -0.404602 -0.431877 0.600000 0.000000 0.300000
-0.230172 -0.221269 0.173036 0.600000 0.000000 0.300000
0.501249 -0.735848 -0.250309 0.600000 0.000000 0.300000
-0.514070 0.138427 -0.293015 0.600000 0.000000 0.300000
0.369426 -0.355765 -0.475771 0.600000 0.000000 0.300000
0.368448 0.418677 0.486501 1.000000 0.000000 0.000000
0.501249 0.231735 0.179559 0.600000 0.000000 0.300000
0.501249 0.674614 -0.210480 0.600000 0.000000 0.300000
-0.392494 -0.195676 -0.470206 0.600000 0.000000 0.300000
0.220459 0.457292 -0.520932 0.600000 0.000000 0.300000
0.394616 -0.126442 0.228979 0.600000 0.000000 0.300000
-0.512522 0.267536 0.418607 1.000000 0.000000 0.000000
0.416509 -0.621324 0.306206 0.600000 0.000000 0.300000
0.317633 0.146932 0.486501 1.000000 0.000000 0.000000
-0.386802 0.259089 -0.475771 0.600000 0.000000 0.300000
0.098001 -0.221469 0.024072 0.600000 0.000000 0.300000
-0.159372 0.317537 0.360084 1.000000 0.000000 0.000000
-0.514070 -0.687082 -0.331003 0.600000 0.000000 0.300000
-0.475597 0.593398 0.486501 1.000000 0.000000 0.000000
0.349931 0.403653 0.292338 0.300000 0.600000 0.000000
0.043471 -0.068110 -0.520932 0.600000 0.000000 0.300000
-0.041144 0.660662 0.418607 1.000000 0.000000 0.000000
0.425276 0.507980 0.287266 0.600000 0.000000 0.300000
-0.015135 -0.099466 0.107790 0.600000 0.000000 0.300000
0.501249 -0.704413 -0.470405 0.600000 0.000000 0.300000
-0.514070 -0.207207 -0.426807 0.600000 0.000000 0.300000
0.491245 -0.213399 -0.520932 0.600000 0.000000 0.300000
0.006049 -0.280198 0.111143 0.600000 0.000000 0.300000
0.027448 -0.387856 0.417942 1.000000 0.000000 0.000000
-0.409990 -0.261471 -0.210995 0.600000 0.000000 0.300000
0.407718 0.708741 0.307007 0.600000 0.000000 0.300000
0.332769 -0.339703 0.175421 0.600000 0.000000 0.300000
-0.127229 0.620546 -0.063121 0.600000 0.000000 0.300000
0.400570 0.555974 -0.233218 0.600000 0.000000 0.300000
0.444812 -0.092758 -0.288699 0.600000 0.000000 0.300000
0.433232 -0.162971 -0.464466 0.600000 0.000000 0.300000
-0.208375 0.043791 0.381365 1.000000 0.000000 0.000000
0.147315 0.405868 -0.520932 0.600000 0.000000 0.300000
0.461275 -0.064345 -0.520932 0.600000 0.000000 0.300000
-0.415928 -0.125037 -0.054801 0.600000 0.000000 0.300000
-0.022133 0.627495 0.350033 0.600000 0.000000 0.300000
0.487844 -0.502456 0.486501 1.000000 0.000000 0.000000
-0.494450 0.708741 -0.381058 0.600000 0.000000 0.300000
-0.400909 0.708741 0.274704 0.600000 0.000000 0.300000
0.028785 -0.143645 0.417942 1.000000 0.000000 0.000000
-0.142930 0.620546 -0.317937 0.600000 0.000000 0.300000
0.406670 0.708741 -0.433330 0.600000 0.000000 0.300000
-0.305047 0.619172 -0.231090 0.600000 0.000000 0.300000
-0.073912 -0.430529 0.382030 1.000000 0.000000 0.000000
0.498918 -0.525539 0.418607 1.000000 0.000000 0.000000
-0.280378 0.655563 0.364728 1.000000 0.000000 0.000000
-0.031050 -0.461827 0.284266 0.600000 0.000000 0.300000
0.373197 0.584085 -0.055440 0.600000 0.000000 0.300000
-0.415902 0.708741 -0.378822 0.600000 0.000000 0.300000
-0.411142 0.581190 0.350033 0.600000 0.000000 0.300000
-0.514070 0.083912 0.114659 0.600000 0.000000 0.300000
0.403612 0.201310 0.382030 1.000000 0.000000 0.000000
-0.514070 -0.420519 -0.236416 0.600000 0.000000 0.300000
0.363401 -0.358688 0.417942 1.000000 0.000000 0.000000
-0.251253 0.620546 -0.306990 0.600000 0.000000 0.300000
-0.362533 -0.462366 0.296150 0.600000 0.000000 0.300000
-0.514496 0.032000 -0.377651 0.000000 0.500000 0.500000
0.177315 -0.231988 0.027232 0.600000 0.000000 0.300000
0.501249 -0.606136 -0.032008 0.600000 0.000000 0.300000
0.501249 -0.003797 0.317357 0.600000 0.000000 0.300000
-0.231699 0.220537 0.417942 1.000000 0.000000 0.000000
-0.225796 0.656197 0.486501 1.000000 0.000000 0.000000
-0.121014 0.708741 0.403395 0.600000 0.000000 0.300000
-0.266384 0.478382 -0.464466 0.600000 0.000000 0.300000
0.475154 0.653041 0.486501 1.000000 0.000000 0.000000
0.046120 0.596873 0.360084 1.000000 0.000000 0.000000
0.333044 0.088696 -0.520932 0.600000 0.000000 0.300000
-0.284225 0.620538 0.126884 0.600000 0.000000 0.300000
0.444812 0.169251 -0.285013 0.600000 0.000000 0.300000
-0.072317 -0.350128 -0.313575 0.600000 0.000000 0.300000
0.133244 -0.197663 -0.520932 0.600000 0.000000 0.300000
0.229146 0.034784 -0.520932 0.600000 0.000000 0.300000
-0.281300 -0.226072 -0.333567 0.600000 0.000000 0.300000
-0.215793 0.259003 0.182896 0.300000 0.600000 0.000000
-0.416617 0.700031 0.385280 0.600000 0.000000 0.300000
-0.470748 -0.738365 -0.066078 0.600000 0.000000 0.300000
0.431026 0.484680 -0.162638 0.600000 0.000000 0.300000
-0.257496 0.707159 0.482069 1.000000 0.000000 0.000000
0.146345 0.708741 -0.015390 0.600000 0.000000 0.300000
0.335105 -0.759651 0.305198 0.600000 0.000000 0.300000
-0.191462 -0.116340 -0.520932 0.600000 0.000000 0.300000
-0.300162 -0.696178 -0.520932 0.600000 0.000000 0.300000
0.501249 0.007998 0.118277 0.600000 0.000000 0.300000
-0.033752 0.708741 0.097457 0.600000 0.000000 0.300000
0.468388 0.533832 0.486501 1.000000 0.000000 0.000000
0.501249 0.482223 -0.184214 0.600000 0.000000 0.300000
-0.466468 0.420975 0.486501 1.000000 0.000000 0.000000
-0.446597 -0.241248 0.278117 0.600000 0.000000 0.300000
-0.295555 -0.595527 -0.520932 0.600000 0.000000 0.300000
-0.360178 0.601312 0.054272 0.600000 0.000000 0.300000
0.343602 0.708741 0.162212 0.600000 0.000000 0.300000
-0.457893 0.400239 0.223847 0.600000 0.000000 0.300000
0.197030 -0.263669 -0.520932 0.600000 0.000000 0.300000
0.444812 0.271385 -0.130954 0.600000 0.000000 0.300000
0.501249 0.440012 -0.230771 0.600000 0.000000 0.300000
0.188570 0.518804 0.360084 1.000000 0.000000 0.000000
0.501249 -0.448073 -0.111431 0.600000 0.000000 0.300000
-0.457893 0.300610 0.243963 0.600000 0.000000 0.300000
0.501249 0.547077 -0.329638 0.600000 0.000000 0.300000
0.228982 -0.261189 0.417942 1.000000 0.000000 0.000000
0.221953 -0.738361 -0.484628 0.600000 0.000000 0.300000
-0.208938 -0.550767 0.428192 1.000000 0.000000 0.000000
0.101335 -0.453498 0.350033 0.600000 0.000000 0.300000
0.143048 -0.493158 0.348688 0.600000 0.000000 0.300000
-0.104881 0.468948 0.360084 1.000000 0.000000 0.000000
-0.252799 0.708741 -0.025415 0.600000 0.000000 0.300000
0.439757 0.197071 0.259634 0.600000 0.000000 0.300000
0.381520 0.372366 -0.520932 0.600000 0.000000 0.300000
0.501249 0.636191 0.174219 0.600000 0.000000 0.300000
-0.514070 0.606889 0.375870 0.600000 0.000000 0.300000
-0.266402 0.309298 0.282716 0.300000 0.600000 0.000000
-0.402736 0.404842 0.001646 0.300000 0.600000 0.000000
-0.514070 0.471449 -0.166620 0.600000 0.000000 0.300000
-0.008588 -0.055855 -0.513013 0.600000 0.000000 0.300000
-0.281175 0.708741 0.297122 0.600000 0.000000 0.300000
0.155871 0.336223 -0.475771 0.600000 0.000000 0.300000
-0.514070 0.647287 -0.298365 0.600000 0.000000 0.300000
-0.514070 -0.505535 -0.278681 0.600000 0.000000 0.300000
-0.120419 0.575742 -0.464466 0.600000 0.000000 0.300000
-0.259134 0.340263 0.486501 1.000000 0.000000 0.000000
-0.514070 0.558052 -0.238900 0.600000 0.000000 0.300000
0.380247 -0.453580 -0.111551 0.600000 0.000000 0.300000
0.501249 -0.009753 0.026408 0.600000 0.000000 0.300000
0.368375 0.587989 -0.004192 0.600000 0.000000 0.300000
0.444812 -0.030316 -0.106627 0.600000 0.000000 0.300000
-0.423779 0.540804 0.321320 0.600000 0.000000 0.300000
0.433516 0.440183 0.145630 0.600000 0.000000 0.300000
0.290488 -0.695012 -0.520932 0.600000 0.000000 0.300000
-0.514070 -0.003617 -0.104355 0.600000 0.000000 0.300000
0.394350 0.492173 0.360084 1.000000 0.000000 0.000000
0.081849 0.620546 -0.106301 0.600000 0.000000 0.300000
-0.446597 0.052953 -0.389407 0.600000 0.000000 0.300000
0.135085 -0.656249 -0.520932 0.600000 0.000000 0.300000
0.057046 -0.738366 -0.105790 0.600000 0.000000 0.300000
