ply
format ascii 1.0
element vertex 1281
property float x
property float y
property float z
property uchar red
property uchar green
property uchar blue
end_header
0.412563 -0.738367 0.031505 153 0 76
-0.408116 0.405198 0.072930 76 153 0
0.116673 0.201350 -0.437176 76 153 0
-0.514070 -0.694160 0.169106 153 0 76
-0.044214 0.495616 0.360084 255 0 0
-0.514070 -0.029752 0.420138 255 0 0
0.420107 0.522266 0.146031 153 0 76
-0.015202 -0.068155 0.486501 255 0 0
0.296021 0.475900 0.360084 255 0 0
-0.514070 0.226115 0.124533 153 0 76
-0.479324 0.128763 0.486501 255 0 0
-0.326342 -0.000807 0.486501 255 0 0
-0.514070 0.315483 -0.385724 153 0 76
-0.368980 0.284451 0.218829 76 153 0
-0.514496 -0.433871 -0.257225 153 0 76
0.027990 -0.472400 -0.214545 153 0 76
0.444812 -0.186706 0.060136 153 0 76
-0.134508 -0.277255 0.173604 153 0 76
0.165171 -0.160783 -0.475771 153 0 76
0.501249 -0.581176 0.019959 153 0 76
-0.262707 -0.348064 0.059821 153 0 76
-0.101758 0.210741 0.080814 76 153 0
-0.270436 -0.481137 -0.108983 153 0 76
0.081370 0.184095 0.486501 255 0 0
0.501249 -0.095989 -0.294990 153 0 76
-0.087230 -0.148155 0.075560 153 0 76
-0.208760 -0.208637 0.486501 255 0 0
0.149231 -0.738365 -0.166527 153 0 76
0.017788 -0.759651 0.303756 153 0 76
-0.416015 0.645399 0.416599 255 0 0
0.501249 -0.288121 -0.274273 153 0 76
-0.137601 -0.342927 0.032236 153 0 76
-0.483898 0.037897 0.385280 153 0 76
-0.465141 0.337797 -0.520932 153 0 76
0.453144 -0.325547 0.352748 255 0 0
0.368325 0.402468 0.293920 76 153 0
-0.472946 0.592803 0.418607 255 0 0
-0.193658 0.708741 -0.484438 153 0 76
0.498959 -0.505797 -0.520932 153 0 76
-0.298167 0.489747 0.486501 255 0 0
0.128788 0.544001 -0.520932 153 0 76
-0.288887 -0.462683 -0.296041 153 0 76
-0.457893 -0.073240 0.035196 153 0 76
0.501249 -0.736399 -0.151711 153 0 76
-0.036274 -0.738368 0.155840 153 0 76
-0.446597 -0.382779 -0.034535 153 0 76
0.501249 0.512094 0.305922 153 0 76
-0.514070 0.349427 0.156012 153 0 76
0.376910 0.162804 0.007032 76 153 0
0.389503 0.708741 -0.510270 153 0 76
0.439465 0.708741 -0.093903 153 0 76
-0.053538 0.620546 -0.240329 153 0 76
0.214866 0.703266 0.486501 255 0 0
0.406059 0.408759 0.213183 153 0 76
-0.064922 0.367771 -0.464466 153 0 76
-0.336337 0.160909 -0.178705 76 153 0
-0.319742 -0.530897 0.418607 255 0 0
-0.108424 -0.259585 -0.043552 153 0 76
0.287048 -0.738364 -0.194159 153 0 76
-0.269999 -0.422679 0.486501 255 0 0
0.285496 -0.449599 -0.442963 153 0 76
0.501249 -0.170384 -0.439643 153 0 76
0.210392 0.545398 -0.520932 153 0 76
0.118793 0.361991 0.486501 255 0 0
-0.241004 0.594761 0.360084 255 0 0
0.041374 0.620546 -0.154324 153 0 76
-0.309961 -0.738364 -0.122642 153 0 76
-0.514070 -0.434380 0.230610 153 0 76
-0.046088 -0.338453 -0.108384 153 0 76
-0.075181 -0.506560 -0.520932 153 0 76
0.042261 0.708741 0.051430 153 0 76
-0.425628 -0.738365 -0.042450 153 0 76
-0.095541 0.708741 -0.198177 153 0 76
-0.474177 0.673004 -0.520932 153 0 76
-0.014312 -0.239766 -0.520932 153 0 76
-0.455485 0.366400 -0.181009 153 0 76
-0.426208 -0.367861 -0.396754 153 0 76
0.344518 0.155284 0.217089 76 153 0
0.207591 -0.204962 -0.205203 153 0 76
0.077602 -0.382452 -0.520932 153 0 76
0.367188 0.227317 0.294192 76 153 0
-0.514070 -0.516977 0.059750 153 0 76
-0.472508 -0.085673 -0.520932 153 0 76
-0.514070 0.614182 0.088288 153 0 76
-0.468383 0.708741 0.216531 153 0 76
-0.408744 -0.125638 -0.465011 153 0 76
0.108788 0.708741 -0.447382 153 0 76
-0.372615 -0.108123 0.417942 255 0 0
-0.514070 0.611023 0.169689 153 0 76
-0.514070 0.284941 0.444807 255 0 0
-0.188102 -0.224154 0.173389 153 0 76
-0.103466 -0.428459 -0.464466 153 0 76
-0.209376 0.620546 0.275684 153 0 76
0.459161 -0.077988 0.486501 255 0 0
0.453144 0.525934 0.385274 153 0 76
0.032271 0.282728 -0.483487 153 0 76
-0.406005 0.641524 0.486501 255 0 0
-0.472300 -0.483805 0.418607 255 0 0
0.501249 0.262565 -0.135484 153 0 76
0.162601 0.365345 -0.475771 153 0 76
0.501249 0.532954 0.034499 153 0 76
-0.059482 0.596291 -0.464466 153 0 76
0.131631 0.620546 0.053668 153 0 76
-0.437029 0.511896 0.232285 153 0 76
0.401048 -0.211372 0.033695 153 0 76
0.501249 0.150390 -0.142969 153 0 76
0.468623 -0.232102 0.385280 153 0 76
-0.231083 -0.719994 0.302509 153 0 76
-0.423815 -0.345009 -0.325845 153 0 76
0.055117 0.329993 0.360084 255 0 0
-0.446192 0.464103 -0.086919 153 0 76
0.068678 0.569795 0.486501 255 0 0
0.501249 -0.163234 -0.362818 153 0 76
-0.514070 -0.172390 -0.031825 153 0 76
0.501249 0.679525 -0.059134 153 0 76
-0.465115 -0.230315 0.415887 255 0 0
-0.485388 -0.738367 0.129019 153 0 76
0.272361 0.536287 0.360084 255 0 0
-0.514070 -0.655848 -0.023333 153 0 76
0.501249 0.113844 -0.203630 153 0 76
0.094987 0.168559 0.417942 255 0 0
-0.167672 -0.291819 -0.456828 153 0 76
0.049670 0.156826 -0.214019 76 153 0
0.096049 0.109983 -0.464466 153 0 76
0.126528 0.708741 -0.170424 153 0 76
-0.469300 0.708741 -0.010205 153 0 76
-0.139071 -0.488033 0.486501 255 0 0
-0.003772 -0.079431 0.206349 153 0 76
-0.457893 0.083427 0.059528 153 0 76
0.400620 -0.452104 0.060688 153 0 76
-0.446597 -0.385792 -0.192573 153 0 76
-0.407582 -0.140361 -0.520932 153 0 76
-0.446597 0.100806 0.142208 153 0 76
0.501249 -0.458019 0.118664 153 0 76
-0.462020 0.708741 -0.240766 153 0 76
-0.366438 -0.209766 -0.332603 153 0 76
-0.015135 -0.168540 0.045637 153 0 76
0.108629 -0.738368 0.193352 153 0 76
0.293676 -0.282927 0.174058 153 0 76
-0.062893 -0.738369 0.208606 153 0 76
0.070260 0.184130 -0.464466 153 0 76
-0.138073 -0.596614 0.268722 153 0 76
-0.457893 0.063995 -0.295482 153 0 76
0.001277 0.470592 -0.520932 153 0 76
-0.314765 -0.069059 -0.475771 153 0 76
-0.032621 0.424171 0.486501 255 0 0
-0.170753 -0.311098 0.174256 153 0 76
-0.176527 0.620546 -0.019286 153 0 76
-0.514070 -0.673487 -0.105882 153 0 76
-0.196301 -0.201510 -0.205021 153 0 76
-0.457893 -0.250337 -0.338298 153 0 76
0.407895 0.631212 0.385280 153 0 76
0.383819 -0.679024 -0.520932 153 0 76
0.249026 0.620546 -0.269361 153 0 76
-0.514496 -0.012653 -0.069950 0 127 127
-0.291124 0.286607 0.417942 255 0 0
-0.260777 0.074469 -0.520932 153 0 76
0.336611 0.305606 -0.475771 153 0 76
0.401376 -0.738369 0.203037 153 0 76
-0.445228 0.478828 0.177467 153 0 76
-0.481486 0.181716 -0.520932 153 0 76
0.121675 -0.049559 0.486501 255 0 0
-0.246173 0.708741 0.090128 153 0 76
-0.409811 -0.219105 0.261407 153 0 76
0.065006 -0.464893 -0.338415 153 0 76
-0.120334 0.123456 -0.520932 153 0 76
0.014746 -0.464184 0.245620 153 0 76
-0.514070 0.634276 0.245114 153 0 76
-0.007684 0.708741 -0.016033 153 0 76
-0.105851 -0.435031 0.382030 255 0 0
0.365959 0.280978 0.001698 76 153 0
-0.514070 -0.109304 0.380280 153 0 76
-0.190792 -0.250767 -0.475771 153 0 76
-0.049901 0.273900 0.417942 255 0 0
0.501249 -0.377132 -0.289114 153 0 76
0.100082 -0.256083 0.338377 153 0 76
0.396634 0.708741 0.375518 153 0 76
0.501249 -0.203726 -0.476225 153 0 76
-0.446597 0.296073 -0.203269 153 0 76
0.100835 -0.527551 0.418607 255 0 0
-0.097002 -0.344708 -0.464466 153 0 76
0.429509 0.492316 -0.343853 153 0 76
-0.032435 -0.738362 -0.341581 153 0 76
-0.514070 0.673280 -0.280280 153 0 76
-0.107039 -0.738362 -0.291130 153 0 76
-0.131016 -0.332123 0.170850 153 0 76
-0.303375 -0.016475 -0.466446 153 0 76
0.378177 0.579713 0.007412 153 0 76
0.114712 -0.094623 -0.473493 153 0 76
-0.398838 0.234860 0.382030 255 0 0
-0.457893 -0.150048 -0.285997 153 0 76
0.435517 0.162621 0.262198 76 153 0
-0.263661 0.161685 -0.464466 153 0 76
-0.032204 -0.331555 -0.000744 153 0 76
-0.345841 0.608319 -0.318471 153 0 76
0.183528 -0.270263 -0.475771 153 0 76
0.373108 -0.585582 0.251155 153 0 76
0.501249 -0.169728 0.017935 153 0 76
0.454298 0.004252 -0.520932 153 0 76
0.121006 -0.468715 -0.181968 153 0 76
0.260254 0.708741 -0.145478 153 0 76
-0.212937 0.271109 -0.275791 76 153 0
-0.514070 0.196487 -0.471932 153 0 76
0.039881 -0.738363 -0.263809 153 0 76
-0.327371 -0.004936 0.381365 255 0 0
-0.514070 -0.598697 -0.479738 153 0 76
-0.514070 -0.533871 -0.113866 153 0 76
-0.324694 -0.555318 0.202970 153 0 76
-0.028738 -0.320710 0.306555 153 0 76
-0.418996 0.446689 -0.464466 153 0 76
0.062160 -0.012182 -0.520932 153 0 76
0.433516 0.008378 0.298008 153 0 76
0.501249 0.343696 -0.025112 153 0 76
-0.349319 0.606671 -0.234059 153 0 76
0.282482 -0.351340 0.223716 153 0 76
-0.123091 -0.398506 -0.520932 153 0 76
-0.478012 -0.140706 0.486501 255 0 0
0.180677 0.138715 0.486501 255 0 0
0.501249 -0.443566 0.357665 153 0 76
0.205633 -0.606196 0.283978 153 0 76
0.433516 -0.208055 0.110526 153 0 76
-0.514070 0.590166 -0.038508 153 0 76
0.150781 -0.415540 0.382030 255 0 0
0.119357 0.275059 -0.475771 153 0 76
0.088085 0.502486 0.360084 255 0 0
-0.488590 0.342272 0.418607 255 0 0
0.501249 0.012969 0.310162 153 0 76
-0.399359 -0.452321 -0.281521 153 0 76
0.446646 -0.738366 -0.047881 153 0 76
-0.463231 -0.049573 0.486501 255 0 0
-0.514070 0.065371 0.002883 153 0 76
0.501249 -0.506162 -0.255686 153 0 76
-0.514070 -0.397208 0.132177 153 0 76
0.354105 0.597532 0.335549 153 0 76
0.098563 -0.242101 0.174231 153 0 76
0.188700 0.708741 0.322012 153 0 76
0.394684 -0.342361 -0.033198 153 0 76
-0.273222 0.708741 -0.354992 153 0 76
-0.051306 0.227335 0.293007 76 153 0
-0.514070 -0.014561 0.107781 153 0 76
0.501249 0.142477 -0.280395 153 0 76
-0.514070 0.274204 0.109923 153 0 76
0.186568 0.620546 0.023934 153 0 76
-0.446597 0.088604 -0.258362 153 0 76
0.469571 0.244256 0.385280 255 0 0
0.404970 -0.402691 0.029243 153 0 76
-0.383988 -0.358791 -0.431688 153 0 76
-0.340796 0.351994 0.486501 255 0 0
-0.472169 -0.080786 0.385280 153 0 76
0.501249 0.426964 -0.396408 153 0 76
-0.272094 0.708741 0.377305 153 0 76
0.444812 0.386790 -0.105510 153 0 76
0.206788 -0.222815 -0.520932 153 0 76
-0.200690 -0.550767 0.457718 255 0 0
-0.514070 -0.398209 -0.335385 153 0 76
0.253131 0.708741 -0.510271 153 0 76
-0.514070 -0.633584 -0.419791 153 0 76
0.177638 -0.468721 -0.117256 153 0 76
-0.211831 0.296399 -0.192623 76 153 0
0.433516 -0.007312 -0.412445 153 0 76
-0.457893 -0.096502 -0.333199 153 0 76
-0.130007 -0.488418 0.130822 153 0 76
-0.403681 0.708741 0.357674 153 0 76
0.399779 0.708741 0.200003 153 0 76
0.106152 -0.315786 0.073347 153 0 76
0.318459 -0.120304 -0.520932 153 0 76
0.376833 0.216787 0.102029 76 153 0
0.493501 0.167257 0.385280 153 0 76
0.167607 0.495477 0.360084 255 0 0
-0.412406 -0.412902 -0.414838 153 0 76
-0.514070 -0.415931 0.395049 153 0 76
0.294810 0.162314 0.217506 76 153 0
0.171384 0.165947 0.254392 76 153 0
-0.138623 0.568983 -0.464466 153 0 76
0.117650 -0.330300 -0.339438 153 0 76
0.230712 -0.465040 0.079541 153 0 76
0.169406 0.620546 0.272455 153 0 76
-0.368862 0.190278 -0.074760 76 153 0
-0.338105 0.012254 -0.475771 153 0 76
-0.514070 0.688588 0.162421 153 0 76
0.405333 0.629044 0.486501 255 0 0
0.501249 0.508394 -0.365209 153 0 76
-0.104039 0.237006 -0.038511 76 153 0
0.371906 0.267223 -0.472129 153 0 76
-0.495230 -0.738368 0.211824 153 0 76
0.297120 0.707159 0.462751 255 0 0
0.112238 -0.738362 -0.405717 153 0 76
0.444812 -0.026472 0.071238 153 0 76
0.501249 0.502394 0.187672 153 0 76
-0.389196 0.708741 -0.021901 153 0 76
-0.457893 -0.207751 -0.127651 153 0 76
0.188583 -0.641331 -0.520932 153 0 76
0.163882 0.620546 0.177131 153 0 76
-0.239632 0.317914 -0.464466 153 0 76
-0.387074 -0.458639 0.243327 153 0 76
-0.336441 0.270078 -0.520932 153 0 76
-0.195307 -0.485096 -0.185799 153 0 76
0.501249 0.677606 -0.178714 153 0 76
-0.514070 -0.232334 0.127206 153 0 76
-0.514070 -0.466174 0.262238 153 0 76
-0.111826 0.438425 0.360084 255 0 0
0.097146 -0.539185 0.486501 255 0 0
-0.240942 -0.461755 0.486501 255 0 0
0.136290 -0.260751 0.029819 153 0 76
-0.440860 0.500601 0.070189 153 0 76
0.239513 0.708741 -0.339317 153 0 76
-0.151824 0.199050 -0.520932 153 0 76
-0.219384 0.619621 0.536562 0 255 0
-0.514070 0.338832 -0.058542 153 0 76
0.344609 -0.214626 -0.475771 153 0 76
0.088430 -0.738367 0.075725 153 0 76
-0.218767 -0.446082 0.382030 153 0 76
-0.514070 -0.321094 0.197864 153 0 76
0.427601 0.202994 0.486501 255 0 0
-0.399649 -0.181009 -0.464466 153 0 76
0.278330 0.126197 -0.464466 153 0 76
0.347979 -0.392225 0.413836 255 0 0
-0.514070 0.442509 0.276494 153 0 76
0.121402 -0.288739 0.171899 153 0 76
0.501249 0.309917 -0.191071 153 0 76
-0.106951 0.299895 -0.236512 76 153 0
0.018825 0.341058 0.296707 76 153 0
-0.481228 0.708741 0.355518 153 0 76
-0.280005 -0.738362 -0.287385 153 0 76
0.212614 0.550332 0.486501 255 0 0
0.216219 -0.738366 -0.052116 153 0 76
-0.317831 0.708741 -0.021874 153 0 76
0.326567 -0.426329 -0.520932 153 0 76
-0.286186 0.708741 -0.130759 153 0 76
-0.205484 0.001592 -0.520932 153 0 76
0.178751 0.708741 0.107786 153 0 76
-0.023527 0.303533 0.375072 255 0 0
-0.108871 -0.738369 0.226996 153 0 76
0.112874 -0.605427 -0.520932 153 0 76
-0.514070 0.235023 0.298170 153 0 76
0.338227 0.391822 -0.520932 153 0 76
-0.067665 0.053068 0.413137 255 0 0
-0.229984 -0.237764 0.028344 153 0 76
0.293789 0.371763 -0.444277 76 153 0
0.178907 0.708741 0.405358 153 0 76
0.335350 -0.249636 -0.204450 153 0 76
-0.240294 -0.738362 -0.269961 153 0 76
-0.150491 0.194237 0.486501 255 0 0
0.256270 0.708741 -0.245122 153 0 76
-0.514070 -0.148703 0.268240 153 0 76
-0.418588 0.289971 0.486501 255 0 0
0.501249 0.590753 -0.389794 153 0 76
-0.514070 -0.259637 -0.061775 153 0 76
0.139738 -0.444432 -0.520932 153 0 76
0.449925 0.708741 0.396689 153 0 76
0.441202 0.362582 0.080792 153 0 76
-0.456808 0.168468 -0.002241 153 0 76
0.278611 -0.532990 -0.520932 0 127 127
-0.208499 0.428795 0.486501 255 0 0
-0.431796 0.301197 0.381008 153 0 76
-0.051023 0.169239 -0.486383 153 0 76
-0.381563 0.160774 0.122285 76 153 0
0.430275 0.488460 0.225275 153 0 76
0.441060 0.426165 0.256737 153 0 76
0.411684 -0.331621 0.074046 153 0 76
0.501249 0.589027 0.171355 153 0 76
0.119940 -0.711882 0.302509 153 0 76
-0.317330 -0.342250 -0.210168 153 0 76
-0.443348 0.002692 -0.464466 153 0 76
-0.401739 -0.458886 0.146995 153 0 76
-0.514070 0.423153 -0.393753 153 0 76
-0.402583 0.568830 -0.184499 153 0 76
-0.371046 0.707159 0.442649 255 0 0
-0.514070 -0.593832 -0.109288 153 0 76
-0.258541 0.708741 -0.420592 153 0 76
-0.446597 -0.100758 -0.252284 153 0 76
0.138023 0.061378 0.417942 255 0 0
0.459699 0.130128 -0.520932 153 0 76
0.501249 0.612836 -0.309774 153 0 76
0.358142 -0.165310 0.417942 255 0 0
0.433516 -0.182057 -0.023787 153 0 76
0.259503 -0.493158 0.261132 153 0 76
0.388947 0.340136 0.360084 255 0 0
-0.171726 -0.138046 0.486501 255 0 0
0.087255 -0.471285 0.152442 153 0 76
-0.020829 -0.130306 0.417942 255 0 0
0.419896 0.385582 -0.520932 153 0 76
0.433516 0.457805 0.091406 153 0 76
0.501249 0.594013 0.340095 153 0 76
0.501249 0.257142 -0.398873 153 0 76
0.433516 -0.266410 0.286157 153 0 76
-0.247109 0.382644 -0.464466 153 0 76
0.190584 -0.673779 0.324989 153 0 76
-0.284998 0.259378 0.486501 255 0 0
-0.406591 0.111811 0.486501 255 0 0
-0.066852 -0.738361 -0.412089 153 0 76
0.433516 0.032136 -0.242312 153 0 76
-0.407487 0.385855 -0.520932 153 0 76
0.433516 0.076641 -0.412956 153 0 76
0.501249 -0.548671 -0.206169 153 0 76
-0.117532 0.708741 0.367928 153 0 76
-0.268643 0.380753 -0.520932 153 0 76
-0.075833 0.194903 -0.148447 76 153 0
0.373881 0.388001 -0.468860 153 0 76
0.407112 0.708741 -0.149017 153 0 76
-0.329853 0.207724 0.417942 255 0 0
-0.446597 -0.320412 -0.243833 153 0 76
-0.431945 0.708741 0.059742 153 0 76
-0.414890 -0.281480 -0.380033 153 0 76
-0.294002 -0.695874 -0.520932 153 0 76
0.217152 0.170015 -0.520932 153 0 76
0.219210 0.620546 0.308930 153 0 76
0.501249 -0.548438 -0.058433 153 0 76
0.204226 0.287082 0.416753 255 0 0
0.444812 0.277214 -0.333688 153 0 76
0.501249 -0.189716 0.325823 153 0 76
0.376867 -0.364932 0.233371 153 0 76
0.212409 -0.013472 0.486501 255 0 0
0.174384 -0.724280 -0.520932 153 0 76
-0.115238 -0.219611 0.155255 153 0 76
0.069544 -0.662070 0.302509 153 0 76
0.501249 -0.480150 0.043098 153 0 76
0.017717 0.646733 0.550802 0 255 0
0.278816 0.429881 0.360084 255 0 0
-0.385294 -0.039437 -0.475771 153 0 76
0.501249 0.611357 -0.039075 153 0 76
0.463310 0.617881 -0.520932 153 0 76
-0.186669 -0.205739 0.030316 153 0 76
0.443944 0.205619 0.350109 153 0 76
-0.169665 0.620546 0.236264 153 0 76
-0.514070 0.082642 0.177801 153 0 76
0.178816 -0.241757 0.174702 153 0 76
-0.514070 0.442278 0.053533 153 0 76
-0.123593 0.708741 0.175749 153 0 76
0.433516 0.236613 0.119242 153 0 76
0.416231 0.560291 -0.520932 153 0 76
-0.214853 -0.480986 0.267744 153 0 76
0.165261 0.647410 0.553159 0 255 0
-0.102741 0.198353 0.034321 76 153 0
-0.514070 -0.094247 -0.448604 153 0 76
-0.089586 -0.291652 0.417942 255 0 0
0.501249 0.431832 -0.117766 153 0 76
0.281164 -0.231580 -0.520932 153 0 76
-0.282173 -0.138658 0.417942 255 0 0
-0.514070 0.553967 -0.168164 153 0 76
0.026177 -0.550767 0.456456 255 0 0
0.027903 0.409313 -0.520932 153 0 76
0.444812 -0.272048 -0.356181 153 0 76
-0.254279 -0.306263 0.026711 153 0 76
0.138556 0.671444 -0.520932 153 0 76
-0.470726 0.291263 0.486501 255 0 0
0.501249 -0.644756 0.237253 153 0 76
0.400762 -0.324606 -0.109100 153 0 76
0.003853 0.620546 0.195152 153 0 76
-0.127481 0.353313 -0.520932 153 0 76
0.369333 0.587348 0.279521 153 0 76
0.102445 -0.738363 -0.299438 153 0 76
0.027096 0.708741 0.259533 153 0 76
-0.140073 0.675591 -0.520932 153 0 76
-0.019237 0.678120 0.486501 255 0 0
0.006509 -0.493158 0.290998 153 0 76
0.030811 0.177448 -0.489187 153 0 76
-0.362171 0.708741 -0.141694 153 0 76
-0.105358 0.376521 0.486501 255 0 0
-0.398325 -0.738361 -0.483785 153 0 76
-0.198412 0.045572 -0.520932 153 0 76
0.433516 0.227525 -0.397914 153 0 76
-0.212756 0.212085 0.129753 76 153 0
0.501249 -0.129027 0.078009 153 0 76
0.361261 -0.246905 0.486501 255 0 0
0.433516 -0.386554 0.220979 153 0 76
-0.514070 0.420988 0.424148 255 0 0
-0.167005 0.377529 -0.475771 153 0 76
0.501249 0.278351 0.314236 153 0 76
0.469146 -0.022470 0.486501 255 0 0
0.341630 0.327384 0.486501 255 0 0
0.136263 -0.460583 0.265211 153 0 76
-0.145736 0.315806 -0.475771 76 153 0
-0.385019 -0.322213 -0.309954 153 0 76
-0.221245 0.462620 -0.466489 153 0 76
-0.039272 -0.079431 0.073776 153 0 76
0.501249 -0.268078 -0.341314 153 0 76
0.433516 0.258767 0.164296 153 0 76
-0.514070 0.536350 0.042860 153 0 76
-0.503849 -0.738365 -0.042760 153 0 76
-0.014451 0.156106 0.053552 76 153 0
0.501249 -0.245998 0.361969 153 0 76
-0.446597 0.043259 -0.387516 153 0 76
0.149444 -0.567255 -0.520932 153 0 76
0.214078 0.320257 -0.520932 153 0 76
0.035004 0.494668 -0.472817 153 0 76
0.250159 -0.514785 0.418607 255 0 0
-0.174569 0.113466 0.417942 255 0 0
-0.480191 0.158291 0.385280 255 0 0
0.055749 0.359206 -0.520932 153 0 76
-0.265599 0.655563 0.378604 255 0 0
-0.264262 0.279359 0.268195 76 153 0
-0.317072 0.113519 0.486501 255 0 0
0.501249 -0.324485 -0.422274 153 0 76
-0.200458 -0.738368 0.121364 153 0 76
0.074168 0.136591 0.486501 255 0 0
-0.446597 -0.110119 -0.021426 153 0 76
0.502100 -0.014801 0.459190 255 0 0
0.222736 -0.200781 0.027238 153 0 76
-0.168187 -0.349025 -0.101181 153 0 76
0.501249 -0.616662 -0.100307 153 0 76
-0.106428 -0.488113 0.405439 255 0 0
-0.474425 0.708741 -0.158670 153 0 76
-0.410238 -0.738362 -0.251379 153 0 76
-0.514070 -0.588833 0.008980 153 0 76
-0.415184 -0.132565 0.199183 153 0 76
0.312390 0.615142 0.177811 153 0 76
-0.068487 0.195826 0.112490 76 153 0
-0.299177 0.350872 0.360084 255 0 0
-0.174734 -0.738362 -0.311616 153 0 76
0.488542 -0.670887 -0.520932 153 0 76
0.334029 0.708741 0.121296 153 0 76
-0.246127 -0.493158 0.411158 255 0 0
-0.446597 0.262949 -0.018934 153 0 76
-0.004199 -0.432883 -0.243435 153 0 76
-0.375068 0.337853 -0.520932 153 0 76
0.261364 0.648528 0.554293 0 255 0
-0.103565 0.239520 0.005450 76 153 0
0.361733 0.107777 0.417942 255 0 0
0.501249 0.192095 0.305896 153 0 76
-0.193755 -0.302096 0.417942 255 0 0
-0.336659 -0.455578 -0.311977 153 0 76
-0.327806 0.633847 0.486501 255 0 0
0.165116 -0.139822 0.417942 255 0 0
-0.514070 -0.202649 -0.410683 153 0 76
-0.514070 0.051317 0.355661 153 0 76
0.501249 0.512772 -0.414259 153 0 76
0.033133 -0.650421 -0.520932 153 0 76
-0.114638 -0.236373 0.043045 153 0 76
-0.514070 0.281319 -0.453621 153 0 76
0.026751 -0.455262 0.350033 153 0 76
0.502100 0.661748 0.439501 255 0 0
0.353119 -0.011499 -0.475771 153 0 76
-0.432882 0.554036 0.373191 255 0 0
0.241691 -0.257559 -0.460133 153 0 76
0.181443 0.663627 -0.520932 153 0 76
-0.362447 -0.353671 0.486501 255 0 0
0.502100 -0.257269 0.440431 255 0 0
0.202932 -0.275739 -0.332603 153 0 76
0.303942 -0.199832 0.028559 153 0 76
0.298540 -0.452802 0.486501 255 0 0
0.063423 -0.436086 0.486501 255 0 0
-0.496946 0.336376 0.486501 255 0 0
0.490552 -0.464845 0.486501 255 0 0
-0.514070 0.246974 -0.330260 153 0 76
0.501249 0.233661 0.195032 153 0 76
-0.304816 -0.057533 -0.520932 153 0 76
0.501249 0.277973 0.121489 153 0 76
0.433516 -0.051241 0.124137 153 0 76
-0.456726 -0.243428 0.257282 153 0 76
-0.210933 0.198061 -0.351840 76 153 0
-0.038549 -0.260025 0.313746 153 0 76
-0.131339 -0.483605 -0.190342 153 0 76
0.483161 0.531309 -0.520932 153 0 76
-0.370018 0.201024 -0.214157 76 153 0
0.164824 0.620546 -0.053255 153 0 76
-0.252742 -0.077418 0.417942 255 0 0
0.331056 0.657424 0.418607 255 0 0
-0.159673 -0.281633 0.486501 255 0 0
0.330624 0.160775 0.144125 76 153 0
-0.514070 0.018704 -0.495028 153 0 76
-0.459510 -0.738363 -0.170044 153 0 76
0.248418 -0.418522 0.382030 255 0 0
-0.139366 0.068520 0.395907 255 0 0
-0.514070 -0.201792 -0.107494 153 0 76
0.466653 0.179504 0.418607 255 0 0
-0.410310 -0.215610 0.178484 153 0 76
0.295281 0.618548 -0.047329 153 0 76
0.014497 0.153202 0.219206 76 153 0
-0.230039 -0.126785 0.486501 255 0 0
0.501249 0.532072 0.145241 153 0 76
-0.514070 -0.465263 -0.007333 153 0 76
-0.062848 0.164672 -0.074967 76 153 0
0.440133 0.708741 0.149084 153 0 76
0.501249 -0.159737 -0.163023 153 0 76
-0.106534 0.297857 0.101173 76 153 0
0.264626 -0.384350 0.486501 255 0 0
-0.231311 -0.124806 0.339285 153 0 76
-0.191764 0.708741 -0.296276 153 0 76
0.198738 0.393360 0.360084 255 0 0
0.056937 0.620546 0.206248 153 0 76
0.501249 0.356779 0.261667 153 0 76
-0.514070 0.571769 0.308309 153 0 76
0.501249 0.153077 -0.409631 153 0 76
-0.075709 -0.088356 0.486501 255 0 0
-0.055429 0.089683 -0.469180 153 0 76
0.050572 0.708741 -0.402958 153 0 76
-0.514070 0.477895 0.109270 153 0 76
-0.031304 -0.738364 -0.219382 153 0 76
-0.214593 0.240578 0.003790 76 153 0
0.032699 -0.479253 0.087407 153 0 76
-0.078313 0.143914 0.486501 255 0 0
0.196873 -0.181343 -0.520932 153 0 76
0.327069 0.153792 0.486501 255 0 0
-0.414422 -0.728786 0.302509 153 0 76
-0.374113 -0.227223 -0.475771 153 0 76
-0.389197 -0.464981 0.068677 153 0 76
-0.446597 -0.026738 -0.009901 153 0 76
-0.338160 0.499959 0.486501 255 0 0
0.449109 0.241454 -0.520932 153 0 76
-0.339322 0.158287 -0.125187 76 153 0
0.444805 -0.113864 -0.179557 153 0 76
-0.374114 0.671740 0.385280 153 0 76
-0.041964 0.129189 -0.117699 76 153 0
0.287903 0.708741 -0.114896 153 0 76
0.501249 -0.056747 -0.335181 153 0 76
-0.258645 0.607557 0.565539 0 255 0
-0.258633 0.375593 0.486501 255 0 0
-0.304466 0.619210 0.257865 153 0 76
-0.472530 0.708741 0.043663 153 0 76
-0.457893 0.330123 0.040584 153 0 76
-0.450171 0.285640 -0.362192 153 0 76
-0.342261 -0.346592 -0.520932 153 0 76
0.501249 -0.147825 -0.267160 153 0 76
-0.514070 0.130380 0.379604 153 0 76
-0.514070 -0.683645 -0.363359 153 0 76
0.019119 -0.737064 -0.520932 153 0 76
0.262490 0.618925 0.486501 255 0 0
-0.446597 0.151945 -0.263848 153 0 76
-0.484770 -0.512390 0.199956 153 0 76
0.225084 0.504089 -0.520932 153 0 76
0.501249 -0.372648 0.118380 153 0 76
0.000127 0.168024 0.486501 255 0 0
-0.312398 0.617745 -0.345140 153 0 76
-0.466968 0.708741 0.125625 153 0 76
-0.007434 0.035868 0.417942 255 0 0
-0.457893 0.271031 0.060881 153 0 76
-0.164769 -0.376755 0.417942 255 0 0
-0.507047 0.708741 -0.475513 153 0 76
-0.086548 -0.738365 -0.147628 153 0 76
0.357214 0.595453 0.129761 153 0 76
-0.446449 -0.449519 0.319865 153 0 76
-0.501960 -0.149755 0.418607 255 0 0
-0.514070 0.137442 -0.045274 153 0 76
-0.207762 -0.193230 -0.520932 153 0 76
-0.030531 0.590110 0.360084 255 0 0
-0.215793 0.292604 0.060239 76 153 0
-0.514070 -0.281010 0.083643 153 0 76
-0.331373 -0.738368 0.132836 153 0 76
0.501249 0.496221 0.370623 153 0 76
-0.297530 -0.347117 0.486501 255 0 0
-0.514070 0.265891 -0.237151 153 0 76
0.260516 -0.457058 0.198364 153 0 76
-0.029339 -0.172677 0.486501 255 0 0
-0.412063 -0.318684 -0.030441 153 0 76
0.224892 -0.457040 0.486501 255 0 0
-0.422375 0.481644 0.360084 255 0 0
-0.416163 0.230890 0.197489 76 153 0
0.502100 -0.378359 0.422303 255 0 0
-0.269111 -0.488421 0.014599 153 0 76
-0.215312 0.708741 -0.107989 153 0 76
-0.409102 -0.306146 0.032427 153 0 76
0.025619 -0.492517 -0.520932 153 0 76
0.501249 0.667871 0.378459 153 0 76
-0.241762 0.708741 0.328643 153 0 76
-0.013817 0.139928 -0.367762 76 153 0
-0.446597 -0.038712 -0.199464 153 0 76
-0.446597 -0.033406 0.299885 153 0 76
-0.093282 0.620546 0.011308 153 0 76
0.278652 0.620045 0.275317 153 0 76
-0.514070 0.324547 -0.263810 153 0 76
-0.330662 -0.467210 -0.149633 153 0 76
-0.412963 -0.204382 -0.311510 153 0 76
-0.446597 -0.248199 -0.452602 153 0 76
0.333762 -0.027538 -0.520932 153 0 76
0.282928 0.227569 0.294966 76 153 0
-0.483607 0.458918 0.385280 153 0 76
0.220496 -0.465518 -0.097323 153 0 76
-0.446597 0.095648 -0.190094 153 0 76
-0.162107 -0.738364 -0.178544 153 0 76
0.392808 -0.320575 0.382030 255 0 0
0.237025 0.347410 -0.010563 76 153 0
0.068178 -0.461001 0.268407 153 0 76
-0.082735 -0.366279 -0.520932 153 0 76
0.501547 0.368051 0.418607 255 0 0
-0.514070 0.317782 0.122300 153 0 76
-0.166986 0.708741 -0.001689 153 0 76
0.366381 -0.493158 0.269556 153 0 76
0.079646 0.264531 -0.464466 153 0 76
-0.514070 0.487423 0.311936 153 0 76
-0.026529 -0.466218 -0.329707 153 0 76
-0.514070 0.613643 0.458543 255 0 0
0.501249 0.449337 0.141298 153 0 76
0.049779 0.649930 -0.520932 153 0 76
0.381908 -0.452299 0.155029 153 0 76
-0.286250 -0.466090 -0.520932 153 0 76
-0.066030 -0.479451 -0.200611 153 0 76
0.325060 -0.735054 -0.520932 153 0 76
0.387008 0.402779 0.360084 255 0 0
-0.457893 0.400152 0.050256 153 0 76
0.501249 -0.653365 0.027395 153 0 76
0.049906 0.361272 0.486501 255 0 0
0.116342 -0.137615 0.417942 255 0 0
0.457738 -0.755253 0.282280 153 76 0
-0.514070 -0.653998 0.056980 153 0 76
0.501249 -0.690505 0.155322 153 0 76
-0.443277 -0.738366 0.038999 153 0 76
-0.417009 -0.255105 0.063353 153 0 76
-0.106788 0.297571 -0.464466 153 0 76
0.064723 0.708741 -0.360501 153 0 76
-0.410105 -0.221314 0.382030 255 0 0
-0.006426 0.352788 0.486501 255 0 0
-0.279841 -0.559198 -0.520932 153 0 76
-0.449843 -0.493158 0.358655 153 0 76
0.501249 -0.294338 0.297087 153 0 76
0.279547 -0.307829 -0.335939 153 0 76
-0.053201 0.036838 -0.477878 153 0 76
0.501249 -0.369306 0.261487 153 0 76
-0.378459 0.213076 0.191381 76 153 0
0.433516 -0.105769 0.095525 153 0 76
-0.342260 -0.615133 -0.520932 153 0 76
-0.355645 -0.468722 -0.061210 153 0 76
0.143925 0.707159 0.481325 255 0 0
0.356758 0.242444 -0.520932 153 0 76
0.017054 0.620546 -0.201397 153 0 76
0.191632 -0.313432 0.417942 255 0 0
-0.121885 0.023821 0.486501 255 0 0
-0.404016 0.376392 -0.371540 76 153 0
0.150918 -0.296447 -0.205064 153 0 76
0.501249 0.557925 -0.426059 153 0 76
-0.514070 -0.735114 -0.166733 153 0 76
-0.192070 -0.488421 -0.121305 153 0 76
0.501249 0.339290 -0.275686 153 0 76
-0.514070 0.158880 0.285393 153 0 76
0.433516 0.118725 0.087990 153 0 76
0.261801 0.190783 -0.012494 76 153 0
0.234179 0.620546 -0.002457 153 0 76
0.129458 0.708741 0.248623 153 0 76
0.068074 -0.366691 0.486501 255 0 0
-0.381368 -0.275764 0.486501 255 0 0
-0.109712 -0.262189 0.218762 153 0 76
0.433516 -0.333069 -0.433857 153 0 76
-0.290517 -0.738367 0.062130 153 0 76
-0.514070 0.066751 -0.038947 153 0 76
-0.336788 0.051541 -0.520932 153 0 76
-0.333605 0.708741 -0.298638 153 0 76
-0.021932 -0.419582 -0.097914 153 0 76
0.433516 0.074769 -0.260394 153 0 76
-0.514070 0.004642 -0.300917 153 0 76
0.501249 -0.240398 -0.385507 153 0 76
-0.514070 -0.244474 0.485928 255 0 0
-0.514070 -0.535730 -0.180520 153 0 76
0.458255 -0.493158 0.341248 153 0 76
0.180480 0.637837 0.381499 153 0 76
0.501249 -0.230722 0.141928 153 0 76
0.227360 -0.678098 -0.520932 153 0 76
-0.212892 0.248391 0.095134 76 153 0
-0.409953 -0.429653 -0.013560 153 0 76
0.025096 -0.184417 -0.511495 153 0 76
0.408582 0.543972 0.003739 153 0 76
-0.457341 -0.231203 0.078943 153 0 76
0.120600 0.231187 0.293407 76 153 0
0.149705 0.463002 -0.520932 153 0 76
-0.514070 0.621083 -0.474495 153 0 76
0.141215 0.164836 -0.520932 153 0 76
-0.310726 -0.674473 0.302509 153 0 76
0.501249 -0.270753 -0.486151 153 0 76
-0.457893 -0.008065 -0.354674 153 0 76
0.008188 0.708741 0.410178 153 0 76
0.275274 0.200857 0.417942 255 0 0
-0.278811 -0.387066 0.417942 255 0 0
-0.327878 0.614422 -0.458982 153 0 76
0.000782 0.066722 -0.513013 153 0 76
0.501249 0.492390 0.037277 153 0 76
0.228070 -0.738364 -0.271146 153 0 76
0.267712 -0.738362 -0.399383 153 0 76
-0.386651 0.708741 -0.377039 153 0 76
0.501249 -0.583744 -0.129471 153 0 76
-0.514070 0.144792 -0.003226 153 0 76
-0.480243 -0.423350 -0.520932 153 0 76
-0.347490 0.442181 0.360084 255 0 0
0.095439 0.654616 0.350109 255 0 0
-0.446597 0.218469 -0.239529 153 0 76
0.067914 -0.150615 0.080487 153 0 76
0.297872 -0.095907 -0.475771 153 0 76
0.208676 -0.282320 0.171176 153 0 76
0.402103 0.205210 -0.161187 76 153 0
0.039744 0.708741 -0.026481 153 0 76
-0.446597 -0.168982 -0.366733 153 0 76
0.501249 0.307649 0.056514 153 0 76
-0.446597 0.410053 -0.192964 153 0 76
-0.446597 0.375569 -0.457226 153 0 76
0.411898 0.402493 -0.464466 153 0 76
-0.407918 -0.492569 -0.520932 153 0 76
-0.446597 0.408403 -0.054407 153 0 76
-0.414556 -0.271896 0.209092 153 0 76
-0.285940 -0.493158 0.367162 153 0 76
0.119494 0.708741 0.369926 153 0 76
-0.446597 0.406827 -0.413909 153 0 76
-0.070055 -0.136238 0.197869 153 0 76
-0.093382 -0.493158 0.348601 153 0 76
-0.147337 -0.454344 0.339620 153 0 76
-0.072879 -0.738361 -0.471346 153 0 76
-0.514070 0.552056 -0.235963 153 0 76
0.171323 -0.224274 -0.475771 153 0 76
0.163429 0.238925 0.486501 255 0 0
0.501249 -0.051733 0.128591 153 0 76
-0.106666 0.620546 0.248516 153 0 76
0.065577 -0.197519 0.071792 153 0 76
-0.514070 -0.223665 0.033910 153 0 76
0.234080 -0.452507 0.288817 153 0 76
-0.157783 -0.243230 -0.204632 153 0 76
0.242719 -0.738365 -0.104916 153 0 76
-0.218661 -0.738366 -0.027602 153 0 76
0.454599 -0.738364 -0.290362 153 0 76
0.401401 -0.232272 0.177137 153 0 76
0.501249 -0.330235 -0.377908 153 0 76
-0.076325 0.102041 0.486501 255 0 0
-0.446597 0.336085 -0.209611 153 0 76
-0.458978 0.674494 0.385280 153 0 76
-0.206741 -0.378778 0.486501 255 0 0
-0.246389 0.230982 -0.448547 76 153 0
-0.514070 0.424965 -0.072964 153 0 76
-0.339281 -0.300113 0.174494 153 0 76
-0.212119 0.227089 0.170519 76 153 0
-0.457893 0.210053 -0.330853 153 0 76
-0.048884 -0.125361 0.340006 153 0 76
0.011150 -0.413966 0.382030 255 0 0
0.293713 -0.002879 0.417942 255 0 0
-0.457893 0.076725 0.220954 153 0 76
-0.472330 0.227274 0.486501 255 0 0
-0.514070 -0.505793 -0.213645 153 0 76
-0.514070 0.107794 -0.316255 153 0 76
0.501249 -0.235775 -0.129385 153 0 76
-0.004400 0.708741 0.047289 153 0 76
-0.180978 -0.296784 -0.206347 153 0 76
0.013591 -0.716864 0.302509 153 0 76
0.446130 -0.481692 -0.520932 153 0 76
0.035185 0.571701 -0.472109 153 0 76
-0.021420 0.434675 0.360084 255 0 0
-0.167164 -0.493158 0.361206 153 0 76
0.501249 -0.467047 0.310887 153 0 76
-0.059384 0.311968 -0.520932 153 0 76
-0.079070 -0.668837 0.324989 153 0 76
-0.410067 -0.168154 -0.107590 153 0 76
-0.514070 0.370086 0.305233 153 0 76
-0.112134 0.708741 0.308505 153 0 76
0.164614 -0.550767 0.476847 255 0 0
0.501249 0.667942 -0.413885 153 0 76
-0.074364 -0.223209 0.071792 153 0 76
-0.327264 0.408480 0.295981 76 153 0
0.356938 0.595637 -0.091513 153 0 76
0.433516 -0.177498 -0.381983 153 0 76
0.167064 0.068825 -0.475771 153 0 76
-0.351160 -0.319677 -0.336606 153 0 76
0.098458 -0.176321 0.417942 255 0 0
-0.034885 -0.422636 -0.466074 153 0 76
0.027694 0.708741 -0.240489 153 0 76
-0.457893 0.289864 -0.146838 153 0 76
0.501249 -0.054547 0.081290 153 0 76
-0.215793 0.303487 0.143211 76 153 0
-0.298529 0.309240 -0.520932 153 0 76
-0.177784 0.355980 0.486501 255 0 0
-0.181668 -0.258220 0.337811 153 0 76
0.501249 0.063569 0.275255 153 0 76
-0.457893 -0.148952 0.074796 153 0 76
0.290803 0.164288 -0.150785 76 153 0
-0.001685 -0.272125 0.486501 255 0 0
0.501249 -0.186252 0.138845 153 0 76
0.231746 -0.040070 -0.520932 153 0 76
-0.440013 0.708741 0.395322 153 0 76
0.488964 0.359426 0.486501 255 0 0
0.247604 -0.121628 0.417942 255 0 0
-0.367012 -0.210353 -0.520932 153 0 76
0.444812 0.283234 0.210118 153 0 76
0.006049 -0.207762 -0.010956 153 0 76
-0.085928 0.708741 0.027638 153 0 76
0.180305 0.055435 0.486501 255 0 0
-0.002961 0.708741 -0.517392 153 0 76
-0.279132 -0.758473 0.302509 153 0 76
0.111165 0.655563 0.390191 255 0 0
-0.111552 -0.225416 -0.000954 153 0 76
-0.184129 0.620546 -0.360159 153 0 76
-0.124312 0.125974 0.486501 255 0 0
-0.256453 -0.240843 0.417942 255 0 0
-0.457893 -0.008605 -0.154447 153 0 76
-0.348429 -0.348511 0.000468 153 0 76
-0.282993 0.201949 0.417942 255 0 0
-0.276788 0.403943 0.360084 255 0 0
-0.387058 0.707159 0.479541 255 0 0
-0.381430 0.214592 -0.110480 76 153 0
-0.103156 -0.738362 -0.332690 153 0 76
-0.446597 -0.118204 -0.417402 153 0 76
-0.364513 0.577142 -0.520932 153 0 76
-0.162348 0.152485 -0.475771 153 0 76
0.412899 -0.066038 -0.520932 153 0 76
0.194774 -0.738368 0.180996 153 0 76
-0.198411 -0.551554 -0.521358 153 0 76
-0.347157 0.156911 0.486501 255 0 0
0.418549 0.708741 0.237314 153 0 76
0.501249 -0.400560 -0.206730 153 0 76
0.501249 0.019595 0.039581 153 0 76
0.127242 -0.230685 -0.205511 153 0 76
0.457733 0.708741 0.077090 153 0 76
0.460184 -0.377252 0.486501 255 0 0
-0.441427 -0.493158 0.260373 153 0 76
0.442290 -0.388805 0.350109 255 0 0
-0.381195 0.037481 0.414082 255 0 0
0.100793 0.620546 -0.192449 153 0 76
-0.052686 -0.007150 -0.520932 153 0 76
0.442138 0.708741 -0.299975 153 0 76
-0.005197 0.671519 0.418607 255 0 0
0.339833 -0.363428 0.486501 255 0 0
-0.021123 -0.477842 -0.163256 153 0 76
0.088871 -0.738361 -0.483784 153 0 76
-0.381051 -0.515556 0.418607 255 0 0
-0.216862 0.565849 -0.520932 153 0 76
-0.449102 -0.102304 0.261894 153 0 76
-0.235910 0.620546 -0.148384 153 0 76
-0.415588 -0.145629 -0.383533 153 0 76
-0.457893 -0.257970 -0.132601 153 0 76
0.100335 -0.386581 0.417942 255 0 0
0.134858 -0.458249 -0.383921 153 0 76
-0.514070 -0.602326 0.187425 153 0 76
-0.514070 -0.643247 -0.195638 153 0 76
0.412282 -0.329177 -0.302478 153 0 76
0.433516 -0.366153 -0.404656 153 0 76
0.340495 -0.738363 -0.343096 153 0 76
-0.296677 0.528428 0.360084 255 0 0
0.150225 -0.738370 0.296634 153 0 76
-0.163024 0.111762 -0.520932 153 0 76
-0.197633 -0.336178 -0.520932 153 0 76
0.459154 0.061555 0.418607 255 0 0
-0.457893 -0.287052 -0.282513 153 0 76
-0.514070 0.308783 -0.160812 153 0 76
-0.035969 0.708741 -0.103605 153 0 76
0.171417 0.432651 0.486501 255 0 0
-0.416387 -0.254860 -0.177506 153 0 76
0.281556 0.174528 -0.295083 76 153 0
-0.406181 -0.455738 -0.159472 153 0 76
0.501249 0.394115 0.033401 153 0 76
0.236600 0.453550 0.360084 255 0 0
0.185649 0.620546 -0.138672 153 0 76
-0.459778 -0.597664 -0.520932 153 0 76
0.103398 -0.473902 0.099555 153 0 76
-0.050560 0.708741 -0.304545 153 0 76
-0.151061 0.505112 -0.475771 153 0 76
0.317846 -0.130531 -0.475771 153 0 76
-0.123758 -0.045696 0.417942 255 0 0
0.089521 -0.466481 -0.256316 153 0 76
-0.142960 0.620546 -0.423316 153 0 76
-0.309054 0.608585 0.573065 0 255 0
0.003449 0.708741 -0.425205 153 0 76
0.501249 0.247876 -0.207580 153 0 76
-0.386093 0.584246 -0.150304 153 0 76
-0.065312 -0.331555 0.138182 153 0 76
-0.356357 -0.467936 0.150463 153 0 76
0.251680 -0.738369 0.237392 153 0 76
0.498682 -0.545722 -0.520932 153 0 76
0.019185 -0.366851 0.486501 255 0 0
-0.368489 -0.449599 -0.434134 153 0 76
0.501249 0.654506 -0.306780 153 0 76
-0.082546 0.474271 -0.520932 153 0 76
-0.110746 -0.182351 0.093166 153 0 76
-0.027439 -0.252410 -0.038770 153 0 76
0.437983 0.533726 0.486501 255 0 0
-0.413359 0.190514 -0.304067 76 153 0
-0.130039 0.599130 -0.520932 153 0 76
0.042099 -0.210639 0.486501 255 0 0
0.162453 -0.738361 -0.483343 153 0 76
-0.457893 -0.186214 0.239337 153 0 76
0.057676 -0.347629 -0.394262 153 0 76
0.373772 0.515172 -0.520932 153 0 76
0.367821 -0.454601 -0.044888 153 0 76
-0.335851 0.708741 0.220542 153 0 76
0.220981 0.074598 0.486501 255 0 0
-0.514070 -0.267658 0.290082 153 0 76
-0.037426 -0.493158 0.362783 153 0 76
-0.155116 0.073325 -0.475771 153 0 76
-0.052526 -0.080174 0.417942 255 0 0
-0.281306 -0.451710 0.344500 153 0 76
-0.049774 -0.184959 -0.491257 153 0 76
-0.071352 -0.738367 0.080820 153 0 76
-0.514070 -0.135208 -0.477099 153 0 76
0.501249 0.284237 -0.338756 153 0 76
0.078658 -0.493158 0.300785 153 0 76
-0.316709 -0.478786 -0.047890 153 0 76
0.497688 -0.505357 0.199959 153 0 76
0.335786 -0.188171 -0.332655 153 0 76
0.501249 0.281628 -0.471826 153 0 76
0.433516 -0.206991 -0.254501 153 0 76
0.219816 -0.543840 -0.520932 153 0 76
-0.258747 0.022346 0.381365 255 0 0
-0.108272 -0.082857 -0.520932 153 0 76
-0.091789 -0.321923 0.089532 153 0 76
-0.514070 -0.190494 -0.245654 153 0 76
0.502100 0.423966 0.443424 255 0 0
0.401085 -0.179036 0.260551 153 0 76
0.069356 -0.258444 -0.520932 153 0 76
-0.514070 -0.227524 -0.315713 153 0 76
-0.118781 -0.158480 0.486501 255 0 0
-0.270807 -0.455896 -0.370228 153 0 76
0.038878 0.620546 0.273446 153 0 76
-0.450184 -0.095824 0.171720 153 0 76
-0.514070 -0.550100 -0.412136 153 0 76
-0.273572 -0.738368 0.158365 153 0 76
0.501249 -0.148589 -0.076268 153 0 76
0.501249 0.020319 -0.196936 153 0 76
-0.318961 0.388723 -0.475771 153 0 76
-0.028624 -0.118621 -0.513013 153 0 76
0.023808 -0.522897 0.486501 255 0 0
0.431266 0.168479 -0.464466 153 0 76
-0.474526 0.440558 0.486501 255 0 0
0.349329 0.284700 0.412567 255 0 0
0.501249 -0.393766 -0.017809 153 0 76
0.444812 0.364371 0.253976 153 0 76
0.433516 0.320134 -0.017173 153 0 76
0.157739 -0.358152 0.486501 255 0 0
0.309709 0.708741 0.188509 153 0 76
0.398401 0.152229 0.216734 76 153 0
0.378511 -0.025455 0.392654 255 0 0
-0.271590 -0.213605 0.029826 153 0 76
-0.104785 -0.738369 0.279549 153 0 76
0.281508 -0.348240 -0.070070 153 0 76
-0.244769 0.707159 0.446627 255 0 0
-0.013698 -0.482483 -0.041521 153 0 76
-0.180023 -0.738369 0.277659 153 0 76
-0.446597 0.013009 -0.231400 153 0 76
0.444812 -0.261032 0.210718 153 0 76
0.104395 0.708741 -0.360800 153 0 76
-0.446597 -0.350568 0.140106 153 0 76
0.356513 -0.732952 0.324989 153 0 76
0.003763 -0.183213 -0.047864 153 0 76
0.073266 0.674323 0.418607 255 0 0
0.166360 0.708741 -0.034533 153 0 76
-0.514070 -0.609295 0.049203 153 0 76
-0.134056 0.355373 -0.473357 153 0 76
-0.446597 -0.366119 0.297136 153 0 76
0.433516 -0.308905 -0.066171 153 0 76
-0.207319 0.199141 -0.405220 76 153 0
-0.428794 -0.106390 0.382030 255 0 0
0.250201 -0.299607 0.026578 153 0 76
-0.312527 -0.133051 0.486501 255 0 0
0.501249 -0.384866 0.173559 153 0 76
-0.004543 -0.174938 0.175485 153 0 76
-0.177707 -0.632882 0.324989 153 0 76
-0.153901 0.648402 0.568903 0 255 0
0.433516 0.260589 -0.068596 153 0 76
0.193368 0.708741 -0.111047 153 0 76
0.040369 -0.060345 0.486501 255 0 0
-0.514070 -0.293400 -0.209225 0 127 127
-0.087544 0.107448 0.417942 255 0 0
0.434072 0.206694 -0.186049 153 0 76
-0.514070 0.311263 0.339405 153 0 76
-0.457893 0.373213 0.209398 153 0 76
-0.514070 0.606755 -0.258505 153 0 76
0.455500 -0.166521 0.486501 255 0 0
0.353344 0.708741 0.204817 153 0 76
0.428611 -0.449599 -0.417905 153 0 76
-0.057301 -0.738366 -0.056694 153 0 76
-0.463318 -0.151662 0.350109 255 0 0
0.292956 -0.460301 0.008856 153 0 76
0.396300 0.406202 -0.074172 76 153 0
-0.398915 -0.447311 0.382030 255 0 0
-0.266121 0.620546 -0.417879 153 0 76
-0.143798 -0.204505 0.417942 255 0 0
0.250952 0.610425 -0.520932 153 0 76
-0.106853 0.257682 -0.186395 76 153 0
-0.150877 -0.399647 -0.464466 153 0 76
-0.446597 0.180290 -0.452551 153 0 76
-0.402068 0.353958 0.168000 76 153 0
-0.514070 -0.114500 0.221103 153 0 76
0.117146 0.200700 -0.332953 76 153 0
-0.293558 -0.335038 -0.464466 153 0 76
0.116172 0.201431 -0.397666 76 153 0
0.204277 -0.738367 0.099392 153 0 76
0.497674 -0.302592 0.385280 153 0 76
-0.115486 0.098233 0.381766 255 0 0
-0.051644 -0.284132 -0.483958 153 0 76
-0.446597 -0.226516 -0.234635 153 0 76
0.039465 -0.210570 -0.464466 153 0 76
-0.415816 -0.128185 -0.191620 153 0 76
0.056059 -0.303481 0.189173 153 0 76
0.380340 -0.738365 -0.188505 153 0 76
0.216661 0.708741 0.357902 153 0 76
-0.349409 -0.744919 0.324989 153 0 76
0.444812 -0.206877 -0.342206 153 0 76
0.070251 0.684403 -0.520932 153 0 76
0.303682 -0.738366 -0.061971 153 0 76
-0.514070 -0.085364 -0.245477 153 0 76
0.012140 0.140593 -0.065539 76 153 0
0.402621 0.307706 -0.520932 0 127 127
0.381463 -0.453562 0.115580 153 0 76
0.261673 0.190608 -0.362531 76 153 0
-0.173081 -0.450368 -0.458562 153 0 76
-0.514070 0.558816 0.214212 153 0 76
0.501249 0.016925 -0.368524 153 0 76
0.444812 0.128456 -0.294690 153 0 76
0.444567 0.233571 0.256725 153 0 76
0.001357 -0.493158 0.412010 255 0 0
0.444812 -0.265767 0.044526 153 0 76
0.278145 0.176900 -0.211496 76 153 0
0.391512 -0.738363 -0.316768 153 0 76
-0.280815 0.153829 -0.520932 153 0 76
0.353097 -0.509246 0.486501 255 0 0
0.290962 -0.656320 -0.520932 153 0 76
0.331762 0.266338 0.288603 76 153 0
0.244771 0.620546 -0.184278 153 0 76
0.253306 0.263395 -0.464466 153 0 76
-0.514070 0.346233 -0.344644 153 0 76
0.501249 -0.075254 0.399889 153 0 76
-0.189942 -0.522855 0.486501 255 0 0
0.303030 -0.342653 -0.108371 153 0 76
0.499452 -0.097193 0.486501 255 0 0
0.013379 -0.053521 -0.520932 153 0 76
-0.454985 -0.755283 -0.441275 76 0 153
-0.382748 -0.328242 0.263349 153 0 76
0.501249 0.616416 -0.154286 153 0 76
-0.124309 -0.533747 0.199947 153 0 76
0.020006 -0.356565 0.417942 255 0 0
0.218114 0.655563 0.386493 153 0 76
0.501249 -0.100806 -0.379002 153 0 76
0.008586 -0.430223 0.264617 153 0 76
0.501249 -0.708587 -0.351271 153 0 76
-0.406879 0.563927 0.053231 153 0 76
-0.232747 0.187345 -0.464466 153 0 76
-0.390631 -0.364924 0.228200 153 0 76
0.216380 -0.738362 -0.366437 153 0 76
0.086806 -0.251137 0.080487 153 0 76
0.171423 -0.738366 -0.037870 153 0 76
0.269723 -0.458415 -0.242662 153 0 76
0.501249 0.033948 -0.030863 153 0 76
-0.001931 -0.200680 0.068780 153 0 76
-0.311207 0.708741 0.184178 153 0 76
0.296502 0.337418 0.360084 255 0 0
-0.339125 0.161037 0.146826 76 153 0
0.068524 0.623815 0.350033 255 0 0
0.445477 -0.057841 0.380146 255 0 0
0.439037 -0.269853 0.486501 255 0 0
-0.089992 0.174712 -0.464466 153 0 76
-0.314234 0.038330 0.486501 255 0 0
0.458606 0.012876 0.418607 255 0 0
-0.291017 0.429547 0.486501 255 0 0
0.298026 0.648306 -0.520932 153 0 76
-0.213112 0.244943 -0.221880 76 153 0
0.501249 0.035439 0.152353 153 0 76
0.435209 -0.493158 0.211977 153 0 76
-0.268681 -0.469688 0.297366 153 0 76
0.230762 0.196628 0.056427 76 153 0
-0.385354 0.348216 0.360084 255 0 0
-0.180298 0.229622 -0.475771 153 0 76
0.293308 -0.521389 0.199952 153 0 76
-0.488278 0.478200 -0.520932 153 0 76
-0.063302 0.620546 -0.306708 153 0 76
-0.362541 -0.493158 0.263391 153 0 76
-0.083763 0.620546 0.135753 153 0 76
-0.514070 -0.527374 -0.070936 153 0 76
0.368302 -0.062065 0.486501 255 0 0
0.303712 0.708741 0.019643 153 0 76
0.433516 -0.044725 -0.424382 153 0 76
-0.151886 0.418558 0.360084 255 0 0
0.077701 0.272584 0.417942 255 0 0
0.444812 0.143549 0.185185 153 0 76
-0.411393 0.409109 0.258861 76 153 0
-0.514070 -0.111083 0.485571 255 0 0
0.007397 0.177765 0.417942 255 0 0
-0.514070 0.377492 -0.085610 153 0 76
-0.430963 -0.238773 -0.520932 153 0 76
-0.514070 0.166764 0.449482 255 0 0
-0.088158 -0.738364 -0.211363 153 0 76
0.444812 0.157014 0.021238 153 0 76
-0.446597 -0.035088 -0.382149 153 0 76
-0.514070 0.093047 0.247810 153 0 76
-0.514070 0.055161 -0.447303 153 0 76
-0.259630 -0.738363 -0.224257 153 0 76
0.501249 -0.072115 0.218789 153 0 76
0.501249 0.126939 0.248260 153 0 76
-0.103871 0.240359 -0.305519 76 153 0
0.296269 -0.759651 0.311787 153 0 76
-0.210798 0.313116 -0.397938 76 153 0
-0.087490 -0.341184 -0.338271 153 0 76
0.501249 0.356036 0.102791 153 0 76
-0.391523 -0.087759 -0.520932 153 0 76
-0.228834 0.301669 -0.520932 153 0 76
-0.514070 0.260096 0.366113 153 0 76
0.128346 -0.391567 -0.520932 153 0 76
0.290426 0.619273 -0.122217 153 0 76
-0.431248 -0.017184 -0.520932 153 0 76
-0.514070 -0.254588 0.159423 153 0 76
-0.123884 0.208208 0.417942 255 0 0
0.081556 0.608790 0.573776 0 255 0
-0.514070 -0.248916 -0.350125 153 0 76
0.501249 -0.396189 -0.426193 153 0 76
0.275876 -0.378893 -0.464466 153 0 76
-0.514070 -0.062867 -0.120915 153 0 76
-0.240176 0.708741 -0.009380 153 0 76
-0.514070 0.075497 0.080919 153 0 76
0.433516 0.347410 0.323951 153 0 76
0.239064 0.708741 -0.008198 153 0 76
0.407420 0.708741 -0.381248 153 0 76
0.016150 -0.122373 0.071792 153 0 76
0.501249 0.031848 0.383070 153 0 76
-0.502470 -0.738362 -0.239714 153 0 76
0.373060 -0.126553 -0.458280 153 0 76
-0.514070 0.676139 -0.101415 153 0 76
-0.479789 0.403903 0.385280 153 0 76
-0.036663 0.686527 0.385280 153 0 76
-0.415117 -0.258735 0.011599 153 0 76
-0.283711 -0.474342 -0.198058 153 0 76
-0.084707 0.672480 -0.520932 153 0 76
0.282434 -0.452138 -0.351779 153 0 76
0.380959 -0.306077 0.088643 153 0 76
0.444812 -0.185561 -0.101809 153 0 76
0.501249 -0.304266 0.133983 153 0 76
0.006049 -0.302710 -0.013637 153 0 76
-0.103533 0.250189 0.135965 76 153 0
0.407221 -0.123901 0.069677 153 0 76
-0.050258 -0.480341 0.153535 153 0 76
-0.369507 0.249888 0.054180 76 153 0
-0.446597 0.242702 -0.076915 153 0 76
0.501249 0.244198 -0.485850 153 0 76
0.219780 0.233786 -0.464466 153 0 76
0.048656 0.156283 -0.148889 76 153 0
-0.292882 -0.738361 -0.327704 153 0 76
-0.046899 0.184466 -0.395177 76 153 0
-0.446597 0.276974 0.272080 153 0 76
0.090178 -0.461061 -0.520932 153 0 76
-0.457893 -0.048307 -0.104199 153 0 76
-0.001437 -0.738361 -0.430649 153 0 76
0.444812 0.324495 -0.153673 153 0 76
0.122416 -0.194077 0.486501 255 0 0
-0.346555 0.306709 0.486501 255 0 0
0.386967 0.571723 -0.293819 153 0 76
-0.227026 -0.309118 -0.333949 153 0 76
0.501249 0.220261 -0.093459 153 0 76
-0.440984 -0.446544 -0.225487 153 0 76
-0.017868 -0.283852 0.197869 153 0 76
0.167416 -0.380601 -0.520932 153 0 76
-0.514070 -0.435307 0.290083 153 0 76
-0.316491 0.090919 -0.520932 153 0 76
0.390435 -0.020590 -0.464466 153 0 76
-0.140080 -0.100981 -0.475771 153 0 76
-0.182774 0.327864 -0.475771 153 0 76
-0.160778 0.655563 0.357411 255 0 0
-0.212529 0.181866 -0.520932 153 0 76
0.214324 -0.464489 -0.176975 153 0 76
-0.131835 0.264936 -0.469680 153 0 76
-0.250795 -0.253797 -0.520932 153 0 76
0.036336 -0.420247 0.116243 153 0 76
0.122576 -0.527418 -0.520932 153 0 76
-0.403087 0.568255 -0.100553 153 0 76
0.284020 0.678729 0.486501 255 0 0
-0.104472 -0.702321 0.324989 153 0 76
0.470361 -0.594543 0.265423 153 0 76
0.501249 -0.447531 0.268115 153 0 76
-0.376787 0.164239 0.260481 76 153 0
0.163840 0.620546 -0.213217 153 0 76
-0.092197 0.009875 -0.464466 153 0 76
0.501249 0.405822 0.094572 153 0 76
-0.134387 0.620546 0.076349 153 0 76
0.406830 0.192874 -0.520932 153 0 76
-0.261370 -0.351340 -0.135297 153 0 76
-0.245805 0.501445 0.486501 255 0 0
0.433516 0.446075 -0.197857 153 0 76
-0.139805 0.603353 0.360084 255 0 0
0.501249 0.542055 -0.006832 153 0 76
0.291463 -0.180277 0.417942 255 0 0
0.254987 0.347925 0.486501 255 0 0
-0.457893 0.171375 0.048685 153 0 76
-0.338894 0.129839 -0.475771 153 0 76
-0.086078 0.558858 -0.520932 153 0 76
0.085216 0.620546 -0.343220 153 0 76
0.125604 0.193572 -0.151380 76 153 0
-0.208013 0.194762 0.417942 255 0 0
-0.514070 0.202858 0.219127 153 0 76
-0.317887 -0.299449 0.486501 255 0 0
-0.457893 0.094763 0.013306 153 0 76
-0.484965 0.628307 0.385280 153 0 76
-0.483144 -0.315269 0.385280 153 0 76
0.394764 0.359647 0.486501 255 0 0
0.424680 -0.444790 0.188932 153 0 76
-0.128757 0.708741 -0.490994 153 0 76
-0.182620 0.708741 0.346629 153 0 76
-0.127436 -0.477628 -0.248998 153 0 76
0.307518 -0.493158 0.382353 255 0 0
-0.452692 -0.482065 0.486501 255 0 0
-0.038723 -0.390075 -0.513013 153 0 76
0.072136 -0.331555 0.243711 153 0 76
-0.022342 -0.456337 0.486501 255 0 0
0.335380 -0.062033 -0.475771 153 0 76
-0.514070 0.597092 0.256118 153 0 76
