ply
format ascii 1.0
element vertex 1260
property float x
property float y
property float z
property uchar red
property uchar green
property uchar blue
end_header
0.124189 -0.024513 0.376775 127 0 127
0.395290 0.148557 0.327701 76 0 153
0.356808 -0.053121 0.256812 76 0 153
-0.290959 0.649260 -0.393452 127 0 127
-0.207938 0.001297 -0.122645 76 0 153
0.356808 -0.751441 0.299191 76 0 153
0.400974 -0.525455 -0.151899 76 0 153
-0.335124 -0.712550 -0.006412 127 0 127
0.008758 -0.026125 -0.369139 204 51 127
0.305500 -0.882022 -0.311508 0 0 255
-0.129335 0.319628 0.376775 127 0 127
-0.335124 0.526505 -0.123954 127 0 127
0.189290 0.045463 0.216663 76 0 153
0.028527 -0.490506 -0.369139 204 51 127
-0.187738 0.001297 -0.304756 76 0 153
0.239932 0.765198 -0.359324 204 51 127
0.156250 0.840450 -0.105545 255 0 0
-0.029694 -0.409039 0.332609 127 0 127
0.179733 -0.374113 -0.027797 153 0 76
0.227049 0.609610 0.376775 127 0 127
0.356754 0.587391 0.376775 127 0 127
0.219228 0.301504 -0.359324 204 51 127
0.397294 -0.048071 0.346231 127 0 127
-0.290959 0.348793 -0.337516 127 0 127
-0.243478 0.884616 0.190986 255 0 0
0.400974 0.189459 -0.039670 76 0 153
-0.195472 -0.617486 -0.359324 204 51 127
0.400974 0.233883 0.033944 76 0 153
0.218787 -0.374113 0.258571 153 0 76
-0.164381 0.840450 0.255526 255 0 0
0.400974 -0.067916 -0.165913 76 0 153
-0.252320 0.141604 0.332609 127 0 127
0.400974 -0.184632 -0.205900 76 0 153
0.024688 0.465039 -0.297398 153 76 0
0.053515 0.001297 0.299219 76 0 153
0.400974 -0.045827 0.011495 76 0 153
-0.102030 -0.671425 0.376775 127 0 127
0.356808 0.558616 -0.135865 76 0 153
-0.290959 -0.034348 0.105988 127 0 127
0.400974 -0.399224 0.284281 76 0 153
-0.227509 0.840450 -0.335207 255 0 0
0.400974 -0.716923 0.278744 76 0 153
0.400974 -0.362381 -0.154692 76 0 153
0.086285 0.001297 0.113874 76 0 153
0.356808 0.848390 -0.324391 255 0 0
-0.229108 -0.333581 0.376775 127 0 127
-0.312788 -0.171458 0.376775 127 0 127
0.356808 0.347735 -0.271710 76 0 153
0.130687 0.465039 0.126186 153 76 0
0.356808 -0.190441 0.219233 76 0 153
0.078774 -0.882022 -0.310693 0 0 255
0.254141 -0.628910 -0.369139 204 51 127
0.138495 0.272741 0.376775 127 0 127
-0.197199 0.465039 -0.054418 153 76 0
-0.149620 -0.010804 0.376775 127 0 127
-0.244486 -0.374113 -0.117461 153 0 76
0.349252 0.799934 0.376775 127 0 127
-0.200489 -0.529957 0.332609 127 0 127
-0.168934 -0.781103 0.332609 127 0 127
0.378075 -0.227915 0.376775 127 0 127
-0.335124 0.657798 -0.238902 127 0 127
-0.335124 0.273942 -0.101018 127 0 127
-0.137716 0.045463 -0.304105 76 0 153
0.224702 0.420873 -0.340105 153 76 0
0.046237 -0.882022 0.242562 0 0 255
0.400974 0.063298 -0.385823 76 0 153
-0.026437 -0.289550 0.376775 127 0 127
-0.335124 -0.515064 0.244711 127 0 127
-0.335124 0.412545 -0.337343 127 0 127
0.084327 -0.837856 -0.340113 0 0 255
-0.195587 0.420873 -0.326974 153 76 0
-0.079570 -0.315507 0.376775 127 0 127
-0.290959 0.752545 0.244891 127 0 127
-0.335124 -0.514952 -0.009855 127 0 127
-0.125715 0.465039 0.012873 153 76 0
-0.265014 0.507466 -0.369139 204 51 127
-0.065536 -0.837856 -0.053344 0 0 255
0.356808 0.782315 0.048898 76 0 153
0.113398 -0.418279 0.056590 153 0 76
0.010528 0.465039 -0.128977 153 76 0
0.294918 -0.096872 -0.359324 204 51 127
0.166966 0.024639 0.376775 127 0 127
-0.335124 0.061518 -0.216810 127 0 127
-0.242417 -0.023383 0.376775 127 0 127
0.368530 -0.576361 0.332609 127 0 127
0.186882 0.840450 -0.295064 255 0 0
0.306938 0.045463 -0.292793 76 0 153
0.296421 0.614113 0.376775 127 0 127
0.356808 -0.331217 0.075224 76 0 153
-0.335124 0.619709 0.055662 127 0 127
-0.006105 -0.837856 -0.210171 0 0 255
-0.290959 -0.811370 -0.040133 127 0 127
-0.015678 0.610135 -0.359324 204 51 127
0.273807 -0.374113 -0.341629 153 0 76
0.356808 -0.781033 -0.391164 76 0 153
-0.290959 -0.351095 -0.007068 127 0 127
-0.288458 0.189509 0.332609 127 0 127
0.198999 -0.221955 -0.359324 204 51 127
-0.027218 0.835306 0.332609 127 0 127
0.400974 0.847921 0.237089 76 0 153
0.269440 -0.693572 -0.369139 204 51 127
0.356808 0.181996 -0.074225 76 0 153
-0.335124 0.486937 -0.375866 127 0 127
-0.111630 0.420873 -0.192757 153 76 0
-0.335124 0.039304 -0.286864 127 0 127
-0.335124 -0.492297 -0.061660 127 0 127
-0.238372 -0.268942 0.332609 127 0 127
0.400974 -0.526136 0.301435 76 0 153
0.288117 0.310298 0.376775 127 0 127
0.026925 -0.135427 0.332609 127 0 127
0.353128 0.428971 -0.037931 76 0 153
-0.151133 0.840450 0.065903 255 0 0
-0.086192 0.012085 0.332609 127 0 127
0.070705 -0.838570 0.332609 0 0 255
0.337551 -0.403171 -0.359324 204 51 127
0.400974 0.369655 0.229510 76 0 153
0.400974 0.748836 -0.364346 76 0 153
-0.059810 0.429695 0.315433 127 0 127
-0.007911 0.465039 -0.000708 153 76 0
0.400974 -0.493252 0.120991 76 0 153
-0.335124 0.239659 -0.115713 127 0 127
-0.335124 -0.621579 0.165824 127 0 127
-0.254833 -0.418279 -0.296217 153 0 76
0.124609 0.532663 0.332609 127 0 127
-0.223246 0.588854 0.376775 127 0 127
-0.090714 -0.418279 0.025279 153 0 76
-0.290959 0.877758 0.023622 127 0 127
-0.290959 -0.155682 0.067862 127 0 127
-0.127956 0.671090 0.376775 127 0 127
0.400974 -0.736918 -0.278890 76 0 153
-0.258470 0.465039 -0.213396 153 76 0
-0.327477 -0.469058 -0.413305 127 0 127
-0.229325 0.087984 0.376775 127 0 127
-0.132472 0.453352 0.376775 127 0 127
0.232935 -0.475657 -0.359324 204 51 127
0.356808 0.786123 -0.392905 76 0 153
0.277920 0.024542 -0.369139 76 0 153
0.400974 -0.840399 0.168670 76 0 153
-0.335124 -0.805686 -0.085646 127 0 127
0.004352 -0.673383 -0.359324 204 51 127
-0.335124 0.116220 -0.171785 127 0 127
0.229493 -0.418279 -0.337542 153 0 76
0.240185 -0.374113 -0.279958 153 0 76
0.356808 -0.839088 0.223157 0 0 255
0.356808 0.659725 -0.089533 76 0 153
0.364575 -0.820633 0.327701 76 0 153
0.272931 -0.837856 -0.259571 0 0 255
-0.252925 -0.346997 0.332609 127 0 127
-0.251880 -0.882022 -0.198251 0 0 255
0.239839 -0.882022 0.221332 0 0 255
0.057190 0.743454 -0.369139 204 51 127
-0.226363 0.465039 0.163809 153 76 0
-0.335124 0.032614 0.036104 127 0 127
0.158376 -0.882022 -0.051875 0 0 255
-0.062833 -0.065462 -0.359324 204 51 127
-0.335124 -0.058771 -0.222340 127 0 127
0.356808 0.559476 0.047541 76 0 153
-0.017731 0.531968 -0.369139 204 51 127
0.131459 -0.400661 -0.359324 204 51 127
-0.301718 -0.705377 0.332609 127 0 127
-0.335124 0.234874 0.186332 127 0 127
-0.247394 0.136569 -0.359324 204 51 127
-0.290959 0.200521 0.231021 127 0 127
-0.290959 0.270584 0.170798 127 0 127
0.207544 0.593512 0.332609 127 0 127
-0.081809 -0.762128 -0.369139 204 51 127
0.167138 0.347795 -0.359324 204 51 127
0.400974 0.601471 0.222890 76 0 153
0.366623 0.291588 -0.367282 76 0 153
-0.294569 0.256806 -0.413305 127 0 127
-0.310518 0.884616 0.099243 127 0 127
-0.036323 -0.815866 -0.369139 204 51 127
-0.148112 -0.882022 -0.139509 0 0 255
0.365047 -0.162315 0.327701 127 0 127
-0.335124 0.268511 -0.050109 127 0 127
0.391755 0.653066 -0.413305 76 0 153
-0.290959 -0.114842 0.298443 127 0 127
-0.053376 -0.054608 0.376775 127 0 127
0.120778 0.224602 0.332609 127 0 127
0.193704 0.001297 -0.236176 76 0 153
0.400974 -0.260224 0.297678 76 0 153
0.181171 0.884616 0.000626 255 0 0
0.356808 -0.765795 0.021898 76 0 153
-0.290959 0.187371 0.187656 127 0 127
0.240115 -0.671953 0.376775 127 0 127
0.150934 -0.502864 0.332609 127 0 127
-0.050924 0.738395 -0.369139 204 51 127
0.153077 0.465039 -0.013018 153 76 0
0.286545 -0.796880 -0.359324 204 51 127
0.176710 -0.692918 -0.359324 204 51 127
-0.025532 -0.154888 0.376775 127 0 127
-0.074883 0.465039 -0.139854 153 76 0
0.209166 0.848904 0.332609 127 0 127
0.323225 -0.837856 -0.198865 0 0 255
-0.184132 -0.882022 0.358437 127 0 127
0.304043 0.840450 0.185128 255 0 0
0.203524 0.630551 0.332609 127 0 127
-0.290959 -0.576941 -0.182450 127 0 127
0.356808 -0.147416 -0.178976 76 0 153
0.400974 0.856597 -0.081980 76 0 153
0.353128 -0.416273 0.168878 153 0 76
0.356808 -0.669206 0.090409 76 0 153
-0.121495 0.045463 0.183526 76 0 153
-0.335124 -0.667637 0.051984 127 0 127
0.356808 -0.554282 -0.187086 76 0 153
-0.290959 0.279816 0.299189 127 0 127
0.400974 0.804506 -0.139425 76 0 153
0.061528 0.465039 0.170066 153 76 0
-0.102039 0.465039 0.152743 153 76 0
0.328259 0.420873 -0.199560 153 76 0
0.313926 -0.374113 -0.241534 153 0 76
0.356808 0.569325 -0.227856 76 0 153
0.318674 0.661551 0.376775 127 0 127
0.200011 -0.065544 0.332609 127 0 127
-0.063992 0.622048 0.332609 127 0 127
-0.335124 -0.342120 0.273848 127 0 127
0.235141 0.001297 0.026001 76 0 153
0.356808 -0.768140 0.232401 76 0 153
0.084379 -0.418279 0.279678 153 0 76
-0.335124 -0.748731 0.151580 127 0 127
-0.006272 0.884616 0.304536 255 0 0
-0.217081 0.084766 0.332609 127 0 127
-0.056236 -0.882022 -0.129234 0 0 255
0.069905 -0.609134 -0.359324 204 51 127
-0.330699 0.884616 -0.014777 127 0 127
-0.335124 0.585985 0.034654 127 0 127
-0.156198 -0.374113 -0.002206 153 0 76
-0.335124 -0.559914 -0.139388 127 0 127
-0.292228 0.884616 -0.357336 204 51 127
0.356808 -0.274338 -0.325349 76 0 153
0.356808 0.253711 0.093129 76 0 153
0.021569 0.045463 0.006896 76 0 153
0.400974 -0.195963 -0.376283 76 0 153
-0.136420 -0.882022 -0.020206 0 0 255
-0.335124 -0.528516 -0.274310 127 0 127
-0.290959 -0.358176 0.243630 127 0 127
-0.290959 0.248739 -0.216245 127 0 127
-0.068633 0.001297 -0.308519 76 0 153
0.254955 0.766432 0.376775 127 0 127
-0.335124 -0.363125 0.019354 127 0 127
0.199300 0.250891 0.332609 127 0 127
-0.141025 0.573893 -0.359324 204 51 127
0.280922 0.173119 0.376775 127 0 127
-0.039213 -0.374113 -0.290820 153 0 76
0.050718 -0.539640 -0.369139 204 51 127
0.227322 -0.837856 0.132314 0 0 255
0.149904 0.799051 0.332609 127 0 127
0.017417 -0.418279 -0.258587 153 0 76
-0.127861 -0.374113 -0.275417 153 0 76
0.356808 -0.778234 0.158728 76 0 153
-0.290959 -0.759621 0.164995 127 0 127
0.298012 -0.299925 0.376775 127 0 127
-0.008210 0.465039 0.046937 153 76 0
-0.015933 -0.376655 0.376775 127 0 127
0.400974 -0.406094 0.201077 76 0 153
0.356808 -0.363932 0.015651 76 0 153
0.105689 -0.837856 0.088725 0 0 255
-0.335124 0.331182 -0.183397 127 0 127
0.277682 -0.882022 0.257875 0 0 255
-0.064408 -0.374113 0.131571 153 0 76
-0.045583 -0.806516 0.376775 127 0 127
-0.335124 0.816676 -0.142757 127 0 127
0.349582 0.884616 0.097014 255 0 0
-0.251931 0.788183 0.376775 127 0 127
-0.255512 0.184959 -0.369139 204 51 127
0.196258 -0.882022 0.057980 0 0 255
-0.335124 -0.350441 -0.374762 127 0 127
-0.335124 0.519615 0.075358 127 0 127
-0.290959 -0.783510 -0.158157 127 0 127
-0.290959 0.349626 -0.260434 127 0 127
0.203579 0.420873 0.029743 153 76 0
-0.211361 -0.407778 0.332609 127 0 127
0.073344 0.045463 0.164742 76 0 153
-0.335124 0.883625 -0.299638 127 0 127
-0.055732 -0.374113 -0.076177 153 0 76
-0.290959 -0.502368 -0.035968 127 0 127
0.400974 0.090424 -0.154907 76 0 153
-0.335124 0.593232 0.114113 127 0 127
-0.156098 -0.837856 0.088421 0 0 255
-0.290959 0.423606 -0.320078 127 0 127
0.179999 -0.148211 0.376775 127 0 127
0.356808 -0.177292 -0.024930 76 0 153
-0.290959 0.367196 -0.152906 127 0 127
-0.093542 0.790854 0.332609 127 0 127
-0.335124 0.469611 0.183076 127 0 127
-0.290959 0.369109 0.184849 127 0 127
0.356808 -0.617555 0.256745 76 0 153
0.305468 -0.418279 -0.238696 153 0 76
-0.290959 -0.533197 0.258712 127 0 127
-0.221253 0.851795 -0.369139 204 51 127
0.400974 -0.100185 -0.226953 76 0 153
-0.048997 0.001297 -0.339136 76 0 153
-0.158922 -0.418279 0.137261 153 0 76
0.356808 -0.848101 0.106072 0 0 255
-0.335124 0.017905 -0.214569 127 0 127
-0.335124 -0.811706 0.234544 127 0 127
-0.331444 0.550848 0.353188 127 0 127
-0.290959 0.541595 -0.072462 127 0 127
-0.335124 0.558426 0.290875 127 0 127
0.101711 0.420873 0.045088 153 76 0
-0.262461 -0.418279 -0.165787 153 0 76
-0.290959 -0.379798 0.035556 127 0 127
-0.102172 0.001297 -0.213323 76 0 153
-0.021444 0.420873 0.297152 153 76 0
-0.244043 0.506808 0.332609 127 0 127
-0.254638 0.884616 -0.016366 255 0 0
0.054935 0.071307 0.376775 127 0 127
-0.028511 0.884616 -0.013688 255 0 0
0.400974 -0.457320 -0.279345 76 0 153
-0.290959 -0.460666 0.216427 127 0 127
0.356808 -0.206790 0.053957 76 0 153
0.165869 0.664685 0.376775 127 0 127
-0.026398 0.550611 0.332609 127 0 127
0.305343 -0.533022 0.376775 127 0 127
0.356808 0.289511 -0.216168 76 0 153
0.149102 0.292366 0.332609 127 0 127
-0.290959 -0.070941 -0.155725 127 0 127
-0.064611 -0.418279 0.199026 153 0 76
-0.290959 -0.856189 0.108924 127 0 127
-0.335124 0.190469 -0.410181 127 0 127
0.356808 0.722772 -0.299783 76 0 153
0.066394 -0.175770 -0.359324 204 51 127
-0.335124 -0.540497 -0.344010 127 0 127
-0.335124 -0.813810 -0.387494 127 0 127
0.235429 0.107859 0.332609 127 0 127
-0.290959 0.370771 0.062057 127 0 127
-0.013120 -0.882022 -0.176919 0 0 255
-0.290959 0.038341 -0.195736 127 0 127
0.400974 0.401874 -0.280666 76 0 153
-0.290959 0.560197 0.238688 127 0 127
-0.011899 0.840450 -0.041013 255 0 0
0.272032 -0.863799 0.332609 0 0 255
-0.173264 -0.418279 0.243968 153 0 76
-0.335124 -0.302082 -0.188418 127 0 127
-0.290959 -0.662928 -0.159951 127 0 127
-0.146250 -0.558655 0.332609 127 0 127
0.052152 0.420873 0.137387 153 76 0
0.400974 -0.075347 0.283642 76 0 153
-0.290959 0.287901 -0.004556 127 0 127
0.007574 0.418609 0.332609 127 0 127
-0.111315 0.062571 0.376775 127 0 127
0.296060 0.465039 -0.054247 153 76 0
0.400974 0.268806 0.299363 76 0 153
0.254866 0.685734 0.376775 127 0 127
-0.290959 0.022650 -0.002202 76 0 153
0.311416 -0.346040 0.446748 0 127 127
-0.313131 -0.461761 0.327701 127 0 127
0.356808 -0.345500 0.218424 76 0 153
-0.335124 -0.499787 -0.375047 127 0 127
0.400974 -0.153567 -0.072008 76 0 153
0.400974 -0.162997 0.004623 76 0 153
-0.335124 0.057668 0.168099 127 0 127
0.140901 -0.793656 0.376775 127 0 127
-0.335124 -0.226130 -0.299816 127 0 127
-0.128095 -0.426257 -0.359324 204 51 127
0.365690 0.776911 0.327701 127 0 127
0.356808 0.008068 -0.341831 204 51 127
0.400974 -0.299100 -0.226025 76 0 153
0.400974 -0.408023 -0.202451 76 0 153
-0.290959 0.193505 0.084414 127 0 127
-0.032652 0.420873 -0.261048 153 76 0
-0.335124 0.710991 0.204464 127 0 127
-0.193289 0.420873 0.257445 153 76 0
-0.176012 0.840450 -0.089481 255 0 0
-0.075563 0.685402 0.332609 127 0 127
-0.290959 -0.567774 0.171175 127 0 127
0.290102 -0.374113 0.305656 153 0 76
-0.257441 0.546956 -0.369139 204 51 127
0.049470 -0.072692 0.332609 127 0 127
-0.082109 0.868962 -0.369139 204 51 127
-0.290959 -0.275750 -0.340649 127 0 127
0.356808 -0.159723 0.244006 76 0 153
-0.049636 0.045463 0.173888 76 0 153
-0.155098 0.588744 0.376775 127 0 127
0.293110 0.036677 0.332609 127 0 127
-0.077048 0.420873 0.244550 153 76 0
-0.152816 0.440368 0.315433 153 76 0
-0.250847 0.420873 -0.116130 153 76 0
-0.138330 -0.882022 0.244701 0 0 255
0.356808 -0.312868 0.278347 76 0 153
0.038802 -0.374113 -0.153977 153 0 76
-0.042121 -0.882022 -0.316555 0 0 255
-0.335124 -0.763731 -0.276219 127 0 127
-0.189656 -0.882022 0.119022 0 0 255
0.197574 0.063740 0.376775 127 0 127
0.353128 -0.396933 0.251448 76 0 153
0.045027 -0.329685 0.376775 127 0 127
-0.291176 0.531872 0.332609 127 0 127
0.151264 -0.297480 0.376775 127 0 127
0.400974 -0.449600 -0.045719 76 0 153
0.317816 -0.329767 0.376775 127 0 127
0.048208 -0.792231 -0.359324 204 51 127
0.286879 -0.281600 0.420270 0 127 127
0.356808 0.347965 -0.099392 76 0 153
0.356808 0.213037 -0.136504 76 0 153
0.372802 -0.882022 0.088645 76 0 153
-0.287278 -0.415647 -0.257398 127 0 127
0.356808 -0.585035 -0.014361 76 0 153
-0.041424 -0.879762 0.327701 127 0 127
0.356808 -0.318468 0.157632 76 0 153
0.057706 0.828462 0.376775 127 0 127
0.400974 -0.881644 -0.005929 76 0 153
-0.303227 0.602181 -0.366623 127 0 127
0.103279 0.465039 -0.251232 153 76 0
-0.290959 0.490908 -0.105738 127 0 127
0.356808 0.242050 0.272721 76 0 153
0.312809 -0.362605 -0.359324 204 51 127
0.400974 -0.377436 -0.006678 76 0 153
0.305270 0.420873 -0.077094 153 76 0
0.356808 -0.382150 -0.390308 204 51 127
0.368406 -0.882022 -0.237272 76 0 153
-0.332601 -0.882022 0.095920 127 0 127
0.356808 0.196878 -0.264801 76 0 153
-0.012656 -0.374113 -0.033176 153 0 76
0.052694 -0.374113 0.266019 153 0 76
0.201665 0.148543 -0.359324 204 51 127
0.366115 -0.812169 0.376775 127 0 127
0.242549 -0.580733 -0.359324 204 51 127
0.027348 -0.070324 -0.369139 204 51 127
0.400974 0.602811 0.299356 76 0 153
-0.089899 0.420873 -0.022843 153 76 0
0.400974 0.155078 -0.310431 76 0 153
0.400974 0.408765 0.080763 76 0 153
0.400974 0.490058 -0.322713 76 0 153
-0.320080 -0.339235 0.376775 127 0 127
-0.335124 -0.215875 -0.062437 127 0 127
-0.290959 0.667010 -0.220766 127 0 127
0.228070 0.001297 -0.153871 76 0 153
-0.251947 -0.072129 -0.369139 204 51 127
-0.243046 -0.528376 0.376775 127 0 127
0.400974 0.182552 -0.374180 76 0 153
0.023040 0.311419 0.376775 127 0 127
-0.064525 0.840450 -0.337667 255 0 0
-0.206097 0.465039 -0.278247 153 76 0
-0.290959 0.433001 0.224668 127 0 127
0.400974 0.217832 0.177240 76 0 153
0.215230 0.719316 0.376775 127 0 127
0.369077 0.084867 -0.368886 76 0 153
0.400974 0.139754 -0.089405 76 0 153
-0.290959 0.037056 0.115721 127 0 127
-0.293330 -0.752510 0.332609 127 0 127
-0.290959 -0.532046 -0.245265 127 0 127
-0.335124 -0.371835 -0.196353 127 0 127
-0.249411 -0.418279 0.128981 153 0 76
-0.264252 0.001297 -0.089329 76 0 153
-0.290959 -0.182579 0.009547 127 0 127
0.356808 -0.569257 0.123411 76 0 153
0.293326 0.465039 -0.131744 153 76 0
-0.290959 0.844570 -0.003774 255 0 0
0.400974 -0.161638 -0.233122 76 0 153
0.214312 -0.650545 -0.369139 204 51 127
0.356808 -0.631797 -0.078789 76 0 153
0.248909 0.045463 -0.012843 76 0 153
0.283464 0.465039 0.265855 153 76 0
0.356808 -0.007256 0.258845 76 0 153
0.147334 0.420873 0.308616 153 76 0
-0.179761 0.045463 0.156488 76 0 153
-0.224187 -0.882022 -0.167988 0 0 255
0.040732 -0.454194 0.332609 127 0 127
-0.290959 -0.392011 -0.067015 127 0 127
-0.335124 0.847043 0.151080 127 0 127
-0.002955 -0.787064 0.332609 127 0 127
-0.290959 -0.159570 -0.245573 127 0 127
0.400974 -0.452790 0.188630 76 0 153
0.400974 0.645180 -0.336022 76 0 153
0.045506 0.045463 -0.087689 76 0 153
0.400974 -0.711042 0.139946 76 0 153
-0.335124 0.232903 -0.150626 127 0 127
-0.290959 -0.618020 0.174280 127 0 127
0.302250 0.001297 -0.115508 76 0 153
-0.335124 0.801237 -0.031018 127 0 127
-0.306947 0.363650 0.376775 127 0 127
0.400974 0.741880 0.096539 76 0 153
-0.133851 0.255090 0.376775 127 0 127
-0.173496 0.420873 -0.081062 153 76 0
0.318507 0.453426 -0.359324 153 76 0
0.012469 -0.418279 0.034593 153 0 76
-0.064267 0.484844 -0.369139 204 51 127
0.385268 0.103331 0.376775 127 0 127
0.085056 -0.719634 0.376775 127 0 127
-0.335124 -0.478686 0.111726 127 0 127
0.243684 0.465039 0.055724 153 76 0
0.317456 0.840450 -0.216015 255 0 0
-0.203385 -0.837856 -0.165710 0 0 255
-0.131357 -0.412178 0.315433 127 0 127
-0.290959 0.250190 -0.334677 127 0 127
0.068314 0.001297 -0.031361 76 0 153
0.356808 -0.262598 0.236604 76 0 153
-0.112972 0.867440 0.353073 127 0 127
0.208111 -0.418279 -0.040560 153 0 76
0.369077 0.567969 -0.362556 204 51 127
-0.290959 -0.022932 -0.270700 127 0 127
-0.235240 -0.374113 0.106496 153 0 76
0.314729 -0.374113 -0.280274 153 0 76
-0.178047 -0.708040 -0.359324 204 51 127
-0.335124 0.546021 -0.020464 127 0 127
-0.290959 -0.700314 0.177304 127 0 127
0.397294 0.372765 0.345591 127 0 127
-0.169510 0.465039 0.295217 153 76 0
0.324248 -0.483258 -0.359324 204 51 127
0.266091 0.884616 -0.172702 255 0 0
0.400974 -0.378316 -0.346255 76 0 153
0.351775 0.117651 0.376775 127 0 127
-0.095135 0.465039 -0.314492 153 76 0
0.213444 -0.837856 -0.207261 0 0 255
-0.031006 0.840020 0.376775 127 0 127
0.400974 -0.505843 -0.409331 76 0 153
-0.146618 0.420873 0.059636 153 76 0
0.230674 0.840450 0.168286 255 0 0
0.338570 0.867440 0.366314 127 0 127
-0.300528 0.753715 -0.359324 127 0 127
0.206868 -0.063823 -0.369139 204 51 127
0.176101 0.434041 0.376775 127 0 127
-0.005134 0.045463 -0.111497 76 0 153
0.400974 0.093768 0.100533 76 0 153
-0.188825 -0.374113 0.131806 153 0 76
-0.311080 0.118087 0.327701 127 0 127
0.305721 0.465039 -0.006943 153 76 0
-0.215755 -0.316967 -0.359324 204 51 127
0.400974 0.688487 -0.346915 76 0 153
0.227157 -0.639962 0.332609 127 0 127
0.356808 0.514786 0.268257 76 0 153
0.400974 -0.792131 -0.364450 76 0 153
0.400974 0.080214 -0.093542 76 0 153
-0.290959 0.145617 -0.078440 127 0 127
0.013496 0.045463 0.090948 76 0 153
-0.231216 0.420873 -0.003199 153 76 0
0.110627 0.840450 0.096905 255 0 0
0.400974 -0.833993 0.047855 76 0 153
-0.335124 0.789508 -0.380901 127 0 127
0.276969 -0.418279 0.226156 153 0 76
-0.047818 -0.526095 0.376775 127 0 127
-0.185094 -0.035760 -0.359324 204 51 127
-0.258450 -0.490978 0.332609 127 0 127
-0.290959 -0.847438 -0.105501 127 0 127
-0.159447 0.107706 -0.359324 204 51 127
-0.046246 0.101641 0.376775 127 0 127
-0.335124 0.218133 0.123478 127 0 127
0.356808 0.394621 -0.179416 76 0 153
-0.019501 0.379916 0.376775 127 0 127
0.038294 0.363507 0.376775 127 0 127
-0.119501 0.231122 -0.369139 204 51 127
-0.287278 0.035513 0.234372 76 0 153
-0.290959 0.228273 0.290813 127 0 127
-0.335124 0.784482 0.175735 127 0 127
-0.166327 -0.848258 0.376775 127 0 127
-0.290959 0.774647 0.066781 127 0 127
-0.290959 0.537874 -0.003959 127 0 127
-0.146975 -0.374113 -0.176257 153 0 76
-0.290959 0.102096 0.275729 127 0 127
0.297853 0.077824 0.376775 127 0 127
0.251540 0.723300 0.332609 127 0 127
-0.029514 -0.576229 0.376775 127 0 127
-0.335124 -0.752105 -0.153244 127 0 127
0.356808 0.447878 -0.296554 153 76 0
-0.290959 -0.243137 0.023893 127 0 127
-0.290959 0.462459 -0.384460 127 0 127
0.196606 0.840450 0.069682 255 0 0
-0.132795 -0.837856 0.116808 0 0 255
0.265547 -0.374113 -0.233012 153 0 76
0.082372 0.465039 0.112840 153 76 0
-0.008571 0.420873 0.226144 153 76 0
0.400974 0.285994 0.202887 76 0 153
-0.127329 -0.080566 0.376775 127 0 127
-0.335124 0.733870 -0.057442 127 0 127
0.245223 0.001297 -0.026533 76 0 153
0.227036 -0.261022 -0.359324 204 51 127
0.400974 -0.019385 -0.210750 76 0 153
0.070735 0.465039 0.025477 153 76 0
0.142540 -0.817418 -0.369139 204 51 127
0.287418 0.001297 -0.325239 76 0 153
0.324461 0.055957 0.332609 127 0 127
-0.219091 -0.647607 -0.359324 204 51 127
0.208548 -0.168884 0.376775 127 0 127
-0.190966 0.465039 -0.213344 153 76 0
0.363294 -0.736632 0.332609 76 0 153
-0.290959 0.828808 0.270265 127 0 127
-0.290959 -0.699929 -0.297873 127 0 127
0.134360 -0.418279 0.246442 153 0 76
0.400974 -0.031697 0.229675 76 0 153
0.356808 -0.613394 0.079670 76 0 153
0.004089 0.565103 0.376775 127 0 127
0.356808 -0.742748 -0.263764 76 0 153
-0.290959 -0.067254 -0.018528 127 0 127
0.356808 0.133112 0.134733 76 0 153
-0.200304 0.884616 0.056743 255 0 0
-0.251043 -0.270646 -0.359324 204 51 127
-0.335124 0.796713 0.142442 127 0 127
-0.335124 0.564883 -0.061481 127 0 127
0.153397 0.045463 0.190998 76 0 153
0.400974 0.366890 -0.378171 76 0 153
-0.290959 -0.865879 -0.070979 127 0 127
0.228469 -0.882022 0.290742 0 0 255
0.400974 0.224196 -0.295876 76 0 153
0.082584 0.164670 0.332609 127 0 127
0.078900 0.593644 0.332609 127 0 127
0.400974 -0.864103 -0.390150 76 0 153
0.157808 0.433003 -0.359324 204 51 127
-0.070678 0.465039 0.256030 153 76 0
-0.036051 0.204002 0.332609 127 0 127
-0.290959 0.791773 -0.078916 127 0 127
-0.191160 -0.120322 0.332609 127 0 127
0.360924 0.884616 -0.104481 76 0 153
0.400974 0.845631 -0.140998 76 0 153
0.400974 0.407483 0.138580 76 0 153
0.356808 0.626011 0.285264 76 0 153
-0.335124 0.394634 0.164951 127 0 127
-0.205811 0.468862 0.332609 127 0 127
0.289461 0.001297 -0.188081 76 0 153
-0.335124 -0.796336 -0.332380 127 0 127
-0.144037 0.840450 -0.201752 255 0 0
0.400974 0.852722 0.300222 76 0 153
-0.298076 0.668351 -0.359324 127 0 127
0.177237 -0.374113 0.123648 153 0 76
-0.335124 0.279140 0.057949 127 0 127
0.190828 0.522825 0.332609 127 0 127
0.260707 0.001297 0.243088 76 0 153
-0.137288 0.608861 0.332609 127 0 127
-0.335124 -0.579051 0.282601 127 0 127
-0.082925 0.001297 0.194547 76 0 153
0.019219 0.840450 0.095016 255 0 0
0.226358 -0.882022 -0.019195 0 0 255
-0.290959 0.138202 -0.009052 127 0 127
-0.335124 0.182684 -0.010187 127 0 127
0.356808 -0.121813 -0.143822 76 0 153
-0.290959 -0.422029 0.077180 127 0 127
0.272759 -0.772355 0.332609 127 0 127
-0.053789 -0.374113 -0.003839 153 0 76
0.250270 0.884616 0.022087 255 0 0
-0.236101 -0.833718 0.376775 127 0 127
0.400974 -0.755001 0.026723 76 0 153
0.321010 0.045463 -0.324884 76 0 153
0.222361 0.392076 0.376775 127 0 127
0.252702 -0.418279 0.110173 153 0 76
0.108911 -0.272891 0.332609 127 0 127
0.056620 0.420873 0.070730 153 76 0
-0.204288 -0.703472 0.332609 127 0 127
0.356808 0.411799 0.276550 153 76 0
-0.003715 0.138257 0.332609 127 0 127
0.296080 0.754225 -0.359324 204 51 127
-0.335124 0.758413 0.301258 127 0 127
-0.091738 0.799642 -0.359324 204 51 127
-0.335124 0.672254 -0.051538 127 0 127
-0.290959 0.474619 0.136219 127 0 127
0.400974 0.524717 0.185296 76 0 153
0.217355 0.527408 0.376775 127 0 127
0.060188 0.884616 0.186734 255 0 0
-0.215938 -0.015089 -0.369139 204 51 127
0.356808 0.484475 -0.145823 76 0 153
-0.214330 -0.837856 -0.053156 0 0 255
0.356808 -0.522537 -0.120997 76 0 153
-0.003810 -0.882022 0.079545 0 0 255
-0.316054 0.470138 0.376775 127 0 127
0.108031 -0.379552 0.376775 127 0 127
-0.206547 0.001297 0.259192 76 0 153
0.385455 0.046889 0.332609 127 0 127
-0.106537 0.840450 0.011659 255 0 0
0.016492 0.840450 -0.174765 255 0 0
-0.143289 -0.158980 0.376775 127 0 127
0.343762 0.884616 -0.071234 255 0 0
-0.292398 -0.582728 0.327701 127 0 127
-0.137868 0.329000 0.332609 127 0 127
-0.335124 0.640882 -0.196670 127 0 127
0.400974 -0.607977 -0.024873 76 0 153
-0.335124 -0.107438 -0.116628 127 0 127
0.301136 0.001297 -0.013053 76 0 153
0.014208 0.465039 0.162019 153 76 0
-0.290959 0.407573 0.013549 127 0 127
0.356808 0.323970 0.169401 76 0 153
0.071326 -0.418279 -0.060094 153 0 76
-0.335124 0.078283 0.030627 127 0 127
0.109134 -0.882022 0.296971 0 0 255
0.400974 0.549897 -0.292977 76 0 153
-0.058978 0.840450 0.075082 255 0 0
-0.208066 -0.837856 -0.265554 0 0 255
-0.290959 -0.110072 0.184605 127 0 127
0.356808 0.102966 -0.411546 76 0 153
0.356808 0.128670 -0.212364 76 0 153
-0.087111 -0.349482 0.332609 127 0 127
-0.185857 -0.418279 -0.032575 153 0 76
0.193190 0.302259 0.376775 127 0 127
0.400974 -0.786317 -0.102000 76 0 153
0.139431 -0.882022 0.001542 0 0 255
0.400974 0.382827 -0.227818 76 0 153
0.251032 0.045463 -0.242101 76 0 153
-0.305452 -0.801778 0.332609 127 0 127
0.150202 0.468049 0.332609 127 0 127
-0.264125 0.253244 -0.359324 204 51 127
0.113378 -0.882022 -0.239920 0 0 255
-0.335124 -0.286685 0.136022 127 0 127
0.356808 -0.455500 -0.379410 76 0 153
0.152176 0.001297 -0.338519 76 0 153
0.397294 -0.442560 0.342363 76 0 153
0.286555 0.800763 0.376775 127 0 127
0.153718 -0.418279 0.011079 153 0 76
-0.210960 0.840450 0.125926 255 0 0
-0.254580 0.001297 0.142183 76 0 153
0.035631 -0.837856 0.074120 0 0 255
-0.335124 0.141416 -0.358610 127 0 127
-0.335124 0.877832 0.252503 127 0 127
-0.335124 0.201641 -0.087811 127 0 127
0.265532 0.174809 -0.359324 204 51 127
0.369012 0.884616 -0.287775 76 0 153
0.356808 0.408221 0.232893 76 0 153
-0.335124 0.202799 0.240894 127 0 127
-0.290959 -0.185468 0.212922 127 0 127
0.075569 0.698224 -0.359324 204 51 127
0.356808 0.329305 -0.329956 76 0 153
-0.335124 -0.110057 0.076980 127 0 127
-0.280667 -0.101792 -0.359324 204 51 127
-0.190281 0.631841 -0.369139 204 51 127
-0.253027 -0.374113 -0.346037 204 51 127
-0.290959 -0.014585 -0.377977 127 0 127
0.213375 -0.882022 -0.073325 0 0 255
-0.035775 0.268474 0.332609 127 0 127
-0.290959 0.411560 -0.226348 127 0 127
-0.335124 -0.321514 0.065852 127 0 127
-0.290959 -0.480657 -0.107028 127 0 127
0.382920 -0.192377 0.332609 76 0 153
-0.290959 0.351994 -0.021354 127 0 127
-0.310188 -0.626311 0.327701 127 0 127
0.155151 -0.632724 0.332609 127 0 127
0.279628 0.840450 -0.091906 255 0 0
0.397294 0.170504 0.354549 127 0 127
-0.103368 0.840450 0.150396 255 0 0
-0.115430 0.001297 -0.298819 76 0 153
0.400974 -0.558298 -0.219716 76 0 153
0.400974 -0.032159 0.096689 76 0 153
0.356808 0.071240 0.285912 76 0 153
-0.120411 0.001297 0.137368 76 0 153
0.056457 -0.837856 -0.032027 0 0 255
-0.273823 -0.284037 0.376775 127 0 127
-0.256367 0.045463 -0.332049 76 0 153
-0.335124 0.204591 -0.347806 127 0 127
0.397294 0.484510 0.335767 76 0 153
-0.335124 -0.387437 -0.407985 127 0 127
0.400974 0.851241 -0.335215 76 0 153
-0.335124 0.752091 -0.331715 127 0 127
-0.017463 -0.418279 0.101687 153 0 76
0.080866 0.247301 0.332609 127 0 127
0.188633 0.884616 0.320834 255 0 0
-0.335124 -0.046917 0.135527 127 0 127
-0.252913 0.814764 0.332609 127 0 127
-0.290959 0.357082 -0.078419 127 0 127
0.155313 0.858845 0.376775 127 0 127
0.218838 -0.418279 -0.151522 153 0 76
-0.197534 -0.379415 -0.369139 204 51 127
0.066658 0.001297 -0.228808 76 0 153
0.397322 -0.286982 -0.413305 76 0 153
0.400974 0.469769 0.302722 76 0 153
0.358465 -0.623993 -0.359324 204 51 127
0.400974 0.597385 -0.121150 76 0 153
0.171580 0.001297 -0.305314 76 0 153
-0.071105 -0.577529 -0.369139 204 51 127
-0.130423 -0.517098 0.332609 127 0 127
0.400974 0.465399 0.122669 76 0 153
-0.098964 0.884616 -0.240095 255 0 0
-0.290959 -0.119606 -0.038657 127 0 127
0.000187 0.001297 0.204064 76 0 153
0.017417 -0.513421 0.332609 127 0 127
-0.308079 0.624616 0.327701 127 0 127
-0.301266 -0.882022 -0.250837 127 0 127
-0.290959 -0.205207 -0.152437 127 0 127
-0.290959 -0.569156 0.059708 127 0 127
-0.115613 0.045463 -0.134757 76 0 153
-0.046512 0.797277 0.332609 127 0 127
-0.313256 -0.697208 -0.413305 127 0 127
0.400974 0.104361 0.008181 76 0 153
-0.140433 0.465039 -0.178714 153 76 0
-0.335124 -0.131461 0.234176 127 0 127
-0.335124 -0.233950 -0.099401 127 0 127
0.199284 0.416066 0.332609 127 0 127
0.343046 0.038584 0.376775 127 0 127
0.356808 -0.257159 -0.252509 76 0 153
0.400974 0.171291 0.002287 76 0 153
-0.290959 0.606906 -0.268299 127 0 127
0.265483 -0.024084 -0.369139 204 51 127
0.254728 -0.837856 0.299637 0 0 255
0.279639 0.113102 0.332609 127 0 127
0.273797 0.617114 0.332609 127 0 127
0.165779 -0.548213 0.376775 127 0 127
0.400974 0.676602 -0.052282 76 0 153
-0.335124 -0.334793 -0.235504 127 0 127
0.356808 0.658250 -0.356907 76 0 153
-0.158470 -0.837856 0.231194 0 0 255
-0.063578 0.840450 0.196760 255 0 0
-0.110630 -0.275216 0.376775 127 0 127
-0.290959 -0.402348 -0.378940 127 0 127
0.397294 -0.681263 0.354611 127 0 127
-0.019837 -0.503997 0.332609 127 0 127
0.122067 0.884616 -0.185242 255 0 0
-0.104010 0.516363 0.332609 127 0 127
-0.121454 -0.295706 -0.369139 204 51 127
0.160466 -0.418279 -0.211556 153 0 76
-0.084752 -0.882022 -0.196301 0 0 255
0.400974 0.818172 0.170996 76 0 153
0.400974 0.240172 -0.374040 76 0 153
0.099126 -0.374113 0.245425 153 0 76
0.270880 -0.306200 -0.359324 204 51 127
0.356808 -0.666492 -0.012812 76 0 153
-0.160570 -0.266955 0.332609 127 0 127
-0.103067 -0.100391 -0.369139 204 51 127
-0.127352 0.692415 -0.359324 204 51 127
0.078714 -0.614748 0.332609 127 0 127
0.115214 0.884616 -0.256063 255 0 0
-0.290959 0.864724 0.156781 255 0 0
0.400974 -0.488958 -0.091333 76 0 153
0.196586 0.884616 -0.165565 255 0 0
-0.216706 -0.418279 -0.236208 153 0 76
-0.009578 -0.418279 -0.137577 153 0 76
0.074383 0.045463 -0.134205 76 0 153
-0.017244 -0.882022 -0.288117 0 0 255
-0.027177 -0.009851 -0.369139 204 51 127
-0.182385 -0.860512 0.327701 127 0 127
0.078836 -0.025362 -0.369139 204 51 127
0.194001 0.884616 0.150359 255 0 0
0.330231 -0.025848 0.376775 127 0 127
0.282900 -0.349860 0.376775 127 0 127
-0.174979 -0.374113 -0.327630 153 0 76
0.400974 0.665730 -0.228470 76 0 153
-0.262345 0.001297 -0.268813 76 0 153
0.243028 0.603177 -0.359324 204 51 127
0.234433 0.336556 -0.359324 204 51 127
-0.052674 0.045463 0.108890 76 0 153
-0.290959 -0.129119 -0.213761 127 0 127
0.044731 0.045463 -0.329131 76 0 153
0.400974 0.115148 0.172361 76 0 153
0.400974 -0.089345 -0.363233 76 0 153
0.280902 0.001297 -0.143249 76 0 153
0.400974 -0.877375 0.212374 76 0 153
0.400974 -0.749252 0.260997 76 0 153
-0.300722 -0.326323 0.327701 127 0 127
0.400974 0.854568 0.042955 76 0 153
-0.103200 0.001297 -0.132809 76 0 153
-0.209635 0.001297 0.039108 76 0 153
-0.335124 -0.576504 -0.212224 127 0 127
-0.290959 0.588798 -0.297617 127 0 127
0.143110 0.420873 -0.067580 153 76 0
0.356808 -0.391553 0.285186 153 0 76
0.027862 -0.387643 0.332609 127 0 127
-0.290959 0.605902 -0.328564 127 0 127
-0.137792 -0.418279 0.057455 153 0 76
-0.054893 0.466999 0.376775 127 0 127
-0.175754 0.840450 0.301400 255 0 0
-0.290959 0.477415 0.226232 127 0 127
0.356808 -0.613446 0.216807 76 0 153
0.353126 0.356377 0.376775 127 0 127
-0.176836 -0.882022 -0.120639 0 0 255
-0.258141 -0.402314 0.376775 127 0 127
0.268883 -0.374113 -0.123619 153 0 76
-0.307731 -0.882022 0.333400 127 0 127
0.027597 -0.418279 0.233874 153 0 76
0.400974 -0.233078 0.009691 76 0 153
0.023856 0.045463 0.310182 76 0 153
0.246363 -0.374113 0.040634 153 0 76
-0.107603 0.420873 0.201252 153 76 0
0.051586 -0.418279 0.301714 153 0 76
0.108653 -0.418592 0.376775 127 0 127
0.266742 0.238744 0.332609 127 0 127
-0.008961 -0.837856 -0.132775 0 0 255
0.252074 -0.418279 0.007541 153 0 76
-0.063583 0.465039 -0.198774 153 76 0
-0.279550 0.463500 0.332609 127 0 127
-0.071740 -0.515214 -0.369139 204 51 127
-0.206202 0.420873 0.130932 153 76 0
0.400974 -0.325832 0.174744 76 0 153
0.070179 -0.837856 -0.169690 0 0 255
0.400974 0.561086 -0.377358 76 0 153
-0.290959 -0.008642 0.290391 127 0 127
-0.335124 0.216541 -0.243475 127 0 127
-0.060716 0.465039 0.136621 153 76 0
0.161299 0.840450 0.058064 255 0 0
-0.124176 0.001297 0.012253 76 0 153
-0.335124 0.414629 -0.107662 127 0 127
-0.311770 -0.882022 -0.157684 127 0 127
-0.332565 -0.268875 -0.413305 127 0 127
-0.290959 0.483713 -0.338139 127 0 127
0.127726 0.718980 -0.359324 204 51 127
0.095986 -0.418279 0.149936 153 0 76
0.344636 -0.837856 -0.142784 0 0 255
-0.335124 0.382560 -0.228965 127 0 127
-0.290959 0.232150 -0.151364 127 0 127
0.247432 0.247011 0.376775 127 0 127
0.224489 -0.028725 -0.369139 204 51 127
-0.221901 0.360240 0.332609 127 0 127
-0.335124 -0.850182 -0.137964 127 0 127
0.400974 -0.303496 0.096114 76 0 153
-0.286962 0.529218 0.376775 127 0 127
0.104466 0.179352 -0.369139 204 51 127
-0.010489 -0.261746 -0.369139 204 51 127
0.063878 0.840450 -0.285283 255 0 0
0.356808 0.328900 0.114836 76 0 153
0.318323 -0.590011 0.332609 127 0 127
-0.290959 -0.682369 0.243924 127 0 127
0.162579 0.240021 0.376775 127 0 127
0.253946 -0.708954 0.332609 127 0 127
0.017365 -0.418279 -0.012718 153 0 76
0.400974 -0.339472 -0.180023 76 0 153
0.289684 0.884616 0.065854 255 0 0
0.356808 0.692783 -0.020374 76 0 153
-0.060701 -0.837856 0.096563 0 0 255
-0.157377 0.884616 -0.015402 255 0 0
-0.335124 -0.513516 0.171893 127 0 127
0.356808 0.043513 0.170063 76 0 153
-0.162375 -0.309693 0.376775 127 0 127
-0.180438 -0.628711 0.332609 127 0 127
0.356808 -0.505483 -0.391899 76 0 153
0.356808 0.065658 -0.271959 76 0 153
-0.290959 -0.669938 0.067699 127 0 127
-0.335124 0.049957 0.093129 127 0 127
0.356808 0.816612 0.232590 76 0 153
0.167552 -0.882022 -0.129912 0 0 255
-0.257998 0.465039 0.299601 153 76 0
0.362881 0.076133 0.332609 127 0 127
-0.334912 -0.882022 -0.361203 127 0 127
0.358548 0.341902 -0.369139 76 0 153
-0.024232 -0.838406 0.327701 0 0 255
0.400974 0.243167 0.242623 76 0 153
-0.036674 0.840450 -0.308075 255 0 0
-0.335124 -0.710391 -0.319712 127 0 127
0.042670 -0.837856 0.034333 0 0 255
0.400974 -0.819737 -0.005622 76 0 153
0.137307 -0.418279 0.116258 153 0 76
-0.120873 -0.310451 0.376775 127 0 127
-0.290959 -0.065587 0.169257 127 0 127
0.096884 -0.418279 -0.157003 153 0 76
-0.335124 -0.436316 -0.349928 127 0 127
-0.236814 -0.653966 0.376775 127 0 127
-0.335124 0.683376 -0.397805 127 0 127
-0.138907 -0.800712 0.332609 127 0 127
-0.290959 -0.869459 0.164164 0 0 255
-0.259994 0.001297 -0.018879 76 0 153
-0.165799 -0.221815 0.376775 127 0 127
-0.290959 0.607643 0.150242 127 0 127
0.356808 0.641401 0.121574 76 0 153
0.051659 0.812595 -0.369139 204 51 127
-0.152637 0.420873 0.266006 153 76 0
-0.290959 -0.299847 0.284740 127 0 127
0.209628 -0.743656 0.376775 127 0 127
0.400974 -0.203960 -0.274288 76 0 153
-0.160412 0.703246 0.376775 127 0 127
-0.194864 -0.777388 -0.359324 204 51 127
0.220765 0.710594 -0.369139 204 51 127
0.062171 0.624010 -0.359324 204 51 127
-0.335124 -0.150658 -0.217122 127 0 127
-0.077947 0.018676 -0.359324 204 51 127
-0.099601 0.001297 0.066231 76 0 153
0.368826 -0.378195 0.332609 76 0 153
-0.042274 -0.418279 -0.308608 153 0 76
-0.144380 0.376798 -0.369139 204 51 127
0.260044 -0.822168 0.376775 127 0 127
0.338460 0.001297 0.211363 76 0 153
0.085686 -0.381528 0.332609 127 0 127
-0.007922 0.402924 -0.369139 204 51 127
0.400974 -0.740466 0.182635 76 0 153
-0.290959 -0.072872 -0.318853 127 0 127
0.171360 0.658462 -0.359324 204 51 127
0.400974 -0.840150 -0.126223 76 0 153
-0.290959 0.007850 0.066377 127 0 127
0.235975 -0.584542 0.376775 127 0 127
-0.166827 -0.837856 -0.033251 0 0 255
-0.325084 -0.537387 -0.413305 127 0 127
-0.103782 -0.566833 0.376775 127 0 127
0.117486 -0.882022 0.162238 0 0 255
0.400974 0.405816 0.178337 76 0 153
0.356808 -0.855887 0.184768 76 0 153
-0.003637 0.080794 0.376775 127 0 127
-0.335124 -0.442948 -0.059173 127 0 127
0.356808 -0.241451 0.113259 76 0 153
0.356808 0.705786 -0.232109 76 0 153
-0.335124 0.475673 0.313165 127 0 127
0.400974 -0.520765 -0.294996 76 0 153
-0.106250 -0.837856 -0.148886 0 0 255
-0.335124 0.008342 -0.091766 127 0 127
0.124453 -0.072094 -0.369139 204 51 127
0.011425 0.201522 0.376775 127 0 127
-0.222032 0.840450 -0.233601 255 0 0
-0.331444 0.032806 0.348882 127 0 127
-0.290959 0.153091 -0.401408 127 0 127
-0.290959 0.834520 -0.412859 127 0 127
-0.335124 -0.701232 0.116502 127 0 127
-0.128994 0.884616 -0.265057 255 0 0
-0.290959 -0.586920 -0.049518 127 0 127
-0.243313 0.001297 0.252195 76 0 153
-0.009490 0.045463 0.022283 76 0 153
-0.031267 0.420873 0.120724 153 76 0
0.145057 -0.418279 -0.024840 153 0 76
-0.335124 -0.150370 -0.013949 127 0 127
-0.237130 -0.098150 0.332609 127 0 127
-0.250634 0.045463 0.176629 76 0 153
0.142064 -0.157277 0.376775 127 0 127
0.322915 0.884616 -0.191582 255 0 0
0.400974 -0.463933 -0.409120 76 0 153
-0.290959 -0.846096 -0.043469 127 0 127
-0.335124 0.116784 0.002375 127 0 127
0.279522 0.840450 -0.226807 255 0 0
-0.266664 -0.882022 -0.052153 0 0 255
-0.335124 0.457774 -0.123023 127 0 127
0.196654 0.840450 0.116018 255 0 0
0.087935 0.840450 -0.178143 255 0 0
0.071565 0.588796 -0.369139 204 51 127
0.018425 -0.345649 0.332609 127 0 127
0.006735 0.473509 -0.359324 204 51 127
0.049315 -0.289028 0.332609 127 0 127
-0.331444 0.726561 0.356075 127 0 127
0.033757 -0.730734 0.332609 127 0 127
-0.335124 -0.048280 -0.289030 127 0 127
0.197103 -0.528453 -0.369139 204 51 127
0.356808 -0.652887 -0.297281 76 0 153
0.128873 0.863831 0.332609 255 0 0
-0.080201 -0.686284 -0.369139 204 51 127
0.162337 0.001297 0.211473 76 0 153
-0.060057 0.001297 -0.146875 76 0 153
-0.335124 0.507184 0.179674 127 0 127
-0.335124 0.791209 -0.281308 127 0 127
-0.335124 0.455793 0.252838 127 0 127
0.121914 0.840450 0.230146 255 0 0
0.328171 -0.103388 0.332609 127 0 127
0.067676 -0.582036 0.376775 127 0 127
0.147342 -0.418279 0.304419 153 0 76
-0.335124 0.302336 -0.164398 127 0 127
0.054404 0.194580 0.376775 127 0 127
0.213590 0.001297 -0.123305 76 0 153
-0.190281 0.045463 0.298688 76 0 153
-0.290959 -0.805476 -0.336426 127 0 127
-0.335124 0.399889 0.231475 127 0 127
0.073515 -0.418279 -0.303369 153 0 76
-0.189512 -0.412331 -0.369139 204 51 127
-0.119045 -0.665314 0.332609 127 0 127
-0.245312 0.255436 0.376775 127 0 127
-0.290959 -0.246882 -0.086370 127 0 127
0.109604 0.001297 0.154623 76 0 153
0.014276 0.045463 0.205438 76 0 153
0.347334 0.840450 -0.083291 76 0 153
0.120514 0.840450 -0.208924 255 0 0
0.027956 -0.882022 0.101642 0 0 255
0.069251 -0.882022 0.058306 0 0 255
0.012089 0.575085 -0.369139 204 51 127
0.400974 -0.606908 -0.121765 76 0 153
-0.093197 0.884616 -0.035388 255 0 0
0.022569 -0.837856 0.249664 0 0 255
0.138997 0.053622 -0.369139 204 51 127
-0.115424 0.176716 0.332609 127 0 127
0.174831 -0.837856 0.143448 0 0 255
0.383524 0.751778 0.376775 127 0 127
0.356808 -0.739858 0.213934 76 0 153
-0.252554 -0.802039 -0.359324 204 51 127
-0.264790 0.420873 -0.173995 153 76 0
0.186702 -0.374113 0.269118 153 0 76
-0.290959 -0.031113 -0.199051 127 0 127
0.400974 0.068254 0.069799 76 0 153
-0.335124 -0.816525 0.171592 127 0 127
0.250895 0.840450 0.291938 255 0 0
0.274830 -0.413836 -0.359324 204 51 127
-0.335124 0.071686 0.280962 127 0 127
0.135476 0.884616 -0.337164 255 0 0
0.356808 0.809109 0.001319 76 0 153
0.292066 0.713430 -0.369139 204 51 127
0.345269 0.675622 0.332609 76 0 153
-0.227842 -0.552858 0.332609 127 0 127
0.281671 0.465039 0.203360 153 76 0
-0.111343 -0.418279 0.155728 153 0 76
-0.201994 0.625519 0.332609 127 0 127
-0.141611 0.315336 -0.359324 204 51 127
-0.290959 -0.276908 -0.253015 127 0 127
-0.335124 -0.135362 0.200452 127 0 127
0.037381 -0.374113 0.202559 153 0 76
0.287295 0.452188 0.376775 127 0 127
-0.296354 -0.403990 0.327701 127 0 127
-0.144297 0.501075 -0.359324 204 51 127
-0.335124 -0.463348 -0.122257 127 0 127
0.400974 0.463482 0.078060 76 0 153
0.400974 0.161536 0.065689 76 0 153
0.000302 -0.621341 0.376775 127 0 127
0.356808 0.756847 0.273420 76 0 153
-0.332762 0.540385 -0.413305 127 0 127
-0.252580 0.884616 -0.052775 255 0 0
-0.179916 0.045463 0.027251 76 0 153
0.356808 0.644052 0.020700 76 0 153
0.023797 0.278735 -0.359324 204 51 127
-0.335124 0.495136 0.241182 127 0 127
0.291155 0.884616 0.268398 255 0 0
-0.290959 0.613965 -0.056254 127 0 127
0.150923 -0.513782 0.376775 127 0 127
-0.170915 0.098370 0.376775 127 0 127
0.350244 0.141563 0.332609 127 0 127
-0.105689 -0.374113 -0.326405 153 0 76
-0.040847 0.884616 0.201198 255 0 0
0.356808 -0.525872 -0.345104 76 0 153
-0.335124 -0.296207 0.009399 127 0 127
0.312856 0.420873 -0.005844 153 76 0
-0.131451 0.001297 -0.165398 76 0 153
0.225711 0.001297 -0.318682 76 0 153
0.121777 0.591962 -0.359324 204 51 127
-0.230728 0.465039 -0.307032 153 76 0
-0.206083 0.290223 -0.369139 204 51 127
-0.335124 -0.642072 0.096251 127 0 127
-0.335124 0.278939 0.203643 127 0 127
-0.335124 0.449427 -0.178084 127 0 127
-0.335124 -0.131203 -0.390150 127 0 127
-0.168551 -0.524613 -0.369139 204 51 127
0.400974 -0.611158 -0.402551 76 0 153
-0.051698 0.420873 -0.167158 153 76 0
0.214126 0.007782 0.315433 76 0 153
0.019711 -0.418279 -0.046240 153 0 76
0.142494 -0.864329 0.327701 0 0 255
-0.335124 0.016566 -0.389601 127 0 127
0.127492 -0.631383 -0.359324 204 51 127
0.274646 -0.882022 0.375044 127 0 127
0.328328 -0.042233 -0.369139 204 51 127
-0.061244 -0.220131 -0.369139 204 51 127
0.368494 0.403891 -0.359324 76 0 153
-0.290959 -0.318851 -0.191234 127 0 127
0.222180 0.420873 0.126219 153 76 0
0.400974 0.651736 0.226158 76 0 153
0.367646 -0.088698 -0.359324 204 51 127
0.391700 0.115549 0.332609 127 0 127
-0.200181 -0.837856 0.020255 0 0 255
-0.335124 0.099321 0.159733 127 0 127
0.185617 0.420873 0.300021 153 76 0
0.316873 -0.271230 0.332609 127 0 127
0.362696 0.884616 0.251320 76 0 153
-0.290959 0.342822 0.043377 127 0 127
0.400974 -0.765855 -0.049689 76 0 153
0.400974 -0.509551 -0.338186 76 0 153
0.040105 0.465039 -0.157650 153 76 0
-0.043110 0.001297 0.262015 76 0 153
-0.331444 0.824394 0.357549 127 0 127
-0.165606 0.045463 -0.098747 76 0 153
0.356808 0.564670 0.011141 76 0 153
0.165758 0.420873 -0.170141 153 76 0
-0.020097 -0.058734 0.376775 127 0 127
-0.116884 0.821009 -0.369139 204 51 127
0.382559 0.621371 0.376775 127 0 127
-0.335124 0.361385 0.107031 127 0 127
0.144233 -0.440993 0.376775 127 0 127
0.341073 0.001297 0.051305 76 0 153
0.356808 0.109076 -0.322509 76 0 153
0.274184 -0.234988 0.332609 127 0 127
-0.211098 -0.727709 -0.359324 204 51 127
0.181818 -0.837522 0.376775 127 0 127
0.317028 -0.407502 0.376775 127 0 127
-0.017942 0.840450 -0.180270 255 0 0
0.175076 -0.837856 0.180984 0 0 255
0.356808 0.387310 0.143448 76 0 153
0.235392 -0.779118 -0.369139 204 51 127
0.400974 0.127446 0.111086 76 0 153
-0.117024 -0.418279 -0.135136 153 0 76
0.093341 -0.882022 -0.159022 0 0 255
0.361773 -0.153051 -0.369139 76 0 153
-0.335124 0.271600 0.167037 127 0 127
-0.290959 -0.360875 -0.126424 127 0 127
-0.099651 0.045463 -0.006592 76 0 153
-0.187323 -0.499191 0.376775 127 0 127
0.136780 -0.744135 -0.359324 204 51 127
-0.223151 0.072044 -0.369139 204 51 127
-0.171263 -0.624078 0.376775 127 0 127
0.400974 0.331793 0.283598 76 0 153
0.356808 0.289785 -0.058331 76 0 153
0.356808 0.292814 -0.335324 76 0 153
0.400974 -0.060190 -0.384614 76 0 153
0.356808 -0.471580 0.046193 76 0 153
-0.112000 -0.031887 0.376775 127 0 127
0.182830 0.884616 -0.115228 255 0 0
0.400974 0.254498 0.119295 76 0 153
-0.145959 -0.659001 -0.369139 204 51 127
-0.123267 0.884616 -0.339136 255 0 0
0.400974 -0.452331 0.073020 76 0 153
-0.335124 0.159739 0.115151 127 0 127
0.281016 -0.837856 -0.197427 0 0 255
-0.070738 -0.418279 0.067296 153 0 76
-0.237782 0.420873 0.071272 153 76 0
0.224368 -0.549382 -0.369139 204 51 127
-0.266473 0.440984 0.376775 127 0 127
0.247742 -0.129427 0.376775 127 0 127
0.400974 0.226074 -0.034070 76 0 153
-0.290959 0.641457 0.080917 127 0 127
0.071535 -0.056607 -0.359324 204 51 127
0.356808 -0.347876 -0.260870 76 0 153
0.356808 0.482371 -0.355722 76 0 153
0.256777 0.420873 0.004575 153 76 0
0.400974 -0.771421 -0.219115 76 0 153
0.358132 0.884616 0.307527 76 0 153
0.400974 0.052709 0.150500 76 0 153
-0.290959 0.338396 -0.136002 127 0 127
0.299322 0.729634 0.376775 127 0 127
0.217120 -0.103315 0.332609 127 0 127
-0.290959 0.534019 -0.258797 127 0 127
0.237543 0.028941 -0.359324 76 0 153
0.363284 -0.057102 0.332609 127 0 127
-0.269114 0.228354 0.376775 127 0 127
-0.206988 -0.455985 0.376775 127 0 127
0.045060 -0.206475 0.332609 127 0 127
0.356808 -0.698941 -0.160217 76 0 153
-0.031225 -0.753818 0.332609 127 0 127
-0.224071 0.840450 0.292863 255 0 0
0.235235 0.259811 -0.359324 204 51 127
-0.335124 0.407913 0.099429 127 0 127
-0.042935 -0.837856 0.298128 0 0 255
0.370787 0.818019 0.327701 76 0 153
0.356808 -0.442723 -0.196615 76 0 153
-0.052556 0.420873 0.058197 153 76 0
0.356808 -0.137207 0.035445 76 0 153
-0.335124 -0.700980 0.052045 127 0 127
0.400974 0.873361 -0.381341 76 0 153
-0.237339 -0.882022 0.291711 0 0 255
-0.024939 0.189176 0.376775 127 0 127
-0.290959 0.757150 -0.068972 127 0 127
0.368440 0.313494 -0.413305 76 0 153
0.206825 -0.464111 0.376775 127 0 127
-0.105946 -0.638321 0.376775 127 0 127
-0.335124 -0.138433 0.309697 127 0 127
-0.290959 0.849922 -0.321620 255 0 0
-0.112466 -0.362056 -0.369139 204 51 127
0.400974 0.224873 -0.206603 76 0 153
0.259407 0.380406 -0.369139 204 51 127
-0.290959 0.491813 0.279310 127 0 127
-0.118283 0.001297 0.304702 76 0 153
0.035734 0.585064 0.332609 127 0 127
0.012053 0.636175 -0.359324 204 51 127
0.257353 0.560242 -0.369139 204 51 127
-0.109933 -0.169427 -0.359324 204 51 127
-0.335124 -0.763714 -0.078030 127 0 127
-0.290959 0.172868 0.120763 127 0 127
0.356808 0.432805 -0.257370 153 76 0
-0.071506 -0.837856 -0.162806 0 0 255
0.118300 -0.374113 -0.017132 153 0 76
-0.335124 -0.270189 0.260919 127 0 127
0.356808 0.716412 -0.047628 76 0 153
0.235060 -0.418279 -0.230094 153 0 76
0.356808 -0.344925 -0.011675 76 0 153
-0.290959 -0.149102 -0.174734 127 0 127
-0.290959 -0.377172 -0.222200 153 0 76
-0.322051 0.884616 -0.183821 127 0 127
-0.335124 0.360855 -0.409305 127 0 127
-0.234708 -0.837856 -0.206167 0 0 255
0.249866 -0.882022 0.097832 0 0 255
-0.031659 -0.418279 0.180329 153 0 76
0.056521 0.003966 0.376775 127 0 127
0.016110 0.001297 -0.183239 76 0 153
0.103198 0.401667 -0.369139 204 51 127
0.083861 0.045463 0.234913 76 0 153
0.221151 0.072569 0.332609 127 0 127
-0.290959 -0.745228 0.064516 127 0 127
0.225735 0.884616 -0.285886 255 0 0
-0.154214 0.420873 -0.253713 153 76 0
0.400974 0.041214 0.225994 76 0 153
-0.169720 0.317114 0.376775 127 0 127
-0.064765 -0.418279 -0.221347 153 0 76
-0.147945 -0.882022 0.065932 0 0 255
0.400974 0.392585 -0.031024 76 0 153
0.356808 0.040829 0.065965 76 0 153
-0.335124 -0.384142 -0.016633 127 0 127
0.116413 -0.117228 0.376775 127 0 127
-0.335124 -0.506332 -0.299050 127 0 127
-0.290959 -0.285113 0.050965 127 0 127
-0.109703 0.420873 -0.345257 153 76 0
0.400974 -0.665894 -0.306695 76 0 153
0.032441 -0.837856 0.313890 127 0 127
-0.254903 -0.374113 0.150368 153 0 76
