ply
format ascii 1.0
element vertex 1269
property float x
property float y
property float z
property uchar red
property uchar green
property uchar blue
end_header
0.530925 -0.068945 -0.018246 76 0 153
0.021192 0.272819 -0.221352 153 0 76
0.349608 0.186478 -0.043788 127 127 0
-0.736804 -0.333578 0.164209 127 127 0
-0.531354 0.197702 -0.229733 127 0 127
-0.163710 -0.188347 -0.151941 153 76 0
0.329128 0.186407 -0.017357 127 127 0
-0.285684 0.269955 0.168508 0 127 127
0.561652 -0.415852 0.114731 0 0 255
0.638084 0.295784 0.257376 0 127 127
0.030488 -0.169231 -0.096761 153 0 76
0.185520 -0.014516 0.024171 255 0 0
0.194556 0.105154 -0.229719 0 255 0
-0.361454 0.297994 0.127534 0 127 127
-0.703564 -0.322311 0.045886 153 76 0
0.018971 -0.343934 0.101740 153 0 76
0.274380 0.296880 -0.064742 0 127 127
0.433070 0.218116 0.010760 127 127 0
-0.489027 0.270311 -0.287507 0 127 127
0.531174 0.073025 -0.212634 76 0 153
0.507751 0.198300 0.011183 127 127 0
0.093790 0.107342 -0.151658 0 255 0
0.030657 -0.072768 0.113709 153 0 76
0.155340 -0.014516 -0.024074 255 0 0
-0.333369 0.270038 0.247405 0 127 127
0.491242 -0.145816 -0.116239 0 127 127
0.170652 -0.383162 0.017013 204 51 127
-0.286734 -0.217470 0.114814 153 76 0
0.499343 0.268579 -0.265914 0 127 127
-0.871367 0.298887 0.165718 0 127 127
0.223577 0.198133 -0.263165 127 0 127
0.314941 0.122349 0.089878 153 0 76
0.530726 -0.182847 -0.031973 76 0 153
0.519199 -0.363141 0.168924 76 0 153
-0.736755 -0.230124 -0.224882 0 255 0
0.286271 0.122349 -0.063090 153 0 76
-0.045103 0.297440 0.148987 0 127 127
-0.736862 -0.291339 -0.128070 153 76 0
-0.240505 -0.169066 0.003512 153 76 0
-0.846944 0.266327 0.207547 127 0 127
0.347969 0.111976 0.288185 127 127 0
0.297894 0.268932 0.253792 0 127 127
-0.521114 -0.168574 0.046480 153 76 0
0.019577 0.001797 -0.090257 153 0 76
0.531460 0.033716 0.192613 76 0 153
0.232900 -0.372060 -0.150647 204 51 127
0.232586 -0.367674 0.007867 0 255 0
0.057508 0.102053 0.152108 153 0 76
-0.108292 0.297550 0.184976 0 127 127
0.294776 0.218358 0.114733 127 127 0
-0.091853 0.241772 0.192613 127 0 127
0.520038 0.115502 0.000704 76 0 153
0.288562 -0.029190 0.150389 255 0 0
0.472010 0.198363 0.117846 127 127 0
0.225611 0.269059 -0.078937 0 127 127
0.084944 0.187312 -0.133109 76 153 0
-0.659485 0.196083 0.136083 127 0 127
-0.920684 0.275805 -0.293919 0 127 127
0.096302 0.269285 -0.031842 0 127 127
0.219244 0.269070 -0.011539 0 127 127
0.287211 0.198687 -0.101897 127 127 0
0.443926 -0.196037 0.289174 153 0 76
0.029519 0.166059 -0.229719 153 0 76
-0.581646 0.195947 -0.262075 127 0 127
0.465394 -0.367674 -0.032548 0 255 0
0.531088 0.023704 -0.005675 76 0 153
-0.162490 0.269739 0.202660 0 127 127
0.520437 -0.383717 -0.129779 204 51 127
0.034962 -0.275499 0.289174 153 0 76
0.094359 -0.234108 0.277944 153 0 76
0.372677 -0.029338 0.178972 255 0 0
0.066187 -0.178477 0.226223 0 0 255
0.363810 -0.018111 -0.119452 0 0 255
0.104750 -0.057665 0.277210 127 0 127
0.019187 -0.220577 0.135110 153 0 76
0.030238 -0.311912 -0.148883 153 0 76
0.642680 0.217311 -0.224316 127 0 127
-0.684029 0.273424 -0.229733 0 127 127
0.340113 0.053857 0.288683 76 0 153
0.408514 -0.316231 -0.127720 255 0 0
0.568224 -0.203458 -0.229733 255 0 0
0.308716 0.186409 -0.048728 127 127 0
0.361233 -0.383496 0.145454 204 51 127
-0.805531 0.270865 -0.003176 0 127 127
0.614306 0.193987 -0.032427 127 0 127
0.462058 0.268645 0.107399 0 127 127
0.476155 -0.353147 -0.127720 255 0 0
-0.032005 0.269510 -0.126120 0 127 127
-0.736809 -0.261034 0.059550 153 76 0
0.257759 -0.176403 -0.132309 76 0 153
-0.724673 0.207409 0.128219 127 0 127
0.290198 0.135408 -0.128441 76 153 0
0.211063 -0.210497 -0.229719 76 0 153
0.386394 0.106829 0.150566 153 0 76
0.294722 -0.311037 -0.122284 255 0 0
0.019968 0.225222 -0.081724 153 0 76
-0.571070 0.207139 0.104275 127 0 127
0.364687 -0.387780 0.285897 153 0 76
-0.438469 -0.195202 -0.151941 153 76 0
-0.016152 0.297389 0.048240 0 127 127
0.416218 0.186708 0.164151 127 127 0
-0.657150 -0.150453 0.093547 153 76 0
-0.785492 -0.131047 -0.229733 0 255 0
0.519921 0.048818 -0.076694 76 0 153
0.642519 0.296235 0.093776 0 127 127
-0.364268 0.206776 0.138665 127 0 127
0.155103 0.269182 0.007885 0 127 127
0.222551 0.107117 0.190976 0 255 0
0.058206 -0.197439 -0.095533 0 0 255
-0.208183 0.269819 0.092678 0 127 127
0.607392 0.296296 -0.024618 0 127 127
-0.496255 0.270324 0.246809 0 127 127
0.586483 0.296333 -0.238720 0 127 127
0.058301 -0.035577 -0.045486 255 0 0
0.574482 -0.366548 0.192613 0 0 255
0.259364 0.218420 0.043076 127 127 0
-0.790883 0.097243 -0.229733 0 255 0
0.404138 0.194219 0.201989 127 0 127
-0.057617 0.269555 0.065865 0 127 127
-0.634307 -0.168376 0.028779 153 76 0
-0.273780 0.269934 -0.296181 0 127 127
0.028975 -0.267366 -0.229719 153 0 76
0.435236 -0.187925 0.192088 0 0 255
0.140840 0.107260 -0.046178 0 255 0
0.045238 0.187705 -0.186512 127 127 0
0.531043 -0.001483 0.163311 76 0 153
-0.257794 0.195378 -0.096164 127 0 127
0.144736 0.187696 -0.213797 127 127 0
0.284240 -0.290616 0.289174 153 0 76
0.058301 -0.048531 0.060356 76 153 0
-0.577189 0.298372 -0.076383 0 127 127
0.640414 0.296238 -0.267079 0 127 127
0.381802 0.138438 -0.128441 76 153 0
-0.775846 0.298720 -0.024814 0 127 127
0.475526 -0.075434 -0.128455 0 127 127
-0.784169 -0.150230 -0.143211 153 76 0
0.058893 0.098491 0.058336 153 0 76
-0.391114 0.207259 0.063030 127 0 127
0.275283 -0.176434 0.020290 0 0 255
0.109004 -0.111648 0.277210 127 0 127
0.608304 -0.366817 -0.163473 255 0 0
0.057660 0.180785 -0.092672 127 127 0
-0.781878 -0.037897 -0.151941 0 255 0
-0.804275 0.218348 -0.263165 127 0 127
0.133623 -0.187760 0.284520 153 0 76
-0.280893 0.206630 0.158778 127 0 127
-0.053028 0.269547 -0.228332 127 0 127
0.594569 0.201084 -0.151850 255 0 0
0.038698 0.297293 0.121198 0 127 127
0.628726 0.271787 -0.252796 127 0 127
0.346637 -0.187770 0.050216 0 0 255
-0.483467 -0.168640 0.051492 153 76 0
-0.089219 0.195083 -0.202349 127 0 127
0.065665 -0.360087 -0.127720 255 0 0
0.031187 0.229855 -0.034131 153 0 76
-0.858921 0.298865 0.120375 0 127 127
0.448980 0.147834 0.288185 127 127 0
0.205559 0.218515 0.068272 127 127 0
0.679924 0.268263 0.008771 0 127 127
0.178363 -0.184106 0.285600 127 0 127
0.519346 -0.279273 0.161451 0 0 255
0.019389 -0.105161 0.076576 153 0 76
-0.128201 0.198995 0.226045 127 0 127
0.079136 0.112144 0.192613 0 255 0
0.369503 0.186546 0.060290 127 127 0
0.504159 0.148093 0.288185 127 127 0
-0.331032 0.270034 0.068982 0 127 127
-0.640977 -0.150481 -0.009129 153 76 0
0.252279 0.186141 0.071726 127 127 0
0.357926 0.223245 -0.229719 127 0 127
0.019366 -0.118704 0.133901 153 0 76
0.622133 0.296270 0.056719 0 127 127
0.334318 -0.187749 -0.124096 0 0 255
-0.710466 0.270699 -0.177313 0 127 127
0.380394 -0.173041 0.264535 127 0 127
0.447761 -0.014516 0.117207 255 0 0
0.462442 0.296550 -0.158494 0 127 127
0.477479 -0.383700 -0.181440 204 51 127
-0.761651 0.270788 0.087760 0 127 127
-0.733919 0.298646 -0.212100 0 127 127
0.179477 -0.235021 0.289174 153 0 76
-0.738263 0.298654 0.162806 0 127 127
0.357761 -0.176578 -0.213671 76 0 153
-0.813755 0.185845 -0.188002 0 255 0
0.416693 -0.029415 -0.066970 255 0 0
0.058206 -0.303246 0.121482 0 0 255
-0.036833 0.297425 -0.013808 0 127 127
0.019352 -0.126681 0.190480 153 0 76
0.135280 0.122349 0.215044 153 0 76
0.192811 0.269116 0.177212 0 127 127
0.027935 0.297312 -0.053260 0 127 127
-0.053427 0.269548 0.193794 0 127 127
-0.651349 0.298502 -0.239771 0 127 127
-0.909739 0.271048 -0.039038 0 127 127
0.080916 0.297219 0.216885 0 127 127
0.283353 -0.383360 -0.029829 204 51 127
0.202146 0.271107 0.257376 0 127 127
0.134215 -0.259505 -0.218819 76 0 153
-0.424514 0.225926 0.020818 127 0 127
0.019182 -0.223741 -0.004851 153 76 0
0.520220 0.219410 -0.045879 76 0 153
0.498342 0.106633 -0.099401 204 51 127
0.482663 -0.014516 0.201381 204 51 127
-0.446102 0.298142 0.178239 0 127 127
0.519738 -0.055704 0.183311 76 0 153
0.030858 0.042118 -0.034919 153 0 76
0.201804 0.218521 -0.070911 127 127 0
0.486398 0.059550 0.033036 204 51 127
-0.422956 -0.168746 -0.053415 153 76 0
-0.669893 -0.245273 0.081461 153 76 0
0.608864 -0.047309 0.115272 0 0 255
-0.024850 0.222548 0.192613 127 0 127
0.030348 -0.248774 -0.184297 153 0 76
0.019937 0.207560 0.037676 127 0 127
0.247150 -0.179045 -0.218819 0 0 255
0.355539 -0.014516 0.063075 255 0 0
0.430923 0.218120 -0.038590 127 127 0
0.334780 0.106920 -0.045607 0 255 0
-0.736122 0.131002 -0.194110 0 255 0
-0.383097 0.298032 0.001132 0 127 127
0.600959 0.106845 0.114731 0 0 255
-0.585258 -0.168462 -0.090750 153 76 0
0.396437 0.126001 -0.229719 76 0 153
-0.739697 -0.150308 0.012374 153 76 0
-0.437151 0.206905 0.101335 127 0 127
0.378277 -0.383526 -0.205515 204 51 127
0.531188 0.081227 0.105443 76 0 153
0.056461 0.234204 0.192612 127 0 127
-0.005770 -0.247924 0.082067 153 76 0
0.246980 -0.367674 0.142924 0 255 0
0.145741 -0.343933 0.277944 153 0 76
-0.793206 0.298750 -0.287305 0 127 127
-0.009429 0.269471 0.092274 0 127 127
0.292337 0.200920 -0.229733 76 0 153
-0.754456 -0.159915 -0.151941 0 255 0
0.127740 -0.383087 -0.045734 204 51 127
0.139754 0.129730 0.288185 127 127 0
-0.308093 0.195467 -0.101536 127 0 127
0.491242 -0.158244 0.035926 0 127 127
0.435617 0.198427 0.043448 127 127 0
-0.606248 0.270516 0.239000 0 127 127
0.531049 0.001832 -0.204295 255 0 0
-0.461096 0.298168 -0.198871 0 127 127
0.053457 0.034181 0.148818 153 0 76
-0.025657 0.297405 -0.086541 0 127 127
0.142283 -0.046054 -0.128455 153 0 76
0.152047 0.107240 -0.005837 153 0 76
-0.708067 -0.246068 0.008821 153 76 0
0.496146 0.186984 -0.062138 127 127 0
0.089532 0.209081 -0.229719 76 0 153
0.070978 0.297236 0.158491 0 127 127
-0.399685 0.298061 -0.147397 0 127 127
0.403478 0.218168 0.129136 127 127 0
-0.544673 0.298315 0.170254 0 127 127
0.019607 0.018925 0.145131 153 0 76
0.020244 0.269419 -0.097726 153 0 76
-0.443332 0.224317 0.226045 127 0 127
-0.675689 0.270638 -0.082842 0 127 127
0.019771 0.136481 0.285545 127 127 0
0.031244 0.262477 -0.152037 153 0 76
-0.370719 0.298010 -0.204486 0 127 127
-0.073861 0.206267 -0.043710 127 0 127
0.669388 0.268281 -0.146931 0 127 127
-0.814550 -0.268014 0.153267 127 127 0
-0.137440 0.195167 -0.194934 127 0 127
0.136770 -0.315635 0.277944 153 0 76
0.188056 0.297031 0.018302 0 127 127
-0.697794 -0.224490 -0.151941 153 76 0
-0.736895 -0.310196 -0.203489 153 76 0
-0.596793 0.298406 0.199694 0 127 127
-0.056819 0.269554 -0.160089 0 127 127
-0.414496 0.222839 -0.263165 127 0 127
0.609305 0.204164 0.154391 127 0 127
0.349457 0.218262 0.104637 127 127 0
-0.447678 -0.150820 0.085911 153 76 0
-0.570664 0.265399 -0.229733 127 0 127
-0.598393 -0.168439 -0.049431 153 76 0
0.559501 0.208230 0.114731 0 0 255
-0.119598 0.297570 -0.286768 0 127 127
-0.226829 0.195324 0.058897 127 0 127
0.495974 0.296492 -0.039818 0 127 127
0.226917 -0.187560 -0.099411 0 0 255
0.089717 0.122349 0.221112 153 0 76
-0.247722 0.203314 0.226045 127 0 127
0.424415 -0.383607 -0.197519 204 51 127
-0.525920 0.270375 0.038354 0 127 127
-0.292149 0.206650 -0.057604 127 0 127
-0.002929 0.269459 -0.183281 0 127 127
0.491148 -0.264388 0.043744 204 51 127
0.255350 -0.014516 0.255035 255 0 0
0.531262 0.123132 -0.107133 76 0 153
-0.519434 0.298271 -0.011033 0 127 127
0.448626 0.218089 0.165710 127 127 0
0.519693 -0.081124 0.136496 76 0 153
-0.233108 -0.169079 0.094160 153 76 0
0.187810 -0.187492 0.071071 0 0 255
0.191591 -0.014516 0.186722 255 0 0
0.199777 -0.367674 0.055461 204 51 127
0.031102 0.181248 -0.061627 153 0 76
0.241618 -0.029108 -0.154740 255 0 0
-0.891979 0.271454 0.257376 0 127 127
0.133094 0.297127 -0.016955 0 127 127
0.303671 -0.176484 0.013319 0 0 255
0.277258 0.107021 -0.023578 0 255 0
0.491242 -0.038286 0.121954 0 127 127
0.237426 -0.252319 0.289174 153 0 76
0.530486 -0.319635 0.015499 76 0 153
-0.527786 -0.150679 -0.051007 153 76 0
0.095658 -0.028852 0.056625 255 0 0
0.144202 0.269201 -0.129880 0 127 127
0.052769 -0.341299 0.250251 0 0 255
0.247275 0.171314 -0.229719 76 0 153
-0.456223 0.298160 -0.289617 0 127 127
0.137410 -0.303889 -0.122284 255 0 0
-0.705266 -0.294946 0.192613 153 76 0
0.498285 0.218215 0.226045 127 0 127
-0.790721 0.234733 -0.151941 0 255 0
0.508242 0.233238 -0.229733 127 0 127
-0.448874 0.298147 0.236878 0 127 127
-0.661668 0.270613 0.069704 0 127 127
-0.002132 0.236451 0.171114 127 0 127
0.642694 0.225328 0.188122 127 0 127
-0.888566 0.298917 -0.235298 0 127 127
0.030169 -0.351170 -0.020739 153 0 76
-0.694836 0.200206 -0.229571 127 0 127
0.299665 0.217844 0.192613 127 0 127
-0.447957 0.298145 -0.018278 0 127 127
0.019156 -0.238275 -0.046869 153 0 76
0.181012 -0.187480 0.029248 0 0 255
0.640030 0.197538 0.226045 127 0 127
0.301349 0.268926 0.020510 0 127 127
-0.444715 0.206918 0.149008 127 0 127
0.580815 0.037933 0.192613 0 0 255
0.365764 -0.197349 -0.122284 255 0 0
0.275305 -0.173041 -0.081220 0 0 255
-0.735874 0.272532 0.072509 0 127 127
0.369060 0.296714 -0.156594 0 127 127
-0.208349 -0.169122 0.059033 153 76 0
-0.775256 0.070120 0.114814 127 127 0
0.394135 0.268764 -0.095872 0 127 127
0.058301 -0.142857 -0.043218 76 153 0
0.532596 -0.224939 0.192613 76 0 153
0.533602 0.268519 -0.123226 76 0 153
0.132052 0.187032 -0.100404 127 127 0
0.030564 -0.125791 -0.081762 153 0 76
0.021546 0.272819 0.004724 153 0 76
-0.462218 0.298170 0.111129 0 127 127
-0.329433 0.201276 0.226045 127 0 127
0.327423 -0.014516 0.027807 255 0 0
0.519785 -0.028978 0.014332 76 0 153
0.642708 0.233051 -0.146835 127 0 127
0.198950 0.207315 -0.127172 127 127 0
-0.735953 0.227613 -0.046009 127 0 127
-0.708810 0.196169 -0.062183 127 0 127
-0.736570 -0.124622 -0.157589 0 255 0
0.323816 -0.014516 0.250655 255 0 0
0.199623 0.269104 0.147428 0 127 127
0.240426 0.122349 -0.071145 153 0 76
-0.624157 0.270548 -0.291822 0 127 127
0.464025 -0.014516 0.077635 255 0 0
-0.811955 -0.385911 -0.151941 0 255 0
0.395719 0.268761 -0.160581 0 127 127
0.530685 -0.206042 0.074986 76 0 153
-0.741542 0.072283 -0.229733 0 255 0
-0.146695 -0.209060 -0.118584 153 76 0
0.239179 -0.383282 -0.040130 204 51 127
-0.064898 0.269568 -0.002223 0 127 127
-0.199119 0.269803 -0.260296 127 0 127
-0.742636 -0.397497 0.192613 127 127 0
-0.382877 -0.168816 0.014903 153 76 0
0.642666 0.208910 -0.086980 127 0 127
0.362545 0.198555 -0.132762 127 127 0
-0.006103 -0.169477 -0.147039 153 76 0
0.519268 -0.324039 0.071899 76 0 153
0.339890 0.017908 0.288683 76 0 153
-0.165447 0.297650 0.011879 0 127 127
0.368267 -0.367674 -0.083082 0 255 0
0.209491 -0.173041 0.007553 0 0 255
0.247962 0.028170 0.288683 76 0 153
0.314475 0.207112 0.019525 127 127 0
0.519212 -0.355939 -0.028444 76 0 153
0.256388 0.269005 -0.151418 0 127 127
0.218601 0.296978 0.120210 0 127 127
-0.446110 -0.247152 -0.123476 153 76 0
0.098820 -0.202092 -0.218819 76 0 153
-0.430225 0.195681 -0.101987 127 0 127
0.049589 0.297274 0.220529 0 127 127
0.076543 0.187549 -0.169731 127 127 0
0.298715 -0.148101 0.287949 127 0 127
0.304445 0.296827 -0.198150 0 127 127
-0.280582 -0.247442 -0.135237 153 76 0
0.367296 -0.187806 0.007079 0 0 255
-0.424518 0.223695 0.079226 127 0 127
0.115042 -0.121486 -0.229719 76 0 153
-0.420821 0.270191 0.157299 0 127 127
0.560307 -0.341184 -0.151850 255 0 0
-0.703477 -0.272476 -0.077985 153 76 0
0.310376 -0.372195 -0.084101 204 51 127
-0.789376 -0.263871 0.114814 127 127 0
0.239981 -0.014516 0.214944 255 0 0
0.507820 0.268564 -0.106327 0 127 127
0.491835 0.060147 0.262874 76 0 153
0.019652 0.044927 -0.228747 76 0 153
-0.813829 0.143503 0.160347 127 127 0
0.530973 -0.041802 -0.068022 255 0 0
0.366029 -0.060723 -0.229719 76 0 153
-0.765373 0.216700 0.192613 127 127 0
-0.511995 0.208080 0.192613 127 0 127
-0.668242 0.270625 -0.257954 0 127 127
-0.813999 0.046650 -0.220677 0 255 0
0.521902 0.296446 0.142806 0 127 127
0.503937 -0.383746 0.061197 204 51 127
0.491148 -0.287906 0.101055 204 51 127
0.462487 -0.383673 -0.008581 204 51 127
0.585718 -0.094538 -0.229733 255 0 0
-0.804109 -0.262153 0.192613 127 127 0
-0.259034 0.297814 -0.123365 0 127 127
0.390006 0.186617 -0.019559 127 127 0
0.484143 0.198342 0.047097 127 127 0
0.339032 -0.178477 0.157180 76 0 153
0.424362 -0.367674 -0.071309 0 255 0
-0.761877 0.270789 0.175995 0 127 127
-0.704285 -0.246075 -0.228818 153 76 0
0.240199 0.122349 0.142054 153 0 76
0.231644 -0.185343 0.192613 0 0 255
0.485477 0.296510 -0.178007 0 127 127
0.213715 0.194552 0.200149 127 0 127
-0.514824 0.291645 -0.298380 0 127 127
0.284161 -0.092133 -0.218819 76 0 153
0.491148 -0.371339 0.106592 204 51 127
-0.748961 -0.149018 0.192613 127 127 0
0.519630 -0.117125 0.031485 76 0 153
0.519768 -0.026913 -0.045656 255 0 0
0.429511 0.106754 0.177377 0 255 0
0.019557 -0.009537 0.175350 153 0 76
-0.736703 -0.200446 -0.198205 0 255 0
0.485711 -0.336879 0.052183 204 51 127
0.194897 0.218533 0.011980 127 127 0
0.530358 -0.392759 -0.207036 255 0 0
-0.736719 -0.284914 0.132760 127 127 0
0.420151 0.268718 0.247594 127 0 127
0.492062 0.123647 0.267327 153 0 76
0.028890 0.269403 0.093756 0 127 127
0.058206 -0.251961 -0.027973 0 0 255
-0.735918 0.247163 0.168679 127 0 127
0.608787 -0.091282 -0.175564 255 0 0
0.609373 0.243124 -0.057154 127 0 127
0.263463 -0.238031 -0.218819 76 0 153
0.406624 -0.282108 -0.229719 76 0 153
-0.741336 -0.331631 0.114814 127 127 0
0.324414 -0.043799 0.287949 127 0 127
0.226465 -0.029081 0.065374 255 0 0
0.589510 0.268421 -0.284250 0 127 127
0.530867 -0.102064 -0.039246 76 0 153
-0.792480 0.298749 0.184320 0 127 127
-0.500071 0.298237 -0.111240 0 127 127
0.158293 0.054793 -0.122284 0 0 255
0.273692 0.296881 0.191465 0 127 127
0.524593 0.271937 -0.035676 76 0 153
0.434619 0.268693 -0.206820 0 127 127
0.275982 0.229732 -0.263165 127 0 127
0.068213 -0.073554 -0.218819 76 0 153
0.296859 -0.095183 0.287949 127 0 127
0.491242 -0.131893 -0.063000 0 127 127
-0.177540 0.297672 0.182595 0 127 127
-0.723959 0.298629 -0.096376 0 127 127
0.059550 -0.176056 0.111836 76 153 0
-0.488902 0.298217 -0.143999 0 127 127
-0.682041 0.298555 -0.205776 0 127 127
0.608989 0.023651 0.141187 0 0 255
-0.791784 0.274277 -0.154904 0 255 0
-0.366861 -0.200022 0.114814 153 76 0
0.326504 -0.014516 -0.108195 255 0 0
0.058893 0.071608 0.012649 255 0 0
-0.226731 0.297758 -0.181717 0 127 127
-0.793812 0.298751 -0.127580 0 127 127
0.395827 -0.358542 0.277944 153 0 76
-0.813615 0.207457 -0.120070 127 0 127
-0.730264 0.270734 0.256082 0 127 127
0.092756 0.269292 -0.165738 0 127 127
-0.219724 0.206523 0.152182 127 0 127
-0.797252 0.097189 0.192613 127 127 0
-0.792760 -0.000666 -0.151941 0 255 0
0.386033 -0.298310 -0.127720 255 0 0
0.310874 -0.383408 -0.018007 0 255 0
0.054489 -0.176047 -0.002877 0 0 255
0.336227 0.118129 -0.099500 0 255 0
0.397841 0.186644 0.047014 127 127 0
-0.916675 0.271060 0.118437 0 127 127
0.031260 0.271658 0.136408 127 0 127
-0.669506 -0.177562 -0.151941 153 76 0
0.214348 -0.038857 -0.123018 255 0 0
-0.699046 0.196152 -0.149220 127 0 127
0.124121 0.297143 -0.149566 0 127 127
0.027336 -0.204737 0.277944 153 0 76
0.038825 -0.382931 0.029063 204 51 127
0.081254 0.218732 -0.172121 127 127 0
0.151872 -0.176217 0.074340 76 0 153
-0.768760 -0.412857 -0.222423 0 255 0
-0.738514 -0.168193 0.059527 153 76 0
0.328588 0.106931 -0.216324 0 255 0
0.205339 -0.155450 -0.123018 153 0 76
0.491148 -0.197418 -0.061100 204 51 127
0.308158 0.239260 -0.229733 127 0 127
0.273110 -0.383342 0.017770 204 51 127
-0.610215 0.221183 0.192613 127 0 127
0.307007 0.207125 0.138403 127 127 0
-0.417231 -0.227277 -0.151941 153 76 0
-0.209049 0.269820 -0.199760 0 127 127
-0.482725 0.195773 -0.142484 127 0 127
0.546860 0.173046 -0.229733 255 0 0
0.058206 -0.247515 0.106164 0 0 255
-0.364839 0.195566 -0.039033 127 0 127
0.240861 -0.178477 0.263277 127 0 127
0.075095 -0.297407 -0.218819 76 0 153
0.195191 -0.373110 0.138880 0 255 0
-0.703529 -0.302000 -0.005224 153 76 0
0.344606 0.296757 -0.291795 0 127 127
-0.504241 0.270338 -0.175375 0 127 127
0.240814 -0.187585 0.100045 76 0 153
0.329701 -0.014516 0.079270 255 0 0
0.548037 -0.112364 0.114731 0 0 255
0.608787 -0.091393 0.174050 0 0 255
0.491835 0.039019 0.013665 204 51 127
-0.703459 -0.262206 0.105713 153 76 0
0.534340 -0.232041 -0.151850 76 0 153
0.608478 -0.267851 0.173313 0 0 255
0.232685 0.296953 0.047540 0 127 127
-0.561893 0.298345 -0.242687 0 127 127
0.405300 0.118008 0.030143 153 0 76
0.279519 -0.173041 -0.032547 76 0 153
-0.334724 0.297947 0.165333 0 127 127
-0.613823 0.270530 0.127231 0 127 127
0.087816 0.262848 -0.218819 76 0 153
0.640408 0.193941 -0.187499 127 0 127
-0.542596 -0.221705 0.081461 153 76 0
-0.089156 -0.151448 0.046569 153 76 0
0.507826 -0.217512 -0.218819 76 0 153
-0.740137 0.265233 -0.229733 127 0 127
0.332670 -0.383446 0.095375 204 51 127
-0.017749 -0.243573 -0.100163 153 76 0
-0.146344 -0.151348 0.047909 153 76 0
0.244441 -0.373110 0.275291 153 0 76
0.030167 -0.352303 -0.062677 153 0 76
0.519238 -0.340796 -0.132917 76 0 153
0.539278 0.268509 -0.290231 0 127 127
-0.617102 0.298442 -0.136527 0 127 127
0.393714 0.296671 -0.118945 0 127 127
-0.362980 0.205214 0.192451 127 0 127
0.448646 -0.029471 -0.185441 255 0 0
0.600799 -0.204936 0.192613 0 0 255
0.181280 -0.383181 -0.216513 76 0 153
-0.781048 -0.182571 0.007244 153 76 0
-0.828201 0.298811 0.256865 0 127 127
-0.818947 0.196362 0.187404 127 0 127
0.468516 0.122349 0.105428 0 255 0
-0.085254 0.269603 0.103899 0 127 127
0.579065 0.268440 0.244404 0 127 127
0.507684 0.187024 -0.205713 127 127 0
0.434036 -0.316017 0.289174 153 0 76
-0.009026 0.297376 -0.249786 0 127 127
0.052699 -0.248016 -0.218819 76 0 153
0.041311 -0.176024 -0.205763 0 0 255
0.592826 -0.374663 0.114731 0 0 255
-0.258355 0.297813 0.143792 0 127 127
0.127392 0.269231 -0.219839 0 127 127
-0.596370 0.195972 0.044865 127 0 127
0.428659 0.117967 -0.129665 0 255 0
0.170228 0.269156 -0.193804 0 127 127
0.597255 0.268408 -0.110809 0 127 127
0.455237 0.222859 -0.229719 76 0 153
0.197762 -0.367674 -0.006246 204 51 127
0.485806 -0.087751 0.154985 0 127 127
-0.147720 -0.167774 0.114814 153 76 0
-0.303156 0.269985 -0.000436 0 127 127
0.030193 -0.337510 0.162572 153 0 76
0.388065 0.218195 0.153495 127 127 0
-0.763353 0.052935 0.192613 127 127 0
0.173283 -0.296532 -0.122284 255 0 0
-0.334368 0.297946 0.076264 0 127 127
0.520055 0.125343 0.064946 76 0 153
-0.442356 0.206914 -0.011051 127 0 127
0.053683 0.133622 0.132215 127 0 127
0.195958 0.172074 -0.229719 76 0 153
0.531235 0.107973 -0.178063 76 0 153
0.163569 0.185834 0.095188 127 127 0
0.509833 0.268561 0.105610 0 127 127
0.578248 0.096619 -0.151850 255 0 0
0.030336 -0.255959 -0.094147 153 0 76
0.019423 -0.086161 -0.053869 153 0 76
-0.697509 -0.168265 -0.062874 153 76 0
-0.582913 0.298382 -0.184319 0 127 127
-0.125429 0.269674 0.200710 127 0 127
0.582778 -0.288551 -0.229733 255 0 0
0.503153 -0.320742 0.289174 153 0 76
-0.030910 0.269508 -0.266593 127 0 127
0.456880 0.058305 0.277944 76 0 153
0.379318 0.083822 0.277944 76 0 153
0.058206 -0.268990 0.011843 0 0 255
-0.314327 0.297911 -0.073952 0 127 127
0.289115 0.013762 0.277944 76 0 153
0.285369 0.104398 0.288683 76 0 153
0.162152 -0.373110 0.181222 0 255 0
-0.004633 0.272900 0.223041 127 0 127
0.482156 -0.040231 -0.128455 255 0 0
0.025459 0.272812 -0.037893 153 0 76
0.090772 0.107347 -0.053197 0 255 0
-0.299567 0.297885 -0.238730 0 127 127
0.165318 0.297071 -0.131150 0 127 127
-0.313302 0.297909 0.101810 0 127 127
-0.232775 0.224842 0.192613 127 0 127
-0.586487 0.270482 0.178437 0 127 127
0.237156 -0.008495 -0.122284 0 0 255
0.268451 -0.367674 0.108139 204 51 127
0.123039 0.186250 0.031352 127 127 0
-0.173200 -0.169184 -0.131810 153 76 0
0.373786 0.122349 0.019026 153 0 76
0.491148 -0.229617 0.065204 204 51 127
0.546670 0.268496 0.043084 0 127 127
0.419728 0.272152 0.193706 0 127 127
-0.241378 0.269877 0.051086 0 127 127
-0.076377 0.244266 -0.229733 127 0 127
-0.809727 -0.374238 0.114814 127 127 0
0.248771 -0.099932 0.287949 127 0 127
0.419393 0.186719 0.094028 127 127 0
-0.092213 0.269616 0.042481 0 127 127
0.397495 -0.383560 0.129863 204 51 127
0.019794 0.297326 0.062238 0 127 127
-0.339168 0.270048 0.114171 0 127 127
0.092289 0.228974 -0.263165 127 0 127
0.156178 0.297087 0.111467 0 127 127
0.143822 -0.077027 0.287949 127 0 127
0.072914 -0.092723 -0.123018 153 0 76
-0.250840 0.269894 -0.050416 0 127 127
0.491835 0.042888 0.236556 204 51 127
0.491242 -0.089391 -0.099847 0 127 127
0.237396 0.269038 -0.038177 0 127 127
0.333870 -0.166735 0.287949 127 0 127
-0.127677 0.195150 -0.165208 127 0 127
-0.786895 -0.168108 -0.023702 153 76 0
0.216722 0.107127 0.137479 153 0 76
0.395164 0.194234 -0.252759 127 0 127
0.140207 -0.014516 -0.071149 255 0 0
0.141297 0.107259 -0.197315 0 255 0
0.399050 -0.014516 0.199606 255 0 0
-0.202497 0.297715 0.048433 0 127 127
0.100322 -0.367674 -0.004063 0 255 0
-0.736442 -0.126847 0.174984 127 127 0
-0.040624 -0.151533 0.012320 153 76 0
0.485806 -0.066776 -0.079663 0 127 127
-0.590515 0.238897 -0.229733 127 0 127
0.030828 0.025140 -0.201670 153 0 76
0.530843 -0.115727 -0.164071 76 0 153
0.039739 0.118648 0.064394 153 0 76
0.507057 -0.372540 0.008361 204 51 127
0.429556 -0.373110 0.034921 0 255 0
0.171179 0.218575 -0.075543 127 127 0
0.346494 0.106899 -0.012572 0 255 0
-0.709425 0.270697 -0.112605 0 127 127
-0.074370 -0.208115 0.081461 153 76 0
0.175033 0.297054 -0.060280 0 127 127
-0.323866 -0.178963 0.081461 153 76 0
-0.165928 0.297651 0.234775 0 127 127
0.555211 0.268481 0.159957 0 0 255
0.084033 -0.127699 -0.218819 76 0 153
0.367205 0.122349 -0.085963 153 0 76
0.606890 0.296297 -0.174109 0 127 127
-0.349361 0.231846 0.226045 127 0 127
-0.736822 -0.268241 -0.036932 153 76 0
0.264395 0.116919 0.025816 0 255 0
0.058301 -0.087961 0.139676 76 153 0
-0.508021 0.207029 0.139859 127 0 127
-0.757702 0.184561 -0.229733 0 255 0
-0.837316 0.196395 0.133070 127 0 127
0.019778 0.116633 -0.179449 0 255 0
-0.306956 0.206676 0.129681 127 0 127
0.092635 -0.274952 0.277944 0 0 255
0.081699 0.021773 0.277944 76 0 153
0.140413 0.107260 -0.167676 0 255 0
-0.838351 0.270923 -0.293654 0 127 127
-0.732787 -0.323847 -0.032925 153 76 0
-0.569722 -0.160744 0.114814 153 76 0
0.170722 0.269155 0.256101 0 127 127
-0.221660 0.269842 -0.135008 0 127 127
-0.651957 0.298503 -0.008817 0 127 127
0.530768 -0.158446 0.063159 76 0 153
0.221229 0.269066 -0.191885 0 127 127
0.081264 -0.171982 -0.128455 0 0 255
-0.595134 0.270497 -0.020929 0 127 127
-0.783641 0.298733 0.214515 0 127 127
-0.812338 -0.412781 -0.191226 0 255 0
-0.391095 0.218517 -0.191397 127 0 127
-0.328049 0.270029 0.168332 0 127 127
0.486625 0.146767 0.069095 0 127 127
-0.565587 0.298351 0.032080 0 127 127
0.392987 -0.178477 0.019170 76 0 153
-0.903637 0.298944 0.167636 0 127 127
-0.475869 0.206973 0.104311 127 0 127
0.054616 0.207568 0.099335 127 127 0
0.345711 0.167000 -0.229719 76 0 153
-0.693131 0.282152 0.257376 0 127 127
0.055808 -0.261962 -0.127720 0 0 255
0.445139 -0.245515 -0.218819 76 0 153
-0.591737 0.298397 -0.049794 0 127 127
-0.552842 0.270423 -0.040866 0 127 127
-0.053911 0.227162 0.226045 127 0 127
0.608758 -0.107932 0.115225 0 0 255
0.606541 0.075487 0.192613 0 0 255
0.530828 -0.124192 -0.021812 76 0 153
0.338345 0.194334 -0.243000 127 0 127
-0.135058 0.206375 -0.115569 127 0 127
-0.220772 0.297747 0.255580 0 127 127
-0.768038 -0.206816 -0.151941 0 255 0
-0.383853 0.298033 0.096874 0 127 127
0.485711 -0.323368 0.236234 204 51 127
0.520221 0.220094 0.059099 76 0 153
0.052769 -0.306882 -0.030485 0 0 255
-0.785779 -0.102609 -0.151941 0 255 0
-0.672897 -0.246755 -0.119044 153 76 0
0.609516 0.193859 -0.240622 127 0 127
-0.543141 0.298312 0.256570 0 127 127
-0.116437 -0.247730 -0.124856 153 76 0
-0.736467 -0.065958 -0.168915 0 255 0
0.486398 0.062951 0.206422 204 51 127
0.464770 -0.178477 -0.086384 76 0 153
0.203493 -0.178477 0.223393 76 0 153
0.100072 -0.373110 -0.098019 204 51 127
0.519982 0.083577 -0.085742 76 0 153
0.322373 0.296796 0.108957 0 127 127
0.246017 0.186119 0.106444 127 127 0
-0.747195 -0.232957 0.192613 127 127 0
0.492062 0.143126 0.220764 0 127 127
-0.424494 0.196609 0.044529 127 0 127
0.520094 0.147393 -0.151281 255 0 0
0.058301 -0.130462 0.218296 76 153 0
0.362265 0.187155 -0.187439 127 127 0
0.519189 -0.303554 -0.218819 76 0 153
0.333434 -0.383447 0.030645 204 51 127
0.428958 0.106755 -0.071559 0 255 0
-0.447017 0.270237 -0.056222 0 127 127
-0.507237 -0.168598 -0.065404 153 76 0
0.274306 0.198709 0.189691 127 127 0
0.396941 -0.029380 0.148311 255 0 0
0.411572 0.268733 0.026140 0 127 127
-0.596355 0.207184 -0.090542 127 0 127
-0.736919 -0.323469 0.024743 153 76 0
0.448236 0.268669 -0.098283 0 127 127
-0.293490 0.297875 -0.268998 0 127 127
0.144367 -0.054923 -0.229719 76 0 153
0.149277 -0.178477 0.232908 76 0 153
0.576517 0.069111 -0.229733 255 0 0
0.530425 -0.354657 0.115385 0 0 255
0.019959 0.219778 -0.008703 153 0 76
0.519777 -0.021818 -0.216635 76 0 153
0.480851 -0.178477 0.149727 0 127 127
0.134814 -0.028921 -0.160019 255 0 0
0.124834 0.297142 0.166647 0 127 127
-0.724722 0.238733 0.120290 127 0 127
-0.088780 0.297516 0.068182 0 127 127
-0.736879 -0.376630 0.173556 127 127 0
-0.533642 -0.150669 -0.107293 153 76 0
-0.404948 0.273601 -0.107674 127 0 127
0.575144 0.059202 0.114731 0 0 255
-0.847031 0.216949 -0.045751 127 0 127
0.583351 -0.154033 0.114731 0 0 255
-0.701957 -0.168257 0.058032 153 76 0
-0.584822 0.207163 -0.212413 127 0 127
0.422736 0.296620 0.225429 0 127 127
0.445111 -0.004842 0.277944 76 0 153
-0.736744 -0.224140 -0.166164 0 255 0
0.520112 0.157628 -0.022951 76 0 153
0.101449 -0.175292 -0.229719 76 0 153
-0.708005 -0.235780 -0.118584 153 76 0
-0.666778 0.298529 0.115921 0 127 127
0.030243 -0.308665 -0.059610 153 0 76
0.680252 0.293855 0.127185 0 127 127
-0.814469 -0.221687 -0.066210 153 76 0
-0.475232 0.195760 0.033786 127 0 127
0.530643 -0.230059 -0.205289 76 0 153
0.657919 0.268301 -0.092789 0 127 127
0.164694 -0.019952 0.155337 255 0 0
-0.576775 0.195938 -0.122799 127 0 127
0.246532 -0.176383 -0.072672 76 0 153
0.471679 0.268628 -0.247739 0 127 127
-0.444240 -0.150826 0.043789 153 76 0
-0.391850 0.298047 0.245976 0 127 127
-0.757317 0.298687 0.047074 0 127 127
0.511284 0.232397 0.192613 127 0 127
0.414207 0.268728 -0.047115 0 127 127
0.482556 0.296515 -0.274831 0 127 127
-0.257887 0.195379 -0.234392 127 0 127
-0.833101 0.274352 -0.202192 127 0 127
0.019658 0.047934 0.163967 153 0 76
0.478206 -0.367674 0.011270 0 255 0
-0.001882 0.297364 0.111939 0 127 127
0.077014 0.186129 0.064644 127 127 0
-0.808167 -0.207151 0.114814 153 76 0
0.145760 -0.383118 0.143397 204 51 127
0.019990 0.237873 0.048968 153 0 76
-0.743558 0.236066 -0.229733 127 0 127
-0.564950 -0.246944 0.112377 153 76 0
0.203401 0.109875 0.281875 127 127 0
0.303527 0.158158 -0.218819 76 0 153
0.292832 0.296847 -0.085655 0 127 127
-0.691932 -0.150392 0.036817 153 76 0
-0.231386 0.297766 -0.076657 0 127 127
-0.889437 0.298919 -0.204405 0 127 127
-0.735984 0.209723 -0.183758 0 255 0
0.444905 -0.018253 -0.216911 76 0 153
0.030461 -0.184583 -0.015749 153 76 0
0.058301 -0.103142 0.001760 76 153 0
-0.618968 -0.237902 0.114814 153 76 0
0.579202 0.296346 0.179388 0 127 127
0.501785 0.194048 -0.246868 127 0 127
-0.090516 0.297519 0.012527 0 127 127
-0.017687 -0.208032 -0.051084 153 76 0
-0.757787 0.274217 -0.171297 0 255 0
0.031063 -0.176006 -0.144101 153 0 76
-0.652533 0.207282 0.032773 127 0 127
0.637383 0.271769 0.111064 0 127 127
-0.814278 -0.113033 0.165286 127 127 0
-0.390999 0.273185 -0.027632 127 0 127
0.310618 -0.177727 -0.218819 76 0 153
-0.740085 -0.168190 0.100141 153 76 0
-0.024180 0.297403 0.252437 0 127 127
-0.885637 0.271006 -0.270989 0 127 127
0.531458 0.234984 -0.024939 76 0 153
0.262099 0.268995 -0.292149 0 127 127
0.410582 -0.274879 0.277944 153 0 76
0.350521 0.268840 -0.097357 0 127 127
0.343751 0.268852 -0.130024 0 127 127
0.037976 0.118651 0.189306 0 255 0
0.019815 0.137821 -0.069401 153 0 76
0.618440 0.193980 0.028860 127 0 127
-0.793560 -0.168097 0.112025 153 76 0
-0.743025 0.298662 -0.244525 0 127 127
0.427612 -0.173041 -0.002430 76 0 153
-0.736815 -0.264268 0.013286 153 76 0
-0.543377 0.195879 -0.089829 127 0 127
0.519899 0.036216 0.070385 76 0 153
0.175201 -0.373110 0.233186 0 255 0
0.485711 -0.288868 0.058011 204 51 127
0.146806 -0.014516 0.236454 255 0 0
-0.814661 -0.331347 -0.224404 0 255 0
0.304840 -0.069971 -0.123018 153 0 76
0.148685 0.082437 -0.122284 0 0 255
0.531090 0.024896 -0.220636 76 0 153
-0.060520 0.297467 0.125866 0 127 127
0.058301 -0.053784 0.204701 76 153 0
-0.209921 0.206506 -0.071271 127 0 127
0.077145 0.269319 -0.095746 0 127 127
0.180016 -0.387781 0.283148 153 0 76
0.052864 -0.110806 0.118797 76 153 0
0.134988 0.297124 0.137183 0 127 127
-0.774912 0.113695 0.192613 127 127 0
0.422598 0.186730 0.065572 127 127 0
-0.258830 0.269908 -0.178620 0 127 127
-0.060445 0.297466 -0.247395 0 127 127
0.563631 0.296373 0.029522 0 127 127
0.678692 0.268265 0.208614 0 127 127
-0.715073 0.196180 0.104405 127 0 127
0.568392 0.271889 -0.176839 255 0 0
0.006398 0.297349 -0.117810 0 127 127
0.492318 -0.029547 0.048570 255 0 0
0.058893 0.021829 0.005026 153 0 76
-0.391041 0.249339 0.175971 127 0 127
0.216954 0.296980 0.204545 0 127 127
0.052864 -0.047969 0.000516 76 153 0
0.519693 -0.081041 0.011534 76 0 153
0.429027 0.296420 -0.298380 0 127 127
-0.813775 0.270880 -0.270061 0 127 127
0.485806 -0.079747 0.075808 0 127 127
0.055317 -0.028309 0.282198 76 0 153
0.290141 0.218366 -0.126070 127 127 0
-0.387313 0.298039 0.069140 0 127 127
0.046186 0.269373 -0.288723 0 127 127
-0.280507 0.297852 -0.172963 0 127 127
0.380721 -0.326353 0.289174 153 0 76
0.091147 0.218715 -0.089802 127 127 0
-0.336526 -0.151015 0.027155 153 76 0
0.329896 -0.187741 -0.010308 0 0 255
0.161652 0.290973 -0.298380 0 127 127
0.028610 0.269404 0.035339 0 127 127
0.398859 0.124699 0.288185 127 127 0
-0.293482 -0.185347 -0.151941 153 76 0
0.270611 0.198716 -0.013119 127 127 0
-0.174061 0.269759 -0.248495 0 127 127
0.298483 0.186301 0.158255 127 127 0
-0.703446 -0.255050 0.050692 153 76 0
-0.313060 0.297909 0.188992 0 127 127
0.030313 -0.269176 0.095745 153 0 76
-0.082195 -0.151460 0.012108 153 76 0
-0.424523 0.220790 0.176360 127 0 127
-0.079553 -0.244659 -0.151941 153 76 0
-0.181187 0.270987 0.226045 127 0 127
0.530717 -0.187619 -0.215819 76 0 153
0.491835 0.045941 0.079023 204 51 127
0.485711 -0.283660 -0.093690 204 51 127
0.030445 -0.193356 0.171003 153 0 76
0.142156 0.078432 -0.229719 76 0 153
0.445918 0.106725 -0.033105 0 255 0
0.018905 -0.381317 -0.192638 204 51 127
0.048984 -0.111460 0.277210 76 153 0
-0.714412 0.196179 -0.090231 127 0 127
-0.182723 -0.169167 -0.020471 153 76 0
0.381732 -0.383532 -0.056171 0 255 0
-0.147336 0.269712 0.021832 0 127 127
0.464896 0.241573 0.192613 127 0 127
-0.255917 0.206586 0.172152 127 0 127
0.487120 0.022489 0.288683 76 0 153
-0.120517 0.294126 0.257376 0 127 127
0.386727 0.206986 -0.000728 127 127 0
0.427915 -0.004726 -0.122284 0 0 255
-0.168547 0.206433 0.004693 127 0 127
0.608317 -0.359833 0.175375 0 0 255
-0.664576 -0.150440 -0.097471 153 76 0
0.434783 -0.176713 -0.132932 0 0 255
-0.236246 0.297774 -0.216985 0 127 127
0.058301 -0.142970 0.143648 76 153 0
-0.742671 0.298662 0.246064 0 127 127
-0.148565 0.297340 -0.298380 0 127 127
0.442872 0.198414 0.147069 127 127 0
0.394797 -0.173041 0.048626 0 0 255
0.048692 -0.382948 0.171782 204 51 127
0.082029 -0.316261 -0.127720 255 0 0
0.029528 -0.153075 0.277210 127 0 127
-0.507683 -0.168598 -0.026240 153 76 0
-0.621293 0.207227 -0.054387 127 0 127
0.003387 -0.169493 -0.091382 153 76 0
0.503484 -0.357474 -0.218819 76 0 153
0.531411 0.208139 -0.157288 255 0 0
0.099753 -0.176126 -0.185707 0 0 255
-0.344373 0.195530 -0.090891 127 0 127
-0.787417 -0.227134 0.081442 153 76 0
0.583795 -0.013077 0.192613 0 0 255
0.108652 0.118528 0.161054 153 0 76
-0.348334 0.297971 -0.265605 0 127 127
0.019127 -0.254697 -0.139048 153 0 76
0.553216 -0.051367 0.114731 0 0 255
-0.247977 0.206573 0.010274 127 0 127
-0.830541 0.298816 -0.078440 0 127 127
0.486398 0.006217 0.119324 204 51 127
0.404285 -0.173041 -0.031696 0 0 255
0.502339 -0.372532 -0.185676 204 51 127
0.451857 -0.088493 -0.123018 153 0 76
0.030197 -0.334910 -0.106750 153 0 76
0.421963 0.106767 0.097155 0 255 0
0.216881 -0.367674 0.262838 0 255 0
-0.920644 0.298741 0.025665 0 127 127
-0.217843 -0.247552 -0.135312 153 76 0
-0.037683 -0.169421 0.062346 153 76 0
0.519937 0.057784 0.173140 76 0 153
0.491242 -0.042608 0.256904 0 127 127
0.486398 -0.012666 -0.060183 204 51 127
-0.239208 0.272012 0.226045 0 127 127
0.367189 0.186538 0.183776 127 127 0
0.185090 -0.354979 0.289174 153 0 76
-0.057505 -0.169387 -0.029364 153 76 0
0.491060 -0.178477 0.064640 0 0 255
-0.749626 0.050121 -0.151941 0 255 0
0.609192 0.139539 -0.163775 255 0 0
0.267677 0.121062 -0.218819 0 255 0
0.603400 0.296303 0.199146 0 127 127
0.428483 -0.029435 0.170988 255 0 0
-0.423459 0.270435 0.257376 0 127 127
0.642205 0.268329 0.059576 0 127 127
0.030224 -0.319569 0.090782 153 0 76
0.402534 -0.028309 0.287906 127 0 127
0.053683 0.179240 0.179134 127 0 127
-0.369089 0.270101 0.011225 0 127 127
-0.309981 -0.168944 -0.126844 153 76 0
0.193487 0.122349 0.021775 153 0 76
0.369985 0.025140 -0.229719 76 0 153
0.227314 0.198792 0.166448 127 127 0
0.300389 -0.178477 0.189978 0 0 255
0.040066 -0.371722 -0.106917 0 0 255
0.128851 0.192284 0.192613 127 127 0
-0.814614 -0.304486 0.124534 127 127 0
0.356399 0.149041 -0.122782 76 153 0
-0.259901 0.269909 0.178046 0 127 127
-0.636635 0.298476 0.177904 0 127 127
0.491242 -0.064071 0.015723 0 127 127
-0.693849 -0.168271 -0.020758 153 76 0
0.608851 -0.055103 -0.223123 255 0 0
-0.814508 -0.244280 0.043202 153 76 0
0.238675 -0.187581 -0.194119 0 0 255
-0.345865 -0.150998 -0.090958 153 76 0
0.018630 -0.193033 0.081461 153 76 0
-0.231875 0.206544 -0.103789 127 0 127
0.404038 -0.187871 0.134267 76 0 153
-0.460296 -0.222866 -0.151941 153 76 0
0.159640 0.297081 0.042744 0 127 127
0.155650 0.107234 0.024930 153 0 76
-0.429253 0.273644 -0.262143 127 0 127
-0.821718 0.274332 0.090056 127 0 127
0.452898 0.122349 0.217752 153 0 76
0.531427 0.217423 -0.103103 76 0 153
0.627090 0.268355 0.002180 0 127 127
0.397208 -0.107282 0.277210 127 0 127
-0.478789 0.298199 -0.266018 0 127 127
0.063092 -0.042749 -0.128455 153 0 76
-0.616579 0.273973 0.197475 127 0 127
-0.326362 0.206710 0.172810 127 0 127
0.092053 0.218714 0.096202 127 127 0
0.553280 -0.063113 0.192613 0 0 255
-0.002205 0.195030 -0.179235 127 0 127
0.030713 -0.040459 0.026640 153 0 76
0.218649 -0.014516 0.164904 255 0 0
-0.703751 0.196161 0.044766 127 0 127
0.040863 0.194855 0.198155 127 0 127
0.307294 -0.277598 -0.127720 255 0 0
0.312357 0.078879 -0.127943 0 0 255
0.485995 0.268603 -0.201491 0 127 127
-0.090034 -0.169330 -0.096111 153 76 0
0.492813 -0.090352 0.287949 127 0 127
0.006884 -0.169499 -0.006288 153 76 0
-0.127079 0.269677 -0.058436 0 127 127
0.185920 0.107181 0.175046 0 255 0
-0.531626 0.207070 -0.035443 127 0 127
-0.735937 0.161002 0.131121 127 127 0
0.286835 0.218372 -0.176482 127 127 0
0.225524 0.207268 -0.194795 127 127 0
0.185189 -0.187487 -0.188799 0 0 255
-0.738898 0.150567 0.192613 127 127 0
-0.812915 -0.151500 -0.229733 0 255 0
0.113982 0.297161 -0.106674 0 127 127
-0.706970 0.270693 0.018853 0 127 127
0.491242 -0.059333 0.166170 0 127 127
0.247579 -0.014516 -0.020385 255 0 0
-0.122552 0.297575 -0.053182 0 127 127
0.291024 -0.178477 0.076261 0 0 255
0.578422 0.296347 -0.193310 0 127 127
0.055239 0.102053 -0.037622 153 0 76
0.460052 -0.372458 0.098550 204 51 127
-0.101860 0.269633 -0.201614 0 127 127
0.200540 0.053933 0.277944 76 0 153
-0.635484 0.196041 -0.212802 127 0 127
0.201763 0.297007 0.076999 0 127 127
-0.265875 -0.151138 -0.075290 153 76 0
0.076925 0.199055 0.019192 127 127 0
0.146456 -0.383120 -0.003690 204 51 127
0.609352 0.231001 -0.168195 127 0 127
0.491585 0.270273 0.226045 0 127 127
0.537795 -0.111225 0.192613 76 0 153
-0.413382 0.273616 -0.172993 0 127 127
0.439206 -0.196582 -0.218819 76 0 153
0.519572 -0.150531 -0.162710 76 0 153
-0.749889 -0.187332 0.081461 153 76 0
-0.352246 -0.210277 -0.118584 153 76 0
0.160777 0.122349 0.267581 127 127 0
-0.508544 0.270345 0.091684 0 127 127
0.052769 -0.196890 -0.060406 0 0 255
-0.075203 0.206270 0.012416 127 0 127
-0.736810 -0.261588 -0.174215 153 76 0
0.019280 -0.167268 0.164768 153 0 76
0.384510 0.268780 0.072296 0 127 127
-0.006615 0.194938 0.180060 127 0 127
0.538455 -0.002284 0.114731 76 0 153
0.531258 0.120703 0.141526 0 0 255
-0.899630 0.298937 0.083682 0 127 127
0.193992 0.246613 0.192612 127 0 127
0.195135 -0.102213 0.277210 127 0 127
0.491148 -0.272004 -0.037807 204 51 127
0.302016 -0.373110 0.083523 0 255 0
0.440853 -0.014516 -0.048939 255 0 0
-0.814515 -0.248090 0.119232 127 127 0
0.519677 -0.090623 0.065598 76 0 153
0.626267 0.224460 0.226045 127 0 127
0.579625 -0.148481 -0.151850 255 0 0
0.316591 -0.373110 0.174182 0 255 0
0.058206 -0.196846 0.018084 0 0 255
-0.391065 0.235185 -0.093074 127 0 127
0.133334 0.218641 -0.084840 127 127 0
-0.706808 0.298599 0.062970 0 127 127
0.075963 -0.019952 0.217484 255 0 0
-0.267510 -0.169019 -0.123554 153 76 0
-0.762058 0.224717 0.226045 127 0 127
0.450621 0.296571 -0.252545 0 127 127
0.424684 0.206919 0.189430 127 0 127
-0.464088 -0.185818 0.081461 153 76 0
0.132925 0.297128 -0.180720 0 127 127
0.445815 -0.014516 -0.093870 255 0 0
-0.782520 -0.269938 -0.229733 0 255 0
0.530637 -0.233226 0.055066 76 0 153
0.416291 0.296631 0.105240 0 127 127
-0.279426 0.273381 -0.251861 127 0 127
0.290777 0.198681 0.063343 127 127 0
-0.518706 -0.224683 0.114814 153 76 0
0.466491 0.268637 0.159879 0 127 127
0.353439 -0.187782 0.101011 0 0 255
0.082371 -0.373110 0.150587 204 51 127
0.135029 -0.019952 0.191829 255 0 0
0.531249 0.115840 -0.050926 76 0 153
-0.045564 0.297440 0.053290 0 127 127
0.226365 -0.317180 0.289174 153 0 76
-0.117277 0.195132 0.109309 127 0 127
0.052769 -0.220437 0.264795 0 0 255
-0.584880 -0.186923 0.081461 153 76 0
-0.215993 -0.151226 0.007285 153 76 0
-0.760584 0.211987 0.114814 127 127 0
-0.407598 0.270168 0.216735 0 127 127
-0.086920 0.269606 -0.115414 0 127 127
0.030791 0.003993 -0.146191 153 0 76
0.052864 -0.160598 0.207854 76 153 0
0.135766 0.131647 -0.218819 76 0 153
-0.758624 -0.150275 -0.096242 153 76 0
0.469565 0.218052 -0.080105 127 127 0
0.079480 -0.155167 -0.218819 76 0 153
0.374459 0.106850 -0.181704 0 255 0
-0.892129 0.271017 0.005950 0 127 127
-0.342973 -0.247333 0.114405 153 76 0
0.181422 -0.269782 0.277944 153 0 76
-0.055717 0.297458 -0.282776 0 127 127
-0.510289 0.226196 -0.263165 127 0 127
0.404250 -0.187871 -0.177865 0 0 255
0.402488 0.206958 -0.168534 127 127 0
-0.516223 -0.168583 -0.118676 153 76 0
-0.002150 0.226382 0.145425 127 0 127
0.642719 0.239403 0.164883 127 0 127
-0.778990 -0.279065 0.192613 127 127 0
0.470014 -0.319225 -0.122284 255 0 0
-0.016211 0.206166 -0.015947 127 0 127
-0.847049 0.206445 -0.157283 127 0 127
0.320188 0.268893 -0.010554 0 127 127
-0.724698 0.252324 0.091142 127 0 127
0.360026 -0.383494 -0.017477 204 51 127
0.044519 0.257493 0.226045 127 0 127
0.442203 -0.116175 0.287949 127 0 127
0.383219 0.272217 -0.238362 127 0 127
-0.813936 0.082431 0.139080 127 127 0
0.085623 -0.383013 0.123940 204 51 127
0.053457 0.052267 -0.048432 255 0 0
0.567291 -0.244941 -0.151850 255 0 0
-0.651969 0.232794 -0.229733 127 0 127
0.444542 -0.367674 0.120544 0 255 0
-0.292571 0.294290 0.257376 0 127 127
0.019850 0.157820 -0.180177 153 0 76
-0.383791 -0.178877 0.114814 153 76 0
0.448817 0.268668 -0.161898 0 127 127
-0.813777 0.172893 -0.225864 0 255 0
0.536860 0.296420 -0.271407 0 127 127
-0.814403 -0.183959 -0.174407 0 255 0
-0.036694 0.194991 -0.185670 127 0 127
0.168665 -0.367674 0.042909 0 255 0
0.254893 -0.280193 -0.218819 76 0 153
0.145496 -0.138774 0.277210 127 0 127
0.167280 -0.383156 -0.084672 204 51 127
0.576179 0.268445 0.059717 0 127 127
-0.504784 0.270338 -0.039123 0 127 127
0.079664 -0.014516 0.037651 255 0 0
0.461657 0.268645 0.072009 0 127 127
0.480241 0.106665 -0.119540 0 255 0
0.455349 0.106709 0.083646 153 0 76
-0.307824 0.297900 0.028942 0 127 127
-0.127456 0.269677 -0.236796 127 0 127
0.256127 0.272408 -0.220701 0 127 127
0.287129 -0.178477 0.268070 127 0 127
-0.039397 0.297430 -0.178083 0 127 127
-0.374314 0.224898 -0.263165 127 0 127
-0.411304 -0.150884 -0.018839 153 76 0
-0.669315 0.270627 -0.023880 0 127 127
-0.772700 -0.246580 -0.124485 153 76 0
-0.740829 0.298658 -0.038062 0 127 127
-0.736915 -0.396905 0.143519 127 127 0
0.117731 0.122349 0.267455 153 0 76
0.378107 -0.029347 0.062381 255 0 0
-0.126486 -0.151383 0.010446 153 76 0
0.019218 -0.202943 0.033046 153 76 0
0.239283 -0.383282 0.088647 204 51 127
0.408310 -0.092632 -0.229719 76 0 153
-0.067739 -0.151486 -0.151607 153 76 0
-0.073575 0.269583 0.248282 0 127 127
0.085501 0.297211 -0.046595 0 127 127
0.053683 0.167811 0.016247 127 127 0
0.061467 0.269346 0.244982 0 127 127
0.097101 0.218705 0.126381 127 127 0
-0.712251 0.270702 0.162728 0 127 127
0.170128 -0.105150 -0.218819 76 0 153
0.259110 -0.029139 0.039973 255 0 0
0.314826 0.042627 -0.218819 76 0 153
0.030547 -0.135237 -0.039280 153 0 76
-0.002164 0.218307 0.110769 127 0 127
-0.309143 -0.168946 0.112890 153 76 0
-0.730615 -0.323851 -0.181069 153 76 0
-0.847033 0.215359 0.204844 127 0 127
-0.420421 -0.150868 -0.127812 153 76 0
-0.671544 -0.218296 -0.151941 153 76 0
0.519554 -0.160603 0.010337 0 0 255
-0.615802 0.270533 -0.174822 0 127 127
0.531220 0.099371 -0.206879 255 0 0
0.059347 0.139082 0.036060 127 0 127
0.173244 -0.227715 -0.218819 76 0 153
0.468577 -0.269024 -0.127720 255 0 0
0.571736 0.040880 -0.229733 255 0 0
-0.381453 0.195595 -0.062143 127 0 127
-0.267551 0.206607 -0.149664 127 0 127
0.363092 -0.141229 -0.123018 153 0 76
-0.499765 -0.168611 0.009222 153 76 0
0.609341 0.224684 -0.006507 127 0 127
0.392588 -0.202774 -0.127720 0 0 255
0.378435 -0.220495 -0.218819 76 0 153
-0.720806 -0.246046 0.170709 153 76 0
0.031120 0.191506 0.005369 153 0 76
0.617882 0.268372 -0.053210 127 0 127
0.573450 0.296356 0.081676 0 127 127
0.347379 0.218266 -0.054343 127 127 0
0.425226 0.296616 -0.124161 0 127 127
-0.377722 0.298022 -0.268279 0 127 127
0.441941 -0.173041 0.041550 76 0 153
0.358535 -0.051713 -0.123018 153 0 76
0.310338 0.186342 0.079732 127 127 0
0.030313 -0.268851 0.162732 153 0 76
0.324082 0.268886 -0.082278 0 127 127
0.679642 0.296170 0.055834 0 127 127
0.642639 0.194009 -0.237796 127 0 127
0.239870 0.198770 -0.117375 127 127 0
-0.919184 0.298971 0.228296 0 127 127
0.058301 -0.100344 0.168427 76 153 0
0.253905 -0.383308 0.060158 204 51 127
0.383280 0.296689 0.071800 0 127 127
0.301261 0.268926 0.202673 0 127 127
-0.203601 0.297717 -0.276709 0 127 127
0.030827 0.024246 -0.101765 153 0 76
-0.715495 0.270708 -0.242605 127 0 127
-0.719935 0.196189 0.166023 127 0 127
0.455921 0.228502 -0.263165 127 0 127
-0.813557 0.240529 0.045509 127 0 127
0.053457 0.053649 0.070852 153 0 76
0.200846 -0.383215 0.083243 204 51 127
0.385521 -0.019952 -0.039064 255 0 0
0.419096 0.122349 0.004211 0 255 0
-0.710257 -0.150360 0.001652 153 76 0
0.252132 0.235436 -0.229733 76 0 153
0.030801 0.009422 0.041787 153 0 76
0.491835 0.010456 0.234700 204 51 127
-0.445767 0.298141 -0.090197 0 127 127
0.582908 0.271864 -0.221283 0 127 127
-0.817835 0.298793 0.134214 0 127 127
0.229743 -0.372054 -0.214169 204 51 127
0.193615 0.269115 0.052579 0 127 127
-0.313209 -0.151055 0.066732 153 76 0
0.081643 0.055157 0.277944 76 0 153
0.444605 0.218096 -0.013473 127 127 0
-0.283646 0.206635 0.043116 127 0 127
-0.543489 0.195880 0.149690 127 0 127
0.530510 -0.305749 -0.032594 76 0 153
0.238340 0.215229 0.192613 127 0 127
0.342650 0.268854 0.164172 0 127 127
-0.824635 0.196372 0.006436 127 0 127
-0.803437 0.298768 -0.089747 0 127 127
-0.682195 0.298556 0.236304 0 127 127
0.450154 -0.372440 -0.060195 0 255 0
-0.728094 -0.150328 -0.036075 153 76 0
0.048306 0.020291 -0.229719 76 0 153
0.176326 -0.173041 0.220576 76 0 153
-0.778996 0.270819 0.236281 127 0 127
-0.902751 0.271036 -0.177461 0 127 127
0.049174 -0.017559 0.142502 255 0 0
0.053683 0.151525 0.101739 127 0 127
-0.730109 -0.168208 -0.129495 153 76 0
0.161445 -0.054127 0.287949 127 0 127
0.020974 -0.382900 0.063666 153 0 76
0.424319 -0.224584 0.277944 153 0 76
-0.515037 0.207041 -0.153764 127 0 127
-0.222499 -0.151214 -0.105028 153 76 0
-0.679618 0.298551 -0.064099 0 127 127
-0.011297 -0.247914 -0.032935 153 76 0
0.334509 -0.023067 -0.229719 76 0 153
0.286774 0.218372 0.166830 127 127 0
