0.432332 0.230095 0.042789 0.300000 0.000000 0.600000
-0.563356 -0.278573 -0.232583 0.000000 0.000000 1.000000
-0.857458 0.333694 0.217984 0.500000 0.000000 0.500000
-0.487272 0.106134 0.250769 0.600000 0.000000 0.300000
-0.077383 0.469217 -0.223621 0.000000 1.000000 0.000000
0.455504 0.469217 -0.049939 0.000000 1.000000 0.000000
-0.494438 -0.127942 0.244383 0.600000 0.000000 0.300000
0.016023 -0.006484 -0.133619 0.600000 0.000000 0.300000
-0.201785 -0.065776 0.250769 0.600000 0.000000 0.300000
-0.039740 0.109881 0.250769 0.600000 0.000000 0.300000
0.778416 -0.475778 0.167110 1.000000 0.000000 0.000000
0.858856 0.464833 -0.010785 0.000000 1.000000 0.000000
-0.076404 0.329785 0.250769 0.600000 0.000000 0.300000
0.806999 0.157537 0.090187 0.600000 0.300000 0.000000
-0.826033 -0.428701 0.154338 0.300000 0.000000 0.600000
0.016023 -0.346212 -0.099437 0.600000 0.000000 0.300000
-0.014625 -0.039922 -0.189172 0.600000 0.000000 0.300000
0.806999 -0.116685 0.099911 0.600000 0.300000 0.000000
0.806999 -0.189942 -0.072170 0.600000 0.300000 0.000000
0.806999 -0.141074 -0.202662 0.600000 0.300000 0.000000
0.263074 -0.269561 0.244383 0.600000 0.000000 0.300000
-0.826033 0.028110 0.119983 0.300000 0.000000 0.600000
0.504342 -0.364410 0.250769 0.600000 0.000000 0.300000
0.134704 -0.475778 0.020688 1.000000 0.000000 0.000000
-0.565867 -0.355242 -0.232583 0.000000 0.000000 1.000000
-0.826033 -0.278890 -0.199857 0.300000 0.000000 0.600000
-0.439255 -0.200581 -0.242799 0.000000 0.000000 1.000000
0.432332 0.114031 -0.138840 0.300000 0.000000 0.600000
0.806999 -0.354972 0.029647 0.600000 0.300000 0.000000
-0.724352 -0.375340 -0.242799 0.000000 0.000000 1.000000
0.401683 -0.255558 0.067864 0.300000 0.000000 0.600000
-0.196092 0.423799 0.232252 0.300000 0.000000 0.600000
0.016023 0.411753 0.171863 0.600000 0.000000 0.300000
-0.014625 0.035408 0.123688 0.600000 0.000000 0.300000
0.421144 0.312277 -0.242799 0.000000 0.000000 1.000000
0.816537 0.469217 0.078368 0.000000 1.000000 0.000000
0.806999 -0.163686 0.011153 0.600000 0.300000 0.000000
0.016023 0.324745 -0.033029 0.600000 0.000000 0.300000
-0.705804 -0.173902 -0.242799 0.000000 0.000000 1.000000
0.482482 0.100639 -0.242799 0.000000 0.000000 1.000000
0.432332 -0.076482 0.050727 0.300000 0.000000 0.600000
-0.394525 -0.452066 0.232252 0.600000 0.000000 0.300000
0.422737 0.134900 0.244383 0.600000 0.000000 0.300000
-0.072382 -0.203432 -0.242799 0.000000 0.000000 1.000000
0.016023 0.038872 -0.042305 0.600000 0.000000 0.300000
0.297485 0.469217 0.075194 0.000000 1.000000 0.000000
0.318359 -0.491102 0.032360 1.000000 0.000000 0.000000
-0.285750 -0.464618 -0.232583 0.000000 0.000000 1.000000
-0.014625 -0.053710 0.031642 0.600000 0.000000 0.300000
-0.192445 0.032805 -0.232583 0.000000 0.000000 1.000000
-0.400285 -0.193026 0.175378 0.800000 0.200000 0.500000
0.795755 -0.433300 -0.242799 0.000000 0.500000 0.500000
0.363817 -0.032308 -0.232583 0.000000 0.000000 1.000000
-0.017891 -0.491102 -0.000421 1.000000 0.000000 0.000000
-0.506132 0.335753 -0.232583 0.000000 0.000000 1.000000
-0.299470 0.065211 0.250769 0.600000 0.000000 0.300000
-0.717891 -0.085371 0.244383 0.600000 0.000000 0.300000
-0.538723 -0.430805 0.232252 0.300000 0.600000 0.000000
0.432332 0.238926 0.168549 0.300000 0.000000 0.600000
0.728006 -0.475778 0.124959 1.000000 0.000000 0.000000
-0.805601 0.163012 -0.207605 0.300000 0.000000 0.600000
-0.299585 0.469217 -0.040144 0.000000 1.000000 0.000000
0.291860 0.451296 0.232252 0.300000 0.600000 0.000000
-0.561347 0.080191 -0.232583 0.000000 0.000000 1.000000
0.170082 0.100998 0.244383 0.600000 0.000000 0.300000
0.315924 -0.491102 0.131608 1.000000 0.000000 0.000000
0.360106 -0.238010 -0.242799 0.000000 0.000000 1.000000
0.173212 0.442760 0.232252 0.300000 0.000000 0.600000
0.353876 -0.440021 0.219137 0.600000 0.000000 0.300000
-0.263972 -0.240806 0.255277 0.300000 0.600000 0.000000
0.401683 0.058688 0.050348 0.300000 0.000000 0.600000
0.320195 0.453892 0.154329 0.000000 1.000000 0.000000
0.806999 -0.132749 0.042378 0.600000 0.300000 0.000000
0.432332 -0.450963 0.119694 0.300000 0.000000 0.600000
-0.430933 0.324873 0.060180 0.800000 0.200000 0.500000
0.432332 -0.274399 -0.200506 0.300000 0.000000 0.600000
0.483214 -0.475778 -0.158051 1.000000 0.000000 0.000000
0.089265 0.152856 0.244383 0.600000 0.000000 0.300000
0.194211 0.262562 0.250769 0.600000 0.000000 0.300000
-0.819500 -0.246011 -0.242799 0.300000 0.600000 0.000000
-0.223560 0.469217 0.099081 0.000000 1.000000 0.000000
-0.526115 0.469217 -0.147848 0.000000 1.000000 0.000000
0.401683 0.124052 -0.213366 0.300000 0.000000 0.600000
0.755287 -0.470115 0.201603 0.600000 0.000000 0.300000
0.489832 -0.475778 0.051560 1.000000 0.000000 0.000000
0.311462 -0.042754 -0.232583 0.000000 0.000000 1.000000
0.520561 0.414755 -0.232583 0.000000 0.000000 1.000000
0.614717 0.182995 0.262900 0.300000 0.600000 0.000000
0.401683 -0.171655 -0.081687 0.300000 0.000000 0.600000
-0.127453 0.427633 0.232252 0.300000 0.000000 0.600000
-0.562898 0.033173 0.250769 0.600000 0.000000 0.300000
-0.630525 -0.475778 0.199733 1.000000 0.000000 0.000000
-0.014625 0.305650 0.002027 0.600000 0.000000 0.300000
0.237827 -0.306187 0.250769 0.600000 0.000000 0.300000
-0.826033 -0.201769 0.188470 0.300000 0.000000 0.600000
-0.430933 0.095210 -0.104059 0.800000 0.200000 0.500000
0.654148 -0.440021 0.225751 0.600000 0.000000 0.300000
-0.351466 -0.202137 -0.242799 0.000000 0.000000 1.000000
-0.094450 -0.025901 0.244383 0.600000 0.000000 0.300000
-0.093053 -0.128275 0.244383 0.600000 0.000000 0.300000
0.535735 0.268339 -0.242799 0.000000 0.000000 1.000000
0.401683 -0.114335 0.111926 0.300000 0.000000 0.600000
0.401683 -0.107644 0.039173 0.300000 0.000000 0.600000
-0.203739 0.331322 -0.242799 0.000000 0.000000 1.000000
0.723707 0.469217 -0.190733 0.000000 1.000000 0.000000
0.827431 -0.233946 -0.042785 0.600000 0.300000 0.000000
0.777631 0.453892 -0.065002 0.000000 1.000000 0.000000
-0.846843 0.442267 0.232252 0.300000 0.000000 0.600000
-0.617378 0.263380 0.251899 0.300000 0.600000 0.000000
-0.162334 -0.491102 0.025192 1.000000 0.000000 0.000000
0.016023 -0.272503 -0.128255 0.600000 0.000000 0.300000
-0.584211 0.178647 0.244383 0.600000 0.000000 0.300000
0.432332 -0.137551 -0.192197 0.300000 0.000000 0.600000
0.044247 -0.270863 0.250769 0.600000 0.000000 0.300000
0.749470 -0.150048 0.232252 0.300000 0.600000 0.000000
-0.154940 -0.491102 0.187089 1.000000 0.000000 0.000000
0.084384 0.367919 0.232252 0.300000 0.600000 0.000000
-0.255683 -0.475778 0.134624 1.000000 0.000000 0.000000
-0.171638 0.358769 0.232252 0.300000 0.600000 0.000000
0.508608 0.479433 0.231697 0.300000 0.000000 0.600000
-0.430933 -0.055714 0.195034 0.800000 0.200000 0.500000
-0.463984 0.453892 -0.054036 0.000000 1.000000 0.000000
0.016023 0.188873 -0.138086 0.600000 0.000000 0.300000
-0.400285 0.289486 -0.078332 0.800000 0.200000 0.500000
0.284583 -0.459607 -0.232583 0.000000 0.000000 1.000000
0.401683 -0.227922 -0.101135 0.300000 0.000000 0.600000
-0.014625 -0.355778 -0.183503 0.600000 0.000000 0.300000
0.565944 -0.073693 0.250769 0.600000 0.000000 0.300000
-0.228218 -0.205046 0.250769 0.600000 0.000000 0.300000
0.432332 0.190519 0.132672 0.300000 0.000000 0.600000
-0.099686 -0.475778 -0.003773 1.000000 0.000000 0.000000
0.800583 0.164322 0.201603 0.500000 0.500000 0.000000
0.647594 0.015564 0.244383 0.600000 0.000000 0.300000
0.178752 -0.240806 0.262359 0.300000 0.600000 0.000000
0.153005 -0.251590 -0.242799 0.000000 0.000000 1.000000
-0.120287 -0.348433 0.250769 0.600000 0.000000 0.300000
0.827431 0.096384 -0.127377 0.600000 0.300000 0.000000
-0.720559 -0.305816 -0.242799 0.800000 0.200000 0.500000
0.193038 -0.475778 0.078058 1.000000 0.000000 0.000000
0.432332 -0.083574 -0.181051 0.300000 0.000000 0.600000
0.299305 -0.221824 0.244383 0.600000 0.000000 0.300000
-0.633923 0.109347 -0.242799 0.000000 0.000000 1.000000
-0.198523 0.469217 0.154484 0.000000 1.000000 0.000000
0.089303 0.242311 -0.242799 0.000000 0.000000 1.000000
-0.430933 -0.146953 -0.148663 0.800000 0.200000 0.500000
-0.245721 0.266668 -0.232583 0.000000 0.000000 1.000000
0.590852 0.346623 0.260757 0.300000 0.600000 0.000000
-0.400285 -0.108264 0.083981 0.800000 0.200000 0.500000
0.721989 -0.306241 -0.242799 0.000000 0.000000 1.000000
0.370768 -0.475778 -0.047775 1.000000 0.000000 0.000000
-0.244606 -0.463908 0.232252 0.300000 0.600000 0.000000
0.585176 -0.485994 0.238365 0.300000 0.600000 0.000000
0.016023 0.191334 -0.191888 0.600000 0.000000 0.300000
-0.455236 -0.132112 -0.242799 0.000000 0.000000 1.000000
0.432332 -0.465521 -0.048662 0.300000 0.000000 0.600000
-0.491349 -0.229510 0.244383 0.600000 0.000000 0.300000
-0.103821 0.164159 -0.242799 0.000000 0.000000 1.000000
0.193584 -0.166029 -0.242799 0.000000 0.000000 1.000000
0.802093 -0.013674 0.232252 0.300000 0.600000 0.000000
0.182447 -0.491102 0.150420 1.000000 0.000000 0.000000
0.641947 -0.042445 0.250769 0.600000 0.000000 0.300000
0.827431 -0.028398 0.152618 0.600000 0.300000 0.000000
0.419182 -0.246101 0.262900 0.300000 0.600000 0.000000
-0.815640 -0.336156 -0.242799 0.000000 0.000000 1.000000
-0.747386 0.469217 -0.172134 0.000000 1.000000 0.000000
-0.309961 -0.475778 0.094429 1.000000 0.000000 0.000000
0.827431 -0.461531 -0.103030 0.600000 0.300000 0.000000
-0.805601 -0.323115 0.101288 0.300000 0.000000 0.600000
-0.014625 0.117730 0.092815 0.600000 0.000000 0.300000
0.399137 0.090902 -0.242799 0.000000 0.000000 1.000000
0.628839 0.418964 -0.232583 0.000000 0.000000 1.000000
0.236568 0.126473 0.250769 0.600000 0.000000 0.300000
0.016023 -0.333555 0.118462 0.600000 0.000000 0.300000
0.355152 -0.475778 -0.179450 1.000000 0.000000 0.000000
0.004394 -0.491102 -0.237137 1.000000 0.000000 0.000000
0.306675 -0.491102 0.197714 1.000000 0.000000 0.000000
0.651358 -0.501318 0.224776 0.600000 0.000000 0.300000
0.016023 0.141866 0.054094 0.600000 0.000000 0.300000
0.754926 0.184864 0.262900 0.300000 0.600000 0.000000
-0.351470 0.464108 0.259462 0.300000 0.600000 0.000000
-0.779473 -0.387551 0.232252 0.300000 0.600000 0.000000
0.401683 0.040031 -0.139173 0.300000 0.000000 0.600000
0.117249 0.469217 -0.008900 0.000000 1.000000 0.000000
-0.597044 0.418136 0.225364 0.300000 0.000000 0.600000
-0.711141 0.453892 -0.104620 0.000000 1.000000 0.000000
0.060578 -0.455912 0.232252 0.600000 0.000000 0.300000
-0.014625 -0.237075 -0.035744 0.600000 0.000000 0.300000
0.773074 -0.072212 0.262900 0.300000 0.600000 0.000000
-0.826033 0.378432 0.151479 0.300000 0.000000 0.600000
-0.826033 0.377142 0.027184 0.300000 0.000000 0.600000
0.016023 -0.441672 -0.166431 0.600000 0.000000 0.300000
0.665366 0.469217 0.161573 0.000000 1.000000 0.000000
-0.703161 0.213919 0.244383 0.600000 0.000000 0.300000
0.016023 0.021669 -0.193307 0.600000 0.000000 0.300000
0.392669 0.197768 -0.242799 0.000000 0.000000 1.000000
-0.678893 -0.132519 0.244383 0.600000 0.000000 0.300000
0.401683 0.276861 -0.072119 0.300000 0.000000 0.600000
0.509647 0.098633 0.250769 0.600000 0.000000 0.300000
0.806745 0.052812 -0.258124 0.000000 0.500000 0.500000
-0.649460 -0.347585 -0.242799 0.800000 0.200000 0.500000
0.148249 0.469217 -0.229397 0.000000 1.000000 0.000000
0.763945 -0.268214 0.232252 0.300000 0.600000 0.000000
0.432332 0.360008 -0.165444 0.300000 0.000000 0.600000
-0.400285 0.276895 0.183049 0.800000 0.200000 0.500000
0.401683 -0.437419 -0.098491 0.300000 0.000000 0.600000
0.432332 -0.469794 0.001556 0.300000 0.000000 0.600000
-0.655407 0.453892 -0.048387 0.000000 1.000000 0.000000
-0.193398 -0.475778 0.114247 1.000000 0.000000 0.000000
0.076457 -0.491102 -0.006181 1.000000 0.000000 0.000000
-0.805601 -0.392555 0.014572 0.300000 0.000000 0.600000
0.304752 -0.276125 0.250769 0.600000 0.000000 0.300000
0.858856 -0.027480 0.201783 0.500000 0.500000 0.000000
-0.805601 0.149188 0.092484 0.300000 0.000000 0.600000
-0.319425 0.332701 -0.232583 0.000000 0.000000 1.000000
-0.430933 0.218784 0.133849 0.800000 0.200000 0.500000
0.197832 0.453892 -0.004182 0.000000 1.000000 0.000000
0.740158 0.248498 0.232252 0.300000 0.600000 0.000000
-0.826033 -0.390751 -0.090108 0.300000 0.000000 0.600000
0.087605 0.479433 0.217122 0.300000 0.000000 0.600000
0.760048 0.148920 -0.258124 0.000000 0.500000 0.500000
0.827431 -0.399822 -0.103923 0.600000 0.300000 0.000000
0.011247 0.331375 0.244383 0.600000 0.000000 0.300000
-0.756543 0.186773 -0.258124 0.300000 0.600000 0.000000
0.556992 0.453892 -0.034240 0.000000 1.000000 0.000000
-0.826033 0.217258 -0.139767 0.300000 0.000000 0.600000
0.833454 0.050026 0.232252 0.500000 0.500000 0.000000
-0.282676 -0.332071 0.244383 0.600000 0.000000 0.300000
0.401683 0.133144 -0.030409 0.300000 0.000000 0.600000
-0.302683 -0.101931 0.250769 0.600000 0.000000 0.300000
-0.559196 0.469217 0.082657 0.000000 1.000000 0.000000
-0.805601 0.013244 -0.145021 0.300000 0.000000 0.600000
0.858856 0.003911 -0.238434 0.000000 0.000000 1.000000
-0.826033 0.431475 -0.191136 0.300000 0.000000 0.600000
0.016023 0.422213 -0.073329 0.600000 0.000000 0.300000
-0.400285 0.055659 0.165249 0.800000 0.200000 0.500000
-0.722601 -0.381402 0.262900 0.300000 0.600000 0.000000
-0.333043 -0.103235 -0.242799 0.000000 0.000000 1.000000
0.650604 0.469217 -0.136629 0.000000 1.000000 0.000000
-0.539260 0.440556 0.232252 0.300000 0.600000 0.000000
0.806999 0.250102 0.049851 0.600000 0.300000 0.000000
-0.014625 0.211928 0.088421 0.600000 0.000000 0.300000
-0.658304 0.056542 -0.242799 0.000000 0.000000 1.000000
-0.626502 -0.489312 -0.258124 1.000000 0.000000 0.000000
-0.400285 -0.112683 -0.069025 0.800000 0.200000 0.500000
0.685184 -0.163284 0.250769 0.600000 0.000000 0.300000
-0.014625 0.068907 -0.124171 0.600000 0.000000 0.300000
-0.470506 0.469217 0.088263 0.000000 1.000000 0.000000
0.401683 0.232582 -0.126740 0.300000 0.000000 0.600000
-0.698878 -0.342205 0.244383 0.600000 0.000000 0.300000
0.627419 -0.353294 -0.242799 0.000000 0.000000 1.000000
0.432332 -0.089789 -0.001800 0.300000 0.000000 0.600000
-0.400285 -0.114082 -0.020007 0.800000 0.200000 0.500000
-0.640705 -0.197996 -0.242799 0.000000 0.000000 1.000000
0.432332 -0.340522 0.197556 0.300000 0.000000 0.600000
0.827431 -0.414886 0.159962 0.600000 0.300000 0.000000
-0.768659 0.076468 -0.232583 0.000000 0.000000 1.000000
0.401683 -0.044813 0.112064 0.300000 0.000000 0.600000
0.106792 -0.299528 -0.242799 0.000000 0.000000 1.000000
0.585376 0.060903 0.250769 0.600000 0.000000 0.300000
-0.055102 -0.283431 -0.242799 0.000000 0.000000 1.000000
-0.252554 -0.407104 0.232252 0.300000 0.600000 0.000000
-0.445141 0.346623 0.233064 0.300000 0.600000 0.000000
-0.826033 -0.035438 -0.087160 0.300000 0.000000 0.600000
-0.158560 -0.135462 -0.232583 0.000000 0.000000 1.000000
-0.199480 -0.348748 0.250769 0.600000 0.000000 0.300000
0.819580 0.452917 0.201603 0.300000 0.000000 0.600000
-0.826033 0.313036 0.060051 0.300000 0.000000 0.600000
0.328394 -0.392930 0.232252 0.300000 0.600000 0.000000
0.540272 -0.491102 -0.248468 1.000000 0.000000 0.000000
-0.425172 0.311154 0.244383 0.600000 0.000000 0.300000
0.722396 0.124171 -0.232583 0.000000 0.000000 1.000000
-0.360573 -0.475778 -0.058062 1.000000 0.000000 0.000000
-0.430933 0.019911 -0.155269 0.800000 0.200000 0.500000
0.086391 0.453892 -0.177085 0.000000 1.000000 0.000000
0.432332 0.386428 -0.073292 0.300000 0.000000 0.600000
0.427410 0.385254 0.232252 0.300000 0.600000 0.000000
0.742132 0.272924 0.262900 0.300000 0.600000 0.000000
-0.014625 0.015451 0.181107 0.600000 0.000000 0.300000
0.432332 0.284166 -0.216694 0.300000 0.000000 0.600000
-0.278151 -0.301274 -0.232583 0.000000 0.000000 1.000000
-0.400285 0.194964 -0.207150 0.800000 0.200000 0.500000
-0.430933 -0.339760 0.164422 0.800000 0.200000 0.500000
-0.570057 -0.475778 0.006513 1.000000 0.000000 0.000000
-0.355855 -0.475778 0.133666 1.000000 0.000000 0.000000
0.806999 0.288065 -0.204810 0.600000 0.300000 0.000000
-0.010130 -0.491102 0.136763 1.000000 0.000000 0.000000
-0.777897 0.156896 0.232252 0.300000 0.600000 0.000000
0.005851 0.079282 0.201603 0.600000 0.000000 0.300000
-0.430933 -0.228671 -0.068979 0.800000 0.200000 0.500000
-0.577864 -0.420221 0.232252 0.300000 0.600000 0.000000
-0.430933 -0.427041 0.003400 0.800000 0.200000 0.500000
0.125223 0.453892 0.066160 0.000000 1.000000 0.000000
-0.826033 0.263828 -0.130588 0.300000 0.000000 0.600000
-0.731912 -0.475778 0.069919 1.000000 0.000000 0.000000
0.432332 -0.308846 -0.182313 0.300000 0.000000 0.600000
0.853883 -0.320356 0.232252 0.500000 0.500000 0.000000
-0.805601 -0.131593 -0.081643 0.300000 0.000000 0.600000
0.393147 -0.491102 0.159337 1.000000 0.000000 0.000000
0.764784 -0.475778 0.090608 1.000000 0.000000 0.000000
-0.083205 -0.174488 0.250769 0.600000 0.000000 0.300000
0.067127 -0.092726 -0.232583 0.000000 0.000000 1.000000
-0.750647 -0.475778 -0.207521 1.000000 0.000000 0.000000
0.850746 -0.491102 0.188175 1.000000 0.000000 0.000000
-0.014625 -0.423540 -0.105155 0.600000 0.000000 0.300000
0.109374 -0.217887 -0.232583 0.000000 0.000000 1.000000
-0.512321 0.453892 0.174978 0.000000 1.000000 0.000000
0.510357 0.169367 -0.232583 0.000000 0.000000 1.000000
0.598003 -0.317429 0.250769 0.600000 0.000000 0.300000
0.629811 0.372563 0.262900 0.300000 0.600000 0.000000
0.691320 -0.427782 0.232252 0.300000 0.600000 0.000000
0.504119 -0.260399 0.262900 0.300000 0.600000 0.000000
0.425859 -0.135145 0.244383 0.600000 0.000000 0.300000
0.501282 0.322546 0.250769 0.600000 0.000000 0.300000
0.534714 -0.475778 -0.098664 1.000000 0.000000 0.000000
-0.074953 -0.475778 -0.162355 1.000000 0.000000 0.000000
-0.430933 0.018961 -0.211311 0.800000 0.200000 0.500000
0.806999 -0.196208 -0.024754 0.600000 0.300000 0.000000
-0.826033 0.116184 -0.048469 0.300000 0.000000 0.600000
0.713934 0.453892 0.005827 0.000000 1.000000 0.000000
0.756640 0.257948 -0.232583 0.000000 0.000000 1.000000
-0.857458 -0.165383 0.203482 0.500000 0.000000 0.500000
0.441378 -0.035692 0.250769 0.600000 0.000000 0.300000
0.172545 0.469217 -0.160468 0.000000 1.000000 0.000000
0.401683 -0.218466 0.020691 0.300000 0.000000 0.600000
0.858856 -0.486811 0.091198 1.000000 0.000000 0.000000
-0.826033 -0.310876 -0.161883 0.300000 0.000000 0.600000
-0.475086 0.469217 -0.209346 0.000000 1.000000 0.000000
-0.400285 -0.384260 -0.060960 0.800000 0.200000 0.500000
0.827431 -0.338536 0.070239 0.600000 0.300000 0.000000
-0.823714 -0.416439 0.262900 0.300000 0.600000 0.000000
-0.122957 -0.485994 0.236728 0.300000 0.600000 0.000000
0.535452 0.094083 -0.242799 0.000000 0.000000 1.000000
0.401683 -0.026149 -0.171233 0.300000 0.000000 0.600000
-0.746474 0.011569 0.262900 0.300000 0.600000 0.000000
0.266469 0.288373 0.244383 0.600000 0.000000 0.300000
0.543285 -0.421835 -0.232583 0.000000 0.000000 1.000000
-0.208286 -0.115780 0.250769 0.600000 0.000000 0.300000
-0.008422 0.067329 -0.258124 0.600000 0.000000 0.300000
-0.751412 0.469217 -0.041073 0.000000 1.000000 0.000000
0.857791 0.205268 0.232252 0.500000 0.500000 0.000000
-0.500458 -0.475778 -0.003928 1.000000 0.000000 0.000000
-0.805601 -0.395302 -0.200348 0.300000 0.000000 0.600000
-0.807876 -0.089931 0.262900 0.300000 0.600000 0.000000
-0.757050 -0.085510 0.232252 0.300000 0.600000 0.000000
-0.128026 0.246293 0.244383 0.600000 0.000000 0.300000
0.827431 -0.073174 0.087979 0.600000 0.300000 0.000000
0.806999 -0.188180 -0.138339 0.600000 0.300000 0.000000
-0.239790 -0.283841 0.250769 0.600000 0.000000 0.300000
0.013165 0.267948 -0.227475 0.600000 0.000000 0.300000
-0.241302 0.280921 0.250769 0.600000 0.000000 0.300000
-0.766300 -0.501318 0.230135 0.600000 0.000000 0.300000
-0.177473 -0.050400 -0.242799 0.000000 0.000000 1.000000
0.432332 0.053295 0.085190 0.300000 0.000000 0.600000
0.016023 0.102910 -0.180552 0.600000 0.000000 0.300000
0.761721 -0.475778 0.009856 1.000000 0.000000 0.000000
-0.507560 0.453892 -0.086304 0.000000 1.000000 0.000000
-0.009604 0.469217 -0.162469 0.000000 1.000000 0.000000
0.014454 0.479433 0.229574 0.300000 0.000000 0.600000
0.016023 -0.115657 0.048261 0.600000 0.000000 0.300000
-0.183408 0.104961 0.250769 0.600000 0.000000 0.300000
0.303781 0.414694 -0.232583 0.000000 0.000000 1.000000
-0.400285 -0.208087 -0.205855 0.800000 0.200000 0.500000
-0.805601 0.412371 0.097679 0.300000 0.000000 0.600000
0.016023 0.295899 0.112260 0.600000 0.000000 0.300000
-0.814813 0.341935 -0.242799 0.300000 0.600000 0.000000
0.806999 -0.324077 0.006569 0.600000 0.300000 0.000000
0.016023 -0.285213 -0.169859 0.600000 0.000000 0.300000
0.432332 0.048024 -0.163580 0.300000 0.000000 0.600000
0.806999 0.422151 -0.105110 0.600000 0.300000 0.000000
-0.385284 0.181472 0.244383 0.600000 0.000000 0.300000
0.401683 0.004285 0.119193 0.300000 0.000000 0.600000
0.818994 0.291589 0.232252 0.500000 0.500000 0.000000
0.239385 0.453892 -0.112164 0.000000 1.000000 0.000000
-0.400285 -0.074776 0.131525 0.800000 0.200000 0.500000
-0.400285 0.426709 0.152939 0.800000 0.200000 0.500000
0.432332 -0.430103 -0.128137 0.300000 0.000000 0.600000
-0.254490 0.134646 0.250769 0.600000 0.000000 0.300000
0.409000 -0.135545 -0.232583 0.000000 0.000000 1.000000
0.824571 0.124372 -0.258124 0.000000 0.500000 0.500000
-0.400285 0.295176 -0.145468 0.800000 0.200000 0.500000
0.532642 0.401956 0.232252 0.300000 0.600000 0.000000
-0.239211 -0.237540 -0.242799 0.000000 0.000000 1.000000
-0.465554 0.451426 0.232252 0.300000 0.000000 0.600000
-0.366548 0.341759 0.244383 0.600000 0.000000 0.300000
0.654851 0.116793 -0.242799 0.000000 0.000000 1.000000
0.806999 -0.409366 0.100351 0.600000 0.300000 0.000000
0.713943 0.453892 0.193410 0.000000 1.000000 0.000000
-0.649981 -0.469338 0.232252 0.600000 0.000000 0.300000
0.805408 -0.197573 0.201603 0.500000 0.500000 0.000000
0.432332 -0.435393 0.194562 0.300000 0.000000 0.600000
0.006633 0.097334 0.244383 0.600000 0.000000 0.300000
-0.758101 0.297218 -0.232583 0.000000 0.000000 1.000000
0.533683 -0.289818 0.244383 0.600000 0.000000 0.300000
-0.843748 -0.001324 0.232252 0.500000 0.000000 0.500000
-0.754403 0.448737 0.232252 0.300000 0.600000 0.000000
-0.400285 0.247525 -0.064057 0.800000 0.200000 0.500000
0.039741 -0.218092 0.244383 0.600000 0.000000 0.300000
0.432332 0.026308 -0.200343 0.300000 0.000000 0.600000
-0.430933 0.402227 -0.082913 0.800000 0.200000 0.500000
-0.277683 0.243969 -0.242799 0.000000 0.000000 1.000000
-0.307783 0.108804 0.244383 0.600000 0.000000 0.300000
0.138412 -0.120996 -0.242799 0.000000 0.000000 1.000000
-0.363598 0.453892 -0.058486 0.000000 1.000000 0.000000
0.602720 -0.242849 -0.242799 0.000000 0.000000 1.000000
-0.730722 -0.013763 0.232252 0.300000 0.600000 0.000000
0.209373 -0.266139 -0.232583 0.000000 0.000000 1.000000
0.432332 0.196992 0.199034 0.300000 0.000000 0.600000
0.639665 0.098267 0.244383 0.600000 0.000000 0.300000
0.401683 -0.079996 0.196815 0.300000 0.000000 0.600000
0.309832 0.227656 -0.242799 0.000000 0.000000 1.000000
0.432332 0.364807 0.090541 0.300000 0.000000 0.600000
0.401683 0.042972 -0.096280 0.300000 0.000000 0.600000
-0.708948 0.101973 -0.232583 0.000000 0.000000 1.000000
0.016023 0.108574 -0.130182 0.600000 0.000000 0.300000
0.763886 0.453892 -0.158633 0.000000 1.000000 0.000000
-0.402208 -0.411932 -0.232583 0.000000 0.000000 1.000000
-0.014625 -0.446668 0.153353 0.600000 0.000000 0.300000
-0.400285 -0.441563 -0.163322 0.800000 0.200000 0.500000
-0.131112 -0.388348 -0.242799 0.000000 0.000000 1.000000
-0.423733 0.344437 -0.242799 0.000000 0.000000 1.000000
0.403385 -0.368508 0.260717 0.300000 0.600000 0.000000
-0.686069 0.272969 0.250769 0.600000 0.000000 0.300000
-0.014625 0.422706 -0.048592 0.600000 0.000000 0.300000
-0.342733 -0.289173 0.250769 0.600000 0.000000 0.300000
-0.074426 -0.427888 -0.242799 0.000000 0.000000 1.000000
-0.805601 0.223110 -0.190998 0.300000 0.000000 0.600000
-0.014625 -0.024314 -0.045013 0.600000 0.000000 0.300000
0.538922 -0.426552 0.232252 0.300000 0.600000 0.000000
-0.824522 0.283533 0.201603 0.500000 0.000000 0.500000
-0.466195 0.089767 -0.232583 0.000000 0.000000 1.000000
0.401683 -0.378745 -0.162067 0.300000 0.000000 0.600000
-0.014625 0.133638 -0.166950 0.600000 0.000000 0.300000
0.736872 0.082214 -0.232583 0.000000 0.000000 1.000000
-0.342031 0.464874 -0.258124 0.000000 1.000000 0.000000
-0.196713 0.469217 0.072037 0.000000 1.000000 0.000000
0.433587 0.026868 -0.242799 0.000000 0.000000 1.000000
-0.745794 -0.144189 0.262900 0.300000 0.600000 0.000000
0.016023 -0.351950 -0.157639 0.600000 0.000000 0.300000
0.762793 0.415648 0.262900 0.300000 0.600000 0.000000
-0.430933 -0.387272 0.127832 0.800000 0.200000 0.500000
-0.826033 -0.451132 -0.021539 0.300000 0.000000 0.600000
0.837469 -0.127791 0.201603 0.500000 0.500000 0.000000
0.831672 0.437830 -0.242799 0.000000 0.500000 0.500000
-0.430933 -0.307486 -0.188367 0.800000 0.200000 0.500000
0.016023 0.343927 -0.224474 0.600000 0.000000 0.300000
-0.770435 -0.491102 0.189992 1.000000 0.000000 0.000000
-0.014625 0.012775 -0.033551 0.600000 0.000000 0.300000
-0.430933 -0.254349 -0.142662 0.800000 0.200000 0.500000
-0.831213 -0.246083 0.232252 0.500000 0.000000 0.500000
0.215881 0.469217 -0.244948 0.000000 1.000000 0.000000
-0.220686 0.406291 -0.232583 0.000000 0.000000 1.000000
0.401683 -0.347326 0.073786 0.300000 0.000000 0.600000
0.432332 0.180881 0.069592 0.300000 0.000000 0.600000
-0.430933 -0.354303 -0.045220 0.800000 0.200000 0.500000
0.106330 0.363191 0.262900 0.300000 0.600000 0.000000
0.588408 -0.312325 -0.242799 0.000000 0.000000 1.000000
-0.527926 -0.203536 0.244383 0.600000 0.000000 0.300000
0.401683 0.117035 -0.071401 0.300000 0.000000 0.600000
-0.793549 0.368645 0.262900 0.300000 0.600000 0.000000
0.062763 0.252470 0.250769 0.600000 0.000000 0.300000
-0.014625 -0.236655 0.171147 0.600000 0.000000 0.300000
0.124745 0.446045 0.232252 0.300000 0.000000 0.600000
0.103852 -0.171066 -0.242799 0.000000 0.000000 1.000000
-0.430933 0.005954 0.040489 0.800000 0.200000 0.500000
-0.014625 -0.377661 -0.112803 0.600000 0.000000 0.300000
0.827431 0.080891 0.173857 0.600000 0.300000 0.000000
0.538815 0.263626 0.250769 0.600000 0.000000 0.300000
-0.805601 0.069713 -0.115585 0.300000 0.000000 0.600000
0.371557 0.453892 0.140759 0.000000 1.000000 0.000000
0.125006 -0.491102 0.109705 1.000000 0.000000 0.000000
0.432332 -0.231453 -0.069093 0.300000 0.000000 0.600000
0.009430 -0.474841 0.262900 0.300000 0.600000 0.000000
-0.400285 -0.277945 -0.105128 0.800000 0.200000 0.500000
0.731851 -0.209335 0.262900 0.300000 0.600000 0.000000
-0.680036 -0.037194 -0.242799 0.000000 0.000000 1.000000
-0.783505 0.469217 0.104654 0.000000 1.000000 0.000000
0.016023 0.424721 0.078446 0.600000 0.000000 0.300000
0.300538 0.308871 -0.232583 0.000000 0.000000 1.000000
-0.815094 -0.410155 -0.242799 0.300000 0.600000 0.000000
0.726046 -0.100030 0.261002 0.300000 0.600000 0.000000
0.466874 0.034048 0.250769 0.600000 0.000000 0.300000
0.016023 -0.290335 0.154647 0.600000 0.000000 0.300000
0.858856 -0.490393 -0.144978 1.000000 0.000000 0.000000
0.019007 0.469217 -0.019052 0.000000 1.000000 0.000000
-0.826033 -0.204134 -0.066073 0.300000 0.000000 0.600000
0.025018 0.469217 0.047101 0.000000 1.000000 0.000000
0.401683 -0.135627 0.177131 0.300000 0.000000 0.600000
0.016023 0.251944 0.152359 0.600000 0.000000 0.300000
-0.857458 -0.284050 0.207576 0.500000 0.000000 0.500000
-0.014625 -0.419734 0.188522 0.600000 0.000000 0.300000
0.827431 0.012211 -0.205614 0.600000 0.300000 0.000000
0.432332 0.276083 0.181969 0.300000 0.000000 0.600000
-0.555201 0.453892 -0.206044 0.000000 1.000000 0.000000
0.714897 0.197755 -0.232583 0.000000 0.000000 1.000000
-0.362351 -0.367059 0.244383 0.600000 0.000000 0.300000
0.402236 0.441857 0.232252 0.300000 0.600000 0.000000
0.827431 -0.418318 0.051512 0.600000 0.300000 0.000000
-0.400285 -0.353034 0.115992 0.800000 0.200000 0.500000
0.071830 0.453892 0.019838 0.000000 1.000000 0.000000
-0.204392 0.021725 0.244383 0.600000 0.000000 0.300000
-0.014625 -0.014715 -0.225020 0.600000 0.000000 0.300000
0.673939 0.453892 -0.185663 0.000000 1.000000 0.000000
0.139755 0.378117 -0.232583 0.000000 0.000000 1.000000
0.827431 -0.219465 0.134115 0.600000 0.300000 0.000000
0.444039 0.469217 -0.128187 0.000000 1.000000 0.000000
-0.826075 -0.034603 0.232252 0.500000 0.000000 0.500000
-0.030427 -0.399452 0.232252 0.300000 0.600000 0.000000
-0.430933 0.305033 -0.216442 0.800000 0.200000 0.500000
-0.766399 0.453892 0.002917 0.000000 1.000000 0.000000
0.222851 -0.491102 0.014755 1.000000 0.000000 0.000000
-0.430933 -0.260980 0.191148 0.800000 0.200000 0.500000
-0.400285 -0.238453 -0.096647 0.800000 0.200000 0.500000
-0.450165 0.453892 0.156012 0.000000 1.000000 0.000000
0.215472 0.232260 0.262900 0.300000 0.600000 0.000000
-0.040804 0.049866 -0.243155 0.600000 0.000000 0.300000
-0.805601 -0.071467 -0.214080 0.300000 0.000000 0.600000
-0.805601 0.226323 -0.066626 0.300000 0.000000 0.600000
0.691464 0.454745 -0.258124 0.000000 1.000000 0.000000
-0.010686 -0.044939 0.201603 0.600000 0.000000 0.300000
0.781202 -0.075340 -0.232583 0.000000 0.000000 1.000000
-0.791967 0.469217 -0.100869 0.000000 1.000000 0.000000
-0.472529 -0.385835 -0.232583 0.000000 0.000000 1.000000
-0.533113 0.453892 -0.017371 0.000000 1.000000 0.000000
-0.014625 -0.070905 0.127772 0.600000 0.000000 0.300000
0.344810 -0.298051 0.244383 0.600000 0.000000 0.300000
0.641462 -0.475778 -0.076299 1.000000 0.000000 0.000000
0.508706 -0.472971 0.201603 0.600000 0.000000 0.300000
-0.728224 -0.071819 -0.232583 0.000000 0.000000 1.000000
0.432332 -0.164479 0.161235 0.300000 0.000000 0.600000
0.731747 -0.485381 -0.258124 1.000000 0.000000 0.000000
0.401683 -0.391120 -0.081548 0.300000 0.000000 0.600000
-0.826033 0.069447 0.145186 0.300000 0.000000 0.600000
0.138927 -0.477843 0.232252 0.300000 0.600000 0.000000
0.372586 -0.311544 -0.242799 0.000000 0.000000 1.000000
-0.711003 0.437988 0.232252 0.300000 0.600000 0.000000
0.432332 -0.366466 -0.208771 0.300000 0.000000 0.600000
0.653207 -0.475778 0.151469 1.000000 0.000000 0.000000
0.602645 -0.441898 0.201603 0.600000 0.000000 0.300000
-0.772157 -0.170489 0.232252 0.300000 0.600000 0.000000
-0.641412 -0.264933 -0.232583 0.000000 0.000000 1.000000
-0.616458 0.453892 -0.018213 0.000000 1.000000 0.000000
-0.053405 0.212877 -0.232583 0.000000 0.000000 1.000000
0.103975 0.453892 -0.128326 0.000000 1.000000 0.000000
0.149025 -0.491102 -0.226244 1.000000 0.000000 0.000000
0.128716 0.453892 0.160774 0.000000 1.000000 0.000000
-0.400285 0.132707 -0.143681 0.800000 0.200000 0.500000
0.774170 -0.339569 0.262900 0.300000 0.600000 0.000000
0.421184 0.270967 0.244383 0.600000 0.000000 0.300000
-0.826033 -0.458642 -0.172207 0.300000 0.000000 0.600000
-0.639789 0.422145 -0.232583 0.000000 0.000000 1.000000
-0.044735 0.438539 0.232252 0.300000 0.600000 0.000000
0.711936 -0.037005 -0.232583 0.000000 0.000000 1.000000
-0.226080 0.453892 -0.052108 0.000000 1.000000 0.000000
-0.430933 0.142451 0.120837 0.800000 0.200000 0.500000
-0.201092 0.469217 -0.199643 0.000000 1.000000 0.000000
0.806999 0.404711 -0.039193 0.600000 0.300000 0.000000
0.049709 0.211360 -0.232583 0.000000 0.000000 1.000000
-0.283480 0.440166 0.232252 0.300000 0.000000 0.600000
-0.076948 0.453892 -0.163602 0.000000 1.000000 0.000000
0.432332 -0.063055 0.178509 0.300000 0.000000 0.600000
0.056423 -0.475778 0.086454 1.000000 0.000000 0.000000
-0.667383 0.196438 0.244383 0.600000 0.000000 0.300000
-0.545241 0.275388 -0.242799 0.000000 0.000000 1.000000
0.762189 -0.491102 -0.060510 1.000000 0.000000 0.000000
0.323999 -0.081404 0.244383 0.600000 0.000000 0.300000
0.080292 -0.166871 0.244383 0.600000 0.000000 0.300000
0.401683 -0.398137 0.046326 0.300000 0.000000 0.600000
-0.017784 0.296684 -0.242799 0.000000 0.000000 1.000000
0.281988 -0.391736 -0.232583 0.000000 0.000000 1.000000
0.291735 -0.268724 -0.232583 0.000000 0.000000 1.000000
-0.430933 0.098941 0.128141 0.800000 0.200000 0.500000
0.474029 -0.211054 0.250769 0.600000 0.000000 0.300000
-0.430933 0.413903 -0.182121 0.800000 0.200000 0.500000
-0.805601 0.221458 0.065350 0.300000 0.000000 0.600000
0.827431 -0.062848 -0.188412 0.600000 0.300000 0.000000
-0.805601 0.130560 -0.094323 0.300000 0.000000 0.600000
0.200681 0.171438 -0.242799 0.000000 0.000000 1.000000
-0.256175 0.359257 0.262900 0.300000 0.600000 0.000000
0.746643 0.479433 0.204992 0.300000 0.000000 0.600000
-0.014625 0.154071 -0.032402 0.600000 0.000000 0.300000
-0.400285 0.142097 -0.020835 0.800000 0.200000 0.500000
0.775116 0.123899 -0.232583 0.000000 0.000000 1.000000
-0.796603 0.258470 0.201603 0.500000 0.000000 0.500000
-0.598833 0.394180 0.262900 0.300000 0.600000 0.000000
0.546526 -0.218035 0.250769 0.600000 0.000000 0.300000
-0.820879 -0.265952 0.262900 0.300000 0.600000 0.000000
-0.830818 0.410423 -0.232583 0.000000 0.000000 1.000000
-0.608238 -0.475778 -0.208200 1.000000 0.000000 0.000000
0.824703 -0.491102 -0.045018 1.000000 0.000000 0.000000
-0.251975 -0.491102 -0.051333 1.000000 0.000000 0.000000
0.401683 0.142142 -0.172926 0.300000 0.000000 0.600000
0.806999 -0.284618 0.007057 0.600000 0.300000 0.000000
-0.400285 0.231496 0.089173 0.800000 0.200000 0.500000
-0.430933 -0.109891 0.164695 0.800000 0.200000 0.500000
-0.014625 0.253847 0.025246 0.600000 0.000000 0.300000
0.016023 -0.108033 -0.191328 0.600000 0.000000 0.300000
-0.406573 -0.491102 0.113695 1.000000 0.000000 0.000000
-0.240993 -0.475778 0.062422 1.000000 0.000000 0.000000
0.817724 -0.239562 0.262900 0.300000 0.600000 0.000000
0.432332 -0.115579 0.161234 0.300000 0.000000 0.600000
-0.618381 0.464831 -0.258124 0.000000 1.000000 0.000000
-0.743768 0.453892 0.143187 0.000000 1.000000 0.000000
-0.624551 -0.475778 -0.025028 1.000000 0.000000 0.000000
0.656844 0.469217 0.101949 0.000000 1.000000 0.000000
-0.245952 -0.435282 0.262900 0.300000 0.600000 0.000000
0.432332 0.146711 0.167386 0.300000 0.000000 0.600000
0.704173 -0.462733 0.232252 0.300000 0.600000 0.000000
0.401683 0.433939 -0.225951 0.300000 0.000000 0.600000
0.827431 -0.128167 0.144772 0.600000 0.300000 0.000000
-0.805601 0.009368 -0.225934 0.300000 0.000000 0.600000
-0.587505 -0.310041 -0.232583 0.000000 0.000000 1.000000
0.726046 0.223493 0.261530 0.300000 0.600000 0.000000
-0.577025 0.469217 -0.112623 0.000000 1.000000 0.000000
-0.430933 -0.246841 0.147791 0.800000 0.200000 0.500000
0.016023 0.339991 0.028178 0.600000 0.000000 0.300000
0.599766 0.469217 -0.163383 0.000000 1.000000 0.000000
-0.014625 -0.125379 -0.050916 0.600000 0.000000 0.300000
-0.430933 -0.048981 -0.057172 0.800000 0.200000 0.500000
-0.400285 0.166647 -0.103523 0.800000 0.200000 0.500000
0.776497 0.373188 -0.232583 0.000000 0.000000 1.000000
0.622353 -0.475778 -0.175756 1.000000 0.000000 0.000000
-0.318408 -0.457329 0.232252 0.600000 0.000000 0.300000
0.071443 0.469217 -0.248873 0.000000 1.000000 0.000000
0.401683 0.207942 0.094930 0.300000 0.000000 0.600000
0.539191 -0.368913 0.262900 0.300000 0.600000 0.000000
-0.842426 -0.491102 0.024361 1.000000 0.000000 0.000000
-0.014625 0.118372 -0.216315 0.600000 0.000000 0.300000
0.141295 0.469217 0.104135 0.000000 1.000000 0.000000
-0.793625 -0.475778 0.123396 1.000000 0.000000 0.000000
0.827091 -0.283041 -0.232583 0.000000 0.000000 1.000000
-0.294222 -0.010684 0.250769 0.600000 0.000000 0.300000
0.338197 0.097915 -0.232583 0.000000 0.000000 1.000000
-0.400285 -0.416385 -0.084317 0.800000 0.200000 0.500000
-0.681174 0.204500 -0.232583 0.000000 0.000000 1.000000
-0.338734 0.453892 0.142182 0.000000 1.000000 0.000000
0.230211 0.422460 0.262900 0.300000 0.600000 0.000000
0.016023 -0.034160 0.001472 0.600000 0.000000 0.300000
0.033389 0.469217 -0.126095 0.000000 1.000000 0.000000
-0.400285 -0.454527 0.153222 0.800000 0.200000 0.500000
0.401683 -0.269725 -0.035677 0.300000 0.000000 0.600000
-0.014625 0.388456 -0.181530 0.600000 0.000000 0.300000
0.388233 -0.404872 0.262900 0.300000 0.600000 0.000000
0.665064 -0.132320 -0.232583 0.000000 0.000000 1.000000
0.824348 0.394262 -0.242799 0.000000 0.000000 1.000000
0.208278 0.227343 -0.242799 0.000000 0.000000 1.000000
-0.513107 -0.095924 0.244383 0.600000 0.000000 0.300000
0.486580 0.469217 -0.001270 0.000000 1.000000 0.000000
-0.167497 0.466243 0.232252 0.300000 0.000000 0.600000
0.829716 0.344013 0.232252 0.300000 0.600000 0.000000
-0.105136 0.092221 0.244383 0.600000 0.000000 0.300000
0.255598 -0.475778 -0.249018 1.000000 0.000000 0.000000
-0.826033 0.170139 0.169454 0.300000 0.000000 0.600000
0.843532 0.142142 0.262684 0.300000 0.600000 0.000000
0.361296 0.383959 0.262900 0.300000 0.600000 0.000000
-0.368081 0.040574 0.244383 0.600000 0.000000 0.300000
-0.826033 0.190412 -0.221819 0.300000 0.000000 0.600000
0.286949 -0.119744 -0.242799 0.000000 0.000000 1.000000
-0.762984 0.469217 -0.247495 0.000000 1.000000 0.000000
0.157011 0.453892 -0.122647 0.000000 1.000000 0.000000
-0.560636 0.349877 0.232252 0.300000 0.600000 0.000000
-0.552267 0.469217 0.046261 0.000000 1.000000 0.000000
-0.400285 0.125055 -0.090246 0.800000 0.200000 0.500000
-0.430933 -0.204418 0.029506 0.800000 0.200000 0.500000
-0.409692 0.453327 0.262900 0.300000 0.600000 0.000000
-0.660591 -0.460667 -0.242799 0.000000 0.000000 1.000000
0.806828 0.464108 0.251504 0.300000 0.600000 0.000000
0.729484 0.289245 0.232252 0.300000 0.600000 0.000000
-0.631228 -0.424206 0.232252 0.300000 0.600000 0.000000
0.362791 0.469217 -0.073638 0.000000 1.000000 0.000000
0.779720 -0.363211 0.232252 0.300000 0.600000 0.000000
0.288611 0.453892 -0.155105 0.000000 1.000000 0.000000
0.255574 0.162196 -0.242799 0.000000 0.000000 1.000000
-0.796430 -0.457976 0.232252 0.300000 0.600000 0.000000
-0.509033 -0.480553 -0.258124 1.000000 0.000000 0.000000
0.755515 -0.302293 -0.258124 0.000000 0.500000 0.500000
0.858856 0.065719 -0.233048 0.000000 0.000000 1.000000
0.016023 -0.452331 0.025515 0.600000 0.000000 0.300000
0.016023 0.385510 0.114080 0.600000 0.000000 0.300000
-0.826033 -0.153256 0.167629 0.300000 0.000000 0.600000
0.827431 0.189766 0.194603 0.600000 0.300000 0.000000
-0.430933 -0.101817 -0.154178 0.800000 0.200000 0.500000
0.806999 -0.133083 -0.062976 0.600000 0.300000 0.000000
0.354261 0.061333 -0.242799 0.000000 0.000000 1.000000
-0.843542 0.469217 -0.255067 0.000000 1.000000 0.000000
-0.430933 0.011079 -0.100978 0.800000 0.200000 0.500000
-0.014625 -0.256529 -0.067061 0.600000 0.000000 0.300000
-0.430933 -0.081798 0.029930 0.800000 0.200000 0.500000
-0.008513 -0.475778 -0.048924 1.000000 0.000000 0.000000
0.627698 0.393806 0.232252 0.300000 0.600000 0.000000
0.350528 0.453892 0.102399 0.000000 1.000000 0.000000
0.432332 -0.191309 -0.024125 0.300000 0.000000 0.600000
-0.400285 0.349388 0.092425 0.800000 0.200000 0.500000
-0.014625 0.361798 0.198314 0.600000 0.000000 0.300000
0.270386 0.427457 0.262900 0.300000 0.600000 0.000000
0.636592 0.469217 0.031549 0.000000 1.000000 0.000000
0.806999 0.438563 -0.187420 0.600000 0.300000 0.000000
0.233645 0.366300 0.232252 0.300000 0.600000 0.000000
0.388446 0.370421 0.232252 0.300000 0.600000 0.000000
-0.400285 0.414123 -0.022657 0.800000 0.200000 0.500000
0.432332 0.094045 -0.086830 0.300000 0.000000 0.600000
-0.400285 0.158499 -0.213141 0.800000 0.200000 0.500000
-0.435904 -0.165248 0.250769 0.600000 0.000000 0.300000
0.806999 -0.346610 -0.036308 0.600000 0.300000 0.000000
0.509971 0.469217 -0.076791 0.000000 1.000000 0.000000
0.354720 -0.438052 -0.242799 0.000000 0.000000 1.000000
-0.833838 -0.475778 0.189807 1.000000 0.000000 0.000000
-0.290815 -0.475778 -0.148589 1.000000 0.000000 0.000000
0.734395 -0.122995 -0.232583 0.000000 0.000000 1.000000
0.806999 -0.064855 -0.060057 0.600000 0.300000 0.000000
-0.805601 0.333223 0.126666 0.300000 0.000000 0.600000
-0.066130 0.407998 0.262900 0.300000 0.600000 0.000000
-0.826033 0.270066 -0.032870 0.300000 0.000000 0.600000
0.697328 0.469217 -0.100296 0.000000 1.000000 0.000000
0.753177 0.469217 0.081008 0.000000 1.000000 0.000000
-0.430933 -0.323477 0.028867 0.800000 0.200000 0.500000
0.811644 0.106639 0.232252 0.500000 0.500000 0.000000
0.176118 0.407749 0.262900 0.300000 0.600000 0.000000
0.806999 0.398740 0.017261 0.600000 0.300000 0.000000
-0.083582 -0.057456 -0.242799 0.000000 0.000000 1.000000
0.821864 -0.491102 -0.008450 1.000000 0.000000 0.000000
-0.821706 0.453892 -0.023367 0.000000 1.000000 0.000000
0.731402 -0.167418 0.262900 0.300000 0.600000 0.000000
-0.430933 0.175113 0.102391 0.800000 0.200000 0.500000
0.827431 0.445547 0.009407 0.600000 0.300000 0.000000
-0.760900 0.311074 0.232252 0.300000 0.600000 0.000000
0.590668 0.438904 0.232252 0.300000 0.000000 0.600000
0.717536 0.453892 0.074458 0.000000 1.000000 0.000000
0.166901 -0.278465 0.250769 0.600000 0.000000 0.300000
0.402538 -0.501318 0.207753 0.600000 0.000000 0.300000
-0.253907 0.363662 -0.232583 0.000000 0.000000 1.000000
0.618776 0.130509 0.262093 0.300000 0.600000 0.000000
0.426039 -0.397305 -0.227475 0.300000 0.000000 0.600000
0.625186 -0.450893 -0.242799 0.000000 0.000000 1.000000
0.016023 -0.337597 -0.063578 0.600000 0.000000 0.300000
0.683477 0.310964 0.250769 0.600000 0.000000 0.300000
-0.805601 0.132978 0.154545 0.300000 0.000000 0.600000
0.349882 -0.368508 0.258086 0.300000 0.600000 0.000000
-0.400285 -0.435547 0.048552 0.800000 0.200000 0.500000
-0.273547 -0.488786 -0.258124 1.000000 0.000000 0.000000
0.382229 0.469217 -0.251970 0.000000 1.000000 0.000000
-0.430933 0.021620 0.141434 0.800000 0.200000 0.500000
-0.628068 0.010642 0.250769 0.600000 0.000000 0.300000
0.432332 -0.329132 0.062458 0.300000 0.000000 0.600000
0.806999 0.288866 -0.108558 0.600000 0.300000 0.000000
-0.130779 0.383051 0.232252 0.300000 0.600000 0.000000
-0.400285 -0.018754 0.028850 0.800000 0.200000 0.500000
-0.430933 -0.068134 0.095462 0.800000 0.200000 0.500000
-0.826033 -0.279280 0.047779 0.300000 0.000000 0.600000
0.610705 -0.414416 0.262900 0.300000 0.600000 0.000000
-0.826033 0.411112 0.133021 0.300000 0.000000 0.600000
0.837955 -0.169972 0.262900 0.300000 0.600000 0.000000
0.806999 0.110418 0.096718 0.600000 0.300000 0.000000
-0.795727 0.464108 0.232862 0.300000 0.600000 0.000000
0.280829 0.453892 -0.222532 0.000000 1.000000 0.000000
0.330676 -0.475778 0.174929 1.000000 0.000000 0.000000
0.432332 0.287733 0.039253 0.300000 0.000000 0.600000
-0.805496 -0.029148 -0.258124 0.300000 0.600000 0.000000
-0.045119 0.453892 0.065628 0.000000 1.000000 0.000000
0.806999 0.125254 0.034354 0.600000 0.300000 0.000000
-0.826033 -0.245461 -0.150783 0.300000 0.000000 0.600000
-0.010525 0.128143 0.201603 0.600000 0.000000 0.300000
-0.388955 -0.176341 -0.232583 0.000000 0.000000 1.000000
0.283211 0.072694 -0.242799 0.000000 0.000000 1.000000
0.784223 -0.121537 -0.242799 0.000000 0.500000 0.500000
-0.074143 0.300453 -0.242799 0.000000 0.000000 1.000000
0.827431 -0.225777 0.050714 0.600000 0.300000 0.000000
0.806999 0.334481 -0.041216 0.600000 0.300000 0.000000
-0.826033 -0.308124 -0.040701 0.300000 0.000000 0.600000
0.432332 0.414040 -0.208140 0.300000 0.000000 0.600000
-0.762755 -0.428242 0.232252 0.300000 0.600000 0.000000
0.806999 0.380459 0.098816 0.600000 0.300000 0.000000
0.742164 -0.491102 0.042048 1.000000 0.000000 0.000000
-0.400285 0.117980 0.064236 0.800000 0.200000 0.500000
-0.561991 0.386116 0.262900 0.300000 0.600000 0.000000
0.401683 -0.377713 0.166865 0.300000 0.000000 0.600000
-0.842134 -0.354413 0.238180 0.300000 0.600000 0.000000
-0.826033 -0.457564 0.028878 0.300000 0.000000 0.600000
0.763083 0.365380 0.262900 0.300000 0.600000 0.000000
0.369046 -0.475778 -0.000168 1.000000 0.000000 0.000000
0.858856 0.379672 -0.232870 0.000000 0.000000 1.000000
-0.430933 -0.143560 -0.010419 0.800000 0.200000 0.500000
0.374094 0.114840 0.250769 0.600000 0.000000 0.300000
0.306203 -0.485994 0.262078 0.300000 0.600000 0.000000
-0.581764 0.464108 0.246822 0.300000 0.600000 0.000000
-0.826033 -0.208637 -0.014811 0.300000 0.000000 0.600000
-0.120243 0.294486 0.244383 0.600000 0.000000 0.300000
0.827431 0.123290 0.159863 0.600000 0.300000 0.000000
-0.678560 -0.491102 -0.219509 1.000000 0.000000 0.000000
-0.400285 0.103460 -0.031131 0.800000 0.200000 0.500000
0.016023 0.239592 -0.032217 0.600000 0.000000 0.300000
-0.400285 -0.116115 0.122354 0.800000 0.200000 0.500000
-0.136459 -0.239753 0.244383 0.600000 0.000000 0.300000
0.070677 -0.018803 0.244383 0.600000 0.000000 0.300000
0.806999 0.334217 -0.145431 0.600000 0.300000 0.000000
0.663004 -0.405098 0.232252 0.300000 0.600000 0.000000
-0.430933 -0.384259 -0.024725 0.800000 0.200000 0.500000
0.791851 0.114737 0.262900 0.300000 0.600000 0.000000
0.432332 0.094610 0.162725 0.300000 0.000000 0.600000
-0.007818 -0.403712 -0.232583 0.000000 0.000000 1.000000
-0.033440 -0.498328 0.232252 0.600000 0.000000 0.300000
-0.826033 -0.135663 -0.194171 0.300000 0.000000 0.600000
-0.400285 0.306527 0.125105 0.800000 0.200000 0.500000
0.405601 0.469217 -0.074470 0.000000 1.000000 0.000000
-0.754789 -0.046845 0.232252 0.300000 0.600000 0.000000
-0.014625 0.344449 0.058446 0.600000 0.000000 0.300000
0.806999 -0.459481 -0.044925 0.600000 0.300000 0.000000
0.656859 -0.289770 -0.232583 0.000000 0.000000 1.000000
0.505682 -0.105305 -0.232583 0.000000 0.000000 1.000000
0.591660 -0.207742 0.244383 0.600000 0.000000 0.300000
-0.397237 -0.131547 0.250769 0.600000 0.000000 0.300000
0.452392 -0.451898 -0.232583 0.000000 0.000000 1.000000
-0.527365 -0.113309 -0.232583 0.000000 0.000000 1.000000
-0.437858 -0.022458 -0.242799 0.000000 0.000000 1.000000
0.432332 0.224010 -0.046954 0.300000 0.000000 0.600000
0.432332 0.408001 -0.018646 0.300000 0.000000 0.600000
-0.608070 0.469217 -0.087262 0.000000 1.000000 0.000000
0.175731 -0.380474 0.232252 0.300000 0.600000 0.000000
-0.826033 0.376838 -0.088763 0.300000 0.000000 0.600000
-0.430933 0.169606 -0.075894 0.800000 0.200000 0.500000
-0.014625 0.142731 0.034923 0.600000 0.000000 0.300000
0.016023 -0.454178 0.071161 0.600000 0.000000 0.300000
0.449780 -0.393684 0.262900 0.300000 0.600000 0.000000
0.797790 -0.465959 -0.258124 0.000000 0.500000 0.500000
0.501096 0.312444 -0.232583 0.000000 0.000000 1.000000
-0.314575 -0.249292 -0.242799 0.000000 0.000000 1.000000
0.827431 0.355190 -0.228973 0.600000 0.300000 0.000000
-0.430933 0.261543 -0.149928 0.800000 0.200000 0.500000
-0.815684 0.145008 0.232252 0.300000 0.600000 0.000000
0.576674 0.469217 -0.008132 0.000000 1.000000 0.000000
-0.440298 0.267116 0.250769 0.600000 0.000000 0.300000
-0.430933 0.245965 -0.009194 0.800000 0.200000 0.500000
0.118076 0.380843 0.232252 0.300000 0.600000 0.000000
-0.059100 0.370875 0.262900 0.300000 0.600000 0.000000
0.016023 0.203732 0.190688 0.600000 0.000000 0.300000
0.367219 -0.491102 -0.137251 1.000000 0.000000 0.000000
0.525847 0.438025 0.232252 0.300000 0.000000 0.600000
0.124872 0.105318 -0.232583 0.000000 0.000000 1.000000
-0.005033 0.453892 0.131441 0.000000 1.000000 0.000000
0.645945 -0.170764 0.244383 0.600000 0.000000 0.300000
-0.014625 -0.066845 -0.128684 0.600000 0.000000 0.300000
-0.692394 0.018982 -0.232583 0.000000 0.000000 1.000000
0.432332 0.025474 0.057552 0.300000 0.000000 0.600000
-0.826033 -0.466580 0.145738 0.300000 0.000000 0.600000
-0.059968 -0.491102 0.081262 1.000000 0.000000 0.000000
-0.598240 -0.491102 0.195190 1.000000 0.000000 0.000000
-0.739113 -0.001517 -0.242799 0.000000 0.000000 1.000000
0.640751 -0.085971 -0.232583 0.000000 0.000000 1.000000
0.114241 0.298563 0.250769 0.600000 0.000000 0.300000
0.198890 0.037551 -0.242799 0.000000 0.000000 1.000000
0.377192 -0.482665 0.232252 0.600000 0.000000 0.300000
0.432332 -0.141001 0.124909 0.300000 0.000000 0.600000
0.432332 0.057549 -0.080554 0.300000 0.000000 0.600000
-0.274221 0.346623 0.232340 0.300000 0.600000 0.000000
-0.243105 -0.491102 -0.124661 1.000000 0.000000 0.000000
0.401278 0.453892 -0.129218 0.000000 1.000000 0.000000
-0.182642 0.245293 -0.232583 0.000000 0.000000 1.000000
-0.014625 0.209583 -0.187308 0.600000 0.000000 0.300000
-0.830069 -0.295120 -0.232583 0.000000 0.000000 1.000000
-0.430933 0.255444 0.158541 0.800000 0.200000 0.500000
0.163666 0.453892 0.014975 0.000000 1.000000 0.000000
-0.445408 -0.092139 0.250769 0.600000 0.000000 0.300000
-0.187651 -0.475778 -0.091519 1.000000 0.000000 0.000000
-0.317469 -0.216782 0.250769 0.600000 0.000000 0.300000
-0.400285 0.366441 -0.150669 0.800000 0.200000 0.500000
0.824861 0.227675 0.232252 0.300000 0.600000 0.000000
