-0.538754 0.002792 0.337217 0.800000 0.200000 0.500000
-0.167975 0.061544 0.321699 0.000000 0.000000 1.000000
-0.576118 0.016665 -0.141175 1.000000 0.000000 0.000000
0.489624 0.097050 0.291781 0.800000 0.200000 0.500000
0.378775 -0.002469 0.031535 0.300000 0.000000 0.600000
0.427469 0.097050 -0.262295 0.800000 0.200000 0.500000
-0.161676 0.086905 -0.307856 0.000000 0.000000 1.000000
-0.460096 0.061611 0.239423 0.300000 0.000000 0.600000
-0.275587 0.097050 -0.262289 0.800000 0.200000 0.500000
0.579353 -0.005448 -0.001959 0.600000 0.000000 0.300000
0.664751 -0.305542 -0.302826 0.300000 0.000000 0.600000
-0.576118 0.014763 0.190757 1.000000 0.000000 0.000000
0.670654 -0.044174 -0.195204 0.300000 0.600000 0.000000
0.662262 -0.479791 -0.331733 0.300000 0.000000 0.600000
0.314205 0.005100 0.239423 0.300000 0.000000 0.600000
0.659586 -0.042135 0.340869 0.600000 0.300000 0.000000
0.173851 0.086905 0.039968 0.600000 0.300000 0.000000
-0.379158 -0.013526 -0.173534 0.500000 0.500000 0.000000
0.148331 -0.041844 -0.308386 0.000000 0.000000 1.000000
-0.603692 -0.699302 -0.318600 0.300000 0.000000 0.600000
-0.642058 -0.344982 -0.303688 0.300000 0.000000 0.600000
0.496002 -0.039497 0.208989 1.000000 0.000000 0.000000
-0.260459 -0.049033 0.330328 1.000000 0.000000 0.000000
-0.449015 -0.002469 -0.078570 0.300000 0.000000 0.600000
-0.648145 0.087317 0.239425 0.500000 0.500000 0.000000
0.277160 0.053845 0.340869 0.000000 0.000000 1.000000
0.149721 0.061544 -0.125071 0.600000 0.300000 0.000000
0.601921 -0.123962 -0.368636 0.300000 0.000000 0.600000
0.021400 0.035038 -0.174299 0.300000 0.000000 0.600000
-0.469720 0.022279 -0.267807 0.300000 0.000000 0.600000
0.610260 0.086905 0.111727 0.600000 0.300000 0.000000
-0.578061 -0.084761 0.269857 0.600000 0.000000 0.300000
0.206546 -0.013526 0.141859 0.300000 0.000000 0.600000
0.249595 -0.002469 -0.139828 0.300000 0.000000 0.600000
0.121021 0.039225 0.269299 0.000000 0.000000 1.000000
-0.584527 0.026037 0.091375 0.600000 0.300000 0.000000
-0.323688 -0.002469 0.151507 0.300000 0.000000 0.600000
0.607924 0.061544 -0.075415 0.600000 0.300000 0.000000
0.447910 0.064843 0.372403 0.000000 1.000000 0.000000
0.670654 -0.009269 -0.059266 0.300000 0.600000 0.000000
0.285576 0.067674 -0.399994 0.500000 0.000000 0.500000
-0.420178 0.086905 0.101970 0.600000 0.300000 0.000000
-0.239258 0.061544 -0.135504 0.600000 0.300000 0.000000
-0.648145 0.007622 -0.204057 0.600000 0.000000 0.300000
0.316115 0.086905 -0.093826 0.600000 0.300000 0.000000
-0.138791 0.086905 0.091932 0.600000 0.300000 0.000000
-0.542769 -0.049033 -0.082332 0.500000 0.500000 0.000000
-0.334292 0.061544 0.063353 0.600000 0.300000 0.000000
-0.385749 -0.049033 0.245831 1.000000 0.000000 0.000000
0.610740 -0.251782 0.273003 0.600000 0.300000 0.000000
0.314715 0.097050 -0.239403 0.800000 0.200000 0.500000
0.046582 0.039225 -0.273186 0.300000 0.000000 0.600000
0.021400 0.011305 0.260879 1.000000 0.000000 0.000000
-0.582073 -0.340831 0.276983 0.600000 0.000000 0.300000
0.248048 0.097050 0.107007 0.800000 0.200000 0.500000
0.602131 -0.209611 -0.302063 0.300000 0.000000 0.600000
-0.343452 0.039225 -0.346834 0.500000 0.000000 0.500000
0.417696 -0.023671 -0.050383 0.300000 0.000000 0.600000
-0.648145 0.045386 -0.086824 0.600000 0.000000 0.300000
0.107311 -0.002469 -0.019627 0.300000 0.000000 0.600000
-0.030010 0.046060 -0.346935 0.300000 0.000000 0.600000
-0.218796 0.009966 -0.346935 0.300000 0.600000 0.000000
0.479892 0.061544 -0.000396 0.600000 0.300000 0.000000
0.104194 -0.002469 -0.170233 0.300000 0.000000 0.600000
-0.566190 0.039225 -0.228032 0.800000 0.200000 0.500000
0.512525 -0.023671 -0.059816 0.300000 0.000000 0.600000
0.523510 0.061544 0.109207 0.600000 0.300000 0.000000
0.650767 0.086905 -0.223250 1.000000 0.000000 0.000000
0.196763 -0.002469 0.020093 0.300000 0.000000 0.600000
-0.463819 0.097050 -0.333214 0.800000 0.200000 0.500000
0.063981 0.086905 0.166249 0.800000 0.200000 0.500000
0.116354 0.039225 -0.329075 0.500000 0.000000 0.500000
0.048851 0.097050 -0.116363 0.800000 0.200000 0.500000
-0.429041 0.086905 -0.118893 0.600000 0.300000 0.000000
-0.080042 -0.054833 -0.369253 0.300000 0.600000 0.000000
-0.488326 -0.002469 0.185090 0.300000 0.000000 0.600000
0.005815 0.086905 -0.022915 0.600000 0.300000 0.000000
0.670654 -0.017960 0.127648 0.300000 0.600000 0.000000
-0.086460 0.086905 -0.181913 0.800000 0.200000 0.500000
-0.645830 -0.201623 -0.305879 0.300000 0.000000 0.600000
-0.447260 0.000104 0.337217 0.800000 0.200000 0.500000
0.375011 0.010330 0.340869 0.300000 0.600000 0.000000
-0.115571 -0.013526 0.267658 0.500000 0.500000 0.000000
-0.229867 -0.013526 0.139412 0.500000 0.500000 0.000000
0.600888 -0.157499 0.337045 0.600000 0.300000 0.000000
0.316183 -0.002469 0.153007 0.300000 0.000000 0.600000
-0.247121 -0.002469 -0.049481 0.300000 0.000000 0.600000
-0.614831 0.061544 -0.338840 0.300000 0.000000 0.600000
-0.039593 -0.047999 0.104688 0.000000 1.000000 0.000000
0.662057 -0.054600 -0.369253 0.300000 0.000000 0.600000
-0.248363 -0.023671 -0.136001 0.500000 0.500000 0.000000
0.697987 0.076334 0.238237 1.000000 0.000000 0.000000
0.489734 -0.023671 0.125097 0.300000 0.000000 0.600000
-0.191138 0.073387 -0.397967 0.500000 0.000000 0.500000
-0.572189 0.039225 -0.043150 1.000000 0.000000 0.000000
0.187180 0.097050 -0.057242 0.800000 0.200000 0.500000
0.604744 0.093489 -0.380289 0.500000 0.000000 0.500000
0.378851 -0.049033 0.249662 1.000000 0.000000 0.000000
0.587442 0.039225 0.213083 0.600000 0.000000 0.300000
0.584164 0.061544 -0.157746 0.600000 0.300000 0.000000
0.375047 -0.002469 -0.141187 0.300000 0.000000 0.600000
-0.646150 -0.194688 0.331571 0.600000 0.000000 0.300000
-0.544297 0.086477 0.361264 0.000000 1.000000 0.000000
-0.562746 0.097050 -0.164178 0.000000 1.000000 0.000000
-0.323172 -0.002469 -0.003608 0.300000 0.000000 0.600000
-0.105380 -0.002469 0.016631 0.300000 0.000000 0.600000
0.303548 0.100093 0.268187 0.800000 0.200000 0.500000
0.425914 0.033494 -0.201867 0.600000 0.300000 0.000000
-0.598767 -0.055986 -0.180442 0.500000 0.500000 0.000000
-0.618932 -0.055986 0.092204 0.500000 0.500000 0.000000
-0.358415 0.061544 -0.063396 0.600000 0.300000 0.000000
-0.207636 0.024245 0.239423 0.300000 0.000000 0.600000
-0.016406 0.039225 0.191979 0.300000 0.000000 0.600000
0.648336 0.036105 0.057786 0.300000 0.600000 0.000000
-0.473544 -0.013526 0.072640 0.500000 0.500000 0.000000
-0.585443 -0.336972 -0.363982 0.300000 0.000000 0.600000
-0.590636 0.100093 0.142337 0.800000 0.200000 0.500000
0.410925 -0.049033 -0.319788 0.000000 0.000000 1.000000
-0.275051 0.061544 0.194051 0.600000 0.300000 0.000000
0.603994 -0.294894 -0.357415 0.300000 0.000000 0.600000
0.285307 0.021579 -0.267807 0.300000 0.000000 0.600000
0.543387 0.039225 -0.319705 0.500000 0.000000 0.500000
-0.625826 -0.008693 -0.286071 0.600000 0.000000 0.300000
-0.104337 0.027775 -0.267807 0.300000 0.000000 0.600000
0.616278 0.039225 0.326662 0.000000 0.000000 1.000000
-0.352209 0.083437 0.363830 0.000000 1.000000 0.000000
0.455244 0.097050 -0.134873 0.800000 0.200000 0.500000
0.555133 -0.023671 0.073619 0.300000 0.000000 0.600000
0.057524 -0.049033 0.035636 0.000000 1.000000 0.000000
0.648336 -0.001730 -0.262528 0.300000 0.600000 0.000000
0.500901 0.003689 0.340869 0.300000 0.600000 0.000000
0.574198 -0.049033 -0.313692 0.000000 0.000000 1.000000
-0.577669 -0.120243 -0.301925 0.300000 0.000000 0.600000
-0.204026 0.006868 -0.267807 0.300000 0.000000 0.600000
-0.477323 0.061544 -0.017909 0.600000 0.300000 0.000000
0.324909 0.021735 -0.346935 0.300000 0.600000 0.000000
0.488587 0.034501 0.239423 0.300000 0.000000 0.600000
0.654680 -0.470232 0.333320 0.600000 0.300000 0.000000
0.260098 -0.013526 -0.027900 0.300000 0.000000 0.600000
-0.627567 0.097050 0.069135 0.000000 1.000000 0.000000
-0.002571 0.097050 0.321332 0.500000 0.500000 0.000000
-0.107953 -0.013526 0.179732 0.500000 0.500000 0.000000
0.374030 0.086905 0.147539 0.600000 0.300000 0.000000
0.507459 -0.023671 -0.197642 0.300000 0.000000 0.600000
-0.588046 -0.403017 -0.304956 0.300000 0.000000 0.600000
0.413663 0.100093 -0.365071 0.800000 0.200000 0.500000
-0.341325 0.030209 -0.267807 0.300000 0.000000 0.600000
-0.476563 0.021590 -0.369253 0.300000 0.600000 0.000000
-0.006118 -0.049033 -0.030554 0.000000 1.000000 0.000000
0.227405 0.100093 -0.358529 0.800000 0.200000 0.500000
-0.583213 -0.397411 0.333308 0.600000 0.000000 0.300000
-0.589056 -0.687323 0.282200 0.600000 0.000000 0.300000
0.507688 0.086905 -0.269068 0.800000 0.200000 0.500000
0.605938 -0.408063 0.332705 0.600000 0.300000 0.000000
-0.087381 0.100093 -0.328291 0.800000 0.200000 0.500000
0.222386 0.086905 0.180140 0.800000 0.200000 0.500000
-0.616870 0.097050 -0.241213 0.000000 1.000000 0.000000
0.639517 0.097050 0.189301 1.000000 0.000000 0.000000
-0.589411 -0.055986 -0.019706 0.500000 0.500000 0.000000
-0.548895 -0.013526 0.258047 0.500000 0.500000 0.000000
-0.354889 -0.013526 0.080517 0.500000 0.500000 0.000000
0.332623 0.061544 -0.018920 0.600000 0.300000 0.000000
-0.641481 -0.276989 -0.365292 0.300000 0.000000 0.600000
0.127302 0.097050 0.218201 0.800000 0.200000 0.500000
-0.648145 -0.080323 -0.330072 0.300000 0.000000 0.600000
0.670654 0.007637 -0.134760 0.300000 0.600000 0.000000
0.135272 -0.049033 0.276174 1.000000 0.000000 0.000000
0.665975 -0.327864 0.276681 0.600000 0.300000 0.000000
0.114146 0.097050 0.331092 0.800000 0.200000 0.500000
0.052970 0.021346 -0.369253 0.300000 0.600000 0.000000
-0.431315 0.097050 0.177561 0.800000 0.200000 0.500000
0.038480 -0.049033 -0.160364 0.000000 1.000000 0.000000
-0.299112 0.015826 0.316928 0.800000 0.200000 0.500000
0.173742 -0.023671 -0.146931 0.300000 0.000000 0.600000
0.414953 -0.002469 0.098732 0.300000 0.000000 0.600000
-0.039062 0.043195 0.077696 0.300000 0.000000 0.600000
-0.417827 0.039362 -0.214573 0.000000 1.000000 0.000000
0.171804 -0.002469 0.210647 0.300000 0.000000 0.600000
0.124106 -0.002469 -0.247934 0.300000 0.000000 0.600000
-0.026938 -0.049033 -0.104007 0.000000 1.000000 0.000000
0.126943 0.092665 -0.381922 0.500000 0.000000 0.500000
0.246603 -0.012165 0.317537 0.300000 0.600000 0.000000
0.186337 0.061544 -0.204086 0.600000 0.300000 0.000000
-0.207700 0.061544 -0.058595 0.600000 0.300000 0.000000
-0.602312 0.045507 0.335257 0.000000 0.000000 1.000000
0.427378 0.039225 0.294812 0.000000 0.000000 1.000000
0.496043 0.008976 -0.369253 0.300000 0.600000 0.000000
0.244976 0.039225 0.252059 0.000000 0.000000 1.000000
0.140035 0.013836 0.337826 0.300000 0.600000 0.000000
-0.648145 0.009099 0.209524 0.600000 0.000000 0.300000
0.553148 0.061544 0.275437 0.600000 0.300000 0.000000
0.085292 0.100093 -0.291948 0.800000 0.200000 0.500000
-0.127378 0.061544 -0.035906 0.600000 0.300000 0.000000
-0.261415 0.097050 0.035583 0.800000 0.200000 0.500000
-0.106320 -0.013526 -0.140002 0.500000 0.500000 0.000000
-0.585677 0.097050 -0.086637 0.000000 1.000000 0.000000
-0.595994 -0.046003 0.330268 1.000000 0.000000 0.000000
-0.136390 0.013873 -0.346935 0.300000 0.600000 0.000000
-0.018164 0.027169 -0.104949 0.000000 0.000000 1.000000
0.394189 0.050747 -0.308386 0.500000 0.000000 0.500000
-0.274068 0.097050 -0.189178 0.800000 0.200000 0.500000
0.603291 -0.055336 0.221954 0.800000 0.200000 0.500000
-0.093146 0.086905 0.186649 0.600000 0.300000 0.000000
-0.423893 0.100093 0.290818 0.800000 0.200000 0.500000
0.669739 -0.137601 -0.334057 0.300000 0.000000 0.600000
0.501142 -0.049033 0.288705 1.000000 0.000000 0.000000
0.273620 0.097050 -0.302499 0.800000 0.200000 0.500000
-0.422109 0.039225 -0.320337 0.500000 0.000000 0.500000
-0.638635 -0.530953 -0.358572 0.300000 0.000000 0.600000
0.461591 0.086905 0.164288 0.600000 0.300000 0.000000
0.114765 0.061544 0.084446 0.600000 0.300000 0.000000
-0.213189 0.004754 0.340260 0.800000 0.200000 0.500000
-0.362276 0.039225 0.211139 0.000000 0.000000 1.000000
-0.351645 -0.065791 -0.369253 0.300000 0.600000 0.000000
0.002336 -0.002469 -0.234218 0.300000 0.000000 0.600000
-0.648145 -0.007014 0.136574 0.600000 0.000000 0.300000
0.660984 -0.575497 0.326846 0.600000 0.300000 0.000000
-0.212285 -0.023671 -0.198552 0.500000 0.500000 0.000000
-0.114428 0.015812 0.337217 0.800000 0.200000 0.500000
0.022679 0.097050 -0.210991 0.800000 0.200000 0.500000
-0.585418 -0.232700 0.338108 0.600000 0.000000 0.300000
0.691650 0.061544 -0.075138 1.000000 0.000000 0.000000
0.676123 0.097050 0.084971 1.000000 0.000000 0.000000
0.664690 -0.368682 -0.356897 0.300000 0.000000 0.600000
0.625547 -0.055336 -0.028040 0.800000 0.200000 0.500000
0.100525 -0.002469 0.143492 0.300000 0.000000 0.600000
-0.273061 0.042838 -0.308386 0.500000 0.000000 0.500000
-0.054132 0.026923 -0.202476 0.000000 1.000000 0.000000
-0.480658 0.097050 -0.263003 0.800000 0.200000 0.500000
0.607684 -0.462009 0.277240 0.600000 0.300000 0.000000
0.658989 -0.617977 -0.309652 0.300000 0.000000 0.600000
0.250547 0.061544 -0.101075 0.600000 0.300000 0.000000
0.670654 -0.068451 0.183307 0.300000 0.600000 0.000000
0.062384 0.051328 0.000889 0.300000 0.000000 0.600000
-0.615177 -0.263429 0.273238 0.600000 0.000000 0.300000
-0.250570 -0.042186 -0.308386 0.000000 0.000000 1.000000
-0.201828 -0.002469 0.074807 0.300000 0.000000 0.600000
-0.577132 -0.054929 0.206466 0.500000 0.500000 0.000000
0.005236 0.097050 -0.314360 0.800000 0.200000 0.500000
-0.412156 -0.016648 -0.369253 0.300000 0.600000 0.000000
0.364946 0.061544 0.263166 0.600000 0.300000 0.000000
0.116055 -0.017956 -0.369253 0.300000 0.600000 0.000000
0.635372 0.061544 -0.326259 0.600000 0.300000 0.000000
0.226024 0.100093 0.330578 0.800000 0.200000 0.500000
-0.037465 -0.049033 0.035021 0.000000 1.000000 0.000000
0.068826 0.039225 0.216859 0.000000 0.000000 1.000000
0.280563 -0.015863 -0.201867 0.300000 0.000000 0.600000
-0.144009 0.100093 0.268879 0.800000 0.200000 0.500000
0.277518 0.061544 0.042796 0.600000 0.300000 0.000000
0.641842 0.097050 -0.008611 0.800000 0.200000 0.500000
-0.312345 0.100093 0.309515 0.800000 0.200000 0.500000
0.599642 -0.076468 0.334910 0.600000 0.300000 0.000000
-0.344251 0.086905 -0.207508 0.800000 0.200000 0.500000
-0.395085 0.100093 -0.341607 0.800000 0.200000 0.500000
0.349319 -0.023671 0.093230 0.300000 0.000000 0.600000
0.569208 0.070607 -0.227490 0.300000 0.000000 0.600000
0.602711 -0.179615 0.271549 0.600000 0.300000 0.000000
-0.567523 0.086905 0.206110 0.600000 0.300000 0.000000
0.179111 -0.052876 -0.369253 0.300000 0.600000 0.000000
0.664557 -0.059041 -0.110005 0.300000 0.600000 0.000000
0.548919 0.040165 0.045561 0.000000 0.500000 0.500000
0.318038 0.061544 -0.161043 0.600000 0.300000 0.000000
-0.552959 0.029086 -0.346935 0.300000 0.600000 0.000000
-0.228769 0.097050 0.329229 0.800000 0.200000 0.500000
0.316107 -0.023671 0.012901 0.300000 0.000000 0.600000
0.669833 -0.136466 0.327404 0.600000 0.300000 0.000000
-0.634579 -0.493254 0.277870 0.600000 0.000000 0.300000
-0.334198 0.097050 -0.302608 0.800000 0.200000 0.500000
-0.640660 -0.162231 0.271198 0.600000 0.000000 0.300000
-0.124553 0.097050 -0.238599 0.800000 0.200000 0.500000
-0.581677 0.061544 0.020944 0.600000 0.300000 0.000000
0.368384 0.061544 -0.398792 0.500000 0.000000 0.500000
0.526015 -0.002469 -0.128373 0.300000 0.000000 0.600000
0.026205 0.016108 0.328850 0.300000 0.000000 0.600000
0.643919 0.026037 0.177147 0.600000 0.000000 0.300000
-0.577526 -0.115241 0.337367 0.600000 0.000000 0.300000
0.621824 -0.694970 0.281935 0.600000 0.300000 0.000000
0.665394 0.031450 0.280001 0.600000 0.300000 0.000000
-0.496170 0.039225 0.298446 0.000000 0.000000 1.000000
-0.197206 -0.058277 -0.362512 0.300000 0.600000 0.000000
-0.384606 -0.013526 -0.060399 0.500000 0.500000 0.000000
-0.463765 -0.048881 -0.308386 0.000000 0.000000 1.000000
0.030418 -0.049033 0.227143 1.000000 0.000000 0.000000
0.404512 0.086905 0.024960 0.600000 0.300000 0.000000
-0.644170 -0.071492 0.269857 0.600000 0.000000 0.300000
-0.182343 -0.023671 0.279508 0.500000 0.500000 0.000000
0.313265 0.061544 0.126061 0.600000 0.300000 0.000000
0.254645 -0.013526 0.188967 0.300000 0.000000 0.600000
0.627622 -0.055336 0.092362 0.800000 0.200000 0.500000
-0.019409 -0.019323 -0.369253 0.300000 0.600000 0.000000
-0.496482 -0.049033 0.334481 1.000000 0.000000 0.000000
-0.627268 -0.454635 0.333635 0.600000 0.000000 0.300000
0.550580 0.039225 -0.049166 0.000000 0.500000 0.500000
0.250084 -0.015661 -0.369253 0.300000 0.600000 0.000000
-0.012994 -0.049033 0.283236 1.000000 0.000000 0.000000
0.204629 0.039225 0.309816 0.000000 0.000000 1.000000
0.641456 0.026037 -0.197413 0.600000 0.000000 0.300000
0.643022 0.097050 0.345962 0.000000 1.000000 0.000000
-0.295580 0.039225 0.253293 0.000000 0.000000 1.000000
-0.551856 -0.065941 -0.346935 0.300000 0.600000 0.000000
-0.197157 0.061544 0.141150 0.600000 0.300000 0.000000
0.600580 -0.055336 -0.181335 0.800000 0.200000 0.500000
0.418766 0.002898 0.239423 0.300000 0.000000 0.600000
0.665582 0.003463 -0.336341 0.300000 0.000000 0.600000
0.512085 -0.026985 -0.308386 0.000000 0.000000 1.000000
-0.308859 -0.013526 -0.160555 0.500000 0.500000 0.000000
-0.559794 -0.049033 0.061515 0.500000 0.500000 0.000000
0.667613 -0.201566 0.271991 0.600000 0.300000 0.000000
-0.258509 -0.002469 0.197647 0.300000 0.000000 0.600000
0.609199 -0.533092 -0.313447 0.300000 0.000000 0.600000
0.405995 0.061544 -0.109746 0.600000 0.300000 0.000000
0.667483 -0.203723 -0.300602 0.300000 0.000000 0.600000
-0.139070 -0.002469 -0.043232 0.300000 0.000000 0.600000
-0.579391 -0.199076 -0.317688 0.300000 0.000000 0.600000
-0.127619 0.061544 0.029491 0.600000 0.300000 0.000000
0.607889 -0.244260 0.337875 0.600000 0.300000 0.000000
0.224212 0.039225 -0.311489 0.500000 0.000000 0.500000
-0.546545 0.097050 -0.027012 0.800000 0.200000 0.500000
-0.527111 0.047958 0.239423 0.300000 0.000000 0.600000
-0.459706 0.086905 0.040126 0.600000 0.300000 0.000000
-0.539072 -0.014405 -0.202685 0.000000 1.000000 0.000000
0.511906 0.097050 0.043970 0.800000 0.200000 0.500000
-0.321155 -0.049033 0.291642 1.000000 0.000000 0.000000
0.607791 -0.459987 -0.361294 0.300000 0.000000 0.600000
-0.658161 0.061544 0.300840 0.500000 0.500000 0.000000
0.250523 0.086905 -0.242298 0.800000 0.200000 0.500000
-0.642944 -0.353729 0.295087 0.600000 0.000000 0.300000
-0.625826 0.002915 -0.041802 0.600000 0.000000 0.300000
0.020996 0.061544 0.123597 0.600000 0.300000 0.000000
-0.374978 0.029019 0.337217 0.800000 0.200000 0.500000
-0.091516 0.061544 -0.122593 0.600000 0.300000 0.000000
-0.461512 -0.002469 -0.012128 0.300000 0.000000 0.600000
-0.027421 0.039225 0.301296 0.000000 0.000000 1.000000
0.329121 -0.048112 -0.308386 0.000000 0.000000 1.000000
-0.647241 -0.137068 -0.299314 0.300000 0.000000 0.600000
0.545878 0.061544 -0.380097 0.500000 0.000000 0.500000
0.064423 0.061544 0.300644 0.600000 0.300000 0.000000
0.598628 0.016910 0.098298 0.600000 0.000000 0.300000
-0.339172 0.097050 0.231787 0.800000 0.200000 0.500000
0.513573 0.039127 -0.222156 0.600000 0.300000 0.000000
-0.496809 0.100093 0.318437 0.800000 0.200000 0.500000
-0.007753 0.097050 0.054789 0.800000 0.200000 0.500000
0.459826 0.061544 -0.304518 0.600000 0.300000 0.000000
0.144975 0.061544 -0.252734 0.600000 0.300000 0.000000
0.093053 0.061544 -0.154483 0.600000 0.300000 0.000000
-0.224976 0.086905 -0.315387 0.600000 0.300000 0.000000
-0.587450 -0.607639 0.330029 0.600000 0.000000 0.300000
-0.511419 0.061544 -0.139675 0.600000 0.300000 0.000000
0.375602 -0.049033 0.313131 1.000000 0.000000 0.000000
0.132005 -0.002469 -0.104095 0.300000 0.000000 0.600000
0.599642 0.016142 -0.300187 0.300000 0.000000 0.600000
0.453584 -0.061186 -0.369253 0.300000 0.600000 0.000000
0.404736 -0.002469 -0.255002 0.300000 0.000000 0.600000
-0.016548 0.097050 0.217684 0.800000 0.200000 0.500000
-0.335903 0.097050 0.007251 0.800000 0.200000 0.500000
0.023509 -0.026714 -0.293899 0.000000 1.000000 0.000000
-0.602494 0.043921 0.243868 0.600000 0.300000 0.000000
-0.679746 0.061544 0.067262 0.500000 0.500000 0.000000
-0.047600 0.061544 -0.051786 0.600000 0.300000 0.000000
-0.633484 -0.643992 -0.310221 0.300000 0.000000 0.600000
0.511092 0.061544 -0.137759 0.600000 0.300000 0.000000
0.695111 0.061544 -0.183473 1.000000 0.000000 0.000000
-0.006263 0.078873 -0.395199 0.500000 0.000000 0.500000
-0.648145 0.011127 -0.139675 0.600000 0.000000 0.300000
0.042008 -0.002469 -0.024752 0.300000 0.000000 0.600000
-0.622879 0.061544 0.185484 0.600000 0.300000 0.000000
0.293925 -0.049033 0.264216 1.000000 0.000000 0.000000
0.604109 -0.317315 0.274682 0.600000 0.300000 0.000000
0.604573 -0.055336 -0.254804 0.800000 0.200000 0.500000
-0.023019 0.097050 -0.163680 0.800000 0.200000 0.500000
0.167519 0.097050 -0.333976 0.800000 0.200000 0.500000
0.648336 0.019366 -0.008083 0.300000 0.600000 0.000000
0.433412 0.097050 0.320564 0.500000 0.500000 0.000000
-0.086417 0.061544 0.116140 0.600000 0.300000 0.000000
0.626009 -0.658212 -0.356963 0.300000 0.000000 0.600000
-0.304802 0.061544 -0.401474 0.500000 0.000000 0.500000
0.457583 0.061544 -0.074552 0.600000 0.300000 0.000000
0.603928 -0.127881 -0.298945 0.300000 0.000000 0.600000
-0.247722 -0.013526 0.268733 0.500000 0.500000 0.000000
0.153634 0.061544 -0.013257 0.600000 0.300000 0.000000
-0.432806 0.061544 -0.061401 0.600000 0.300000 0.000000
-0.442782 0.001965 0.239423 0.300000 0.000000 0.600000
-0.121863 0.039225 0.214067 0.000000 0.000000 1.000000
-0.541706 0.086905 0.095998 0.600000 0.300000 0.000000
0.311116 -0.002469 -0.147636 0.300000 0.000000 0.600000
0.659321 -0.622223 0.280469 0.600000 0.300000 0.000000
0.388706 0.061544 0.083107 0.600000 0.300000 0.000000
-0.636285 -0.684121 0.322077 0.600000 0.000000 0.300000
-0.601087 0.073900 -0.397727 0.500000 0.000000 0.500000
-0.046931 -0.013526 0.155225 0.500000 0.500000 0.000000
0.545064 -0.002469 0.193603 0.300000 0.000000 0.600000
-0.293403 -0.001804 -0.369253 0.300000 0.600000 0.000000
0.017065 -0.049033 0.167039 0.000000 1.000000 0.000000
0.202850 0.097050 -0.124407 0.800000 0.200000 0.500000
0.375251 0.061544 -0.250829 0.600000 0.300000 0.000000
0.572711 -0.001847 0.340869 0.300000 0.600000 0.000000
-0.515650 -0.002469 -0.111959 0.300000 0.000000 0.600000
-0.402464 0.086905 -0.174308 0.800000 0.200000 0.500000
0.087322 -0.049033 -0.308457 0.000000 0.000000 1.000000
-0.092879 0.100093 0.303897 0.800000 0.200000 0.500000
-0.543238 0.039225 -0.284998 0.800000 0.200000 0.500000
0.242587 0.037025 -0.201867 0.600000 0.300000 0.000000
0.602012 -0.204170 -0.363211 0.300000 0.000000 0.600000
-0.536332 0.097050 -0.222447 0.800000 0.200000 0.500000
-0.339709 0.023393 -0.202476 0.000000 1.000000 0.000000
-0.425504 0.039225 0.284969 0.000000 0.000000 1.000000
-0.546698 0.038612 0.142860 0.300000 0.000000 0.600000
-0.162530 -0.002469 0.154931 0.300000 0.000000 0.600000
0.589498 -0.015113 -0.061282 0.600000 0.000000 0.300000
0.037352 0.039225 0.066978 0.300000 0.000000 0.600000
0.531076 0.097050 -0.022323 0.800000 0.200000 0.500000
0.028730 0.039225 -0.067076 0.300000 0.000000 0.600000
-0.674649 0.077889 -0.336992 0.500000 0.500000 0.000000
-0.648145 0.010906 -0.345071 0.300000 0.000000 0.600000
-0.402485 0.086905 0.235487 0.800000 0.200000 0.500000
0.440078 -0.049033 0.262680 1.000000 0.000000 0.000000
-0.473206 0.083225 -0.392378 0.500000 0.000000 0.500000
-0.205234 0.061544 0.073603 0.600000 0.300000 0.000000
-0.004781 0.061544 0.370242 0.000000 1.000000 0.000000
-0.137984 0.061544 -0.161272 0.600000 0.300000 0.000000
-0.420186 -0.049033 0.308696 1.000000 0.000000 0.000000
0.659766 -0.060192 0.283219 0.300000 0.600000 0.000000
-0.380124 -0.013526 0.179578 0.500000 0.500000 0.000000
0.667332 -0.260561 0.291888 0.600000 0.300000 0.000000
-0.241758 0.039225 0.297181 0.000000 0.000000 1.000000
-0.606115 0.061544 -0.187061 0.600000 0.300000 0.000000
-0.644157 -0.278204 -0.305233 0.300000 0.000000 0.600000
0.358834 -0.013526 -0.028971 0.300000 0.000000 0.600000
0.066479 -0.026714 0.272219 1.000000 0.000000 0.000000
0.100732 0.061544 -0.088934 0.600000 0.300000 0.000000
0.587251 0.097050 0.324001 0.500000 0.500000 0.000000
-0.246365 -0.023671 0.017422 0.500000 0.500000 0.000000
-0.638977 -0.550570 0.321836 0.600000 0.000000 0.300000
-0.223644 0.086905 0.217861 0.800000 0.200000 0.500000
0.333578 0.039225 0.308774 0.000000 0.000000 1.000000
-0.412861 0.004166 -0.267807 0.300000 0.000000 0.600000
-0.502919 -0.013526 -0.053636 0.500000 0.500000 0.000000
-0.185453 0.039362 -0.220235 0.000000 1.000000 0.000000
0.458397 0.086905 -0.207735 0.600000 0.300000 0.000000
-0.588261 -0.020480 0.128888 0.500000 0.500000 0.000000
0.539223 0.100093 -0.332810 0.800000 0.200000 0.500000
0.660809 -0.406626 -0.305035 0.300000 0.000000 0.600000
-0.431600 -0.013526 -0.134358 0.500000 0.500000 0.000000
-0.313960 0.097050 0.106332 0.800000 0.200000 0.500000
0.670654 0.090391 0.289166 1.000000 0.000000 0.000000
-0.602201 -0.087895 -0.369253 0.300000 0.000000 0.600000
-0.611297 0.100093 0.314161 0.800000 0.200000 0.500000
-0.100987 -0.029525 -0.308386 0.000000 0.000000 1.000000
-0.082518 -0.023671 0.071660 0.500000 0.500000 0.000000
0.318842 0.007992 0.359375 0.000000 0.500000 0.500000
0.061201 -0.049033 0.094628 0.000000 1.000000 0.000000
0.004869 -0.026714 0.072339 0.000000 1.000000 0.000000
0.578313 0.100093 -0.108715 0.800000 0.200000 0.500000
-0.590598 -0.055986 -0.116017 0.500000 0.500000 0.000000
0.599642 -0.051876 -0.366733 0.300000 0.000000 0.600000
-0.678983 0.067351 -0.215778 0.500000 0.500000 0.000000
0.346465 0.066646 0.371919 0.000000 1.000000 0.000000
-0.275853 0.097050 -0.106154 0.800000 0.200000 0.500000
-0.568092 0.100093 -0.356662 0.800000 0.200000 0.500000
0.212569 -0.023671 0.072643 0.300000 0.000000 0.600000
-0.679683 0.064822 -0.036566 0.500000 0.500000 0.000000
0.557248 0.039225 0.151859 0.000000 0.500000 0.500000
0.612448 -0.379041 0.275568 0.600000 0.300000 0.000000
-0.586945 -0.481190 -0.360831 0.300000 0.000000 0.600000
-0.140185 0.097050 0.149675 0.800000 0.200000 0.500000
0.323240 0.039346 -0.222156 0.600000 0.300000 0.000000
-0.013083 0.039225 -0.272248 0.300000 0.000000 0.600000
-0.141572 0.097050 -0.363611 0.000000 0.000000 1.000000
0.170390 0.097050 0.305777 0.800000 0.200000 0.500000
0.665632 0.100093 -0.358154 0.800000 0.200000 0.500000
-0.135883 0.076065 0.368328 0.000000 1.000000 0.000000
0.143195 0.097050 -0.170921 0.800000 0.200000 0.500000
-0.477120 0.061544 0.107574 0.600000 0.300000 0.000000
0.326805 -0.049033 0.216104 1.000000 0.000000 0.000000
0.605145 0.035349 0.269857 0.600000 0.000000 0.300000
-0.215958 0.086905 -0.252755 0.800000 0.200000 0.500000
0.648336 0.038985 0.118071 0.300000 0.600000 0.000000
-0.643796 0.100093 -0.067481 0.800000 0.200000 0.500000
0.066208 0.039362 -0.210577 0.600000 0.300000 0.000000
0.579167 0.097050 0.159397 1.000000 0.000000 0.000000
0.610493 -0.512671 0.332465 0.600000 0.300000 0.000000
-0.135600 -0.039513 -0.369253 0.300000 0.600000 0.000000
-0.637645 -0.576280 -0.312281 0.300000 0.000000 0.600000
0.194043 0.061544 0.127797 0.600000 0.300000 0.000000
-0.607708 -0.580582 0.279630 0.600000 0.000000 0.300000
0.340173 0.061544 0.211152 0.000000 0.000000 1.000000
0.532363 -0.002469 -0.260428 0.300000 0.000000 0.600000
-0.530466 0.039225 0.065846 0.800000 0.200000 0.500000
0.189726 -0.013526 0.265928 0.300000 0.000000 0.600000
-0.639168 -0.357242 -0.363539 0.300000 0.000000 0.600000
0.564482 0.086905 0.077074 0.800000 0.200000 0.500000
0.546697 -0.017954 -0.369253 0.300000 0.600000 0.000000
0.407654 -0.023671 -0.183315 0.300000 0.000000 0.600000
0.136158 0.033092 -0.201867 0.600000 0.300000 0.000000
-0.372298 -0.013526 0.288743 0.500000 0.500000 0.000000
0.657294 -0.490663 0.277818 0.600000 0.300000 0.000000
0.599642 -0.072628 0.277935 0.600000 0.300000 0.000000
0.518795 -0.002469 -0.007519 0.300000 0.000000 0.600000
0.040674 0.004987 0.181417 0.300000 0.000000 0.600000
0.569208 0.024939 -0.103840 0.300000 0.000000 0.600000
0.257830 -0.002469 -0.083419 0.300000 0.000000 0.600000
-0.008020 -0.014643 -0.145697 0.500000 0.500000 0.000000
-0.039062 0.050274 0.019102 0.300000 0.000000 0.600000
0.548257 -0.049033 0.233480 1.000000 0.000000 0.000000
0.627781 0.097050 0.055572 0.800000 0.200000 0.500000
0.617643 -0.019830 0.037006 0.800000 0.200000 0.500000
-0.526017 -0.047778 -0.145781 0.500000 0.500000 0.000000
-0.639864 -0.474689 -0.329965 0.300000 0.000000 0.600000
0.232675 0.001278 -0.267807 0.300000 0.000000 0.600000
-0.347018 -0.013526 0.225317 0.500000 0.500000 0.000000
-0.641127 -0.013894 0.340869 0.600000 0.000000 0.300000
0.599642 0.045577 -0.021975 0.000000 0.500000 0.500000
0.175574 0.061544 0.216051 0.600000 0.300000 0.000000
-0.521346 -0.047163 0.208989 1.000000 0.000000 0.000000
0.620923 -0.019830 0.261929 0.800000 0.200000 0.500000
-0.247655 0.039362 -0.221245 0.000000 1.000000 0.000000
-0.089242 -0.049033 0.232928 1.000000 0.000000 0.000000
-0.508822 0.097050 0.204653 0.800000 0.200000 0.500000
0.423006 0.061544 0.132364 0.600000 0.300000 0.000000
-0.408752 -0.023671 0.068996 0.500000 0.500000 0.000000
0.062515 0.061544 -0.326283 0.600000 0.300000 0.000000
0.666879 -0.268476 -0.344729 0.300000 0.000000 0.600000
-0.069929 0.013834 -0.369253 0.300000 0.600000 0.000000
-0.631451 -0.221966 -0.366495 0.300000 0.000000 0.600000
-0.474459 -0.002469 0.127470 0.300000 0.000000 0.600000
-0.625826 0.016028 0.052657 0.600000 0.000000 0.300000
-0.328004 0.100093 -0.368331 0.800000 0.200000 0.500000
-0.625826 0.033220 -0.248406 0.600000 0.000000 0.300000
0.616974 -0.442482 -0.305818 0.300000 0.000000 0.600000
0.616818 -0.338434 -0.303545 0.300000 0.000000 0.600000
-0.128084 0.039225 0.279918 0.000000 0.000000 1.000000
-0.546698 0.045156 -0.100010 0.300000 0.000000 0.600000
-0.587313 -0.561690 -0.345342 0.300000 0.000000 0.600000
-0.088594 -0.014405 -0.216070 0.000000 1.000000 0.000000
0.467252 0.061544 0.058753 0.600000 0.300000 0.000000
0.291995 0.100093 -0.354859 0.800000 0.200000 0.500000
-0.380000 0.061544 -0.123622 0.600000 0.300000 0.000000
-0.591891 -0.458654 -0.306171 0.300000 0.000000 0.600000
0.609792 -0.599288 0.289294 0.600000 0.300000 0.000000
-0.440767 -0.011589 -0.222765 0.000000 1.000000 0.000000
0.307876 0.097050 0.325200 0.800000 0.200000 0.500000
-0.165316 -0.023671 -0.154471 0.500000 0.500000 0.000000
-0.495031 0.100093 0.258048 0.800000 0.200000 0.500000
-0.581473 -0.311089 0.323471 0.600000 0.000000 0.300000
-0.609158 0.097050 -0.295854 0.800000 0.200000 0.500000
-0.526409 0.051052 -0.191728 0.800000 0.200000 0.500000
0.478446 0.086905 0.225684 0.600000 0.300000 0.000000
0.488882 0.061544 0.333920 0.000000 0.000000 1.000000
-0.394451 0.061544 0.060400 0.600000 0.300000 0.000000
0.598628 -0.001637 -0.159904 0.600000 0.000000 0.300000
0.265494 0.047596 -0.346935 0.300000 0.600000 0.000000
0.425585 -0.013526 0.004771 0.300000 0.000000 0.600000
0.632662 0.061544 -0.131849 0.600000 0.000000 0.300000
-0.435351 -0.074492 -0.368657 0.300000 0.600000 0.000000
-0.051621 -0.013526 0.267094 0.500000 0.500000 0.000000
-0.491715 0.056837 -0.308386 0.500000 0.000000 0.500000
0.103927 -0.002469 0.035114 0.300000 0.000000 0.600000
0.614099 -0.348755 -0.363724 0.300000 0.000000 0.600000
-0.593197 -0.050971 -0.298241 0.500000 0.500000 0.000000
-0.062449 0.097050 0.074039 0.800000 0.200000 0.500000
-0.347491 -0.015387 -0.346935 0.300000 0.600000 0.000000
0.701394 0.067678 -0.239165 1.000000 0.000000 0.000000
0.648336 0.052827 0.224622 0.300000 0.600000 0.000000
0.620620 0.097050 -0.178783 1.000000 0.000000 0.000000
-0.152403 -0.023671 0.052175 0.500000 0.500000 0.000000
0.580079 0.100093 -0.046150 0.800000 0.200000 0.500000
-0.090737 0.097050 -0.055223 0.800000 0.200000 0.500000
0.230604 0.086905 0.054288 0.600000 0.300000 0.000000
-0.297224 0.061544 -0.225906 0.600000 0.300000 0.000000
-0.054356 0.097050 -0.371518 0.500000 0.000000 0.500000
-0.577132 0.008924 0.298704 0.600000 0.000000 0.300000
0.179065 0.077775 -0.384304 0.500000 0.000000 0.500000
-0.017473 0.061544 -0.222430 0.300000 0.000000 0.600000
-0.524002 -0.019421 -0.346935 0.300000 0.600000 0.000000
-0.576118 0.001336 -0.081696 1.000000 0.000000 0.000000
0.453770 -0.023671 0.175640 0.300000 0.000000 0.600000
0.665936 -0.296021 0.336832 0.600000 0.300000 0.000000
-0.530185 0.039225 -0.008953 0.800000 0.200000 0.500000
0.258402 -0.023671 0.130099 0.300000 0.000000 0.600000
-0.193023 -0.002469 -0.051063 0.300000 0.000000 0.600000
0.568170 0.097050 0.227790 0.800000 0.200000 0.500000
-0.397999 0.077775 0.333987 0.000000 1.000000 0.000000
-0.026844 -0.049033 -0.244866 0.000000 1.000000 0.000000
0.663292 -0.432665 -0.358037 0.300000 0.000000 0.600000
-0.044090 -0.013526 -0.015298 0.500000 0.500000 0.000000
0.442645 0.061544 -0.390927 0.500000 0.000000 0.500000
-0.585777 -0.055986 -0.241783 0.500000 0.500000 0.000000
0.009206 0.086905 0.171374 0.800000 0.200000 0.500000
0.128410 0.061544 0.174601 0.600000 0.300000 0.000000
-0.207219 -0.049033 0.321761 1.000000 0.000000 0.000000
0.614536 -0.587478 -0.308986 0.300000 0.000000 0.600000
0.275734 0.061544 0.213139 0.600000 0.300000 0.000000
0.127878 0.097050 0.272642 0.500000 0.500000 0.000000
0.664179 0.100093 -0.301172 0.800000 0.200000 0.500000
-0.578936 -0.138620 0.270722 0.600000 0.000000 0.300000
-0.514454 0.097050 -0.354238 0.000000 0.000000 1.000000
0.078022 0.023969 0.340869 0.300000 0.600000 0.000000
-0.618947 0.061544 -0.128979 0.600000 0.300000 0.000000
0.434980 0.086905 0.266977 0.500000 0.500000 0.000000
-0.265060 0.061544 0.141278 0.600000 0.300000 0.000000
-0.675382 0.061544 -0.132880 0.500000 0.500000 0.000000
-0.584120 -0.442392 0.304094 0.600000 0.000000 0.300000
-0.383084 0.061544 0.148315 0.600000 0.300000 0.000000
-0.648145 0.051273 0.016136 0.600000 0.000000 0.300000
-0.582371 -0.335449 -0.310501 0.300000 0.000000 0.600000
-0.454563 -0.040500 0.208989 1.000000 0.000000 0.000000
0.466752 -0.002469 -0.041857 0.300000 0.000000 0.600000
0.660861 -0.543934 -0.322073 0.300000 0.000000 0.600000
-0.185821 0.058450 -0.346935 0.500000 0.000000 0.500000
0.292840 -0.041177 -0.346935 0.000000 0.000000 1.000000
-0.648145 -0.059643 -0.200361 0.600000 0.000000 0.300000
0.442314 0.011400 0.337826 0.300000 0.600000 0.000000
0.021133 -0.046685 0.340869 1.000000 0.000000 0.000000
-0.209599 0.097050 -0.098186 0.800000 0.200000 0.500000
0.388195 -0.002469 -0.089097 0.300000 0.000000 0.600000
-0.368724 0.097050 0.093865 0.800000 0.200000 0.500000
0.599642 0.045378 0.031115 0.000000 0.500000 0.500000
0.250386 0.097050 0.256887 0.500000 0.500000 0.000000
-0.026772 0.086905 0.275345 0.600000 0.300000 0.000000
-0.366957 -0.002469 -0.109079 0.300000 0.000000 0.600000
-0.495468 0.061544 0.363802 0.000000 1.000000 0.000000
-0.501776 0.001321 0.239423 0.300000 0.000000 0.600000
0.611813 0.061544 -0.259420 0.600000 0.000000 0.300000
-0.330766 0.003719 0.357354 0.600000 0.000000 0.300000
-0.479567 0.018899 -0.202476 0.000000 1.000000 0.000000
0.461707 -0.026714 -0.323983 0.000000 0.000000 1.000000
-0.163321 0.044313 -0.267807 0.300000 0.000000 0.600000
-0.577132 0.002154 -0.308664 0.300000 0.000000 0.600000
0.373303 0.035711 -0.201867 0.600000 0.300000 0.000000
-0.218086 0.067760 0.371584 0.000000 1.000000 0.000000
0.658691 0.097050 0.134584 0.800000 0.200000 0.500000
0.652177 -0.081618 0.230747 0.300000 0.600000 0.000000
-0.039062 0.044719 0.136341 0.300000 0.000000 0.600000
0.131240 -0.038604 0.340869 1.000000 0.000000 0.000000
0.665582 -0.036880 -0.299113 0.300000 0.000000 0.600000
0.187065 0.033946 -0.267807 0.300000 0.000000 0.600000
-0.066020 -0.049033 0.312408 1.000000 0.000000 0.000000
0.114020 0.061544 0.031938 0.600000 0.300000 0.000000
-0.522049 -0.002469 0.096621 0.300000 0.000000 0.600000
0.614603 -0.718477 0.328317 0.600000 0.300000 0.000000
0.349815 0.061544 0.037593 0.600000 0.300000 0.000000
-0.588147 -0.408586 -0.362417 0.300000 0.000000 0.600000
-0.280605 0.100093 -0.314375 0.800000 0.200000 0.500000
0.001110 0.033360 -0.022968 0.000000 0.000000 1.000000
0.195561 -0.026714 -0.325215 0.000000 0.000000 1.000000
-0.258428 0.061544 -0.071601 0.600000 0.300000 0.000000
-0.641911 -0.404977 0.325951 0.600000 0.000000 0.300000
0.648014 -0.377069 0.335198 0.600000 0.300000 0.000000
-0.258428 -0.000627 -0.267807 0.300000 0.000000 0.600000
-0.195956 0.097050 0.260997 0.800000 0.200000 0.500000
-0.625820 -0.671185 -0.356679 0.300000 0.000000 0.600000
0.375141 0.100093 -0.289477 0.800000 0.200000 0.500000
0.530592 -0.049033 0.331810 1.000000 0.000000 0.000000
-0.323171 0.097050 -0.084118 0.800000 0.200000 0.500000
0.032815 0.097050 -0.066754 0.800000 0.200000 0.500000
0.142319 -0.023671 0.173280 0.300000 0.000000 0.600000
0.645260 0.097050 -0.067874 0.800000 0.200000 0.500000
0.338551 0.019522 -0.267807 0.300000 0.000000 0.600000
0.535326 0.100093 0.321807 0.800000 0.200000 0.500000
0.403125 0.097050 -0.216280 0.800000 0.200000 0.500000
0.345991 -0.013526 0.289215 0.300000 0.000000 0.600000
-0.620754 -0.027641 0.234112 0.500000 0.500000 0.000000
-0.011974 -0.013526 -0.069081 0.500000 0.500000 0.000000
-0.596226 -0.020480 0.018722 0.500000 0.500000 0.000000
-0.458020 0.061544 -0.153590 0.600000 0.300000 0.000000
-0.033574 0.039225 -0.152948 0.300000 0.000000 0.600000
0.538472 -0.013526 0.139482 0.300000 0.000000 0.600000
0.054351 0.039225 -0.128231 0.300000 0.000000 0.600000
0.285307 0.061544 -0.060777 0.600000 0.300000 0.000000
0.395783 0.081286 0.365321 0.000000 1.000000 0.000000
-0.198447 0.061544 -0.170241 0.600000 0.300000 0.000000
0.142401 0.097050 -0.088146 0.800000 0.200000 0.500000
0.648336 0.032101 -0.088745 0.300000 0.600000 0.000000
-0.625826 0.043967 0.116868 0.600000 0.000000 0.300000
-0.109716 -0.023671 -0.086316 0.500000 0.500000 0.000000
0.428407 0.061544 -0.016809 0.600000 0.300000 0.000000
-0.395122 0.097050 -0.071218 0.800000 0.200000 0.500000
-0.268257 0.061544 -0.001316 0.600000 0.300000 0.000000
0.039404 -0.013526 -0.197834 0.300000 0.000000 0.600000
0.026225 0.089688 -0.267807 0.000000 0.000000 1.000000
0.533347 0.045312 0.208989 0.000000 0.000000 1.000000
0.670654 -0.073649 -0.243444 0.300000 0.600000 0.000000
0.086719 0.061544 -0.372084 0.500000 0.000000 0.500000
0.537355 0.039225 0.319021 0.000000 0.000000 1.000000
0.310042 0.061544 -0.288725 0.600000 0.300000 0.000000
-0.632133 -0.055592 -0.048258 0.600000 0.000000 0.300000
-0.618794 0.061544 -0.044681 0.600000 0.300000 0.000000
0.016194 0.061544 0.234899 1.000000 0.000000 0.000000
0.608475 -0.030772 0.310435 1.000000 0.000000 0.000000
-0.471684 0.097050 -0.054707 0.800000 0.200000 0.500000
0.420357 0.097050 -0.314484 0.800000 0.200000 0.500000
-0.069226 0.039225 -0.314879 0.500000 0.000000 0.500000
-0.563736 -0.013526 -0.031716 0.500000 0.500000 0.000000
-0.523679 -0.049033 0.284575 1.000000 0.000000 0.000000
0.225426 0.061544 -0.397945 0.500000 0.000000 0.500000
-0.643918 -0.305436 0.274439 0.600000 0.000000 0.300000
-0.271488 -0.002469 -0.094158 0.300000 0.000000 0.600000
0.361948 0.061544 -0.135095 0.600000 0.300000 0.000000
0.061853 -0.049024 -0.020612 0.000000 1.000000 0.000000
0.555473 -0.023671 -0.181191 0.300000 0.000000 0.600000
-0.636431 -0.217386 0.272310 0.600000 0.000000 0.300000
-0.059836 0.037982 0.340260 0.800000 0.200000 0.500000
-0.271584 0.008220 0.358766 0.600000 0.000000 0.300000
0.010245 0.061544 0.021180 0.600000 0.300000 0.000000
0.372441 0.097050 -0.096582 0.800000 0.200000 0.500000
0.066505 0.097050 0.116763 0.800000 0.200000 0.500000
-0.067838 -0.002469 0.220485 0.300000 0.000000 0.600000
0.249798 -0.013526 0.021590 0.300000 0.000000 0.600000
-0.617468 -0.020480 0.182355 0.500000 0.500000 0.000000
0.161030 0.050505 -0.308386 0.500000 0.000000 0.500000
-0.367126 0.061544 -0.010511 0.600000 0.300000 0.000000
0.157810 -0.002469 -0.020494 0.300000 0.000000 0.600000
0.668154 0.007638 0.340869 0.600000 0.300000 0.000000
0.223861 -0.023671 -0.177749 0.300000 0.000000 0.600000
-0.250630 0.042096 -0.369253 0.300000 0.600000 0.000000
-0.555067 0.061544 0.318792 0.600000 0.300000 0.000000
0.050127 0.090940 -0.166361 0.800000 0.200000 0.500000
-0.214164 -0.002469 -0.102182 0.300000 0.000000 0.600000
-0.634991 0.097050 -0.368651 0.000000 0.000000 1.000000
-0.369413 0.077018 -0.396253 0.500000 0.000000 0.500000
0.279325 0.097050 -0.127299 0.800000 0.200000 0.500000
-0.209766 0.061544 0.021160 0.600000 0.300000 0.000000
-0.437618 0.071680 -0.267807 0.300000 0.000000 0.600000
0.403240 -0.052432 -0.369253 0.300000 0.600000 0.000000
-0.313353 -0.023671 0.106740 0.500000 0.500000 0.000000
0.520137 0.097050 0.251983 0.800000 0.200000 0.500000
0.131833 -0.023671 -0.058658 0.300000 0.000000 0.600000
-0.643072 0.042991 -0.301647 0.300000 0.000000 0.600000
-0.312426 -0.046298 0.340869 1.000000 0.000000 0.000000
-0.419453 0.047958 0.208989 0.000000 0.000000 1.000000
-0.057255 -0.002469 -0.114832 0.300000 0.000000 0.600000
0.284461 0.086905 -0.199494 0.800000 0.200000 0.500000
-0.671018 0.061544 0.199047 0.500000 0.500000 0.000000
0.670654 -0.009423 0.055757 0.300000 0.600000 0.000000
0.647496 0.039062 -0.369253 0.300000 0.000000 0.600000
0.473267 0.097050 -0.034920 0.800000 0.200000 0.500000
0.167764 0.097050 0.088492 0.800000 0.200000 0.500000
0.061853 -0.040571 0.143820 0.000000 1.000000 0.000000
-0.522872 0.061544 -0.053743 0.600000 0.300000 0.000000
-0.287572 0.061544 0.080787 0.600000 0.300000 0.000000
0.297778 -0.013526 0.301924 0.300000 0.000000 0.600000
0.195432 0.039225 0.260837 0.000000 0.000000 1.000000
0.045679 0.097050 0.011317 0.800000 0.200000 0.500000
-0.648145 -0.061422 0.327890 0.600000 0.000000 0.300000
0.057726 0.039225 0.149583 0.300000 0.000000 0.600000
0.044821 0.100093 0.336197 0.800000 0.200000 0.500000
0.430418 0.040440 0.208989 0.000000 0.000000 1.000000
0.234227 0.061544 0.003013 0.600000 0.300000 0.000000
-0.056537 -0.002469 0.035020 0.300000 0.000000 0.600000
0.460243 -0.013526 0.290947 0.300000 0.000000 0.600000
0.236288 0.061544 0.367997 0.000000 1.000000 0.000000
0.441225 -0.002469 0.051477 0.300000 0.000000 0.600000
-0.431277 0.086905 -0.218979 0.800000 0.200000 0.500000
-0.167009 0.097050 -0.042163 0.800000 0.200000 0.500000
0.258321 -0.013526 0.249108 0.300000 0.000000 0.600000
0.359070 -0.013526 0.203776 0.300000 0.000000 0.600000
0.014697 0.061544 0.284732 1.000000 0.000000 0.000000
0.150757 -0.023671 0.036904 0.300000 0.000000 0.600000
0.643695 -0.260078 -0.301833 0.300000 0.000000 0.600000
-0.592035 -0.720204 0.328282 0.600000 0.000000 0.300000
0.623854 -0.095698 -0.334503 0.300000 0.000000 0.600000
0.124381 -0.013526 0.241895 0.300000 0.000000 0.600000
0.420434 -0.047244 0.208989 1.000000 0.000000 0.000000
-0.517258 0.000864 -0.267807 0.300000 0.000000 0.600000
-0.476459 -0.013526 0.296655 0.500000 0.500000 0.000000
0.662160 -0.517159 0.319210 0.600000 0.300000 0.000000
-0.575821 0.097050 0.061771 0.800000 0.200000 0.500000
0.643264 -0.029243 -0.156932 0.800000 0.200000 0.500000
0.493830 -0.013526 0.250912 0.300000 0.000000 0.600000
0.008986 0.061544 -0.127702 0.300000 0.000000 0.600000
0.496243 0.039225 0.287901 0.000000 0.000000 1.000000
0.463303 -0.002469 -0.203226 0.300000 0.000000 0.600000
-0.101697 0.039362 -0.205383 0.000000 1.000000 0.000000
0.083780 -0.002469 0.080775 0.300000 0.000000 0.600000
0.104268 0.097050 -0.338443 0.800000 0.200000 0.500000
0.358911 0.097050 0.004787 0.800000 0.200000 0.500000
0.554453 0.012706 0.239423 0.300000 0.000000 0.600000
0.370859 -0.002469 0.137235 0.300000 0.000000 0.600000
-0.028689 0.036687 0.239423 0.300000 0.000000 0.600000
0.211501 -0.049033 0.297601 1.000000 0.000000 0.000000
0.643264 -0.027851 0.182577 0.800000 0.200000 0.500000
0.156117 -0.000749 -0.346935 0.300000 0.600000 0.000000
0.546779 0.097050 -0.146069 0.800000 0.200000 0.500000
0.564504 0.039225 -0.264799 0.000000 0.500000 0.500000
-0.360953 -0.023671 0.032103 0.500000 0.500000 0.000000
-0.313740 0.061544 0.339651 0.600000 0.300000 0.000000
0.648336 -0.061650 0.140289 0.300000 0.600000 0.000000
-0.114187 0.061544 -0.301756 0.600000 0.300000 0.000000
0.365602 -0.005348 -0.346935 0.300000 0.600000 0.000000
0.628483 -0.019830 -0.208239 0.800000 0.200000 0.500000
0.016123 0.061544 -0.355375 0.600000 0.300000 0.000000
-0.285623 -0.023671 -0.028252 0.500000 0.500000 0.000000
0.612605 0.061544 0.161342 0.600000 0.000000 0.300000
0.429263 0.061544 -0.155947 0.600000 0.300000 0.000000
-0.303862 -0.026714 -0.328408 0.000000 0.000000 1.000000
-0.372570 -0.002469 -0.241233 0.300000 0.000000 0.600000
-0.294846 0.061544 -0.347733 0.600000 0.300000 0.000000
-0.367164 0.061544 -0.310612 0.600000 0.300000 0.000000
0.506650 0.056438 -0.346935 0.500000 0.000000 0.500000
-0.508337 0.061544 -0.244719 0.600000 0.300000 0.000000
-0.050952 -0.002469 -0.255926 0.300000 0.000000 0.600000
0.080128 0.086905 0.213282 0.800000 0.200000 0.500000
0.502653 0.061544 0.169028 0.600000 0.300000 0.000000
0.362652 0.060601 -0.346935 0.300000 0.600000 0.000000
0.670470 0.097050 0.032775 1.000000 0.000000 0.000000
-0.369448 -0.013526 0.131237 0.500000 0.500000 0.000000
-0.212751 -0.023671 0.235307 0.500000 0.500000 0.000000
0.702885 0.061761 0.065553 1.000000 0.000000 0.000000
0.587834 0.100093 -0.335450 0.800000 0.200000 0.500000
-0.232692 0.086905 -0.025941 0.600000 0.300000 0.000000
-0.604010 -0.353909 0.335665 0.600000 0.000000 0.300000
0.609131 -0.566517 0.324726 0.600000 0.300000 0.000000
0.054150 -0.002469 0.021938 0.300000 0.000000 0.600000
-0.157313 -0.002469 -0.257702 0.300000 0.000000 0.600000
0.189320 0.097050 -0.004579 0.800000 0.200000 0.500000
-0.602526 0.097050 0.251626 0.800000 0.200000 0.500000
0.179977 -0.049033 0.222532 1.000000 0.000000 0.000000
0.498991 0.033610 -0.267807 0.300000 0.000000 0.600000
0.011958 -0.049033 0.020052 0.000000 1.000000 0.000000
-0.230437 0.086905 0.164853 0.600000 0.300000 0.000000
-0.635695 -0.516962 -0.307445 0.300000 0.000000 0.600000
-0.609206 -0.748209 0.283008 0.600000 0.000000 0.300000
0.157535 0.097050 -0.223000 0.800000 0.200000 0.500000
-0.211819 -0.002469 0.182465 0.300000 0.000000 0.600000
-0.595940 -0.388686 0.275762 0.600000 0.000000 0.300000
-0.117165 -0.049033 0.299868 1.000000 0.000000 0.000000
0.568536 -0.086450 -0.355031 0.300000 0.600000 0.000000
0.491438 0.097050 0.105998 0.800000 0.200000 0.500000
-0.119585 0.061544 0.321482 0.600000 0.300000 0.000000
-0.430564 -0.002469 0.192466 0.300000 0.000000 0.600000
-0.579098 -0.185666 -0.363552 0.300000 0.000000 0.600000
-0.173071 0.097050 0.060230 0.800000 0.200000 0.500000
-0.275913 0.100093 0.340416 0.800000 0.200000 0.500000
-0.381141 0.086905 0.192845 0.600000 0.300000 0.000000
-0.321720 0.097050 -0.250326 0.800000 0.200000 0.500000
-0.161128 0.006998 0.340260 0.800000 0.200000 0.500000
0.093896 0.039186 -0.267807 0.300000 0.000000 0.600000
-0.305524 0.061544 -0.117355 0.600000 0.300000 0.000000
-0.648145 -0.079484 0.223122 0.600000 0.000000 0.300000
0.233614 0.086905 -0.055213 0.600000 0.300000 0.000000
-0.041229 0.086905 -0.315455 0.600000 0.300000 0.000000
0.658392 -0.704061 0.315709 0.600000 0.300000 0.000000
-0.101177 0.054371 -0.346935 0.500000 0.000000 0.500000
0.193188 0.002572 0.337826 0.300000 0.600000 0.000000
0.023356 -0.049033 -0.095451 0.000000 1.000000 0.000000
0.501216 -0.013526 0.080138 0.300000 0.000000 0.600000
-0.620482 -0.155576 0.339662 0.600000 0.000000 0.300000
0.626602 -0.055336 -0.075498 0.800000 0.200000 0.500000
0.185640 0.061544 -0.094133 0.600000 0.300000 0.000000
0.668484 -0.055636 -0.049846 0.300000 0.600000 0.000000
0.348057 0.098846 0.239423 0.800000 0.200000 0.500000
0.634461 -0.108055 0.340621 0.600000 0.300000 0.000000
0.267578 0.061544 0.138108 0.600000 0.300000 0.000000
0.614123 -0.028780 -0.298241 0.300000 0.000000 0.600000
0.130602 0.086905 -0.293883 0.000000 0.000000 1.000000
-0.222071 0.086905 -0.362504 0.000000 0.000000 1.000000
0.670654 0.039985 -0.261878 0.300000 0.600000 0.000000
-0.648145 0.036065 0.252869 0.600000 0.000000 0.300000
0.389630 0.100093 0.274624 0.800000 0.200000 0.500000
0.374022 0.017844 0.239423 0.300000 0.000000 0.600000
-0.557669 -0.023671 0.170604 0.500000 0.500000 0.000000
-0.594102 0.044881 -0.298241 0.600000 0.300000 0.000000
-0.159570 -0.002469 0.201973 0.300000 0.000000 0.600000
-0.436978 0.061544 0.147104 0.600000 0.300000 0.000000
-0.304427 -0.023671 0.188868 0.500000 0.500000 0.000000
