ply
format ascii 1.0
element vertex 1266
property float x
property float y
property float z
property uchar red
property uchar green
property uchar blue
end_header
0.653939 -0.325492 0.003889 76 0 153
0.332684 -0.158056 -0.130032 76 0 153
-0.259055 0.398823 -0.436921 76 0 153
-0.622437 -0.083928 -0.125252 76 0 153
-0.535442 -0.205292 0.495930 127 0 127
-0.576363 -0.120997 0.363337 76 0 153
-0.008593 0.393173 0.257427 76 0 153
-0.076849 0.059165 -0.464284 76 0 153
-0.514965 -0.368264 -0.243508 76 0 153
-0.620922 0.368765 0.120142 76 0 153
0.218980 -0.238032 -0.059501 76 0 153
-0.543074 -0.368264 0.096949 76 0 153
-0.314843 -0.238032 -0.137951 76 0 153
0.004100 0.222827 0.797587 0 127 127
0.662488 -0.025922 0.261328 76 0 153
0.666888 -0.063075 -0.546351 76 0 153
0.235616 0.333044 -0.276472 76 0 153
-0.331697 0.399823 -0.196124 76 0 153
0.342499 -0.259650 0.363597 76 0 153
0.058296 -0.163309 -0.543692 76 0 153
0.591948 0.393240 -0.333157 76 0 153
0.153299 -0.139697 -0.464284 76 0 153
0.332538 -0.175692 0.009467 76 0 153
0.452751 -0.364938 0.378856 76 0 153
0.668492 0.185423 0.092290 76 0 153
-0.169437 0.322537 -0.464284 76 0 153
-0.584418 0.160241 0.352518 76 0 153
0.662488 0.172412 0.129355 76 0 153
0.137251 0.393173 -0.457182 76 0 153
-0.018476 -0.238032 0.099401 76 0 153
-0.267570 -0.074646 -0.610379 76 0 153
-0.352501 0.393173 -0.313557 76 0 153
0.004468 -0.362169 0.177639 76 0 153
-0.555658 0.124176 -0.443200 76 0 153
0.332684 -0.037367 0.212714 76 0 153
-0.359227 -0.028651 -0.464284 76 0 153
-0.615787 0.134415 0.095678 76 0 153
0.120214 0.333044 0.219159 76 0 153
0.358065 0.196533 -0.562891 76 0 153
-0.437830 0.399823 0.104711 76 0 153
-0.195087 0.267153 0.631265 127 0 127
0.220137 0.366608 0.363528 76 0 153
-0.555658 -0.123608 -0.453590 76 0 153
-0.622437 0.034716 0.223699 76 0 153
-0.304459 0.177361 -0.595856 76 0 153
-0.022772 0.398932 -0.499866 76 0 153
-0.398190 -0.356750 0.319700 76 0 153
0.659698 0.391044 -0.154872 76 0 153
-0.593766 0.384779 -0.129227 76 0 153
-0.615787 -0.164527 -0.188329 76 0 153
-0.000715 0.261793 -0.464284 76 0 153
0.066966 -0.368264 0.118627 76 0 153
-0.564528 0.399820 -0.424837 76 0 153
-0.311578 0.333044 0.026287 76 0 153
-0.450037 -0.362411 -0.355386 76 0 153
0.361106 0.399823 -0.237551 76 0 153
0.104679 -0.238032 0.075146 76 0 153
-0.567508 -0.104033 -0.546690 76 0 153
-0.541788 0.095948 -0.464284 76 0 153
0.049995 -0.238032 -0.146191 76 0 153
-0.128849 0.171750 -0.606477 76 0 153
-0.215636 -0.238032 -0.237691 76 0 153
0.668138 -0.178665 -0.010269 76 0 153
-0.659459 -0.107418 0.437888 127 0 127
0.659524 -0.356313 -0.053035 76 0 153
0.620640 0.399747 -0.012013 76 0 153
-0.157400 -0.216594 -0.363060 76 0 153
0.173459 -0.368264 -0.058070 76 0 153
0.327659 -0.368264 -0.474537 76 0 153
-0.346946 -0.238032 0.080195 76 0 153
-0.329846 0.363044 -0.552038 76 0 153
0.656215 0.003380 -0.500937 76 0 153
0.042488 -0.247859 -0.540755 76 0 153
-0.188444 0.333044 0.078506 76 0 153
0.332684 0.116694 0.162492 76 0 153
0.316820 0.084401 -0.043905 76 0 153
0.396137 -0.012027 0.371312 76 0 153
-0.178212 -0.081529 0.136172 204 51 127
0.202551 -0.183689 -0.551808 76 0 153
-0.511564 -0.234654 0.201331 76 0 153
0.341072 -0.115250 0.362759 76 0 153
-0.332791 -0.355920 0.321937 76 0 153
-0.622437 -0.152712 0.169510 76 0 153
0.332684 0.135591 0.225430 76 0 153
-0.378434 0.398731 0.556893 127 0 127
0.669138 0.097272 -0.476517 76 0 153
0.332684 0.175829 -0.360525 76 0 153
-0.622437 0.316130 0.175294 76 0 153
-0.154472 -0.057368 -0.610379 76 0 153
-0.353033 0.333044 -0.308539 76 0 153
-0.028250 -0.368220 0.331311 76 0 153
0.330539 0.285888 -0.069130 76 0 153
-0.406857 -0.361612 0.026866 76 0 153
-0.492454 -0.239186 -0.540274 76 0 153
0.031155 -0.238032 0.357138 76 0 153
-0.079980 0.366392 -0.552985 76 0 153
-0.385384 -0.356122 -0.486762 76 0 153
0.117633 -0.020166 0.898734 127 0 127
0.140718 0.156470 0.816668 127 0 127
-0.314860 0.393173 -0.445786 76 0 153
-0.277578 0.333044 -0.232956 76 0 153
0.166774 0.333044 0.234450 76 0 153
-0.459164 0.393173 -0.417261 76 0 153
-0.361375 -0.136718 -0.585030 76 0 153
-0.349747 -0.238032 -0.344074 76 0 153
-0.020378 -0.327208 0.351260 76 0 153
0.482378 -0.362445 0.171891 76 0 153
0.130772 -0.231501 0.115375 76 0 153
-0.143224 -0.238032 0.016221 76 0 153
0.343497 -0.310699 0.363651 76 0 153
0.654101 0.395946 -0.316032 76 0 153
0.647764 0.376666 0.336299 76 0 153
-0.099915 0.119264 -0.603848 76 0 153
-0.431582 0.393173 -0.042089 76 0 153
0.114873 0.333044 -0.162867 76 0 153
0.405333 0.141081 0.455784 76 0 153
-0.593381 -0.342188 0.171204 76 0 153
-0.332557 -0.362614 -0.216793 76 0 153
0.227842 0.067264 -0.464284 76 0 153
-0.059768 -0.331956 0.349511 76 0 153
-0.334149 -0.095240 -0.464284 76 0 153
0.430572 -0.368264 -0.291778 76 0 153
-0.149260 0.008150 0.161220 204 51 127
-0.182941 0.218561 -0.549646 76 0 153
-0.543236 -0.027302 -0.464284 76 0 153
0.616708 -0.343095 0.344741 76 0 153
0.375714 -0.099790 0.363057 76 0 153
-0.498509 -0.023031 -0.464284 76 0 153
0.384854 0.258370 0.363376 76 0 153
0.668952 -0.310784 -0.233364 76 0 153
0.544359 0.393173 -0.420774 76 0 153
-0.473277 0.399347 -0.501701 76 0 153
0.669138 -0.190638 -0.409060 76 0 153
-0.149613 -0.222169 -0.179778 76 0 153
0.532297 -0.361614 -0.286407 76 0 153
-0.012443 0.002959 -0.610379 76 0 153
-0.185564 -0.368264 0.151909 76 0 153
0.208851 0.180903 -0.589015 76 0 153
0.096318 -0.238032 0.324807 76 0 153
-0.300571 0.333044 -0.142736 76 0 153
-0.478019 -0.002668 0.517067 0 127 127
-0.073091 0.398823 -0.431678 76 0 153
0.332684 -0.167365 -0.330555 76 0 153
-0.471613 0.074442 -0.540437 76 0 153
-0.504433 -0.399296 -0.468294 127 0 127
-0.491270 -0.152689 -0.464284 76 0 153
-0.581836 0.399559 0.233812 76 0 153
0.330142 0.393173 -0.033288 76 0 153
-0.124915 -0.148816 0.169008 204 51 127
-0.101710 0.147279 0.735464 0 127 127
0.623365 -0.353444 -0.075353 76 0 153
-0.553442 -0.191133 -0.212580 76 0 153
-0.076512 -0.235874 0.684672 127 0 127
-0.053105 -0.206306 -0.336702 76 0 153
0.010753 0.333044 -0.458825 76 0 153
-0.432238 -0.266401 0.581211 127 0 127
-0.618097 -0.059189 0.355438 76 0 153
-0.033421 -0.276348 0.357330 76 0 153
0.225938 0.114517 -0.610378 76 0 153
0.332684 0.249685 0.346575 76 0 153
-0.101251 -0.324862 0.772184 127 0 127
-0.038148 -0.238032 -0.148742 76 0 153
-0.622437 0.042764 -0.496660 76 0 153
-0.171958 -0.218084 0.679155 127 0 127
0.148029 -0.368264 -0.018387 76 0 153
0.624446 0.347012 -0.550405 76 0 153
-0.215231 -0.105856 0.669967 0 127 127
-0.284877 -0.362613 -0.185307 76 0 153
-0.446350 0.399823 0.288859 76 0 153
0.220587 -0.367408 0.872548 127 0 127
0.498539 0.393173 -0.099461 76 0 153
0.273271 -0.237500 0.341476 76 0 153
-0.615787 0.302940 0.201148 76 0 153
0.189006 -0.173128 -0.464284 76 0 153
-0.152438 -0.210293 0.059173 204 51 127
0.192363 0.398823 0.272390 76 0 153
0.332684 -0.066766 -0.461525 76 0 153
0.135915 0.291752 -0.540274 76 0 153
-0.344676 -0.238032 -0.281587 76 0 153
-0.643946 0.254459 0.458061 127 0 127
-0.594580 -0.247124 0.371900 127 0 127
0.668267 -0.106892 -0.156194 76 0 153
-0.038628 0.367567 0.807174 127 0 127
-0.086728 -0.046378 -0.464284 76 0 153
-0.554817 0.275980 -0.302911 76 0 153
0.356168 0.390127 -0.499549 76 0 153
-0.131961 -0.222169 -0.136394 76 0 153
0.148057 -0.236477 -0.164833 76 0 153
-0.616769 -0.224760 0.068995 76 0 153
-0.254485 0.333044 -0.058871 76 0 153
-0.564508 0.185190 0.362350 76 0 153
-0.616835 -0.301598 0.141761 76 0 153
0.279678 0.375050 -0.524693 76 0 153
-0.166876 -0.141551 0.033730 204 51 127
0.604068 -0.358196 -0.104811 76 0 153
0.464494 -0.262960 0.439921 76 0 153
0.609883 0.399314 -0.285049 76 0 153
-0.056561 0.169944 0.761535 0 127 127
0.562726 -0.368264 0.004400 76 0 153
0.433304 0.239130 0.455784 127 127 0
-0.367538 0.270522 -0.464284 76 0 153
0.505824 -0.362255 0.161387 76 0 153
0.041857 0.333044 -0.376165 76 0 153
-0.022551 -0.361755 0.806554 127 0 127
0.669138 0.049408 -0.358555 76 0 153
0.418900 0.008420 0.455784 76 0 153
-0.305451 0.278962 -0.546924 76 0 153
0.097057 -0.322944 -0.549392 76 0 153
0.286158 -0.235661 -0.138508 76 0 153
-0.342593 0.078672 -0.464284 76 0 153
0.158056 -0.288077 0.363930 76 0 153
0.644180 0.381028 -0.223339 76 0 153
-0.118291 0.179414 -0.569528 76 0 153
0.669138 -0.173394 -0.334256 76 0 153
-0.354243 -0.067915 0.583923 127 0 127
-0.595388 -0.340775 0.220290 76 0 153
-0.051251 0.398823 -0.367822 76 0 153
0.172720 -0.238032 -0.220311 76 0 153
0.537787 -0.189687 0.455784 76 0 153
-0.478312 0.333044 0.006910 76 0 153
0.332684 -0.015714 0.338843 76 0 153
0.265725 0.393173 0.300008 76 0 153
0.332684 0.144544 -0.098094 76 0 153
-0.354200 -0.361612 0.262298 76 0 153
0.609450 0.399819 0.266845 76 0 153
-0.193441 -0.090875 0.077407 204 51 127
0.332684 0.238280 0.207609 76 0 153
0.316820 0.091057 -0.108651 76 0 153
0.178937 -0.361612 0.061903 76 0 153
-0.099157 0.333044 -0.425185 76 0 153
0.093788 0.102062 0.849439 0 127 127
0.594993 -0.368264 0.009871 76 0 153
-0.232542 -0.222169 0.083939 76 0 153
-0.621952 -0.320283 -0.377163 76 0 153
0.097342 0.313168 -0.546906 76 0 153
-0.164314 -0.135493 -0.464284 76 0 153
-0.514722 -0.384618 -0.496653 127 0 127
-0.330839 0.393173 0.282980 76 0 153
0.662488 -0.180071 -0.164012 76 0 153
-0.042565 0.393173 0.137862 76 0 153
0.069733 0.399373 0.046128 76 0 153
0.135006 -0.296808 -0.546670 76 0 153
-0.086601 0.019292 0.738433 127 0 127
-0.046385 0.388708 -0.504664 76 0 153
-0.155481 0.333044 -0.434363 76 0 153
0.316494 0.178913 0.074454 76 0 153
0.293174 0.150703 -0.599927 76 0 153
0.464489 -0.159685 -0.540275 76 0 153
-0.110579 0.333044 -0.390732 76 0 153
-0.098530 0.014257 -0.604560 76 0 153
0.332684 0.164047 0.273414 76 0 153
-0.380307 -0.368264 -0.258507 76 0 153
-0.343871 -0.206306 -0.238863 76 0 153
-0.460901 -0.238032 -0.143539 76 0 153
0.669138 0.018250 -0.449454 76 0 153
-0.466872 -0.294392 -0.546852 76 0 153
-0.224247 -0.356486 -0.557043 76 0 153
-0.099389 -0.343551 0.340325 76 0 153
-0.581798 -0.367126 0.286148 76 0 153
0.396137 -0.185590 0.390849 76 0 153
0.641017 -0.341315 0.281391 76 0 153
0.642077 0.383525 -0.404608 76 0 153
-0.510156 0.330249 0.203604 76 0 153
-0.334005 0.196190 -0.560121 76 0 153
-0.385468 0.389952 -0.501057 76 0 153
0.529510 -0.368190 -0.320902 0 127 127
-0.182454 -0.161811 0.044346 204 51 127
0.653276 -0.201407 0.455398 76 0 153
0.669137 -0.219373 -0.518325 76 0 153
0.657880 -0.260537 0.370784 76 0 153
-0.170068 -0.207773 0.080612 204 51 127
-0.622437 -0.161240 -0.287302 76 0 153
-0.404645 -0.238032 0.293070 76 0 153
-0.044724 0.333044 -0.011651 76 0 153
0.657880 -0.335427 0.363151 76 0 153
-0.060018 -0.222169 0.031945 76 0 153
-0.092785 -0.181176 0.037254 204 51 127
0.545869 0.396497 0.419659 76 0 153
-0.398605 -0.208028 -0.464284 76 0 153
-0.615787 0.202099 0.240301 76 0 153
0.173058 0.009707 -0.464284 76 0 153
-0.440245 0.246488 0.529530 127 0 127
0.650019 -0.361580 -0.155511 76 0 153
-0.305479 -0.048866 -0.464284 76 0 153
0.396137 0.245814 0.399285 76 0 153
0.145191 -0.368264 0.260869 76 0 153
-0.553756 0.284035 -0.405260 76 0 153
-0.244701 -0.368264 0.246022 76 0 153
-0.286423 -0.238032 -0.302739 76 0 153
0.197002 -0.212075 -0.115834 76 0 153
-0.504094 -0.236467 0.320534 76 0 153
-0.313393 0.127243 0.613256 0 127 127
0.532897 0.399823 0.299510 76 0 153
0.638549 -0.255804 0.344741 76 0 153
-0.382847 0.333044 0.291587 76 0 153
-0.519074 0.398515 0.460162 127 0 127
-0.517946 -0.125040 0.484443 127 0 127
-0.616667 -0.227585 0.094746 76 0 153
0.668736 0.298204 -0.117435 76 0 153
0.661056 -0.333040 0.435371 76 0 153
-0.370293 -0.328540 -0.551033 76 0 153
0.443162 0.357087 0.455784 127 127 0
-0.205315 0.399457 -0.241603 76 0 153
0.648663 0.375711 -0.194948 76 0 153
0.204656 -0.368264 -0.457396 76 0 153
-0.525454 0.323374 -0.014887 76 0 153
-0.087387 -0.102469 0.014488 204 51 127
-0.036791 -0.362232 -0.131441 76 0 153
0.647278 0.397727 0.223957 76 0 153
-0.555658 -0.172201 0.030594 76 0 153
0.266607 -0.360476 0.304639 76 0 153
-0.329352 0.333044 0.223569 76 0 153
0.396137 -0.109328 0.454294 76 0 153
-0.622437 0.277325 -0.288536 76 0 153
-0.555658 0.269499 -0.125062 76 0 153
0.616924 0.393526 -0.425579 76 0 153
-0.615801 0.319787 -0.015773 76 0 153
0.332684 -0.117295 -0.231737 76 0 153
0.174165 -0.221102 0.080496 76 0 153
-0.406550 -0.370277 -0.330035 127 0 127
-0.063219 -0.222169 -0.250690 76 0 153
0.225063 0.268952 0.933345 127 0 127
0.332684 -0.068101 -0.104153 76 0 153
-0.623493 0.235729 0.366414 127 0 127
-0.586706 -0.301485 0.353667 76 153 0
-0.627285 0.072172 0.370301 127 0 127
-0.198682 0.333044 -0.085779 76 0 153
-0.414174 0.393173 0.120388 76 0 153
0.126911 -0.170012 -0.559465 76 0 153
-0.172688 -0.222169 0.004988 76 0 153
-0.132189 -0.368264 0.109089 76 0 153
0.062014 0.387811 -0.506598 76 0 153
-0.033856 -0.238032 -0.222642 76 0 153
0.191920 -0.362124 -0.296334 76 0 153
0.252965 -0.361612 -0.157159 76 0 153
0.107977 -0.070142 -0.610379 76 0 153
-0.593559 -0.342054 -0.022982 76 0 153
0.668163 -0.080627 -0.108676 76 0 153
-0.555658 0.222712 -0.018338 76 0 153
0.505397 -0.361612 -0.219271 76 0 153
-0.168206 0.303713 -0.540857 76 0 153
0.396137 0.386092 0.452046 76 0 153
-0.366126 0.333044 -0.282322 76 0 153
0.409613 0.187354 -0.566733 76 0 153
-0.555658 -0.053403 0.265551 76 0 153
0.655563 -0.260417 0.438868 76 0 153
-0.222011 -0.009543 0.660262 127 0 127
-0.210036 -0.362570 0.145772 76 0 153
-0.202249 0.337102 0.598401 127 0 127
-0.349617 -0.239314 -0.546924 76 0 153
0.043117 -0.238032 0.163241 76 0 153
-0.143603 -0.004108 -0.610379 76 0 153
-0.555658 -0.126712 -0.057618 76 0 153
0.669007 -0.024031 -0.525092 76 0 153
-0.619488 0.376019 0.222108 76 0 153
0.332684 0.213792 -0.357962 76 0 153
-0.615787 -0.003618 -0.380963 76 0 153
0.058310 0.399569 -0.271081 76 0 153
0.376846 -0.361612 -0.105004 76 0 153
-0.555658 0.023975 -0.263283 76 0 153
-0.622437 -0.025162 0.067915 76 0 153
-0.435139 0.399823 -0.275549 76 0 153
-0.082706 0.344607 0.363001 76 0 153
0.280191 0.331601 0.239355 76 0 153
0.281534 -0.236412 0.005702 76 0 153
0.408246 -0.289020 0.344741 76 0 153
0.539485 -0.332064 0.344741 76 0 153
-0.159592 0.333044 -0.048637 76 0 153
-0.088370 0.097150 -0.610379 76 0 153
0.488226 -0.361797 0.070679 76 0 153
-0.132210 0.230568 -0.540282 76 0 153
0.276018 -0.092129 -0.464284 76 0 153
-0.616785 0.299970 -0.266645 76 0 153
-0.622437 -0.209607 -0.394073 76 0 153
-0.206111 -0.238032 0.152359 76 0 153
-0.476205 0.399823 0.077149 76 0 153
-0.555658 0.233553 -0.426314 76 0 153
-0.555658 0.059032 -0.188979 76 0 153
0.662488 0.057400 0.111573 76 0 153
-0.431813 -0.238032 -0.300034 76 0 153
-0.554312 -0.184801 -0.151339 76 0 153
0.270812 -0.237824 0.292191 76 0 153
-0.060140 -0.238032 -0.439134 76 0 153
-0.465853 0.333044 0.205990 76 0 153
-0.615787 -0.077442 -0.320127 76 0 153
0.365288 0.393173 -0.063523 76 0 153
0.451240 0.399823 -0.023002 76 0 153
-0.069478 -0.206306 0.246102 76 0 153
-0.622437 -0.174321 -0.504455 76 0 153
-0.100418 -0.238032 -0.219527 76 0 153
-0.543582 0.305977 0.237304 76 0 153
-0.615787 -0.196951 0.223829 76 0 153
0.596911 0.394235 -0.559556 76 0 153
-0.155570 -0.238032 0.055495 76 0 153
0.220256 -0.238032 0.357178 76 0 153
-0.589734 -0.086042 0.374692 127 0 127
-0.555658 0.168366 0.296152 76 0 153
-0.515356 -0.399481 -0.413726 127 0 127
-0.425000 0.399823 -0.126438 76 0 153
0.288723 -0.212838 -0.464284 76 0 153
-0.538102 0.098609 0.496511 127 0 127
0.009322 0.398554 0.795647 127 0 127
-0.658446 0.323726 0.429014 127 0 127
0.330773 -0.165921 0.361771 76 0 153
0.662488 -0.038128 0.200589 76 0 153
-0.622437 -0.039996 0.263849 76 0 153
0.257410 0.393173 0.131154 76 0 153
-0.604785 -0.360761 0.333492 76 0 153
-0.361638 0.344706 -0.538927 76 0 153
-0.622345 0.342044 -0.119890 76 0 153
-0.622437 -0.266331 0.152316 76 0 153
0.319287 0.399823 0.249997 76 0 153
0.095329 -0.238032 0.351112 76 0 153
0.494188 0.246915 -0.546905 76 0 153
-0.171511 -0.238032 -0.031140 76 0 153
0.307759 0.225327 0.033251 76 0 153
0.642988 -0.339722 -0.189441 76 0 153
0.450535 0.399823 0.181293 76 0 153
-0.615787 0.224961 0.176983 76 0 153
-0.091719 -0.238032 -0.114555 76 0 153
0.332684 0.029828 -0.377804 76 0 153
0.554596 0.311176 0.455784 127 127 0
-0.616412 0.151955 -0.251127 76 0 153
-0.417841 -0.369144 -0.527897 127 0 127
0.010100 -0.300583 0.721001 127 0 127
-0.658613 -0.179038 0.444692 127 0 127
-0.284438 -0.022230 0.624223 127 0 127
-0.046701 -0.158962 0.045977 204 51 127
-0.110760 -0.151552 0.004308 204 51 127
0.143338 -0.321003 0.353552 76 0 153
-0.329378 -0.368264 -0.269982 76 0 153
-0.511165 0.329831 -0.463572 76 0 153
-0.209058 -0.238032 -0.034790 76 0 153
-0.148835 0.393173 -0.115352 76 0 153
0.525064 0.169004 0.463716 255 0 0
0.036204 -0.238032 -0.341226 76 0 153
-0.486458 -0.269102 0.363603 76 0 153
-0.023480 -0.362320 0.236033 76 0 153
-0.361407 0.333044 0.124363 76 0 153
0.668367 -0.270183 -0.340480 76 0 153
-0.226209 0.399823 -0.178542 76 0 153
-0.206857 -0.238032 -0.431527 76 0 153
0.124855 0.333044 -0.319482 76 0 153
0.167956 -0.349803 -0.504075 76 0 153
-0.531383 -0.223813 -0.017038 76 0 153
-0.240527 0.399823 0.071076 76 0 153
-0.131911 -0.238032 -0.223560 76 0 153
-0.013760 -0.222169 -0.259565 76 0 153
-0.639389 0.347328 0.390717 127 0 127
-0.528596 0.393173 -0.327505 76 0 153
-0.187626 -0.368264 0.021646 76 0 153
-0.622299 -0.147673 -0.529629 76 0 153
0.013909 -0.222169 -0.125798 76 0 153
-0.065584 -0.076034 0.756327 0 127 127
-0.571692 -0.368121 0.048902 76 0 153
-0.439527 0.367962 0.461518 127 0 127
0.669138 0.338402 -0.407979 76 0 153
0.311924 0.399823 0.219734 76 0 153
0.218102 -0.238032 0.304601 76 0 153
0.332684 0.020734 -0.253134 76 0 153
-0.362215 -0.368264 0.022593 76 0 153
-0.059348 0.398649 -0.550899 76 0 153
0.417382 0.396497 0.430607 76 0 153
-0.498601 -0.294392 0.363930 76 0 153
0.165731 0.207836 -0.540919 76 0 153
0.089055 -0.367358 0.787536 127 0 127
0.309631 0.227766 -0.033383 76 0 153
0.332684 0.031005 -0.329098 76 0 153
0.305909 -0.225731 0.076390 76 0 153
0.047223 -0.238032 -0.009583 76 0 153
-0.615859 -0.264041 -0.476088 76 0 153
0.198344 -0.312869 0.363908 76 0 153
-0.095074 -0.217402 0.746867 0 127 127
0.668138 -0.101703 0.031924 76 0 153
0.396137 -0.223319 0.360745 76 0 153
-0.246573 0.393173 0.042903 76 0 153
-0.280159 -0.362426 0.203605 76 0 153
-0.012305 -0.238032 -0.200267 76 0 153
-0.555658 0.230498 -0.364236 76 0 153
-0.419580 -0.347613 0.586568 127 0 127
0.029166 -0.206306 0.220527 76 0 153
-0.274452 -0.156689 -0.549514 76 0 153
0.669138 0.104935 -0.450804 76 0 153
-0.244993 -0.155229 0.646998 127 0 127
0.067960 -0.362118 -0.208471 76 0 153
0.116700 -0.132468 -0.594393 76 0 153
-0.501326 -0.368264 -0.176442 76 0 153
0.194852 0.399823 -0.334016 76 0 153
-0.246843 -0.237651 0.681908 127 0 127
0.341888 0.058539 -0.610379 76 0 153
0.527306 0.399823 0.108852 76 0 153
0.645443 0.379190 0.302663 76 0 153
-0.371931 -0.238032 -0.017911 76 0 153
-0.116974 0.272438 0.761620 127 0 127
0.231934 -0.260012 0.922027 127 0 127
0.316604 0.311195 0.027533 76 0 153
-0.206333 0.398823 -0.324508 76 0 153
-0.615776 0.387335 -0.247496 76 0 153
-0.490276 -0.367335 0.450740 127 0 127
-0.430150 0.333044 0.095038 76 0 153
-0.043566 0.316138 -0.464284 76 0 153
-0.535611 -0.361967 0.032211 76 0 153
-0.254608 -0.367034 0.651725 127 0 127
-0.417246 -0.396828 -0.434374 127 0 127
0.332684 -0.162051 -0.260630 76 0 153
-0.103668 -0.325649 -0.530762 76 0 153
-0.317806 0.393173 -0.015373 76 0 153
0.316820 0.022410 -0.056745 76 0 153
0.631346 0.058291 -0.527343 76 0 153
0.589498 -0.384525 0.240349 76 153 0
-0.362049 0.397654 0.597399 127 0 127
-0.133232 -0.053464 0.711523 127 0 127
-0.371565 0.269978 0.507442 127 0 127
0.334977 -0.157613 -0.571944 76 0 153
0.396137 0.038020 0.415611 76 0 153
-0.587759 0.399427 0.026420 76 0 153
-0.589906 -0.344422 -0.167666 76 0 153
-0.622436 -0.113952 -0.516914 76 0 153
0.303024 0.399823 -0.211555 76 0 153
-0.230505 -0.238032 -0.178132 76 0 153
0.668058 0.361276 -0.018747 76 0 153
-0.542823 -0.368264 -0.078715 76 0 153
-0.512156 -0.234408 -0.414275 76 0 153
-0.622437 0.182568 0.163070 76 0 153
0.518373 -0.399970 -0.431309 0 127 127
-0.471902 -0.104966 0.520561 0 127 127
-0.011611 0.380039 0.349725 76 0 153
0.047929 -0.368264 -0.514474 76 0 153
0.004856 0.333044 -0.135588 76 0 153
-0.088900 -0.362613 -0.221013 76 0 153
0.457203 -0.250112 0.344741 76 0 153
-0.177144 -0.361982 0.299235 76 0 153
-0.546916 0.352396 0.515077 127 0 127
0.182906 -0.231097 -0.074872 76 0 153
-0.555658 -0.059800 -0.007567 76 0 153
-0.132551 -0.238032 0.347914 76 0 153
-0.613894 -0.316722 -0.556952 76 0 153
-0.058128 0.333044 -0.383066 76 0 153
-0.221655 -0.238032 -0.122085 76 0 153
-0.376979 -0.238032 0.044300 76 0 153
0.046100 0.372768 -0.527008 76 0 153
-0.118657 -0.238032 -0.434491 76 0 153
0.054049 0.333044 -0.290951 76 0 153
-0.359195 -0.238032 -0.374119 76 0 153
-0.257080 0.393173 -0.175930 76 0 153
-0.525284 -0.116981 0.458662 127 0 127
-0.028800 0.399083 -0.545782 76 0 153
-0.555658 0.134890 -0.033215 76 0 153
-0.591539 0.092151 -0.522344 76 0 153
0.332684 0.198753 -0.141722 76 0 153
-0.622160 -0.032787 -0.540618 76 0 153
-0.214085 0.333044 -0.195220 76 0 153
0.253630 0.333044 -0.460324 76 0 153
-0.615815 0.328174 -0.063473 76 0 153
0.331678 -0.182221 -0.430000 76 0 153
-0.026715 0.333044 0.017582 76 0 153
0.254018 0.399823 0.030453 76 0 153
0.247464 -0.238032 -0.140905 76 0 153
-0.418751 -0.170661 -0.547398 76 0 153
-0.622437 0.024509 -0.450314 76 0 153
0.662488 0.155475 0.281108 76 0 153
0.146558 -0.118871 -0.600297 76 0 153
-0.475854 0.001113 -0.540281 76 0 153
0.306094 0.320602 0.167717 76 0 153
0.316358 0.233260 0.126668 76 0 153
0.336345 0.399823 -0.365873 76 0 153
-0.145476 -0.368264 -0.346485 76 0 153
0.155098 -0.368264 -0.393550 76 0 153
0.518623 0.396497 0.361398 76 0 153
0.634157 0.386970 0.144189 76 0 153
0.059454 0.333044 -0.220677 76 0 153
-0.622437 0.161012 -0.367267 76 0 153
0.668893 -0.105746 -0.530560 76 0 153
-0.379512 -0.238032 -0.407374 76 0 153
0.580858 -0.222137 -0.540291 76 0 153
-0.512631 -0.217569 0.451713 127 0 127
-0.235173 0.333044 0.173876 76 0 153
-0.622437 -0.215948 0.301374 76 0 153
-0.598905 0.242904 -0.517556 76 0 153
-0.475018 0.182768 0.519911 0 127 127
-0.037958 0.003127 0.125742 204 51 127
-0.615787 0.094199 0.024842 76 0 153
0.090005 0.378686 0.767433 127 0 127
0.643812 0.121878 -0.518788 76 0 153
-0.432488 -0.368256 -0.293684 76 0 153
0.655466 -0.154150 -0.502202 76 0 153
-0.615787 -0.242109 -0.231756 76 0 153
0.344338 -0.361778 -0.455045 76 0 153
0.396137 -0.187919 0.421897 76 0 153
0.397432 -0.238032 0.406276 76 0 153
0.240089 0.157326 -0.464284 76 0 153
-0.127458 -0.047554 0.168673 204 51 127
0.332684 -0.079977 -0.065156 76 0 153
-0.622437 0.005490 0.264338 76 0 153
0.332684 0.246631 0.256021 76 0 153
-0.606155 -0.360000 -0.345661 76 0 153
0.148391 -0.247818 -0.546924 76 0 153
0.645618 0.379516 -0.489209 76 0 153
0.462899 -0.185523 -0.540274 76 0 153
-0.231613 0.148451 -0.610186 76 0 153
-0.100366 0.323467 -0.540969 76 0 153
-0.587988 0.214221 0.375698 127 0 127
-0.312389 0.072157 -0.464284 76 0 153
-0.555658 0.117478 -0.367030 76 0 153
-0.217247 0.277856 -0.540552 76 0 153
-0.457889 0.333044 0.134520 76 0 153
-0.465020 0.399823 0.134320 76 0 153
-0.555658 0.088321 -0.409206 76 0 153
0.137663 -0.238032 0.045576 76 0 153
-0.622437 0.124459 -0.316899 76 0 153
0.162612 0.310095 -0.464284 76 0 153
-0.230354 0.333044 -0.030057 76 0 153
-0.516572 0.393173 -0.302916 76 0 153
-0.490718 -0.238032 -0.456923 76 0 153
-0.549318 0.185740 -0.546766 76 0 153
-0.053347 -0.208320 0.097728 204 51 127
0.043265 -0.222614 0.799411 127 0 127
-0.389555 0.393173 0.184595 76 0 153
0.379917 0.352080 0.363670 76 0 153
-0.622437 -0.092962 -0.445461 76 0 153
0.044859 -0.222169 -0.084400 76 0 153
-0.292443 -0.238032 0.234460 76 0 153
-0.565733 0.393376 -0.306619 76 0 153
-0.149048 -0.196157 -0.540322 76 0 153
-0.115743 0.393173 -0.290977 76 0 153
0.165908 0.393173 -0.340939 76 0 153
0.332684 -0.039686 0.254582 76 0 153
0.077847 0.399799 -0.404802 76 0 153
-0.548405 -0.361613 -0.555754 127 0 127
-0.481398 0.358470 -0.534891 76 0 153
-0.579096 -0.351796 0.241252 76 0 153
-0.615787 -0.125402 0.249832 76 0 153
-0.367774 -0.189023 0.582171 0 127 127
0.634060 -0.343302 -0.473437 76 0 153
-0.659512 -0.224048 0.436957 127 0 127
0.518511 -0.361635 0.136367 76 0 153
-0.093388 0.333044 -0.085922 76 0 153
0.461614 -0.368264 -0.197494 76 0 153
0.573193 -0.198606 0.455784 76 0 153
-0.324812 0.333044 -0.097615 76 0 153
0.549492 0.099929 0.455784 76 0 153
-0.658570 -0.159741 0.429407 127 0 127
-0.622025 -0.318888 -0.458278 76 0 153
-0.454555 -0.368264 -0.144900 76 0 153
0.149121 0.393173 -0.074660 76 0 153
0.244417 -0.318528 -0.548320 76 0 153
-0.391432 0.333044 -0.158049 76 0 153
-0.487876 -0.367961 0.338439 76 0 153
-0.396499 -0.064102 -0.573863 76 0 153
0.665812 -0.080187 0.378243 76 0 153
0.476980 -0.135686 0.455784 76 0 153
0.638687 0.183552 -0.522307 76 0 153
-0.622437 0.140529 -0.440185 76 0 153
-0.069564 0.333044 0.220815 76 0 153
-0.213494 -0.222169 -0.016490 76 0 153
0.315634 -0.217446 -0.434794 76 0 153
-0.601949 0.375363 0.087570 76 0 153
-0.446167 -0.361612 -0.119732 76 0 153
0.668877 0.290947 -0.534073 76 0 153
-0.134373 -0.238032 -0.155305 76 0 153
-0.522147 -0.092683 0.413946 127 0 127
0.004196 -0.352451 -0.499663 76 0 153
-0.377932 -0.236396 -0.148635 76 0 153
0.230991 0.204038 -0.540898 76 0 153
-0.555658 0.131815 0.120297 76 0 153
0.332684 -0.020513 -0.314177 76 0 153
-0.549856 -0.199791 0.187378 76 0 153
0.176532 0.023236 -0.610379 76 0 153
-0.512454 0.129205 0.430731 127 0 127
-0.131176 -0.238032 0.086854 76 0 153
0.049950 -0.222169 0.030598 76 0 153
0.451984 -0.227420 0.455784 76 0 153
0.662664 -0.165765 0.340048 76 0 153
0.651934 0.114837 -0.556200 76 0 153
-0.278117 -0.368264 0.074499 76 0 153
-0.622437 -0.126460 -0.051209 76 0 153
0.033942 0.398596 0.763652 127 0 127
-0.169873 0.393173 -0.185847 76 0 153
0.519978 -0.264668 -0.546924 76 0 153
-0.254365 0.333044 0.189233 76 0 153
0.032566 -0.323262 0.849352 127 0 127
-0.160295 -0.238032 -0.260336 76 0 153
-0.563343 -0.369374 -0.496303 127 0 127
0.630199 -0.348799 0.181004 76 0 153
-0.142512 -0.276524 0.748159 127 0 127
-0.324511 -0.238032 0.258134 76 0 153
-0.226463 0.330409 -0.540844 76 0 153
0.526836 0.393173 0.013217 76 0 153
0.134309 -0.018762 0.825851 127 0 127
0.043611 0.399395 -0.465242 76 0 153
0.070107 0.393173 -0.065559 76 0 153
-0.427183 0.333044 -0.380775 76 0 153
0.626261 0.020511 0.455784 76 0 153
0.192590 0.116983 -0.604046 76 0 153
0.293787 -0.232501 -0.224312 76 0 153
-0.182212 0.041577 -0.604571 76 0 153
0.262982 0.393173 0.084198 76 0 153
-0.034215 -0.134173 0.058281 204 51 127
-0.058606 -0.215892 0.746346 127 0 127
0.082263 -0.238032 0.274359 76 0 153
0.101551 -0.238032 0.297619 76 0 153
0.662488 0.100014 -0.311051 76 0 153
0.157191 0.333044 0.259511 76 0 153
0.145629 -0.361612 -0.143216 76 0 153
-0.160721 0.037055 -0.464284 76 0 153
-0.555658 0.221471 -0.289673 76 0 153
0.277405 0.295110 -0.546924 76 0 153
-0.268722 0.031071 -0.464284 76 0 153
-0.318656 0.305552 -0.464284 76 0 153
-0.372053 0.199334 -0.540491 76 0 153
0.428264 0.399823 0.045653 76 0 153
-0.070185 0.333044 0.125618 76 0 153
0.323388 0.365506 -0.532858 76 0 153
-0.105690 -0.224251 -0.546911 76 0 153
0.618708 -0.041534 0.455784 76 0 153
-0.555658 -0.129132 -0.229736 76 0 153
-0.554796 0.276136 -0.251036 76 0 153
-0.312828 0.399823 -0.153852 76 0 153
-0.148370 -0.108964 0.155205 204 51 127
0.184460 -0.185253 0.937318 127 0 127
0.236314 0.337057 0.361502 76 0 153
-0.300964 -0.194707 -0.540331 76 0 153
-0.028332 -0.005434 0.086527 204 51 127
-0.138863 0.336010 0.749981 127 0 127
-0.562913 -0.191380 0.358682 76 0 153
-0.014653 -0.238032 -0.436612 76 0 153
0.668135 -0.008020 0.326754 76 0 153
-0.187187 0.390909 0.333842 76 0 153
0.668265 -0.258061 -0.282195 76 0 153
0.008195 0.333402 -0.540978 76 0 153
0.662488 0.038342 0.143237 76 0 153
-0.046007 0.398684 0.706836 127 0 127
-0.191707 -0.092627 -0.464284 76 0 153
-0.346975 -0.222169 -0.172145 76 0 153
-0.033998 -0.135861 -0.608477 76 0 153
0.419276 -0.368278 -0.512453 0 127 127
-0.422442 0.048871 -0.464284 76 0 153
-0.622437 0.326711 -0.487030 76 0 153
-0.634870 -0.020354 0.382929 127 0 127
0.332684 -0.126058 -0.126758 76 0 153
-0.622437 -0.281825 -0.124594 76 0 153
0.434761 0.243365 -0.546840 76 0 153
0.122742 0.043183 0.901059 127 0 127
-0.555658 0.171523 -0.233435 76 0 153
-0.260152 -0.222169 0.157143 76 0 153
-0.555658 0.155185 0.090974 76 0 153
-0.357060 -0.368264 0.136235 76 0 153
0.314694 0.180295 0.035464 76 0 153
-0.051282 -0.366911 0.770254 127 0 127
-0.083425 -0.183255 0.132331 204 51 127
0.083806 0.399823 -0.150670 76 0 153
-0.052337 0.393173 -0.020736 76 0 153
0.145024 -0.368264 0.105247 76 0 153
-0.615787 0.097934 -0.433168 76 0 153
0.118691 0.045119 -0.464284 76 0 153
0.241211 -0.148356 0.905958 127 0 127
-0.110703 -0.007076 -0.610379 76 0 153
0.332684 0.010526 0.179382 76 0 153
-0.253250 -0.362613 -0.304318 76 0 153
-0.279069 0.245202 0.640845 0 127 127
-0.541345 -0.213880 0.316007 76 0 153
-0.456023 0.013727 -0.464284 76 0 153
0.332028 0.134845 0.138519 76 0 153
-0.616064 -0.132005 0.060560 76 0 153
0.603046 -0.372730 0.304895 76 153 0
0.135334 0.399823 -0.502358 76 0 153
0.571827 0.399823 0.288770 76 0 153
-0.179900 0.295812 0.726872 127 0 127
-0.615804 0.227553 -0.442331 76 0 153
-0.555658 -0.083582 0.023070 76 0 153
0.332684 0.062918 -0.372155 76 0 153
0.669087 -0.278359 0.042146 76 0 153
-0.564859 0.228921 -0.546438 76 0 153
0.667674 0.368492 -0.510265 76 0 153
0.065084 -0.207366 -0.307321 76 0 153
0.077164 0.214727 -0.540894 76 0 153
0.669138 0.074769 -0.408153 76 0 153
0.332684 -0.059375 -0.429173 76 0 153
-0.406432 0.399823 0.073220 76 0 153
0.332684 0.263321 -0.192187 76 0 153
0.575500 -0.361804 0.024312 76 0 153
-0.377438 -0.238032 -0.262434 76 0 153
-0.470567 -0.367467 0.484832 127 0 127
-0.286726 -0.238032 -0.447952 76 0 153
-0.083415 0.333044 -0.228512 76 0 153
0.137542 -0.198131 -0.464284 76 0 153
0.654018 -0.359363 -0.349086 76 0 153
-0.622437 0.292103 0.178903 76 0 153
-0.257960 0.333044 -0.445739 76 0 153
-0.047627 0.123246 0.765619 0 127 127
0.214665 0.399823 -0.256828 76 0 153
-0.049955 0.199976 -0.464284 76 0 153
-0.555658 0.129840 -0.129498 76 0 153
-0.555658 -0.028335 -0.102690 76 0 153
-0.113393 0.333044 0.006839 76 0 153
-0.199625 -0.238032 -0.272969 76 0 153
-0.067399 -0.158409 0.024681 204 51 127
0.392110 -0.003473 -0.600662 76 0 153
0.663279 0.201035 0.353028 76 0 153
0.573436 -0.081780 -0.546924 76 0 153
-0.306292 -0.238032 -0.180314 76 0 153
0.008464 -0.067432 0.793328 127 0 127
-0.316725 0.333044 0.341198 76 0 153
-0.044211 -0.359850 -0.470140 76 0 153
-0.353655 -0.361999 0.163263 76 0 153
-0.079627 -0.290125 -0.540315 76 0 153
-0.059861 -0.222169 0.124449 76 0 153
0.064160 -0.222169 0.063433 76 0 153
0.161012 -0.368264 -0.461379 76 0 153
0.427863 -0.157112 0.457521 0 0 255
0.640942 -0.365939 -0.439186 76 0 153
-0.615787 0.129598 -0.001044 76 0 153
0.554924 -0.398723 0.184330 76 153 0
0.309257 -0.033385 -0.464284 76 0 153
-0.098444 0.384886 -0.515795 76 0 153
-0.210463 -0.238032 0.128506 76 0 153
0.396137 -0.289921 0.438691 76 0 153
-0.506838 -0.361643 -0.355074 76 0 153
-0.547010 0.264031 -0.464284 76 0 153
0.504035 -0.375544 0.311954 76 153 0
0.250181 -0.107371 0.890396 127 0 127
-0.479024 0.398411 0.499598 127 0 127
0.018244 0.393173 0.182426 76 0 153
0.403685 -0.361612 -0.306241 76 0 153
-0.253742 -0.122758 -0.464284 76 0 153
0.332684 0.157986 -0.317246 76 0 153
-0.029129 -0.225686 -0.464284 76 0 153
-0.271796 0.239087 -0.546808 76 0 153
0.229974 -0.368264 -0.013854 76 0 153
-0.404963 0.333044 -0.255664 76 0 153
-0.471019 -0.092767 -0.464284 76 0 153
-0.616785 -0.272121 0.027304 76 0 153
0.183473 -0.206306 -0.072634 76 0 153
-0.234202 0.174562 0.658978 0 127 127
0.047296 -0.367373 0.761889 127 0 127
0.055242 -0.361268 0.853217 127 0 127
0.589813 -0.330552 -0.551276 76 0 153
0.625188 -0.367338 0.218703 76 0 153
-0.308530 -0.361250 -0.556871 76 0 153
-0.361051 -0.222169 0.021284 76 0 153
0.667491 0.348357 -0.544478 76 0 153
0.136083 0.333044 0.012772 76 0 153
0.184307 0.224821 -0.464284 76 0 153
0.524560 -0.368264 0.053343 76 0 153
-0.589720 0.386374 -0.501084 76 0 153
0.662488 0.115620 0.283991 76 0 153
-0.071303 -0.146535 0.747255 127 0 127
0.252431 0.298879 -0.464284 76 0 153
-0.406503 -0.318106 0.596042 127 0 127
0.239960 -0.361612 -0.039167 76 0 153
-0.172465 -0.362614 0.214445 76 0 153
-0.193377 -0.171504 0.083486 204 51 127
-0.102325 0.072564 -0.604114 76 0 153
-0.058389 0.341143 -0.546969 76 0 153
0.149940 -0.365422 0.814229 127 0 127
-0.143042 0.333044 -0.297399 76 0 153
0.332684 0.067751 0.196664 76 0 153
-0.299491 0.333044 0.144632 76 0 153
0.161852 0.369894 0.808705 127 0 127
-0.185291 0.333044 -0.306775 76 0 153
-0.369328 -0.335475 -0.524512 76 0 153
-0.185937 -0.222169 -0.239473 76 0 153
-0.411769 -0.149879 0.556453 0 127 127
-0.233474 -0.368264 -0.501447 76 0 153
-0.395699 -0.105245 -0.464284 76 0 153
-0.615787 0.113442 0.208899 76 0 153
-0.474523 -0.385570 0.298690 153 0 76
0.463429 -0.008809 0.463716 76 153 0
0.515182 -0.372780 -0.379256 76 0 153
-0.622437 0.330753 -0.426183 76 0 153
0.662488 0.245833 0.259088 76 0 153
0.601848 -0.285151 -0.546765 76 0 153
0.669138 -0.020291 -0.244765 76 0 153
0.179554 -0.361612 -0.093909 76 0 153
-0.622437 0.045535 0.009119 76 0 153
-0.291151 0.058057 -0.464284 76 0 153
-0.063305 -0.368049 0.340215 76 0 153
0.424682 -0.112345 -0.569987 76 0 153
-0.622437 0.218233 0.275122 76 0 153
0.662488 -0.167532 0.180345 76 0 153
-0.438674 0.066302 -0.540858 76 0 153
0.332684 -0.153776 0.233765 76 0 153
0.446332 0.399823 -0.077232 76 0 153
0.065405 0.393173 -0.089229 76 0 153
0.437397 -0.368154 0.332882 76 0 153
-0.121736 -0.289697 -0.540312 76 0 153
-0.477199 0.343714 0.439661 127 0 127
-0.467783 0.393173 -0.370865 76 0 153
-0.016445 -0.222169 0.026967 76 0 153
-0.281971 0.120116 0.625647 127 0 127
-0.036600 0.202537 0.773053 0 127 127
-0.107565 -0.238032 -0.154435 76 0 153
0.669138 -0.107636 -0.330895 76 0 153
-0.018709 -0.238032 0.179718 76 0 153
0.596537 0.286645 -0.538661 76 0 153
0.479664 -0.361653 -0.358763 76 0 153
-0.572330 0.153928 0.384737 127 0 127
0.256298 -0.351603 -0.501269 76 0 153
-0.555658 -0.011761 -0.346208 76 0 153
-0.555658 0.171469 -0.107585 76 0 153
0.227681 0.393173 0.039535 76 0 153
-0.500689 -0.132866 0.499376 127 0 127
0.121618 0.173537 -0.464284 76 0 153
0.203577 0.333044 -0.403917 76 0 153
0.227934 -0.368264 0.206584 76 0 153
0.435488 -0.361946 -0.037559 76 0 153
-0.613834 -0.315638 0.121445 76 0 153
0.668160 0.122439 -0.025192 76 0 153
0.430732 -0.220764 -0.546918 76 0 153
-0.348789 -0.238032 -0.061156 76 0 153
0.332684 -0.050674 -0.341631 76 0 153
0.005665 -0.368264 -0.202767 76 0 153
-0.100537 -0.121125 0.736139 0 127 127
0.454850 0.393173 -0.240925 76 0 153
0.056180 -0.238032 0.289631 76 0 153
0.668923 -0.154136 -0.281796 76 0 153
-0.491459 0.375133 0.431778 127 0 127
0.332684 0.216464 0.101126 76 0 153
-0.617024 0.329673 -0.553245 76 0 153
0.454306 -0.137165 0.463716 0 0 255
-0.416973 -0.227377 -0.053397 76 0 153
-0.622437 0.004761 0.030803 76 0 153
0.500939 0.286694 -0.540274 76 0 153
-0.008002 -0.209432 -0.546809 76 0 153
0.375931 0.393173 -0.284244 76 0 153
-0.473988 -0.060151 -0.464284 76 0 153
-0.078009 -0.222169 -0.203726 76 0 153
0.463918 -0.245964 0.369199 76 0 153
0.348451 -0.368264 -0.042001 76 0 153
0.391346 0.306021 0.362252 76 0 153
0.602381 -0.245964 0.352203 76 0 153
0.200020 0.399823 -0.163560 76 0 153
0.662488 -0.201030 0.084413 76 0 153
0.056776 0.333044 -0.000802 76 0 153
-0.255233 0.169769 0.646831 0 127 127
0.662488 -0.058888 -0.459057 76 0 153
0.662488 -0.106732 -0.025586 76 0 153
0.651422 0.396401 0.416048 76 0 153
-0.135573 -0.213031 0.227179 76 0 153
-0.313529 0.398823 -0.418591 76 0 153
-0.309514 -0.362613 -0.293859 76 0 153
-0.233167 0.068812 0.659576 0 127 127
-0.555658 0.208398 0.046495 76 0 153
-0.371238 -0.266744 0.616461 127 0 127
-0.304675 -0.238032 0.125937 76 0 153
-0.555658 0.201095 0.134140 76 0 153
0.049782 -0.361634 0.176826 76 0 153
0.192021 0.286798 -0.546924 76 0 153
-0.103296 0.266990 -0.546924 76 0 153
0.324832 -0.204740 -0.238198 76 0 153
-0.555658 0.131104 -0.314318 76 0 153
-0.137383 0.397166 -0.557608 76 0 153
-0.129485 -0.368264 0.041883 76 0 153
0.570108 0.079116 0.455784 76 0 153
-0.555658 -0.068603 0.076421 76 0 153
0.324422 -0.205728 0.276071 76 0 153
0.218025 0.320645 0.944485 127 0 127
-0.555658 -0.087747 0.271843 76 0 153
-0.000675 -0.222169 0.102161 76 0 153
-0.325245 -0.238032 0.230345 76 0 153
0.500108 0.393173 0.032419 76 0 153
0.607444 0.138566 0.457125 76 0 153
0.371749 0.282984 0.357359 76 0 153
-0.041187 0.112163 -0.610379 76 0 153
-0.287093 -0.336599 -0.523798 76 0 153
-0.133046 -0.002505 -0.464284 76 0 153
-0.020822 -0.222169 0.120435 76 0 153
-0.622437 -0.032712 -0.186349 76 0 153
-0.086461 0.267100 0.687785 127 0 127
-0.436303 -0.238032 -0.263570 76 0 153
0.023133 -0.238032 -0.437742 76 0 153
-0.287803 0.285165 -0.464284 76 0 153
0.420310 0.399823 -0.510755 76 0 153
-0.555658 -0.102664 -0.141240 76 0 153
0.659622 -0.315575 -0.428477 76 0 153
-0.328107 -0.238032 -0.026403 76 0 153
0.171559 -0.238032 0.325977 76 0 153
0.295336 -0.231859 -0.451274 76 0 153
-0.117864 -0.064453 -0.604303 76 0 153
0.252374 0.399823 0.054368 76 0 153
-0.565869 0.399820 -0.399164 76 0 153
-0.586781 0.399445 0.304950 76 0 153
0.511376 -0.364938 0.399359 76 0 153
0.669138 0.290902 -0.422395 76 0 153
-0.616660 -0.204888 0.042787 76 0 153
0.662543 -0.290412 0.288242 76 0 153
-0.550968 -0.363429 0.497581 127 0 127
0.569005 0.014386 0.455784 76 0 153
-0.078218 -0.238032 -0.362766 76 0 153
-0.203108 0.393173 0.186575 76 0 153
-0.621622 0.365062 -0.395632 76 0 153
-0.549178 0.047130 -0.546857 76 0 153
0.332684 -0.063804 -0.162084 76 0 153
-0.616190 0.337257 -0.097248 76 0 153
0.079448 -0.368264 -0.024956 76 0 153
-0.230008 0.333044 0.260698 76 0 153
0.665812 0.353988 0.420109 76 0 153
0.028037 -0.361858 0.254355 76 0 153
0.173239 0.333044 0.094680 76 0 153
0.160908 0.393173 -0.052212 76 0 153
0.166191 -0.337272 0.363613 76 0 153
0.042954 0.178432 0.813243 127 0 127
0.601941 0.396497 0.360645 76 0 153
-0.380828 -0.238032 0.306270 76 0 153
-0.555658 0.093383 0.076207 76 0 153
0.627964 -0.222519 -0.549694 76 0 153
0.525864 0.372803 -0.526758 76 0 153
-0.043726 0.393173 0.015657 76 0 153
-0.622437 0.156118 -0.153145 76 0 153
0.315852 -0.217163 -0.025375 76 0 153
-0.293541 -0.222169 -0.252412 76 0 153
0.244476 -0.118242 0.856418 127 0 127
0.234696 -0.348396 -0.555842 76 0 153
0.332684 0.195719 -0.020273 76 0 153
-0.403534 0.333044 -0.451850 76 0 153
0.428913 0.073331 0.455784 76 0 153
-0.622437 -0.180249 -0.001670 76 0 153
0.224598 -0.213965 0.934678 127 0 127
0.224744 -0.368264 -0.192342 76 0 153
-0.315353 -0.297026 -0.546819 76 0 153
0.012875 -0.293353 0.357362 76 0 153
0.007545 0.393173 -0.325669 76 0 153
-0.150589 -0.176750 0.130528 204 51 127
-0.457497 0.372410 0.363453 76 0 153
0.495651 -0.293878 0.439921 76 0 153
-0.160357 0.260052 0.676665 127 0 127
-0.622266 0.274268 0.337760 76 0 153
0.226050 -0.238032 -0.151488 76 0 153
0.332684 0.207670 -0.289400 76 0 153
-0.615787 0.270771 -0.019081 76 0 153
-0.047335 -0.348865 -0.505102 76 0 153
-0.102926 0.399312 0.286443 76 0 153
0.254862 -0.310380 0.864898 127 0 127
-0.552928 0.161296 -0.464284 76 0 153
-0.530584 -0.326578 -0.550586 76 0 153
-0.555658 0.233890 0.352825 76 0 153
0.311671 -0.221310 0.108522 76 0 153
0.244846 -0.368264 -0.211602 76 0 153
0.570303 -0.243959 0.359409 76 0 153
0.669138 0.004760 -0.307870 76 0 153
0.392689 -0.361957 0.170621 76 0 153
-0.622437 -0.204379 -0.349461 76 0 153
-0.094457 -0.136013 0.197670 204 51 127
0.105080 -0.211534 -0.464284 76 0 153
-0.105401 0.333044 0.330690 76 0 153
-0.125453 0.393173 -0.425364 76 0 153
0.316820 -0.037548 -0.025011 76 0 153
0.052742 -0.214160 -0.464284 76 0 153
-0.042406 -0.236307 0.797537 127 0 127
-0.492902 -0.368264 -0.106375 76 0 153
-0.555658 0.032079 -0.338192 76 0 153
0.547528 0.042142 -0.546924 76 0 153
-0.179098 0.058838 -0.464284 76 0 153
-0.013372 -0.205563 -0.464284 76 0 153
-0.436526 -0.367385 0.489572 127 0 127
-0.284619 0.300356 0.550848 127 0 127
0.541842 0.250254 0.455784 127 127 0
0.396719 0.171361 0.455784 76 0 153
-0.580167 -0.056416 0.354555 76 0 153
0.100994 0.396439 0.360851 76 0 153
-0.228981 0.399823 0.268295 76 0 153
-0.016851 -0.068755 -0.604062 76 0 153
-0.292630 -0.351849 0.546848 127 0 127
-0.495730 0.393173 -0.318061 76 0 153
-0.163345 -0.238032 -0.136430 76 0 153
-0.194841 0.333044 0.346291 76 0 153
0.515112 -0.246215 0.344741 76 0 153
-0.064805 0.398823 -0.300857 76 0 153
-0.068898 -0.362613 0.176839 76 0 153
0.662488 -0.204283 0.022460 76 0 153
0.158834 0.178106 -0.573468 76 0 153
0.429603 -0.048639 -0.580735 76 0 153
0.662488 0.255977 -0.413467 76 0 153
0.256734 0.010782 0.870233 127 0 127
0.668792 -0.240715 0.339764 76 0 153
0.303126 0.025070 -0.464284 76 0 153
0.133874 0.302650 0.907532 127 0 127
0.074562 -0.003615 -0.464284 76 0 153
0.617266 0.399404 -0.336709 76 0 153
0.332684 0.199046 0.234854 76 0 153
0.199987 -0.238032 -0.302666 76 0 153
0.197972 -0.352594 0.330043 76 0 153
0.579693 0.041670 0.463716 153 0 76
-0.005929 0.129085 -0.610363 76 0 153
-0.606123 -0.227064 0.333100 76 0 153
-0.262008 0.333044 -0.301027 76 0 153
0.490696 0.396497 0.424322 76 0 153
-0.258620 -0.222169 -0.233181 76 0 153
0.303436 -0.288728 0.357327 76 0 153
-0.015000 0.333044 0.185092 76 0 153
-0.227034 -0.362160 0.092631 76 0 153
0.159924 0.333044 0.125200 76 0 153
-0.590870 -0.038352 0.489087 127 0 127
0.011005 0.393173 -0.059534 76 0 153
-0.162572 -0.238032 0.171514 76 0 153
0.176340 0.393173 -0.380189 76 0 153
0.586279 -0.047670 -0.546924 76 0 153
0.137798 0.333044 -0.395259 76 0 153
-0.115993 -0.119836 0.182273 204 51 127
-0.615787 0.055371 0.146590 76 0 153
0.092130 -0.238032 -0.055521 76 0 153
0.114310 0.013355 -0.604053 76 0 153
-0.068792 -0.238032 0.010590 76 0 153
0.544285 -0.368264 -0.128645 76 0 153
-0.205713 -0.206108 0.667023 127 0 127
0.063316 -0.238032 -0.300496 76 0 153
-0.615787 0.186283 -0.017030 76 0 153
0.091657 -0.004720 -0.610379 76 0 153
0.396137 -0.292764 0.380934 76 0 153
0.283954 -0.094068 -0.603513 76 0 153
-0.157850 -0.026708 0.018992 204 51 127
-0.303612 -0.222169 0.078388 76 0 153
0.396137 0.125015 0.391048 76 0 153
-0.375359 -0.163324 0.571729 127 0 127
-0.616785 -0.231373 0.021645 76 0 153
-0.127559 0.399603 0.053342 76 0 153
-0.145888 -0.109505 -0.464284 76 0 153
0.588435 0.393173 0.322340 76 0 153
0.556203 -0.383254 -0.422413 76 0 153
0.101229 -0.238032 -0.423459 76 0 153
0.010923 -0.368264 -0.123209 76 0 153
-0.136802 -0.222169 0.146132 76 0 153
-0.116372 -0.222169 0.076832 204 51 127
0.032055 0.193660 -0.464284 76 0 153
-0.035859 -0.078059 -0.464284 76 0 153
-0.209908 -0.205980 -0.464284 76 0 153
0.132824 0.179664 0.827069 127 0 127
0.664021 -0.346049 0.162832 76 0 153
0.657178 -0.319817 -0.088172 76 0 153
-0.119525 -0.182429 0.719446 127 0 127
0.012130 -0.281069 -0.540789 76 0 153
0.664830 -0.317075 0.376468 76 0 153
-0.442787 -0.238032 0.277590 76 0 153
0.207801 -0.368264 0.146962 76 0 153
0.124863 0.399823 0.059192 76 0 153
-0.594128 0.274643 0.363618 76 0 153
0.193469 0.105444 0.826875 127 0 127
0.662488 -0.109489 0.221293 76 0 153
0.644768 -0.338802 0.207894 76 0 153
0.405252 -0.368264 -0.071315 76 0 153
-0.417176 0.078123 -0.543747 76 0 153
0.072946 0.081026 -0.464284 76 0 153
0.516007 -0.151700 0.463716 204 51 127
-0.064450 -0.238032 -0.190346 76 0 153
-0.374335 0.333044 -0.437496 76 0 153
-0.159975 0.039370 0.700965 0 127 127
-0.252779 0.333044 0.150709 76 0 153
0.100694 -0.216924 -0.540499 76 0 153
-0.183982 -0.368264 0.252883 76 0 153
0.668055 -0.267860 -0.543967 76 0 153
-0.372938 0.333044 -0.363471 76 0 153
-0.615787 0.082444 -0.460563 76 0 153
0.268342 0.333044 0.009681 76 0 153
-0.622437 -0.067992 0.014815 76 0 153
0.037864 -0.362397 -0.395905 76 0 153
0.036821 -0.222169 -0.233071 76 0 153
-0.503253 0.399823 -0.065496 76 0 153
-0.503673 -0.331744 -0.527471 76 0 153
-0.186979 -0.330921 -0.527409 76 0 153
-0.427352 -0.221477 -0.464284 76 0 153
0.022366 0.333044 0.091136 76 0 153
0.568772 0.399615 -0.121699 76 0 153
0.396137 0.333551 0.377728 76 0 153
-0.443817 -0.026529 -0.464284 76 0 153
-0.391510 -0.376089 0.235645 153 0 76
-0.088195 -0.238032 -0.414567 76 0 153
-0.421826 0.399823 0.287238 76 0 153
0.301970 0.323766 -0.450322 76 0 153
0.661875 0.341707 -0.126265 76 0 153
-0.132141 0.235919 0.722465 0 127 127
0.000250 -0.367467 0.765032 127 0 127
-0.450982 0.399823 0.051748 76 0 153
0.603926 -0.131028 0.463716 153 0 76
-0.312406 -0.238032 -0.374647 76 0 153
0.346750 0.399682 0.296917 76 0 153
-0.060332 -0.312445 0.680340 127 0 127
0.483903 -0.361612 -0.308246 76 0 153
-0.622437 -0.261331 -0.080555 76 0 153
0.029866 0.333044 -0.239809 76 0 153
0.307016 0.319894 0.217028 76 0 153
0.139980 0.333044 -0.134998 76 0 153
-0.130197 -0.238032 -0.299994 76 0 153
-0.207345 0.333044 0.209947 76 0 153
0.104788 0.084068 -0.610379 76 0 153
0.540408 0.136800 -0.540656 76 0 153
-0.613569 -0.355064 -0.182192 76 0 153
0.029297 0.355973 0.357093 76 0 153
0.148609 0.333044 -0.011727 76 0 153
0.668359 0.263194 0.187046 76 0 153
0.565678 -0.359265 0.328992 76 0 153
0.662488 0.067330 -0.231891 76 0 153
-0.555658 0.221544 0.006057 76 0 153
-0.215014 -0.222169 0.068145 76 0 153
-0.177592 -0.154125 -0.579947 76 0 153
0.345053 -0.368264 -0.154289 76 0 153
-0.619773 -0.256724 -0.547432 76 0 153
0.512379 0.399823 0.185859 76 0 153
-0.284012 -0.238032 -0.078468 76 0 153
0.257346 -0.035335 0.876262 127 0 127
0.662488 -0.038751 0.036854 76 0 153
0.387912 0.393173 0.278984 76 0 153
0.645759 0.197802 -0.554348 76 0 153
-0.235642 -0.289967 0.357337 76 0 153
0.080547 -0.222169 0.100166 76 0 153
0.662514 0.327659 -0.279976 76 0 153
-0.132082 -0.238032 0.177867 76 0 153
0.074246 -0.258297 0.758260 127 0 127
-0.342166 0.268402 0.624758 0 127 127
0.043771 -0.368264 -0.320553 76 0 153
0.332684 -0.141389 -0.054665 76 0 153
-0.224937 0.333044 -0.398853 76 0 153
-0.341504 0.333044 -0.200928 76 0 153
-0.104405 0.393173 0.009435 76 0 153
0.541656 -0.399969 -0.434859 0 127 127
0.178621 0.333044 -0.148180 76 0 153
-0.622437 -0.277676 -0.292406 76 0 153
0.085472 -0.183960 0.843514 0 127 127
-0.584729 -0.026524 0.377577 127 0 127
0.669138 0.318797 -0.431721 76 0 153
0.482047 -0.063487 -0.550268 76 0 153
-0.621972 0.353926 0.279755 76 0 153
0.104273 0.393173 -0.260010 76 0 153
-0.297322 0.333044 0.060010 76 0 153
0.303420 -0.227641 -0.196039 76 0 153
0.669138 0.077422 -0.320606 76 0 153
-0.615787 -0.083584 0.070301 76 0 153
-0.390823 -0.175311 -0.540320 76 0 153
0.250963 -0.238032 -0.443924 76 0 153
-0.305197 0.389223 0.540835 127 0 127
-0.057536 -0.122678 0.150172 204 51 127
-0.394465 0.399823 0.034088 76 0 153
0.413312 0.399823 -0.234354 76 0 153
-0.479925 -0.385323 0.163853 153 0 76
-0.164460 -0.051429 0.699239 0 127 127
0.336837 -0.361612 0.173340 76 0 153
0.396137 -0.135149 0.387049 76 0 153
-0.034954 -0.192492 0.767727 127 0 127
0.420535 0.084810 -0.587974 76 0 153
0.240998 -0.010004 -0.464284 76 0 153
-0.423915 0.393173 0.011645 76 0 153
-0.270920 -0.368264 -0.518029 76 0 153
0.273994 -0.237405 -0.317187 76 0 153
-0.404438 0.399575 -0.402448 76 0 153
0.157205 -0.238032 -0.452971 76 0 153
-0.240715 -0.226644 -0.464284 76 0 153
0.000349 -0.238032 -0.246737 76 0 153
-0.555658 0.147142 -0.372950 76 0 153
-0.142239 -0.368264 0.297697 76 0 153
0.238864 -0.362288 -0.433356 76 0 153
-0.004400 0.334416 0.358941 76 0 153
-0.472286 -0.238032 -0.346557 76 0 153
0.089036 -0.222169 -0.003077 76 0 153
0.159838 -0.238032 -0.007214 76 0 153
-0.078161 -0.238032 0.129854 76 0 153
0.667127 0.370461 -0.088153 76 0 153
-0.594876 -0.243520 0.487372 127 0 127
0.332684 0.173351 -0.107713 76 0 153
-0.336523 0.399823 -0.083056 76 0 153
0.658315 -0.356983 0.247683 76 0 153
0.540569 -0.232159 0.455784 76 0 153
-0.615787 0.251343 -0.036459 76 0 153
-0.622437 -0.236105 0.289427 76 0 153
0.380552 -0.138292 -0.578517 76 0 153
-0.574826 -0.203959 -0.548040 76 0 153
0.593400 0.399822 0.019596 76 0 153
-0.490235 0.189491 -0.540450 76 0 153
