ply
format ascii 1.0
element vertex 1252
property float x
property float y
property float z
property uchar red
property uchar green
property uchar blue
end_header
0.039981 -0.935326 0.043961 127 127 0
0.029725 -0.520379 0.470376 127 127 0
0.167660 -0.815951 0.412898 127 127 0
0.278468 0.418496 0.311624 127 127 0
0.464184 -0.195739 -0.110712 127 127 0
-0.005066 -0.045712 0.474732 127 127 0
0.344251 -0.042590 -0.260213 127 127 0
0.246919 -0.263543 -0.357545 127 127 0
-0.317710 0.270127 0.280813 127 127 0
-0.357367 -0.308577 -0.255528 127 127 0
-0.133726 0.514024 -0.472095 127 127 0
-0.466597 0.312584 -0.139725 127 127 0
0.092457 0.296361 0.462117 127 127 0
0.306982 -0.925125 -0.064177 127 127 0
-0.266908 0.900080 0.210634 0 255 0
0.107815 0.400740 -0.476429 127 127 0
0.474453 0.269315 0.018346 127 127 0
0.461831 -0.482763 -0.128589 127 127 0
-0.030425 -0.171753 -0.485765 127 127 0
0.242278 0.175492 0.347814 127 127 0
0.232888 0.673547 0.285701 127 127 0
0.477306 -0.473099 -0.011045 127 127 0
-0.168301 -0.723045 0.430222 127 127 0
-0.315324 0.704895 0.241099 127 127 0
-0.414949 0.489426 0.183574 127 127 0
0.095251 0.896385 0.294758 0 255 0
-0.290985 -0.921414 0.178779 127 127 0
-0.371629 -0.067337 0.226894 127 127 0
0.065660 0.100759 0.465645 127 127 0
-0.139646 0.685267 0.364472 127 127 0
-0.354105 -0.655679 -0.258790 127 127 0
-0.135008 -0.882507 0.393812 127 127 0
0.463623 -0.247253 -0.114978 127 127 0
0.037644 0.491107 0.476533 127 127 0
-0.159136 -0.488124 -0.453758 127 127 0
-0.230499 0.576879 0.368024 127 127 0
0.244776 0.133809 -0.359688 127 127 0
0.135207 0.532609 -0.459220 127 127 0
-0.318051 0.481236 0.280472 127 127 0
-0.485593 -0.029458 -0.012136 127 127 0
-0.475389 0.348083 -0.089645 127 127 0
0.099966 -0.921845 -0.329710 127 127 0
0.026208 -0.830500 -0.455063 127 127 0
-0.400184 -0.010761 -0.212711 127 127 0
0.354303 0.066486 0.235789 127 127 0
0.153827 0.890217 -0.385073 0 255 0
0.412084 -0.280034 0.178008 127 127 0
-0.470318 -0.161622 0.113793 127 127 0
-0.375448 -0.897710 0.168840 127 127 0
-0.276250 0.034450 0.322272 127 127 0
0.476308 -0.193029 -0.018625 127 127 0
0.201473 0.698403 -0.352443 127 127 0
0.315185 -0.555044 -0.289279 127 127 0
-0.438552 0.569351 0.108096 127 127 0
0.127088 0.487142 -0.477375 127 127 0
-0.231194 0.675731 -0.312701 127 127 0
-0.462879 0.486507 0.135643 127 127 0
0.092240 0.803647 0.394094 0 255 0
-0.086007 -0.673127 0.464076 127 127 0
0.213444 -0.048393 -0.391020 127 127 0
-0.483454 -0.352103 -0.028384 127 127 0
0.419120 -0.311884 -0.185344 127 127 0
0.320579 0.862556 0.243749 0 255 0
0.379216 -0.576476 -0.225248 127 127 0
-0.239519 -0.190512 -0.373376 127 127 0
0.352504 -0.149504 0.237588 127 127 0
-0.482317 -0.480973 0.022653 127 127 0
0.463624 -0.533276 0.100594 127 127 0
0.174803 0.000040 -0.429661 127 127 0
-0.150416 -0.587917 -0.462478 127 127 0
0.456653 -0.785003 -0.062867 127 127 0
0.192943 -0.882956 0.366000 127 127 0
0.443963 0.252259 -0.160501 127 127 0
-0.330615 -0.350828 -0.282279 127 127 0
0.313334 0.672429 -0.212148 127 127 0
-0.475966 -0.638897 0.070893 127 127 0
0.263870 0.707356 0.287455 127 127 0
0.358364 -0.734667 -0.246099 127 127 0
0.125042 -0.145150 0.456555 127 127 0
0.049484 0.248447 0.467774 127 127 0
-0.220496 -0.391184 -0.392398 127 127 0
-0.184014 -0.414072 0.414508 127 127 0
-0.423284 -0.271110 -0.189611 127 127 0
-0.317563 0.896385 0.097155 0 255 0
0.463175 0.143761 0.104007 127 127 0
0.369815 -0.514695 0.220278 127 127 0
0.059637 0.677257 -0.387656 127 127 0
0.402850 0.770645 0.045322 0 255 0
-0.041569 0.042263 0.469926 127 127 0
0.381732 -0.100162 0.208360 127 127 0
0.204420 -0.935326 -0.090840 127 127 0
-0.450016 -0.538097 0.148507 127 127 0
0.022119 0.610157 0.404565 127 127 0
0.372771 0.386349 -0.231693 127 127 0
0.201745 -0.513808 -0.402719 127 127 0
0.164961 -0.781194 -0.439503 127 127 0
0.420261 -0.815532 0.154500 127 127 0
-0.385842 -0.307895 0.212681 127 127 0
-0.374950 0.654245 0.062828 127 127 0
-0.101307 0.657861 0.359984 127 127 0
-0.228681 -0.312669 0.369841 127 127 0
0.329763 -0.610800 0.260329 127 127 0
0.239017 0.024923 -0.365447 127 127 0
0.417492 0.192159 0.172600 127 127 0
0.087425 0.731928 0.367204 0 255 0
0.244088 0.247581 -0.360376 127 127 0
-0.155593 0.569085 0.412753 127 127 0
-0.261741 0.734968 0.303343 0 255 0
0.090275 0.516016 0.462831 127 127 0
0.171291 0.125227 -0.433173 127 127 0
0.054956 -0.917612 -0.368619 127 127 0
-0.104119 0.896385 -0.196438 0 255 0
-0.286866 0.676506 -0.269212 127 127 0
0.168357 0.896385 0.063056 0 255 0
-0.084572 0.792582 -0.410585 0 255 0
0.416338 -0.708806 -0.188126 127 127 0
-0.478412 0.035310 0.052314 127 127 0
-0.119282 0.443735 -0.485602 127 127 0
-0.401272 0.391983 0.197251 127 127 0
0.360906 0.572770 -0.243558 127 127 0
-0.418592 -0.503491 0.179931 127 127 0
0.149819 0.896385 -0.262602 0 255 0
0.154890 0.575472 -0.417840 127 127 0
-0.241663 0.758175 0.327958 0 255 0
-0.160371 0.902056 -0.329119 0 255 0
0.398076 0.851226 -0.095956 0 255 0
0.170800 0.584225 0.389061 127 127 0
-0.036258 -0.920677 0.337207 127 127 0
0.140302 -0.307840 -0.464162 127 127 0
-0.034067 0.040883 -0.485286 127 127 0
-0.103958 -0.210397 0.461712 127 127 0
-0.061266 -0.912826 -0.401080 127 127 0
0.018102 -0.272793 -0.486278 127 127 0
-0.275558 0.896385 0.151709 0 255 0
-0.148277 0.811592 0.377396 0 255 0
-0.401737 0.609232 -0.125210 127 127 0
-0.159630 -0.384690 -0.453264 127 127 0
-0.424167 -0.854891 0.119389 127 127 0
-0.470165 -0.091857 0.114953 127 127 0
-0.470291 -0.433050 -0.128366 127 127 0
0.346334 0.653428 -0.145256 127 127 0
0.366058 -0.643853 0.224034 127 127 0
-0.000006 0.182686 0.474290 127 127 0
0.204698 -0.736870 -0.399766 127 127 0
-0.477847 -0.260809 -0.070973 127 127 0
-0.002663 0.675279 0.373016 127 127 0
0.142672 -0.436569 -0.461792 127 127 0
-0.137256 0.896385 -0.086858 0 255 0
0.042372 0.520432 -0.481576 127 127 0
0.449040 -0.547331 -0.155424 127 127 0
0.467708 -0.644607 -0.083946 127 127 0
-0.195761 -0.465373 -0.417133 127 127 0
0.092342 -0.577279 -0.476503 127 127 0
-0.325936 0.786644 -0.262127 0 255 0
0.318214 0.695040 0.227746 127 127 0
-0.199248 -0.935326 0.141012 127 127 0
-0.028719 0.697407 0.392160 127 127 0
-0.380701 -0.478181 0.217821 127 127 0
0.326867 0.521551 0.263225 127 127 0
0.313612 0.461179 0.276480 127 127 0
0.156891 0.124726 0.433202 127 127 0
0.326105 0.902056 -0.222061 0 255 0
0.384821 0.835908 0.126119 0 255 0
0.275879 0.354470 0.314213 127 127 0
0.463413 -0.033911 -0.116572 127 127 0
-0.466225 -0.020626 -0.140623 127 127 0
0.461414 -0.448302 -0.131754 127 127 0
0.301748 0.471748 -0.302716 127 127 0
-0.282453 -0.188693 0.316069 127 127 0
0.001165 -0.788038 -0.473803 127 127 0
0.187902 0.651764 0.321023 127 127 0
-0.472211 -0.315132 -0.113785 127 127 0
0.193177 0.843985 0.355305 0 255 0
0.470832 0.039238 0.045847 127 127 0
-0.033473 0.245553 0.470992 127 127 0
-0.295162 0.560394 -0.317732 127 127 0
-0.130829 0.896385 -0.150881 0 255 0
-0.296866 -0.879451 -0.315241 127 127 0
-0.301886 -0.126658 0.296637 127 127 0
-0.302075 0.015594 -0.310820 127 127 0
0.453526 -0.078961 0.136555 127 127 0
-0.066981 -0.854248 0.425072 127 127 0
-0.362667 0.607340 0.205725 127 127 0
-0.282133 0.341876 0.316390 127 127 0
0.035271 0.218708 -0.484017 127 127 0
0.066700 -0.128754 -0.479879 127 127 0
-0.170730 0.896385 0.001943 0 255 0
0.430154 -0.027865 -0.174310 127 127 0
-0.267419 -0.511965 -0.345476 127 127 0
-0.160690 0.896385 -0.151805 0 255 0
-0.463597 -0.008314 0.132596 127 127 0
-0.479068 -0.165445 -0.061703 127 127 0
-0.449884 -0.813464 -0.106521 127 127 0
-0.405292 0.774693 -0.105185 0 255 0
0.140023 -0.634591 0.450070 127 127 0
0.172408 0.902056 0.316531 0 255 0
-0.352684 0.651670 0.137772 127 127 0
-0.159057 0.765204 0.372930 0 255 0
0.131506 0.737637 0.376185 0 255 0
-0.129368 -0.935326 -0.122902 127 127 0
-0.195085 -0.935326 0.024925 127 127 0
0.077710 -0.289119 -0.478430 127 127 0
-0.279892 -0.740803 0.318631 127 127 0
-0.471961 0.006481 0.101312 127 127 0
0.103015 0.585571 -0.428746 127 127 0
-0.224989 0.837900 0.340753 0 255 0
-0.097146 -0.278567 -0.476981 127 127 0
-0.279496 0.212173 0.319027 127 127 0
0.437528 -0.799909 -0.141650 127 127 0
0.121343 0.450386 -0.483121 127 127 0
0.450825 0.382025 -0.153639 127 127 0
0.129783 -0.935326 -0.161837 127 127 0
0.149990 -0.922487 0.289986 127 127 0
-0.178196 -0.098333 -0.434698 127 127 0
-0.274607 -0.325891 0.323915 127 127 0
0.433120 -0.120687 0.156972 127 127 0
0.354205 -0.323380 0.235887 127 127 0
-0.391406 0.820249 -0.144949 0 255 0
0.214230 -0.520091 0.375863 127 127 0
-0.039252 0.222404 -0.484603 127 127 0
-0.330867 -0.047092 0.267655 127 127 0
0.098915 0.675478 0.359950 127 127 0
-0.393165 0.717274 0.013333 127 127 0
-0.469866 0.063003 0.117226 127 127 0
-0.409570 0.231415 -0.203325 127 127 0
-0.274973 -0.603329 0.323550 127 127 0
-0.401132 -0.350616 0.197390 127 127 0
0.281329 0.186605 -0.323135 127 127 0
0.004424 0.785666 -0.420027 0 255 0
-0.310291 -0.922813 -0.134222 127 127 0
0.145982 0.352800 0.444110 127 127 0
0.312855 -0.819066 0.277237 127 127 0
0.465287 0.106481 0.087967 127 127 0
0.269448 0.896385 -0.147798 0 255 0
0.134394 0.896385 -0.126956 0 255 0
-0.405569 0.576856 0.171390 127 127 0
0.120586 -0.924612 0.286829 127 127 0
0.446711 -0.806401 0.072704 127 127 0
0.174212 -0.274776 -0.430252 127 127 0
-0.163900 -0.856446 -0.412561 127 127 0
0.402177 -0.833611 -0.193186 127 127 0
-0.405802 -0.229709 0.192721 127 127 0
0.231392 -0.376321 0.358701 127 127 0
-0.485035 0.176201 0.002004 127 127 0
-0.118787 0.896385 0.261927 0 255 0
0.354068 -0.232717 -0.250396 127 127 0
0.423490 -0.283399 -0.180974 127 127 0
0.472411 0.508066 -0.066645 127 127 0
0.363623 0.901712 -0.154362 0 255 0
-0.032270 -0.935326 0.233364 127 127 0
-0.245920 0.896385 -0.043311 0 255 0
-0.244835 -0.264924 -0.368060 127 127 0
-0.224475 0.896385 0.240571 0 255 0
-0.058922 0.074399 -0.482013 127 127 0
0.328266 -0.915966 -0.189750 127 127 0
-0.095808 -0.483038 -0.477157 127 127 0
-0.137027 -0.935326 -0.240683 127 127 0
0.385783 0.545665 -0.218681 127 127 0
0.469230 -0.019569 -0.072383 127 127 0
0.102020 -0.351478 -0.475229 127 127 0
-0.213491 -0.185140 0.385032 127 127 0
-0.471009 0.357866 -0.122911 127 127 0
0.352595 -0.530717 -0.251869 127 127 0
0.315347 -0.745156 -0.289116 127 127 0
0.283872 -0.914201 0.256050 127 127 0
0.033698 -0.456279 0.469853 127 127 0
0.125502 -0.935326 -0.230366 127 127 0
-0.033011 -0.910793 -0.407425 127 127 0
0.090999 0.633431 -0.390501 127 127 0
-0.383365 -0.860740 0.210064 127 127 0
0.091058 0.539651 -0.465676 127 127 0
0.086974 -0.496822 -0.477210 127 127 0
-0.235899 -0.559824 -0.376995 127 127 0
0.112990 0.081194 0.459413 127 127 0
-0.168092 0.598879 -0.394960 127 127 0
0.167537 -0.919744 -0.316881 127 127 0
0.464421 -0.130234 -0.108915 127 127 0
-0.311596 0.070800 0.286927 127 127 0
0.023423 -0.935326 -0.256984 127 127 0
0.233303 0.896385 -0.162196 0 255 0
0.392335 0.683714 -0.013735 127 127 0
-0.029827 0.188424 -0.485844 127 127 0
-0.389753 0.645271 -0.003695 127 127 0
-0.012768 -0.935326 0.012033 127 127 0
-0.486005 -0.674290 -0.009008 127 127 0
0.359347 0.879220 -0.201991 0 255 0
0.169828 -0.630224 -0.434637 127 127 0
0.177086 -0.573998 -0.427378 127 127 0
0.157258 -0.484184 0.432835 127 127 0
-0.075370 0.896385 -0.033968 0 255 0
0.455242 -0.610322 -0.146784 127 127 0
-0.014296 -0.115306 0.473517 127 127 0
0.291494 -0.258842 -0.312970 127 127 0
-0.011893 -0.935326 0.064606 127 127 0
0.004676 -0.728954 -0.485416 127 127 0
0.260755 0.437324 -0.343708 127 127 0
-0.484724 0.500407 0.041674 127 127 0
-0.483304 0.332212 -0.029527 127 127 0
-0.044540 -0.563995 -0.483907 127 127 0
-0.050579 -0.216736 0.468740 127 127 0
0.383160 0.632492 0.063124 127 127 0
-0.484464 -0.704456 0.002363 127 127 0
0.175711 0.267321 -0.428753 127 127 0
0.304526 0.714249 -0.249100 127 127 0
0.124369 -0.269638 0.456834 127 127 0
0.171136 0.777066 0.364435 0 255 0
-0.319426 0.267964 -0.293469 127 127 0
-0.101073 -0.935326 -0.213398 127 127 0
-0.178487 -0.698071 0.420036 127 127 0
-0.470055 -0.173272 -0.130158 127 127 0
-0.468586 -0.791584 -0.021039 127 127 0
0.246567 0.307141 0.343525 127 127 0
0.301141 0.644213 0.224946 127 127 0
-0.059021 -0.935326 0.200400 127 127 0
0.135825 -0.832089 -0.433345 127 127 0
-0.335961 0.731928 0.183261 0 255 0
-0.484467 0.519835 -0.011233 127 127 0
0.185920 -0.935326 0.203940 127 127 0
-0.479518 -0.287570 -0.058285 127 127 0
0.150347 -0.935326 -0.071239 127 127 0
-0.389090 0.381045 -0.223805 127 127 0
-0.435428 -0.337408 -0.177467 127 127 0
0.395195 0.901439 -0.022915 0 255 0
0.222877 -0.151377 0.367215 127 127 0
-0.237613 0.454815 -0.375281 127 127 0
0.199416 -0.473046 0.390677 127 127 0
0.263638 -0.282212 -0.340826 127 127 0
-0.223043 -0.919190 0.273059 127 127 0
-0.373706 0.146066 -0.239189 127 127 0
0.209411 0.113921 -0.395053 127 127 0
0.235511 -0.687820 0.354582 127 127 0
0.321010 -0.510831 -0.283454 127 127 0
0.253164 0.229342 0.336928 127 127 0
0.230854 0.004856 0.359238 127 127 0
-0.306631 -0.281595 0.291891 127 127 0
0.449572 0.552673 0.061242 127 127 0
0.404104 -0.073421 0.185988 127 127 0
0.372500 0.343272 -0.231964 127 127 0
0.329728 -0.553236 0.260365 127 127 0
-0.476095 0.287874 -0.084278 127 127 0
0.028417 -0.889847 -0.422139 127 127 0
0.191682 0.102600 0.398410 127 127 0
-0.301116 -0.496925 -0.311779 127 127 0
-0.360009 0.457228 0.238515 127 127 0
0.373423 -0.870824 0.198498 127 127 0
0.474119 0.386005 0.020879 127 127 0
0.181584 0.246265 0.408508 127 127 0
0.340288 -0.892784 0.223452 127 127 0
0.205147 -0.851350 -0.394810 127 127 0
-0.016772 0.858131 -0.419511 0 255 0
0.469188 0.382707 -0.072705 127 127 0
-0.480790 0.518126 -0.044841 127 127 0
-0.474072 -0.067040 -0.099650 127 127 0
0.478748 0.480474 -0.075079 127 127 0
-0.279567 -0.272365 -0.333328 127 127 0
-0.446081 0.453375 0.152442 127 127 0
0.276400 -0.224050 -0.328064 127 127 0
0.291609 0.837495 0.281504 0 255 0
-0.211152 -0.714511 -0.401742 127 127 0
-0.286942 0.055991 -0.325953 127 127 0
-0.441000 0.094449 0.157523 127 127 0
0.352760 0.536470 0.237332 127 127 0
0.002764 -0.935326 -0.118063 127 127 0
0.440042 -0.514677 0.150050 127 127 0
-0.315210 0.673696 -0.220691 127 127 0
-0.445789 -0.054595 0.152734 127 127 0
-0.415005 0.783516 0.017029 0 255 0
0.154077 0.895037 0.367988 0 255 0
0.294360 -0.921283 -0.178981 127 127 0
0.133812 -0.887695 0.387094 127 127 0
0.024704 0.189196 -0.485408 127 127 0
0.388854 -0.159752 0.201238 127 127 0
-0.078737 -0.315408 0.465033 127 127 0
-0.408143 0.171272 -0.204752 127 127 0
0.036392 0.896385 0.109808 0 255 0
0.466997 0.235309 -0.089346 127 127 0
-0.034242 0.545503 0.456564 127 127 0
0.467797 -0.695936 -0.081110 127 127 0
-0.230751 0.034544 -0.382142 127 127 0
0.318814 0.294790 -0.285650 127 127 0
0.167532 0.456227 0.422560 127 127 0
-0.284736 -0.544748 0.313787 127 127 0
-0.062133 0.759544 0.399168 0 255 0
-0.384951 -0.829642 -0.227944 127 127 0
-0.267708 -0.932752 -0.117819 127 127 0
0.051729 0.896385 0.235751 0 255 0
-0.039700 -0.879096 0.414556 127 127 0
0.264294 0.876927 -0.318495 0 255 0
-0.277671 -0.915520 -0.275052 127 127 0
-0.199608 0.288056 0.398914 127 127 0
-0.211257 -0.122395 0.387266 127 127 0
-0.245538 -0.359778 0.352984 127 127 0
-0.305586 0.504180 0.292937 127 127 0
0.388884 0.160501 -0.215580 127 127 0
-0.013096 0.902056 0.371726 0 255 0
-0.046857 0.732404 0.387777 0 255 0
-0.071409 0.069356 0.465998 127 127 0
0.254678 0.896385 -0.206220 0 255 0
-0.211458 0.615363 -0.361642 127 127 0
-0.436595 -0.686371 -0.176299 127 127 0
0.137982 0.010171 -0.465567 127 127 0
-0.344587 0.873850 -0.237820 0 255 0
-0.082482 -0.415454 -0.478911 127 127 0
-0.131688 0.548439 0.439915 127 127 0
0.401255 0.365954 0.188837 127 127 0
0.018728 -0.935326 -0.146196 127 127 0
-0.020356 -0.491693 -0.487091 127 127 0
-0.353937 0.198366 0.244586 127 127 0
-0.150558 0.254224 -0.462337 127 127 0
-0.057601 0.804449 -0.414136 0 255 0
-0.302056 0.834512 0.278877 0 255 0
0.285155 0.008396 -0.319309 127 127 0
-0.317273 0.612376 0.258057 127 127 0
0.346722 -0.494462 0.243370 127 127 0
-0.187261 -0.191748 0.411261 127 127 0
0.410430 -0.358120 0.179662 127 127 0
0.053500 0.896385 0.074675 0 255 0
0.264938 -0.137422 0.325154 127 127 0
0.402492 0.776355 -0.062411 0 255 0
0.058770 -0.157438 -0.480923 127 127 0
0.024853 -0.518646 -0.485389 127 127 0
0.444361 0.356150 0.145731 127 127 0
0.265565 -0.399261 -0.338899 127 127 0
0.175028 -0.377803 0.415065 127 127 0
-0.194582 0.257922 0.403940 127 127 0
-0.061027 0.896385 0.091369 0 255 0
0.309155 -0.775476 -0.295308 127 127 0
-0.337591 -0.076697 -0.275303 127 127 0
0.271466 0.474138 0.318626 127 127 0
0.093057 0.647292 0.364323 127 127 0
-0.069779 -0.446133 -0.480584 127 127 0
-0.495466 0.427183 -0.003762 127 127 0
0.097385 0.864702 0.393417 0 255 0
-0.027547 -0.292892 0.471772 127 127 0
-0.282196 0.902056 0.235205 0 255 0
-0.336531 -0.553022 -0.276364 127 127 0
-0.145571 0.599109 0.389712 127 127 0
-0.389972 -0.349125 -0.222922 127 127 0
-0.448961 0.570803 -0.033589 127 127 0
0.390731 0.689882 0.038596 127 127 0
-0.386401 -0.622974 0.212122 127 127 0
-0.478476 0.140701 0.051825 127 127 0
-0.394348 0.621344 0.102566 127 127 0
0.106636 -0.513656 0.460250 127 127 0
0.409512 0.752794 -0.005280 0 255 0
-0.368584 0.035236 0.229939 127 127 0
-0.112776 -0.754253 0.453917 127 127 0
-0.295883 0.729218 0.231506 127 127 0
-0.239953 -0.447629 0.358569 127 127 0
0.226663 0.896385 0.014125 0 255 0
0.276588 -0.677685 0.313505 127 127 0
-0.462294 -0.786777 -0.080470 127 127 0
-0.378810 -0.072092 -0.234084 127 127 0
-0.391372 -0.052147 0.207151 127 127 0
0.104203 0.893800 -0.403905 0 255 0
0.360918 -0.816331 -0.243546 127 127 0
0.270947 0.820071 -0.313389 0 255 0
0.425802 0.565599 -0.142274 127 127 0
-0.017364 -0.693095 -0.487280 127 127 0
-0.172753 -0.278372 -0.440141 127 127 0
-0.394856 0.313518 0.203666 127 127 0
-0.078187 -0.492165 0.465105 127 127 0
-0.089333 -0.235908 -0.478009 127 127 0
0.393837 0.704102 -0.035105 127 127 0
0.467441 0.493059 -0.132522 127 127 0
0.197721 -0.792183 -0.406743 127 127 0
-0.095563 0.896385 -0.248974 0 255 0
0.408104 -0.890134 0.043994 127 127 0
0.096886 0.074632 -0.475905 127 127 0
-0.000712 -0.156633 -0.488755 127 127 0
0.134382 -0.771187 0.441671 127 127 0
0.425950 -0.556010 0.164143 127 127 0
0.221625 0.901762 0.318397 0 255 0
-0.169133 -0.472685 0.429389 127 127 0
-0.392112 0.708482 0.084092 127 127 0
0.058113 0.609912 0.400030 127 127 0
-0.184916 -0.307656 -0.427978 127 127 0
0.029679 0.531863 0.463820 127 127 0
-0.175665 -0.925902 0.253006 127 127 0
0.032071 -0.916672 0.363582 127 127 0
0.308399 0.577340 -0.296066 127 127 0
-0.235444 -0.356246 -0.377450 127 127 0
-0.484029 0.141382 0.009648 127 127 0
0.310532 -0.924080 0.076243 127 127 0
0.148361 -0.091879 0.441731 127 127 0
-0.481578 0.395583 -0.049067 127 127 0
0.335272 -0.616358 -0.269192 127 127 0
-0.014631 0.896385 0.128318 0 255 0
-0.143405 0.068887 0.452441 127 127 0
-0.413540 -0.888754 0.073741 127 127 0
0.142217 0.828753 0.376414 0 255 0
0.238091 -0.480578 0.352001 127 127 0
-0.468451 -0.355378 -0.135249 127 127 0
0.094753 -0.145805 0.461814 127 127 0
-0.392722 0.538004 0.205801 127 127 0
-0.155290 0.410812 0.443233 127 127 0
-0.395104 0.844887 0.121648 0 255 0
-0.231823 -0.611828 0.366699 127 127 0
-0.359617 -0.878417 0.224765 127 127 0
0.466708 -0.731579 -0.068757 127 127 0
0.273879 -0.141573 -0.330585 127 127 0
0.450040 -0.813191 0.027721 127 127 0
0.263176 0.734446 0.294797 0 255 0
-0.194194 -0.935326 -0.104329 127 127 0
0.465375 -0.203036 0.087295 127 127 0
-0.203968 -0.914005 -0.345637 127 127 0
0.237158 -0.558230 0.352934 127 127 0
0.389639 0.885240 0.114421 0 255 0
0.360232 0.709632 -0.161826 127 127 0
-0.475419 -0.586651 -0.089416 127 127 0
0.331021 -0.133974 -0.273443 127 127 0
-0.071209 0.896385 -0.157943 0 255 0
0.462711 -0.356779 0.107534 127 127 0
-0.234728 -0.924593 0.217276 127 127 0
-0.109065 -0.935326 0.193044 127 127 0
-0.437406 0.007789 0.161117 127 127 0
0.260873 -0.475059 -0.343591 127 127 0
0.122262 -0.595274 -0.472078 127 127 0
0.120295 -0.048952 -0.472823 127 127 0
0.309434 0.879597 -0.272644 0 255 0
0.396549 0.076199 0.193543 127 127 0
-0.334565 -0.203893 0.263957 127 127 0
-0.278979 -0.079793 -0.333915 127 127 0
-0.405268 0.854900 0.090998 0 255 0
0.345506 0.902056 -0.071596 0 255 0
0.057113 0.214130 0.466770 127 127 0
0.470822 -0.686326 0.045813 127 127 0
0.476243 -0.360288 -0.019119 127 127 0
0.391038 0.308977 0.199054 127 127 0
0.305326 0.273109 -0.299138 127 127 0
0.213783 0.896385 0.230491 0 255 0
0.214048 -0.104251 0.376044 127 127 0
-0.323880 -0.525993 0.274642 127 127 0
-0.202370 -0.752650 0.396153 127 127 0
-0.050638 0.896385 0.042325 0 255 0
-0.478264 0.215116 0.053434 127 127 0
-0.376967 0.760343 0.165436 0 255 0
-0.433043 0.270701 -0.179852 127 127 0
-0.115935 -0.507550 -0.474507 127 127 0
-0.029681 -0.525787 0.471491 127 127 0
-0.181554 0.797241 -0.377983 0 255 0
-0.029073 0.355027 -0.485943 127 127 0
-0.314897 -0.010507 0.283625 127 127 0
0.225130 -0.926437 0.198600 127 127 0
0.090733 0.491546 -0.483292 127 127 0
-0.413826 -0.320816 -0.199069 127 127 0
-0.367096 0.312697 -0.245798 127 127 0
-0.060994 -0.153727 0.467369 127 127 0
-0.358942 -0.818493 0.239581 127 127 0
0.031104 0.382846 0.470194 127 127 0
-0.290798 -0.625170 -0.322097 127 127 0
-0.030730 0.558687 -0.462174 127 127 0
0.001129 -0.228589 -0.488512 127 127 0
-0.364320 0.825687 0.195967 0 255 0
0.004013 0.734965 -0.412707 0 255 0
-0.482876 0.041257 0.018403 127 127 0
0.097067 0.775075 0.393459 0 255 0
0.006672 -0.935326 -0.067483 127 127 0
-0.270495 0.586121 0.328028 127 127 0
-0.345834 0.132032 0.252689 127 127 0
0.147335 0.681163 0.354013 127 127 0
-0.452352 -0.176146 0.146171 127 127 0
0.286599 -0.442748 0.303493 127 127 0
0.089705 0.208882 -0.476850 127 127 0
0.102062 -0.935326 -0.004352 127 127 0
-0.300219 -0.031323 -0.312675 127 127 0
0.218046 -0.282301 0.372047 127 127 0
0.322163 -0.797550 -0.282301 127 127 0
0.457787 -0.243910 0.126269 127 127 0
-0.309433 0.612117 -0.282997 127 127 0
0.264236 -0.887392 0.312805 127 127 0
-0.378421 0.335797 -0.234473 127 127 0
-0.218782 -0.587928 0.379740 127 127 0
-0.482300 -0.111366 -0.037153 127 127 0
0.243141 0.751050 -0.334726 0 255 0
-0.362171 -0.387748 -0.250723 127 127 0
-0.036275 -0.684313 0.470623 127 127 0
0.203909 -0.203436 -0.400555 127 127 0
0.072062 -0.870537 -0.428607 127 127 0
-0.445041 0.363837 -0.167854 127 127 0
0.400774 -0.490529 0.189318 127 127 0
-0.304746 0.477967 -0.308149 127 127 0
-0.098082 0.897562 -0.334707 0 255 0
-0.334376 -0.741573 -0.278519 127 127 0
0.094690 0.042049 0.461823 127 127 0
-0.467050 -0.377990 0.124260 127 127 0
-0.206832 -0.935326 0.069007 127 127 0
0.318023 -0.347470 0.272069 127 127 0
-0.233477 0.151402 -0.379417 127 127 0
-0.323696 -0.886902 0.262463 127 127 0
0.336527 -0.688646 -0.267937 127 127 0
0.441612 0.193968 0.148480 127 127 0
-0.259132 -0.418684 0.339390 127 127 0
-0.156068 0.709814 0.358267 127 127 0
-0.227784 -0.935326 -0.064879 127 127 0
0.486097 0.432434 0.007858 127 127 0
0.248676 0.645663 0.280732 127 127 0
-0.402430 0.021128 -0.210465 127 127 0
0.347311 -0.385758 0.242782 127 127 0
0.360502 0.092764 0.229590 127 127 0
-0.460292 -0.681078 -0.152603 127 127 0
-0.356760 -0.919008 0.048193 127 127 0
-0.338494 0.308692 -0.274400 127 127 0
0.486596 0.483727 -0.004058 127 127 0
-0.021276 -0.765017 0.463822 127 127 0
0.462293 -0.359088 -0.125074 127 127 0
0.372129 -0.744622 0.217964 127 127 0
-0.300720 -0.868609 0.297803 127 127 0
0.192498 0.676112 -0.338764 127 127 0
-0.290852 -0.927713 0.081401 127 127 0
0.337514 -0.444390 -0.266950 127 127 0
0.146071 0.896385 -0.033867 0 255 0
-0.166261 -0.332313 -0.446634 127 127 0
-0.473435 0.409485 -0.134477 127 127 0
-0.309292 -0.834672 0.289231 127 127 0
0.057152 0.587131 0.419113 127 127 0
0.425455 -0.027531 0.164638 127 127 0
-0.309868 0.896385 -0.091571 0 255 0
-0.285295 -0.780861 0.313228 127 127 0
-0.315007 0.357177 -0.297888 127 127 0
-0.235616 -0.889332 -0.353986 127 127 0
-0.178075 0.145904 0.420447 127 127 0
-0.439551 0.391902 0.158972 127 127 0
-0.438072 -0.079274 -0.174823 127 127 0
0.173940 -0.935326 -0.134876 127 127 0
0.395757 0.850635 0.099199 0 255 0
0.255114 0.902056 -0.275906 0 255 0
-0.351355 -0.721808 0.247168 127 127 0
-0.240465 0.388689 -0.372430 127 127 0
0.404341 -0.862965 0.135868 127 127 0
0.324208 0.519663 -0.280256 127 127 0
-0.159859 0.213064 -0.453035 127 127 0
-0.169486 -0.299959 0.429036 127 127 0
-0.478604 -0.418456 0.050850 127 127 0
-0.473763 -0.248168 -0.101996 127 127 0
0.484633 0.462354 -0.044346 127 127 0
-0.330885 0.902056 -0.135271 0 255 0
0.062652 -0.054563 0.466041 127 127 0
-0.030017 0.900754 -0.407279 0 255 0
-0.408401 0.793854 0.067197 0 255 0
0.440997 -0.741248 -0.163467 127 127 0
0.130291 -0.935326 0.031759 127 127 0
0.320950 -0.022576 0.269143 127 127 0
-0.281088 0.427870 -0.331806 127 127 0
0.084368 -0.821144 -0.451338 127 127 0
0.328664 -0.835048 -0.275800 127 127 0
-0.303663 -0.696458 0.294860 127 127 0
-0.242477 0.068783 0.356045 127 127 0
-0.349470 -0.029829 0.249053 127 127 0
-0.258199 0.088222 0.340324 127 127 0
0.251916 0.214005 -0.352548 127 127 0
0.258852 -0.924255 0.178552 127 127 0
0.385623 -0.051443 -0.218841 127 127 0
-0.069338 -0.138300 -0.480642 127 127 0
0.171968 -0.430880 0.418125 127 127 0
0.024152 0.491620 -0.492742 127 127 0
0.048888 0.331816 -0.482224 127 127 0
0.014428 0.448204 -0.498382 127 127 0
0.312935 -0.458004 -0.291529 127 127 0
-0.355790 0.383117 -0.257105 127 127 0
-0.282628 0.457691 0.315895 127 127 0
0.121157 0.731928 -0.379264 0 255 0
-0.477831 -0.536673 0.056720 127 127 0
0.474148 -0.620907 0.020660 127 127 0
-0.239644 -0.482751 0.358878 127 127 0
-0.213966 0.702579 -0.348638 127 127 0
-0.012331 0.074264 0.473776 127 127 0
0.078135 -0.438295 -0.478374 127 127 0
-0.019296 -0.007043 0.472859 127 127 0
0.430081 0.277095 -0.174383 127 127 0
-0.039729 -0.037073 -0.484540 127 127 0
-0.162984 -0.935326 0.032711 127 127 0
-0.143907 -0.519341 0.452233 127 127 0
-0.254570 -0.635866 -0.358324 127 127 0
0.409585 0.877444 -0.005832 0 255 0
-0.434796 0.016520 -0.178098 127 127 0
-0.353491 0.375086 0.245032 127 127 0
0.473708 0.464014 0.111722 127 127 0
0.466830 -0.520680 0.076244 127 127 0
0.072866 -0.935326 0.269610 127 127 0
-0.134179 0.090760 -0.470634 127 127 0
-0.266690 0.006613 -0.346204 127 127 0
-0.388968 0.848478 -0.150833 0 255 0
0.411188 -0.573943 0.178904 127 127 0
0.209484 -0.935326 -0.178263 127 127 0
-0.455196 0.411226 -0.157699 127 127 0
0.477016 -0.530138 -0.013245 127 127 0
-0.222126 0.412034 0.376397 127 127 0
-0.395851 0.708553 0.055463 127 127 0
0.253596 0.896385 0.026053 0 255 0
0.468844 0.109028 0.060948 127 127 0
-0.359612 0.700093 -0.191575 127 127 0
-0.409873 -0.694165 -0.203021 127 127 0
0.463215 -0.693257 0.102118 127 127 0
0.388743 0.289562 -0.215721 127 127 0
-0.020721 0.697354 -0.407577 127 127 0
-0.474657 -0.384911 -0.095206 127 127 0
-0.344340 -0.709145 -0.268555 127 127 0
0.225394 0.714380 -0.325154 127 127 0
0.453434 -0.773146 -0.110560 127 127 0
-0.475143 0.496144 -0.131079 127 127 0
0.279072 0.428615 -0.325391 127 127 0
-0.073475 -0.868439 -0.430768 127 127 0
-0.191624 0.896385 0.218439 0 255 0
0.471795 0.107828 -0.052906 127 127 0
-0.361782 -0.539179 0.236740 127 127 0
-0.339793 -0.484523 -0.273102 127 127 0
0.215627 0.645137 -0.321011 127 127 0
0.315488 -0.212077 -0.288976 127 127 0
0.228682 0.423915 -0.375781 127 127 0
-0.352865 -0.885363 -0.240498 127 127 0
0.427816 -0.234792 0.162276 127 127 0
0.001230 0.902056 -0.381906 0 255 0
0.279575 -0.924083 0.151512 127 127 0
0.387763 -0.043690 0.202329 127 127 0
-0.076462 -0.935326 -0.099526 127 127 0
0.142849 -0.915588 -0.357100 127 127 0
-0.319826 -0.093747 -0.293069 127 127 0
-0.070734 0.861290 0.398036 0 255 0
0.330785 -0.342422 -0.273679 127 127 0
-0.197640 0.747554 0.356753 0 255 0
-0.256826 0.447519 -0.356068 127 127 0
-0.367223 0.779381 0.188959 0 255 0
0.000025 0.713583 0.388524 127 127 0
-0.033669 0.896385 -0.232207 0 255 0
-0.199187 -0.521474 -0.413707 127 127 0
0.158180 -0.003076 0.431913 127 127 0
-0.470250 -0.435074 0.114308 127 127 0
-0.231293 0.266889 0.367229 127 127 0
-0.470146 -0.263092 -0.129465 127 127 0
-0.476439 -0.278912 0.067300 127 127 0
-0.367698 -0.914391 -0.142352 127 127 0
-0.227624 -0.922044 -0.259924 127 127 0
-0.382460 -0.294587 -0.230435 127 127 0
0.304749 0.644124 -0.234735 127 127 0
-0.447602 -0.507597 -0.165293 127 127 0
-0.399068 -0.056360 -0.213827 127 127 0
-0.421230 -0.132821 0.177293 127 127 0
-0.243030 -0.935326 -0.018731 127 127 0
-0.001096 0.896385 -0.297249 0 255 0
-0.270847 0.735004 -0.310795 0 255 0
0.201866 0.896385 0.172794 0 255 0
0.338618 -0.271264 -0.265846 127 127 0
0.386102 0.865999 -0.137398 0 255 0
0.292641 -0.414678 -0.311823 127 127 0
-0.487426 0.461477 0.072832 127 127 0
0.184178 -0.734198 -0.420286 127 127 0
0.262470 -0.036161 -0.341994 127 127 0
0.064725 -0.935326 0.118902 127 127 0
0.422399 0.038273 0.167693 127 127 0
-0.058683 -0.623847 0.467673 127 127 0
0.474179 0.271140 -0.034799 127 127 0
-0.303798 -0.488648 0.294724 127 127 0
0.232319 -0.935326 -0.139629 127 127 0
0.116668 -0.737964 -0.469399 127 127 0
-0.427446 -0.820473 0.152619 127 127 0
-0.455127 0.259816 -0.157768 127 127 0
0.355152 -0.259868 0.234940 127 127 0
0.407836 0.378138 -0.196628 127 127 0
0.160237 0.368868 -0.444227 127 127 0
0.334501 0.379021 0.255591 127 127 0
0.409801 0.216821 -0.194663 127 127 0
-0.030010 0.902056 -0.353590 0 255 0
0.235703 -0.935326 0.093294 127 127 0
0.041091 -0.583723 -0.483251 127 127 0
0.132421 -0.362595 0.453499 127 127 0
0.078015 -0.556171 0.464018 127 127 0
-0.136432 0.896385 0.072349 0 255 0
-0.187594 0.115348 -0.425300 127 127 0
-0.223960 0.019231 0.374563 127 127 0
-0.469990 -0.193918 0.116278 127 127 0
-0.074775 -0.787950 -0.465250 127 127 0
0.423856 0.587516 -0.052658 127 127 0
0.469040 0.528631 0.020763 127 127 0
0.372118 0.872915 0.156788 0 255 0
0.391783 0.108530 -0.212681 127 127 0
-0.359589 0.902056 0.075623 0 255 0
-0.376481 -0.765938 0.222042 127 127 0
-0.404027 -0.646808 -0.208867 127 127 0
-0.382556 -0.653432 0.215967 127 127 0
0.195390 0.896385 0.061360 0 255 0
0.375807 0.575600 0.214285 127 127 0
-0.199818 -0.429357 0.398704 127 127 0
0.220600 -0.444476 -0.383864 127 127 0
-0.001624 -0.437466 -0.488875 127 127 0
-0.005059 0.840554 0.406682 0 255 0
0.151932 -0.241157 0.438161 127 127 0
-0.010347 0.054963 -0.488409 127 127 0
0.250586 -0.731915 -0.353877 127 127 0
0.003818 -0.924414 0.315238 127 127 0
0.471894 -0.243526 0.037783 127 127 0
-0.475288 0.522982 0.056126 127 127 0
0.363120 0.902056 -0.127326 0 255 0
-0.351942 0.788971 0.213864 0 255 0
0.121694 -0.916448 0.345286 127 127 0
-0.342733 -0.914507 0.186225 127 127 0
0.467171 -0.100536 0.073656 127 127 0
-0.265977 0.357072 -0.346917 127 127 0
0.467725 -0.596425 -0.083822 127 127 0
-0.477903 -0.658797 -0.070549 127 127 0
-0.377563 0.731928 0.067746 0 255 0
0.394062 -0.012446 -0.210402 127 127 0
0.287344 0.529890 0.302749 127 127 0
0.227994 0.475004 -0.376469 127 127 0
-0.181019 0.357420 -0.431875 127 127 0
-0.432656 -0.092781 0.165867 127 127 0
-0.369075 -0.512775 0.229448 127 127 0
-0.166566 0.896385 -0.110368 0 255 0
0.321774 -0.785900 0.268318 127 127 0
0.223401 -0.915556 -0.311224 127 127 0
0.283670 -0.780579 0.306423 127 127 0
-0.204857 0.370430 0.393665 127 127 0
0.192488 -0.259444 -0.411976 127 127 0
-0.336218 -0.883726 -0.263974 127 127 0
-0.416716 -0.447830 -0.196179 127 127 0
0.367828 0.681128 -0.132438 127 127 0
-0.471954 0.248682 0.101366 127 127 0
-0.414715 0.607132 -0.062143 127 127 0
-0.151406 -0.424402 0.447116 127 127 0
-0.485047 -0.243646 -0.016284 127 127 0
0.011816 0.008762 -0.487105 127 127 0
0.380022 -0.913769 0.075065 127 127 0
0.052718 -0.208136 0.467349 127 127 0
-0.178795 -0.877699 -0.393354 127 127 0
-0.207749 -0.158400 -0.405145 127 127 0
0.391232 -0.908588 -0.084984 127 127 0
-0.188832 0.528835 -0.424062 127 127 0
-0.126707 -0.924766 -0.301044 127 127 0
-0.239273 0.896385 0.003520 0 255 0
0.406211 -0.554109 -0.198252 127 127 0
-0.228468 0.653571 0.295561 127 127 0
-0.417133 -0.176356 -0.195762 127 127 0
0.470651 -0.149911 -0.061595 127 127 0
-0.248955 -0.127451 -0.363940 127 127 0
0.103609 0.604718 0.398362 127 127 0
-0.308263 0.301093 0.290259 127 127 0
-0.312561 -0.606107 0.285961 127 127 0
0.264194 -0.030809 0.325898 127 127 0
0.094582 0.896385 0.084921 0 255 0
0.160796 -0.154226 -0.443668 127 127 0
0.337367 0.054302 0.252725 127 127 0
0.258639 -0.220757 0.331453 127 127 0
-0.452389 0.169639 0.146134 127 127 0
0.248500 -0.288317 0.341593 127 127 0
0.047579 -0.451597 -0.482397 127 127 0
0.472407 0.355512 0.033883 127 127 0
-0.263093 0.896385 -0.171979 0 255 0
0.200791 -0.183801 0.389301 127 127 0
-0.256123 0.624966 0.303011 127 127 0
0.248118 -0.596517 -0.356346 127 127 0
-0.259896 -0.164469 -0.352999 127 127 0
-0.094964 -0.593989 -0.477268 127 127 0
-0.366882 0.814581 -0.204154 0 255 0
-0.235860 0.277552 -0.377034 127 127 0
-0.301045 -0.922192 -0.167356 127 127 0
-0.338128 -0.281904 0.260394 127 127 0
-0.474291 0.061940 -0.097981 127 127 0
-0.469863 0.389759 0.117248 127 127 0
-0.293266 0.712174 -0.277621 127 127 0
-0.221916 0.829650 -0.357482 0 255 0
0.271065 -0.503872 -0.333399 127 127 0
0.303518 0.170210 -0.300946 127 127 0
0.306500 0.611914 -0.276107 127 127 0
0.217185 -0.206887 0.372908 127 127 0
-0.061091 0.700633 -0.401974 127 127 0
-0.069249 0.529302 -0.475265 127 127 0
-0.379431 0.459113 0.219093 127 127 0
0.072532 -0.935326 -0.231597 127 127 0
-0.369110 0.624493 0.156708 127 127 0
-0.018113 -0.928206 -0.303335 127 127 0
-0.424120 -0.329669 0.174403 127 127 0
-0.346200 -0.121869 0.252322 127 127 0
0.206663 0.053181 -0.397801 127 127 0
-0.438423 0.506402 -0.174472 127 127 0
0.388716 0.250604 0.201376 127 127 0
0.261823 0.070594 -0.342641 127 127 0
0.471727 -0.233685 -0.053417 127 127 0
-0.158797 -0.659065 -0.454097 127 127 0
-0.345069 0.679058 -0.200745 127 127 0
-0.386221 0.867620 0.143093 0 255 0
0.362526 0.757096 0.179945 0 255 0
0.476710 -0.703254 -0.011852 127 127 0
-0.258311 0.240278 -0.354583 127 127 0
-0.159090 -0.611651 -0.453804 127 127 0
-0.138459 0.782720 0.381462 0 255 0
-0.266923 -0.667267 0.331599 127 127 0
-0.201530 0.097999 0.396993 127 127 0
0.160304 0.647006 0.337345 127 127 0
0.407798 -0.183757 -0.196666 127 127 0
-0.455623 0.414276 0.142900 127 127 0
-0.045635 0.016778 -0.483763 127 127 0
0.211519 -0.784422 0.378574 127 127 0
0.146184 0.158803 -0.458280 127 127 0
0.462247 -0.485879 0.111060 127 127 0
-0.357837 -0.910685 -0.200423 127 127 0
0.068099 0.641128 0.372739 127 127 0
0.033311 -0.266103 0.469904 127 127 0
-0.485776 -0.387796 -0.003625 127 127 0
0.350209 0.268094 -0.254255 127 127 0
-0.340963 0.842093 0.228172 0 255 0
0.365253 0.081384 -0.239211 127 127 0
0.095819 -0.022856 0.461674 127 127 0
-0.425840 -0.872107 -0.074886 127 127 0
0.372037 -0.366620 -0.232427 127 127 0
-0.467270 -0.729221 0.116687 127 127 0
-0.292357 0.257833 -0.320538 127 127 0
-0.282938 0.661300 0.248376 127 127 0
-0.472986 0.218168 0.093524 127 127 0
0.067443 0.848049 -0.411730 0 255 0
0.063859 -0.628352 0.465882 127 127 0
-0.350780 0.171874 -0.262115 127 127 0
-0.093345 -0.923188 -0.326250 127 127 0
-0.202674 0.204518 0.395848 127 127 0
-0.413089 0.324366 -0.199806 127 127 0
-0.190576 -0.050393 -0.422318 127 127 0
-0.427753 0.333498 0.170770 127 127 0
0.123251 -0.935326 0.232744 127 127 0
-0.131412 -0.543907 0.457409 127 127 0
-0.370814 0.650742 0.096002 127 127 0
0.254944 0.578743 -0.349520 127 127 0
0.210771 0.080910 0.379321 127 127 0
-0.480953 -0.126377 0.033011 127 127 0
-0.337312 0.902056 0.137077 0 255 0
0.233030 -0.811393 0.357063 127 127 0
-0.292131 -0.697672 -0.320764 127 127 0
0.408905 0.266016 -0.195559 127 127 0
0.469233 0.153680 0.057991 127 127 0
-0.342046 -0.918265 -0.136781 127 127 0
-0.466387 -0.755849 -0.105216 127 127 0
0.210745 0.558818 0.379347 127 127 0
0.176588 0.190436 -0.427876 127 127 0
-0.283936 0.148875 0.314587 127 127 0
-0.120393 0.744427 -0.402654 0 255 0
0.034254 -0.925735 0.302350 127 127 0
0.462026 0.301319 -0.127107 127 127 0
-0.435156 -0.859951 0.043197 127 127 0
0.297206 -0.167907 0.292887 127 127 0
0.065595 0.896385 -0.230863 0 255 0
0.127859 0.218302 0.455388 127 127 0
-0.254299 0.706689 -0.315985 127 127 0
-0.366975 0.267842 -0.245919 127 127 0
0.264767 -0.674259 -0.339697 127 127 0
0.033822 -0.935326 0.161085 127 127 0
0.001077 -0.126499 -0.488519 127 127 0
0.178536 -0.682497 -0.425928 127 127 0
0.256954 0.523408 -0.347510 127 127 0
0.475933 -0.244692 0.007098 127 127 0
-0.238733 -0.935326 0.027000 127 127 0
-0.011376 -0.279513 -0.488273 127 127 0
0.342904 -0.016196 -0.261560 127 127 0
0.105394 0.571682 0.425822 127 127 0
-0.206880 -0.279380 -0.406014 127 127 0
-0.240809 -0.727962 -0.372085 127 127 0
-0.470649 -0.778072 0.019814 127 127 0
-0.478321 0.493396 0.098777 127 127 0
0.242868 -0.506256 0.347224 127 127 0
-0.472305 0.245744 -0.113066 127 127 0
-0.294302 0.431122 0.304221 127 127 0
-0.111646 -0.406976 -0.475071 127 127 0
-0.289044 0.540036 0.309479 127 127 0
-0.272167 0.469809 -0.340727 127 127 0
0.473796 -0.129778 0.023333 127 127 0
0.301782 0.786356 -0.282617 0 255 0
0.372577 -0.613561 0.217515 127 127 0
0.304763 0.896385 0.058420 0 255 0
-0.462588 -0.636802 0.135032 127 127 0
-0.418932 -0.647702 0.179591 127 127 0
-0.321815 -0.195176 -0.291080 127 127 0
0.139816 0.896385 -0.093768 0 255 0
-0.483453 -0.202969 0.014018 127 127 0
0.091123 0.478125 0.472456 127 127 0
-0.369370 -0.011720 -0.243524 127 127 0
0.112645 0.896385 -0.220703 0 255 0
0.020452 -0.935326 0.249344 127 127 0
-0.362225 0.219909 -0.250670 127 127 0
-0.325953 0.709763 -0.238035 127 127 0
-0.041558 -0.935326 -0.111062 127 127 0
0.195189 -0.308942 -0.409275 127 127 0
-0.167367 0.270717 -0.445528 127 127 0
0.468633 -0.266580 0.062551 127 127 0
0.205377 -0.334844 0.384716 127 127 0
0.186362 -0.903596 -0.367636 127 127 0
-0.207822 -0.869313 0.372270 127 127 0
-0.375743 0.210718 0.222780 127 127 0
-0.426843 0.584704 -0.111786 127 127 0
0.200498 -0.913662 -0.344714 127 127 0
0.210560 -0.371745 -0.393904 127 127 0
-0.316393 0.556745 0.282130 127 127 0
-0.457908 0.223141 -0.154987 127 127 0
0.048346 -0.765797 -0.473364 127 127 0
-0.344550 -0.307977 0.253973 127 127 0
0.007977 -0.632709 -0.487611 127 127 0
-0.186891 0.676846 0.333401 127 127 0
0.173367 0.098175 -0.431097 127 127 0
-0.260185 0.100651 -0.352710 127 127 0
-0.248523 0.483957 0.350000 127 127 0
-0.190541 0.896385 0.070633 0 255 0
-0.044863 0.896385 0.249094 0 255 0
0.195894 0.439980 0.394198 127 127 0
-0.494257 0.442112 0.018194 127 127 0
-0.209642 -0.796541 -0.403252 127 127 0
-0.043343 -0.384964 0.469693 127 127 0
-0.158861 -0.922971 0.286313 127 127 0
0.361836 0.822504 -0.195981 0 255 0
-0.466143 0.362516 0.126450 127 127 0
-0.214961 0.900164 0.336836 0 255 0
-0.468974 -0.588537 -0.133987 127 127 0
-0.312711 0.896385 0.025004 0 255 0
-0.214189 -0.867087 -0.385413 127 127 0
0.402503 0.875455 -0.062330 0 255 0
0.242060 -0.935326 -0.029249 127 127 0
0.183628 0.607624 -0.377224 127 127 0
0.475014 -0.672914 0.014083 127 127 0
0.085900 -0.431480 0.462980 127 127 0
-0.011761 -0.935326 -0.208296 127 127 0
0.302674 0.180446 0.287418 127 127 0
-0.359128 0.578697 0.239396 127 127 0
0.083996 0.828526 0.395180 0 255 0
-0.477470 0.091507 0.059466 127 127 0
-0.085107 -0.710755 -0.477609 127 127 0
0.343208 -0.503755 -0.261256 127 127 0
-0.231930 0.896385 0.171448 0 255 0
-0.377512 0.702182 -0.147648 127 127 0
0.391681 0.759603 -0.123929 0 255 0
-0.205956 -0.641435 0.392566 127 127 0
-0.119439 -0.348528 -0.474045 127 127 0
-0.394445 -0.795286 0.204078 127 127 0
0.372335 -0.451054 0.217757 127 127 0
-0.109700 -0.022493 -0.475328 127 127 0
-0.251573 -0.442040 -0.361322 127 127 0
0.471237 -0.284978 -0.057143 127 127 0
0.063517 0.598068 -0.423547 127 127 0
0.466331 0.326767 -0.094405 127 127 0
-0.130664 0.732792 0.372055 0 255 0
0.132148 -0.442260 0.453612 127 127 0
-0.204527 0.502302 -0.408368 127 127 0
0.334833 0.282871 0.255259 127 127 0
0.173553 0.896385 0.157666 0 255 0
0.253448 -0.611135 0.336645 127 127 0
-0.485427 0.117282 -0.000974 127 127 0
-0.160957 -0.935326 0.162032 127 127 0
-0.228965 -0.687714 -0.383929 127 127 0
-0.203692 0.410318 0.394831 127 127 0
-0.008987 -0.148991 0.474216 127 127 0
0.423241 -0.610340 0.166852 127 127 0
0.278130 -0.595275 -0.326334 127 127 0
-0.126832 -0.806103 -0.451708 127 127 0
0.475854 0.136655 -0.022075 127 127 0
0.403880 0.821180 0.037498 0 255 0
0.142433 0.408300 0.447659 127 127 0
0.119489 0.687350 0.370746 127 127 0
-0.298172 -0.251973 0.300350 127 127 0
0.259427 0.731884 0.265337 127 127 0
-0.142224 0.902056 0.308063 0 255 0
0.315105 -0.365982 -0.289359 127 127 0
-0.470991 0.116251 -0.123053 127 127 0
0.266575 0.893626 0.299461 0 255 0
0.458816 0.509063 0.130941 127 127 0
-0.392260 -0.901167 0.121510 127 127 0
-0.016512 0.896385 -0.032972 0 255 0
0.304927 0.896385 -0.040103 0 255 0
0.368259 -0.617579 -0.236205 127 127 0
-0.475482 -0.382213 0.074566 127 127 0
0.414091 0.587611 -0.121646 127 127 0
0.154483 0.097976 -0.449981 127 127 0
-0.060218 -0.674570 0.467471 127 127 0
0.354078 -0.839994 0.236015 127 127 0
-0.094955 -0.935326 -0.070806 127 127 0
-0.372396 -0.680091 -0.240498 127 127 0
0.371660 0.017132 0.218433 127 127 0
-0.294455 0.789651 -0.301821 0 255 0
0.131945 0.306682 0.453696 127 127 0
0.375046 -0.693296 0.215046 127 127 0
-0.376514 0.153306 0.222008 127 127 0
-0.271707 0.902056 0.266237 0 255 0
-0.082068 -0.258205 0.464594 127 127 0
-0.220054 0.543099 0.378469 127 127 0
-0.309682 0.382728 0.288841 127 127 0
0.305042 0.902056 -0.201505 0 255 0
0.058944 0.896385 -0.264995 0 255 0
-0.135196 0.009418 0.455841 127 127 0
0.023801 -0.298712 0.471156 127 127 0
0.142845 -0.050067 0.447247 127 127 0
-0.341897 0.836856 -0.241326 0 255 0
0.124575 -0.935326 0.091172 127 127 0
-0.196089 0.456613 0.402434 127 127 0
0.065047 0.450322 -0.491733 127 127 0
0.472603 -0.573367 -0.046764 127 127 0
-0.468665 -0.556866 -0.134732 127 127 0
0.451128 -0.393938 0.138964 127 127 0
-0.477890 -0.175139 0.056279 127 127 0
0.130339 0.266659 -0.468733 127 127 0
0.220710 0.284055 0.369382 127 127 0
-0.384553 -0.857235 -0.226261 127 127 0
-0.126848 0.318232 -0.473070 127 127 0
0.261710 0.192063 -0.342754 127 127 0
-0.362007 0.731928 0.134602 0 255 0
-0.481388 -0.003966 0.029707 127 127 0
-0.485088 -0.316814 0.001604 127 127 0
-0.155610 -0.251551 0.442912 127 127 0
0.037635 0.896385 -0.226959 0 255 0
0.474937 -0.334873 0.014666 127 127 0
-0.339852 -0.920412 0.090306 127 127 0
-0.395230 0.709920 -0.068438 127 127 0
0.304611 -0.399249 0.285481 127 127 0
0.345364 0.378427 -0.259100 127 127 0
0.193380 0.896385 -0.150731 0 255 0
-0.032888 0.896385 0.213609 0 255 0
0.390305 -0.780822 -0.214159 127 127 0
0.355102 0.676654 0.129069 127 127 0
0.469760 0.223320 0.053992 127 127 0
-0.048675 0.859628 -0.415311 0 255 0
0.064486 -0.935326 0.201310 127 127 0
-0.220405 0.902056 -0.281271 0 255 0
-0.242395 0.366832 0.356128 127 127 0
0.116053 -0.935326 -0.127532 127 127 0
0.318725 0.625391 0.227539 127 127 0
0.406542 0.607165 -0.059975 127 127 0
0.375672 0.443989 -0.228792 127 127 0
-0.477932 0.408807 -0.102795 127 127 0
-0.386921 0.553219 -0.225973 127 127 0
0.370675 0.765581 -0.174643 0 255 0
-0.083716 -0.935326 0.261737 127 127 0
0.137035 0.646152 -0.362118 127 127 0
0.392404 -0.676128 0.197688 127 127 0
0.456276 0.549014 0.030262 127 127 0
0.466496 0.276186 0.078781 127 127 0
0.266006 -0.921153 0.203201 127 127 0
0.339672 -0.080124 0.250420 127 127 0
-0.320135 0.386679 -0.292759 127 127 0
0.431365 -0.569026 -0.173099 127 127 0
0.023717 0.896385 0.186162 0 255 0
0.018105 0.007926 0.471905 127 127 0
0.216196 0.721512 0.298510 127 127 0
-0.476372 -0.206172 0.067809 127 127 0
0.230210 -0.243478 0.359882 127 127 0
0.009298 -0.063791 -0.487437 127 127 0
-0.036473 0.625122 -0.405703 127 127 0
0.077699 0.896385 0.169462 0 255 0
0.317015 0.902056 0.200929 0 255 0
-0.053007 -0.119596 0.468420 127 127 0
-0.274779 0.896385 -0.045039 0 255 0
0.325788 -0.914768 0.195217 127 127 0
0.205279 0.233505 -0.399185 127 127 0
0.138251 -0.411411 -0.465456 127 127 0
0.420897 -0.847649 -0.130998 127 127 0
-0.139354 0.896385 0.200286 0 255 0
0.467252 0.399557 0.086004 127 127 0
0.442316 -0.402964 -0.162148 127 127 0
0.013429 -0.812324 0.449673 127 127 0
-0.356747 0.408918 0.241776 127 127 0
0.208584 0.439469 -0.395880 127 127 0
-0.265074 -0.273321 0.333448 127 127 0
0.368411 0.136120 -0.236053 127 127 0
0.425088 0.053282 -0.179376 127 127 0
0.002502 -0.095192 0.473960 127 127 0
0.280904 0.556329 -0.323560 127 127 0
0.350106 -0.284871 0.239986 127 127 0
0.464656 -0.340582 -0.107128 127 127 0
0.309468 0.896385 0.101541 0 255 0
-0.241203 0.709487 0.310107 127 127 0
0.253300 0.475910 0.336792 127 127 0
-0.154018 -0.494271 0.444504 127 127 0
-0.030801 -0.330370 -0.485716 127 127 0
-0.478799 -0.078466 -0.063743 127 127 0
0.339772 0.571097 0.250320 127 127 0
-0.290965 -0.916965 -0.241892 127 127 0
0.102670 0.891082 0.391577 0 255 0
0.095772 0.764092 -0.408000 0 255 0
-0.235272 -0.133434 0.363250 127 127 0
0.176821 0.896385 -0.259846 0 255 0
0.460700 -0.791678 -0.016670 127 127 0
0.282250 -0.822861 -0.322214 127 127 0
0.025179 0.416913 -0.492402 127 127 0
0.123841 -0.540619 -0.471424 127 127 0
-0.087714 -0.935326 0.147557 127 127 0
0.404953 0.289088 0.185139 127 127 0
0.354416 0.798039 -0.213896 0 255 0
0.475174 -0.105837 -0.027242 127 127 0
0.052296 0.632836 -0.396091 127 127 0
0.459175 -0.793450 0.009588 127 127 0
-0.258144 0.902056 0.288683 0 255 0
0.260001 -0.916097 -0.278591 127 127 0
-0.035818 0.894183 0.399929 0 255 0
0.445456 -0.797489 0.104019 127 127 0
-0.166972 0.113008 -0.445922 127 127 0
0.087300 -0.779901 0.450282 127 127 0
0.088830 0.896385 0.205320 0 255 0
-0.142269 0.607495 -0.397963 127 127 0
0.160873 -0.560012 -0.443591 127 127 0
0.194477 0.602144 0.363252 127 127 0
0.006176 0.434340 0.483954 127 127 0
-0.477690 -0.142116 -0.072169 127 127 0
0.401283 0.808292 -0.071596 0 255 0
-0.063857 -0.935326 -0.219066 127 127 0
0.476789 0.225337 0.000600 127 127 0
0.308580 0.834896 0.259387 0 255 0
-0.294765 0.633764 -0.272774 127 127 0
-0.368988 -0.242537 0.229535 127 127 0
0.466111 -0.074400 0.081705 127 127 0
-0.013895 0.543291 -0.474873 127 127 0
-0.478190 0.510306 -0.082990 127 127 0
0.476615 -0.142148 -0.016293 127 127 0
0.348108 0.008969 0.241984 127 127 0
0.109077 -0.928378 -0.278791 127 127 0
0.332584 0.561009 -0.271880 127 127 0
0.229818 -0.227543 -0.374646 127 127 0
-0.248574 -0.624968 0.349948 127 127 0
-0.224727 -0.087848 0.373795 127 127 0
0.353349 0.691081 -0.184065 127 127 0
-0.427963 0.449534 -0.184932 127 127 0
-0.121351 0.872717 0.388549 0 255 0
-0.079719 -0.202979 0.464904 127 127 0
-0.326277 0.141076 -0.286617 127 127 0
0.361219 0.414142 -0.243245 127 127 0
0.464057 -0.276737 -0.111676 127 127 0
0.018820 0.868962 0.403760 0 255 0
0.025788 -0.050029 0.470894 127 127 0
-0.409589 -0.466851 0.188933 127 127 0
-0.030795 0.829475 0.403294 0 255 0
0.051673 -0.830307 -0.451797 127 127 0
0.063832 0.902056 0.379147 0 255 0
-0.381871 0.677638 -0.099415 127 127 0
-0.206114 -0.551382 0.392408 127 127 0
0.311659 -0.844965 -0.292805 127 127 0
0.169276 0.813784 -0.379576 0 255 0
0.165863 -0.927887 -0.251745 127 127 0
-0.398878 -0.615425 -0.214017 127 127 0
-0.394426 0.631721 0.046455 127 127 0
-0.380927 0.862917 -0.170246 0 255 0
-0.193561 0.800204 0.358638 0 255 0
-0.075926 0.902056 0.377175 0 255 0
0.187181 0.496532 -0.417283 127 127 0
0.044164 0.436194 0.479162 127 127 0
-0.312377 -0.405319 0.286145 127 127 0
-0.288338 -0.788592 -0.324556 127 127 0
-0.053406 -0.722845 -0.480763 127 127 0
0.242418 -0.886384 -0.344761 127 127 0
0.465750 -0.483248 -0.098818 127 127 0
0.032955 -0.486070 -0.484322 127 127 0
0.336266 0.833918 -0.237677 0 255 0
0.316414 0.068958 -0.288050 127 127 0
0.224623 -0.126033 0.365470 127 127 0
-0.123465 -0.935326 -0.188451 127 127 0
-0.114297 0.896385 -0.305151 0 255 0
-0.283659 0.690864 0.279989 127 127 0
0.157310 0.485781 -0.447153 127 127 0
-0.161140 0.353365 -0.451754 127 127 0
0.443788 -0.719805 0.146305 127 127 0
-0.001071 0.896385 -0.130900 0 255 0
-0.179789 0.166724 -0.433105 127 127 0
-0.199440 -0.401962 -0.413454 127 127 0
