ply
format ascii 1.0
element vertex 1283
property float x
property float y
property float z
property uchar red
property uchar green
property uchar blue
end_header
-0.365016 0.186658 -0.117528 255 0 0
0.390362 0.681655 -0.000695 0 255 0
-0.306208 0.125633 -0.424197 127 0 127
0.029718 -0.464334 -0.335600 0 0 255
-0.189410 0.498696 -0.508002 127 127 0
-0.381557 0.089218 -0.078010 255 0 0
0.040188 -0.464334 0.393492 0 0 255
0.315122 -0.464334 0.286843 0 0 255
-0.300652 0.745410 -0.541084 0 255 0
-0.330279 0.706940 0.550630 76 153 0
0.316554 -0.626056 0.379705 153 0 76
0.370481 0.125633 -0.126340 127 0 127
0.010175 -0.486389 -0.387323 0 0 255
0.169774 0.384508 -0.496974 127 127 0
-0.365016 -0.277207 0.355354 255 0 0
0.379307 0.138835 0.484466 204 51 127
0.373821 -0.112282 0.319542 0 255 0
-0.365016 -0.481673 -0.402810 0 0 255
0.383660 0.220899 -0.541084 0 255 0
-0.160890 -0.464334 0.365463 0 0 255
0.118102 0.158715 -0.237185 127 0 127
0.260269 0.312323 0.550630 76 153 0
-0.381557 0.385366 -0.218380 255 0 0
-0.381557 -0.480763 0.223463 255 0 0
-0.172326 -0.464334 -0.373171 0 0 255
0.188641 -0.541653 0.363164 153 0 76
-0.028176 0.201954 -0.496974 127 127 0
0.103235 -0.464334 0.264585 0 0 255
-0.381557 0.534751 -0.004965 255 0 0
0.138003 0.784102 -0.508002 0 255 0
-0.381557 -0.195313 0.273287 255 0 0
0.373821 0.250920 -0.155998 0 255 0
-0.381557 0.473551 0.233817 255 0 0
0.080326 -0.464334 0.389911 0 0 255
0.011742 -0.474866 0.550630 76 153 0
0.373821 -0.649005 -0.521510 76 0 153
0.390362 0.018488 0.429489 0 255 0
-0.205477 -0.132875 -0.508002 127 127 0
-0.262001 0.653548 -0.496974 127 127 0
-0.365016 -0.232668 0.031701 255 0 0
-0.016812 0.184367 0.530643 76 153 0
-0.015109 0.280429 0.537535 76 153 0
0.373821 -0.247388 0.270737 0 255 0
0.078421 -0.464334 -0.138615 0 0 255
-0.079881 0.172996 -0.496974 127 127 0
0.159956 -0.486389 0.291319 0 0 255
-0.365016 0.111872 -0.384781 255 0 0
0.335225 -0.511436 0.504478 204 51 127
-0.253759 -0.158110 0.550630 76 153 0
-0.145640 -0.685399 -0.541084 153 76 0
-0.365016 0.454238 0.455011 255 0 0
-0.381557 -0.332045 0.082831 255 0 0
0.390362 -0.615138 -0.273203 76 0 153
-0.381557 -0.085515 0.093351 255 0 0
0.174565 -0.153224 -0.508002 127 127 0
0.390362 0.787167 -0.032932 0 255 0
0.390362 0.102259 0.007972 0 255 0
-0.365016 0.445119 -0.383581 255 0 0
-0.162467 -0.486389 -0.123691 0 0 255
-0.206355 -0.091599 -0.496974 127 127 0
-0.020342 -0.333155 -0.496974 127 127 0
0.271161 -0.638938 -0.541084 153 76 0
0.204810 -0.156509 0.530643 76 153 0
-0.381557 0.139296 0.004980 255 0 0
0.390362 0.666844 -0.268815 0 255 0
0.373821 0.095842 -0.099674 0 255 0
0.390362 0.402787 0.432995 0 255 0
-0.016900 0.433869 0.537535 76 153 0
0.060587 0.687109 -0.496974 127 127 0
-0.365016 0.411607 -0.128042 255 0 0
-0.065434 0.298078 -0.496974 127 127 0
0.373821 0.404633 0.165022 0 255 0
-0.335289 0.748682 -0.406099 76 0 153
0.397079 0.222018 0.517548 204 51 127
0.148719 -0.169188 -0.496974 127 127 0
0.335649 -0.486389 -0.168716 0 0 255
0.390362 0.585770 -0.038187 0 255 0
-0.365016 0.527486 0.233293 255 0 0
0.312934 0.557983 -0.508002 127 127 0
0.351356 0.734676 0.484466 204 51 127
0.390362 0.315314 0.170218 0 255 0
0.390362 -0.282292 0.231714 0 255 0
-0.365016 -0.447481 0.152843 255 0 0
-0.381557 -0.444827 0.209177 255 0 0
0.373821 -0.193232 -0.536461 0 255 0
-0.075074 -0.035041 -0.508002 127 127 0
-0.035095 0.560396 -0.508002 127 127 0
-0.039313 -0.464334 0.089627 0 0 255
0.390362 0.654099 -0.433035 0 255 0
0.179940 -0.104154 -0.496974 127 127 0
-0.381557 0.385573 -0.243058 255 0 0
-0.365016 -0.372318 -0.333613 255 0 0
-0.307402 -0.606945 -0.508002 153 76 0
-0.282823 0.204181 -0.508002 127 127 0
0.329002 0.125633 -0.136894 127 0 127
-0.381557 0.731191 -0.323375 255 0 0
0.373821 -0.626235 -0.019281 76 0 153
0.390362 -0.360599 -0.428880 0 255 0
0.373821 -0.514300 -0.231907 0 255 0
0.024636 0.158715 -0.192024 127 0 127
0.373821 -0.233470 -0.357487 0 255 0
0.373821 -0.008871 0.350366 0 255 0
0.140077 -0.053925 -0.508002 127 127 0
0.071439 0.710277 0.517548 76 153 0
-0.381557 0.111579 -0.146509 255 0 0
-0.022051 -0.221994 0.530643 76 153 0
0.373821 -0.363668 -0.303649 0 255 0
0.068796 -0.082415 0.537535 76 153 0
0.186808 -0.640281 -0.541084 153 76 0
-0.024720 -0.464334 0.406207 0 0 255
0.112364 -0.486389 -0.091127 0 0 255
-0.173703 -0.486389 0.088748 0 0 255
-0.381557 -0.399232 -0.039039 255 0 0
-0.381557 0.802547 -0.335505 255 0 0
-0.365016 -0.257436 0.454983 255 0 0
0.151374 0.125633 -0.404200 127 0 127
-0.381557 -0.615258 -0.278677 204 51 127
0.373821 -0.123378 -0.297089 0 255 0
-0.365016 0.568387 -0.080696 255 0 0
0.311031 0.674393 0.580023 153 0 76
0.254801 -0.143634 -0.508002 127 127 0
0.373821 -0.524985 -0.062349 76 0 153
-0.274596 0.770736 -0.474237 76 0 153
-0.199548 -0.472805 -0.496974 127 127 0
-0.162941 -0.486389 0.203069 0 0 255
-0.324178 -0.464334 0.006459 0 0 255
0.249175 -0.195552 0.537535 76 153 0
-0.381557 -0.092271 -0.444650 255 0 0
-0.227542 0.682597 -0.508002 127 127 0
0.373821 0.019473 -0.468410 0 255 0
0.373821 0.528206 -0.529678 0 255 0
-0.015484 -0.486389 0.076532 0 0 255
-0.381557 0.643721 -0.515764 255 0 0
-0.365016 0.491283 0.427068 255 0 0
-0.381557 0.085970 0.218470 255 0 0
-0.381557 -0.608739 0.114139 204 51 127
-0.365016 -0.164746 0.309020 255 0 0
0.390362 -0.343486 -0.322588 0 255 0
-0.365016 -0.260646 0.236441 255 0 0
0.373821 -0.447830 0.330790 0 255 0
-0.381557 0.007127 -0.230161 255 0 0
-0.334674 0.438648 0.517548 76 153 0
-0.030661 0.677118 -0.508002 127 127 0
0.162726 -0.486389 -0.320205 0 0 255
0.270146 -0.464334 -0.182829 0 0 255
-0.365016 0.521816 0.019579 255 0 0
-0.365016 0.059073 0.469451 255 0 0
0.103051 -0.070110 -0.508002 127 127 0
-0.381557 0.744304 0.157002 255 0 0
-0.392584 0.301065 0.514229 0 0 255
-0.099650 -0.453306 0.498857 255 0 0
0.150720 0.148849 -0.508002 127 127 0
0.381695 0.555493 0.484466 204 51 127
0.373821 0.785759 -0.395039 0 255 0
-0.175466 0.343502 0.537535 76 153 0
-0.365016 -0.127858 0.014158 255 0 0
-0.358173 0.274510 -0.508002 127 127 0
0.071047 -0.132674 -0.508002 127 127 0
0.390362 0.757499 0.156310 0 255 0
0.019214 0.360895 0.530643 76 153 0
0.228464 0.125633 -0.046318 127 0 127
-0.365016 -0.432168 -0.515768 255 0 0
-0.259548 0.158715 -0.049978 127 0 127
0.373821 -0.134148 -0.524420 0 255 0
-0.381557 -0.443648 0.385687 255 0 0
-0.216441 -0.464334 -0.137451 0 0 255
0.048611 -0.038909 0.530643 76 153 0
0.401389 0.716801 0.510936 204 51 127
-0.177026 -0.294246 -0.496974 127 127 0
-0.381557 -0.052800 -0.163169 255 0 0
0.320530 -0.478156 0.550630 76 153 0
-0.273328 -0.464334 0.131758 0 0 255
-0.381557 -0.199950 0.072439 255 0 0
-0.365016 -0.669847 0.125004 204 51 127
-0.283071 0.617315 -0.496974 127 127 0
0.390362 -0.335328 0.258180 0 255 0
-0.308898 -0.464334 0.273646 0 0 255
-0.076732 -0.524246 -0.541084 153 76 0
0.373821 0.754423 -0.283178 0 255 0
0.341357 -0.241303 -0.508002 127 127 0
-0.381557 0.707618 -0.186477 255 0 0
-0.182066 -0.462182 -0.508002 153 76 0
0.125655 -0.464334 -0.396332 0 0 255
0.158752 -0.464334 -0.214500 0 0 255
0.197509 0.158715 -0.249400 127 0 127
0.390362 0.158603 -0.085611 0 255 0
0.107718 -0.486389 -0.036791 0 0 255
0.390362 -0.512547 0.394776 0 255 0
-0.381557 0.351621 0.374450 255 0 0
-0.381557 0.058240 -0.447038 255 0 0
0.373821 0.273716 0.329521 0 255 0
0.373821 0.112266 0.329057 0 255 0
-0.365016 -0.191433 -0.513784 255 0 0
-0.086478 -0.380252 0.550630 76 153 0
0.368161 0.494679 -0.508002 127 127 0
-0.251539 -0.346070 -0.508002 127 127 0
0.390362 -0.537560 0.304261 76 0 153
0.387635 -0.519471 -0.530790 76 0 153
-0.365016 0.757095 -0.042010 255 0 0
-0.083506 -0.464334 -0.133154 0 0 255
0.373821 0.101338 0.269281 0 255 0
0.064823 -0.451248 0.550630 76 153 0
0.340769 -0.587499 0.363164 153 0 76
-0.066089 -0.464334 -0.286173 0 0 255
-0.381557 0.466658 -0.481910 255 0 0
-0.381557 -0.160702 0.113726 255 0 0
-0.048566 -0.512452 0.363164 153 0 76
0.088196 -0.578372 -0.508002 153 76 0
0.373821 -0.076270 0.450444 0 255 0
0.265431 -0.464334 -0.308892 0 0 255
-0.121808 -0.635892 0.379705 153 0 76
0.178523 -0.486389 0.415451 0 0 255
-0.365016 0.296068 -0.013912 255 0 0
0.390362 0.094941 -0.480719 0 255 0
-0.033098 -0.486389 -0.372500 0 0 255
-0.213395 -0.172938 -0.508002 127 127 0
0.332184 -0.517723 0.363164 153 0 76
-0.365016 -0.685401 0.000123 204 51 127
-0.365016 0.648366 0.195156 255 0 0
0.267144 0.665330 -0.508002 127 127 0
-0.365016 -0.064166 -0.071749 255 0 0
-0.156546 -0.641492 0.363164 153 0 76
0.152304 0.483286 0.537535 76 153 0
-0.381557 0.552142 -0.384571 255 0 0
0.346502 0.633742 -0.496974 127 127 0
-0.027433 0.320993 0.530643 76 153 0
0.369604 0.158715 -0.423133 127 0 127
-0.366611 -0.567133 -0.541084 204 51 127
-0.035781 -0.558861 0.379705 153 0 76
0.065434 0.112144 0.537535 76 153 0
-0.259837 0.611381 0.517548 76 153 0
-0.381557 0.054311 0.007211 255 0 0
-0.063380 -0.311277 -0.508002 127 127 0
-0.177824 -0.498992 0.379705 153 0 76
-0.020842 -0.486389 -0.256172 0 0 255
0.055088 -0.026154 -0.496974 127 127 0
-0.381557 0.345075 0.088687 255 0 0
0.091621 0.765094 0.550630 76 153 0
-0.365016 0.787997 -0.081581 255 0 0
-0.381557 0.244294 0.407520 255 0 0
0.251775 -0.577799 0.379705 153 0 76
0.371161 0.174083 -0.496974 127 127 0
0.152683 -0.464334 0.041205 0 0 255
-0.381557 -0.323156 -0.256345 255 0 0
-0.365016 0.574118 0.462285 255 0 0
0.373821 0.100344 -0.207206 0 255 0
0.228123 0.516284 0.530643 76 153 0
0.373821 -0.446438 -0.351924 0 255 0
0.017570 -0.464334 -0.077664 0 0 255
-0.307063 -0.486389 -0.129353 0 0 255
-0.247672 0.158715 -0.422456 127 0 127
-0.381557 0.022550 0.303927 255 0 0
0.181952 -0.486389 -0.038336 0 0 255
0.373821 -0.252785 0.056968 0 255 0
-0.310693 0.086889 0.517548 76 153 0
-0.365016 -0.476320 -0.476660 255 0 0
0.081087 0.231463 0.537535 76 153 0
-0.381557 0.648268 -0.233220 255 0 0
0.373821 -0.623634 0.347019 76 0 153
0.347239 0.158715 -0.386151 127 0 127
0.390362 -0.560007 0.075664 76 0 153
-0.365016 0.755837 -0.108994 255 0 0
0.373821 0.458761 -0.234087 0 255 0
-0.381557 -0.447928 0.463591 255 0 0
0.350829 0.505961 0.484466 204 51 127
0.390362 0.095666 0.177754 0 255 0
0.238935 0.158715 -0.346215 127 0 127
0.324008 -0.549064 0.379705 153 0 76
0.373821 0.462057 -0.320981 0 255 0
-0.203954 -0.548383 -0.508002 153 76 0
0.335225 0.673439 0.488824 204 51 127
0.373821 -0.019782 -0.061951 0 255 0
0.373821 -0.659989 -0.202777 76 0 153
0.207108 -0.694334 0.363164 153 0 76
0.161487 0.125633 -0.047138 127 0 127
0.343719 -0.028728 0.550630 76 153 0
-0.213836 0.433322 0.537535 76 153 0
0.390362 0.038743 -0.096212 0 255 0
-0.108485 -0.629017 -0.508002 153 76 0
-0.365016 -0.474633 0.425544 0 0 255
-0.104733 0.125633 -0.221999 127 0 127
-0.381557 0.281960 -0.238440 255 0 0
0.373821 -0.452540 0.124502 0 255 0
0.373821 -0.534592 -0.220787 76 0 153
-0.381557 0.416991 -0.181735 255 0 0
0.373821 0.148159 -0.352406 0 255 0
0.149998 0.125633 -0.105860 127 0 127
0.335225 0.337843 0.504128 204 51 127
0.390362 -0.406715 0.162000 0 255 0
0.200029 0.103711 0.530643 76 153 0
0.390362 0.138710 -0.172343 0 255 0
0.390362 -0.705343 -0.006618 76 0 153
-0.381557 0.255728 -0.199701 255 0 0
0.390362 -0.421032 0.243379 0 255 0
0.236154 -0.486389 0.046972 0 0 255
-0.365016 0.103584 0.373872 255 0 0
0.390362 0.086017 0.304716 0 255 0
-0.381557 0.529353 -0.400645 255 0 0
-0.365016 0.122017 0.061519 255 0 0
-0.365016 0.223645 -0.353698 255 0 0
-0.011003 -0.335626 0.530643 76 153 0
-0.250575 0.158715 -0.477740 127 0 127
-0.381557 0.561051 -0.456611 255 0 0
-0.172658 -0.550229 0.379705 153 0 76
-0.149531 -0.450076 -0.496974 127 127 0
-0.082839 -0.486389 -0.186324 0 0 255
-0.365016 -0.665958 -0.294095 204 51 127
0.373821 -0.204871 -0.072470 0 255 0
-0.128202 -0.464334 0.475548 0 0 255
-0.098481 -0.464334 0.004565 0 0 255
-0.365016 0.108567 0.252922 255 0 0
-0.322967 -0.464334 -0.269529 0 0 255
0.369402 0.748682 0.418778 153 76 0
0.152296 -0.122060 0.537535 76 153 0
0.390362 -0.038696 -0.231908 0 255 0
0.146697 -0.040296 0.530643 76 153 0
0.004955 0.125657 0.537535 76 153 0
-0.141588 0.098258 0.530643 76 153 0
0.127827 0.167437 -0.496974 127 127 0
-0.365016 0.379127 0.348501 255 0 0
0.390362 0.128790 0.237555 0 255 0
-0.298258 -0.699152 -0.541084 153 76 0
0.373821 -0.453135 0.385953 0 255 0
0.303750 0.158715 -0.134349 127 0 127
-0.381557 0.724307 -0.364361 255 0 0
0.390362 0.225848 0.243217 0 255 0
0.390362 -0.547621 -0.287328 76 0 153
-0.365016 0.330959 0.265162 255 0 0
0.200772 -0.486389 -0.217369 0 0 255
-0.365016 -0.050889 0.374064 255 0 0
0.390362 -0.701637 0.338777 76 0 153
0.390362 0.589596 0.451606 0 255 0
0.081628 -0.486389 0.037877 0 0 255
-0.365016 -0.321646 -0.456913 255 0 0
-0.381557 -0.278931 0.126888 255 0 0
0.390362 -0.324711 0.121684 0 255 0
-0.365016 0.501395 -0.416453 255 0 0
-0.340973 -0.502930 0.542888 76 153 0
-0.365016 0.352270 0.240457 255 0 0
0.373821 0.190795 0.212470 0 255 0
-0.365016 -0.039456 -0.411791 255 0 0
0.148479 -0.464334 -0.379370 0 0 255
0.373821 0.294035 -0.249921 0 255 0
0.373821 0.059020 0.464695 0 255 0
-0.381557 0.423148 0.092371 255 0 0
-0.337655 -0.608802 0.379705 153 0 76
0.390362 0.083849 -0.381025 0 255 0
-0.381557 0.588513 -0.305477 255 0 0
-0.365016 0.567890 -0.181332 255 0 0
-0.381557 -0.585114 -0.420421 204 51 127
-0.320754 0.146569 0.550630 76 153 0
-0.260119 -0.486389 -0.201455 0 0 255
0.336707 0.604144 0.484466 204 51 127
0.373821 -0.512243 -0.298317 0 255 0
-0.365016 0.272592 -0.019367 255 0 0
0.132967 -0.463857 -0.496974 127 127 0
0.390362 -0.257799 0.142335 0 255 0
-0.056762 -0.486389 0.377330 153 0 76
0.368633 0.734140 0.517548 204 51 127
-0.100791 -0.372162 -0.508002 127 127 0
-0.161085 -0.464334 0.274038 0 0 255
-0.219754 -0.598406 0.379705 153 0 76
-0.365016 0.714136 0.325736 255 0 0
-0.365016 -0.388711 0.060976 255 0 0
-0.318273 -0.508202 0.363164 153 0 76
0.119829 -0.541095 0.379705 153 0 76
-0.381557 0.193407 -0.076877 255 0 0
0.373821 0.777881 0.337505 0 255 0
-0.381557 0.023904 -0.128149 255 0 0
0.167933 -0.486389 0.064207 0 0 255
-0.288590 0.158715 -0.142060 127 0 127
0.270350 -0.501616 -0.508002 153 76 0
0.390362 0.074392 0.069365 0 255 0
-0.241203 -0.431735 -0.496974 127 127 0
-0.365016 0.736047 -0.027173 255 0 0
0.034424 -0.486389 0.010437 0 0 255
0.390362 0.560732 -0.466146 0 255 0
0.154619 0.737654 0.510865 127 127 0
0.262985 0.125633 -0.220351 127 0 127
-0.132641 0.736078 0.550630 76 153 0
0.373821 -0.668918 -0.390509 76 0 153
-0.035311 0.714829 -0.508002 127 127 0
-0.365016 0.416874 -0.095549 255 0 0
0.106657 0.375181 -0.508002 127 127 0
0.125970 -0.264547 -0.508002 127 127 0
0.390362 -0.475187 -0.435707 0 255 0
-0.381557 -0.537914 0.075933 204 51 127
-0.381557 0.781533 0.250018 255 0 0
-0.365016 0.257590 -0.153710 255 0 0
-0.094444 -0.524652 0.363164 153 0 76
-0.030629 -0.486389 -0.313782 0 0 255
-0.381557 -0.559550 -0.058260 204 51 127
-0.345613 -0.547099 0.379705 153 0 76
-0.047589 -0.673042 0.379705 153 0 76
-0.381557 0.783994 -0.239391 255 0 0
0.335225 0.420831 0.500174 204 51 127
0.229745 -0.279078 0.537535 76 153 0
0.268401 -0.446435 -0.508002 127 127 0
0.065877 0.644688 0.530643 76 153 0
0.231508 0.158715 -0.273735 127 0 127
0.291031 -0.486389 -0.392821 0 0 255
-0.244500 -0.464334 0.198156 0 0 255
0.390362 -0.616704 0.287038 76 0 153
0.213327 -0.486389 -0.252063 0 0 255
0.058801 0.374978 -0.508002 127 127 0
0.373821 -0.570119 -0.492855 76 0 153
-0.233276 -0.080613 0.537535 76 153 0
0.335225 -0.431798 0.488969 204 51 127
0.252986 -0.486389 -0.333115 0 0 255
0.390362 -0.601211 0.037671 76 0 153
0.390362 0.669690 0.348042 0 255 0
-0.264123 0.005599 0.517548 76 153 0
0.327434 -0.464334 -0.421938 0 0 255
-0.381557 0.367875 0.058499 255 0 0
0.101959 -0.464334 -0.067647 0 0 255
0.373821 -0.124504 0.014465 0 255 0
0.074881 0.797262 -0.541084 0 255 0
-0.381557 -0.377986 0.410920 255 0 0
0.373821 0.051065 0.074737 0 255 0
0.295438 -0.717964 -0.537838 153 76 0
-0.231262 -0.621237 0.363164 153 0 76
0.373821 0.278274 -0.214347 0 255 0
-0.365016 0.309397 0.278446 255 0 0
0.346674 -0.486389 0.221485 0 0 255
-0.381557 -0.316253 0.337014 255 0 0
0.253285 -0.692979 0.363164 153 0 76
0.226978 0.671490 -0.531168 0 255 0
0.373821 0.335993 0.113533 0 255 0
-0.071380 -0.192816 -0.508002 127 127 0
-0.205628 -0.303106 0.537535 76 153 0
0.390362 -0.483585 -0.162097 0 255 0
0.179324 -0.717964 0.378610 153 0 76
-0.313461 0.125633 -0.206540 127 0 127
0.373821 0.202324 -0.348724 0 255 0
0.084871 0.748430 -0.541084 0 255 0
0.340180 0.659804 0.580798 153 0 76
0.390362 0.739009 -0.058090 0 255 0
-0.381557 0.684270 -0.409967 255 0 0
-0.255487 -0.464334 0.398989 0 0 255
0.390362 0.524830 0.095969 0 255 0
0.328714 0.374211 0.550630 76 153 0
0.207706 0.094937 -0.496974 127 127 0
0.124388 -0.482827 0.517548 255 0 0
-0.381557 -0.623480 -0.316324 204 51 127
-0.116050 0.737654 0.497687 127 127 0
-0.365016 0.357271 0.407247 255 0 0
-0.381557 0.502407 -0.435401 255 0 0
-0.365016 0.062740 -0.364609 255 0 0
-0.381557 0.323779 0.004050 255 0 0
-0.381557 -0.179479 0.044776 255 0 0
0.205641 0.379536 -0.496974 127 127 0
-0.004711 0.558740 -0.508002 127 127 0
-0.381557 0.529021 0.424712 255 0 0
-0.308915 0.670995 0.517548 76 153 0
-0.325263 -0.486389 -0.038720 0 0 255
0.390362 0.263125 -0.341245 0 255 0
0.291462 0.770736 0.465712 153 76 0
-0.192782 0.394629 0.530643 76 153 0
-0.066853 -0.232225 0.537535 76 153 0
0.335225 0.695521 0.498136 204 51 127
0.333809 0.748682 -0.501757 153 0 76
0.060536 -0.447800 0.517548 76 153 0
0.348520 0.272289 0.484466 204 51 127
0.373821 0.006367 -0.516008 0 255 0
0.169026 -0.193836 -0.496974 127 127 0
-0.381557 0.784412 -0.009268 255 0 0
-0.381557 -0.171738 0.015246 255 0 0
0.373752 0.748682 0.461648 153 76 0
0.373821 0.201291 0.346923 0 255 0
0.095983 -0.484859 -0.496974 127 127 0
0.390362 0.523191 0.274039 0 255 0
-0.090805 0.135178 -0.496974 127 127 0
-0.365016 0.488922 -0.511156 255 0 0
0.373821 0.082561 0.440893 0 255 0
-0.001002 -0.486389 0.421846 0 0 255
-0.020751 -0.684119 0.379705 153 0 76
-0.381557 -0.040886 0.176697 255 0 0
-0.340882 0.125633 -0.177030 127 0 127
-0.046697 -0.184248 -0.496974 127 127 0
-0.383388 0.042475 0.517548 0 0 255
-0.241619 0.557043 0.537535 76 153 0
0.246433 0.204703 0.530643 76 153 0
-0.209016 0.219450 -0.496974 127 127 0
-0.381557 -0.536636 -0.247151 204 51 127
0.347456 0.207856 0.550630 76 153 0
-0.381557 -0.057341 0.450451 255 0 0
-0.037359 0.023955 -0.496974 127 127 0
0.390362 0.233851 0.186713 0 255 0
-0.140261 -0.464334 -0.384959 0 0 255
0.373821 0.025931 -0.061858 0 255 0
-0.365016 0.174669 -0.467578 255 0 0
0.301442 -0.464334 -0.091856 0 0 255
0.390362 0.223818 0.156888 0 255 0
-0.124229 0.490883 0.530643 76 153 0
0.373821 0.448515 0.085959 0 255 0
-0.381557 -0.516814 -0.274122 255 0 0
-0.217605 -0.486389 -0.148992 0 0 255
0.373821 -0.336185 -0.259337 0 255 0
-0.381557 0.134372 -0.200360 255 0 0
-0.381557 -0.469781 0.378665 255 0 0
-0.365016 0.194505 0.219000 255 0 0
-0.123146 0.803819 -0.522427 0 255 0
0.373821 -0.100339 -0.481750 0 255 0
-0.365016 0.536049 -0.127785 255 0 0
0.373821 0.323618 -0.368117 0 255 0
0.017315 0.772980 0.517548 76 153 0
-0.381557 0.695089 -0.294856 255 0 0
0.258033 0.086447 0.548655 76 153 0
-0.381557 0.335197 -0.062629 255 0 0
0.390362 -0.417093 -0.246745 0 255 0
0.373821 -0.647226 -0.235309 76 0 153
-0.257737 -0.464334 -0.251715 0 0 255
-0.365016 -0.461284 -0.444756 255 0 0
0.390362 0.204869 0.170442 0 255 0
-0.340610 -0.486389 -0.123570 0 0 255
0.390362 -0.315571 0.203853 0 255 0
0.338351 0.125633 -0.093595 127 0 127
0.373821 -0.226047 0.378397 0 255 0
0.016422 -0.121648 -0.496974 127 127 0
-0.365016 -0.616741 -0.084028 204 51 127
-0.381557 0.563206 -0.224187 255 0 0
0.390362 0.635381 0.383643 0 255 0
-0.365016 0.727858 -0.484588 255 0 0
-0.381557 -0.545992 -0.201512 204 51 127
-0.365016 0.578227 0.202598 255 0 0
0.373821 -0.245060 0.466020 0 255 0
0.006937 0.472532 -0.508002 127 127 0
-0.158321 -0.324050 0.537535 76 153 0
-0.106021 -0.508668 0.517548 255 0 0
0.373821 0.011194 -0.320408 0 255 0
0.263533 0.452185 -0.496974 127 127 0
-0.381557 0.406228 0.286399 255 0 0
0.373821 -0.120363 -0.172543 0 255 0
0.083622 0.125633 -0.226495 127 0 127
-0.381557 0.385173 0.164985 255 0 0
-0.381557 -0.262201 -0.502316 255 0 0
-0.365016 -0.134255 0.137170 255 0 0
0.357238 0.464398 -0.496974 127 127 0
-0.381557 0.703615 0.380898 255 0 0
-0.122524 0.125633 -0.299120 127 0 127
0.390362 0.369316 0.205059 0 255 0
0.390362 0.479996 -0.187416 0 255 0
0.390362 0.080042 0.377401 0 255 0
-0.022720 0.122547 -0.508002 127 127 0
0.390362 -0.230459 0.266892 0 255 0
0.224246 0.127347 -0.508002 127 127 0
0.131927 0.063114 0.537535 76 153 0
-0.282317 -0.464334 -0.172972 0 0 255
0.373821 -0.569597 -0.178506 76 0 153
-0.381557 -0.435675 0.411035 255 0 0
-0.136931 -0.486389 -0.040912 0 0 255
0.373821 -0.006085 -0.177373 0 255 0
-0.200156 0.390859 -0.496974 127 127 0
0.390362 -0.443052 -0.081420 0 255 0
-0.291862 -0.682385 0.363164 153 0 76
-0.263702 0.125633 -0.211162 127 0 127
-0.319386 0.232909 0.517548 76 153 0
-0.365016 -0.552630 -0.490750 204 51 127
-0.265239 0.495551 0.550630 76 153 0
-0.365016 -0.583502 -0.099872 204 51 127
-0.189673 -0.402482 -0.508002 127 127 0
-0.381557 -0.452682 -0.403981 255 0 0
-0.365016 -0.256382 0.284987 255 0 0
-0.381557 0.001353 -0.010709 255 0 0
0.390362 0.564707 -0.516857 0 255 0
0.373821 -0.389708 0.343016 0 255 0
-0.365016 0.365649 -0.153146 255 0 0
0.094528 -0.418669 -0.508002 127 127 0
-0.365016 0.605102 -0.093530 255 0 0
-0.378099 0.371493 0.484466 0 0 255
0.331633 0.748682 0.395829 153 76 0
0.313582 0.592886 0.550630 76 153 0
-0.365016 0.679016 0.278547 255 0 0
-0.365016 -0.371583 0.329210 255 0 0
-0.220818 -0.000620 0.530643 76 153 0
-0.057486 -0.486389 0.055465 0 0 255
0.250403 -0.464334 0.461578 0 0 255
-0.150228 -0.464334 0.092210 0 0 255
-0.381557 -0.705711 0.336035 204 51 127
-0.186140 -0.526899 -0.508002 153 76 0
-0.159212 -0.464334 -0.218476 0 0 255
-0.100835 0.461572 0.537535 76 153 0
0.209865 0.778989 0.517548 127 127 0
-0.381557 -0.083221 0.401130 255 0 0
-0.220036 -0.576503 0.379705 153 0 76
-0.381557 0.533260 -0.217324 255 0 0
-0.197223 -0.464334 -0.300796 0 0 255
0.198115 0.665925 0.517548 76 153 0
0.327063 0.406811 0.550630 76 153 0
-0.381557 -0.108375 0.329686 255 0 0
-0.153682 0.409997 0.530643 76 153 0
-0.365016 0.778272 -0.424442 255 0 0
-0.298644 0.680103 -0.508002 127 127 0
0.373821 0.216234 -0.282883 0 255 0
0.373821 0.688141 0.387958 0 255 0
-0.381557 -0.142148 0.015597 255 0 0
0.098087 -0.391158 -0.508002 127 127 0
0.390362 0.331163 -0.140459 0 255 0
0.390362 -0.368484 0.194713 0 255 0
-0.381557 0.757077 0.317536 255 0 0
-0.347913 -0.464334 -0.387799 0 0 255
-0.326555 0.748682 0.407004 76 0 153
0.057048 -0.486389 0.095594 0 0 255
-0.381557 -0.343858 -0.016026 255 0 0
-0.381557 -0.148163 0.219376 255 0 0
-0.376043 0.169324 0.530911 76 153 0
-0.095807 0.411818 -0.496974 127 127 0
0.154810 -0.502930 0.531966 76 153 0
-0.264893 0.221206 -0.496974 127 127 0
0.003259 -0.545158 -0.541084 153 76 0
-0.119093 0.671490 -0.521838 0 255 0
-0.365016 -0.716873 0.170190 204 51 127
-0.365016 0.245042 0.309316 255 0 0
-0.365016 0.600699 -0.290049 255 0 0
-0.340681 -0.100526 0.517548 0 0 255
-0.381557 -0.335889 0.413735 255 0 0
0.209355 -0.354808 0.530643 76 153 0
-0.365016 0.223794 -0.326833 255 0 0
0.373821 -0.036907 0.393119 0 255 0
0.146141 -0.398170 -0.496974 127 127 0
0.390362 0.021885 0.378651 0 255 0
0.338767 0.770736 -0.451096 153 0 76
-0.381557 -0.246605 0.331090 255 0 0
0.351839 0.800271 -0.541084 0 255 0
0.373821 0.051515 0.125569 0 255 0
-0.215762 -0.464334 -0.438473 0 0 255
0.390362 -0.645401 0.281337 76 0 153
-0.153835 -0.464334 0.294647 0 0 255
-0.124613 -0.265671 0.537535 76 153 0
0.373821 0.740673 -0.009558 0 255 0
-0.365016 -0.687405 0.299813 204 51 127
0.390362 -0.036737 -0.267694 0 255 0
-0.365016 0.620441 -0.378726 255 0 0
-0.357776 0.487894 0.517548 76 153 0
0.211759 0.037777 -0.496974 127 127 0
-0.365016 -0.024983 0.242899 255 0 0
0.343500 0.748682 0.422907 153 76 0
0.390362 0.786627 0.420981 0 255 0
0.390362 -0.415858 -0.158602 0 255 0
-0.381557 -0.152299 0.176465 255 0 0
0.373821 0.556857 0.285861 0 255 0
-0.052337 -0.464334 -0.439141 0 0 255
0.373821 0.781299 -0.454776 0 255 0
0.390362 -0.169618 -0.000510 0 255 0
0.390362 0.239711 -0.316601 0 255 0
-0.256928 0.044975 -0.496974 127 127 0
-0.365016 -0.257602 -0.263331 255 0 0
-0.381557 -0.555647 0.106247 204 51 127
0.390362 -0.652089 0.313414 76 0 153
-0.365016 -0.471705 0.451042 0 0 255
0.182886 -0.689538 0.363164 153 0 76
-0.365016 -0.517286 0.436235 255 0 0
0.331698 -0.464334 -0.224726 0 0 255
-0.121004 -0.486389 -0.444976 0 0 255
0.275230 -0.440587 0.550630 76 153 0
0.353309 -0.464334 -0.378712 0 0 255
0.387136 -0.717964 -0.491418 76 0 153
0.384848 -0.285872 0.531629 76 153 0
-0.250311 -0.540069 0.379705 153 0 76
-0.325451 0.744568 -0.496974 127 127 0
-0.365016 -0.566402 -0.149277 204 51 127
-0.381557 -0.059706 0.419219 255 0 0
0.390362 -0.588640 -0.111714 76 0 153
-0.365016 0.171817 -0.016577 255 0 0
0.094256 0.731312 -0.508002 127 127 0
0.390362 0.792806 -0.444826 0 255 0
0.344357 0.075330 -0.496974 127 127 0
0.373821 0.636009 0.432730 0 255 0
-0.381557 -0.441238 0.072191 255 0 0
0.065747 0.029655 -0.508002 127 127 0
0.206563 -0.109782 0.530643 76 153 0
-0.349165 -0.449031 0.484466 0 0 255
0.390362 0.676924 -0.087383 0 255 0
0.049799 0.421073 0.537535 76 153 0
0.010757 0.742329 -0.541084 0 255 0
0.154778 0.187103 0.530643 76 153 0
0.065617 0.755943 0.517548 76 153 0
-0.115968 0.240786 -0.496974 127 127 0
0.373821 0.276653 -0.264590 0 255 0
-0.384796 0.466936 0.484466 0 0 255
-0.381557 -0.355207 -0.474817 255 0 0
-0.043266 -0.615116 -0.508002 153 76 0
-0.065109 -0.464334 -0.217442 0 0 255
-0.019253 -0.130319 0.530643 76 153 0
0.351178 0.717624 0.550630 76 153 0
0.373820 -0.485156 0.064097 0 0 255
0.160071 -0.657966 0.363164 153 0 76
-0.381557 -0.696930 -0.052166 204 51 127
0.199523 0.268036 0.537535 76 153 0
-0.365016 -0.703151 -0.201421 204 51 127
-0.365016 0.512430 0.455998 255 0 0
-0.365016 -0.231077 0.250694 255 0 0
0.373821 0.212440 0.403089 0 255 0
0.373821 0.122577 -0.328883 0 255 0
-0.365016 0.504404 0.380696 255 0 0
0.238527 0.005674 0.537535 76 153 0
0.390362 -0.055424 0.239497 0 255 0
0.366485 -0.486389 -0.348404 0 0 255
-0.381557 -0.084561 -0.305529 255 0 0
0.390362 -0.513035 -0.020708 0 255 0
-0.046486 0.138438 -0.496974 127 127 0
0.390362 0.475886 -0.021174 0 255 0
0.373821 0.309061 -0.433215 0 255 0
-0.381557 0.600706 -0.399514 255 0 0
-0.089251 -0.187498 0.537535 76 153 0
0.373821 0.039391 0.402940 0 255 0
-0.381557 0.754288 0.011762 255 0 0
0.390362 -0.531384 0.275454 76 0 153
0.058466 0.077268 -0.508002 127 127 0
-0.381557 -0.446035 0.271583 255 0 0
0.160079 -0.616400 0.379705 153 0 76
0.390362 -0.639614 0.113048 76 0 153
-0.381557 -0.256908 -0.359868 255 0 0
0.373821 -0.158153 0.216852 0 255 0
0.365589 -0.313294 0.517548 204 51 127
-0.381557 -0.339969 0.330050 255 0 0
0.301907 0.190418 -0.496974 127 127 0
-0.381557 -0.048142 0.014555 255 0 0
-0.172940 -0.713667 0.379705 153 0 76
0.241291 -0.035498 -0.496974 127 127 0
0.177865 -0.550979 -0.541084 153 76 0
-0.381557 -0.085402 -0.083601 255 0 0
-0.381557 0.340979 -0.092433 255 0 0
-0.066526 0.462882 -0.496974 127 127 0
0.072382 -0.332612 -0.496974 127 127 0
0.001135 -0.463569 -0.508002 127 127 0
-0.159066 0.221848 0.537535 76 153 0
0.269778 -0.658009 -0.508002 153 76 0
0.390362 0.757090 -0.369681 0 255 0
-0.123805 0.247727 0.537535 76 153 0
-0.012748 0.012238 0.530643 76 153 0
0.373821 -0.298683 0.262889 0 255 0
0.150695 -0.486389 0.017814 0 0 255
0.390362 -0.130908 -0.328477 0 255 0
-0.229974 0.235063 -0.496974 127 127 0
-0.118980 0.404691 -0.508002 127 127 0
0.142126 -0.464334 -0.177573 0 0 255
-0.381557 0.160957 -0.506990 255 0 0
0.373821 0.120197 0.396367 0 255 0
0.304472 -0.330689 -0.508002 127 127 0
-0.003080 0.132294 -0.508002 127 127 0
-0.381557 -0.005164 -0.106348 255 0 0
-0.381557 0.705518 -0.256948 255 0 0
0.228886 -0.107245 -0.508002 127 127 0
0.111523 0.333718 0.530643 76 153 0
-0.056993 -0.002927 -0.496974 127 127 0
-0.138343 -0.194941 -0.496974 127 127 0
-0.381557 0.652085 0.340445 255 0 0
-0.365016 -0.085495 -0.288296 255 0 0
-0.365016 -0.487473 -0.355804 255 0 0
0.390362 0.397375 -0.243788 0 255 0
0.390362 0.196492 0.333641 0 255 0
-0.365016 -0.596780 -0.380831 204 51 127
0.390362 0.637814 -0.196039 0 255 0
0.373821 -0.328803 -0.416822 0 255 0
-0.181425 0.061455 0.530643 76 153 0
0.373821 0.491153 0.393376 0 255 0
0.373821 -0.400128 0.289908 0 255 0
-0.193161 0.602711 -0.508002 127 127 0
0.114416 0.125633 -0.358105 127 0 127
0.390362 -0.121364 0.365899 0 255 0
0.043131 -0.080724 -0.508002 127 127 0
0.390362 0.128215 -0.312808 0 255 0
-0.365016 0.633909 0.274116 255 0 0
-0.381557 0.604656 -0.025098 255 0 0
0.390362 0.710335 -0.521198 0 255 0
-0.193137 -0.376115 0.532771 76 153 0
-0.360291 0.461785 0.550630 76 153 0
0.373821 -0.292510 0.407883 0 255 0
-0.365016 -0.286775 0.413647 255 0 0
-0.203424 0.572133 0.530643 76 153 0
0.334944 -0.699614 0.379705 153 0 76
-0.365016 -0.054542 -0.276040 255 0 0
0.161648 -0.694960 -0.541084 153 76 0
-0.032139 0.323293 -0.508002 127 127 0
0.364634 0.434472 0.517548 204 51 127
-0.365016 -0.373936 0.238717 255 0 0
-0.350893 -0.144216 -0.496974 127 127 0
-0.381557 0.596743 -0.436276 255 0 0
-0.362955 0.411182 0.517548 76 153 0
-0.172657 -0.366215 -0.508002 127 127 0
-0.162715 0.125633 -0.446724 127 0 127
-0.365016 0.701303 -0.374598 255 0 0
0.268180 -0.639132 0.379705 153 0 76
-0.200552 0.158715 -0.341036 127 0 127
-0.018340 -0.657944 0.379705 153 0 76
0.373821 0.789873 -0.338789 0 255 0
-0.008018 -0.190441 -0.508002 127 127 0
0.157965 0.386230 0.537535 76 153 0
0.373821 0.267725 0.433656 0 255 0
-0.381557 0.759852 0.045701 255 0 0
-0.216275 0.158715 -0.314789 127 0 127
-0.365016 0.458032 0.412569 255 0 0
-0.365016 0.659457 -0.533849 255 0 0
-0.297909 -0.464334 0.008487 0 0 255
-0.328806 0.016539 0.484466 0 0 255
0.078282 0.125633 -0.289914 127 0 127
-0.278633 -0.486389 0.362480 0 0 255
-0.053523 -0.138601 -0.508002 127 127 0
0.390362 -0.026931 -0.371978 0 255 0
-0.381557 0.752871 0.248849 255 0 0
-0.231379 -0.486389 -0.287347 0 0 255
-0.141163 -0.486389 -0.184867 0 0 255
-0.381557 -0.634017 0.218647 204 51 127
-0.195328 -0.486389 0.378418 153 0 76
-0.381557 0.480420 0.441392 255 0 0
-0.220400 0.517150 -0.508002 127 127 0
0.298656 0.125633 -0.352659 127 0 127
0.373821 -0.392933 0.428353 0 255 0
-0.365016 -0.652984 -0.189546 204 51 127
0.181036 -0.464334 0.343551 0 0 255
-0.009892 -0.486389 0.031284 0 0 255
0.390362 0.044698 -0.353570 0 255 0
-0.381557 0.286720 -0.188928 255 0 0
0.092105 0.107052 -0.508002 127 127 0
-0.124623 0.158715 -0.058232 127 0 127
-0.365016 0.280078 0.011541 255 0 0
0.373821 -0.406110 0.378397 0 255 0
-0.365016 -0.225690 0.321055 255 0 0
-0.206439 0.527490 0.537535 76 153 0
-0.289007 0.391856 0.550630 76 153 0
0.401389 -0.495703 0.512672 204 51 127
0.358079 -0.502930 0.543426 76 153 0
0.373821 0.208944 0.139172 0 255 0
-0.381557 -0.127355 -0.192908 255 0 0
0.193433 -0.315218 -0.496974 127 127 0
0.214915 0.147819 -0.000741 127 0 127
-0.048855 0.420015 -0.508002 127 127 0
0.390362 0.140762 -0.227688 0 255 0
-0.011389 0.680047 -0.496974 127 127 0
-0.365016 0.630314 0.305523 255 0 0
-0.070664 -0.464334 -0.380105 0 0 255
-0.348603 -0.349498 -0.496974 127 127 0
-0.126744 -0.486389 0.280526 0 0 255
-0.381557 -0.378677 -0.368289 255 0 0
0.390362 -0.318103 -0.303957 0 255 0
0.373821 0.172797 0.464885 0 255 0
-0.365016 0.542617 0.311415 255 0 0
-0.374813 -0.493973 0.517548 76 153 0
0.028770 -0.716747 0.363164 153 0 76
-0.381557 -0.359348 -0.064082 255 0 0
-0.004538 -0.158764 -0.508002 127 127 0
0.084850 0.419533 -0.496974 127 127 0
0.373821 0.070718 0.198165 0 255 0
-0.381557 -0.325430 -0.211382 255 0 0
0.286205 0.125633 -0.029970 127 0 127
0.159259 -0.016579 -0.508002 127 127 0
0.297223 -0.464334 0.406812 0 0 255
-0.046110 0.158715 -0.358609 127 0 127
-0.258640 0.432965 0.550630 76 153 0
0.373821 -0.361212 -0.005689 0 255 0
-0.381557 0.319255 -0.149636 255 0 0
-0.365016 0.770565 0.418709 76 0 153
-0.365016 -0.448477 0.324232 255 0 0
-0.381557 -0.238767 0.466114 255 0 0
-0.365016 -0.416300 -0.122182 255 0 0
0.078200 -0.519471 0.515640 255 0 0
-0.277571 0.524965 -0.496974 127 127 0
0.390362 0.729323 -0.457646 0 255 0
-0.365016 -0.030502 0.427429 255 0 0
-0.365016 -0.265024 -0.235223 255 0 0
0.390362 -0.421452 0.117874 0 255 0
-0.163244 -0.179289 0.537535 76 153 0
-0.381557 0.568325 -0.318004 255 0 0
-0.230579 -0.464334 0.396379 0 0 255
-0.381557 0.665112 0.442182 255 0 0
0.390362 0.487898 -0.377690 0 255 0
-0.284485 0.483200 -0.508002 127 127 0
-0.376043 0.697517 0.542835 76 153 0
-0.365016 0.619780 -0.224787 255 0 0
0.390362 0.316812 -0.049545 0 255 0
0.373821 -0.201108 0.184816 0 255 0
-0.180021 -0.464334 -0.321185 0 0 255
-0.187398 0.682828 0.550630 76 153 0
-0.165674 -0.596263 -0.541084 153 76 0
0.065802 -0.608409 -0.508002 153 76 0
0.390362 0.129448 0.022049 0 255 0
-0.174365 0.502104 0.530643 76 153 0
0.045950 -0.180733 -0.496974 127 127 0
-0.152885 0.331888 -0.496974 127 127 0
-0.365016 -0.702958 -0.092683 204 51 127
0.373821 0.428271 -0.202695 0 255 0
0.373821 0.086246 -0.527673 0 255 0
-0.189917 -0.486389 -0.431444 0 0 255
-0.249228 -0.151685 0.530631 76 153 0
0.366518 0.409926 0.550630 76 153 0
0.373821 -0.611064 -0.344364 76 0 153
0.181616 0.626386 0.530643 76 153 0
0.373821 -0.002274 0.033686 0 255 0
0.149463 0.158715 -0.273072 127 0 127
0.373821 -0.683848 0.286551 76 0 153
0.024352 -0.464334 0.265125 0 0 255
-0.365016 0.428066 -0.493879 255 0 0
-0.245384 -0.391923 -0.496974 127 127 0
0.365026 0.697701 0.517548 204 51 127
0.131614 -0.161674 -0.508002 127 127 0
0.035386 -0.057027 0.530643 76 153 0
0.078401 -0.234986 -0.508002 127 127 0
0.390362 0.572445 -0.061271 0 255 0
-0.204560 -0.297712 -0.508002 127 127 0
-0.365016 0.622494 0.351115 255 0 0
-0.381557 -0.359922 0.066683 255 0 0
-0.324893 0.267135 -0.496974 127 127 0
-0.365016 -0.078467 -0.108912 255 0 0
-0.348379 -0.467203 -0.508002 153 76 0
0.123983 -0.508384 0.363164 153 0 76
0.390362 0.331933 0.402223 0 255 0
0.373821 -0.568724 -0.339103 76 0 153
0.178519 0.144767 -0.508002 127 127 0
-0.365016 -0.342676 -0.284773 255 0 0
0.390362 0.304075 -0.350421 0 255 0
0.373821 -0.555481 -0.062176 76 0 153
-0.381557 0.402518 -0.455910 255 0 0
-0.381557 -0.027728 0.412623 255 0 0
-0.381557 0.483439 -0.379473 255 0 0
-0.373131 0.143628 -0.541084 255 0 0
0.390362 -0.105884 -0.091720 0 255 0
0.390362 0.470354 -0.354941 0 255 0
-0.328979 -0.231736 -0.508002 127 127 0
0.390362 -0.184622 0.243226 0 255 0
-0.322392 0.230555 -0.496974 127 127 0
-0.365016 0.674680 -0.199414 255 0 0
0.379943 -0.315800 0.484466 204 51 127
0.390362 -0.305826 0.367404 0 255 0
-0.381557 0.803551 -0.153251 255 0 0
0.210757 0.456082 -0.496974 127 127 0
0.166061 0.795088 -0.541084 0 255 0
0.390362 -0.245419 -0.383249 0 255 0
-0.345645 0.002661 -0.508002 127 127 0
0.179253 0.787278 0.542304 76 153 0
0.390362 0.321946 0.231080 0 255 0
0.390362 0.660845 -0.214855 0 255 0
0.373821 0.565821 0.084635 0 255 0
-0.381557 -0.160527 0.064847 255 0 0
-0.381557 0.027775 -0.491717 255 0 0
0.390362 -0.292330 -0.170712 0 255 0
-0.381557 0.751511 -0.412408 255 0 0
0.384825 0.630695 0.484466 204 51 127
0.271475 -0.034946 0.550630 76 153 0
0.047373 0.125633 -0.444197 127 0 127
-0.381557 -0.533481 -0.044973 204 51 127
0.215864 -0.565008 0.363164 153 0 76
0.384062 0.593006 -0.541084 0 255 0
0.390362 0.360706 -0.352424 0 255 0
-0.365016 0.590011 0.479706 255 0 0
-0.344184 -0.486389 0.269704 0 0 255
0.127239 -0.596539 -0.508002 153 76 0
0.390362 0.801293 -0.102300 0 255 0
-0.295503 0.534253 -0.508002 127 127 0
-0.392584 0.165488 0.493600 0 0 255
-0.045990 -0.486389 0.145623 0 0 255
-0.184708 -0.486389 -0.331667 0 0 255
-0.167451 -0.070625 -0.496974 127 127 0
-0.132141 -0.225755 0.537535 76 153 0
-0.381557 -0.027732 0.215032 255 0 0
-0.381557 -0.087427 0.308012 255 0 0
-0.302842 -0.486389 -0.412896 0 0 255
-0.365016 -0.533329 -0.454543 204 51 127
-0.381557 0.080974 -0.341230 255 0 0
-0.364239 -0.374177 0.517548 76 153 0
-0.007710 -0.300285 0.530643 76 153 0
0.373821 0.399253 -0.093093 0 255 0
-0.155222 0.660462 0.536622 76 153 0
-0.365016 0.289420 0.083148 255 0 0
0.373821 0.649691 0.319594 0 255 0
0.070759 0.158715 -0.064677 127 0 127
0.390362 0.420986 -0.166767 0 255 0
0.373821 -0.540309 -0.520297 76 0 153
0.373821 -0.453634 -0.219595 0 255 0
-0.281981 0.694304 0.550630 76 153 0
0.390362 -0.167405 0.449037 0 255 0
-0.381557 0.021221 0.271253 255 0 0
-0.381557 0.265989 0.218106 255 0 0
0.390362 -0.434848 0.336418 0 255 0
-0.140430 -0.708366 -0.508002 153 76 0
-0.290613 -0.484714 -0.508002 127 127 0
-0.338119 0.097300 -0.496974 127 127 0
0.324990 -0.001924 0.517548 76 153 0
-0.381557 0.765981 -0.383387 255 0 0
0.390362 0.403442 -0.354221 0 255 0
-0.365016 0.735946 -0.415637 255 0 0
-0.154480 0.803819 -0.526984 0 255 0
-0.220793 0.735789 -0.508002 127 127 0
0.390362 -0.275994 0.297193 0 255 0
0.373821 0.372734 -0.521518 0 255 0
0.373821 0.610365 0.481539 0 255 0
0.296276 -0.475459 -0.541084 153 76 0
-0.199863 0.090986 -0.508002 127 127 0
0.202464 -0.486389 -0.377901 0 0 255
-0.192511 -0.173541 0.530643 76 153 0
-0.381557 -0.149723 -0.314803 255 0 0
0.345361 0.591945 -0.508002 127 127 0
-0.365016 -0.311081 -0.073565 255 0 0
-0.129445 -0.276184 -0.508002 127 127 0
-0.051607 -0.486389 0.278996 0 0 255
-0.128311 -0.401564 -0.496974 127 127 0
-0.306650 0.787361 0.484466 127 127 0
-0.365016 0.074900 0.118549 255 0 0
-0.381557 -0.283910 0.442524 255 0 0
0.390362 -0.304370 0.098180 0 255 0
0.240268 -0.663891 0.363164 153 0 76
-0.290569 0.158715 -0.466887 127 0 127
-0.234214 -0.628111 -0.541084 153 76 0
-0.365016 0.696369 0.350645 255 0 0
0.373821 -0.038070 -0.428645 0 255 0
-0.365016 0.636712 -0.395609 255 0 0
0.350130 -0.340119 -0.496974 127 127 0
0.221625 0.214646 -0.508002 127 127 0
0.390362 -0.193295 0.323022 0 255 0
-0.085525 -0.707103 0.379705 153 0 76
0.386326 -0.255457 -0.541084 0 255 0
-0.076022 0.294680 0.537535 76 153 0
-0.098026 0.158715 -0.310784 127 0 127
-0.325566 0.737654 0.508095 127 127 0
0.390362 -0.226489 0.480000 0 255 0
0.269955 -0.464334 -0.385469 0 0 255
0.390362 0.400771 0.070483 0 255 0
0.183676 0.125633 -0.414672 127 0 127
0.222448 0.802705 0.517548 127 127 0
-0.365016 0.045221 -0.463134 255 0 0
0.390362 0.400405 -0.131859 0 255 0
-0.365016 0.622983 -0.515040 255 0 0
-0.365016 0.258858 0.256659 255 0 0
-0.365016 0.515520 0.112067 255 0 0
-0.381557 -0.123109 -0.373962 255 0 0
0.390362 -0.247057 -0.277445 0 255 0
0.390362 0.468455 0.283145 0 255 0
-0.355086 0.143564 0.550630 76 153 0
-0.365016 -0.681865 -0.254424 204 51 127
0.094863 -0.636684 -0.508002 153 76 0
-0.381557 0.011545 -0.081901 255 0 0
0.118952 -0.072806 0.530643 76 153 0
0.101907 -0.464334 0.237291 0 0 255
0.172284 -0.362623 -0.496974 127 127 0
-0.095349 -0.272732 -0.496974 127 127 0
-0.156402 -0.383371 0.517548 76 153 0
-0.365016 0.508731 0.291541 255 0 0
0.390362 -0.157174 -0.172969 0 255 0
-0.365016 -0.675668 -0.137881 204 51 127
-0.365016 -0.366032 -0.457168 255 0 0
-0.209023 -0.486389 -0.039721 0 0 255
0.237204 -0.486389 0.338887 0 0 255
0.390362 -0.572172 -0.094068 76 0 153
0.386817 -0.059969 0.484466 204 51 127
0.373821 0.262827 -0.046674 0 255 0
-0.166536 0.764042 -0.541084 0 255 0
0.180215 -0.563117 0.379705 153 0 76
-0.028235 -0.253589 0.537535 76 153 0
-0.381557 0.049174 0.136620 255 0 0
0.373821 -0.402405 0.095675 0 255 0
0.390362 -0.627310 0.202834 76 0 153
-0.365016 -0.669913 -0.377378 204 51 127
0.349416 -0.560816 0.363164 153 0 76
0.105685 -0.464334 -0.487253 0 0 255
0.390362 0.510636 -0.321213 0 255 0
-0.381557 -0.140340 -0.137846 255 0 0
0.146168 0.657602 -0.508002 127 127 0
0.373821 0.757982 -0.128058 0 255 0
-0.365016 -0.446120 -0.192412 255 0 0
-0.365016 -0.171476 0.351549 255 0 0
0.171030 0.158715 -0.386789 127 0 127
-0.365016 0.122765 -0.527739 255 0 0
0.373821 -0.281110 0.449501 0 255 0
-0.054786 0.786004 -0.508002 0 255 0
0.390362 0.622829 -0.170655 0 255 0
0.379950 -0.572709 0.379705 76 0 153
-0.365016 -0.698137 0.354614 204 51 127
-0.144995 0.490206 -0.496974 127 127 0
-0.381557 0.525933 -0.475544 255 0 0
-0.365016 0.297722 -0.094800 255 0 0
-0.365016 -0.146908 0.032520 255 0 0
-0.143105 -0.703232 0.379705 153 0 76
-0.365016 -0.137263 -0.098444 255 0 0
-0.281200 0.377011 0.517548 76 153 0
0.096597 -0.464334 0.075362 0 0 255
0.121885 0.787278 0.528219 76 153 0
0.062078 -0.464334 0.151341 0 0 255
0.373821 0.413620 0.317152 0 255 0
-0.352073 -0.464334 0.108380 0 0 255
0.373821 0.699919 -0.176473 0 255 0
0.076927 0.125633 -0.404766 127 0 127
0.390362 -0.265359 0.115899 0 255 0
0.390362 0.735633 0.122320 0 255 0
0.373821 -0.408337 0.356394 0 255 0
-0.322075 0.374276 0.517548 76 153 0
-0.064102 0.487888 0.537535 76 153 0
0.176721 0.425468 -0.508002 127 127 0
0.017680 -0.486389 0.438795 0 0 255
0.185512 0.413828 0.530643 76 153 0
0.390362 0.002837 -0.431528 0 255 0
0.373821 0.116412 0.110600 0 255 0
-0.381557 -0.657765 -0.498968 204 51 127
0.390362 -0.136276 -0.017492 0 255 0
-0.198358 0.125633 -0.070087 127 0 127
0.373821 0.445964 0.346152 0 255 0
0.251900 -0.486389 0.218409 0 0 255
-0.372237 -0.147535 0.517548 0 0 255
0.278788 0.736848 0.517548 76 153 0
0.373821 -0.447412 -0.114518 0 255 0
-0.381557 -0.380437 0.000289 255 0 0
-0.073147 -0.555962 0.363164 153 0 76
0.373820 -0.480345 -0.025064 0 0 255
0.390362 -0.556738 -0.477853 76 0 153
-0.149469 -0.667125 -0.508002 153 76 0
0.390362 -0.462797 0.416803 0 255 0
0.390362 -0.613806 -0.298852 76 0 153
-0.100797 -0.464334 -0.481617 0 0 255
0.238845 0.125633 -0.110036 127 0 127
0.373821 -0.631959 -0.447228 76 0 153
0.390362 -0.100853 -0.519485 0 255 0
0.002546 0.510967 0.537535 76 153 0
-0.365016 -0.645915 -0.460966 204 51 127
-0.282157 -0.378296 -0.496974 127 127 0
0.045603 -0.366181 -0.508002 127 127 0
0.373821 0.371464 0.398288 0 255 0
-0.365016 0.263921 0.087541 255 0 0
-0.365016 0.542662 0.088981 255 0 0
0.390362 0.181938 0.449555 0 255 0
0.055095 -0.464334 -0.214225 0 0 255
-0.101164 -0.486389 -0.132181 0 0 255
0.390362 -0.391400 0.140180 0 255 0
0.373821 0.370960 0.427690 0 255 0
-0.381557 -0.299657 -0.283539 255 0 0
-0.365016 -0.569135 -0.172923 204 51 127
-0.210851 -0.456544 0.484466 255 0 0
0.143195 -0.464334 0.464284 0 0 255
0.218881 0.731287 -0.508002 127 127 0
0.390362 0.302492 0.308778 0 255 0
0.007915 0.410802 0.530643 76 153 0
-0.219984 0.455289 -0.508002 127 127 0
0.373821 -0.346807 0.400836 0 255 0
-0.355875 -0.100752 -0.508002 127 127 0
0.373821 0.071382 -0.175700 0 255 0
-0.381557 0.012631 -0.340544 255 0 0
0.373821 -0.066494 0.088913 0 255 0
-0.257901 -0.701793 -0.541084 153 76 0
0.373821 -0.423443 -0.088861 0 255 0
-0.365016 -0.269971 0.192690 255 0 0
-0.156032 -0.441775 0.550630 76 153 0
0.297421 0.773779 -0.541084 0 255 0
-0.098352 -0.554932 -0.541084 153 76 0
0.292624 0.748682 0.446503 153 76 0
0.373821 0.654924 -0.286145 0 255 0
0.004006 -0.419831 -0.508002 127 127 0
-0.222999 -0.650794 0.363164 153 0 76
0.268462 -0.464334 -0.459268 0 0 255
0.384848 0.646235 0.530151 76 153 0
-0.365016 0.416015 -0.235584 255 0 0
-0.289044 -0.464334 0.378697 0 0 255
0.006598 -0.524322 0.379705 153 0 76
0.373821 0.743746 0.252497 0 255 0
0.000088 0.158715 -0.365130 127 0 127
-0.381557 0.110560 0.016529 255 0 0
0.390362 -0.011998 0.317963 0 255 0
-0.115806 -0.486389 -0.479039 0 0 255
-0.158410 -0.606649 0.379705 153 0 76
0.254675 0.158715 -0.437978 127 0 127
0.390362 -0.663705 -0.447442 76 0 153
0.390362 -0.420846 -0.404665 0 255 0
-0.381557 -0.301362 -0.309960 255 0 0
0.078595 -0.630278 0.379705 153 0 76
-0.381557 0.506590 0.177158 255 0 0
0.390362 -0.152074 -0.392169 0 255 0
-0.289153 0.803819 -0.525901 0 255 0
0.373821 0.536906 -0.234508 0 255 0
0.373821 -0.387954 -0.363498 0 255 0
-0.381557 -0.595145 -0.039882 204 51 127
-0.179200 0.703712 -0.541084 0 255 0
0.373821 -0.703674 -0.456808 76 0 153
0.390362 0.603606 -0.344114 0 255 0
0.390362 0.096897 -0.328659 0 255 0
-0.376043 -0.033894 0.529987 76 153 0
-0.000151 0.178049 -0.496974 127 127 0
-0.344391 -0.464334 -0.149260 0 0 255
-0.381557 -0.251716 0.196412 255 0 0
0.373821 0.762210 0.038634 0 255 0
0.390362 -0.294860 -0.367346 0 255 0
-0.392584 -0.084396 0.507616 0 0 255
-0.097043 0.125633 -0.202329 127 0 127
-0.381557 0.620497 -0.010672 255 0 0
0.390362 0.781236 -0.239592 0 255 0
0.284314 -0.717964 0.363274 153 0 76
0.169541 -0.484616 0.484466 0 0 255
0.327131 0.674010 -0.508002 127 127 0
-0.011012 -0.464334 -0.034807 0 0 255
-0.179020 0.712337 -0.496974 127 127 0
0.390362 0.221124 -0.089411 0 255 0
-0.365016 0.624239 0.068309 255 0 0
-0.381557 0.754051 -0.212169 255 0 0
-0.365016 0.158534 0.299457 255 0 0
0.373821 0.219974 0.373199 0 255 0
0.390362 -0.430475 0.214195 0 255 0
-0.381557 -0.713242 -0.190928 204 51 127
-0.124336 0.125633 -0.335655 127 0 127
-0.374821 -0.717964 -0.004870 204 51 127
0.390362 0.186115 -0.104765 0 255 0
-0.365016 -0.470663 -0.047761 0 0 255
0.088149 -0.304741 0.537535 76 153 0
-0.381557 -0.220438 -0.121666 255 0 0
0.330666 -0.464334 -0.482310 0 0 255
0.373821 -0.569750 0.335099 76 0 153
-0.180013 -0.099186 0.537535 76 153 0
-0.381557 0.756141 -0.456809 255 0 0
0.390362 0.784643 -0.415638 0 255 0
-0.381557 -0.411385 0.385821 255 0 0
0.291856 -0.464334 -0.134736 0 0 255
-0.365016 -0.668790 -0.065218 204 51 127
0.373821 0.680702 -0.023563 0 255 0
-0.365016 0.602600 0.262986 255 0 0
-0.068662 -0.708522 -0.508002 153 76 0
0.237373 -0.543183 0.363164 153 0 76
-0.248440 -0.486389 0.307803 0 0 255
-0.381557 -0.620249 -0.433722 204 51 127
0.373821 -0.125318 0.269389 0 255 0
0.390362 -0.080701 -0.001462 0 255 0
-0.365016 0.304869 0.356621 255 0 0
-0.365016 -0.204388 -0.127011 255 0 0
0.218628 -0.519471 0.500757 255 0 0
0.325903 0.318985 0.517548 76 153 0
0.390362 0.044534 -0.258783 0 255 0
-0.365016 0.042480 0.012710 255 0 0
-0.034736 0.592157 -0.508002 127 127 0
-0.365016 0.750731 0.437135 76 0 153
-0.065481 0.403229 0.537535 76 153 0
-0.381557 -0.317311 0.262426 255 0 0
-0.002784 0.480078 0.537535 76 153 0
0.373821 -0.524227 0.263841 76 0 153
0.390362 0.379464 0.334753 0 255 0
-0.365016 0.677080 0.465904 255 0 0
0.390362 -0.423416 -0.529198 0 255 0
-0.365016 0.351407 -0.027850 255 0 0
-0.365016 -0.512839 -0.527525 153 76 0
-0.381557 0.394810 -0.184782 255 0 0
0.033857 -0.636969 0.363164 153 0 76
0.373821 -0.205131 0.121691 0 255 0
0.011635 0.238171 -0.508002 127 127 0
-0.381557 -0.014775 0.371466 255 0 0
-0.365016 -0.669397 -0.226151 204 51 127
-0.381557 -0.151319 -0.184198 255 0 0
-0.002179 -0.486389 -0.136254 0 0 255
0.390362 -0.493083 0.019984 0 255 0
-0.365016 0.608719 -0.049450 255 0 0
-0.365016 -0.344657 0.176646 255 0 0
-0.089260 -0.464334 -0.268386 0 0 255
0.354363 0.238265 -0.508002 127 127 0
0.278668 0.803819 -0.528925 0 255 0
-0.190737 -0.627520 0.379705 153 0 76
0.373821 0.647547 0.004144 0 255 0
0.390362 -0.095332 0.223262 0 255 0
-0.249228 -0.455643 0.531116 76 153 0
0.401389 0.163655 0.491680 204 51 127
-0.303828 0.092759 -0.496974 127 127 0
-0.330886 0.672956 0.484466 0 0 255
0.373821 0.334805 -0.481695 0 255 0
0.118824 0.789843 0.484466 127 127 0
-0.220958 0.676338 -0.541084 0 255 0
0.373821 -0.708529 0.293834 76 0 153
0.390362 0.656969 0.220334 0 255 0
-0.134070 -0.306766 0.530643 76 153 0
-0.381557 -0.559413 0.054806 204 51 127
-0.292754 0.633944 0.550630 76 153 0
-0.231528 -0.195198 0.530643 76 153 0
0.104486 -0.437182 -0.508002 127 127 0
0.373821 0.315524 0.267263 0 255 0
-0.365016 -0.476169 0.255098 255 0 0
-0.381557 0.740890 0.085907 255 0 0
0.390362 -0.406919 0.197863 0 255 0
-0.381557 -0.710882 0.227100 204 51 127
0.390362 -0.581541 -0.298204 76 0 153
0.227430 -0.464334 0.298496 0 0 255
-0.100074 -0.106124 -0.496974 127 127 0
0.215656 -0.486389 -0.027460 0 0 255
0.373821 -0.198778 0.401715 0 255 0
0.373821 0.751473 -0.411208 153 0 76
-0.328273 -0.486389 -0.248048 0 0 255
-0.381557 -0.389455 -0.418552 255 0 0
-0.381557 -0.126870 0.235597 255 0 0
0.031088 0.102799 -0.496974 127 127 0
0.390362 0.157600 -0.120871 0 255 0
-0.184380 0.725915 0.517548 76 153 0
-0.381557 0.676321 0.124586 255 0 0
-0.381557 -0.529494 -0.406583 204 51 127
-0.381557 -0.532512 0.102433 204 51 127
