ply
format ascii 1.0
element vertex 613
property float x
property float y
property float z
property float nx
property float ny
property float nz
property uchar red
property uchar green
property uchar blue
property float opacity
end_header
0.346885 0.078842 -0.158701 -0.383952 -0.461169 0.799940 184 184 184 1.000000
0.425371 0.005084 -0.116663 0.000000 -1.000000 -0.000000 184 184 184 1.000000
-0.025341 0.063926 0.036721 -0.412125 -0.639910 0.648589 156 158 159 1.000000
-0.032776 -0.246352 -0.259188 -0.343245 0.290706 -0.893126 200 202 205 1.000000
-0.423574 0.059003 -0.093544 0.256331 0.131145 0.957651 184 184 184 1.000000
0.522283 -0.255626 -0.193581 0.727765 0.431927 -0.532726 184 184 184 1.000000
0.044746 0.404813 0.869696 -0.666295 -0.518952 -0.535480 164 166 167 1.000000
-0.410205 -0.312654 -0.044139 0.000000 1.000000 0.000000 184 184 184 1.000000
-0.135797 -0.238961 -0.104856 0.940170 -0.297994 -0.165169 2 2 0 1.000000
-0.315252 -0.293203 -0.156514 -0.599339 -0.765176 0.235156 184 184 184 1.000000
-0.054182 -0.153428 -0.228152 -0.456690 0.236893 -0.857505 209 211 212 1.000000
0.129446 -0.294623 -0.052147 0.740202 0.530475 0.413154 0 0 1 1.000000
0.546220 -0.280008 -0.177831 -0.795013 -0.452096 0.404429 145 147 156 1.000000
0.040141 0.392460 0.482248 -0.936069 0.317509 -0.151537 183 183 183 1.000000
0.311925 -0.312654 -0.104220 0.000000 1.000000 0.000000 184 184 184 1.000000
-0.085739 0.072847 -0.134748 -0.997337 0.057215 -0.045221 55 58 61 1.000000
-0.046287 0.448157 0.522500 -0.907190 0.408636 -0.100112 184 184 184 1.000000
0.068383 -0.312654 -0.182745 0.000000 1.000000 0.000000 255 255 255 1.000000
-0.005057 0.318856 -0.074436 -0.257936 0.103635 -0.960588 185 185 185 1.000000
0.339163 -0.312654 -0.084296 0.000000 1.000000 0.000000 184 184 184 1.000000
0.088415 -0.312654 -0.176167 0.000000 -1.000000 -0.000000 255 255 255 1.000000
-0.134395 -0.296399 -0.044633 -0.703181 0.556220 0.442894 68 68 68 1.000000
0.491144 -0.055279 -0.158281 -0.855923 -0.189995 0.480934 184 184 184 1.000000
0.018940 0.294383 0.148699 0.498691 0.772475 -0.393178 184 184 184 1.000000
-0.386035 -0.048015 -0.109426 -0.896822 -0.206327 -0.391330 184 184 184 1.000000
-0.069070 0.046538 -0.062193 0.937774 0.014185 -0.346958 170 171 178 1.000000
-0.019184 -0.028026 -0.039114 0.325621 -0.125042 -0.937195 165 167 168 1.000000
0.629842 0.080676 -0.095304 0.095748 -0.071558 -0.992830 168 170 173 1.000000
0.500463 -0.312654 -0.009072 0.000000 1.000000 0.000000 184 184 184 1.000000
-0.036128 0.374615 0.758167 -0.479208 -0.593031 -0.647050 154 156 157 1.000000
-0.548323 -0.312654 -0.106298 0.000000 -1.000000 -0.000000 255 255 255 1.000000
0.029327 0.448797 0.491089 -0.781718 -0.596236 0.182809 184 184 184 1.000000
0.030053 -0.084672 -0.218459 0.418877 0.164286 -0.893058 184 184 184 1.000000
0.057562 0.399716 0.789323 -0.951479 0.002604 0.307702 164 166 167 1.000000
-0.063126 0.208213 -0.078639 -0.768516 -0.057172 0.637272 78 82 82 1.000000
-0.044639 0.395089 0.521738 0.839135 0.508692 -0.192574 40 42 43 1.000000
-0.340929 -0.247087 -0.141233 0.866486 0.406985 -0.289076 184 184 184 1.000000
0.044323 0.426692 -0.162395 0.686296 -0.543512 -0.483315 80 82 83 1.000000
0.031568 0.438842 0.467400 0.819468 0.540209 -0.191431 184 184 184 1.000000
0.046437 0.290589 0.230631 0.993951 0.105582 -0.030241 127 129 130 1.000000
-0.029386 0.200276 -0.199446 0.411426 0.044410 0.910360 107 109 112 1.000000
-0.017303 0.035419 -0.045189 0.325844 -0.083283 -0.941748 162 164 165 1.000000
-0.777648 0.122978 -0.094421 -0.859222 0.398005 0.321449 184 184 184 1.000000
-0.357369 -0.218016 -0.158404 -0.857534 -0.336776 0.388866 184 184 184 1.000000
0.044584 0.418850 0.728744 -0.916823 0.307432 0.254797 232 231 233 1.000000
-0.715437 0.051443 -0.101183 0.125936 -0.727404 0.674554 212 219 223 1.000000
0.034569 -0.025740 -0.034334 0.630560 -0.104730 0.769042 164 166 167 1.000000
0.500813 -0.312654 -0.218939 0.000000 1.000000 0.000000 239 239 240 1.000000
0.486735 -0.116637 -0.173583 0.751663 0.163792 -0.638885 184 184 184 1.000000
-0.069789 0.098507 -0.066433 0.969688 -0.060710 -0.236685 191 192 198 1.000000
-0.155487 -0.294530 -0.143785 0.822042 -0.560213 0.102021 167 170 175 1.000000
-0.070647 0.365644 0.895874 -0.697876 -0.324538 0.638470 184 184 184 1.000000
-0.448557 0.103831 -0.139178 0.016221 -0.953746 0.300175 184 184 184 1.000000
0.380278 -0.068742 -0.162004 -0.835202 0.160026 -0.526146 184 184 184 1.000000
0.484232 -0.312654 -0.241596 0.000000 1.000000 0.000000 116 118 127 1.000000
-0.783955 0.053160 -0.147120 -0.903549 -0.321280 -0.283511 144 146 147 1.000000
-0.319164 -0.296970 -0.074651 0.579040 0.764240 0.283991 184 184 184 1.000000
0.091468 -0.071720 -0.120444 -0.984018 -0.158727 -0.080716 3 3 3 1.000000
-0.570385 -0.312654 -0.094575 0.000000 -1.000000 -0.000000 255 255 255 1.000000
0.431841 0.076713 -0.147776 -0.063928 0.336937 -0.939354 184 184 184 1.000000
0.372303 -0.312654 -0.136015 0.000000 1.000000 0.000000 184 184 184 1.000000
-0.045695 0.206948 0.185907 -0.808625 -0.473503 0.349171 179 181 182 1.000000
0.002511 0.302752 -0.078430 0.334134 0.065672 0.940235 116 118 119 1.000000
-0.042463 0.028060 -0.012301 -0.680314 -0.428316 0.594743 165 167 168 1.000000
-0.148429 -0.312654 -0.158964 0.000000 -1.000000 -0.000000 255 255 255 1.000000
-0.385196 -0.007977 -0.136236 0.908266 0.275802 -0.314620 184 184 184 1.000000
-0.023847 -0.312654 -0.029642 0.000000 -1.000000 -0.000000 255 255 255 1.000000
0.013709 0.111139 0.091116 0.330937 -0.728061 0.600339 164 166 167 1.000000
0.028802 0.214754 0.023615 0.678958 0.662396 -0.316620 72 80 86 1.000000
0.050152 0.141547 0.059588 -0.965954 0.187330 -0.178439 132 135 138 1.000000
-0.034443 0.365643 0.856313 0.930082 -0.091538 -0.355765 149 149 149 1.000000
-0.489032 -0.217804 -0.043296 0.432550 -0.340620 -0.834792 184 184 184 1.000000
0.478422 -0.312654 -0.030228 0.000000 1.000000 0.000000 184 184 184 1.000000
-0.470239 -0.177561 -0.050261 0.284418 -0.260110 -0.922740 184 184 184 1.000000
0.140203 -0.268432 -0.123981 0.951159 0.307695 0.024898 83 83 83 1.000000
-0.054687 0.282855 -0.099410 -0.741902 0.520483 0.422703 201 204 210 1.000000
-0.028555 0.484365 0.578722 -0.566676 0.811530 -0.142473 184 184 184 1.000000
-0.486077 -0.263459 -0.022213 -0.308504 0.444032 0.841226 184 184 184 1.000000
-0.350517 -0.243929 -0.170990 0.811096 0.409689 -0.417467 184 184 184 1.000000
-0.071003 -0.278485 0.001338 -0.262789 0.834178 0.484859 182 181 185 1.000000
-0.507955 0.074790 -0.102964 -0.037548 -0.081376 -0.995976 184 184 184 1.000000
0.021551 0.165367 0.152549 0.507640 -0.686655 0.520391 157 159 160 1.000000
-0.052902 0.300607 -0.114029 -0.953148 0.123768 0.276027 142 145 147 1.000000
0.063611 -0.312654 -0.268469 0.000000 -1.000000 -0.000000 255 255 255 1.000000
0.494860 0.081597 -0.105876 0.054775 -0.389313 -0.919475 184 184 184 1.000000
0.634037 0.087245 -0.157548 -0.111656 0.254535 -0.960596 44 44 44 1.000000
0.017504 0.324815 -0.174235 0.454196 0.227044 -0.861485 0 0 0 1.000000
-0.737748 0.057148 -0.093902 0.184263 -0.610771 0.770069 249 248 250 1.000000
0.044701 0.359203 0.366543 0.999517 0.030869 0.003537 182 182 182 1.000000
-0.063699 0.149826 0.012423 0.996913 -0.078516 0.000644 221 223 225 1.000000
-0.517966 -0.170775 -0.162345 0.857218 -0.238518 0.456384 184 184 184 1.000000
0.010491 0.370377 0.276226 0.332243 0.836064 -0.436591 184 184 184 1.000000
0.479641 -0.312654 -0.208049 0.000000 1.000000 0.000000 248 251 255 1.000000
0.073383 -0.067564 -0.072323 0.802264 0.156383 0.576123 56 56 56 1.000000
-0.479984 0.043017 -0.140745 -0.987185 0.005616 -0.159483 184 184 184 1.000000
-0.039915 -0.300590 0.019823 0.341879 -0.412644 -0.844301 241 240 242 1.000000
-0.782831 0.045545 -0.111194 0.897841 0.359510 -0.254233 142 144 145 1.000000
-0.047735 0.467863 0.733787 0.780007 -0.620796 -0.078749 184 184 184 1.000000
0.052737 0.080582 -0.015045 0.953985 -0.194065 0.228585 56 57 58 1.000000
-0.384376 -0.312654 -0.202653 0.000000 -1.000000 -0.000000 255 255 255 1.000000
0.047576 -0.037434 -0.052437 0.561377 0.132946 0.816812 155 155 155 1.000000
0.731036 0.054770 -0.160574 0.185672 0.648770 0.737986 248 247 249 1.000000
0.526362 -0.209336 -0.122486 -0.912711 -0.304612 -0.272341 184 184 184 1.000000
0.092804 -0.208240 -0.050520 0.747715 0.276375 0.603771 115 114 116 1.000000
-0.078593 0.017439 -0.082060 -0.845083 0.100047 0.525191 166 168 169 1.000000
-0.431555 -0.010202 -0.067318 0.211251 0.386129 0.897929 184 184 184 1.000000
-0.037881 0.310564 0.367326 0.688097 0.637303 -0.346939 235 234 236 1.000000
0.049024 0.241219 0.154848 0.998446 0.055708 -0.001249 243 242 244 1.000000
-0.438272 0.078589 -0.108317 0.066863 0.453630 0.888678 184 184 184 1.000000
0.061438 -0.055759 -0.192378 0.692699 0.150332 -0.705385 184 184 184 1.000000
-0.040281 0.346526 0.825312 -0.773064 0.062613 -0.631230 184 184 184 1.000000
-0.526612 -0.307380 0.000094 0.476699 -0.458093 -0.750272 184 184 184 1.000000
-0.017055 -0.025392 -0.020703 -0.487894 -0.225555 0.843258 173 175 176 1.000000
0.356383 0.038488 -0.104150 -0.347250 0.668687 -0.657476 184 184 184 1.000000
0.357393 0.042869 -0.153385 0.343385 -0.562668 -0.751992 184 184 184 1.000000
0.049366 0.188208 0.109381 0.988338 -0.104640 0.110632 192 195 200 1.000000
0.023748 -0.312654 -0.007373 0.000000 -1.000000 -0.000000 255 255 255 1.000000
-0.479122 0.020847 -0.089700 -0.533181 0.358668 0.766208 184 184 184 1.000000
0.058184 -0.086707 -0.201714 0.634675 0.170894 -0.753647 184 184 184 1.000000
-0.021004 0.241210 -0.044938 -0.350303 0.012945 0.936547 167 171 174 1.000000
0.537163 0.090701 -0.147439 -0.074593 0.659086 -0.748359 204 203 205 1.000000
0.135871 -0.312654 -0.135023 0.000000 -1.000000 -0.000000 255 255 255 1.000000
-0.383430 -0.063976 -0.115520 0.922459 0.168503 0.347385 184 184 184 1.000000
-0.461569 -0.312654 -0.219711 0.000000 -1.000000 -0.000000 255 255 255 1.000000
-0.457861 0.005084 -0.113213 0.000000 1.000000 0.000000 184 184 184 1.000000
-0.033967 0.343642 0.841800 -0.000006 -0.968460 0.249168 149 149 149 1.000000
0.553390 0.081322 -0.102698 0.066488 -0.270035 -0.960552 184 184 184 1.000000
-0.127373 -0.213854 -0.155114 -0.938986 0.281329 -0.197888 160 163 167 1.000000
0.068761 0.077826 -0.159035 0.922811 0.058000 -0.380862 214 216 220 1.000000
-0.435768 0.005084 -0.114813 0.000000 1.000000 0.000000 184 184 184 1.000000
-0.024240 0.330276 0.424262 -0.428572 -0.810824 0.398611 216 218 218 1.000000
0.039588 0.448028 0.568760 0.979773 0.194582 -0.046721 184 184 184 1.000000
-0.407785 -0.025899 -0.079098 -0.600292 0.233976 -0.764791 184 184 184 1.000000
-0.038107 0.400245 0.565940 0.713105 0.676239 -0.184884 243 244 245 1.000000
0.406609 0.076198 -0.145900 0.191754 0.559491 -0.806350 184 184 184 1.000000
-0.544743 -0.259435 -0.182240 0.787913 -0.428442 0.442301 184 184 184 1.000000
-0.004993 0.004921 -0.215611 0.258149 0.101440 -0.960765 184 184 184 1.000000
-0.002079 0.464748 0.483431 -0.154273 -0.942094 0.297757 184 184 184 1.000000
-0.011600 0.280949 -0.070530 -0.259779 0.523621 0.811379 98 101 108 1.000000
0.070130 0.193323 -0.115219 -0.986435 0.025656 -0.162133 5 4 3 1.000000
0.524237 -0.312654 -0.099549 0.000000 -1.000000 -0.000000 255 255 255 1.000000
0.011415 0.328921 0.201518 -0.348791 -0.827511 0.439965 184 184 184 1.000000
-0.080255 0.229019 -0.104799 -0.900198 -0.337808 0.274827 161 163 164 1.000000
-0.083107 -0.098787 -0.065687 -0.767006 0.178711 0.616250 95 97 98 1.000000
-0.395760 0.086848 -0.145414 0.307977 -0.688446 0.656653 184 184 184 1.000000
0.018517 0.189896 -0.055263 0.376704 0.003312 0.926328 0 0 0 1.000000
0.044492 0.105113 -0.066014 -0.621038 -0.061250 -0.781383 165 168 173 1.000000
0.330781 -0.283012 -0.200519 0.372081 -0.896475 0.240599 184 184 183 1.000000
-0.562531 -0.279466 -0.100997 -0.833187 0.447779 0.324490 225 235 243 1.000000
-0.506407 -0.083608 -0.145912 -0.911157 0.123082 -0.393248 184 184 184 1.000000
-0.016102 0.403112 -0.168158 -0.330168 -0.500325 -0.800415 151 153 154 1.000000
-0.385874 -0.159289 -0.078785 -0.753214 -0.223970 -0.618471 184 184 184 1.000000
-0.033813 0.002914 -0.019427 0.619489 0.339111 -0.707981 255 255 255 1.000000
-0.779001 0.126716 -0.120043 -0.850213 0.478728 0.218993 184 184 184 1.000000
-0.734212 0.120414 -0.143789 0.244521 0.792501 -0.558705 184 184 184 1.000000
-0.039353 0.240616 0.251325 -0.706825 -0.592603 0.386290 185 187 188 1.000000
0.688339 0.061483 -0.096559 -0.112456 -0.553359 0.825317 123 125 126 1.000000
0.488636 -0.312654 -0.088179 0.000000 -1.000000 -0.000000 255 255 255 1.000000
-0.019260 0.379646 0.541975 0.364743 0.879785 -0.304863 239 238 240 1.000000
0.464938 0.054620 -0.146939 0.009878 0.633011 0.774080 184 184 184 1.000000
-0.623029 0.046487 -0.124446 0.028517 -0.900375 0.434179 131 133 134 1.000000
0.069525 -0.077759 -0.188615 -0.752281 -0.164851 0.637885 183 184 192 1.000000
-0.463854 0.080099 -0.147803 0.069654 0.433055 -0.898672 184 184 184 1.000000
0.041014 0.398673 0.412750 0.949885 0.294117 -0.105898 184 184 184 1.000000
0.728697 0.043847 -0.114882 -0.158431 -0.837505 0.522959 255 255 255 1.000000
0.422019 -0.083144 -0.190202 0.200907 -0.129006 0.971079 184 184 184 1.000000
-0.671228 0.096266 -0.156836 0.137506 0.470431 -0.871658 162 162 160 1.000000
-0.077208 0.386084 0.837361 0.991275 -0.085328 -0.100463 155 157 158 1.000000
-0.026509 0.365174 0.499523 -0.486618 -0.812758 0.320355 237 236 238 1.000000
-0.403223 -0.000842 -0.083944 0.682158 0.178941 0.708972 184 184 184 1.000000
-0.504966 0.050808 -0.112673 0.010931 0.757877 -0.652306 184 184 184 1.000000
-0.055839 0.240411 0.119909 -0.936950 0.318596 -0.143599 245 247 251 1.000000
-0.077609 -0.229438 -0.238176 -0.531521 0.287290 -0.796837 212 214 214 1.000000
0.518003 -0.247209 -0.063093 0.722383 0.422684 0.547267 184 184 184 1.000000
-0.415397 -0.312654 -0.078475 0.000000 1.000000 0.000000 184 184 184 1.000000
0.330364 -0.312152 -0.022855 0.706418 -0.031301 -0.707102 184 184 184 1.000000
0.443937 -0.054829 -0.065540 -0.138474 -0.196053 -0.970767 184 184 184 1.000000
0.400249 0.075778 -0.106944 0.352561 0.479057 0.803869 184 184 184 1.000000
0.124235 -0.229806 -0.109541 0.946194 0.291018 0.141508 2 2 0 1.000000
-0.070985 0.395527 0.853198 0.908085 -0.244964 -0.339668 157 159 160 1.000000
-0.497713 -0.312654 -0.112529 0.000000 1.000000 0.000000 184 184 184 1.000000
-0.349279 -0.283151 -0.209269 0.390210 0.877657 -0.278307 184 183 183 1.000000
0.435393 0.089317 -0.121199 -0.164341 -0.836827 -0.522218 184 184 184 1.000000
0.037122 0.336547 0.786083 0.431701 -0.705112 -0.562540 184 184 184 1.000000
-0.054036 0.438183 0.819440 -0.699924 0.648213 0.299877 191 192 198 1.000000
0.473821 -0.144458 -0.061911 0.501141 0.197981 0.842414 184 184 184 1.000000
-0.051976 0.416440 0.509787 0.994266 0.093005 -0.052784 184 184 184 1.000000
-0.018797 0.403479 0.682114 -0.428731 -0.893045 -0.136601 140 142 145 1.000000
0.061625 0.162297 -0.169151 0.848047 0.030988 -0.529014 184 184 184 1.000000
-0.585141 -0.300000 -0.119259 0.629982 -0.753274 -0.188946 241 240 242 1.000000
-0.020912 0.358066 0.251793 -0.332335 0.831035 -0.446021 184 184 184 1.000000
-0.789705 0.103640 -0.142396 -0.938307 0.276209 -0.208061 213 214 220 1.000000
0.014781 0.050370 0.022329 -0.438573 0.606495 -0.663188 164 166 167 1.000000
-0.026134 0.367833 -0.106319 0.657274 0.366386 -0.658599 180 183 184 1.000000
0.659495 0.112954 -0.121045 0.145497 -0.865809 -0.478755 183 183 183 1.000000
-0.072235 -0.024504 -0.185663 0.745532 -0.128616 0.653942 178 180 190 1.000000
0.072952 -0.011704 -0.083566 -0.864621 -0.116324 -0.488774 4 4 4 1.000000
0.407836 -0.154998 -0.198620 -0.349947 0.217792 -0.911100 184 184 184 1.000000
0.373525 -0.081094 -0.144633 0.914572 -0.128456 0.383480 184 184 184 1.000000
0.583491 0.054625 -0.147892 -0.028778 -0.711995 -0.701594 183 183 183 1.000000
0.517640 -0.312654 -0.023539 0.000000 1.000000 0.000000 184 184 184 1.000000
0.026631 -0.312654 -0.193761 0.000000 -1.000000 -0.000000 255 255 255 1.000000
-0.062327 0.253666 -0.179213 -0.661427 0.447035 -0.602224 127 129 130 1.000000
-0.483258 -0.206113 -0.209210 -0.402515 0.311596 -0.860749 184 184 184 1.000000
-0.457085 0.036767 -0.089503 0.097862 -0.228561 -0.968598 184 184 184 1.000000
-0.572900 -0.312654 -0.155348 0.000000 1.000000 0.000000 170 169 171 1.000000
0.620545 0.101000 -0.105623 0.122600 -0.711036 -0.692385 7 7 7 1.000000
-0.621187 0.065762 -0.100484 -0.064721 0.413216 -0.908330 71 72 73 1.000000
0.354443 -0.193031 -0.098581 0.874886 -0.280853 -0.394582 184 184 184 1.000000
-0.462217 -0.312654 -0.137257 0.000000 1.000000 0.000000 184 184 183 1.000000
0.003071 -0.312654 -0.094984 0.000000 1.000000 0.000000 255 255 255 1.000000
0.002955 0.446483 0.433380 0.236315 0.904356 -0.355379 184 184 184 1.000000
0.063512 -0.312654 -0.116017 0.000000 1.000000 0.000000 255 255 255 1.000000
-0.011510 0.291553 -0.179337 0.304514 -0.326243 0.894895 97 97 97 1.000000
0.046562 0.002968 -0.196436 0.595627 0.108860 -0.795850 184 184 184 1.000000
-0.384664 -0.129159 -0.167861 -0.821496 -0.178620 0.541515 184 184 184 1.000000
0.498683 -0.138772 -0.166939 0.835793 0.190817 -0.514819 184 184 184 1.000000
0.063709 0.051017 -0.173929 -0.825879 -0.075305 0.558796 69 72 78 1.000000
0.010228 0.409240 0.355864 -0.342100 -0.851799 0.396745 184 184 184 1.000000
-0.551286 -0.312654 -0.165022 0.000000 1.000000 0.000000 204 203 205 1.000000
-0.052174 0.440847 0.685275 0.978929 0.182106 0.092387 207 209 210 1.000000
0.054132 0.071555 -0.030538 0.962389 -0.170443 0.211558 59 61 62 1.000000
-0.580006 -0.312654 -0.071218 0.000000 -1.000000 -0.000000 255 255 255 1.000000
-0.033693 0.345404 -0.142804 -0.218344 0.968438 -0.120223 134 135 140 1.000000
0.413784 -0.312654 -0.193270 0.000000 1.000000 0.000000 184 184 179 1.000000
0.349517 -0.217256 -0.088909 0.839492 -0.335391 -0.427512 184 184 184 1.000000
-0.429930 -0.118504 -0.195399 0.236303 0.166959 -0.957228 184 184 184 1.000000
0.071790 0.372697 0.841577 0.999507 0.028722 0.012704 184 184 184 1.000000
0.018730 0.228816 -0.202273 0.382412 -0.327824 -0.863882 175 177 178 1.000000
-0.368749 -0.251827 -0.053237 -0.656592 -0.431373 -0.618712 184 184 184 1.000000
0.377336 -0.263514 -0.026661 -0.447203 0.433644 0.782280 184 184 184 1.000000
-0.304521 -0.298076 -0.128510 0.634874 0.753088 -0.172608 184 184 184 1.000000
-0.032044 0.489135 0.672934 -0.600027 0.799916 0.010059 184 184 184 1.000000
-0.049601 0.452597 0.587389 -0.982666 0.181286 -0.038779 184 184 184 1.000000
-0.782448 0.083144 -0.166879 -0.891513 0.018949 -0.452598 114 116 117 1.000000
0.046741 0.161662 -0.038165 -0.908664 -0.408257 0.087505 237 239 240 1.000000
-0.418897 -0.086636 -0.068223 -0.402231 -0.119773 -0.907670 184 184 184 1.000000
0.403100 0.005084 -0.092949 0.000000 1.000000 0.000000 184 184 184 1.000000
-0.037361 0.311980 -0.165612 -0.638881 -0.077678 -0.765374 6 7 7 1.000000
0.333638 -0.312654 -0.188488 0.000000 -1.000000 -0.000000 255 255 255 1.000000
-0.041732 0.030832 -0.051360 0.462878 -0.087691 -0.882074 159 161 162 1.000000
-0.028393 0.486927 0.714914 -0.464624 0.878675 0.109795 184 184 184 1.000000
-0.453070 -0.299316 0.012079 0.036002 -0.766968 -0.640675 184 184 184 1.000000
-0.064030 0.075913 -0.024692 0.961697 0.174778 -0.211167 159 162 167 1.000000
-0.047726 0.128899 0.085689 -0.792110 -0.456062 0.405671 151 153 154 1.000000
-0.008355 0.370293 -0.097100 0.294651 0.330866 -0.896498 184 184 184 1.000000
-0.343939 0.077049 -0.113698 -0.995346 -0.038534 -0.088326 184 184 184 1.000000
-0.734892 0.041004 -0.122601 -0.143276 0.886005 -0.440984 21 21 21 1.000000
-0.007733 0.277870 0.107069 -0.167393 0.860276 -0.481566 184 184 184 1.000000
-0.035101 0.214983 -0.057431 0.473891 0.050078 -0.879158 156 163 170 1.000000
-0.129284 -0.232772 -0.167982 0.910524 -0.294488 0.290213 196 200 208 1.000000
-0.049146 0.428719 0.593774 0.965833 0.255626 -0.042681 183 183 183 1.000000
-0.573423 0.086043 -0.151088 0.081517 0.425705 -0.901183 209 211 212 1.000000
0.484021 -0.247285 -0.032671 -0.416231 -0.418038 -0.807462 184 184 184 1.000000
0.023422 -0.047169 -0.214840 0.396309 0.139169 -0.907508 184 184 184 1.000000
-0.474584 -0.312654 -0.080058 0.000000 1.000000 0.000000 184 184 184 1.000000
-0.382585 -0.124950 -0.090302 0.847337 0.170905 0.502804 184 184 184 1.000000
-0.500113 -0.156839 -0.075012 0.706463 -0.221473 -0.672205 184 184 184 1.000000
0.073955 -0.312654 -0.033902 0.000000 1.000000 0.000000 255 255 255 1.000000
-0.047028 0.366923 0.450740 -0.844542 -0.486563 0.223618 245 244 246 1.000000
0.388843 -0.231494 -0.038641 0.427528 -0.381081 -0.819754 184 184 184 1.000000
-0.060385 0.130944 -0.182133 0.707150 -0.042035 0.705813 213 214 220 1.000000
-0.071712 0.271510 -0.126650 -0.805434 0.592534 0.013410 19 19 19 1.000000
0.000276 -0.118900 -0.232074 0.275111 0.216084 -0.936815 184 184 184 1.000000
-0.059150 0.241240 0.152763 0.997111 -0.075097 0.011419 241 243 245 1.000000
0.507413 -0.252444 -0.048847 -0.619663 -0.432133 -0.655193 184 184 184 1.000000
-0.399423 -0.312654 -0.062948 0.000000 1.000000 0.000000 184 184 184 1.000000
-0.455070 -0.012397 -0.065305 -0.153906 0.334924 0.929591 184 184 184 1.000000
0.041363 0.363986 0.328096 -0.929314 -0.336562 0.151995 184 184 184 1.000000
-0.063199 -0.312654 -0.181205 0.000000 1.000000 0.000000 255 255 255 1.000000
0.102792 -0.193429 -0.187102 0.845730 0.260287 -0.465824 219 221 224 1.000000
0.434751 0.059887 -0.106602 0.017504 0.440526 -0.897569 184 184 184 1.000000
-0.475283 -0.312654 -0.195214 0.000000 1.000000 0.000000 144 149 149 1.000000
0.077206 -0.025834 -0.163222 0.904252 0.128141 -0.407318 123 122 124 1.000000
0.044624 -0.312098 -0.274615 0.391873 0.306044 -0.867625 220 222 223 1.000000
0.021972 -0.312654 -0.263605 0.000000 -1.000000 -0.000000 255 255 255 1.000000
0.556980 -0.312654 -0.084327 0.000000 -1.000000 -0.000000 255 255 255 1.000000
-0.508638 -0.312654 -0.252109 0.000000 -1.000000 -0.000000 255 255 255 1.000000
0.026886 0.404155 -0.155668 -0.639326 0.524304 0.562466 151 153 154 1.000000
0.048710 0.241300 -0.062709 -0.637516 -0.029750 -0.769863 9 10 4 1.000000
-0.061421 0.374988 0.785128 0.805318 0.223746 0.549000 156 158 159 1.000000
-0.014530 0.117395 -0.049151 -0.315477 0.044060 0.947910 166 169 174 1.000000
0.046895 0.218237 0.162449 -0.975552 0.167745 -0.141984 229 228 230 1.000000
-0.064244 0.427264 0.799352 0.954421 -0.289814 -0.071330 192 193 200 1.000000
-0.031411 -0.312654 -0.111452 0.000000 1.000000 0.000000 255 255 255 1.000000
-0.448850 0.028487 -0.169301 -0.036465 0.376845 -0.925558 184 184 184 1.000000
-0.391650 0.065930 -0.156814 0.300497 -0.004845 0.953770 184 184 184 1.000000
-0.002523 0.095597 -0.046549 -0.271565 -0.049961 -0.961123 152 157 158 1.000000
0.773631 0.048884 -0.138803 -0.900947 0.360524 0.241490 119 121 122 1.000000
0.358389 -0.224739 -0.185745 0.746923 -0.365364 0.555532 184 184 184 1.000000
0.033597 0.417149 0.865610 0.539483 0.621016 0.568593 164 166 167 1.000000
-0.519110 -0.164810 -0.103146 0.889823 -0.226410 -0.396173 184 184 184 1.000000
-0.104823 -0.125194 -0.156227 0.941282 -0.214037 0.261106 113 116 119 1.000000
-0.588169 0.068549 -0.101268 -0.054524 0.250908 -0.966474 184 184 184 1.000000
-0.466442 -0.312654 -0.056753 0.000000 -1.000000 -0.000000 255 255 255 1.000000
-0.131546 -0.312654 -0.101866 0.000000 -1.000000 -0.000000 255 255 255 1.000000
0.039610 0.156619 0.111978 -0.843735 0.408955 -0.347659 119 121 127 1.000000
-0.052509 -0.072979 -0.041577 -0.562637 0.041015 0.825686 159 161 164 1.000000
0.318607 -0.263953 -0.128268 0.875035 -0.421942 0.237234 184 184 184 1.000000
0.107940 -0.262588 -0.211687 0.759093 0.309651 -0.572621 184 184 184 1.000000
-0.046219 0.233861 0.223294 0.823034 0.464882 -0.326342 203 204 210 1.000000
-0.003067 -0.036930 -0.018879 -0.284192 0.199056 -0.937876 255 255 255 1.000000
0.001507 0.293678 0.362203 -0.227481 0.849363 -0.476272 216 217 224 1.000000
-0.439839 -0.312654 0.001864 0.000000 -1.000000 -0.000000 255 255 255 1.000000
0.039786 -0.207349 -0.243314 0.409721 0.267788 -0.872020 184 184 184 1.000000
0.449182 -0.163426 -0.051261 0.174967 0.231615 0.956944 184 184 184 1.000000
-0.461778 -0.125296 -0.058850 -0.255366 0.176708 0.950559 184 184 184 1.000000
0.037222 0.050627 -0.003549 -0.723282 0.480184 -0.496273 158 160 161 1.000000
0.027882 0.137507 0.112012 0.618177 -0.608760 0.497261 157 159 160 1.000000
0.345930 -0.235005 -0.076856 0.799843 -0.387937 -0.457991 184 184 184 1.000000
0.456520 0.037692 -0.090943 0.263249 0.216445 0.940134 184 184 184 1.000000
0.495026 -0.312654 0.007895 0.000000 1.000000 0.000000 184 184 184 1.000000
-0.464282 -0.236686 -0.225662 -0.182354 0.403782 -0.896497 184 184 184 1.000000
-0.398736 0.020467 -0.124663 0.827258 0.558786 0.058329 184 184 184 1.000000
-0.641277 0.060995 -0.101131 0.065428 -0.562027 0.824527 199 202 207 1.000000
-0.060341 -0.312654 -0.052402 0.000000 1.000000 0.000000 255 255 255 1.000000
-0.006994 -0.099329 -0.024288 0.100911 -0.047929 -0.993740 245 247 248 1.000000
0.459907 -0.312654 -0.037810 0.000000 1.000000 0.000000 184 184 184 1.000000
0.064424 0.158305 -0.090520 -0.896847 -0.028609 -0.441415 241 240 242 1.000000
-0.479230 -0.312654 -0.165253 0.000000 1.000000 0.000000 157 157 158 1.000000
0.568333 0.082583 -0.152853 0.077315 -0.287548 0.954640 184 184 184 1.000000
0.128412 -0.269092 -0.175903 0.891369 0.314816 -0.326116 196 199 204 1.000000
-0.148568 -0.312654 -0.108633 0.000000 -1.000000 -0.000000 255 255 255 1.000000
0.045579 0.304368 -0.128521 -0.999382 -0.029100 0.019715 13 13 13 1.000000
0.406711 -0.312654 -0.079583 0.000000 -1.000000 -0.000000 255 255 255 1.000000
-0.363143 -0.312654 -0.162238 0.000000 -1.000000 -0.000000 255 255 255 1.000000
-0.036726 0.394532 -0.104723 0.710141 0.440619 -0.549140 164 166 167 1.000000
0.494691 -0.227214 -0.051214 -0.581629 -0.374337 -0.722204 184 184 184 1.000000
0.025546 0.075020 -0.201735 0.440335 0.058091 -0.895952 184 184 184 1.000000
0.050438 -0.070376 -0.047870 0.644866 0.074202 0.760685 115 117 118 1.000000
0.446891 0.104986 -0.121214 0.143251 0.974251 0.174110 184 184 184 1.000000
0.461160 -0.156106 -0.199056 0.337568 0.219625 -0.915321 184 184 184 1.000000
-0.371045 -0.271964 -0.218199 0.575979 0.454365 -0.679560 184 184 184 1.000000
-0.050668 0.350965 0.404382 0.911078 0.363841 -0.193797 66 68 69 1.000000
-0.077648 -0.084643 -0.192068 -0.728167 0.169918 -0.664004 221 223 224 1.000000
0.039997 0.106992 -0.193457 -0.563128 -0.048983 0.824917 232 234 237 1.000000
0.007374 0.334194 -0.081861 0.355007 0.377229 0.855376 182 183 183 1.000000
0.023440 -0.254022 -0.261453 0.338480 0.294731 -0.893625 184 184 184 1.000000
0.073429 0.364860 0.860207 -0.987959 0.027030 -0.152334 184 184 184 1.000000
0.028050 0.404270 0.709464 -0.644886 0.719143 0.258757 143 145 148 1.000000
-0.394639 -0.312654 -0.104476 0.000000 -1.000000 -0.000000 255 255 255 1.000000
-0.500629 -0.312654 -0.175818 0.000000 -1.000000 -0.000000 255 255 255 1.000000
0.071517 0.168992 -0.136687 -0.992824 -0.029090 0.115990 141 142 143 1.000000
-0.007064 0.258728 -0.203229 -0.237116 0.488314 -0.839837 105 104 106 1.000000
0.032042 0.304000 -0.160050 -0.749497 -0.039078 0.660854 0 0 0 1.000000
0.065087 0.393775 0.820815 0.992050 0.124457 -0.018615 157 159 160 1.000000
0.060882 -0.228748 -0.243724 0.476117 0.282883 -0.832640 184 184 184 1.000000
0.033677 0.306857 -0.097133 -0.787859 0.031570 -0.615045 235 237 238 1.000000
0.043113 0.383611 0.767495 0.744835 -0.355833 -0.564449 162 164 165 1.000000
0.044405 0.291315 0.272867 -0.964275 0.219105 -0.148886 250 252 252 1.000000
0.046804 -0.111131 -0.037219 0.489986 0.190790 0.850596 196 198 200 1.000000
-0.054923 -0.312654 -0.017038 0.000000 1.000000 0.000000 255 255 255 1.000000
0.346140 -0.310729 -0.007138 -0.590666 0.143527 0.794049 184 184 184 1.000000
0.460783 -0.235050 -0.031843 0.231113 0.399566 0.887093 184 184 184 1.000000
0.548699 -0.312654 -0.188378 0.000000 -1.000000 -0.000000 255 255 255 1.000000
0.367602 0.089608 -0.112836 0.154789 0.791499 0.591244 184 184 184 1.000000
0.058537 0.264294 -0.094995 0.730657 0.570609 0.374894 111 114 119 1.000000
-0.343618 -0.312654 -0.207413 0.000000 -1.000000 -0.000000 255 255 255 1.000000
0.495982 -0.045670 -0.138044 -0.919075 -0.209490 0.333789 184 184 184 1.000000
0.013650 0.363432 0.921213 -0.164015 0.412534 -0.896055 184 184 184 1.000000
0.745942 0.062541 -0.165807 -0.274584 -0.491360 -0.826541 243 245 246 1.000000
-0.084191 -0.312654 -0.109340 0.000000 -1.000000 -0.000000 255 255 255 1.000000
-0.095039 -0.193322 -0.206770 -0.733196 0.266676 -0.625546 221 223 223 1.000000
0.027750 0.385750 0.522827 -0.717758 0.652910 -0.241934 243 245 246 1.000000
0.548718 -0.299361 -0.207420 0.522132 0.769032 -0.368739 159 164 172 1.000000
-0.346990 -0.243885 -0.097331 -0.837737 -0.407813 -0.363160 184 184 184 1.000000
-0.010755 0.379477 0.925866 0.216237 -0.424053 -0.879443 184 184 184 1.000000
0.066239 0.129540 -0.161605 0.903946 0.041241 -0.425653 221 222 228 1.000000
0.338120 0.050384 -0.161117 0.871382 0.204917 0.445760 184 184 184 1.000000
-0.050041 0.088742 0.033798 0.797350 0.427310 -0.426192 137 139 140 1.000000
-0.013664 0.491019 0.594798 -0.255373 0.956706 -0.139633 184 184 184 1.000000
-0.430831 -0.118732 -0.059395 -0.222257 -0.167220 -0.960541 184 184 184 1.000000
0.509866 -0.151618 -0.138124 -0.925857 -0.203638 0.318308 184 184 184 1.000000
-0.030033 0.346515 0.811192 -0.871194 0.122331 0.475454 149 149 149 1.000000
0.065646 0.050406 -0.078316 -0.953614 -0.030262 -0.299507 191 193 194 1.000000
-0.072880 0.032019 -0.177101 0.801071 -0.088871 0.591936 206 209 216 1.000000
0.679822 0.066132 -0.159498 0.105045 0.416540 0.903028 165 167 168 1.000000
-0.053677 0.423938 0.714113 -0.926594 -0.314867 -0.205624 240 239 241 1.000000
0.388308 0.091716 -0.133237 0.303601 0.831673 -0.464916 184 184 184 1.000000
-0.027532 0.381677 0.745415 -0.409139 -0.713040 -0.569368 163 165 166 1.000000
0.374499 -0.046641 -0.140441 -0.913654 0.206653 -0.350043 184 184 184 1.000000
0.521929 -0.226702 -0.081147 0.815420 0.363663 0.450376 184 184 184 1.000000
-0.733393 0.108023 -0.093895 0.244270 0.550849 0.798058 184 184 184 1.000000
-0.074828 0.381558 0.869128 0.907383 -0.146527 -0.393937 159 163 163 1.000000
-0.713441 0.081309 -0.086515 -0.163489 0.019296 -0.986356 172 174 175 1.000000
-0.482920 0.005084 -0.134585 0.000000 -1.000000 -0.000000 184 184 184 1.000000
-0.055001 0.259969 0.233136 -0.951732 -0.251187 0.176386 232 231 233 1.000000
-0.036355 0.101366 -0.054431 -0.442618 0.049922 0.895319 173 176 179 1.000000
-0.791837 0.068167 -0.140623 -0.967149 -0.168108 -0.190690 40 42 43 1.000000
0.114986 -0.222699 -0.172536 0.902093 0.286956 -0.322313 198 202 210 1.000000
0.382962 -0.312654 -0.181948 0.000000 -1.000000 -0.000000 255 255 255 1.000000
-0.069985 0.338112 0.822131 0.686484 0.717982 0.115076 184 184 184 1.000000
-0.536539 -0.241030 -0.178095 -0.796354 0.405397 -0.448858 184 184 184 1.000000
0.709378 0.058287 -0.095498 -0.149026 -0.607717 0.780045 248 247 249 1.000000
0.001976 0.099967 0.083020 0.252073 -0.727753 0.637836 158 160 161 1.000000
-0.050952 0.430659 0.564249 -0.996084 -0.085772 0.021454 184 184 184 1.000000
-0.021109 0.370713 0.520617 -0.373594 -0.869082 0.324227 233 233 235 1.000000
0.409551 0.021379 -0.087085 -0.325181 0.477730 0.816108 184 184 184 1.000000
0.009451 0.377969 0.743224 -0.307120 0.745569 0.591443 162 164 165 1.000000
-0.032700 0.088978 -0.202062 -0.424349 0.053579 -0.903912 201 203 204 1.000000
-0.398586 0.047442 -0.105810 -0.370835 -0.593051 0.714683 184 184 184 1.000000
0.051266 -0.312654 0.010920 0.000000 1.000000 0.000000 255 255 255 1.000000
-0.136737 -0.278828 -0.063110 -0.547015 0.791683 0.272052 100 104 103 1.000000
-0.471371 -0.237015 -0.031186 0.234288 -0.405385 -0.883613 184 184 184 1.000000
0.353512 -0.284995 -0.028318 0.391839 -0.785586 -0.478870 184 184 184 1.000000
-0.017236 0.250782 0.062247 -0.264485 0.867734 -0.420815 183 184 183 1.000000
0.016168 0.257701 0.081639 0.439752 0.805762 -0.396692 183 183 183 1.000000
0.057351 0.058341 -0.053804 -0.974674 0.082249 -0.207956 140 143 146 1.000000
0.387075 -0.173087 -0.192713 -0.577709 0.248936 -0.777357 184 184 184 1.000000
-0.387994 -0.201892 -0.194273 0.625852 0.307187 -0.716900 184 184 184 1.000000
0.424795 0.014044 -0.177334 0.118174 -0.603879 0.788267 184 184 184 1.000000
0.020408 0.467455 0.794911 -0.438133 -0.834781 -0.333436 226 225 227 1.000000
-0.046388 -0.312654 -0.190682 0.000000 -1.000000 -0.000000 255 255 255 1.000000
-0.012506 0.385509 0.564950 0.290414 0.916663 -0.274570 238 238 240 1.000000
-0.450475 -0.146123 -0.202907 0.080884 -0.203210 0.975789 184 184 184 1.000000
0.413492 -0.067538 -0.068108 -0.336420 0.166287 0.926914 184 184 184 1.000000
-0.148512 -0.291991 -0.088321 0.790595 -0.585904 -0.177980 17 16 16 1.000000
-0.352262 -0.312654 -0.191498 0.000000 -1.000000 -0.000000 255 255 255 1.000000
-0.390016 0.079983 -0.104012 -0.253325 0.515100 0.818840 184 184 184 1.000000
-0.004314 0.433977 0.402668 0.134927 0.918384 -0.371974 184 184 184 1.000000
-0.489804 0.005084 -0.111321 0.000000 -1.000000 -0.000000 184 184 184 1.000000
0.065953 0.022218 -0.076570 -0.907574 -0.011804 -0.419726 66 66 66 1.000000
-0.362535 -0.312654 -0.107217 0.000000 1.000000 0.000000 184 184 184 1.000000
-0.386772 -0.085628 -0.156945 0.874086 0.118967 -0.470977 184 184 184 1.000000
-0.365531 -0.280195 -0.036641 -0.585791 -0.464603 -0.664073 184 184 183 1.000000
-0.017733 0.466149 0.494586 0.300811 -0.911127 0.281710 184 184 184 1.000000
0.098904 -0.128861 -0.111828 -0.963160 -0.221326 -0.152768 1 1 0 1.000000
0.043909 0.047775 -0.020775 0.826786 -0.361055 0.431352 159 161 162 1.000000
-0.638353 0.103273 -0.146580 -0.127667 -0.743698 0.656212 5 5 5 1.000000
-0.051441 0.452345 0.790922 -0.727808 0.653466 0.208030 244 243 245 1.000000
-0.480417 -0.312654 -0.248959 0.000000 -1.000000 -0.000000 255 255 255 1.000000
-0.462472 -0.207786 -0.039834 -0.182266 0.318535 0.930223 184 184 184 1.000000
-0.516822 -0.312654 -0.052287 0.000000 1.000000 0.000000 184 184 184 1.000000
-0.092426 -0.002872 -0.122209 -0.991773 0.112168 0.061685 70 70 70 1.000000
-0.395992 -0.184067 -0.059527 -0.571887 -0.270252 -0.774538 184 184 184 1.000000
0.028322 0.325377 0.800341 -0.338445 0.812787 0.474164 184 184 184 1.000000
-0.064945 -0.312654 -0.087531 0.000000 1.000000 0.000000 255 255 255 1.000000
-0.003246 0.355517 0.489443 -0.199728 0.900820 -0.385528 223 224 230 1.000000
-0.032381 0.487508 0.648191 -0.619751 0.784309 -0.027714 184 184 184 1.000000
-0.692038 0.115298 -0.136854 -0.166302 -0.848771 0.501927 184 184 184 1.000000
0.023534 0.370324 0.848411 -0.000289 -0.249168 -0.968460 149 149 149 1.000000
-0.510042 -0.138069 -0.089439 -0.846969 0.188865 0.496965 184 184 184 1.000000
-0.545680 -0.284875 -0.207578 0.484093 -0.785291 0.385969 183 184 184 1.000000
-0.421350 -0.044131 -0.184909 0.376496 0.221031 -0.899665 184 184 184 1.000000
0.449385 0.005084 -0.084591 0.000000 -1.000000 -0.000000 184 184 184 1.000000
0.027449 0.159185 0.138283 -0.629928 0.611878 -0.478327 161 163 164 1.000000
-0.359331 0.090220 -0.104988 -0.316671 0.705706 0.633797 184 184 184 1.000000
0.555033 -0.281465 -0.107355 -0.841117 -0.448483 -0.302301 126 133 141 1.000000
-0.579710 -0.298680 -0.102253 0.611239 -0.758666 -0.225417 221 224 227 1.000000
-0.014889 -0.241157 -0.262302 -0.282299 0.284470 -0.916179 200 202 204 1.000000
0.085357 -0.205879 -0.211088 0.693904 0.276121 -0.665022 184 184 184 1.000000
-0.035103 0.329086 0.818751 -0.565212 0.281493 -0.775433 184 184 184 1.000000
0.017237 0.011762 -0.010991 0.543128 -0.438763 0.715890 161 163 164 1.000000
-0.031657 -0.312654 -0.171285 0.000000 1.000000 0.000000 255 255 255 1.000000
-0.428715 0.005084 -0.129636 0.000000 -1.000000 -0.000000 184 184 184 1.000000
0.341298 -0.240391 -0.168650 -0.817545 0.403049 -0.411305 184 184 184 1.000000
0.401481 -0.312654 -0.139877 0.000000 -1.000000 -0.000000 255 255 255 1.000000
0.008939 -0.312654 -0.200482 0.000000 1.000000 0.000000 255 255 255 1.000000
-0.044326 0.292945 0.315231 0.803964 0.510733 -0.304619 237 236 238 1.000000
0.772929 0.122050 -0.129133 0.842734 0.499243 -0.201385 183 183 183 1.000000
0.053568 -0.244288 -0.250204 0.444693 0.292721 -0.846500 184 184 184 1.000000
-0.047633 0.109179 0.063258 0.775300 0.463143 -0.429429 156 158 159 1.000000
-0.118481 -0.278872 -0.217973 0.478708 -0.789501 0.384093 203 209 213 1.000000
-0.361186 -0.220267 -0.079199 -0.813328 -0.344604 -0.468770 184 184 184 1.000000
0.090348 -0.083012 -0.144871 -0.967269 -0.168598 0.189644 80 82 82 1.000000
-0.042908 0.400442 0.733750 -0.683700 -0.615439 -0.392159 173 175 176 1.000000
0.021842 0.047343 -0.204957 -0.412034 -0.076419 0.907958 42 45 50 1.000000
0.364980 -0.126994 -0.114605 -0.926815 0.171106 0.334271 184 184 184 1.000000
-0.432854 -0.312654 0.017192 0.000000 -1.000000 -0.000000 255 255 255 1.000000
0.056584 -0.284398 -0.262461 -0.318920 -0.696793 0.642472 6 7 6 1.000000
-0.082820 0.211136 -0.129416 -0.997010 -0.073419 -0.024111 4 4 4 1.000000
-0.438189 -0.156563 -0.204288 -0.092752 -0.218232 0.971479 184 184 184 1.000000
-0.375585 -0.282444 -0.233154 0.160462 0.961815 -0.221728 184 184 183 1.000000
-0.763220 0.097670 -0.081494 -0.507145 -0.202746 -0.837674 239 239 239 1.000000
-0.429233 -0.312654 -0.102935 0.000000 1.000000 0.000000 184 184 184 1.000000
0.390222 0.049447 -0.149841 -0.402468 0.545831 0.734906 184 184 184 1.000000
0.477245 0.005084 -0.126123 0.000000 -1.000000 -0.000000 184 184 184 1.000000
-0.129055 -0.312654 -0.058088 0.000000 1.000000 0.000000 255 255 255 1.000000
-0.418760 -0.246872 -0.026811 -0.235953 -0.425555 -0.873630 184 184 184 1.000000
-0.088995 0.244069 -0.136724 -0.943235 0.315680 -0.103213 170 170 171 1.000000
0.043862 0.257861 0.235562 -0.934644 0.290968 -0.204399 237 236 238 1.000000
-0.415001 -0.199357 -0.045610 -0.335105 -0.301608 -0.892601 184 184 184 1.000000
0.534172 -0.302321 -0.028922 0.478790 0.742961 0.467727 181 184 184 1.000000
-0.530277 0.048754 -0.135075 -0.016218 -0.852049 -0.523211 184 184 184 1.000000
0.374016 -0.196911 -0.188641 0.682036 -0.298146 0.667784 184 184 184 1.000000
-0.790682 0.093288 -0.108200 -0.958923 0.157950 0.235625 202 204 205 1.000000
-0.546659 -0.302880 -0.225542 -0.505861 0.719981 -0.475112 177 179 179 1.000000
0.080507 -0.160298 -0.199437 0.735621 0.247329 -0.630627 184 184 184 1.000000
0.377681 -0.312654 -0.058903 0.000000 1.000000 0.000000 184 184 184 1.000000
-0.016028 0.402909 0.637388 -0.317280 -0.943776 0.092847 220 219 221 1.000000
0.042696 0.350625 0.309864 -0.950878 -0.282257 0.127134 184 184 184 1.000000
0.468731 0.005084 -0.153322 0.000000 -1.000000 -0.000000 184 184 184 1.000000
-0.424487 -0.003192 -0.184463 -0.332798 -0.212928 0.918644 184 184 184 1.000000
-0.038701 0.479550 0.613530 -0.766832 0.636798 -0.080356 184 184 184 1.000000
0.462179 -0.312654 -0.179302 0.000000 -1.000000 -0.000000 255 255 255 1.000000
-0.021676 -0.312654 -0.214778 0.000000 1.000000 0.000000 255 255 255 1.000000
-0.568818 -0.278204 -0.128206 -0.867546 0.438342 -0.234990 91 94 97 1.000000
0.035034 0.404274 -0.112844 -0.799614 0.524232 -0.292912 158 158 158 1.000000
0.113999 -0.182204 -0.133408 0.966351 0.253898 -0.041250 96 98 98 1.000000
0.138811 -0.273793 -0.142820 -0.943454 -0.315152 0.102825 130 131 137 1.000000
-0.040424 0.303658 0.182524 -0.729098 0.610863 -0.308646 184 184 184 1.000000
0.445705 -0.312654 -0.067836 0.000000 1.000000 0.000000 184 184 184 1.000000
0.529994 -0.242615 -0.167029 -0.819280 -0.407767 0.403121 184 184 184 1.000000
0.107243 -0.312654 -0.045306 0.000000 -1.000000 -0.000000 255 255 255 1.000000
-0.030606 0.211162 -0.009402 -0.569707 0.776815 -0.268313 139 145 158 1.000000
0.089965 -0.280216 -0.017569 0.421918 0.767364 0.482843 28 29 30 1.000000
0.062124 0.388159 0.864213 0.893824 0.218748 0.391443 160 162 165 1.000000
0.081736 -0.282739 -0.246849 -0.415916 -0.728583 0.544225 12 15 12 1.000000
0.509983 0.045543 -0.128272 0.021051 -0.917687 -0.396747 184 184 184 1.000000
0.345667 -0.276726 -0.206371 -0.668589 0.460398 -0.583971 181 183 184 1.000000
-0.534465 -0.221630 -0.097047 0.856543 -0.347404 -0.381634 184 184 184 1.000000
0.474353 0.027387 -0.107823 0.870543 0.471304 0.141514 184 184 184 1.000000
-0.384516 0.038193 -0.138186 0.206928 0.812481 0.545028 184 184 184 1.000000
0.028637 0.185068 -0.197191 -0.467460 0.002224 0.884012 133 134 140 1.000000
-0.762348 0.038491 -0.135255 -0.392284 0.817623 0.421433 193 195 196 1.000000
-0.448254 -0.095917 -0.194695 0.046675 -0.131530 0.990213 184 184 184 1.000000
-0.104908 -0.151050 -0.177663 -0.871210 0.234771 -0.431133 184 186 195 1.000000
0.118749 -0.250332 -0.189120 -0.852545 -0.299918 0.428037 239 241 244 1.000000
-0.050505 0.384032 0.762786 0.709722 0.414392 0.569713 164 166 167 1.000000
0.075548 0.114904 -0.128799 0.998939 0.043234 0.015897 237 236 238 1.000000
-0.697864 0.050494 -0.148035 0.089179 -0.765445 -0.637292 154 153 152 1.000000
-0.155234 -0.310679 -0.090874 -0.921046 0.317125 0.226066 27 26 26 1.000000
0.031581 0.364693 0.822762 -0.825879 0.115393 0.551913 149 149 149 1.000000
0.431428 -0.059415 -0.191279 -0.055061 0.182626 -0.981640 184 184 184 1.000000
0.017803 0.404182 0.893177 -0.356254 -0.544253 -0.759521 154 156 157 1.000000
-0.042665 0.443018 -0.162158 0.297258 -0.915678 0.270502 2 2 2 1.000000
-0.479374 0.082784 -0.151383 0.625929 -0.371191 0.685879 184 184 184 1.000000
0.004930 0.349525 0.233714 0.245098 0.852875 -0.461012 184 184 184 1.000000
-0.459875 -0.070647 -0.188967 -0.231961 0.159352 -0.959584 184 184 184 1.000000
0.441178 -0.035282 -0.065991 -0.096556 -0.240888 -0.965738 184 184 184 1.000000
-0.485367 0.003877 -0.084923 -0.638161 0.363525 0.678675 184 184 184 1.000000
0.421563 -0.147714 -0.054055 -0.185978 0.208134 0.960256 184 184 184 1.000000
0.380310 0.067306 -0.098741 0.280272 0.063799 0.957798 184 184 184 1.000000
0.419157 0.100537 -0.143218 0.314569 -0.829412 0.461651 184 184 184 1.000000
-0.054821 -0.229534 -0.006765 -0.417891 0.282893 0.863330 217 219 220 1.000000
-0.454363 -0.176081 -0.046415 0.096037 -0.254200 -0.962372 184 184 184 1.000000
0.025921 -0.128897 -0.027619 -0.394596 -0.225010 -0.890879 249 248 250 1.000000
-0.062986 -0.149102 -0.031340 -0.500160 0.236161 0.833107 205 207 208 1.000000
-0.014910 0.206717 -0.038235 -0.322088 0.898634 0.297853 139 151 163 1.000000
-0.024166 0.120660 0.103474 0.326908 0.734832 -0.594266 161 163 164 1.000000
-0.047483 0.470474 0.694323 0.846919 -0.531693 -0.005492 184 184 184 1.000000
-0.106272 -0.264097 -0.224252 -0.691217 0.313081 -0.651306 219 220 222 1.000000
0.033372 0.252573 0.098923 -0.763172 -0.581958 0.280881 184 184 184 1.000000
0.035989 0.360896 0.442135 -0.821549 0.517530 -0.239208 238 240 241 1.000000
0.057086 0.109154 -0.033273 0.996294 0.076374 0.039574 155 158 163 1.000000
0.042976 0.431852 0.707719 0.956067 -0.252998 -0.148083 241 240 242 1.000000
-0.004312 0.497737 0.674682 0.157108 0.987417 0.018025 184 184 184 1.000000
0.066841 0.075380 -0.088551 0.854691 0.052227 0.516503 165 168 171 1.000000
-0.414488 -0.268502 -0.016896 -0.252796 -0.451361 -0.855784 184 184 184 1.000000
-0.061936 0.226926 -0.074870 0.688165 0.347182 -0.637098 51 53 53 1.000000
0.012079 0.476761 0.533499 0.411180 0.884085 -0.222090 184 184 184 1.000000
0.042538 0.234418 0.208854 -0.906307 0.340290 -0.250619 222 224 226 1.000000
0.011705 -0.271998 0.015389 0.302844 0.302106 0.903890 242 244 245 1.000000
0.467709 0.049687 -0.113303 -0.010950 0.777359 -0.628962 184 184 184 1.000000
0.012033 0.205128 0.215958 0.339190 -0.774601 0.533801 154 156 157 1.000000
-0.054147 0.358666 0.381653 0.994938 0.079812 -0.061066 184 184 184 1.000000
-0.050854 0.424038 0.847927 0.640143 -0.629159 -0.440881 176 178 179 1.000000
-0.561506 -0.312654 -0.127072 0.000000 1.000000 0.000000 151 151 151 1.000000
-0.381375 -0.175460 -0.077391 0.770615 0.253912 0.584535 184 184 184 1.000000
0.750872 0.040637 -0.139584 -0.359210 -0.804665 -0.472740 204 206 207 1.000000
0.328547 -0.312654 -0.050024 0.000000 1.000000 0.000000 184 184 184 1.000000
0.033706 0.130449 0.096014 0.728486 -0.520113 0.445860 158 160 161 1.000000
0.354636 -0.312654 -0.028643 0.000000 -1.000000 -0.000000 255 255 255 1.000000
0.545789 -0.256421 -0.120645 0.871740 0.415434 0.259777 137 142 150 1.000000
-0.697045 0.108810 -0.154662 0.171543 0.697114 -0.696136 184 184 184 1.000000
-0.007558 0.367620 0.879738 0.046173 -0.248902 -0.967427 149 149 149 1.000000
0.095602 -0.236168 -0.212564 0.727192 0.296256 -0.619213 184 184 184 1.000000
-0.416763 -0.238877 -0.224011 -0.260572 -0.410740 0.873725 184 184 184 1.000000
0.032605 -0.312654 -0.040359 0.000000 1.000000 0.000000 255 255 255 1.000000
0.003388 0.074250 0.051896 -0.259640 0.705191 -0.659767 161 163 164 1.000000
0.104928 -0.312654 -0.151752 0.000000 -1.000000 -0.000000 255 255 255 1.000000
0.582058 0.075471 -0.156691 0.066003 -0.000273 0.997819 183 183 183 1.000000
0.076586 0.229982 -0.127282 -0.947166 0.320728 -0.003001 159 161 162 1.000000
0.432028 -0.184516 -0.042406 -0.036260 0.267595 0.962849 184 184 184 1.000000
0.031766 0.280935 0.303380 0.763328 -0.552386 0.334962 216 217 223 1.000000
-0.714306 0.065957 -0.162199 0.152337 -0.459442 -0.875046 247 246 248 1.000000
0.122334 -0.294786 -0.211567 -0.714577 -0.527683 0.459272 200 207 212 1.000000
-0.791869 0.084047 -0.146650 0.973965 -0.032514 0.224354 182 184 185 1.000000
-0.528366 -0.187522 -0.140789 -0.905305 0.266722 -0.330579 184 184 184 1.000000
0.340108 -0.225826 -0.111741 0.881445 -0.356107 -0.310231 184 184 184 1.000000
-0.376995 -0.199029 -0.182195 -0.747608 -0.300447 0.592296 184 184 184 1.000000
-0.607400 0.052444 -0.111391 -0.032100 0.765469 -0.642672 163 163 163 1.000000
0.342615 -0.253870 -0.067721 -0.762781 0.425642 0.486821 184 184 184 1.000000
-0.043672 0.422784 0.684457 -0.821618 -0.558328 -0.114949 241 240 242 1.000000
0.411940 0.005084 -0.132588 0.000000 1.000000 0.000000 184 184 184 1.000000
0.053948 0.129399 0.023990 -0.992218 0.072884 -0.100957 171 174 179 1.000000
-0.031448 0.452715 0.473898 -0.605957 0.753727 -0.254385 184 184 184 1.000000
-0.022527 -0.312654 -0.011414 0.000000 -1.000000 -0.000000 255 255 255 1.000000
0.582700 0.065292 -0.102513 -0.051595 -0.377102 0.924734 197 194 201 1.000000
0.478640 0.046957 -0.134619 -0.017023 0.855379 0.517723 184 184 184 1.000000
-0.082876 0.370572 0.840881 0.999621 -0.021753 0.016887 170 172 173 1.000000
0.022391 0.358485 0.834756 -0.872591 0.121711 0.473045 149 149 149 1.000000
-0.104926 -0.312654 -0.081353 0.000000 1.000000 0.000000 255 255 255 1.000000
0.047333 0.245892 -0.191321 0.596384 0.342277 -0.726067 180 182 185 1.000000
0.783446 0.076690 -0.129898 0.996271 -0.043250 -0.074656 109 110 116 1.000000
-0.554337 0.093998 -0.144299 -0.081846 -0.737986 0.669835 184 184 184 1.000000
0.500955 -0.093797 -0.121548 0.946925 0.124373 0.296419 184 184 184 1.000000
0.060607 0.407633 0.811875 -0.979489 -0.200587 -0.019143 167 169 170 1.000000
0.469549 -0.018598 -0.072932 -0.531986 0.115693 -0.838812 184 184 184 1.000000
0.475869 0.024509 -0.152823 -0.874274 -0.421257 0.241220 184 184 184 1.000000
-0.060785 0.204612 0.090366 0.995314 -0.094678 0.019639 244 243 245 1.000000
0.045576 0.029986 -0.060666 -0.603851 -0.092690 -0.791689 154 156 157 1.000000
-0.055531 0.311592 0.293553 -0.992763 -0.093082 0.075875 228 229 230 1.000000
-0.034116 -0.266024 -0.265249 0.344639 -0.301191 0.889105 162 168 173 1.000000
-0.345140 0.061628 -0.150102 -0.983263 0.056397 0.173246 184 184 184 1.000000
-0.500493 -0.187502 -0.064371 0.648234 -0.279551 -0.708268 184 184 184 1.000000
0.479445 -0.075035 -0.172702 0.692981 0.148804 -0.705432 184 184 184 1.000000
0.405515 0.056661 -0.094782 0.442730 -0.105705 -0.890403 184 184 184 1.000000
-0.090894 0.014003 -0.133442 -0.992699 0.100138 -0.067241 93 92 94 1.000000
-0.420160 0.060090 -0.148016 0.020354 -0.379338 -0.925034 184 184 184 1.000000
0.033056 0.441912 0.829369 -0.566275 -0.724358 -0.393241 222 224 225 1.000000
-0.463896 0.057891 -0.162088 -0.221147 0.120957 -0.967710 184 184 184 1.000000
0.017470 -0.278489 -0.268044 0.186922 0.829497 -0.526303 160 165 172 1.000000
