ply
format ascii 1.0
element vertex 619
property float x
property float y
property float z
property float nx
property float ny
property float nz
property uchar red
property uchar green
property uchar blue
property float opacity
end_header
-0.047720 -0.177582 0.384752 0.000000 0.000000 -1.000000 15 15 15 0.450000
0.664065 -0.233464 -0.460630 0.000000 -0.000000 1.000000 200 200 200 1.000000
-0.664623 0.147670 0.329447 0.000000 -0.000000 1.000000 200 200 200 1.000000
-0.096457 -0.221450 -0.460630 0.000000 0.000000 -1.000000 182 184 184 1.000000
0.135601 0.233310 -0.460630 0.000000 0.000000 -1.000000 203 203 203 1.000000
-0.051035 0.381120 0.329447 0.000000 0.000000 -1.000000 193 193 193 1.000000
0.295741 -0.323690 -0.125148 0.000000 1.000000 0.000000 255 255 255 0.300000
-0.311228 0.133525 -0.407958 0.000000 0.000000 -1.000000 181 181 181 1.000000
0.691412 0.440051 -0.074079 0.000000 1.000000 0.000000 204 204 204 1.000000
-0.341203 -0.376828 0.384752 0.000000 -0.000000 1.000000 188 190 191 1.000000
-0.322931 -0.490603 0.329447 0.000000 0.000000 -1.000000 183 185 186 1.000000
0.759001 -0.092803 -0.306376 1.000000 0.000000 0.000000 185 187 188 1.000000
0.759001 -0.286824 -0.035461 -1.000000 0.000000 0.000000 193 193 193 1.000000
-0.095743 -0.562168 0.380958 -0.081626 -0.632959 0.769870 207 207 207 1.000000
0.027738 0.382112 -0.116075 0.000000 1.000000 0.000000 215 215 215 1.000000
0.407929 -0.331591 -0.121929 0.000000 1.000000 0.000000 189 189 189 1.000000
0.114215 -0.405613 0.388439 0.000000 -0.000000 1.000000 251 251 251 0.010000
0.619773 -0.308805 -0.460630 0.000000 0.000000 -1.000000 209 209 209 1.000000
0.706329 0.031279 -0.223734 1.000000 0.000000 0.000000 187 187 187 1.000000
0.706329 -0.222183 0.238411 1.000000 0.000000 0.000000 190 192 192 1.000000
0.759001 0.375606 0.038307 -1.000000 0.000000 0.000000 209 209 209 1.000000
0.186181 -0.299435 0.384752 0.000000 -0.000000 1.000000 3 3 3 0.900000
-0.439447 -0.331591 -0.144800 0.000000 -1.000000 -0.000000 199 199 199 1.000000
-0.283852 0.382112 0.041555 0.000000 -1.000000 -0.000000 191 191 191 1.000000
-0.244810 0.382112 -0.105257 0.000000 -1.000000 -0.000000 206 206 206 1.000000
0.048505 -0.233100 -0.460630 0.000000 0.000000 -1.000000 177 177 177 1.000000
-0.116122 -0.142807 0.384752 0.000000 -0.000000 1.000000 3 3 3 0.900000
-0.533294 0.440051 -0.118278 0.000000 -1.000000 -0.000000 192 192 192 1.000000
-0.715809 -0.357561 -0.071228 -1.000000 0.000000 0.000000 193 195 195 1.000000
-0.146339 0.063515 0.384752 0.000000 -0.000000 1.000000 3 3 3 0.900000
-0.205181 -0.417043 0.384130 0.117912 -0.681613 0.722150 200 200 200 1.000000
-0.332351 0.440051 -0.209310 0.000000 -1.000000 -0.000000 183 184 184 1.000000
-0.496314 0.440051 -0.302114 0.000000 -1.000000 -0.000000 205 205 205 1.000000
-0.113359 -0.325054 -0.460630 0.000000 0.000000 -1.000000 182 184 185 1.000000
0.212794 -0.297354 0.108942 0.000000 1.000000 0.000000 255 255 255 0.300000
-0.336010 0.430296 -0.460630 0.000000 -0.000000 1.000000 217 217 217 1.000000
-0.646203 -0.084299 -0.407958 0.000000 -0.000000 1.000000 184 186 187 1.000000
0.238767 -0.501125 0.384752 0.000000 -0.000000 1.000000 209 209 209 1.000000
-0.393299 0.440051 0.274747 0.000000 1.000000 0.000000 207 207 207 1.000000
-0.570570 0.096244 -0.407958 0.000000 0.000000 -1.000000 196 198 198 1.000000
-0.199056 -0.259507 0.384752 0.000000 0.000000 -1.000000 15 15 15 0.450000
-0.505201 -0.039508 0.384752 0.000000 0.000000 -1.000000 15 15 15 0.450000
0.590776 0.382112 -0.338234 0.000000 -1.000000 -0.000000 203 202 203 1.000000
-0.715809 -0.177455 -0.411386 1.000000 0.000000 0.000000 175 177 178 1.000000
-0.010261 -0.331591 0.142398 0.000000 -1.000000 -0.000000 194 192 195 1.000000
0.253808 -0.378995 0.121246 0.000000 -1.000000 -0.000000 200 200 200 1.000000
0.399705 -0.070265 -0.460630 0.000000 0.000000 -1.000000 202 202 202 1.000000
-0.197395 -0.331591 -0.402062 0.000000 -1.000000 -0.000000 202 202 202 1.000000
-0.663137 -0.130069 -0.332788 1.000000 0.000000 0.000000 190 190 190 1.000000
0.631032 -0.325354 0.384752 0.000000 -0.000000 1.000000 3 3 3 0.900000
-0.148910 -0.378995 -0.055258 0.000000 -1.000000 -0.000000 207 207 207 1.000000
-0.663137 -0.311841 -0.110431 1.000000 0.000000 0.000000 192 192 192 1.000000
-0.002302 -0.033475 -0.460630 0.000000 0.000000 -1.000000 206 206 206 1.000000
0.706329 0.332729 -0.380746 1.000000 0.000000 0.000000 202 202 202 1.000000
-0.066862 0.047368 -0.460630 0.000000 -0.000000 1.000000 212 212 212 1.000000
-0.381250 -0.130677 0.384752 0.000000 0.000000 -1.000000 15 15 15 0.450000
0.706329 0.057704 0.281089 1.000000 0.000000 0.000000 201 201 201 1.000000
0.114566 0.440051 -0.137344 0.000000 1.000000 0.000000 195 198 198 1.000000
0.467222 0.440051 0.228430 0.000000 -1.000000 -0.000000 204 204 204 1.000000
0.194607 0.373958 0.384752 0.000000 0.000000 -1.000000 15 15 15 0.450000
0.540719 0.440051 0.118906 0.000000 -1.000000 -0.000000 203 203 203 1.000000
-0.701696 -0.305092 -0.460630 0.000000 -0.000000 1.000000 186 186 186 1.000000
0.547361 0.382112 -0.004088 0.000000 -1.000000 -0.000000 198 198 198 1.000000
-0.609139 -0.378995 0.055412 0.000000 1.000000 0.000000 181 183 183 1.000000
-0.639378 0.440051 0.010409 0.000000 1.000000 0.000000 185 187 188 1.000000
0.453202 0.376845 0.339184 0.000000 -1.000000 -0.000000 204 204 204 1.000000
-0.715809 0.251347 0.237155 -1.000000 0.000000 0.000000 200 200 200 1.000000
0.243940 0.382112 0.156064 0.000000 1.000000 0.000000 198 198 198 1.000000
0.336251 0.382112 0.165025 0.000000 -1.000000 -0.000000 200 200 200 1.000000
-0.669519 -0.081685 0.329447 0.000000 -0.000000 1.000000 167 169 170 1.000000
0.118574 -0.378995 0.165944 0.000000 -1.000000 -0.000000 198 198 198 1.000000
0.052630 0.440051 0.246055 0.000000 1.000000 0.000000 189 189 189 1.000000
-0.406810 -0.188738 -0.460630 0.000000 -0.000000 1.000000 205 204 206 1.000000
0.231572 -0.323690 -0.041300 0.000000 -1.000000 -0.000000 255 255 255 0.300000
-0.519869 -0.378995 -0.368728 0.000000 1.000000 0.000000 213 213 213 1.000000
0.042558 0.081076 -0.407958 0.000000 0.000000 -1.000000 192 192 192 1.000000
0.322953 0.440051 -0.088241 0.000000 -1.000000 -0.000000 190 189 190 1.000000
0.594848 0.175120 0.384752 0.000000 -0.000000 1.000000 3 3 3 0.900000
-0.715809 0.144340 0.139148 -1.000000 0.000000 0.000000 206 206 206 1.000000
0.658316 0.435932 0.384752 0.000000 0.000000 -1.000000 35 35 35 1.000000
0.518313 -0.378995 -0.031983 0.000000 -1.000000 -0.000000 194 194 194 1.000000
-0.375024 0.086477 -0.460630 0.000000 -0.000000 1.000000 200 200 200 1.000000
0.267492 0.440051 -0.392630 0.000000 -1.000000 -0.000000 194 195 196 1.000000
-0.410174 0.259454 0.384752 0.000000 0.000000 -1.000000 15 15 15 0.450000
0.759001 0.267195 0.164257 1.000000 0.000000 0.000000 209 209 209 1.000000
0.690670 0.058219 -0.460630 0.000000 0.000000 -1.000000 189 189 189 1.000000
0.228208 -0.170130 0.384752 0.000000 0.000000 -1.000000 15 15 15 0.450000
0.128622 -0.165046 -0.460630 0.000000 -0.000000 1.000000 204 204 204 1.000000
0.092775 0.440051 -0.328002 0.000000 -1.000000 -0.000000 178 177 179 1.000000
0.108703 0.005086 -0.460630 0.000000 0.000000 -1.000000 208 208 208 1.000000
-0.715809 -0.215144 0.185403 -1.000000 0.000000 0.000000 185 186 187 1.000000
0.433231 -0.331591 0.081630 0.000000 -1.000000 -0.000000 204 204 204 1.000000
-0.570581 -0.331591 -0.084352 0.000000 -1.000000 -0.000000 203 203 203 1.000000
0.759001 -0.306441 0.107586 -1.000000 0.000000 0.000000 191 191 191 1.000000
-0.545385 0.089189 0.384752 0.000000 0.000000 -1.000000 15 15 15 0.450000
0.759001 0.111543 -0.115737 1.000000 0.000000 0.000000 186 186 184 1.000000
0.023383 -0.378995 0.243489 0.000000 -1.000000 -0.000000 198 198 198 1.000000
-0.663137 0.311544 -0.278625 -1.000000 0.000000 0.000000 186 187 188 1.000000
-0.588810 0.382112 0.329439 0.000000 -1.000000 -0.000000 162 164 165 1.000000
-0.715809 -0.087342 -0.196370 -1.000000 0.000000 0.000000 199 199 199 1.000000
-0.282550 0.440051 0.199974 0.000000 -1.000000 -0.000000 196 196 196 1.000000
0.492350 0.440051 0.325153 0.000000 1.000000 0.000000 193 193 193 1.000000
0.228840 0.382112 -0.182273 0.000000 -1.000000 -0.000000 204 204 204 1.000000
-0.249358 0.292202 0.384752 0.000000 -0.000000 1.000000 3 3 3 0.900000
-0.039947 -0.295385 -0.460630 0.000000 0.000000 -1.000000 174 176 177 1.000000
0.791988 0.394816 0.384752 0.000000 -0.000000 1.000000 200 200 200 1.000000
0.109629 -0.254963 0.384752 0.000000 -0.000000 1.000000 3 3 3 0.900000
0.015607 -0.156124 -0.407958 0.000000 -0.000000 1.000000 187 187 187 1.000000
0.759001 -0.367320 -0.065927 -1.000000 0.000000 0.000000 201 201 201 1.000000
0.706329 -0.176047 0.135232 1.000000 0.000000 0.000000 182 184 185 1.000000
0.686082 0.382112 -0.217879 0.000000 1.000000 0.000000 190 191 191 1.000000
0.439894 -0.331591 0.009885 0.000000 1.000000 0.000000 205 205 205 1.000000
0.759001 0.367467 -0.300026 1.000000 0.000000 0.000000 187 189 189 1.000000
-0.663137 0.141395 -0.169843 1.000000 0.000000 0.000000 187 187 187 1.000000
-0.694276 0.442685 0.359476 0.000000 1.000000 0.000000 35 35 35 1.000000
-0.537311 -0.311691 -0.460630 0.000000 -0.000000 1.000000 178 180 181 1.000000
0.194064 0.090279 -0.407958 0.000000 0.000000 -1.000000 192 192 193 1.000000
-0.715809 -0.374443 0.074003 -1.000000 0.000000 0.000000 175 177 177 1.000000
0.759001 -0.018449 0.133903 -1.000000 0.000000 0.000000 168 170 172 1.000000
-0.035462 -0.121662 -0.460630 0.000000 -0.000000 1.000000 202 202 202 1.000000
0.766683 0.119780 0.384752 0.000000 -0.000000 1.000000 211 211 211 1.000000
-0.395642 0.200876 -0.407958 0.000000 0.000000 -1.000000 191 191 191 1.000000
-0.602687 -0.478657 0.329447 0.000000 0.000000 -1.000000 184 183 185 1.000000
-0.182011 -0.034535 -0.460630 0.000000 -0.000000 1.000000 196 196 196 1.000000
-0.432476 -0.010237 0.384752 0.000000 -0.000000 1.000000 3 3 3 0.900000
-0.663137 -0.045223 -0.273715 -1.000000 0.000000 0.000000 194 194 194 1.000000
0.374701 0.169598 -0.407958 0.000000 -0.000000 1.000000 188 187 189 1.000000
0.314250 -0.237859 0.384752 0.000000 -0.000000 1.000000 3 3 3 0.900000
0.414101 -0.378995 -0.453715 0.000000 -1.000000 -0.000000 198 198 198 1.000000
-0.663137 0.014108 0.310660 -1.000000 0.000000 0.000000 173 175 175 1.000000
-0.084531 -0.405328 0.329447 0.000000 -0.000000 1.000000 203 203 203 1.000000
0.706329 0.105039 0.188451 -1.000000 0.000000 0.000000 210 210 210 1.000000
-0.059313 0.382112 0.059960 0.000000 1.000000 0.000000 200 200 200 1.000000
-0.096591 -0.378995 0.085942 0.000000 1.000000 0.000000 209 209 209 1.000000
0.118564 -0.331591 -0.260815 0.000000 -1.000000 -0.000000 194 194 194 1.000000
0.486068 -0.378995 0.180831 0.000000 1.000000 0.000000 193 193 193 1.000000
-0.709673 0.440051 0.134114 0.000000 -1.000000 -0.000000 194 193 195 1.000000
-0.341604 0.235150 -0.460630 0.000000 -0.000000 1.000000 217 217 217 1.000000
-0.640683 -0.331591 0.190354 0.000000 1.000000 0.000000 177 176 178 1.000000
0.759001 0.070352 0.091171 -1.000000 0.000000 0.000000 194 196 196 1.000000
0.494904 -0.286128 -0.407958 0.000000 0.000000 -1.000000 209 209 209 1.000000
0.680729 -0.378995 -0.118942 0.000000 -1.000000 -0.000000 195 195 197 1.000000
0.759001 0.162994 -0.249325 1.000000 0.000000 0.000000 193 192 194 1.000000
0.323831 0.440051 0.088865 0.000000 1.000000 0.000000 197 196 198 1.000000
0.706329 0.097407 -0.401152 1.000000 0.000000 0.000000 208 208 208 1.000000
-0.761897 0.370234 0.359722 -1.000000 0.000000 0.000000 206 206 206 1.000000
-0.529755 0.440051 0.253464 0.000000 1.000000 0.000000 183 182 184 1.000000
-0.680477 -0.156949 0.384752 0.000000 -0.000000 1.000000 173 175 176 1.000000
0.759001 -0.159159 -0.422579 1.000000 0.000000 0.000000 192 191 193 1.000000
-0.154531 -0.227527 -0.407958 0.000000 -0.000000 1.000000 194 194 194 1.000000
0.313927 -0.331591 0.281399 0.000000 1.000000 0.000000 205 205 205 1.000000
-0.715809 -0.319332 -0.291374 1.000000 0.000000 0.000000 175 177 177 1.000000
0.114271 0.440051 0.115136 0.000000 1.000000 0.000000 192 192 192 1.000000
-0.321849 -0.177769 0.384752 0.000000 -0.000000 1.000000 3 3 3 0.900000
-0.663137 -0.076638 -0.022184 1.000000 0.000000 0.000000 192 194 194 1.000000
0.374187 0.025076 0.384752 0.000000 -0.000000 1.000000 3 3 3 0.900000
-0.715809 0.392521 0.187679 -1.000000 0.000000 0.000000 223 223 223 1.000000
-0.754529 -0.515143 0.329447 0.000000 0.000000 -1.000000 182 184 184 1.000000
-0.132000 0.241458 -0.407958 0.000000 -0.000000 1.000000 187 187 187 1.000000
-0.715809 0.003767 -0.311593 1.000000 0.000000 0.000000 196 196 196 1.000000
-0.715809 -0.191331 -0.222549 1.000000 0.000000 0.000000 194 194 194 1.000000
0.167893 -0.378995 0.255322 0.000000 1.000000 0.000000 193 193 193 1.000000
0.210744 -0.378995 -0.247136 0.000000 1.000000 0.000000 198 198 198 1.000000
-0.611563 0.440051 -0.094561 0.000000 -1.000000 -0.000000 193 193 193 1.000000
0.759001 -0.282350 -0.291628 1.000000 0.000000 0.000000 209 209 209 1.000000
0.759001 -0.178136 -0.109946 -1.000000 0.000000 0.000000 184 186 186 1.000000
0.025710 0.382112 0.186691 0.000000 1.000000 0.000000 185 187 187 1.000000
-0.128004 -0.378995 0.234011 0.000000 1.000000 0.000000 182 181 183 1.000000
0.706329 0.314590 0.282229 -1.000000 0.000000 0.000000 201 201 201 1.000000
0.256855 0.018597 -0.407958 0.000000 -0.000000 1.000000 188 188 188 1.000000
0.686077 -0.331591 0.332564 0.000000 1.000000 0.000000 196 195 195 1.000000
0.706329 0.240609 0.109937 -1.000000 0.000000 0.000000 206 206 206 1.000000
0.111966 0.343167 -0.407958 0.000000 0.000000 -1.000000 193 194 194 1.000000
0.092433 0.440051 -0.050010 0.000000 1.000000 0.000000 197 198 198 1.000000
0.198022 0.330538 -0.460630 0.000000 -0.000000 1.000000 196 196 196 1.000000
-0.578119 -0.407067 0.384752 0.000000 -0.000000 1.000000 255 255 255 1.000000
0.605259 -0.251734 -0.407958 0.000000 -0.000000 1.000000 197 197 197 1.000000
0.353094 0.382112 -0.133221 0.000000 -1.000000 -0.000000 204 204 204 1.000000
-0.663137 0.090271 -0.235013 1.000000 0.000000 0.000000 181 180 182 1.000000
-0.275347 0.035542 -0.407958 0.000000 -0.000000 1.000000 182 182 184 1.000000
-0.656286 0.206127 0.384752 0.000000 -0.000000 1.000000 198 198 198 1.000000
-0.584352 -0.125688 -0.407958 0.000000 -0.000000 1.000000 190 192 193 1.000000
0.759001 0.288246 0.003434 1.000000 0.000000 0.000000 186 186 186 1.000000
-0.506827 -0.490964 0.329447 0.000000 -0.000000 1.000000 165 167 168 1.000000
0.557350 -0.069276 -0.460630 0.000000 0.000000 -1.000000 208 208 208 1.000000
-0.715809 -0.291109 0.113912 -1.000000 0.000000 0.000000 177 180 179 1.000000
-0.382938 0.382112 -0.252245 0.000000 -1.000000 -0.000000 211 211 211 1.000000
-0.561124 -0.261200 0.384752 0.000000 -0.000000 1.000000 3 3 3 0.900000
-0.156405 0.104466 -0.460630 0.000000 -0.000000 1.000000 202 202 202 1.000000
0.403292 0.382112 -0.261352 0.000000 -1.000000 -0.000000 194 194 194 1.000000
0.279387 -0.378995 -0.078283 0.000000 -1.000000 -0.000000 207 207 207 1.000000
0.628992 -0.412249 0.384752 0.000000 -0.000000 1.000000 198 198 198 1.000000
-0.371220 -0.061116 0.384752 0.000000 0.000000 -1.000000 15 15 15 0.450000
0.243025 0.440051 -0.130274 0.000000 -1.000000 -0.000000 188 188 188 1.000000
-0.636165 0.382112 -0.238396 0.000000 1.000000 0.000000 207 207 207 1.000000
0.621699 0.310629 -0.460630 0.000000 -0.000000 1.000000 193 194 194 1.000000
-0.019926 0.041184 0.384752 0.000000 0.000000 -1.000000 15 15 15 0.450000
0.759001 0.250504 -0.151235 1.000000 0.000000 0.000000 194 194 194 1.000000
-0.603881 0.271871 0.333277 -1.000000 0.000000 0.000000 203 203 203 1.000000
-0.293457 -0.331591 -0.399447 0.000000 1.000000 0.000000 211 211 211 1.000000
-0.663137 0.220314 -0.274420 -1.000000 0.000000 0.000000 185 187 189 1.000000
-0.438002 -0.378995 -0.265647 0.000000 -1.000000 -0.000000 212 212 212 1.000000
0.759001 -0.059349 0.214142 1.000000 0.000000 0.000000 176 177 178 1.000000
0.207056 -0.378995 -0.167170 0.000000 1.000000 0.000000 204 204 204 1.000000
-0.715809 0.359487 -0.053769 1.000000 0.000000 0.000000 217 217 217 1.000000
0.706329 -0.085217 -0.181852 -1.000000 0.000000 0.000000 184 184 184 1.000000
-0.387253 -0.378995 0.092178 0.000000 -1.000000 -0.000000 195 197 196 1.000000
-0.113097 -0.331591 -0.331025 0.000000 -1.000000 -0.000000 190 192 192 1.000000
-0.243604 -0.135911 0.384752 0.000000 -0.000000 1.000000 3 3 3 0.900000
-0.715809 0.216710 -0.455254 -1.000000 0.000000 0.000000 204 204 204 1.000000
-0.715809 0.061555 0.301998 -1.000000 0.000000 0.000000 185 185 185 1.000000
0.517285 0.440051 -0.029490 0.000000 1.000000 0.000000 201 201 201 1.000000
-0.002858 0.382112 -0.405820 0.000000 1.000000 0.000000 183 183 183 1.000000
-0.512708 0.382112 -0.393311 0.000000 1.000000 0.000000 211 211 211 1.000000
0.370108 -0.331591 -0.314496 0.000000 -1.000000 -0.000000 191 193 192 1.000000
-0.341538 -0.378995 0.290855 0.000000 -1.000000 -0.000000 180 182 183 1.000000
-0.172698 -0.491935 0.384752 0.000000 -0.000000 1.000000 207 207 207 1.000000
0.370646 -0.331591 0.223391 0.000000 1.000000 0.000000 199 199 199 1.000000
0.706329 0.181979 0.038825 1.000000 0.000000 0.000000 204 204 204 1.000000
0.687928 0.267066 -0.460630 0.000000 -0.000000 1.000000 184 186 187 1.000000
0.342807 0.440051 -0.170645 0.000000 1.000000 0.000000 189 189 189 1.000000
0.506376 0.008896 -0.407958 0.000000 -0.000000 1.000000 209 208 209 1.000000
0.068101 0.382112 -0.288304 0.000000 1.000000 0.000000 205 205 205 1.000000
-0.371161 -0.307554 -0.407958 0.000000 -0.000000 1.000000 187 187 187 1.000000
-0.663137 0.237697 -0.080127 -1.000000 0.000000 0.000000 198 199 199 1.000000
0.672389 -0.378995 -0.023252 0.000000 1.000000 0.000000 197 197 197 1.000000
-0.640952 -0.378995 -0.163911 0.000000 -1.000000 -0.000000 200 200 200 1.000000
0.254988 0.272259 -0.407958 0.000000 0.000000 -1.000000 194 195 195 1.000000
0.275145 0.382112 -0.015147 0.000000 -1.000000 -0.000000 205 205 205 1.000000
0.211056 -0.093800 -0.460630 0.000000 0.000000 -1.000000 200 200 200 1.000000
-0.472261 0.294943 -0.460630 0.000000 0.000000 -1.000000 209 209 209 1.000000
0.380963 -0.406909 0.329447 0.000000 -0.000000 1.000000 196 196 196 1.000000
-0.715809 -0.022327 0.140435 1.000000 0.000000 0.000000 180 179 181 1.000000
-0.079585 -0.297354 0.240483 0.000000 1.000000 0.000000 255 255 255 0.300000
-0.475019 0.382112 -0.333960 0.000000 1.000000 0.000000 216 216 216 1.000000
-0.467058 0.440051 -0.079865 0.000000 1.000000 0.000000 198 200 200 1.000000
0.759001 0.162787 -0.421571 -1.000000 0.000000 0.000000 190 192 193 1.000000
-0.558155 0.382112 -0.008878 0.000000 1.000000 0.000000 196 196 196 1.000000
0.605722 -0.331591 0.189971 0.000000 1.000000 0.000000 199 199 199 1.000000
0.286944 0.442685 0.353902 0.000000 -1.000000 -0.000000 35 35 35 1.000000
-0.402442 0.440051 0.045203 0.000000 -1.000000 -0.000000 192 192 194 1.000000
0.038236 -0.498761 0.329447 0.000000 -0.000000 1.000000 180 180 180 1.000000
0.384185 0.442685 0.367609 0.000000 1.000000 0.000000 35 35 35 1.000000
0.445431 -0.163760 -0.407958 0.000000 -0.000000 1.000000 199 199 199 1.000000
-0.555931 0.440051 -0.391301 0.000000 -1.000000 -0.000000 214 214 214 1.000000
-0.682911 -0.244351 0.384752 0.000000 -0.000000 1.000000 173 175 176 1.000000
-0.668425 0.440051 -0.293501 0.000000 1.000000 0.000000 205 205 205 1.000000
-0.715809 0.198375 -0.054365 -1.000000 0.000000 0.000000 221 221 221 1.000000
-0.039874 0.175859 -0.460630 0.000000 -0.000000 1.000000 211 211 211 1.000000
-0.215336 -0.301786 -0.237618 0.677413 -0.455790 0.577379 255 255 255 0.300000
0.038916 0.382112 -0.198911 0.000000 -1.000000 -0.000000 210 210 210 1.000000
-0.398629 -0.331591 -0.021577 0.000000 1.000000 0.000000 184 186 185 1.000000
-0.715809 -0.320649 0.028072 -1.000000 0.000000 0.000000 180 182 182 1.000000
0.489879 0.382112 -0.332968 0.000000 1.000000 0.000000 192 192 193 1.000000
-0.761897 0.129513 0.331725 -1.000000 0.000000 0.000000 196 196 196 1.000000
0.472481 -0.027707 -0.460630 0.000000 -0.000000 1.000000 208 208 208 1.000000
0.473078 -0.331591 -0.318027 0.000000 1.000000 0.000000 191 191 191 1.000000
-0.244515 -0.331591 -0.297658 0.000000 1.000000 0.000000 198 200 200 1.000000
0.789817 0.030373 0.384752 0.000000 0.000000 -1.000000 215 215 215 1.000000
0.757451 -0.378995 -0.380232 0.000000 -1.000000 -0.000000 182 182 182 1.000000
-0.372322 0.325146 0.384752 0.000000 0.000000 -1.000000 15 15 15 0.450000
-0.115863 0.440051 0.159405 0.000000 1.000000 0.000000 190 192 192 1.000000
0.759001 -0.197060 -0.043622 -1.000000 0.000000 0.000000 182 184 186 1.000000
-0.715809 -0.139683 0.064178 -1.000000 0.000000 0.000000 204 206 206 1.000000
0.692068 0.440051 0.097675 0.000000 -1.000000 -0.000000 200 200 200 1.000000
0.096576 -0.114300 -0.407958 0.000000 -0.000000 1.000000 192 193 193 1.000000
-0.362940 0.092341 0.384752 0.000000 0.000000 -1.000000 15 15 15 0.450000
0.706329 -0.259975 -0.253168 -1.000000 0.000000 0.000000 174 176 177 1.000000
0.002870 -0.378995 -0.297918 0.000000 -1.000000 -0.000000 201 201 201 1.000000
0.364465 -0.331591 0.086402 0.000000 -1.000000 -0.000000 201 201 201 1.000000
0.046868 -0.378995 -0.079753 0.000000 -1.000000 -0.000000 216 216 216 1.000000
0.706329 -0.050211 0.038191 1.000000 0.000000 0.000000 197 197 197 1.000000
-0.315129 0.382112 -0.162659 0.000000 1.000000 0.000000 208 208 208 1.000000
-0.119614 -0.291354 0.384752 0.000000 -0.000000 1.000000 3 3 3 0.900000
0.706329 -0.314182 0.058666 1.000000 0.000000 0.000000 185 187 187 1.000000
0.571557 0.074842 -0.460630 0.000000 -0.000000 1.000000 192 192 192 1.000000
0.311736 0.320514 -0.407958 0.000000 -0.000000 1.000000 200 200 200 1.000000
-0.699530 -0.415626 0.384752 0.000000 -0.000000 1.000000 173 175 176 1.000000
-0.715809 0.106207 0.081833 -1.000000 0.000000 0.000000 203 203 203 1.000000
-0.094525 0.164259 0.384752 0.000000 0.000000 -1.000000 15 15 15 0.450000
-0.715809 -0.190628 0.009373 1.000000 0.000000 0.000000 206 205 207 1.000000
0.356983 0.440051 -0.246301 0.000000 1.000000 0.000000 190 192 192 1.000000
0.706329 0.254560 -0.388245 1.000000 0.000000 0.000000 210 210 210 1.000000
-0.609980 0.217075 -0.407958 0.000000 -0.000000 1.000000 208 208 208 1.000000
-0.715809 0.370956 -0.427217 -1.000000 0.000000 0.000000 191 191 191 1.000000
0.627818 -0.067360 -0.460630 0.000000 -0.000000 1.000000 202 202 202 1.000000
0.289060 0.382112 0.218087 0.000000 1.000000 0.000000 195 195 195 1.000000
0.738113 -0.147297 0.329447 0.000000 0.000000 -1.000000 195 195 195 1.000000
0.706329 0.329935 -0.112105 -1.000000 0.000000 0.000000 222 222 222 1.000000
-0.376502 -0.093630 -0.407958 0.000000 -0.000000 1.000000 179 181 182 1.000000
-0.663137 -0.128448 0.106300 -1.000000 0.000000 0.000000 167 169 170 1.000000
-0.231548 -0.323690 -0.116360 0.000000 1.000000 0.000000 255 255 255 0.300000
0.632363 -0.331591 -0.101735 0.000000 -1.000000 -0.000000 205 205 205 1.000000
-0.715809 -0.009567 0.066985 -1.000000 0.000000 0.000000 185 187 187 1.000000
0.035618 0.440051 -0.392523 0.000000 1.000000 0.000000 202 202 202 1.000000
0.511836 0.241853 0.384752 0.000000 -0.000000 1.000000 3 3 3 0.900000
0.323465 0.382112 -0.271534 0.000000 -1.000000 -0.000000 199 199 200 1.000000
-0.293288 -0.079633 -0.407958 0.000000 -0.000000 1.000000 186 188 187 1.000000
0.494815 -0.525026 0.384752 0.000000 -0.000000 1.000000 202 202 202 1.000000
-0.009969 0.440051 0.182636 0.000000 1.000000 0.000000 193 193 193 1.000000
0.394396 -0.378995 -0.229978 0.000000 1.000000 0.000000 191 191 191 1.000000
0.287914 -0.288981 -0.407958 0.000000 -0.000000 1.000000 207 207 207 1.000000
-0.657370 -0.331591 -0.405260 0.000000 1.000000 0.000000 211 211 211 1.000000
-0.214895 -0.535470 0.329447 0.000000 -0.000000 1.000000 193 192 193 1.000000
0.347375 0.440051 0.296182 0.000000 1.000000 0.000000 211 211 211 1.000000
-0.663137 0.041600 -0.359343 -1.000000 0.000000 0.000000 185 184 186 1.000000
-0.089594 0.301969 0.384752 0.000000 -0.000000 1.000000 3 3 3 0.900000
0.623309 0.440051 -0.321062 0.000000 -1.000000 -0.000000 184 186 186 1.000000
0.406067 0.025760 -0.460630 0.000000 -0.000000 1.000000 204 204 204 1.000000
0.576535 -0.317436 -0.407958 0.000000 0.000000 -1.000000 195 198 198 1.000000
-0.663137 0.344009 0.060896 -1.000000 0.000000 0.000000 204 204 204 1.000000
-0.141158 -0.114241 -0.460630 0.000000 0.000000 -1.000000 181 182 182 1.000000
0.651566 0.440051 -0.000495 0.000000 1.000000 0.000000 210 210 210 1.000000
-0.123366 0.382112 -0.289126 0.000000 1.000000 0.000000 211 211 211 1.000000
-0.663137 0.111669 -0.354295 1.000000 0.000000 0.000000 191 190 192 1.000000
0.185132 -0.378995 -0.034864 0.000000 1.000000 0.000000 210 210 210 1.000000
-0.663137 -0.016317 -0.062879 1.000000 0.000000 0.000000 192 194 194 1.000000
-0.715809 0.290508 0.133254 1.000000 0.000000 0.000000 212 212 212 1.000000
0.560464 -0.117366 0.384752 0.000000 0.000000 -1.000000 15 15 15 0.450000
0.213672 0.440051 0.042612 0.000000 -1.000000 -0.000000 194 194 194 1.000000
0.182917 0.382112 0.076507 0.000000 -1.000000 -0.000000 206 206 206 1.000000
-0.663137 0.336527 0.134575 -1.000000 0.000000 0.000000 202 202 202 1.000000
-0.715809 0.258168 -0.401663 1.000000 0.000000 0.000000 207 207 207 1.000000
-0.422148 0.371610 -0.460630 0.000000 0.000000 -1.000000 210 210 210 1.000000
0.706968 -0.323755 -0.460630 0.000000 -0.000000 1.000000 198 198 198 1.000000
0.121630 0.382112 -0.353319 0.000000 -1.000000 -0.000000 198 198 198 1.000000
-0.240398 0.382112 -0.349439 0.000000 1.000000 0.000000 211 211 211 1.000000
-0.630297 -0.331591 -0.311533 0.000000 1.000000 0.000000 201 201 201 1.000000
0.414625 0.355689 -0.460630 0.000000 -0.000000 1.000000 200 201 201 1.000000
0.546936 -0.331591 0.318033 0.000000 -1.000000 -0.000000 197 197 197 1.000000
0.016158 -0.138231 0.384752 0.000000 0.000000 -1.000000 15 15 15 0.450000
-0.514322 0.382112 0.290524 0.000000 1.000000 0.000000 178 180 181 1.000000
0.505427 -0.378995 -0.137150 0.000000 -1.000000 -0.000000 189 189 189 1.000000
0.055090 -0.331591 -0.346205 0.000000 -1.000000 -0.000000 192 192 193 1.000000
-0.430236 0.147879 -0.460630 0.000000 0.000000 -1.000000 213 213 213 1.000000
-0.251715 -0.378995 0.079800 0.000000 -1.000000 -0.000000 193 193 193 1.000000
0.556999 -0.331591 -0.284292 0.000000 1.000000 0.000000 183 186 186 1.000000
-0.584760 0.440051 -0.166282 0.000000 1.000000 0.000000 198 198 198 1.000000
0.067719 0.309713 0.384752 0.000000 -0.000000 1.000000 3 3 3 0.900000
0.706329 0.052568 -0.076797 1.000000 0.000000 0.000000 196 196 196 1.000000
-0.715809 0.048416 -0.238582 -1.000000 0.000000 0.000000 201 201 201 1.000000
0.323481 0.333306 0.384752 0.000000 -0.000000 1.000000 3 3 3 0.900000
0.769117 -0.099445 0.384752 0.000000 0.000000 -1.000000 202 202 202 1.000000
0.633178 0.440051 0.155077 0.000000 1.000000 0.000000 199 199 199 1.000000
0.744033 0.284880 0.329447 0.000000 0.000000 -1.000000 195 195 195 1.000000
-0.446090 -0.008901 -0.407958 0.000000 0.000000 -1.000000 169 171 172 1.000000
-0.663137 0.200328 -0.341436 -1.000000 0.000000 0.000000 177 178 179 1.000000
-0.409046 0.382112 0.218052 0.000000 -1.000000 -0.000000 165 167 168 1.000000
-0.032616 -0.323690 -0.228626 0.000000 -1.000000 -0.000000 255 255 255 0.300000
0.108899 0.382112 0.059308 0.000000 -1.000000 -0.000000 206 206 206 1.000000
0.759001 -0.202780 -0.299094 1.000000 0.000000 0.000000 192 192 192 1.000000
-0.663137 0.089966 0.125023 -1.000000 0.000000 0.000000 190 191 191 1.000000
0.706329 -0.318402 -0.140947 1.000000 0.000000 0.000000 185 187 187 1.000000
0.276550 -0.398385 0.384752 0.000000 0.000000 -1.000000 197 197 197 1.000000
0.389967 0.440051 0.208955 0.000000 1.000000 0.000000 198 198 198 1.000000
-0.567213 -0.045417 -0.407958 0.000000 0.000000 -1.000000 174 175 177 1.000000
-0.589415 -0.248910 -0.407958 0.000000 0.000000 -1.000000 185 187 187 1.000000
-0.547785 -0.378995 0.215283 0.000000 -1.000000 -0.000000 185 184 186 1.000000
0.603200 0.382112 -0.170979 0.000000 1.000000 0.000000 192 192 192 1.000000
0.706329 0.027095 -0.398421 -1.000000 0.000000 0.000000 214 214 214 1.000000
0.571189 -0.331591 0.065511 0.000000 -1.000000 -0.000000 203 203 203 1.000000
0.313223 0.440051 -0.459209 0.000000 1.000000 0.000000 202 204 204 1.000000
-0.444476 -0.384403 0.329447 0.000000 0.000000 -1.000000 190 192 193 1.000000
-0.360346 0.003063 -0.460630 0.000000 -0.000000 1.000000 203 203 203 1.000000
0.708618 -0.087295 -0.460630 0.000000 0.000000 -1.000000 199 199 199 1.000000
-0.319121 0.382112 0.098405 0.000000 -1.000000 -0.000000 193 193 193 1.000000
-0.186753 0.382112 0.252374 0.000000 -1.000000 -0.000000 164 166 167 1.000000
-0.065358 -0.499128 0.380539 0.000000 0.000000 -1.000000 251 251 251 0.010000
-0.096596 -0.046378 0.384752 0.000000 0.000000 -1.000000 15 15 15 0.450000
-0.303780 -0.378995 0.029819 0.000000 -1.000000 -0.000000 201 201 201 1.000000
0.013598 -0.323690 0.041468 0.000000 -1.000000 -0.000000 255 255 255 0.300000
0.706329 -0.081889 0.320539 -1.000000 0.000000 0.000000 173 175 175 1.000000
0.106227 0.382112 0.186223 0.000000 -1.000000 -0.000000 186 186 186 1.000000
-0.205841 0.440051 -0.328776 0.000000 -1.000000 -0.000000 192 192 192 1.000000
-0.232704 0.287890 -0.407958 0.000000 0.000000 -1.000000 193 193 193 1.000000
0.170276 0.382112 -0.225699 0.000000 1.000000 0.000000 201 201 201 1.000000
-0.715809 0.324556 -0.353409 -1.000000 0.000000 0.000000 212 212 212 1.000000
0.458962 -0.436048 0.329447 0.000000 0.000000 -1.000000 192 192 192 1.000000
0.706329 0.202677 0.259742 -1.000000 0.000000 0.000000 207 207 207 1.000000
0.801416 0.145950 0.329447 0.000000 -0.000000 1.000000 190 190 190 1.000000
0.518650 -0.385952 0.384752 0.000000 0.000000 -1.000000 202 202 202 1.000000
-0.421707 -0.494070 0.329447 0.000000 0.000000 -1.000000 182 184 186 1.000000
-0.708703 -0.378995 -0.328050 0.000000 -1.000000 -0.000000 209 209 209 1.000000
0.658789 0.382112 -0.044124 0.000000 -1.000000 -0.000000 184 184 184 1.000000
0.759001 -0.244174 -0.372694 -1.000000 0.000000 0.000000 202 202 202 1.000000
0.097758 -0.297354 0.046547 0.000000 -1.000000 -0.000000 255 255 255 0.300000
0.369519 -0.563347 0.330529 0.000000 -1.000000 -0.000000 209 209 209 1.000000
0.402766 0.382112 -0.071904 0.000000 -1.000000 -0.000000 198 198 198 1.000000
-0.279106 0.162397 -0.460630 0.000000 0.000000 -1.000000 212 212 212 1.000000
0.632079 -0.378995 -0.223086 0.000000 -1.000000 -0.000000 194 196 196 1.000000
0.661657 -0.551793 0.384752 0.000000 -0.000000 1.000000 185 184 185 1.000000
0.163619 0.273146 0.384752 0.000000 -0.000000 1.000000 3 3 3 0.900000
0.759001 0.141760 0.035665 1.000000 0.000000 0.000000 181 183 183 1.000000
-0.663137 0.231263 0.049844 -1.000000 0.000000 0.000000 206 206 206 1.000000
-0.028327 0.058685 -0.407958 0.000000 -0.000000 1.000000 188 189 189 1.000000
0.759001 -0.052017 -0.001919 1.000000 0.000000 0.000000 187 189 190 1.000000
0.421205 0.382112 0.123530 0.000000 -1.000000 -0.000000 198 198 198 1.000000
0.706329 -0.242424 -0.059762 -1.000000 0.000000 0.000000 184 186 186 1.000000
0.171491 -0.386563 0.329447 0.000000 0.000000 -1.000000 195 195 195 1.000000
0.312804 0.382112 0.298650 0.000000 -1.000000 -0.000000 199 201 201 1.000000
0.246475 -0.378449 0.329447 0.000000 -0.000000 1.000000 211 211 211 1.000000
0.520754 0.439933 0.384752 0.000000 0.000000 -1.000000 35 35 35 1.000000
0.097222 -0.542968 0.384752 0.000000 0.000000 -1.000000 206 206 206 1.000000
0.340718 0.382112 0.023906 0.000000 1.000000 0.000000 202 202 202 1.000000
-0.508612 0.179572 -0.460630 0.000000 0.000000 -1.000000 215 215 215 1.000000
-0.431879 -0.331591 0.225437 0.000000 1.000000 0.000000 186 187 188 1.000000
0.138370 -0.378995 0.070010 0.000000 -1.000000 -0.000000 206 206 206 1.000000
-0.760673 -0.092253 0.329447 0.000000 0.000000 -1.000000 156 158 159 1.000000
-0.492700 -0.378995 -0.074976 0.000000 1.000000 0.000000 199 199 199 1.000000
-0.195774 -0.331591 0.300688 0.000000 -1.000000 -0.000000 197 197 197 1.000000
-0.147971 0.440051 -0.199568 0.000000 -1.000000 -0.000000 186 189 189 1.000000
-0.715809 -0.158877 0.228036 1.000000 0.000000 0.000000 180 182 182 1.000000
-0.715809 0.356708 0.266548 1.000000 0.000000 0.000000 204 204 204 1.000000
-0.406468 0.297532 -0.460630 0.000000 -0.000000 1.000000 210 210 210 1.000000
0.802435 -0.492664 0.382699 0.483323 -0.266621 0.833854 206 206 206 1.000000
0.744360 -0.390293 0.329447 0.000000 -0.000000 1.000000 184 184 185 1.000000
-0.514704 -0.361441 0.384752 0.000000 0.000000 -1.000000 185 187 187 1.000000
0.647074 -0.054314 0.335310 -1.000000 0.000000 0.000000 191 193 194 1.000000
0.706329 -0.116867 -0.360489 1.000000 0.000000 0.000000 178 179 179 1.000000
-0.513944 0.332264 0.384752 0.000000 -0.000000 1.000000 3 3 3 0.900000
0.706329 -0.087479 -0.046822 1.000000 0.000000 0.000000 186 186 186 1.000000
0.480883 0.440051 -0.296305 0.000000 -1.000000 -0.000000 187 189 189 1.000000
0.237255 -0.297354 -0.107958 0.000000 -1.000000 -0.000000 255 255 255 0.300000
0.066970 -0.439659 0.329447 0.000000 -0.000000 1.000000 202 203 203 1.000000
0.290937 0.263518 0.384752 0.000000 -0.000000 1.000000 3 3 3 0.900000
0.126471 0.298494 -0.460630 0.000000 0.000000 -1.000000 187 187 187 1.000000
0.346239 0.190351 0.384752 0.000000 -0.000000 1.000000 3 3 3 0.900000
-0.452585 -0.220225 -0.407958 0.000000 -0.000000 1.000000 176 176 176 1.000000
-0.311916 0.304119 -0.407958 0.000000 0.000000 -1.000000 203 203 203 1.000000
-0.594253 0.162587 -0.460630 0.000000 -0.000000 1.000000 199 199 199 1.000000
-0.293356 -0.331591 0.133705 0.000000 1.000000 0.000000 186 188 188 1.000000
-0.687851 0.440051 -0.035473 0.000000 1.000000 0.000000 187 187 187 1.000000
0.697000 -0.378995 0.181574 0.000000 1.000000 0.000000 196 196 197 1.000000
0.266501 -0.331591 0.231903 0.000000 1.000000 0.000000 188 189 189 1.000000
-0.449970 -0.101043 -0.460630 0.000000 -0.000000 1.000000 180 183 183 1.000000
-0.274858 0.440051 -0.398151 0.000000 -1.000000 -0.000000 203 203 203 1.000000
0.319103 -0.378995 -0.159157 0.000000 1.000000 0.000000 195 195 195 1.000000
-0.320552 -0.239268 -0.407958 0.000000 0.000000 -1.000000 199 201 201 1.000000
-0.715809 0.079551 0.167795 -1.000000 0.000000 0.000000 206 206 206 1.000000
0.678459 -0.378995 0.288160 0.000000 -1.000000 -0.000000 205 205 205 1.000000
0.316516 -0.331591 -0.231162 0.000000 1.000000 0.000000 188 188 188 1.000000
0.586929 0.440051 0.017683 0.000000 -1.000000 -0.000000 211 211 211 1.000000
-0.633425 -0.105029 0.384752 0.000000 -0.000000 1.000000 186 189 187 1.000000
0.358084 -0.378995 -0.394807 0.000000 1.000000 0.000000 203 202 203 1.000000
0.294429 0.207597 -0.460630 0.000000 0.000000 -1.000000 193 192 194 1.000000
0.759001 0.011929 -0.015289 1.000000 0.000000 0.000000 187 189 189 1.000000
-0.583055 0.382112 0.104921 0.000000 1.000000 0.000000 182 182 182 1.000000
0.706329 -0.278396 0.002228 -1.000000 0.000000 0.000000 170 172 173 1.000000
0.467924 -0.378995 -0.232182 0.000000 -1.000000 -0.000000 190 189 189 1.000000
-0.102224 -0.297354 -0.001214 0.000000 -1.000000 -0.000000 255 255 255 0.300000
0.706329 0.317886 0.065582 1.000000 0.000000 0.000000 208 208 208 1.000000
0.015486 0.440051 -0.231354 0.000000 -1.000000 -0.000000 186 186 186 1.000000
0.204533 0.382112 0.300780 0.000000 1.000000 0.000000 191 191 192 1.000000
0.121198 -0.297354 -0.048773 0.000000 1.000000 0.000000 255 255 255 0.300000
-0.538726 0.382112 -0.088752 0.000000 1.000000 0.000000 188 188 188 1.000000
0.503636 -0.127021 -0.407958 0.000000 -0.000000 1.000000 197 197 197 1.000000
-0.078614 0.432150 0.384685 0.000000 -1.000000 -0.000000 35 35 35 1.000000
0.158219 -0.323690 0.162321 0.000000 1.000000 0.000000 255 255 255 0.300000
-0.271631 -0.376835 0.382874 0.952514 -0.059957 -0.298532 195 196 196 1.000000
0.706329 0.308408 0.137695 -1.000000 0.000000 0.000000 213 213 213 1.000000
-0.168794 0.440051 0.205721 0.000000 1.000000 0.000000 197 196 197 1.000000
0.200966 -0.515258 0.329447 0.000000 0.000000 -1.000000 188 189 189 1.000000
-0.645098 -0.122399 -0.460630 0.000000 0.000000 -1.000000 182 184 185 1.000000
-0.093919 0.382112 -0.108328 0.000000 1.000000 0.000000 215 215 215 1.000000
0.634841 -0.006622 0.384752 0.000000 -0.000000 1.000000 3 3 3 0.900000
0.554279 -0.378995 0.211216 0.000000 1.000000 0.000000 199 199 199 1.000000
0.706329 -0.043131 0.102788 1.000000 0.000000 0.000000 194 196 196 1.000000
-0.663137 0.084051 -0.139296 1.000000 0.000000 0.000000 189 191 192 1.000000
-0.663137 0.174647 0.163700 1.000000 0.000000 0.000000 189 189 189 1.000000
0.613650 0.440051 -0.248511 0.000000 1.000000 0.000000 191 191 191 1.000000
-0.565363 0.442685 0.330388 0.000000 -1.000000 -0.000000 35 35 35 1.000000
0.572242 0.248927 -0.407958 0.000000 -0.000000 1.000000 199 199 199 1.000000
-0.663137 -0.111858 0.242490 -1.000000 0.000000 0.000000 163 165 167 1.000000
-0.570429 -0.378995 0.301453 0.000000 -1.000000 -0.000000 164 166 167 1.000000
-0.527246 0.382112 -0.156988 0.000000 1.000000 0.000000 211 211 211 1.000000
-0.425245 0.425067 0.329447 0.000000 -0.000000 1.000000 35 35 35 1.000000
0.326399 -0.378995 -0.029975 0.000000 -1.000000 -0.000000 213 213 213 1.000000
0.476344 0.124316 0.384752 0.000000 0.000000 -1.000000 15 15 15 0.450000
0.252161 -0.018930 -0.460630 0.000000 0.000000 -1.000000 204 204 204 1.000000
0.651006 0.252231 0.384752 0.000000 -0.000000 1.000000 183 183 183 1.000000
0.148500 0.382112 -0.023479 0.000000 -1.000000 -0.000000 209 209 209 1.000000
-0.720082 -0.456335 0.329447 0.000000 0.000000 -1.000000 169 171 172 1.000000
0.178975 -0.313616 -0.304494 -0.510283 -0.000000 0.860006 255 255 255 0.300000
0.706329 0.006784 -0.317966 -1.000000 0.000000 0.000000 217 217 217 1.000000
-0.513554 -0.378995 0.046251 0.000000 -1.000000 -0.000000 192 195 194 1.000000
0.425577 -0.097677 -0.407958 0.000000 -0.000000 1.000000 205 205 205 1.000000
0.647074 0.350672 0.356025 1.000000 0.000000 0.000000 205 205 205 1.000000
-0.641406 -0.024499 -0.460630 0.000000 -0.000000 1.000000 195 194 196 1.000000
0.508440 0.382112 0.190073 0.000000 -1.000000 -0.000000 200 200 200 1.000000
-0.196281 0.341384 -0.407958 0.000000 -0.000000 1.000000 198 198 198 1.000000
0.615337 0.022272 -0.460630 0.000000 0.000000 -1.000000 197 197 197 1.000000
0.015706 -0.451357 0.388439 0.000000 0.000000 -1.000000 251 251 251 0.010000
0.045533 -0.378995 0.102911 0.000000 1.000000 0.000000 200 200 200 1.000000
0.025135 0.323819 -0.407958 0.000000 0.000000 -1.000000 178 180 180 1.000000
-0.302705 0.440051 0.261439 0.000000 -1.000000 -0.000000 199 199 199 1.000000
-0.715809 -0.113094 -0.013382 -1.000000 0.000000 0.000000 198 200 200 1.000000
-0.042816 -0.378995 -0.189771 0.000000 -1.000000 -0.000000 209 209 209 1.000000
0.138173 -0.378995 -0.135396 0.000000 -1.000000 -0.000000 205 205 205 1.000000
0.723102 0.100115 0.329447 0.000000 0.000000 -1.000000 212 212 212 1.000000
-0.715809 0.168858 0.213515 -1.000000 0.000000 0.000000 210 210 210 1.000000
-0.715809 -0.225748 0.114152 -1.000000 0.000000 0.000000 190 192 193 1.000000
0.462924 0.440051 -0.147422 0.000000 1.000000 0.000000 194 193 194 1.000000
0.509260 0.286212 -0.407958 0.000000 0.000000 -1.000000 182 182 183 1.000000
0.759001 0.052114 -0.188757 -1.000000 0.000000 0.000000 185 183 185 1.000000
-0.423706 0.382112 -0.070372 0.000000 -1.000000 -0.000000 201 201 201 1.000000
-0.414325 -0.331591 -0.316188 0.000000 1.000000 0.000000 202 202 202 1.000000
-0.214864 0.440051 -0.135025 0.000000 -1.000000 -0.000000 202 202 203 1.000000
0.690630 0.440051 0.184378 0.000000 -1.000000 -0.000000 194 194 194 1.000000
-0.317042 -0.331591 -0.235828 0.000000 -1.000000 -0.000000 203 203 203 1.000000
-0.467430 0.440051 0.001620 0.000000 1.000000 0.000000 174 176 176 1.000000
0.305319 0.161816 -0.407958 0.000000 0.000000 -1.000000 187 188 188 1.000000
0.759001 0.092632 0.261853 -1.000000 0.000000 0.000000 197 198 198 1.000000
0.117385 -0.228477 -0.460630 0.000000 0.000000 -1.000000 198 201 201 1.000000
-0.498732 -0.331591 -0.328627 0.000000 1.000000 0.000000 203 203 203 1.000000
0.688389 0.132640 -0.460630 0.000000 -0.000000 1.000000 191 193 193 1.000000
-0.149224 -0.070682 -0.407958 0.000000 0.000000 -1.000000 193 192 194 1.000000
0.185805 0.193113 -0.407958 0.000000 0.000000 -1.000000 192 192 192 1.000000
0.759001 -0.313622 -0.101354 -1.000000 0.000000 0.000000 196 196 196 1.000000
0.356246 0.230938 -0.460630 0.000000 -0.000000 1.000000 194 194 194 1.000000
-0.142598 0.382112 -0.157606 0.000000 1.000000 0.000000 217 217 217 1.000000
0.637636 0.440051 -0.123679 0.000000 -1.000000 -0.000000 201 201 201 1.000000
0.377136 0.091420 -0.460630 0.000000 0.000000 -1.000000 203 203 203 1.000000
-0.448382 0.382112 -0.273550 0.000000 1.000000 0.000000 224 224 224 1.000000
0.561254 -0.181088 -0.407958 0.000000 0.000000 -1.000000 195 195 195 1.000000
0.640845 -0.331591 -0.358124 0.000000 -1.000000 -0.000000 192 192 192 1.000000
-0.663137 -0.283971 0.029704 1.000000 0.000000 0.000000 190 190 191 1.000000
0.002153 -0.375679 -0.460630 0.000000 -0.000000 1.000000 167 169 171 1.000000
-0.590881 0.440051 0.063332 0.000000 -1.000000 -0.000000 174 175 176 1.000000
-0.066329 -0.200578 -0.407958 0.000000 0.000000 -1.000000 188 188 188 1.000000
0.759001 0.371529 -0.459195 -1.000000 0.000000 0.000000 189 189 189 1.000000
-0.715809 -0.327733 0.281239 -1.000000 0.000000 0.000000 181 183 184 1.000000
0.759001 -0.041141 -0.072756 -1.000000 0.000000 0.000000 178 177 179 1.000000
-0.206806 -0.097236 -0.460630 0.000000 0.000000 -1.000000 186 186 186 1.000000
-0.177670 0.382112 -0.227806 0.000000 1.000000 0.000000 208 208 208 1.000000
0.059296 0.171211 -0.407958 0.000000 0.000000 -1.000000 195 195 195 1.000000
0.367652 -0.378995 0.180436 0.000000 1.000000 0.000000 200 200 200 1.000000
-0.315994 0.382112 -0.400059 0.000000 1.000000 0.000000 209 209 209 1.000000
0.647394 -0.378995 0.064641 0.000000 -1.000000 -0.000000 200 200 200 1.000000
0.202546 -0.282484 -0.407958 0.000000 0.000000 -1.000000 204 204 204 1.000000
0.759001 0.190605 -0.087738 -1.000000 0.000000 0.000000 186 188 188 1.000000
0.326028 -0.227321 -0.407958 0.000000 -0.000000 1.000000 192 192 192 1.000000
-0.075885 0.179894 -0.407958 0.000000 -0.000000 1.000000 185 188 188 1.000000
0.105240 0.118120 -0.407958 0.000000 0.000000 -1.000000 199 199 199 1.000000
-0.235701 0.215206 -0.460630 0.000000 -0.000000 1.000000 217 217 217 1.000000
0.332034 0.102562 -0.407958 0.000000 -0.000000 1.000000 189 188 190 1.000000
-0.145986 -0.323690 0.145987 0.000000 1.000000 0.000000 255 255 255 0.300000
0.033721 -0.331591 0.328237 0.000000 -1.000000 -0.000000 210 210 210 1.000000
0.626582 0.440051 0.307819 0.000000 -1.000000 -0.000000 200 200 200 1.000000
-0.717859 0.182845 0.329447 0.000000 -0.000000 1.000000 202 202 202 1.000000
0.447045 0.272729 -0.460630 0.000000 0.000000 -1.000000 191 193 193 1.000000
-0.634390 0.334389 0.329447 0.000000 -0.000000 1.000000 214 214 214 1.000000
-0.550765 0.063540 -0.460630 0.000000 -0.000000 1.000000 198 198 198 1.000000
0.454508 -0.331591 -0.387639 0.000000 -1.000000 -0.000000 185 187 187 1.000000
-0.209018 -0.331591 0.208532 0.000000 1.000000 0.000000 182 184 184 1.000000
-0.339443 -0.331591 -0.068948 0.000000 1.000000 0.000000 178 177 179 1.000000
0.759001 -0.218695 0.141324 1.000000 0.000000 0.000000 182 184 184 1.000000
-0.715809 -0.006624 0.268820 1.000000 0.000000 0.000000 192 194 194 1.000000
0.321474 0.440051 0.233135 0.000000 1.000000 0.000000 199 199 199 1.000000
-0.297392 -0.331591 -0.149450 0.000000 1.000000 0.000000 183 185 185 1.000000
0.465993 -0.378995 0.043406 0.000000 -1.000000 -0.000000 209 209 209 1.000000
-0.715809 -0.377972 -0.398313 1.000000 0.000000 0.000000 188 190 191 1.000000
-0.526559 -0.378995 -0.207887 0.000000 -1.000000 -0.000000 217 217 217 1.000000
0.077176 -0.378995 -0.234000 0.000000 1.000000 0.000000 203 203 203 1.000000
0.237644 0.440051 0.226444 0.000000 -1.000000 -0.000000 198 198 198 1.000000
-0.715809 -0.259314 -0.356507 1.000000 0.000000 0.000000 186 188 190 1.000000
-0.244193 -0.467259 0.384752 0.000000 0.000000 -1.000000 199 199 199 1.000000
0.662268 0.400784 -0.460630 0.000000 0.000000 -1.000000 187 189 189 1.000000
0.706329 0.172560 0.120072 1.000000 0.000000 0.000000 215 215 215 1.000000
-0.651433 0.405892 0.329447 0.000000 -0.000000 1.000000 215 215 215 1.000000
-0.418065 0.382112 -0.007229 0.000000 1.000000 0.000000 196 196 196 1.000000
-0.430985 0.440051 -0.311429 0.000000 -1.000000 -0.000000 208 208 208 1.000000
-0.280476 0.440051 -0.059773 0.000000 -1.000000 -0.000000 182 184 185 1.000000
-0.166396 0.233820 -0.460630 0.000000 -0.000000 1.000000 209 209 209 1.000000
0.741932 -0.258927 0.329447 0.000000 -0.000000 1.000000 193 192 191 1.000000
0.425270 0.382112 0.264283 0.000000 1.000000 0.000000 207 207 207 1.000000
0.586711 -0.256303 0.384752 0.000000 -0.000000 1.000000 3 3 3 0.900000
0.759001 0.141312 -0.040026 -1.000000 0.000000 0.000000 182 184 184 1.000000
0.552070 0.140962 -0.460630 0.000000 0.000000 -1.000000 188 188 188 1.000000
-0.306407 -0.010146 0.384752 0.000000 -0.000000 1.000000 3 3 3 0.900000
0.085533 -0.378995 0.231374 0.000000 -1.000000 -0.000000 195 197 197 1.000000
-0.715809 -0.232901 -0.293893 -1.000000 0.000000 0.000000 187 189 189 1.000000
-0.663137 0.084228 -0.029500 1.000000 0.000000 0.000000 176 178 179 1.000000
-0.574455 0.382112 -0.276218 0.000000 -1.000000 -0.000000 209 209 209 1.000000
0.325641 -0.378995 0.059627 0.000000 1.000000 0.000000 204 204 204 1.000000
0.386553 -0.267523 -0.460630 0.000000 -0.000000 1.000000 192 192 192 1.000000
-0.200394 0.442685 0.329964 0.000000 1.000000 0.000000 35 35 35 1.000000
0.026314 0.382112 -0.039349 0.000000 1.000000 0.000000 209 209 209 1.000000
0.356199 -0.378995 0.269767 0.000000 -1.000000 -0.000000 202 202 202 1.000000
-0.500231 0.440051 0.168572 0.000000 1.000000 0.000000 196 198 199 1.000000
0.239363 -0.232277 0.384752 0.000000 -0.000000 1.000000 3 3 3 0.900000
-0.052030 -0.323690 -0.127611 0.000000 1.000000 0.000000 255 255 255 0.300000
0.203616 0.382112 -0.330552 0.000000 1.000000 0.000000 192 192 192 1.000000
-0.715809 0.346461 -0.231050 -1.000000 0.000000 0.000000 209 209 209 1.000000
0.759001 -0.069534 0.080262 -1.000000 0.000000 0.000000 182 184 185 1.000000
0.279737 -0.373394 -0.460630 0.000000 -0.000000 1.000000 203 203 203 1.000000
0.100387 0.183893 0.384752 0.000000 0.000000 -1.000000 15 15 15 0.450000
0.537074 0.377984 -0.460630 0.000000 0.000000 -1.000000 193 192 194 1.000000
0.602693 -0.136852 -0.460630 0.000000 -0.000000 1.000000 199 199 200 1.000000
-0.241735 0.172044 -0.407958 0.000000 0.000000 -1.000000 186 188 189 1.000000
-0.071897 -0.066938 -0.407958 0.000000 -0.000000 1.000000 189 188 190 1.000000
0.351990 -0.398267 0.384752 0.000000 -0.000000 1.000000 199 199 199 1.000000
-0.598195 -0.331591 0.116744 0.000000 1.000000 0.000000 166 168 169 1.000000
0.400706 0.242555 -0.407958 0.000000 0.000000 -1.000000 195 195 195 1.000000
-0.064314 -0.378995 -0.044593 0.000000 1.000000 0.000000 220 220 220 1.000000
-0.142090 -0.302016 -0.407958 0.000000 -0.000000 1.000000 195 195 195 1.000000
-0.663137 -0.326996 0.319962 1.000000 0.000000 0.000000 188 187 189 1.000000
-0.134533 0.029714 -0.460630 0.000000 -0.000000 1.000000 186 186 186 1.000000
0.103853 -0.328568 -0.460630 0.000000 0.000000 -1.000000 197 199 199 1.000000
-0.758206 -0.372131 0.383494 0.499331 0.048323 -0.865063 173 176 177 1.000000
0.569008 0.038826 -0.407958 0.000000 0.000000 -1.000000 200 200 200 1.000000
0.137785 0.440051 -0.217916 0.000000 1.000000 0.000000 188 188 187 1.000000
-0.315205 0.440051 0.034708 0.000000 1.000000 0.000000 181 181 182 1.000000
0.011272 0.440051 0.007311 0.000000 -1.000000 -0.000000 182 182 183 1.000000
-0.296107 -0.399169 0.329447 0.000000 -0.000000 1.000000 181 183 184 1.000000
-0.130529 -0.323690 -0.129643 0.000000 -1.000000 -0.000000 255 255 255 0.300000
-0.715809 -0.036950 -0.007446 -1.000000 0.000000 0.000000 197 199 199 1.000000
0.281224 -0.489231 0.329447 0.000000 -0.000000 1.000000 200 200 200 1.000000
0.449165 0.382112 -0.405319 0.000000 1.000000 0.000000 195 195 195 1.000000
0.706329 0.132378 -0.145819 -1.000000 0.000000 0.000000 210 210 210 1.000000
