ply
format ascii 1.0
element vertex 1267
property float x
property float y
property float z
property uchar red
property uchar green
property uchar blue
end_header
-0.575424 0.247402 -0.270917 255 0 0
0.452953 0.046961 0.041671 0 127 127
0.473826 0.039853 -0.444709 76 153 0
0.846005 -0.289314 0.322829 76 153 0
0.068470 0.222734 0.420973 255 0 0
0.490995 -0.263227 -0.146917 204 51 127
0.461304 0.071629 -0.315058 0 127 127
0.033201 0.127407 0.392754 153 0 76
-0.608502 0.222734 0.049753 255 0 0
0.161347 0.110903 -0.444709 76 153 0
0.668506 0.222734 0.081000 255 0 0
0.008534 -0.032972 -0.025072 153 0 76
0.077052 -0.077576 0.397229 153 76 0
-0.247241 0.222734 -0.275355 255 0 0
-0.109514 -0.263227 -0.291007 204 51 127
-0.190220 -0.238559 -0.218813 204 51 127
0.030141 -0.173386 -0.420042 153 0 76
0.875066 -0.116282 0.366316 153 0 76
-0.204620 0.222734 -0.235056 255 0 0
0.008534 -0.028042 -0.183654 153 0 76
-0.540502 -0.238559 -0.010179 204 51 127
-0.833330 0.193553 -0.199598 76 0 153
0.304658 0.247402 0.392538 255 0 0
-0.446230 -0.086483 -0.420042 76 153 0
0.601753 -0.238559 -0.132595 204 51 127
0.751468 0.222734 -0.346479 255 0 0
0.012022 -0.263227 -0.105965 204 51 127
0.629206 -0.097475 -0.420042 76 153 0
0.303378 -0.167946 0.397229 153 76 0
-0.088948 0.071629 -0.081595 0 127 127
-0.523109 0.247402 -0.066641 255 0 0
-0.681593 -0.075474 -0.420042 76 153 0
0.085381 0.046961 -0.207944 0 127 127
-0.118214 -0.238559 -0.028053 204 51 127
0.481560 0.249765 0.067452 255 0 0
-0.119172 -0.263227 0.177567 204 51 127
0.624711 -0.238559 0.059157 204 51 127
-0.095719 0.249765 -0.066016 255 0 0
0.382889 0.071629 0.415290 0 127 127
0.209660 0.249765 -0.329122 255 0 0
-0.088494 -0.083196 0.426770 76 0 153
0.061872 -0.032828 -0.420042 76 153 0
-0.740271 0.222734 0.025232 255 0 0
0.427760 0.222734 0.318060 255 0 0
-0.113832 0.071629 0.025047 0 127 127
0.680669 0.222734 -0.383320 255 0 0
-0.394157 0.222734 0.379757 255 0 0
-0.819705 0.222734 0.155734 255 0 0
0.297418 0.222734 0.161316 255 0 0
0.008534 0.083481 -0.326227 153 0 76
0.504033 0.222734 0.026344 255 0 0
0.390521 0.046961 -0.376146 0 127 127
-0.280974 0.040026 -0.420042 76 153 0
-0.320610 -0.238559 -0.206145 204 51 127
0.387774 0.046961 0.040678 0 127 127
-0.722634 0.071629 -0.178441 0 127 127
-0.766267 0.247402 -0.014648 255 0 0
0.176862 -0.108956 0.426770 153 76 0
-0.771794 0.071629 -0.419805 0 127 127
-0.857997 -0.229960 -0.234435 76 0 153
0.051458 -0.238559 0.287561 204 51 127
-0.193055 0.071629 0.169157 0 127 127
0.307736 -0.008557 0.426770 153 76 0
-0.623962 -0.080097 -0.444709 76 153 0
0.008534 0.096889 0.282405 153 0 76
0.759815 -0.230362 0.397229 153 76 0
-0.552522 0.222734 0.028084 255 0 0
-0.602476 0.247402 -0.295848 255 0 0
-0.442240 0.071629 0.013836 0 127 127
0.176668 0.247402 0.130253 255 0 0
-0.722866 0.037975 0.426770 76 0 153
0.899733 0.228963 -0.248501 153 0 76
-0.406401 0.247402 -0.285095 255 0 0
-0.453306 -0.263227 -0.326823 204 51 127
-0.264537 -0.238559 -0.282428 204 51 127
0.008534 -0.213260 0.107250 153 0 76
-0.833330 -0.027658 -0.096763 76 0 153
0.875066 0.030876 -0.264724 153 0 76
0.589287 -0.238559 0.053900 204 51 127
0.470005 -0.035665 0.397229 153 76 0
0.297312 0.071629 0.327798 0 127 127
0.033201 -0.082285 0.012923 153 0 76
-0.142712 -0.235517 -0.420042 76 153 0
0.748359 -0.051035 -0.444709 76 153 0
-0.857997 -0.119758 0.026740 76 0 153
-0.467226 0.222734 0.405839 255 0 0
0.816299 0.247402 0.096795 255 0 0
-0.300335 0.222734 -0.188766 255 0 0
0.438439 0.046961 -0.324627 0 127 127
0.541914 0.071629 0.198213 0 127 127
-0.179998 0.222734 0.390667 255 0 0
-0.536249 0.071629 -0.244674 0 127 127
0.089904 0.247402 -0.009950 255 0 0
-0.632913 0.222734 -0.379995 255 0 0
-0.519688 0.247402 0.139222 255 0 0
0.710928 -0.238559 -0.279693 204 51 127
0.875066 -0.024385 -0.063384 153 0 76
0.529130 0.071629 -0.333310 0 127 127
0.232008 -0.263227 0.029190 204 51 127
0.297430 -0.238559 -0.373907 204 51 127
-0.036148 0.046961 0.169226 0 127 127
0.704045 0.247402 0.342071 255 0 0
0.615059 0.222734 0.078232 255 0 0
0.675939 0.046961 -0.056354 0 127 127
-0.786896 -0.263227 0.030991 204 51 127
-0.303059 0.042225 0.397229 76 0 153
0.899733 0.231309 0.232454 153 0 76
0.322794 0.249765 0.271031 255 0 0
-0.231292 -0.099935 -0.444709 76 153 0
-0.617100 0.247402 0.182787 255 0 0
0.535160 0.003345 0.397229 153 76 0
-0.511645 -0.130181 -0.420042 76 153 0
-0.517507 0.071629 -0.050460 0 127 127
-0.492291 0.247402 -0.167442 255 0 0
-0.361201 -0.238559 0.229083 204 51 127
0.687583 -0.238559 0.035145 204 51 127
0.100758 0.046961 0.216781 0 127 127
0.647283 0.222734 -0.318483 255 0 0
0.556327 0.222734 0.372527 255 0 0
0.749963 0.071629 0.157006 0 127 127
-0.550633 -0.238559 0.404038 204 51 127
-0.587452 -0.238559 0.172874 204 51 127
-0.045052 -0.029319 0.397229 76 0 153
-0.103299 -0.263227 0.136303 204 51 127
0.348233 0.222734 -0.114834 255 0 0
0.347835 0.046961 -0.011110 0 127 127
0.775353 0.071629 0.208904 0 127 127
0.520527 0.222734 0.261318 255 0 0
0.899733 -0.081860 0.028234 153 0 76
-0.130908 0.247402 -0.180481 255 0 0
-0.521213 0.222734 0.331093 255 0 0
0.804151 -0.179726 0.397229 153 76 0
-0.598614 0.071629 0.148038 0 127 127
-0.857997 -0.032300 0.281281 76 0 153
-0.656649 0.046961 -0.409383 0 127 127
0.069160 0.222734 0.156763 255 0 0
0.523317 -0.263227 0.144661 204 51 127
0.335405 0.247402 0.157108 255 0 0
-0.188055 -0.208943 0.397229 76 0 153
-0.322843 0.249765 0.234277 255 0 0
0.582381 -0.238559 -0.023581 204 51 127
-0.266837 0.071629 -0.308085 0 127 127
0.312545 -0.114226 0.397229 153 76 0
0.033201 -0.069839 -0.382975 153 0 76
-0.833330 -0.118000 0.210746 76 0 153
0.352426 0.071629 -0.241315 0 127 127
0.020101 0.124211 -0.444709 76 153 0
0.878117 -0.124319 -0.420042 153 0 76
0.093954 -0.238559 -0.015650 204 51 127
-0.833330 0.038885 0.146224 76 0 153
0.177536 -0.238559 0.113719 204 51 127
0.702813 0.109181 -0.420042 76 153 0
-0.533158 -0.238559 -0.100883 204 51 127
-0.811572 -0.238559 -0.100214 204 51 127
0.834406 -0.238559 -0.245514 204 51 127
0.309593 0.046961 -0.377663 0 127 127
0.081283 -0.263227 -0.243345 204 51 127
0.738617 -0.238559 0.137524 204 51 127
0.385086 -0.238559 -0.022170 204 51 127
-0.185628 0.222734 0.256129 255 0 0
0.033201 -0.144604 0.125644 153 0 76
-0.282727 0.071629 0.228716 0 127 127
-0.199320 0.071629 -0.176095 0 127 127
-0.210214 -0.172739 -0.444709 76 153 0
-0.492550 0.071629 0.298697 0 127 127
-0.615401 0.046961 0.293192 0 127 127
0.577305 -0.238559 0.145648 204 51 127
-0.833330 0.003764 0.310626 76 0 153
0.728055 -0.238559 -0.144987 204 51 127
0.889741 0.161936 -0.444709 76 153 0
0.111555 0.046961 -0.257364 0 127 127
0.064182 0.046961 -0.127912 0 127 127
0.258731 -0.263227 -0.209668 204 51 127
0.101576 0.046961 -0.291258 0 127 127
0.899733 -0.095355 0.106474 153 0 76
-0.318952 -0.004745 -0.444709 76 153 0
-0.263141 0.222734 -0.162910 255 0 0
-0.833330 -0.087545 0.346899 76 0 153
-0.019795 0.222734 -0.132619 255 0 0
-0.683478 0.071629 0.122391 0 127 127
-0.779877 0.071629 -0.034690 0 127 127
0.653246 -0.196260 0.426770 153 76 0
-0.726739 -0.358110 -0.398520 76 0 153
-0.426654 0.222734 -0.409813 255 0 0
-0.594362 0.071629 0.410446 0 127 127
-0.578563 -0.263227 0.319812 204 51 127
0.882426 -0.041184 -0.420042 76 153 0
0.012554 -0.057221 0.426770 153 0 76
0.713761 0.071629 0.413786 0 127 127
0.899733 0.196462 0.152364 153 0 76
0.033201 0.078497 0.297799 153 0 76
0.004103 -0.197770 0.397897 76 0 153
0.130232 0.249765 -0.144028 255 0 0
0.183656 0.071629 -0.362228 0 127 127
-0.626207 -0.076690 0.397229 76 0 153
0.725989 0.247402 -0.346907 255 0 0
0.057308 0.071629 -0.355671 0 127 127
0.365857 -0.263227 -0.380590 204 51 127
-0.263215 -0.238559 0.387908 204 51 127
-0.275690 -0.129128 0.397229 76 0 153
-0.166654 0.222734 -0.149085 255 0 0
-0.714901 -0.238559 0.358231 204 51 127
-0.086089 -0.137885 0.426770 76 0 153
0.475425 0.046961 -0.239459 0 127 127
-0.017349 0.247402 -0.097897 255 0 0
-0.412595 0.222734 -0.306966 255 0 0
-0.041788 -0.238559 0.298569 204 51 127
0.524923 0.071629 -0.196892 0 127 127
0.043460 -0.238559 0.075640 204 51 127
-0.456588 0.249765 -0.001774 255 0 0
-0.662013 -0.238559 -0.163790 204 51 127
0.008534 -0.120132 -0.025215 153 0 76
-0.700571 0.046961 -0.077293 0 127 127
-0.574380 -0.263227 -0.315967 204 51 127
-0.467217 0.046961 0.280782 0 127 127
0.574016 0.038334 -0.444709 76 153 0
-0.431177 -0.238559 -0.241961 204 51 127
-0.601921 0.249765 -0.063479 255 0 0
0.033201 -0.097831 0.070296 153 0 76
-0.100124 -0.238559 -0.408939 204 51 127
-0.137594 -0.023359 0.426770 76 0 153
0.177704 0.046961 0.044308 0 127 127
0.822550 -0.263227 0.389483 204 51 127
0.784227 -0.079812 -0.420042 76 153 0
0.743533 0.247402 -0.419067 255 0 0
0.697608 0.004897 -0.420042 76 153 0
-0.503424 0.247402 0.040286 255 0 0
0.225880 0.247402 0.248350 255 0 0
-0.500570 0.071629 -0.236476 0 127 127
0.412790 -0.263227 0.160830 204 51 127
-0.513225 0.071629 -0.085138 0 127 127
0.259282 0.071629 0.085960 0 127 127
0.604118 0.071629 -0.247945 0 127 127
-0.793922 0.247402 -0.410731 255 0 0
0.341597 0.071629 -0.063330 0 127 127
0.002897 0.249765 0.405742 255 0 0
0.767488 0.046961 0.271115 0 127 127
-0.726754 0.046961 -0.232777 0 127 127
0.033201 0.141931 -0.070574 153 0 76
0.300098 -0.238559 -0.241121 204 51 127
0.008534 -0.124255 0.206657 153 0 76
0.870564 -0.238559 -0.318822 204 51 127
0.419117 0.222734 -0.305390 255 0 0
0.858885 -0.263227 -0.405739 204 51 127
0.487522 -0.139721 0.397229 153 76 0
0.266149 0.222734 0.267239 255 0 0
-0.857997 0.194445 -0.390224 76 0 153
0.127991 -0.263227 0.170043 204 51 127
-0.833330 0.131060 0.248704 76 0 153
-0.062007 -0.057481 0.426770 76 0 153
-0.696577 -0.020281 0.397229 76 0 153
-0.596215 0.071629 0.004776 0 127 127
0.467543 0.046961 -0.098406 0 127 127
0.545407 0.222734 -0.031465 255 0 0
-0.483956 0.222734 -0.216973 255 0 0
0.788568 0.046961 0.018507 0 127 127
0.324294 -0.238559 -0.007562 204 51 127
0.155357 -0.238559 -0.095861 204 51 127
-0.251099 0.100631 -0.420042 76 153 0
-0.785528 -0.238559 0.265626 204 51 127
-0.695509 0.071629 -0.334526 0 127 127
-0.524549 -0.263227 -0.227684 204 51 127
0.467954 0.222734 0.348558 255 0 0
-0.833330 0.159060 -0.135143 76 0 153
0.609265 -0.263227 0.074537 204 51 127
-0.065391 0.046961 -0.183321 0 127 127
0.433511 0.046961 0.251248 0 127 127
-0.265732 0.046961 -0.159660 0 127 127
-0.279774 -0.238559 -0.410439 204 51 127
0.738265 -0.114238 -0.444709 76 153 0
-0.657955 0.249765 -0.001537 255 0 0
-0.004500 0.247402 0.147483 255 0 0
0.008534 0.148654 0.397443 153 0 76
-0.607086 0.222734 0.156729 255 0 0
-0.756231 0.071629 0.196446 0 127 127
-0.049231 -0.263227 0.119146 204 51 127
-0.437422 0.249765 0.406911 255 0 0
0.657184 0.222734 -0.360310 255 0 0
0.812825 -0.106598 0.426770 153 76 0
0.818664 0.203898 -0.444709 76 153 0
-0.453614 0.046961 0.084179 0 127 127
0.790319 -0.263227 0.166269 204 51 127
-0.500670 0.071629 -0.130884 0 127 127
-0.760799 0.222734 0.110082 255 0 0
0.899733 0.191099 -0.250548 153 0 76
0.281338 -0.238559 -0.106929 204 51 127
-0.374288 -0.238559 0.348929 204 51 127
0.740703 0.222734 0.173590 255 0 0
-0.422648 0.222734 -0.376265 255 0 0
0.779254 0.033285 -0.420042 76 153 0
0.418698 -0.263227 0.370638 204 51 127
0.578106 -0.263227 -0.192083 204 51 127
0.198461 -0.263227 -0.331777 204 51 127
-0.080139 -0.263227 -0.202131 204 51 127
0.015003 0.071629 0.390491 0 127 127
0.008534 0.161240 0.287901 153 0 76
0.376037 0.222734 0.344411 255 0 0
-0.571366 0.071629 0.276503 0 127 127
0.322201 0.247402 -0.251903 255 0 0
-0.053365 0.005164 0.426770 76 0 153
-0.017267 0.046961 0.310944 0 127 127
0.829973 -0.238559 0.223862 204 51 127
0.647135 0.071629 -0.280354 0 127 127
0.862952 0.078965 -0.444709 76 153 0
0.437493 -0.238559 -0.395948 204 51 127
0.191214 0.046961 -0.256537 0 127 127
-0.706854 -0.299331 -0.334834 153 76 0
0.875066 0.150927 -0.312743 153 0 76
0.358656 0.046961 -0.131527 0 127 127
-0.344879 -0.172978 -0.444709 76 153 0
-0.098880 0.222734 -0.369844 255 0 0
0.545195 0.030383 0.426770 153 76 0
-0.289706 0.247402 -0.296238 255 0 0
0.871577 0.046961 -0.103998 0 127 127
0.253280 -0.238559 0.230291 204 51 127
0.193069 0.222734 0.286273 255 0 0
0.825399 -0.252650 0.426770 204 51 127
-0.195974 0.071629 0.067800 0 127 127
-0.065546 -0.050115 -0.444709 76 153 0
0.183058 0.222734 0.246229 255 0 0
0.670473 0.071629 0.388938 0 127 127
0.692474 0.042530 0.417033 153 76 0
-0.159006 -0.056031 0.397229 76 0 153
-0.583124 0.249765 0.123271 255 0 0
0.875066 -0.173761 -0.318506 153 0 76
-0.524514 0.071629 -0.341357 0 127 127
0.447431 -0.046325 0.426770 153 76 0
-0.640251 -0.263227 0.005145 204 51 127
-0.382115 0.160724 -0.420042 76 153 0
-0.857997 -0.137560 -0.006909 76 0 153
0.118848 -0.263227 0.094147 204 51 127
0.494598 0.133394 -0.444709 76 153 0
-0.282930 0.169181 -0.420042 76 153 0
0.317540 0.071629 -0.281426 0 127 127
0.033201 0.037009 -0.387830 153 0 76
-0.046249 0.071629 0.333555 0 127 127
0.730286 0.222734 -0.301814 255 0 0
0.899733 0.127953 0.235243 153 0 76
0.561020 0.071629 -0.238229 0 127 127
-0.224417 0.249765 0.145833 255 0 0
0.097614 0.222734 -0.060298 255 0 0
-0.492232 0.046961 0.252654 0 127 127
0.817223 0.226114 0.426770 255 0 0
0.498927 0.046961 0.349616 0 127 127
0.645562 0.071629 0.130474 0 127 127
0.563160 -0.058168 0.397229 153 76 0
0.371424 -0.083475 -0.420042 76 153 0
-0.702202 0.222734 -0.077706 255 0 0
0.285080 0.249765 0.014342 255 0 0
0.899733 -0.170759 0.399273 153 0 76
-0.831242 0.046961 -0.238631 0 127 127
-0.828447 -0.263227 0.107050 204 51 127
0.008534 0.183713 0.086542 153 0 76
-0.100738 -0.263227 -0.381480 204 51 127
-0.857997 -0.220466 -0.271042 76 0 153
0.147408 -0.263227 0.279609 204 51 127
0.349533 -0.263227 0.299331 204 51 127
-0.034382 0.046961 0.053700 0 127 127
-0.857997 0.163369 0.015210 76 0 153
-0.497879 -0.238559 0.288749 204 51 127
-0.500109 0.071629 0.000237 0 127 127
0.484204 0.086417 -0.444709 76 153 0
0.355312 0.249765 -0.412050 255 0 0
0.634223 0.222734 -0.095633 255 0 0
0.543814 -0.263227 -0.443783 204 51 127
-0.207797 0.071629 0.311149 0 127 127
-0.280036 0.249765 0.157153 255 0 0
-0.574254 0.046961 -0.256310 0 127 127
0.875066 -0.218019 0.363731 153 0 76
-0.857997 -0.174335 -0.210816 76 0 153
0.774537 -0.143556 0.426770 153 76 0
0.554168 0.222734 -0.064795 255 0 0
-0.422640 0.249765 -0.046445 255 0 0
0.525275 0.247402 0.105205 255 0 0
-0.606617 -0.039933 -0.420042 76 153 0
-0.823223 0.071629 -0.324826 0 127 127
-0.320087 -0.238559 -0.040768 204 51 127
-0.522490 0.222734 -0.221258 255 0 0
-0.710837 0.222734 -0.202185 255 0 0
0.422328 0.071629 0.342334 0 127 127
-0.586236 0.222734 0.374401 255 0 0
-0.744135 0.222734 -0.127420 255 0 0
-0.738364 0.227477 -0.420042 76 153 0
0.875066 -0.041605 0.391621 153 0 76
0.875066 0.079148 -0.034288 153 0 76
0.604104 -0.216684 -0.420042 76 153 0
-0.082648 0.071629 -0.358041 0 127 127
0.633759 -0.230369 -0.420042 76 153 0
0.778719 -0.238559 -0.327686 204 51 127
0.458041 -0.238559 -0.212539 204 51 127
-0.782580 0.071629 -0.313993 0 127 127
0.785023 -0.311594 0.326035 76 153 0
-0.391240 -0.011131 -0.420042 76 153 0
0.899733 -0.171365 0.015582 153 0 76
-0.361418 0.046961 0.170822 0 127 127
-0.082774 0.046961 -0.107398 0 127 127
-0.496690 -0.021538 0.426770 76 0 153
0.311722 -0.211585 -0.444709 76 153 0
0.008534 -0.153766 -0.123993 153 0 76
-0.500291 0.071629 0.191870 0 127 127
0.287162 -0.263227 0.305776 204 51 127
-0.772597 -0.263227 -0.227388 204 51 127
-0.501593 -0.147641 0.426770 76 0 153
0.845524 0.071629 0.079944 0 127 127
-0.754739 0.247402 0.426283 255 0 0
0.594523 0.046961 -0.281967 0 127 127
-0.120578 -0.143489 -0.420042 76 153 0
-0.377878 0.222734 0.225960 255 0 0
0.008534 -0.223745 0.354740 153 0 76
0.420225 0.071629 -0.286389 0 127 127
-0.230495 0.046961 -0.262931 0 127 127
0.493862 -0.224931 -0.444709 76 153 0
-0.573608 0.249765 0.348946 255 0 0
-0.833330 -0.128720 -0.409824 76 0 153
-0.389100 0.247402 0.359233 255 0 0
0.743581 0.071629 -0.054673 0 127 127
-0.833330 -0.118213 -0.255598 76 0 153
0.262662 -0.238559 0.325955 204 51 127
-0.651722 -0.042621 0.426770 76 0 153
0.190892 0.222734 -0.319986 255 0 0
-0.183317 -0.233995 -0.420042 76 153 0
0.008534 -0.154692 0.071625 153 0 76
-0.219100 -0.263227 -0.041024 204 51 127
-0.415169 0.107189 -0.444709 76 153 0
0.699123 -0.263227 0.146029 204 51 127
-0.833330 -0.141488 0.255745 76 0 153
-0.857997 0.067963 -0.039602 76 0 153
0.162176 0.071629 0.118582 0 127 127
0.856280 0.247402 -0.338565 255 0 0
-0.748173 0.046961 0.350181 0 127 127
-0.114442 0.247402 0.097263 255 0 0
0.875066 -0.098908 -0.277596 153 0 76
0.254243 0.222734 -0.161268 255 0 0
-0.827597 0.247402 -0.372963 255 0 0
0.875066 0.033873 -0.385892 153 0 76
0.894747 0.217607 0.426770 153 0 76
-0.857997 -0.038419 -0.349933 76 0 153
-0.424621 0.016899 -0.420042 76 153 0
-0.187306 0.224470 -0.420042 255 0 0
0.052109 0.046961 -0.247660 0 127 127
-0.618287 0.249765 -0.142736 255 0 0
0.542773 0.222734 0.128503 255 0 0
-0.076750 0.222734 0.397752 255 0 0
0.008534 -0.001479 0.112112 153 0 76
0.464520 0.071629 0.311833 0 127 127
0.008534 -0.226124 -0.217490 153 0 76
0.154199 0.222734 -0.108394 255 0 0
0.117512 0.217387 -0.444709 76 153 0
-0.817673 -0.169041 -0.420042 76 153 0
0.087950 0.222734 -0.208131 255 0 0
-0.270231 0.222734 0.404327 255 0 0
0.171735 0.222734 -0.057488 255 0 0
0.875066 -0.233423 -0.390547 153 0 76
0.898672 -0.263227 0.331216 204 51 127
-0.233094 0.249765 0.402775 255 0 0
0.866101 -0.238559 0.198100 204 51 127
0.241706 -0.075128 0.397229 153 76 0
-0.547635 0.071629 0.156477 0 127 127
-0.199301 0.166220 -0.444709 76 153 0
0.372860 0.222734 -0.320704 255 0 0
0.380044 -0.169821 -0.420042 76 153 0
0.680622 0.222734 -0.419964 255 0 0
0.899733 -0.131486 -0.168984 153 0 76
0.830834 0.046961 0.033080 0 127 127
-0.526377 0.247402 -0.137543 255 0 0
0.812702 0.071629 -0.064365 0 127 127
0.515624 -0.138353 -0.444709 76 153 0
0.008534 0.196801 -0.115150 153 0 76
-0.701332 -0.263227 0.057963 204 51 127
0.008534 0.016029 -0.354042 153 0 76
-0.663771 0.222734 -0.066509 255 0 0
0.635564 0.046961 0.347412 0 127 127
-0.857237 -0.238559 -0.016651 76 0 153
0.857473 0.247402 0.041000 255 0 0
0.430297 0.247402 0.249461 255 0 0
0.033201 0.177705 0.138602 153 0 76
0.476267 -0.238559 -0.132125 204 51 127
0.527471 -0.263227 -0.037868 204 51 127
-0.331191 -0.263227 -0.389947 204 51 127
-0.532743 0.071629 -0.187387 0 127 127
0.728793 0.247402 -0.127676 255 0 0
-0.018791 -0.238559 0.019046 204 51 127
0.608196 0.071629 -0.054099 0 127 127
0.525263 -0.238559 -0.138250 204 51 127
0.628094 0.095884 -0.420042 76 153 0
0.376468 -0.263227 0.352088 204 51 127
0.033201 0.135818 -0.280918 153 0 76
-0.758030 -0.238559 -0.354427 204 51 127
0.862718 0.046961 0.154510 0 127 127
-0.144130 -0.238559 0.128150 204 51 127
-0.826825 0.247402 0.079958 255 0 0
0.033201 0.011563 0.232931 153 0 76
0.558650 0.046961 -0.273468 0 127 127
0.700056 0.247402 -0.056586 255 0 0
0.033201 0.189041 -0.137648 153 0 76
-0.857997 -0.130125 -0.147566 76 0 153
-0.857997 0.240889 -0.182423 76 0 153
0.008534 0.122833 -0.206652 153 0 76
-0.721029 0.247402 0.232257 255 0 0
-0.155760 0.071629 -0.076550 0 127 127
-0.334082 0.071629 0.038691 0 127 127
0.695734 -0.263227 -0.134645 204 51 127
0.899733 0.027673 -0.086567 153 0 76
0.875066 0.132051 -0.210700 153 0 76
-0.275447 0.222734 0.191843 255 0 0
0.136912 0.222734 0.053857 255 0 0
-0.200061 0.012076 0.397229 76 0 153
0.761650 0.222734 0.085584 255 0 0
-0.536599 0.247402 -0.380970 255 0 0
0.137398 0.046961 0.037991 0 127 127
0.633034 0.071629 0.401698 0 127 127
-0.674300 -0.315379 0.287250 127 0 127
0.288808 0.046961 0.075213 0 127 127
0.598385 0.222734 -0.181987 255 0 0
-0.102495 -0.104303 -0.444709 76 153 0
0.760472 0.249765 0.229112 255 0 0
-0.296315 0.247402 0.127685 255 0 0
0.033201 0.132889 -0.000758 153 0 76
0.124269 -0.238559 0.338908 204 51 127
-0.269021 -0.263227 -0.026407 204 51 127
0.481269 -0.064627 -0.444709 76 153 0
0.669958 0.247402 0.151971 255 0 0
0.497523 -0.263227 -0.343846 204 51 127
-0.335193 0.071629 0.350795 0 127 127
0.191008 -0.263227 0.129387 204 51 127
0.822406 -0.263227 0.079921 204 51 127
-0.512815 0.249765 0.407640 255 0 0
0.420944 -0.263227 0.242396 204 51 127
-0.208641 0.071629 -0.047604 0 127 127
-0.676205 -0.263227 -0.405308 204 51 127
0.294579 -0.263227 -0.180206 204 51 127
0.215417 0.046961 -0.161005 0 127 127
0.818038 0.222734 0.181722 255 0 0
-0.104121 -0.263227 0.347383 204 51 127
0.636193 -0.238559 0.412919 204 51 127
-0.331394 0.249765 0.097962 255 0 0
-0.360200 -0.238559 0.285373 204 51 127
0.352026 0.231649 -0.444709 76 153 0
0.288227 0.071629 -0.268199 0 127 127
0.601991 0.247402 -0.021062 255 0 0
-0.403558 0.046961 -0.217800 0 127 127
-0.572641 0.071629 0.333420 0 127 127
0.605362 -0.028257 0.426770 153 76 0
0.221977 -0.263227 -0.100786 204 51 127
-0.833330 -0.052657 -0.409090 76 0 153
0.190691 0.222734 0.058473 255 0 0
-0.422367 -0.127331 -0.444709 76 153 0
0.366758 -0.006437 0.426770 153 76 0
-0.857997 -0.072068 0.364248 76 0 153
-0.857997 0.019207 0.395339 76 0 153
0.638074 0.071629 0.043735 0 127 127
-0.541051 0.249765 0.292051 255 0 0
-0.203342 0.249765 -0.099042 255 0 0
0.008534 -0.013096 -0.217589 153 0 76
0.101951 0.036203 0.397229 153 76 0
-0.498875 -0.049105 0.397229 76 0 153
0.033201 0.013877 0.332387 153 0 76
0.637590 -0.263227 -0.306054 204 51 127
0.135620 -0.263227 -0.131320 204 51 127
0.456957 0.086704 -0.420042 76 153 0
-0.579509 0.226782 -0.420042 255 0 0
-0.591697 -0.238559 -0.076621 204 51 127
0.033201 0.197334 0.011497 153 0 76
-0.091193 0.247402 0.287142 255 0 0
0.017955 -0.257744 -0.444709 204 51 127
-0.833330 0.040949 0.380776 76 0 153
-0.857997 -0.104855 -0.273673 76 0 153
-0.231722 -0.123107 0.426770 76 0 153
0.033201 -0.119837 -0.340590 153 0 76
-0.857997 -0.059467 -0.161845 76 0 153
-0.641407 0.249765 -0.347413 255 0 0
0.038617 -0.263227 -0.329881 204 51 127
0.008534 -0.165342 -0.310473 153 0 76
-0.666550 0.071629 0.314986 0 127 127
0.899733 -0.075759 -0.328227 153 0 76
-0.350620 0.222734 0.396561 255 0 0
0.715818 0.222734 0.375204 255 0 0
-0.255494 -0.060991 0.426770 76 0 153
0.899733 -0.000458 0.303075 153 0 76
0.899733 -0.089553 0.209270 153 0 76
-0.857997 -0.140317 0.094336 76 0 153
0.466015 0.249765 0.229246 255 0 0
0.302419 0.222734 0.094147 255 0 0
-0.750191 0.071629 -0.310129 0 127 127
-0.176103 0.222734 0.132200 255 0 0
-0.556756 0.046961 -0.029368 0 127 127
-0.198877 0.046961 0.283618 0 127 127
-0.649349 0.071629 0.242148 0 127 127
0.233782 -0.039333 0.426770 153 76 0
-0.296475 -0.180802 0.397229 76 0 153
0.897886 -0.238559 -0.134493 153 0 76
0.098992 -0.263227 0.247068 204 51 127
0.683356 -0.238033 -0.444709 76 153 0
0.777447 0.247402 -0.049202 255 0 0
-0.060330 -0.095245 -0.420042 76 153 0
0.008534 0.164815 -0.035675 153 0 76
0.028323 -0.238559 -0.306463 204 51 127
0.761645 0.067781 0.426770 0 127 127
-0.371627 -0.238559 0.050756 204 51 127
0.831892 0.222734 -0.134620 255 0 0
-0.833330 -0.179567 -0.252108 76 0 153
0.596739 0.046961 0.300322 0 127 127
-0.857997 0.011706 0.156380 76 0 153
0.008534 0.126227 0.423633 153 0 76
0.168304 -0.210140 0.426770 153 76 0
-0.857997 -0.208245 -0.127975 76 0 153
0.783349 0.071629 0.244840 0 127 127
0.684615 -0.238559 0.320963 204 51 127
-0.687692 0.222734 0.117637 255 0 0
-0.486398 0.247402 -0.098119 255 0 0
0.590687 -0.238559 -0.238448 204 51 127
0.397884 -0.263227 -0.277825 204 51 127
-0.563240 -0.263227 0.152637 204 51 127
0.826740 0.222734 -0.171742 255 0 0
0.394901 0.071629 0.370189 0 127 127
-0.472045 -0.180344 -0.444709 76 153 0
-0.407367 0.249765 0.327467 255 0 0
0.826858 0.046961 -0.110613 0 127 127
-0.084088 0.071629 -0.022405 0 127 127
0.494120 0.046961 0.042006 0 127 127
-0.561285 0.222734 0.222307 255 0 0
-0.534916 0.222734 0.088658 255 0 0
-0.148467 -0.238559 0.166528 204 51 127
-0.755442 -0.263227 -0.177501 204 51 127
-0.113449 0.046961 -0.197380 0 127 127
-0.029654 0.222734 0.208935 255 0 0
-0.136854 0.222734 0.003445 255 0 0
0.899733 0.164225 -0.050622 153 0 76
0.093994 -0.117131 0.397229 153 76 0
-0.040026 0.046961 -0.262015 0 127 127
-0.723933 0.093660 -0.444709 76 153 0
0.033201 -0.037721 -0.210272 153 0 76
-0.372090 0.222734 -0.315278 255 0 0
-0.668398 0.011144 -0.444709 76 153 0
-0.403564 -0.238559 0.029863 204 51 127
0.400549 0.222734 -0.368771 255 0 0
-0.138923 0.222734 -0.331913 255 0 0
-0.857997 0.159353 -0.203278 76 0 153
0.289100 0.247402 -0.217378 255 0 0
-0.447079 0.071629 0.274525 0 127 127
0.622506 0.046961 -0.206557 0 127 127
0.356337 0.249765 -0.088872 255 0 0
-0.112737 -0.047145 0.397229 76 0 153
-0.643751 0.106837 -0.444709 76 153 0
-0.282247 0.071629 0.307090 0 127 127
-0.330660 0.012100 0.426770 76 0 153
0.817024 0.247402 0.139591 255 0 0
-0.568354 -0.263227 -0.106169 204 51 127
0.303412 -0.263227 -0.335444 204 51 127
-0.800154 0.071629 0.198529 0 127 127
0.356151 0.249765 -0.331334 255 0 0
0.541286 0.222734 0.165511 255 0 0
-0.242147 0.046961 -0.210471 0 127 127
0.367646 0.222734 -0.193154 255 0 0
0.350234 -0.238559 -0.365465 204 51 127
0.562785 0.046961 0.143452 0 127 127
-0.218181 0.046961 0.352397 0 127 127
-0.334854 -0.238559 0.053028 204 51 127
-0.548379 -0.109889 -0.420042 76 153 0
0.299547 0.007479 -0.420042 76 153 0
0.008534 0.124769 -0.239841 153 0 76
-0.857997 -0.082767 0.072390 76 0 153
0.088603 0.247402 -0.078314 255 0 0
-0.155728 0.222734 -0.048186 255 0 0
-0.626710 -0.238559 -0.266338 204 51 127
0.899733 -0.057488 -0.253511 153 0 76
0.656943 0.249765 -0.086771 255 0 0
-0.568026 0.147974 -0.420042 76 153 0
-0.419971 0.071629 -0.390275 0 127 127
-0.693088 0.071629 0.164836 0 127 127
-0.173815 0.071629 0.239009 0 127 127
-0.050375 0.247402 -0.224504 255 0 0
0.008534 0.124825 0.114929 153 0 76
0.808221 0.046961 0.248602 0 127 127
-0.063591 -0.263227 0.003671 204 51 127
-0.757734 0.046961 0.041337 0 127 127
-0.054613 -0.243573 -0.444709 204 51 127
0.864438 0.222734 0.168279 255 0 0
0.363649 0.046961 0.360178 0 127 127
-0.450607 0.046961 -0.323707 0 127 127
0.528218 0.071629 -0.240893 0 127 127
-0.790747 -0.112348 -0.444709 76 153 0
-0.025476 0.222734 -0.306242 255 0 0
-0.315659 0.247402 -0.067698 255 0 0
-0.621696 0.046961 -0.189736 0 127 127
0.178481 0.005898 0.426770 153 76 0
0.037306 0.222734 -0.228645 255 0 0
-0.534875 -0.263227 0.229673 204 51 127
0.827250 0.247402 0.405400 255 0 0
-0.204105 -0.238559 0.400087 204 51 127
0.150541 0.071629 -0.295854 0 127 127
0.033201 0.032616 -0.100404 153 0 76
0.008534 0.211706 -0.239817 153 0 76
-0.372707 -0.263227 -0.039771 204 51 127
0.392741 -0.238559 0.152499 204 51 127
-0.704882 0.046961 -0.275864 0 127 127
0.792098 0.222734 -0.208074 255 0 0
-0.279401 0.247402 0.276482 255 0 0
0.807826 0.037731 0.397229 153 76 0
0.251944 -0.238559 -0.148155 204 51 127
-0.302004 -0.007027 0.426770 76 0 153
-0.560264 0.071629 -0.163377 0 127 127
-0.095429 0.071629 0.216984 0 127 127
0.477561 0.071629 -0.378391 0 127 127
0.033201 -0.148231 0.252634 153 0 76
0.030353 -0.238559 0.251635 153 0 76
0.299628 0.249765 -0.083251 255 0 0
-0.639614 -0.263227 0.249470 204 51 127
-0.495438 -0.107421 0.426770 76 0 153
-0.072392 0.247402 -0.301691 255 0 0
-0.497741 -0.221001 -0.444709 76 153 0
0.008534 0.177206 0.000230 153 0 76
0.784697 0.249765 0.167480 255 0 0
-0.556802 0.222734 0.400526 255 0 0
-0.219421 0.042264 -0.444709 76 153 0
-0.657213 -0.263227 -0.336103 204 51 127
-0.857997 -0.024124 -0.130734 76 0 153
-0.280185 -0.133963 -0.444709 76 153 0
-0.797326 0.222734 -0.353712 255 0 0
-0.544247 -0.238559 0.131099 204 51 127
0.196256 -0.238559 0.242585 204 51 127
0.781877 -0.238559 -0.177888 204 51 127
0.490976 0.249765 0.333355 255 0 0
0.171487 -0.160916 -0.420042 76 153 0
0.033201 0.155441 -0.204972 153 0 76
0.120049 0.071629 0.129856 0 127 127
-0.546066 0.071629 -0.318123 0 127 127
-0.625519 0.245336 0.426770 255 0 0
0.457399 -0.232083 0.426770 153 76 0
-0.233065 0.222734 -0.313876 255 0 0
0.449489 0.071629 -0.187280 0 127 127
-0.789871 0.222734 -0.031946 255 0 0
-0.485801 0.249111 -0.444709 76 153 0
-0.833330 0.044846 -0.400576 76 0 153
0.230160 -0.218808 0.426770 153 76 0
-0.491682 -0.263227 0.108574 204 51 127
-0.634670 0.222734 0.115079 255 0 0
0.875066 -0.015170 -0.226716 153 0 76
0.701219 0.177395 -0.420042 76 153 0
0.741180 -0.238559 -0.175718 204 51 127
-0.674758 0.192919 -0.420042 76 153 0
-0.327380 0.222734 0.164454 255 0 0
-0.857997 -0.109681 -0.404248 76 0 153
-0.823260 0.071629 0.026203 0 127 127
-0.714985 0.222734 -0.140202 255 0 0
-0.467196 -0.079863 -0.444709 76 153 0
0.422646 -0.238559 0.067200 204 51 127
-0.361864 -0.263227 -0.136853 204 51 127
-0.096651 -0.238559 -0.152400 204 51 127
-0.394968 -0.074322 -0.444709 76 153 0
-0.484008 -0.134238 0.397229 76 0 153
-0.146849 -0.238559 -0.271425 204 51 127
-0.004195 0.222734 0.390935 255 0 0
0.091117 0.071629 0.045384 0 127 127
0.875066 -0.098671 0.334918 153 0 76
0.322990 -0.263227 -0.066138 204 51 127
0.244241 0.071629 -0.148458 0 127 127
-0.833330 -0.158664 0.059669 76 0 153
0.875066 0.038016 0.222234 153 0 76
0.608132 0.006769 0.397229 153 76 0
0.430284 0.046961 0.019639 0 127 127
0.572640 -0.200952 0.426770 153 76 0
-0.719351 0.247402 0.079277 255 0 0
-0.025422 0.071629 0.272894 0 127 127
0.008534 0.008865 0.166233 153 0 76
-0.648597 -0.188952 0.397229 76 0 153
-0.014984 0.071629 0.174558 0 127 127
0.747051 0.046961 -0.128295 0 127 127
-0.651024 0.071629 -0.315921 0 127 127
0.899733 0.176636 0.055133 153 0 76
-0.450713 0.222734 -0.211707 255 0 0
0.875066 0.131583 -0.278995 153 0 76
0.899733 -0.050108 -0.165208 153 0 76
0.269883 0.249765 -0.378180 255 0 0
-0.590267 0.046961 -0.328270 0 127 127
0.875066 -0.060341 -0.213233 153 0 76
0.214062 0.071629 -0.118709 0 127 127
-0.253704 0.071629 -0.229155 0 127 127
0.604620 0.222734 -0.249291 255 0 0
0.899733 -0.215927 0.060213 153 0 76
-0.400388 0.247402 -0.364452 255 0 0
-0.363330 -0.204600 0.397229 76 0 153
0.513870 -0.197638 0.426770 153 76 0
-0.833330 -0.204449 0.398949 76 0 153
0.008534 0.091800 -0.027636 153 0 76
-0.195972 0.071629 0.391458 0 127 127
0.022141 -0.263227 -0.005421 204 51 127
0.439595 0.196034 -0.444709 76 153 0
-0.403099 -0.263227 -0.148902 204 51 127
0.864535 0.222734 0.244971 255 0 0
0.899733 -0.047906 0.227083 153 0 76
-0.129240 -0.238559 -0.157456 204 51 127
0.792939 0.222734 -0.034778 255 0 0
0.033201 -0.201377 -0.402099 153 0 76
-0.496051 -0.263227 0.143704 204 51 127
0.150089 -0.263227 0.354283 204 51 127
-0.471904 -0.263227 -0.092884 204 51 127
0.292750 0.247402 0.075742 255 0 0
-0.227876 -0.238559 0.194956 204 51 127
0.728255 0.046961 -0.208989 0 127 127
0.096073 0.001932 -0.444709 76 153 0
0.008534 -0.175761 -0.252136 153 0 76
-0.053433 0.247402 0.070139 255 0 0
-0.857997 0.059058 0.045007 76 0 153
0.411758 -0.029067 -0.444709 76 153 0
-0.390513 0.071629 0.220977 0 127 127
0.731061 0.249765 0.019676 255 0 0
0.080816 -0.100994 0.426770 153 76 0
0.079973 0.071629 0.301944 0 127 127
-0.696099 0.071629 0.081600 0 127 127
0.365025 0.247402 -0.165928 255 0 0
-0.540746 0.222734 -0.195601 255 0 0
-0.816377 0.241547 -0.444709 76 153 0
0.008534 0.041523 0.281896 153 0 76
0.498591 0.247402 0.163642 255 0 0
-0.697707 -0.238559 -0.163241 204 51 127
-0.436654 0.041784 -0.444709 76 153 0
-0.290392 0.222734 0.377487 255 0 0
-0.777771 -0.263227 -0.404845 204 51 127
0.297704 -0.238559 0.261765 204 51 127
-0.857997 0.013749 -0.060156 76 0 153
-0.398975 -0.263227 0.132237 204 51 127
0.266276 0.247402 -0.188842 255 0 0
0.008534 -0.177947 0.255071 153 0 76
-0.533726 0.046961 -0.156249 0 127 127
0.414380 -0.263227 0.032756 204 51 127
0.007226 -0.263227 0.302667 204 51 127
-0.192260 0.247402 -0.213394 255 0 0
0.222423 0.071629 0.111654 0 127 127
0.338564 0.247402 0.056371 255 0 0
0.072947 0.222734 -0.243482 255 0 0
-0.260823 -0.263227 0.300802 204 51 127
-0.157683 0.046961 0.193477 0 127 127
-0.136734 0.222734 0.156168 255 0 0
0.267495 -0.258895 -0.444709 204 51 127
-0.317207 -0.064659 -0.420042 76 153 0
-0.715052 0.222734 -0.293790 255 0 0
-0.622824 0.071629 0.094831 0 127 127
-0.161505 0.249765 0.352113 255 0 0
0.074121 0.222734 -0.150292 255 0 0
-0.796496 -0.263227 0.401323 204 51 127
0.325140 -0.263227 0.112117 204 51 127
-0.054270 0.046961 -0.402199 0 127 127
0.335284 0.046961 -0.232236 0 127 127
0.708715 0.071629 0.177998 0 127 127
0.008534 -0.159350 0.350813 153 0 76
0.144877 0.071629 0.190696 0 127 127
-0.222459 -0.238559 0.131957 204 51 127
-0.157486 -0.263227 0.329217 204 51 127
-0.307383 -0.176451 -0.420042 76 153 0
-0.152984 -0.263227 -0.111484 204 51 127
-0.001753 -0.220756 0.426770 76 0 153
0.875066 0.213789 -0.068253 153 0 76
0.157497 0.222734 0.127526 255 0 0
0.369779 -0.238559 -0.159127 204 51 127
0.856401 0.104835 -0.420042 76 153 0
0.134923 0.222734 0.191000 255 0 0
0.582389 -0.139127 0.426770 153 76 0
0.033201 -0.137229 0.159122 153 0 76
-0.035024 0.219115 -0.420042 76 153 0
0.837759 0.047018 -0.444709 76 153 0
0.160193 0.071629 -0.250055 0 127 127
0.899733 0.193579 -0.404843 153 0 76
-0.195338 0.206258 -0.444709 76 153 0
0.812914 0.027845 -0.420042 76 153 0
0.269082 -0.263227 0.038422 204 51 127
0.636906 0.247402 0.355697 255 0 0
0.033201 -0.024348 -0.072880 153 0 76
-0.718523 -0.311655 -0.398721 76 0 153
0.510868 0.042530 0.423019 153 76 0
-0.518413 0.002081 0.397229 76 0 153
-0.857997 0.068579 -0.107501 76 0 153
-0.033280 0.222734 0.105186 255 0 0
-0.113507 0.071629 0.149919 0 127 127
-0.496126 -0.238559 0.233767 204 51 127
0.516614 0.071629 0.302316 0 127 127
-0.362496 0.046961 -0.034837 0 127 127
-0.670172 0.247402 0.157368 255 0 0
-0.418710 -0.234128 0.413143 76 0 153
0.034112 0.057017 -0.444709 76 153 0
0.875066 0.099666 0.144840 153 0 76
0.225322 0.222734 0.407299 255 0 0
-0.809020 0.249765 -0.333967 255 0 0
0.413939 -0.263227 0.330391 204 51 127
-0.553339 0.247402 0.163528 255 0 0
0.653286 -0.263227 -0.273078 204 51 127
-0.833330 0.003078 0.035625 76 0 153
-0.857997 -0.076775 0.400214 76 0 153
0.788425 -0.362840 -0.344199 76 0 153
-0.832841 0.247402 0.409309 255 0 0
0.271964 0.247402 0.162825 255 0 0
-0.320712 0.017636 -0.420042 76 153 0
-0.670794 0.247402 -0.321252 255 0 0
-0.733661 -0.171118 0.397229 76 0 153
0.875066 -0.127537 0.400117 153 0 76
0.621616 -0.072017 0.397229 153 76 0
0.423949 0.222734 0.207500 255 0 0
0.135534 -0.052345 -0.420042 76 153 0
0.405856 0.046961 0.192124 0 127 127
-0.833330 0.174514 -0.415095 76 0 153
0.058106 0.071629 -0.265848 0 127 127
-0.193639 0.222734 0.031828 255 0 0
-0.072593 -0.238559 0.359556 204 51 127
-0.053774 0.249765 -0.100598 255 0 0
-0.722980 -0.263227 -0.110665 204 51 127
-0.105071 0.014466 0.397229 76 0 153
-0.242270 0.071629 -0.021473 0 127 127
0.033201 0.116665 0.091153 153 0 76
0.766257 0.247402 -0.265260 255 0 0
-0.196113 0.046961 -0.012179 0 127 127
-0.385449 -0.238559 -0.014892 204 51 127
-0.356748 0.249765 0.291691 255 0 0
-0.794186 0.247402 0.016864 255 0 0
-0.097246 0.222734 0.373175 255 0 0
-0.292852 -0.074048 -0.444709 76 153 0
0.171095 0.071629 -0.006941 0 127 127
0.337927 -0.238559 0.044030 204 51 127
0.595546 0.071629 -0.379283 0 127 127
0.771539 -0.126227 -0.444709 76 153 0
0.765098 0.247402 -0.230629 255 0 0
0.604486 0.247402 -0.128079 255 0 0
-0.441577 0.071629 0.121824 0 127 127
0.409561 0.072011 -0.420042 76 153 0
-0.039556 0.106044 -0.444709 76 153 0
-0.116239 0.071629 -0.307573 0 127 127
0.838223 0.071629 0.213703 0 127 127
-0.122676 0.026198 -0.444709 76 153 0
-0.598095 -0.238559 -0.368878 204 51 127
-0.734461 -0.238559 0.114871 204 51 127
-0.517510 -0.201944 -0.420042 76 153 0
0.524641 0.046961 0.242924 0 127 127
0.762317 0.071629 -0.096478 0 127 127
0.724497 0.247402 0.273854 255 0 0
-0.792923 0.172878 -0.444709 76 153 0
0.201685 0.031524 0.397229 153 76 0
-0.290006 -0.263227 -0.341782 204 51 127
0.033201 -0.213491 -0.170381 153 0 76
-0.857997 0.213609 -0.206844 76 0 153
0.047969 0.222734 -0.337720 255 0 0
-0.445566 -0.116395 0.426770 76 0 153
-0.326228 0.071629 -0.254849 0 127 127
0.817475 0.046961 -0.344267 0 127 127
-0.163319 -0.047295 0.426770 76 0 153
0.517196 -0.238559 -0.394538 204 51 127
-0.010211 0.249765 -0.407522 255 0 0
-0.673637 -0.156727 0.426770 76 0 153
-0.013094 -0.134142 0.426770 76 0 153
-0.250458 -0.212029 0.426770 76 0 153
0.509671 -0.263227 0.176715 204 51 127
-0.596053 0.046961 0.391586 0 127 127
0.060350 0.049207 0.426770 0 127 127
0.518644 0.046961 0.012344 0 127 127
0.672625 -0.263227 0.023541 204 51 127
-0.603207 0.046961 0.025705 0 127 127
0.430305 0.249765 -0.211743 255 0 0
0.636665 0.071629 0.233967 0 127 127
0.357483 0.071629 -0.283732 0 127 127
0.033201 0.093667 0.179626 153 0 76
-0.060781 -0.238559 0.184365 204 51 127
-0.522857 0.222734 0.196782 255 0 0
0.539798 0.039309 0.397229 153 76 0
-0.833330 0.225612 -0.074601 255 0 0
-0.336432 0.071629 -0.358763 0 127 127
0.111855 -0.263227 0.003785 204 51 127
-0.311577 0.046961 -0.401174 0 127 127
0.742613 -0.238559 0.291202 204 51 127
0.727907 0.222734 0.426397 255 0 0
0.281329 0.046961 0.376876 0 127 127
0.531765 0.249765 -0.116910 255 0 0
0.165200 -0.263227 0.099449 204 51 127
0.765593 0.071629 -0.247867 0 127 127
-0.445409 0.247402 0.132531 255 0 0
0.072533 0.134691 -0.420042 76 153 0
-0.568946 -0.263227 -0.056687 204 51 127
-0.854750 -0.255631 0.426770 204 51 127
0.821591 0.249765 0.059363 255 0 0
-0.693721 -0.238559 0.205954 204 51 127
-0.422306 -0.263227 0.048967 204 51 127
-0.072175 0.090381 -0.444709 76 153 0
-0.502270 0.222734 0.021517 255 0 0
-0.833330 -0.153064 -0.113367 76 0 153
0.156159 -0.022823 0.397229 153 76 0
0.177302 0.013254 -0.444709 76 153 0
-0.029659 -0.263227 -0.165925 204 51 127
0.591519 0.222734 0.103230 255 0 0
0.033201 -0.121323 0.226719 153 0 76
0.875066 0.045741 0.014642 153 0 76
0.008534 -0.188201 -0.032910 153 0 76
-0.207726 0.046961 -0.362344 0 127 127
-0.677740 -0.140350 0.397229 76 0 153
0.368244 -0.263227 0.423455 204 51 127
-0.837853 -0.238559 -0.056161 76 0 153
0.875066 0.191956 0.292361 153 0 76
-0.350348 0.247402 0.002201 255 0 0
0.333546 0.247402 -0.135962 255 0 0
-0.695246 -0.238559 -0.000978 204 51 127
-0.684368 0.247402 0.017346 255 0 0
-0.282790 0.046961 -0.331511 0 127 127
0.347423 -0.238559 0.243967 204 51 127
0.374464 0.247402 0.176465 255 0 0
0.033201 -0.208362 0.397738 153 0 76
0.277579 0.249765 -0.157850 255 0 0
-0.541250 0.071629 0.246321 0 127 127
0.212258 -0.236476 -0.420042 76 153 0
-0.425484 0.046961 0.262219 0 127 127
0.096381 0.222734 0.397349 255 0 0
0.812637 -0.263227 0.187707 204 51 127
-0.736529 -0.238559 0.077618 204 51 127
-0.173657 -0.238559 -0.055661 204 51 127
0.875066 0.071074 0.356174 153 0 76
0.033201 -0.102233 -0.156289 153 0 76
-0.706829 0.249765 0.134499 255 0 0
0.899733 -0.137817 -0.351131 153 0 76
-0.833330 -0.062256 -0.011441 76 0 153
-0.122345 0.071629 0.076049 0 127 127
-0.076833 -0.263227 0.092555 204 51 127
0.106304 0.249765 0.120523 255 0 0
0.053955 0.247402 0.193153 255 0 0
-0.548097 -0.263227 0.063217 204 51 127
0.033201 -0.016146 -0.144134 153 0 76
0.206705 0.135806 -0.420042 76 153 0
0.567991 -0.021051 -0.444709 76 153 0
-0.696406 0.247402 0.283500 255 0 0
-0.652362 -0.263227 0.301623 204 51 127
0.205661 0.222734 -0.254901 255 0 0
-0.133888 0.247402 -0.375809 255 0 0
0.564986 0.105663 -0.420042 76 153 0
0.126596 -0.238559 -0.020477 204 51 127
-0.857997 -0.216021 0.287559 76 0 153
0.782019 -0.304470 -0.329806 76 0 153
0.748359 0.222734 -0.041032 255 0 0
0.363448 0.249765 0.034191 255 0 0
-0.450686 -0.238559 0.109615 204 51 127
0.609843 -0.181787 0.426770 153 76 0
-0.833330 -0.114524 0.329896 76 0 153
0.765749 -0.263227 0.198490 204 51 127
-0.174224 0.222734 -0.296607 255 0 0
-0.147140 0.249765 -0.255574 255 0 0
0.875066 0.142519 -0.084545 153 0 76
0.683807 0.222734 -0.125093 255 0 0
-0.833330 0.120255 0.154055 76 0 153
-0.512500 0.222734 -0.106130 255 0 0
0.847345 0.170550 -0.444709 76 153 0
-0.366347 -0.176204 0.426770 76 0 153
0.506371 0.017196 -0.444709 76 153 0
-0.754355 0.247402 0.379813 255 0 0
-0.454633 0.222734 0.355312 255 0 0
0.482132 0.046961 -0.182262 0 127 127
-0.857997 0.015921 0.259096 76 0 153
-0.264369 0.247402 -0.414385 255 0 0
0.522055 0.046961 -0.019098 0 127 127
0.303853 -0.238559 0.322916 204 51 127
-0.681985 -0.184608 -0.444709 76 153 0
0.008534 -0.130860 0.245289 153 0 76
0.066807 0.249765 -0.348240 255 0 0
-0.470377 -0.238559 0.253949 204 51 127
0.542980 -0.263227 -0.340334 204 51 127
-0.833330 0.118410 0.057216 76 0 153
-0.639029 0.074974 -0.444709 76 153 0
0.609862 0.157991 -0.420042 76 153 0
0.579402 0.222734 -0.127750 255 0 0
0.074414 0.205961 -0.444709 76 153 0
0.205475 0.046961 -0.229199 0 127 127
0.033201 0.097958 0.053217 153 0 76
0.421131 -0.236388 -0.444709 76 153 0
0.899733 -0.063088 0.175103 153 0 76
0.071385 -0.263227 0.279465 204 51 127
0.379442 0.023467 0.426770 153 76 0
0.140044 0.222734 -0.255595 255 0 0
-0.489693 0.071629 0.390927 0 127 127
-0.165694 0.249765 -0.002328 255 0 0
-0.303639 0.046961 -0.004674 0 127 127
-0.627193 0.071629 -0.081025 0 127 127
0.318232 0.247402 0.238452 255 0 0
-0.166321 0.249765 0.278285 255 0 0
0.200668 0.046961 0.264147 0 127 127
-0.102329 -0.263227 -0.088702 204 51 127
-0.759556 -0.308805 -0.403267 76 0 153
-0.494354 -0.238559 -0.413410 204 51 127
-0.745189 0.071629 0.139402 0 127 127
0.033201 -0.057705 -0.353669 153 0 76
0.138276 0.222734 0.153421 255 0 0
0.837799 0.071629 0.050141 0 127 127
0.694678 0.046961 -0.102046 0 127 127
0.040954 0.046961 0.334067 0 127 127
0.165976 -0.238559 -0.134558 204 51 127
0.763249 -0.263227 0.359722 204 51 127
-0.805324 0.108239 -0.444709 76 153 0
-0.857997 0.147649 0.301956 76 0 153
0.875066 -0.163190 0.279446 153 0 76
0.711574 -0.263227 -0.353153 204 51 127
-0.857997 -0.071070 0.326957 76 0 153
0.033201 0.186311 0.344247 153 0 76
0.297235 -0.210324 0.426770 153 76 0
0.529567 -0.263227 0.371824 204 51 127
0.315777 -0.238559 -0.430498 204 51 127
0.228549 0.071629 -0.322260 0 127 127
0.131850 0.046961 -0.374548 0 127 127
-0.075333 -0.203225 0.397229 76 0 153
0.033201 -0.231109 -0.416328 153 0 76
0.886417 -0.064807 0.426770 153 0 76
-0.833330 0.096370 -0.391843 76 0 153
0.792428 0.046961 0.069733 0 127 127
-0.833330 0.168067 0.236960 76 0 153
-0.501326 -0.238559 0.048167 204 51 127
-0.828830 0.071629 -0.083120 0 127 127
0.462312 0.071629 -0.284340 0 127 127
-0.764517 -0.031181 -0.444709 76 153 0
0.480112 0.046961 -0.138178 0 127 127
0.465203 0.247402 -0.334581 255 0 0
-0.414380 0.249765 -0.426481 76 153 0
0.625057 -0.190308 -0.420042 76 153 0
-0.833330 -0.152133 -0.185409 76 0 153
0.033201 -0.166211 0.213881 153 0 76
0.231687 -0.188071 -0.444709 76 153 0
0.025766 0.247402 0.141362 255 0 0
-0.220828 0.071629 0.244116 0 127 127
0.105318 -0.222209 -0.444709 76 153 0
-0.034475 0.046961 -0.341542 0 127 127
-0.024248 0.222734 0.271549 255 0 0
-0.052739 0.249765 0.227743 255 0 0
-0.560321 0.046961 0.225094 0 127 127
0.009221 0.222734 -0.379597 255 0 0
0.561691 -0.238559 -0.423785 204 51 127
0.875066 -0.022934 -0.133105 153 0 76
0.750969 0.071629 -0.210684 0 127 127
0.628423 -0.050737 -0.420042 76 153 0
0.097551 -0.263227 -0.363024 204 51 127
0.109008 -0.160185 0.426770 153 76 0
0.008534 -0.112501 0.321798 153 0 76
0.008534 0.096038 0.242009 153 0 76
-0.247661 0.222734 -0.069875 255 0 0
-0.327173 -0.263227 -0.342582 204 51 127
-0.396234 0.247402 0.409130 255 0 0
0.059246 0.247402 0.364645 255 0 0
0.683590 -0.238559 0.215528 204 51 127
0.899733 -0.058706 -0.020947 153 0 76
0.545052 -0.238559 0.244637 204 51 127
-0.774381 -0.151298 0.426770 76 0 153
-0.606683 0.071629 -0.224779 0 127 127
0.647764 0.231222 0.426770 255 0 0
0.399146 -0.263227 -0.353272 204 51 127
-0.643446 0.222734 0.184327 255 0 0
0.804866 -0.238559 0.296669 204 51 127
0.008534 -0.165257 -0.341118 153 0 76
0.033201 0.020536 -0.012688 153 0 76
0.008534 0.162568 -0.391050 153 0 76
0.705453 -0.263227 -0.320224 204 51 127
0.875066 -0.078908 0.159783 153 0 76
0.774945 0.247402 0.384939 255 0 0
-0.728415 0.222734 -0.167730 255 0 0
-0.474414 0.247402 -0.385475 255 0 0
-0.233735 0.222734 -0.344552 255 0 0
0.875066 -0.039204 -0.009600 153 0 76
0.489357 0.204785 -0.420042 76 153 0
-0.522244 0.247402 -0.181525 255 0 0
0.899733 -0.129139 0.313059 153 0 76
0.875066 0.135209 0.168563 153 0 76
-0.162826 -0.189942 0.397229 76 0 153
0.816353 0.071629 0.122618 0 127 127
0.290363 0.071629 0.247678 0 127 127
0.546733 0.046961 -0.087013 0 127 127
0.786309 0.249765 0.044458 255 0 0
0.888328 -0.089490 -0.444709 76 153 0
-0.037992 0.041807 0.397229 76 0 153
-0.686905 0.222734 0.180137 255 0 0
0.242924 -0.263227 -0.383754 204 51 127
0.043481 -0.263227 -0.125151 204 51 127
0.519346 0.247402 -0.261171 255 0 0
-0.432453 0.046961 -0.161579 0 127 127
-0.344232 0.076665 -0.420042 76 153 0
-0.259289 0.071629 -0.122576 0 127 127
0.501960 0.247402 -0.347102 255 0 0
0.008534 0.193717 0.306178 153 0 76
-0.599009 0.247402 0.259077 255 0 0
0.829609 0.071629 -0.229557 0 127 127
0.354865 0.071629 0.308041 0 127 127
-0.844783 0.249765 0.124082 76 0 153
-0.634287 0.017948 0.426770 76 0 153
0.673735 0.046961 0.358656 0 127 127
-0.585027 -0.062136 -0.444709 76 153 0
-0.107728 -0.263227 0.420441 204 51 127
-0.473054 0.222734 -0.305883 255 0 0
0.008534 -0.011586 0.273247 153 0 76
-0.086309 0.046961 -0.403408 0 127 127
0.666893 0.079440 -0.420042 76 153 0
-0.824583 -0.214238 -0.420042 76 153 0
-0.429588 0.247402 0.353670 255 0 0
0.163777 0.042530 0.404521 153 76 0
0.693316 0.071629 -0.305008 0 127 127
-0.752988 -0.225646 0.426770 76 0 153
-0.068570 -0.238559 -0.349664 204 51 127
-0.146459 -0.193612 -0.444709 76 153 0
0.664236 -0.238559 0.398392 204 51 127
-0.138760 0.249765 -0.406396 255 0 0
0.309685 -0.024969 -0.420042 76 153 0
0.458443 0.247402 -0.254880 255 0 0
-0.550880 0.247402 0.200153 255 0 0
0.223256 -0.238559 0.256772 204 51 127
0.241360 0.046961 0.085238 0 127 127
0.826830 0.247402 -0.255971 255 0 0
0.341787 -0.216691 -0.444709 76 153 0
-0.354767 0.046961 0.396604 0 127 127
-0.174591 0.046961 -0.082857 0 127 127
-0.188452 0.071629 -0.321276 0 127 127
-0.148266 0.012599 0.397229 76 0 153
0.875066 0.222592 0.318685 153 0 76
-0.218104 -0.014975 -0.420042 76 153 0
0.375387 0.247402 0.241300 255 0 0
0.610499 0.247402 0.392646 255 0 0
0.645737 -0.058275 0.426770 153 76 0
-0.061219 -0.263227 -0.032528 204 51 127
-0.653619 -0.238559 0.055804 204 51 127
-0.370992 0.071629 -0.360760 0 127 127
0.014820 0.046961 -0.141598 0 127 127
-0.721740 0.222734 -0.043638 255 0 0
0.694361 0.071629 -0.050428 0 127 127
-0.833330 -0.188834 -0.223082 76 0 153
-0.480870 -0.263227 -0.208996 204 51 127
-0.662558 -0.156680 -0.420042 76 153 0
0.118152 -0.079278 0.426770 153 76 0
0.633502 -0.263227 0.256441 204 51 127
0.860298 -0.238559 0.015928 204 51 127
-0.010873 0.071629 -0.395390 0 127 127
-0.090947 0.222734 -0.008095 255 0 0
-0.857997 -0.020914 0.020273 76 0 153
0.435209 0.222734 -0.044145 255 0 0
0.644586 0.249765 -0.422033 76 153 0
0.158260 0.222734 0.217252 255 0 0
0.170931 0.071629 -0.187462 0 127 127
0.615592 -0.238559 0.091219 204 51 127
0.008534 -0.195374 0.214020 153 0 76
0.595538 0.046961 0.337504 0 127 127
-0.765820 0.249765 -0.244417 255 0 0
0.820045 -0.344247 0.329347 76 153 0
-0.290990 0.222734 -0.345605 255 0 0
0.690711 0.247402 0.299359 255 0 0
0.146400 -0.238559 0.310664 204 51 127
0.622824 0.046961 0.185491 0 127 127
-0.242124 0.046961 0.229440 0 127 127
-0.825041 -0.238559 -0.248354 204 51 127
-0.723318 0.247402 -0.022907 255 0 0
-0.530708 -0.263227 0.417045 204 51 127
0.899733 0.222584 -0.100603 153 0 76
-0.833330 -0.178686 -0.340556 76 0 153
-0.800448 0.046961 -0.252842 0 127 127
0.875066 -0.000944 -0.271208 153 0 76
0.309605 -0.066005 -0.444709 76 153 0
-0.271933 0.046961 0.373722 0 127 127
-0.569198 0.247402 -0.070277 255 0 0
-0.779770 0.126460 -0.444709 76 153 0
-0.857997 0.225474 -0.104347 76 0 153
-0.269705 0.249765 0.355335 255 0 0
0.008534 0.190538 -0.276158 153 0 76
-0.827653 0.071629 0.185573 0 127 127
-0.051537 -0.238559 -0.218091 204 51 127
0.747416 0.020559 0.397229 153 76 0
-0.468111 0.247402 -0.188469 255 0 0
0.457691 0.071629 0.092692 0 127 127
-0.726148 -0.070517 0.397229 76 0 153
0.795162 0.046961 -0.094185 0 127 127
0.426585 0.249765 0.161283 255 0 0
0.899733 0.221172 0.126412 153 0 76
0.026932 -0.238559 -0.049755 153 0 76
0.008534 -0.026171 -0.323048 153 0 76
-0.261521 -0.176478 0.426770 76 0 153
-0.222679 0.249765 -0.424239 76 153 0
