ply
format ascii 1.0
element vertex 1248
property float x
property float y
property float z
property uchar red
property uchar green
property uchar blue
end_header
-0.338613 -0.697532 0.473679 127 0 127
-0.116075 0.391726 -0.569090 0 127 127
-0.420750 -0.652173 -0.573029 127 0 127
0.459192 -0.697532 -0.071194 127 0 127
-0.304614 0.451297 -0.569090 0 127 127
-0.442858 -0.062814 -0.569090 0 127 127
0.071524 0.012515 -0.569090 0 127 127
-0.219795 -0.697532 -0.151342 127 0 127
-0.185979 0.299975 0.490670 153 0 76
-0.423500 0.085134 0.301288 0 127 127
-0.441487 0.058919 0.399106 0 127 127
-0.471574 -0.472539 0.242619 0 127 127
0.489893 -0.516153 0.210288 0 127 127
0.225571 -0.697532 0.240927 127 0 127
-0.052511 -0.697532 0.362342 127 0 127
0.244456 -0.697532 0.043657 127 0 127
-0.423500 -0.456980 -0.188941 0 127 127
-0.262238 -0.560539 0.410032 153 0 76
0.200566 0.157409 0.428300 153 0 76
-0.388220 0.557183 0.483104 153 0 76
-0.471574 0.196005 -0.454483 0 127 127
0.389966 -0.595341 -0.527073 0 127 127
0.096222 -0.376489 0.491918 153 0 76
0.091141 0.780486 -0.202391 0 127 127
0.196773 0.142295 -0.514287 0 127 127
-0.148601 0.711695 0.001337 0 127 127
-0.358343 -0.227492 -0.569090 0 127 127
-0.010325 0.505315 0.483104 153 0 76
0.033151 0.780486 -0.216167 0 127 127
0.103001 -0.239692 0.428300 153 0 76
-0.248728 -0.576469 -0.569090 0 127 127
-0.423500 -0.024052 -0.166060 0 127 127
-0.418662 -0.507981 -0.018054 0 127 127
-0.471574 -0.332290 0.474196 153 0 76
-0.471574 -0.419258 0.180109 0 127 127
-0.344425 -0.599258 0.176033 127 0 127
0.019213 -0.300848 0.428300 153 0 76
0.441819 -0.035837 0.031839 0 127 127
-0.327402 -0.538116 0.428300 153 0 76
0.489893 0.074105 -0.165679 0 127 127
0.359294 -0.697532 -0.462988 127 0 127
-0.408126 0.527432 -0.569090 0 127 127
-0.471574 0.176334 0.154845 0 127 127
0.441819 -0.108739 -0.377481 0 127 127
-0.471574 0.560906 0.170642 0 127 127
0.434034 -0.666796 0.495641 127 0 127
-0.471574 0.604989 -0.189528 0 127 127
-0.304031 -0.394949 0.428300 153 0 76
0.489893 0.039291 -0.354476 0 127 127
-0.385993 -0.379508 0.483104 153 0 76
-0.238674 -0.595341 -0.229914 0 127 127
-0.173056 -0.595341 0.270082 0 127 127
-0.421945 -0.500616 -0.383714 0 127 127
-0.423500 0.636539 -0.067985 0 127 127
0.012856 0.508014 0.428300 153 0 76
0.432205 0.017113 0.419776 153 0 76
-0.135535 -0.599258 -0.412421 127 0 127
0.089205 -0.599258 0.194415 127 0 127
0.254022 -0.599258 -0.033710 127 0 127
-0.423500 -0.158572 0.280666 0 127 127
-0.165248 -0.586663 0.483104 153 0 76
-0.077886 -0.288716 0.491918 153 0 76
0.132253 -0.359963 0.491576 153 0 76
0.046349 -0.526550 0.274132 0 127 127
0.182295 -0.531720 0.428300 153 0 76
0.489893 0.155837 -0.018401 0 127 127
-0.471574 0.712544 0.243054 0 127 127
0.489893 -0.521381 -0.396857 0 127 127
-0.423500 0.172495 -0.482416 0 127 127
0.196191 -0.595341 -0.215173 0 127 127
-0.423500 -0.477870 -0.338262 0 127 127
0.031823 -0.183640 -0.514287 0 127 127
-0.471574 0.214806 -0.067356 0 127 127
0.248316 0.277936 -0.569090 0 127 127
0.015308 0.780486 0.326319 0 127 127
-0.423500 0.455047 -0.230569 0 127 127
-0.423500 -0.160061 -0.302829 0 127 127
-0.471574 0.748289 0.066138 0 127 127
-0.471574 0.735451 -0.451837 0 127 127
0.471435 -0.697532 0.048124 127 0 127
0.475378 0.098224 0.483610 153 0 76
-0.199983 -0.595341 -0.460342 0 127 127
0.144215 0.018023 0.428300 153 0 76
-0.471574 -0.230793 0.385606 0 127 127
-0.423500 -0.303104 -0.500410 0 127 127
-0.471574 -0.390107 0.242315 0 127 127
-0.100446 0.029252 -0.514287 0 127 127
0.249070 -0.030465 -0.514287 0 127 127
-0.143285 -0.120625 0.428300 153 0 76
0.183115 0.711695 0.363592 0 127 127
-0.263612 -0.326247 -0.514287 0 127 127
0.267956 -0.599258 0.180491 127 0 127
-0.115498 0.558583 -0.514287 0 127 127
-0.277050 0.780486 -0.222765 0 127 127
-0.423500 -0.093078 0.394987 0 127 127
-0.200340 0.418949 0.490442 153 0 76
-0.423500 -0.014979 0.337189 0 127 127
0.005456 -0.245952 -0.514287 0 127 127
0.461925 -0.563784 0.410032 153 0 76
0.441819 -0.415076 -0.026005 0 127 127
0.002587 0.167342 -0.514287 0 127 127
0.221488 0.115283 -0.569090 0 127 127
0.121937 -0.082138 0.491674 153 0 76
-0.423500 0.328334 -0.003373 0 127 127
0.448401 0.145310 0.410032 153 0 76
0.174689 -0.697532 -0.438832 127 0 127
-0.429961 0.762316 -0.569090 0 127 127
0.432205 -0.122355 0.418420 153 0 76
0.438589 -0.082321 0.484891 153 0 76
-0.471574 -0.074126 0.237456 0 127 127
0.138765 -0.599258 -0.220798 127 0 127
-0.471574 0.488415 -0.244256 0 127 127
0.489893 -0.020337 -0.285492 0 127 127
0.489893 0.467661 -0.523601 0 127 127
0.274351 0.213903 -0.569090 0 127 127
0.204974 -0.636997 -0.573029 127 0 127
-0.387179 -0.510068 0.486017 153 0 76
-0.404835 -0.020156 -0.569090 0 127 127
0.397286 0.780486 -0.140678 0 127 127
0.286958 -0.526550 -0.179927 0 127 127
-0.038325 0.006748 0.492088 153 0 76
-0.471574 -0.434753 -0.558376 0 127 127
0.489893 0.105958 -0.472924 0 127 127
0.489893 -0.290882 0.269860 0 127 127
-0.106169 -0.245376 -0.514287 0 127 127
-0.186716 0.753684 0.464961 0 127 127
0.336743 -0.304421 -0.569090 0 127 127
0.449217 -0.595341 -0.154614 0 127 127
-0.471574 0.382256 0.359477 0 127 127
0.489893 -0.562768 0.311542 0 127 127
-0.471574 -0.301783 -0.468952 0 127 127
0.049003 -0.526550 0.164279 0 127 127
0.441819 -0.410997 0.031814 0 127 127
-0.023117 -0.599258 -0.362393 127 0 127
-0.187996 0.711695 0.263789 0 127 127
-0.423500 0.672713 0.182226 0 127 127
-0.471574 0.019515 -0.372525 0 127 127
0.182511 0.403118 -0.514287 0 127 127
0.489893 0.622060 0.097710 0 127 127
0.093300 -0.371902 -0.569090 0 127 127
0.441819 0.160392 -0.304974 0 127 127
-0.407365 0.780486 0.386341 0 127 127
0.489893 0.225962 -0.081456 0 127 127
-0.472779 0.753684 -0.217267 0 127 127
-0.382548 -0.697532 0.244689 127 0 127
0.441819 0.532243 0.383370 0 127 127
0.256598 0.711695 0.022406 0 127 127
-0.281496 -0.461784 -0.569090 0 127 127
0.489893 -0.144356 0.108816 0 127 127
0.125072 -0.599258 -0.389845 127 0 127
0.131206 -0.595341 -0.254519 0 127 127
0.441819 -0.383129 0.394109 0 127 127
-0.445891 -0.697532 0.053415 127 0 127
-0.377056 -0.599258 0.121763 127 0 127
-0.471574 0.555131 -0.015471 0 127 127
-0.011403 -0.526550 -0.290778 0 127 127
0.177514 -0.526550 -0.493257 0 127 127
0.227155 0.780486 0.050362 0 127 127
0.489893 -0.112061 -0.185201 0 127 127
-0.344233 0.332497 0.428300 153 0 76
0.076958 0.780486 -0.528299 0 127 127
0.252670 0.430293 0.428300 153 0 76
-0.158823 -0.595341 -0.120152 0 127 127
-0.471574 0.067350 -0.144866 0 127 127
0.253550 0.130519 0.428300 153 0 76
-0.306436 0.224573 -0.569090 0 127 127
-0.135335 -0.292808 -0.514287 0 127 127
0.358619 0.399323 0.483104 153 0 76
-0.224975 -0.595341 -0.121432 0 127 127
-0.471574 -0.277980 -0.186268 0 127 127
0.007190 0.069453 0.492232 153 0 76
-0.290789 0.711695 -0.114803 0 127 127
-0.471574 -0.259019 0.114762 0 127 127
0.489893 0.333665 -0.524865 0 127 127
-0.450175 0.780486 -0.093095 0 127 127
-0.423500 -0.213996 0.042746 0 127 127
0.071395 0.139953 0.492041 153 0 76
-0.471574 -0.175672 -0.287075 0 127 127
-0.074847 -0.095029 0.491947 153 0 76
-0.040773 0.526068 0.428300 153 0 76
0.095375 0.611168 -0.569090 0 127 127
0.489893 0.384324 -0.404405 0 127 127
0.441819 -0.321089 -0.243139 0 127 127
0.331518 -0.526550 0.361539 0 127 127
0.067023 0.753621 0.399106 0 127 127
-0.102803 -0.526550 -0.361775 0 127 127
0.088170 -0.697532 -0.373236 127 0 127
-0.423500 -0.008403 0.023606 0 127 127
0.127915 -0.094929 -0.569090 0 127 127
-0.303959 0.561205 0.428300 153 0 76
0.160128 0.711695 0.190979 0 127 127
-0.259132 -0.697532 0.258024 127 0 127
-0.375219 -0.576508 0.486357 153 0 76
-0.451638 -0.004022 0.399106 0 127 127
0.294619 0.780486 0.419766 0 127 127
0.489893 0.090746 0.279300 0 127 127
0.230618 0.595906 0.428300 153 0 76
0.053772 -0.504345 -0.569090 0 127 127
-0.471574 0.122767 -0.191176 0 127 127
0.359823 -0.697532 -0.173429 127 0 127
0.452202 -0.697532 -0.446028 127 0 127
0.075498 0.711695 0.069685 0 127 127
0.336705 0.342956 -0.569090 0 127 127
0.441819 0.013061 -0.071617 0 127 127
0.108889 0.780486 0.450686 0 127 127
-0.328688 -0.653006 -0.573029 127 0 127
-0.423500 0.299947 -0.507566 0 127 127
0.007598 0.780486 0.400666 0 127 127
0.453734 -0.155717 0.483104 153 0 76
-0.124936 -0.697532 -0.418309 127 0 127
-0.052133 -0.677384 0.495641 127 0 127
-0.471574 -0.480796 -0.524134 0 127 127
-0.023098 -0.526550 0.370356 0 127 127
0.489893 0.611926 -0.355909 0 127 127
0.116020 -0.697532 0.201329 127 0 127
0.489893 0.686512 0.319936 0 127 127
0.441819 0.034772 -0.249668 0 127 127
-0.373102 -0.247331 -0.514287 0 127 127
0.489893 0.200636 0.393156 0 127 127
0.060665 -0.599258 -0.055284 127 0 127
0.129420 -0.411863 -0.569090 0 127 127
-0.134725 0.780486 -0.468078 0 127 127
0.489893 0.274946 0.070205 0 127 127
0.083078 -0.697532 -0.413520 127 0 127
-0.097595 -0.526550 -0.173536 0 127 127
-0.281063 0.028212 0.428300 153 0 76
-0.297950 0.711695 -0.163311 0 127 127
0.032295 -0.397575 -0.514287 0 127 127
-0.242763 -0.526550 -0.313670 0 127 127
-0.029212 -0.041246 0.483104 153 0 76
-0.052384 -0.526550 -0.035098 0 127 127
0.353123 -0.526550 0.265368 0 127 127
0.388389 -0.526550 -0.482116 0 127 127
0.489893 0.297856 -0.519756 0 127 127
-0.471574 0.397881 0.042307 0 127 127
0.144295 0.474886 0.495899 153 0 76
-0.423500 -0.176429 -0.357931 0 127 127
-0.423500 -0.382886 -0.219185 0 127 127
-0.235124 0.780486 0.100835 0 127 127
0.074738 -0.697532 -0.563386 127 0 127
0.134658 -0.599258 0.174622 127 0 127
-0.032321 0.780486 0.354657 0 127 127
0.489893 0.276660 0.310664 0 127 127
-0.423500 -0.392763 -0.491250 0 127 127
0.117288 0.780486 -0.366715 0 127 127
-0.471574 -0.331251 -0.369600 0 127 127
0.414330 0.490138 -0.514287 0 127 127
0.441819 -0.212560 -0.200935 0 127 127
-0.091415 0.711695 -0.481792 0 127 127
0.388356 -0.526550 0.129837 0 127 127
-0.081078 -0.225831 0.428300 153 0 76
0.352062 0.711695 -0.501903 0 127 127
0.171880 -0.595341 -0.238975 0 127 127
0.182726 -0.275429 0.483104 153 0 76
0.471044 0.752655 -0.569090 0 127 127
0.441819 0.139632 -0.119334 0 127 127
0.441819 -0.274793 -0.423800 0 127 127
-0.250203 -0.442275 -0.514287 0 127 127
-0.471574 -0.352939 -0.443388 0 127 127
-0.118304 -0.526550 0.256832 0 127 127
0.096886 -0.697532 0.019834 127 0 127
0.185098 -0.656624 0.495641 127 0 127
0.417300 0.708942 -0.446675 0 127 127
0.441819 -0.015549 -0.322809 0 127 127
-0.471574 0.206507 0.027281 0 127 127
0.489893 -0.426053 -0.566464 0 127 127
-0.276919 -0.697532 0.443703 127 0 127
0.201916 0.086062 -0.569090 0 127 127
0.178250 -0.599258 -0.483752 127 0 127
-0.092344 -0.024357 0.491781 153 0 76
0.054082 -0.046668 -0.514287 0 127 127
-0.423500 0.075451 0.097350 0 127 127
-0.426039 -0.697532 0.396581 127 0 127
0.241001 -0.137664 0.483104 153 0 76
-0.364874 -0.599258 -0.282634 127 0 127
-0.413387 0.399541 0.428300 153 0 76
0.149584 0.780486 0.173164 0 127 127
-0.471574 -0.298080 0.354845 0 127 127
-0.179380 -0.697532 0.468457 127 0 127
-0.336860 0.780486 0.353546 0 127 127
-0.278787 -0.272088 -0.569090 0 127 127
0.076955 -0.160619 -0.514287 0 127 127
-0.423500 0.672536 -0.064048 0 127 127
0.074906 0.070768 -0.514287 0 127 127
0.441819 0.385196 0.064204 0 127 127
-0.446601 0.780486 -0.530457 0 127 127
-0.437254 -0.056416 0.399106 0 127 127
0.489893 -0.041154 0.185711 0 127 127
-0.327958 -0.080549 0.428300 153 0 76
0.122944 0.054374 -0.514287 0 127 127
0.397401 0.650377 0.483104 153 0 76
0.489893 -0.364742 0.118261 0 127 127
-0.355425 0.744750 0.448554 153 0 76
-0.020189 -0.415276 0.483104 153 0 76
-0.070088 -0.599258 -0.493181 127 0 127
0.422722 -0.629086 -0.573029 127 0 127
0.203872 -0.595341 -0.512255 0 127 127
-0.423500 -0.479617 0.251082 0 127 127
-0.362011 0.217980 -0.569090 0 127 127
0.161436 0.095141 -0.569090 0 127 127
-0.070816 0.572673 0.483104 153 0 76
-0.192131 -0.697532 -0.099730 127 0 127
0.025211 0.283757 0.492187 153 0 76
0.037036 0.780486 -0.164719 0 127 127
-0.471574 -0.332153 -0.079906 0 127 127
0.394886 -0.599258 -0.352124 127 0 127
-0.200468 -0.599258 0.303914 127 0 127
0.143892 0.665337 0.491465 153 0 76
0.489893 0.048916 0.317218 0 127 127
0.489893 0.287486 -0.369620 0 127 127
-0.423500 0.414226 -0.444307 0 127 127
-0.263812 0.780486 0.035373 0 127 127
-0.104829 0.501078 -0.569090 0 127 127
-0.175103 0.711695 -0.354754 0 127 127
-0.423500 0.557230 0.174945 0 127 127
0.126259 0.711695 0.239590 0 127 127
-0.395631 0.324554 0.487350 153 0 76
0.467884 0.780486 0.195127 0 127 127
-0.123210 -0.526550 -0.255213 0 127 127
-0.471574 -0.384316 -0.031953 0 127 127
0.407434 0.733799 0.428300 153 0 76
0.066954 -0.599258 -0.209276 127 0 127
-0.423500 0.110512 -0.038126 0 127 127
-0.258691 -0.697532 -0.416394 127 0 127
0.051596 0.780486 -0.276807 0 127 127
0.441819 -0.043843 -0.110544 0 127 127
-0.423500 0.276903 -0.170663 0 127 127
0.489893 0.405693 0.196673 0 127 127
-0.423500 0.651711 0.004189 0 127 127
-0.385720 0.780486 -0.369397 0 127 127
0.441819 -0.088282 0.239518 0 127 127
-0.471574 0.292345 0.238499 0 127 127
-0.054077 -0.107554 0.428300 153 0 76
-0.184996 -0.697532 0.260806 127 0 127
-0.232945 -0.697532 -0.322976 127 0 127
-0.215788 0.635899 0.428300 153 0 76
-0.123616 -0.599258 -0.221828 127 0 127
-0.010972 0.711695 -0.397137 0 127 127
-0.248306 0.261367 -0.514287 0 127 127
-0.423500 0.519878 -0.348796 0 127 127
0.371383 0.099555 0.486988 153 0 76
0.270700 -0.697532 -0.517367 127 0 127
-0.102280 0.364622 0.428300 153 0 76
-0.076387 -0.181717 -0.569090 0 127 127
0.503088 -0.631442 -0.310333 127 0 127
0.282917 -0.697532 -0.206472 127 0 127
-0.464093 0.323276 0.483104 153 0 76
0.084219 0.048165 0.483104 153 0 76
-0.359186 -0.697532 -0.462061 127 0 127
-0.443421 0.092884 -0.569090 0 127 127
-0.292010 -0.189458 0.488606 153 0 76
0.320653 -0.595341 0.112334 0 127 127
0.324644 0.711695 -0.230386 0 127 127
-0.200659 0.780486 0.118705 0 127 127
-0.383760 -0.697532 0.177502 127 0 127
0.489893 -0.578401 0.016931 0 127 127
-0.418860 0.082106 0.483104 153 0 76
-0.103001 0.711695 0.022740 0 127 127
-0.159580 0.721260 0.399106 0 127 127
-0.414478 -0.595341 -0.486669 0 127 127
0.441819 0.334329 0.229372 0 127 127
-0.105207 -0.123304 -0.569090 0 127 127
-0.375986 0.780486 0.450080 0 127 127
0.489893 0.448884 -0.102870 0 127 127
-0.443200 -0.595341 -0.298289 0 127 127
0.441819 0.084684 0.130836 0 127 127
-0.242085 0.618663 -0.514287 0 127 127
-0.207882 0.711695 -0.144851 0 127 127
-0.331880 -0.479719 0.428300 153 0 76
-0.281605 -0.697532 -0.189490 127 0 127
-0.101742 -0.155671 0.483104 153 0 76
0.301819 0.078842 0.428300 153 0 76
0.319913 -0.142617 0.488393 153 0 76
0.189690 0.077423 0.428300 153 0 76
0.215366 0.780486 -0.420928 0 127 127
0.330447 0.669683 0.428300 153 0 76
-0.389672 0.780486 -0.227599 0 127 127
0.489893 -0.201107 0.165413 0 127 127
0.382372 -0.599258 0.307026 127 0 127
0.126796 -0.697532 -0.429108 127 0 127
-0.471574 0.708716 -0.333436 0 127 127
-0.389002 0.711695 0.109457 0 127 127
-0.379288 0.780486 0.090595 0 127 127
0.309284 0.711695 -0.394179 0 127 127
-0.296360 -0.148555 -0.569090 0 127 127
-0.123288 -0.697532 0.246025 127 0 127
0.251750 -0.599258 0.055670 127 0 127
0.123271 -0.526550 0.163620 0 127 127
0.441819 0.148068 -0.217244 0 127 127
-0.423500 0.582189 0.374505 0 127 127
-0.423500 -0.428661 -0.405734 0 127 127
0.002060 0.338644 -0.569090 0 127 127
-0.385084 0.638911 0.428300 153 0 76
-0.471574 -0.485582 0.278350 0 127 127
0.489893 0.732065 0.452484 153 0 76
-0.172506 0.780486 -0.195297 0 127 127
-0.418808 -0.089448 -0.569090 0 127 127
-0.403345 0.710311 0.249786 0 127 127
0.254576 -0.311657 0.483104 153 0 76
-0.423317 -0.153342 -0.569090 0 127 127
0.250745 0.079727 -0.514287 0 127 127
0.367390 0.007901 0.487102 153 0 76
0.046387 0.744750 0.460465 153 0 76
-0.111320 0.744750 0.458500 153 0 76
0.408727 -0.554828 -0.569090 0 127 127
0.465740 0.435396 -0.569090 0 127 127
0.122356 0.579834 0.428300 153 0 76
0.489893 -0.033025 -0.317259 0 127 127
0.428634 0.519970 -0.569090 0 127 127
0.030303 0.663044 -0.514287 0 127 127
-0.084361 0.165581 -0.514287 0 127 127
-0.382257 0.677350 0.483104 153 0 76
0.023543 0.780486 0.016084 0 127 127
0.353789 -0.526432 0.428300 153 0 76
-0.071285 -0.697532 -0.377486 127 0 127
-0.423500 0.432475 0.359405 0 127 127
0.373569 -0.416139 0.486926 153 0 76
0.459711 -0.595341 -0.541191 0 127 127
-0.423500 -0.063080 -0.222022 0 127 127
0.122553 -0.595341 -0.323895 0 127 127
0.243527 0.108844 0.483104 153 0 76
0.430290 -0.516273 0.359694 0 127 127
0.489893 -0.037854 -0.153174 0 127 127
0.489893 -0.085210 0.355297 0 127 127
0.489893 0.205188 0.210052 0 127 127
0.411553 0.710692 0.259977 0 127 127
-0.239475 -0.697532 -0.547927 127 0 127
0.351548 -0.663567 0.495641 127 0 127
0.090557 -0.323850 -0.569090 0 127 127
-0.423500 -0.457209 0.303597 0 127 127
0.432205 0.474005 0.425152 153 0 76
-0.267032 0.142452 0.483104 153 0 76
-0.471574 -0.103173 -0.542547 0 127 127
-0.423500 0.061428 -0.263157 0 127 127
0.441819 -0.161718 -0.464189 0 127 127
-0.422751 0.690183 0.002519 0 127 127
-0.471574 -0.564541 -0.462967 0 127 127
0.141065 -0.595341 0.240490 0 127 127
0.489893 -0.169049 -0.391639 0 127 127
-0.032007 -0.618897 0.495641 127 0 127
0.381878 0.532418 -0.514287 0 127 127
-0.471574 -0.297537 -0.427924 0 127 127
0.041005 -0.526550 -0.098016 0 127 127
-0.471574 0.391497 -0.174957 0 127 127
-0.349399 0.590450 -0.569090 0 127 127
-0.471574 -0.110155 0.372943 0 127 127
-0.471574 -0.539692 0.248279 0 127 127
0.489893 0.230330 -0.046818 0 127 127
0.441819 0.654357 -0.317989 0 127 127
0.489893 0.461541 -0.004324 0 127 127
-0.210369 0.780486 0.437114 0 127 127
-0.127259 -0.697532 0.281366 127 0 127
0.489893 -0.282268 -0.158861 0 127 127
0.042266 -0.599258 0.397157 127 0 127
-0.045985 -0.432788 0.428300 153 0 76
0.441819 -0.353083 0.333763 0 127 127
0.046577 -0.526550 0.394645 0 127 127
0.276041 -0.486577 0.489366 153 0 76
0.489893 0.449140 -0.388715 0 127 127
0.149067 0.044519 0.483104 153 0 76
0.031178 -0.587505 -0.569090 0 127 127
0.392877 0.355844 -0.514287 0 127 127
0.119606 0.036688 -0.569090 0 127 127
0.297134 0.443793 -0.569090 0 127 127
-0.414279 0.780486 -0.497162 0 127 127
-0.237386 -0.044204 0.489817 153 0 76
-0.471574 0.278538 -0.295414 0 127 127
0.213056 0.743467 0.428300 153 0 76
0.283966 -0.526550 -0.112154 0 127 127
0.037057 0.780486 0.455349 0 127 127
0.441819 -0.383376 0.178644 0 127 127
-0.471574 -0.145404 -0.147791 0 127 127
0.279438 0.741467 0.399106 0 127 127
0.502451 -0.599258 -0.269576 127 0 127
0.109852 0.711695 0.042363 0 127 127
-0.423500 -0.455906 0.102592 0 127 127
0.387654 -0.490539 -0.569090 0 127 127
-0.306524 0.131056 0.483104 153 0 76
-0.423500 0.204193 -0.169164 0 127 127
-0.035313 -0.152903 -0.569090 0 127 127
0.335300 -0.697532 -0.111476 127 0 127
0.476873 0.719344 -0.569090 0 127 127
0.291358 -0.559991 0.489026 153 0 76
-0.328289 -0.595341 0.061101 0 127 127
-0.025614 0.639632 -0.514287 0 127 127
-0.198201 0.010160 -0.514287 0 127 127
-0.068433 -0.526550 0.134810 0 127 127
-0.313655 0.631779 0.428300 153 0 76
-0.442301 0.768614 0.474004 0 127 127
0.094192 -0.593450 -0.569090 0 127 127
-0.423500 0.679288 0.257446 0 127 127
0.441819 0.209576 -0.056138 0 127 127
-0.228704 0.379641 0.428300 153 0 76
-0.471574 0.475147 0.107461 0 127 127
-0.041326 -0.378541 0.428300 153 0 76
-0.471574 0.520347 -0.368056 0 127 127
0.489893 -0.242231 0.473575 153 0 76
-0.471574 0.517653 -0.330981 0 127 127
0.229548 -0.599258 -0.352986 127 0 127
-0.309195 -0.595341 -0.482954 0 127 127
-0.335908 -0.623072 0.495641 127 0 127
-0.244006 0.733561 0.399106 0 127 127
0.422082 0.201123 -0.569090 0 127 127
0.084601 -0.501848 0.483104 153 0 76
-0.195279 0.354237 -0.569090 0 127 127
0.315393 0.519760 0.428300 153 0 76
0.459099 -0.481185 -0.569090 0 127 127
0.441349 -0.494128 -0.510996 0 127 127
0.079124 -0.526550 -0.368004 0 127 127
-0.423500 -0.001379 0.104388 0 127 127
0.243021 -0.526550 -0.173483 0 127 127
0.503088 -0.603196 -0.099063 127 0 127
-0.248711 -0.526550 -0.452796 0 127 127
0.489893 -0.540883 0.040391 0 127 127
-0.423500 -0.113099 0.104660 0 127 127
0.361940 0.268362 0.428300 153 0 76
0.441819 0.260770 0.260286 0 127 127
0.152362 0.612542 0.483104 153 0 76
0.486654 -0.407072 0.428300 153 0 76
-0.471574 -0.159808 -0.032926 0 127 127
-0.080350 0.780486 -0.228617 0 127 127
-0.471574 0.691778 -0.270620 0 127 127
0.315108 -0.557681 0.399106 0 127 127
0.441819 -0.217898 -0.446399 0 127 127
-0.157746 0.258891 -0.514287 0 127 127
-0.007364 -0.696206 -0.573029 127 0 127
-0.265569 -0.526550 -0.353508 0 127 127
0.489893 0.497566 0.335062 0 127 127
-0.471574 0.255827 -0.376937 0 127 127
0.489893 0.674770 0.254708 0 127 127
-0.112645 0.585725 0.483104 153 0 76
0.179595 -0.697532 0.041638 127 0 127
-0.330672 0.711695 -0.209341 0 127 127
-0.477608 -0.616438 -0.077576 127 0 127
0.002402 -0.477626 -0.569090 0 127 127
-0.072590 -0.599258 -0.563065 127 0 127
-0.455880 0.602964 0.399106 0 127 127
-0.464910 -0.343582 0.428300 153 0 76
0.029374 0.113169 0.492174 153 0 76
-0.423500 -0.085756 -0.329577 0 127 127
0.372998 -0.526550 0.028553 0 127 127
-0.095229 0.081565 -0.569090 0 127 127
-0.210110 0.780486 -0.398722 0 127 127
-0.164398 0.567685 -0.569090 0 127 127
0.101127 0.526227 -0.514287 0 127 127
0.466380 0.680302 0.410032 153 0 76
-0.292143 0.711695 0.235253 0 127 127
0.489893 0.698138 -0.468033 0 127 127
0.222940 -0.697532 -0.398190 127 0 127
-0.123978 -0.427748 -0.569090 0 127 127
0.489893 0.351624 -0.326239 0 127 127
-0.423500 0.148305 -0.255568 0 127 127
-0.471574 0.477024 -0.512395 0 127 127
0.489893 -0.236273 -0.406173 0 127 127
-0.471574 0.137607 0.173647 0 127 127
-0.297938 0.780486 0.456034 0 127 127
-0.411692 -0.516473 0.398371 0 127 127
0.424727 -0.595341 -0.545462 0 127 127
0.078154 0.371684 0.483104 153 0 76
0.182532 0.112812 0.491015 153 0 76
-0.292469 0.076007 0.488595 153 0 76
-0.160925 0.254098 -0.569090 0 127 127
0.153412 0.711695 0.095230 0 127 127
0.037279 -0.459984 0.492149 153 0 76
-0.252247 -0.599258 0.078727 127 0 127
-0.471574 0.429666 0.140668 0 127 127
-0.471574 0.698001 0.213917 0 127 127
-0.123538 0.780486 0.049544 0 127 127
0.251841 -0.477351 -0.569090 0 127 127
0.235029 -0.172053 0.490183 153 0 76
-0.471574 0.015766 0.254312 0 127 127
-0.423500 0.499082 0.013009 0 127 127
-0.309319 -0.697532 0.349030 127 0 127
-0.471574 0.742038 0.339896 0 127 127
0.240363 -0.553807 0.483104 153 0 76
0.202500 0.691147 0.420497 153 0 76
-0.471574 -0.054977 -0.475570 0 127 127
0.503088 -0.672530 0.100100 127 0 127
0.299145 0.400341 0.428300 153 0 76
-0.384528 0.420879 -0.514287 0 127 127
-0.096408 0.159734 0.428300 153 0 76
-0.451811 -0.595341 0.196516 0 127 127
0.324215 -0.057694 -0.569090 0 127 127
0.094444 -0.016615 0.483104 153 0 76
-0.471574 -0.494991 -0.410929 0 127 127
-0.423500 0.494402 0.339591 0 127 127
-0.423500 0.162432 -0.012737 0 127 127
-0.471575 0.719003 0.450052 153 0 76
-0.438330 0.780486 -0.188456 0 127 127
-0.071101 -0.696074 -0.573029 127 0 127
-0.228446 0.780486 -0.223320 0 127 127
-0.220999 -0.595341 -0.260780 0 127 127
-0.120849 -0.507563 0.428300 153 0 76
-0.471574 0.088521 0.029005 0 127 127
-0.452344 0.022026 0.424262 153 0 76
0.108899 -0.485920 -0.514287 0 127 127
0.356631 -0.526550 -0.037327 0 127 127
-0.423500 0.564937 -0.096411 0 127 127
-0.267499 0.432331 -0.569090 0 127 127
-0.423500 0.571613 -0.214371 0 127 127
-0.423500 0.454369 -0.484056 0 127 127
0.441819 0.649835 0.256406 0 127 127
-0.108468 -0.352251 -0.569090 0 127 127
0.460987 0.780486 -0.537146 0 127 127
0.118439 -0.620283 0.495641 127 0 127
-0.212791 -0.098425 -0.514287 0 127 127
0.069703 -0.112988 0.428300 153 0 76
-0.414463 0.780486 0.113844 0 127 127
0.306740 0.780486 0.023962 0 127 127
0.198093 -0.526550 -0.187114 0 127 127
-0.471574 0.748529 -0.552503 0 127 127
0.095080 -0.526550 -0.130194 0 127 127
0.489893 -0.483867 -0.390525 0 127 127
-0.268285 -0.697532 0.129394 127 0 127
0.489893 0.472867 0.205502 0 127 127
0.136741 0.616639 0.428300 153 0 76
0.503088 -0.691817 0.029931 127 0 127
-0.089754 0.711695 -0.154700 0 127 127
-0.263095 -0.163156 -0.514287 0 127 127
-0.286041 0.205243 -0.514287 0 127 127
0.101513 0.780486 -0.164593 0 127 127
-0.468407 0.476625 0.399106 0 127 127
-0.329881 -0.697532 -0.327714 127 0 127
0.262932 -0.019146 -0.569090 0 127 127
0.489893 0.586812 -0.232724 0 127 127
-0.025596 0.780486 0.195764 0 127 127
-0.161798 0.780486 0.081425 0 127 127
0.018708 0.711695 0.244873 0 127 127
-0.118499 -0.418792 0.483104 153 0 76
-0.202896 -0.526550 -0.382297 0 127 127
-0.471574 -0.108054 -0.180951 0 127 127
0.489893 0.557604 0.267583 0 127 127
-0.477608 -0.642708 -0.538699 127 0 127
-0.423500 -0.051411 -0.443602 0 127 127
0.441819 0.107840 -0.364964 0 127 127
-0.137504 -0.045304 0.428300 153 0 76
0.206597 0.780486 0.230804 0 127 127
-0.093213 -0.697532 0.199434 127 0 127
-0.442143 0.780486 0.073999 0 127 127
-0.471574 -0.192965 -0.075026 0 127 127
0.038391 0.616433 0.492145 153 0 76
-0.423500 -0.186942 0.234581 0 127 127
0.441819 0.122015 0.203567 0 127 127
0.203110 -0.085090 0.428300 153 0 76
-0.423500 0.172190 0.195843 0 127 127
-0.471574 -0.275562 0.299680 0 127 127
0.489893 -0.049227 0.350663 0 127 127
0.489893 -0.405194 0.482633 153 0 76
0.441819 -0.489251 0.086258 0 127 127
-0.110769 0.673966 -0.514287 0 127 127
-0.423500 0.606627 -0.210057 0 127 127
0.478813 0.208546 0.483104 153 0 76
-0.151092 0.780486 -0.137177 0 127 127
-0.184717 -0.532356 -0.569090 0 127 127
-0.141192 0.122610 0.428300 153 0 76
-0.471574 -0.245212 -0.247798 0 127 127
0.441819 -0.027780 0.264316 0 127 127
-0.305171 -0.697532 0.159473 127 0 127
-0.090176 0.710111 -0.514287 0 127 127
0.441819 -0.126952 0.376140 0 127 127
0.489893 0.437449 0.132878 0 127 127
0.460648 -0.307230 0.399106 0 127 127
-0.112726 0.752744 -0.569090 0 127 127
0.375095 -0.343418 -0.569090 0 127 127
0.059150 0.711695 0.037106 0 127 127
-0.403136 0.710392 0.059836 0 127 127
0.287318 -0.252900 0.489116 153 0 76
-0.471574 0.454816 -0.394247 0 127 127
0.441819 -0.089630 -0.102744 0 127 127
0.139202 -0.599258 -0.133546 127 0 127
-0.423500 -0.021128 0.392903 0 127 127
-0.423500 0.608794 0.302139 0 127 127
0.318800 -0.526550 -0.476380 0 127 127
-0.012090 -0.526550 0.058570 0 127 127
0.441819 -0.104573 -0.032404 0 127 127
0.194898 0.711695 -0.405436 0 127 127
-0.357740 0.109714 -0.569090 0 127 127
-0.126094 -0.697532 -0.332374 127 0 127
-0.154769 0.711695 0.092882 0 127 127
0.441819 0.246588 -0.002152 0 127 127
0.026940 0.780486 -0.522554 0 127 127
0.489893 -0.553446 0.351889 0 127 127
-0.022497 -0.595341 -0.529835 0 127 127
0.239981 0.343740 -0.514287 0 127 127
0.428963 -0.333876 0.428300 153 0 76
0.288722 -0.599258 -0.484207 127 0 127
-0.471574 0.523777 0.440461 153 0 76
0.489893 -0.447770 -0.160919 0 127 127
-0.423500 0.549841 0.061507 0 127 127
-0.471574 -0.495206 -0.468437 0 127 127
-0.039920 -0.595341 0.453415 153 0 76
0.282802 -0.526550 -0.056637 0 127 127
0.283133 -0.377576 -0.514287 0 127 127
0.035562 0.711695 0.152868 0 127 127
-0.060466 -0.526550 0.307677 0 127 127
0.441819 0.373013 0.131500 0 127 127
-0.471574 -0.435858 0.318363 0 127 127
0.063050 0.711695 -0.273050 0 127 127
-0.471574 -0.504874 -0.548744 0 127 127
-0.423500 0.025122 -0.289680 0 127 127
0.365664 -0.350462 0.487151 153 0 76
0.272784 -0.595341 0.377984 0 127 127
-0.427766 -0.264222 0.484630 153 0 76
0.126539 -0.374167 -0.514287 0 127 127
-0.161925 0.711695 -0.033148 0 127 127
-0.047320 0.780486 -0.193680 0 127 127
-0.423500 0.509257 -0.455073 0 127 127
-0.471574 -0.544885 0.181844 0 127 127
-0.272367 0.343072 0.483104 153 0 76
-0.337394 -0.526550 0.222753 0 127 127
-0.452344 -0.288543 0.418355 153 0 76
-0.471574 0.689876 -0.560469 0 127 127
-0.297283 0.291987 0.428300 153 0 76
0.426195 0.704337 -0.252454 0 127 127
-0.272199 -0.697532 0.396689 127 0 127
-0.038817 0.711695 0.388438 0 127 127
-0.362444 -0.526550 0.386142 0 127 127
-0.471574 -0.003627 -0.153588 0 127 127
-0.423500 0.443577 -0.034027 0 127 127
-0.061347 -0.559469 0.492015 153 0 76
-0.027613 -0.526550 -0.509968 0 127 127
0.441819 0.378212 0.208611 0 127 127
0.185453 -0.026914 0.428300 153 0 76
-0.105667 -0.595341 0.258304 0 127 127
-0.127883 0.780486 0.418023 0 127 127
0.350494 0.489801 -0.514287 0 127 127
0.464057 -0.512832 -0.569090 0 127 127
-0.118533 0.711695 -0.193920 0 127 127
0.224166 -0.599258 0.456259 127 0 127
0.372073 -0.697532 0.151956 127 0 127
-0.423500 -0.167150 0.343020 0 127 127
0.158118 -0.595341 -0.439698 0 127 127
0.159160 -0.368268 -0.569090 0 127 127
0.139978 -0.059875 -0.514287 0 127 127
0.489893 0.582862 0.184858 0 127 127
-0.423500 -0.408973 0.290219 0 127 127
-0.306308 -0.494160 -0.514287 0 127 127
0.356416 -0.114838 0.428300 153 0 76
0.441819 0.252079 -0.239502 0 127 127
0.100645 0.507034 0.491876 153 0 76
0.441819 0.630787 0.049823 0 127 127
0.446477 -0.432040 0.483104 153 0 76
-0.229540 0.628602 0.483104 153 0 76
0.162437 0.136344 -0.569090 0 127 127
-0.423500 0.349729 0.251930 0 127 127
-0.422204 0.502436 -0.514287 0 127 127
0.272430 -0.697532 0.399787 127 0 127
0.441819 -0.314254 0.060151 0 127 127
-0.126554 0.780486 -0.221575 0 127 127
0.489893 0.007329 -0.397326 0 127 127
0.328043 -0.613861 0.495641 127 0 127
0.135256 0.711695 0.273650 0 127 127
-0.423500 -0.211412 -0.063405 0 127 127
-0.388882 -0.526081 -0.124558 0 127 127
0.183848 0.780486 -0.381983 0 127 127
-0.214075 -0.412131 -0.569090 0 127 127
0.228403 0.711695 0.305527 0 127 127
-0.119460 0.528636 0.491723 153 0 76
0.244460 -0.553128 0.399106 0 127 127
-0.438200 -0.599258 0.257388 127 0 127
-0.090416 0.465978 0.483104 153 0 76
-0.281747 0.362235 -0.514287 0 127 127
0.441819 0.286467 0.120378 0 127 127
-0.198397 0.051982 -0.569090 0 127 127
0.441819 0.478559 -0.501456 0 127 127
0.421059 -0.065744 -0.569090 0 127 127
0.489893 -0.037614 0.284877 0 127 127
-0.040856 -0.599258 0.013442 127 0 127
-0.181994 -0.697532 0.114646 127 0 127
-0.065139 0.240515 -0.514287 0 127 127
-0.096067 0.426009 0.491746 153 0 76
-0.423500 -0.005759 0.168840 0 127 127
0.151677 0.780486 -0.441343 0 127 127
-0.471574 0.696543 0.361404 0 127 127
-0.316305 -0.595341 0.351804 0 127 127
0.138191 -0.518182 -0.569090 0 127 127
0.441819 0.202255 -0.369315 0 127 127
0.441819 -0.424693 -0.206630 0 127 127
0.381570 0.711695 0.163972 0 127 127
0.149778 -0.599258 0.350326 127 0 127
0.489893 -0.148466 0.009874 0 127 127
-0.396147 0.780486 -0.568836 0 127 127
0.489893 0.599348 -0.492976 0 127 127
-0.422562 0.780486 -0.438952 0 127 127
-0.026545 -0.697532 -0.001850 127 0 127
0.489893 0.397698 -0.248404 0 127 127
0.158870 0.711695 -0.302539 0 127 127
-0.471574 0.134612 0.351245 0 127 127
0.216278 0.711695 -0.220637 0 127 127
0.204659 -0.595341 0.328153 0 127 127
0.489893 0.161803 0.276702 0 127 127
-0.185004 -0.595341 -0.171129 0 127 127
0.297271 0.780486 -0.052342 0 127 127
-0.423500 -0.119278 0.257781 0 127 127
0.489893 0.305911 0.127246 0 127 127
-0.148784 -0.697532 0.194272 127 0 127
-0.094492 0.135484 -0.569090 0 127 127
-0.471574 0.115373 -0.524961 0 127 127
-0.402347 0.780486 0.254177 0 127 127
0.459385 -0.595341 0.017664 0 127 127
-0.423500 0.097758 -0.295444 0 127 127
0.503088 -0.665874 -0.054375 127 0 127
0.441819 0.566443 -0.456748 0 127 127
-0.303037 0.711695 -0.474584 0 127 127
-0.165115 -0.697532 -0.161438 127 0 127
-0.269453 0.147071 -0.569090 0 127 127
-0.423500 0.214619 -0.318371 0 127 127
-0.292647 0.479111 0.483104 153 0 76
-0.471574 0.338282 -0.209860 0 127 127
0.291951 -0.697532 0.276888 127 0 127
-0.471574 0.037910 -0.274690 0 127 127
0.441819 0.591679 -0.289447 0 127 127
0.489893 -0.037502 -0.468919 0 127 127
0.119577 -0.697532 0.452843 127 0 127
0.489893 0.509495 0.230279 0 127 127
0.217727 0.431275 -0.569090 0 127 127
-0.188955 -0.526550 -0.122305 0 127 127
0.489893 0.387481 0.451975 153 0 76
0.315037 -0.447153 -0.514287 0 127 127
-0.002377 0.530617 -0.569090 0 127 127
-0.471574 -0.306551 -0.058644 0 127 127
-0.471574 -0.168731 0.360018 0 127 127
-0.423500 0.602816 0.181861 0 127 127
-0.121106 0.780486 -0.118258 0 127 127
-0.070319 0.715903 0.492178 153 0 76
-0.152424 -0.599258 0.456986 127 0 127
-0.072230 -0.697532 0.122884 127 0 127
0.288504 -0.599258 0.312474 127 0 127
0.336292 0.711695 0.308055 0 127 127
-0.239408 -0.389155 -0.514287 0 127 127
0.194945 -0.526550 0.227307 0 127 127
-0.390029 0.380237 0.487439 153 0 76
-0.232640 0.200892 0.428300 153 0 76
0.470663 0.338653 0.416363 153 0 76
-0.423500 -0.389239 0.218452 0 127 127
0.489893 0.115865 0.239940 0 127 127
-0.055207 0.780486 0.056217 0 127 127
0.103133 -0.312171 -0.514287 0 127 127
-0.003321 0.474717 0.428300 153 0 76
-0.065245 -0.697532 0.426407 127 0 127
-0.423500 0.092444 -0.122202 0 127 127
0.294552 -0.595341 0.468486 153 0 76
-0.471574 -0.574701 -0.146332 0 127 127
0.441819 -0.037137 0.313449 0 127 127
-0.403333 -0.410699 0.428300 153 0 76
0.003795 -0.024830 0.428300 153 0 76
-0.304685 0.711695 -0.406929 0 127 127
-0.394048 0.269365 0.428300 153 0 76
-0.018729 -0.294477 -0.569090 0 127 127
0.503088 -0.622310 0.414447 127 0 127
-0.441643 0.132662 0.399106 0 127 127
0.249577 -0.138144 0.428300 153 0 76
-0.017522 0.711695 0.237468 0 127 127
0.158558 -0.526550 0.287763 0 127 127
0.346946 0.744750 0.437778 153 0 76
0.294438 0.711695 -0.019312 0 127 127
-0.406587 -0.520112 -0.295454 0 127 127
-0.471574 0.321350 0.265364 0 127 127
0.236666 0.021635 -0.569090 0 127 127
0.464610 0.294717 0.399106 0 127 127
0.441819 -0.161840 -0.311081 0 127 127
-0.078501 -0.595341 0.280605 0 127 127
-0.297224 -0.368666 -0.514287 0 127 127
0.078703 -0.630293 0.495641 127 0 127
-0.089911 0.273271 0.483104 153 0 76
-0.305090 -0.252784 -0.514287 0 127 127
0.441819 0.130116 -0.252308 0 127 127
-0.423500 -0.379418 0.065324 0 127 127
-0.330140 0.058783 -0.514287 0 127 127
-0.423500 0.094209 -0.197838 0 127 127
-0.128705 -0.595341 -0.001132 0 127 127
-0.425561 -0.697532 -0.428115 127 0 127
-0.345127 0.711695 -0.433245 0 127 127
0.489893 0.073114 -0.481741 0 127 127
0.461448 0.504939 0.399106 0 127 127
0.090691 0.509399 -0.569090 0 127 127
-0.383843 0.753684 0.435399 0 127 127
0.489893 -0.562385 -0.473455 0 127 127
-0.286719 -0.599258 -0.011849 127 0 127
0.343099 -0.697532 0.204541 127 0 127
0.303103 0.586820 -0.514287 0 127 127
-0.471574 -0.180151 0.250006 0 127 127
-0.217357 -0.595341 0.111953 0 127 127
0.489893 -0.112995 -0.546785 0 127 127
-0.471574 0.505685 0.083961 0 127 127
0.201339 0.296509 0.490717 153 0 76
-0.278023 -0.526550 0.316727 0 127 127
-0.469762 -0.435534 0.428300 153 0 76
-0.247449 -0.214743 0.483104 153 0 76
-0.382606 -0.577474 0.426516 153 0 76
0.489893 0.018191 -0.171251 0 127 127
-0.442223 -0.200594 0.399106 0 127 127
-0.471574 0.110389 0.002470 0 127 127
0.347406 0.060150 -0.514287 0 127 127
-0.328006 0.780486 -0.315608 0 127 127
0.258035 -0.296033 0.428300 153 0 76
0.462362 -0.036827 -0.569090 0 127 127
-0.113803 -0.599258 -0.285102 127 0 127
-0.447194 -0.496885 0.483953 153 0 76
0.441819 0.586600 -0.075268 0 127 127
0.028406 -0.541471 0.428300 153 0 76
0.100165 0.660267 0.483104 153 0 76
-0.470301 0.168620 0.399106 0 127 127
-0.049008 0.124811 -0.514287 0 127 127
-0.298385 -0.379001 0.483104 153 0 76
0.369650 -0.595341 -0.454824 0 127 127
-0.180068 -0.697532 -0.509197 127 0 127
0.489893 -0.423849 0.115985 0 127 127
0.420238 0.174217 0.483104 153 0 76
-0.439304 -0.017363 0.484228 153 0 76
-0.350776 0.027258 -0.569090 0 127 127
0.080610 -0.599258 -0.141492 127 0 127
0.343259 -0.697532 0.108388 127 0 127
0.243698 0.576870 -0.569090 0 127 127
-0.083701 -0.697532 -0.293187 127 0 127
0.041762 -0.697532 0.056546 127 0 127
-0.039903 0.711695 0.030772 0 127 127
-0.115873 0.692054 0.483104 153 0 76
0.033479 -0.526550 0.024637 0 127 127
-0.446851 -0.487010 -0.569090 0 127 127
0.491816 0.755429 0.315253 0 127 127
-0.381510 -0.697532 -0.512634 127 0 127
0.464754 0.320669 -0.569090 0 127 127
-0.416855 -0.373767 0.485010 153 0 76
0.503088 -0.640829 -0.185477 127 0 127
0.195771 0.357595 0.496715 153 0 76
-0.471574 0.266833 -0.424650 0 127 127
-0.118074 0.780486 -0.529928 0 127 127
-0.471574 0.498469 0.021555 0 127 127
0.441819 -0.351769 -0.418534 0 127 127
0.489893 0.613967 -0.027524 0 127 127
-0.423500 0.075662 -0.500930 0 127 127
-0.423500 -0.342195 0.178975 0 127 127
-0.334517 0.464262 -0.514287 0 127 127
0.460876 0.419422 0.399106 0 127 127
0.441819 -0.336001 0.000106 0 127 127
0.489893 0.315378 -0.110851 0 127 127
0.489893 0.149053 0.016204 0 127 127
0.321633 -0.599258 -0.360514 127 0 127
0.379335 -0.285889 -0.514287 0 127 127
-0.415355 0.753684 0.426026 0 127 127
0.489893 0.447445 0.245500 0 127 127
-0.334755 0.230953 -0.514287 0 127 127
-0.029540 0.193186 -0.569090 0 127 127
0.342544 -0.595341 -0.234752 0 127 127
-0.338516 -0.553948 -0.569090 0 127 127
-0.214604 -0.444069 0.483104 153 0 76
-0.246069 -0.599258 -0.365128 127 0 127
-0.423500 0.330736 -0.159712 0 127 127
-0.295933 -0.697532 -0.396194 127 0 127
-0.471574 -0.182673 -0.507127 0 127 127
-0.119845 0.711695 -0.011219 0 127 127
-0.262722 0.681747 -0.514287 0 127 127
0.441819 0.602288 -0.141787 0 127 127
-0.246710 0.711695 0.363683 0 127 127
-0.294645 0.619558 -0.569090 0 127 127
0.053396 0.129072 0.428300 153 0 76
-0.170906 -0.445770 -0.514287 0 127 127
-0.258804 -0.505533 0.428300 153 0 76
0.112617 -0.526550 0.391823 0 127 127
0.489893 0.017864 -0.054424 0 127 127
-0.380472 0.218496 0.483104 153 0 76
-0.471574 0.547681 0.034883 0 127 127
-0.355518 -0.477356 -0.569090 0 127 127
0.489893 -0.358827 -0.422054 0 127 127
0.489893 -0.344303 -0.544386 0 127 127
-0.471574 -0.352210 -0.149780 0 127 127
-0.471574 -0.050040 0.180929 0 127 127
-0.471574 0.108423 -0.412528 0 127 127
-0.298359 0.780486 0.138121 0 127 127
0.165378 -0.212844 0.428300 153 0 76
0.489893 -0.083781 -0.238028 0 127 127
-0.167979 0.170582 -0.569090 0 127 127
-0.036735 0.641710 -0.569090 0 127 127
-0.442400 -0.199837 0.484120 153 0 76
0.489893 0.735682 -0.136001 0 127 127
-0.471574 0.127702 -0.123439 0 127 127
-0.471574 -0.578806 -0.351144 0 127 127
-0.473497 0.778402 0.012439 0 127 127
0.270284 0.375177 0.497894 153 0 76
0.292139 0.157464 0.483104 153 0 76
-0.170046 -0.697532 -0.302617 127 0 127
-0.423500 -0.378797 -0.001236 0 127 127
-0.351910 -0.599258 -0.455679 127 0 127
-0.423500 0.057571 -0.335309 0 127 127
0.441819 -0.017348 0.382656 0 127 127
0.235999 -0.468334 0.483104 153 0 76
0.503088 -0.628658 -0.067813 127 0 127
-0.252919 -0.697532 0.189557 127 0 127
-0.450830 0.780486 0.148961 0 127 127
-0.471574 -0.073504 0.125337 0 127 127
-0.045493 0.185027 -0.514287 0 127 127
0.064685 -0.599258 0.021464 127 0 127
0.441819 -0.457193 -0.071297 0 127 127
-0.471574 0.711978 -0.425603 0 127 127
0.441819 0.461737 -0.039311 0 127 127
0.491816 0.750833 0.254902 0 127 127
-0.423500 0.496930 0.193966 0 127 127
-0.367303 -0.599258 -0.547126 127 0 127
-0.142764 -0.595341 0.197128 0 127 127
0.356364 0.711695 -0.168488 0 127 127
-0.166156 0.700429 -0.514287 0 127 127
0.166126 0.780486 0.355539 0 127 127
0.489893 -0.104664 0.213475 0 127 127
0.491816 0.762469 -0.263069 0 127 127
-0.008706 -0.697532 0.093753 127 0 127
-0.124768 -0.114704 -0.514287 0 127 127
-0.423500 -0.278174 -0.061296 0 127 127
-0.477608 -0.621386 -0.020490 127 0 127
0.258914 0.684864 -0.514287 0 127 127
0.441819 0.635828 -0.227530 0 127 127
0.116399 0.604835 0.491726 153 0 76
-0.423500 -0.310913 0.365145 0 127 127
-0.090483 -0.595341 -0.060372 0 127 127
-0.098430 -0.041317 -0.569090 0 127 127
0.489893 0.541354 -0.287557 0 127 127
0.489893 0.625746 0.481506 153 0 76
0.346702 -0.526550 -0.186659 0 127 127
-0.102119 0.468924 -0.514287 0 127 127
-0.113102 0.780486 -0.295228 0 127 127
-0.141097 -0.577474 0.427786 153 0 76
-0.129073 0.744873 0.399106 0 127 127
-0.071082 0.118712 0.428300 153 0 76
0.218185 -0.218616 -0.569090 0 127 127
0.283520 -0.697532 0.149245 127 0 127
0.426193 0.704339 -0.417141 0 127 127
-0.417548 -0.509653 0.078670 0 127 127
-0.412552 -0.589279 0.428300 153 0 76
0.441819 0.208866 0.368077 0 127 127
-0.280934 0.364332 -0.569090 0 127 127
0.012637 -0.526550 -0.006852 0 127 127
0.489893 0.044875 -0.108402 0 127 127
-0.404627 0.709817 0.381536 0 127 127
-0.077400 0.528095 0.483104 153 0 76
0.378478 0.753684 0.450610 0 127 127
0.325848 -0.697532 0.260674 127 0 127
-0.224135 0.711695 -0.489486 0 127 127
-0.416857 -0.697532 -0.136677 127 0 127
0.260658 -0.526550 0.385883 0 127 127
-0.257277 -0.117943 -0.569090 0 127 127
0.441616 -0.492244 -0.293674 0 127 127
-0.423500 -0.410519 0.067088 0 127 127
0.086316 -0.472043 0.491993 153 0 76
-0.223117 0.169926 0.490082 153 0 76
-0.327500 0.297133 -0.569090 0 127 127
-0.179466 0.349123 0.490773 153 0 76
-0.423500 -0.312713 0.161168 0 127 127
0.476449 -0.480802 0.483104 153 0 76
0.489893 -0.438493 0.155477 0 127 127
-0.122496 -0.697532 -0.158702 127 0 127
0.441819 -0.266428 0.322152 0 127 127
-0.272558 -0.697532 -0.223038 127 0 127
0.491816 0.768676 0.384130 0 127 127
-0.353804 0.711695 0.271328 0 127 127
0.489893 -0.438677 0.336019 0 127 127
-0.107530 0.589242 0.428300 153 0 76
0.025446 -0.053833 0.483104 153 0 76
-0.423500 0.662706 0.067434 0 127 127
-0.471574 0.277014 0.385906 0 127 127
0.481419 -0.237228 0.428300 153 0 76
-0.281020 -0.526550 -0.398739 0 127 127
0.178526 -0.527833 0.483104 153 0 76
0.489893 -0.290683 -0.367261 0 127 127
-0.471574 0.732533 0.286929 0 127 127
0.441819 -0.082948 -0.162597 0 127 127
0.463795 -0.599258 0.460822 127 0 127
0.056349 -0.371188 0.428300 153 0 76
0.441819 0.109051 -0.483509 0 127 127
0.045244 0.536732 0.492124 153 0 76
0.150762 0.711695 -0.415783 0 127 127
-0.127869 -0.697532 0.367577 127 0 127
0.489893 0.373709 -0.139156 0 127 127
0.489893 0.386781 -0.365362 0 127 127
0.187025 0.361888 -0.569090 0 127 127
-0.468594 -0.034610 -0.569090 0 127 127
-0.402668 -0.599258 -0.105042 127 0 127
-0.290927 -0.561621 0.488630 153 0 76
0.441819 0.059133 -0.407623 0 127 127
-0.436046 -0.595341 -0.026925 0 127 127
-0.473497 0.772118 0.223287 0 127 127
0.388947 0.412097 -0.514287 0 127 127
0.441819 -0.072559 -0.373727 0 127 127
0.013055 0.780486 -0.489738 0 127 127
-0.471574 0.123979 0.035879 0 127 127
-0.212036 0.557106 -0.569090 0 127 127
0.024777 0.012373 0.428300 153 0 76
-0.423500 0.035169 -0.433401 0 127 127
0.318771 0.711695 -0.075247 0 127 127
0.303693 -0.107753 0.483104 153 0 76
0.109220 -0.526550 0.083750 0 127 127
0.213837 -0.697532 0.333911 127 0 127
0.260305 0.512650 -0.569090 0 127 127
0.489893 0.298555 -0.321963 0 127 127
0.441819 -0.093173 -0.003585 0 127 127
0.199623 -0.288693 -0.514287 0 127 127
0.484709 -0.599258 -0.430718 127 0 127
0.489893 0.042956 -0.448175 0 127 127
0.450601 0.780486 -0.084578 0 127 127
-0.471574 -0.351119 0.178580 0 127 127
0.019649 0.026460 -0.514287 0 127 127
-0.177907 -0.171506 -0.569090 0 127 127
-0.423500 0.181326 -0.037288 0 127 127
-0.258909 -0.595341 -0.298542 0 127 127
0.430720 0.701029 0.388164 0 127 127
0.143863 0.545234 0.491465 153 0 76
0.489893 0.087690 -0.381629 0 127 127
0.258739 0.468624 0.428300 153 0 76
-0.201061 0.124748 0.490431 153 0 76
0.350654 -0.697532 -0.537138 127 0 127
0.489893 -0.150659 0.055207 0 127 127
-0.323745 -0.130888 0.487824 153 0 76
0.489893 -0.055982 -0.342697 0 127 127
-0.471574 0.257906 -0.267562 0 127 127
0.013674 0.711695 0.080818 0 127 127
0.441819 0.518525 0.353338 0 127 127
0.489893 -0.391513 -0.132635 0 127 127
-0.153197 0.295094 0.483104 153 0 76
-0.119059 -0.526550 -0.079764 0 127 127
-0.467425 0.403615 0.483249 153 0 76
-0.199534 -0.595341 -0.506597 0 127 127
0.489893 0.651048 -0.209971 0 127 127
0.378494 -0.595341 0.143702 0 127 127
-0.471574 0.472417 -0.439388 0 127 127
-0.248669 -0.027949 -0.514287 0 127 127
0.162109 0.721013 0.473717 153 0 76
0.337525 -0.526550 0.041559 0 127 127
0.275689 0.711695 -0.195760 0 127 127
0.291812 0.283425 0.428300 153 0 76
-0.238030 -0.201509 0.428300 153 0 76
0.489893 -0.366236 0.171811 0 127 127
0.324742 0.201332 0.428300 153 0 76
-0.045175 0.309893 0.428300 153 0 76
0.441819 0.241831 -0.438677 0 127 127
0.270979 0.251678 0.489478 153 0 76
0.029000 -0.599258 0.215206 127 0 127
0.087540 -0.578495 0.491990 153 0 76
0.250533 -0.697532 0.477030 127 0 127
0.160162 0.780486 0.130554 0 127 127
0.489893 0.349047 -0.064705 0 127 127
0.503088 -0.640118 0.179272 127 0 127
-0.471574 -0.206841 0.059685 0 127 127
0.489893 0.607303 0.241958 0 127 127
0.383699 -0.157675 0.483104 153 0 76
0.128328 0.317627 -0.569090 0 127 127
-0.313014 -0.697532 -0.129698 127 0 127
0.475478 -0.697532 -0.148170 127 0 127
-0.225452 -0.526550 0.035878 0 127 127
-0.471574 -0.568501 -0.231816 0 127 127
-0.471574 -0.010092 -0.549645 0 127 127
-0.399676 0.780486 0.469820 0 127 127
0.441819 0.585533 -0.198053 0 127 127
0.181378 0.004320 -0.514287 0 127 127
0.348614 -0.526550 -0.114935 0 127 127
0.125693 -0.697532 -0.052883 127 0 127
-0.359450 -0.526550 -0.375329 0 127 127
-0.038183 -0.595341 -0.096070 0 127 127
-0.228690 0.149048 0.428300 153 0 76
-0.186597 -0.697532 0.166653 127 0 127
0.489893 -0.321796 -0.484233 0 127 127
-0.423500 -0.127705 -0.183685 0 127 127
-0.351859 0.434573 0.428300 153 0 76
-0.362498 -0.143441 0.428300 153 0 76
0.312315 0.737288 0.399106 0 127 127
0.441819 0.047559 -0.305227 0 127 127
-0.179596 -0.076839 0.490771 153 0 76
0.341611 -0.697532 -0.021167 127 0 127
-0.066063 -0.226493 -0.514287 0 127 127
0.392899 0.737364 0.399106 0 127 127
0.441819 0.309598 -0.205806 0 127 127
0.433732 -0.512236 -0.180133 0 127 127
-0.300290 -0.599258 -0.571223 127 0 127
0.004431 0.366672 -0.514287 0 127 127
0.396042 0.036581 0.428300 153 0 76
-0.423500 0.215584 -0.223452 0 127 127
-0.263589 -0.304229 0.428300 153 0 76
0.448970 0.647817 0.410032 153 0 76
-0.423500 0.285781 0.315697 0 127 127
0.105475 -0.664862 -0.573029 127 0 127
0.489893 -0.376731 0.086221 0 127 127
0.038082 0.619267 -0.569090 0 127 127
0.119762 -0.181305 0.491694 153 0 76
-0.227409 0.780486 0.236123 0 127 127
-0.124458 -0.077200 0.428300 153 0 76
-0.170042 -0.017856 -0.569090 0 127 127
0.115243 0.780486 -0.266788 0 127 127
0.470663 0.116026 0.419469 153 0 76
-0.004383 0.711695 -0.001908 0 127 127
0.489893 -0.104389 -0.477242 0 127 127
0.441819 -0.419977 -0.100193 0 127 127
0.310493 0.034061 -0.514287 0 127 127
-0.423500 0.464336 -0.383431 0 127 127
0.364550 -0.284963 0.428300 153 0 76
-0.323732 0.515510 0.428300 153 0 76
0.285017 -0.599258 -0.167670 127 0 127
0.002714 -0.599258 -0.222292 127 0 127
0.407992 0.543085 0.483104 153 0 76
0.441819 0.530752 -0.280136 0 127 127
0.441819 -0.456827 -0.503712 0 127 127
-0.423500 -0.353412 -0.277951 0 127 127
-0.029671 -0.534987 0.399106 0 127 127
0.441819 -0.337669 0.097446 0 127 127
-0.184240 -0.599258 -0.103436 127 0 127
-0.471574 0.313529 -0.161852 0 127 127
-0.202823 -0.526550 0.364863 0 127 127
-0.471574 -0.508700 0.008465 0 127 127
0.237019 0.711695 0.168169 0 127 127
0.489893 0.128277 -0.254175 0 127 127
0.441819 0.122323 -0.411228 0 127 127
-0.017447 -0.034171 -0.569090 0 127 127
0.351236 0.730548 -0.569090 0 127 127
0.224432 -0.599258 -0.169275 127 0 127
0.441819 0.371109 -0.305006 0 127 127
-0.232744 -0.697532 0.289832 127 0 127
-0.074031 -0.513429 0.491955 153 0 76
0.489893 0.168271 -0.059196 0 127 127
0.059902 0.711695 0.346911 0 127 127
-0.111245 0.464145 -0.569090 0 127 127
0.441819 -0.220170 -0.346972 0 127 127
0.489893 0.166079 0.331083 0 127 127
-0.457051 0.259975 0.483104 153 0 76
-0.423500 0.397412 0.267129 0 127 127
0.441819 0.070757 -0.020337 0 127 127
0.430087 0.551683 -0.514287 0 127 127
0.316071 0.626375 0.488478 153 0 76
0.469327 -0.128126 -0.569090 0 127 127
-0.191014 0.711695 0.387701 0 127 127
-0.076675 -0.019465 -0.569090 0 127 127
-0.041250 0.780486 -0.522160 0 127 127
0.489893 0.305863 0.457014 153 0 76
-0.038728 0.446698 0.483104 153 0 76
0.297890 0.343788 0.428300 153 0 76
-0.114212 0.626467 0.483104 153 0 76
0.479292 -0.599258 0.077874 127 0 127
0.441819 0.110887 -0.067886 0 127 127
0.441819 0.179061 -0.101844 0 127 127
-0.223689 -0.516134 -0.569090 0 127 127
0.237213 -0.697532 -0.194060 127 0 127
-0.423500 0.189581 0.328103 0 127 127
0.467029 0.483617 0.483900 153 0 76
0.458129 0.780486 0.323802 0 127 127
-0.471574 0.620753 -0.369403 0 127 127
0.033940 0.179894 -0.569090 0 127 127
0.432205 -0.214026 0.418002 153 0 76
-0.286422 -0.595341 0.487259 153 0 76
-0.036815 0.711695 -0.334810 0 127 127
-0.440273 -0.568595 0.483104 153 0 76
-0.423500 0.640787 0.289932 0 127 127
0.441819 0.012261 -0.113836 0 127 127
