ply
format ascii 1.0
element vertex 1264
property float x
property float y
property float z
property uchar red
property uchar green
property uchar blue
end_header
-0.110450 -0.471018 -0.139600 76 0 153
0.039388 0.719595 0.195249 76 153 0
-0.368441 -0.428008 -0.304808 127 127 0
0.014658 0.836055 0.270977 76 153 0
-0.134417 -0.330504 -0.156876 76 0 153
-0.117215 -0.346125 -0.239523 76 0 153
0.010782 0.483723 0.865105 76 153 0
0.336930 -0.433613 -0.082247 0 255 0
0.058056 0.403120 0.845756 76 153 0
0.057277 -0.620611 -0.249203 153 0 76
-0.060805 0.578130 -0.090836 76 153 0
0.336729 -0.432860 -0.214175 0 255 0
0.280775 -0.399972 -0.118782 76 0 153
-0.066942 -0.556218 -0.129025 153 0 76
-0.009663 0.020008 -0.245328 76 153 0
-0.023724 -0.450064 -0.269669 153 0 76
0.017287 0.643080 0.066816 76 153 0
-0.217577 -0.326783 -0.171358 76 0 153
0.183023 -0.410562 -0.265692 76 0 153
-0.052127 0.814090 0.316570 76 153 0
-0.049152 0.474312 -0.178127 76 153 0
0.368864 -0.279153 -0.165638 0 255 0
-0.059292 0.233705 -0.202590 76 153 0
0.020984 0.815980 0.482857 76 153 0
-0.057656 -0.509898 -0.252001 153 0 76
0.056737 0.662524 0.639698 76 153 0
0.042159 -0.279958 -0.111309 153 0 76
0.355091 -0.434240 -0.146390 0 255 0
-0.320530 -0.531118 -0.183755 127 127 0
-0.056614 -0.302925 -0.253043 153 0 76
0.366013 -0.427465 -0.273638 0 255 0
0.317710 -0.262542 -0.189081 0 255 0
0.358685 -0.377535 -0.249879 0 255 0
-0.059583 0.795752 0.367561 76 153 0
0.074476 -0.645517 -0.227224 153 0 76
0.058032 0.750617 0.523051 76 153 0
0.014278 0.657477 0.750377 76 153 0
-0.003609 0.342266 0.915017 153 76 0
0.353430 -0.427034 -0.169918 0 255 0
-0.339261 -0.516494 -0.158033 127 127 0
0.360076 -0.378545 -0.083437 0 255 0
0.051317 0.091766 -0.157314 76 153 0
0.076557 -0.328292 -0.209910 153 0 76
0.012481 -0.504923 -0.271239 153 0 76
-0.017193 -0.420188 -0.107573 76 0 153
0.321810 -0.406066 -0.201700 0 255 0
-0.004226 0.840444 0.362945 76 153 0
0.128232 -0.325351 -0.191338 76 0 153
-0.005357 -0.368904 -0.256827 76 0 153
-0.084028 -0.402885 -0.211889 153 0 76
0.372420 -0.388558 -0.341791 0 255 0
-0.321376 -0.284882 -0.190588 127 127 0
0.058284 0.727999 0.551031 76 153 0
-0.058056 0.681286 0.603887 76 153 0
0.044919 0.593773 0.680227 76 153 0
0.042279 0.639316 0.031862 76 153 0
0.368543 -0.389890 -0.165405 0 255 0
-0.089965 -0.481646 -0.211280 76 0 153
0.321087 -0.332861 -0.172266 0 255 0
-0.033659 0.656067 0.585870 76 153 0
0.066077 -0.478718 -0.131336 153 0 76
-0.058993 -0.200768 -0.203445 153 0 76
-0.046940 -0.092796 -0.146385 76 153 0
-0.036702 0.334788 0.899577 153 76 0
0.369374 -0.450357 -0.205731 0 255 0
0.075781 -0.449137 -0.252895 76 0 153
0.053716 0.805191 0.314727 76 153 0
0.052539 0.697135 0.567209 76 153 0
-0.362610 -0.512799 -0.158787 127 127 0
0.244847 -0.332121 -0.153702 76 0 153
-0.056483 0.561701 -0.066805 76 153 0
0.057298 0.672033 0.028773 76 153 0
-0.084551 -0.671164 -0.244118 76 0 153
0.319989 -0.415388 -0.265037 0 255 0
-0.052574 0.761923 0.557192 76 153 0
0.047480 0.486794 0.836604 76 153 0
0.333646 -0.500182 -0.211935 0 255 0
-0.005660 -0.482753 -0.205357 76 0 153
-0.049408 0.441108 0.860937 76 153 0
0.029720 0.588371 0.797840 76 153 0
-0.037560 0.187314 -0.137625 76 153 0
0.051228 0.724237 0.500929 76 153 0
-0.061918 0.781850 0.312657 76 153 0
0.310074 -0.430023 -0.195990 0 255 0
-0.009555 0.720538 0.367807 76 153 0
0.006693 -0.470810 -0.271891 153 0 76
-0.058564 0.644618 0.654416 76 153 0
-0.047938 0.398192 -0.128999 76 153 0
-0.030722 -0.402952 -0.105543 153 0 76
-0.380650 -0.406211 -0.288555 127 127 0
0.322824 -0.487251 -0.167668 0 255 0
-0.375796 -0.389173 -0.178532 127 127 0
-0.054829 -0.537788 -0.254466 153 0 76
0.041867 0.777232 0.115869 76 153 0
-0.057663 0.758508 0.370925 76 153 0
-0.031493 0.743360 0.027744 76 153 0
0.083238 -0.655821 -0.166985 153 0 76
0.019710 0.518538 0.715207 76 153 0
0.023657 0.833460 0.382278 76 153 0
-0.324280 -0.418820 -0.071657 127 127 0
0.369421 -0.315360 -0.166043 0 255 0
0.319553 -0.468165 -0.194756 0 255 0
0.055818 -0.671164 -0.101932 76 0 153
-0.087498 -0.520582 -0.176603 153 0 76
-0.053862 0.699818 0.557367 76 153 0
-0.320681 -0.402581 -0.302753 127 127 0
0.050254 0.366281 -0.205094 76 153 0
0.010106 -0.333022 -0.100233 153 0 76
0.010786 0.385438 -0.109983 76 153 0
0.057287 0.504352 0.773029 76 153 0
-0.088365 -0.549538 -0.184292 153 0 76
-0.061065 -0.406298 -0.248592 153 0 76
-0.328046 -0.559756 -0.166181 127 127 0
0.037498 -0.459907 -0.127925 76 0 153
0.084847 -0.509997 -0.181267 153 0 76
0.280775 -0.368732 -0.181608 76 0 153
-0.000825 0.718817 -0.024928 76 153 0
0.071423 -0.406446 -0.105396 76 0 153
0.052795 0.671374 0.609073 76 153 0
0.355661 -0.376084 -0.296296 0 255 0
0.016095 0.747072 0.021685 76 153 0
-0.280034 -0.419237 -0.255114 76 0 153
0.048062 -0.398173 -0.256722 153 0 76
-0.254352 -0.413601 -0.265210 76 0 153
-0.348252 -0.420934 -0.163889 127 127 0
-0.283951 -0.449269 -0.131587 76 0 153
-0.342788 -0.417829 -0.025454 127 127 0
-0.039984 -0.022677 -0.232310 76 153 0
-0.024366 0.337012 -0.124840 76 153 0
0.009010 -0.237486 -0.112324 153 0 76
0.056627 0.493379 -0.147054 76 153 0
0.010693 0.554176 -0.023966 76 153 0
-0.048406 -0.155766 -0.147851 76 153 0
-0.025588 0.733152 0.657727 76 153 0
0.048923 0.520892 0.741420 76 153 0
-0.325955 -0.563790 -0.189005 127 127 0
-0.073380 -0.326110 -0.196133 76 0 153
0.340532 -0.467671 -0.214948 0 255 0
-0.004205 0.494867 0.724402 76 153 0
0.062258 -0.595970 -0.127518 153 0 76
-0.322197 -0.412408 -0.215193 127 127 0
-0.148686 -0.460004 -0.243718 76 0 153
0.004851 0.716564 0.254494 76 153 0
-0.118260 -0.409735 -0.105917 76 0 153
0.374320 -0.338017 -0.196627 0 255 0
-0.166895 -0.380701 -0.109067 76 0 153
-0.033621 -0.264279 -0.266206 153 0 76
-0.003591 0.310631 -0.242514 76 153 0
0.098966 -0.671164 -0.188423 76 0 153
0.054782 0.793735 0.236618 76 153 0
0.056740 0.767509 0.324161 76 153 0
0.058211 0.775816 0.356806 76 153 0
0.002913 -0.024380 -0.126009 76 153 0
-0.377306 -0.416505 -0.086231 127 127 0
0.356726 -0.434212 -0.070419 0 255 0
0.377268 -0.406844 -0.215134 0 255 0
0.010762 0.184509 -0.244846 76 153 0
0.044753 0.574673 0.695527 76 153 0
0.041232 0.118076 -0.227886 76 153 0
0.082639 -0.684159 -0.106950 76 0 153
-0.254260 -0.327366 -0.167681 76 0 153
-0.376859 -0.482436 -0.198588 127 127 0
0.068883 -0.261756 -0.236126 153 0 76
0.333952 -0.247418 -0.161358 0 255 0
0.009482 -0.178787 -0.126749 76 153 0
-0.325608 -0.434355 -0.203613 127 127 0
-0.017345 0.647142 0.759008 76 153 0
0.109824 -0.686707 -0.216760 76 0 153
0.039085 0.646603 0.740432 76 153 0
0.022088 -0.376112 -0.269130 153 0 76
-0.065332 -0.271981 -0.244325 153 0 76
-0.053157 -0.241852 -0.255516 153 0 76
-0.056520 -0.343551 -0.134791 76 0 153
-0.054460 0.625060 0.662132 76 153 0
0.347209 -0.446013 -0.156792 0 255 0
0.266152 -0.365959 -0.254380 76 0 153
0.099427 -0.671164 -0.166721 76 0 153
0.375379 -0.299659 -0.193367 0 255 0
0.058287 0.616482 -0.051998 76 153 0
0.084956 -0.327550 -0.189513 153 0 76
0.001103 0.579927 -0.000073 76 153 0
-0.082632 -0.279586 -0.155861 153 0 76
-0.087505 -0.421874 -0.195078 153 0 76
0.362763 -0.380498 -0.125059 0 255 0
-0.046423 0.547084 -0.058409 76 153 0
-0.029401 -0.237019 -0.116917 153 0 76
0.024313 0.026034 -0.240362 76 153 0
0.316796 -0.293637 -0.186270 0 255 0
-0.103361 -0.671164 -0.189802 76 0 153
0.013758 0.601260 0.797216 76 153 0
0.114352 -0.344274 -0.134068 76 0 153
-0.103557 -0.373608 -0.259224 76 0 153
-0.283951 -0.394585 -0.229903 76 0 153
0.029498 -0.194809 -0.237185 76 153 0
-0.023366 0.713898 0.434828 76 153 0
-0.283951 -0.358844 -0.167849 76 0 153
-0.052270 -0.221773 -0.131518 153 0 76
-0.036681 -0.592407 -0.106605 153 0 76
-0.323362 -0.465558 -0.196700 127 127 0
0.326212 -0.438412 -0.165206 0 255 0
0.003334 -0.414466 -0.265073 76 0 153
-0.391658 -0.430142 -0.191804 127 127 0
-0.043481 -0.596632 -0.261596 153 0 76
-0.011019 0.265523 -0.126565 76 153 0
-0.372289 -0.288161 -0.205921 127 127 0
0.207294 -0.485596 -0.184334 76 0 153
-0.061830 0.205423 -0.184754 76 153 0
-0.061290 0.572976 0.738228 76 153 0
0.036614 -0.671164 -0.103201 76 0 153
0.047179 0.517183 -0.082310 76 153 0
0.058065 0.712093 0.062758 76 153 0
0.196646 -0.474318 -0.146077 76 0 153
0.336217 -0.363446 -0.213803 0 255 0
-0.050685 -0.406021 -0.105329 153 0 76
0.002751 0.704196 0.457012 76 153 0
0.360089 -0.431769 -0.240694 0 255 0
-0.088444 -0.258015 -0.186740 153 0 76
0.029621 -0.458737 -0.244985 76 0 153
0.015737 0.592768 0.006839 76 153 0
-0.141894 -0.351011 -0.127331 76 0 153
-0.283951 -0.427151 -0.145719 76 0 153
-0.017666 0.633139 0.055019 76 153 0
-0.270651 -0.464611 -0.224692 76 0 153
-0.027190 0.471116 0.866346 76 153 0
-0.346052 -0.565522 -0.200994 127 127 0
0.072589 -0.405554 -0.266485 76 0 153
-0.031183 0.715841 0.676745 76 153 0
-0.031325 0.553294 -0.035761 76 153 0
0.033018 0.440197 -0.206338 76 153 0
-0.040983 0.158961 -0.140428 76 153 0
0.339485 -0.245426 -0.203664 0 255 0
-0.057327 0.328871 0.898014 76 153 0
-0.029100 -0.625775 -0.267788 153 0 76
-0.251232 -0.348300 -0.241698 76 0 153
-0.377533 -0.320963 -0.196512 127 127 0
-0.057192 0.727813 0.153349 76 153 0
-0.058527 0.694663 0.015309 76 153 0
-0.051106 0.748869 0.590389 76 153 0
-0.292529 -0.431870 -0.183530 76 0 153
-0.045496 0.711626 0.161710 76 153 0
0.050128 -0.219414 -0.222599 153 0 76
0.003840 -0.327290 -0.168158 76 0 153
-0.061439 0.618073 -0.050853 76 153 0
0.211593 -0.378866 -0.109837 76 0 153
-0.058012 -0.115032 -0.206248 76 153 0
-0.359686 -0.376084 -0.293153 127 127 0
0.039576 -0.508414 -0.262054 153 0 76
0.320558 -0.275693 -0.173893 0 255 0
0.025191 0.802891 0.141914 76 153 0
0.172657 -0.324515 -0.185679 76 0 153
-0.041744 -0.525134 -0.109052 153 0 76
-0.330073 -0.384001 -0.341834 127 127 0
-0.138027 -0.325929 -0.176750 76 0 153
-0.355067 -0.390576 -0.025433 127 127 0
-0.046797 0.156882 -0.225497 76 153 0
-0.046138 -0.223472 -0.245592 153 0 76
-0.324646 -0.419946 -0.332564 127 127 0
-0.125505 -0.334676 -0.223052 76 0 153
0.031601 0.430295 -0.106166 76 153 0
-0.030513 0.554221 0.693478 76 153 0
0.069721 -0.671164 -0.112236 76 0 153
-0.283951 -0.395227 -0.159379 76 0 153
0.055385 0.759613 0.390016 76 153 0
-0.023221 -0.178605 -0.241855 76 153 0
0.057311 -0.142563 -0.172832 76 153 0
0.146817 -0.409622 -0.105899 76 0 153
0.374085 -0.528444 -0.197348 0 255 0
-0.018196 0.560416 0.822058 76 153 0
0.264925 -0.371186 -0.113750 76 0 153
0.046289 0.814363 0.268779 76 153 0
-0.057821 0.174799 -0.164944 76 153 0
-0.070261 -0.452253 -0.120433 153 0 76
-0.368091 -0.428263 -0.208947 127 127 0
0.072990 -0.288284 -0.229589 153 0 76
-0.054279 0.748589 0.403371 76 153 0
0.341478 -0.382804 -0.170838 0 255 0
-0.026547 -0.686577 -0.299150 76 0 153
0.018453 0.496435 0.856247 76 153 0
0.317883 -0.408906 -0.327701 0 255 0
-0.337300 -0.431574 -0.127302 127 127 0
-0.056781 0.522974 0.749975 76 153 0
-0.025301 0.677270 0.725930 76 153 0
-0.043018 -0.369089 -0.114819 76 0 153
-0.023816 -0.215988 -0.241647 153 0 76
-0.054324 0.650432 0.633220 76 153 0
0.041539 0.526612 0.823306 76 153 0
-0.061188 0.701999 0.066936 76 153 0
-0.256510 -0.441510 -0.256781 76 0 153
-0.030385 0.460944 -0.201853 76 153 0
0.338863 -0.293011 -0.156792 0 255 0
-0.051052 0.771284 0.541516 76 153 0
-0.076210 -0.659279 -0.229520 153 0 76
0.049493 0.325277 -0.150043 76 153 0
0.030116 0.668351 -0.066020 76 153 0
-0.042940 0.536007 0.719762 76 153 0
-0.336938 -0.295121 -0.159721 127 127 0
-0.282260 -0.358403 -0.132794 76 0 153
0.043810 0.715385 0.654322 76 153 0
-0.378625 -0.434735 -0.178590 127 127 0
-0.042462 0.806893 0.192304 76 153 0
0.040458 0.693564 0.122094 76 153 0
0.353179 -0.434240 -0.048717 0 255 0
0.318661 -0.411302 -0.285592 0 255 0
-0.085841 -0.632259 -0.165031 153 0 76
0.362479 -0.267952 -0.210741 0 255 0
0.032952 0.705522 0.683453 76 153 0
0.043806 0.566986 -0.131277 76 153 0
-0.007193 0.508679 -0.190609 76 153 0
0.372383 -0.421879 -0.115990 0 255 0
-0.368249 -0.428148 -0.272935 127 127 0
-0.024140 0.399038 -0.110419 76 153 0
-0.031227 -0.706973 -0.074020 76 0 153
0.058021 0.178164 -0.192605 76 153 0
-0.055050 -0.427084 -0.108665 76 0 153
0.050477 0.751021 0.578238 76 153 0
-0.075260 -0.629044 -0.231032 153 0 76
-0.054698 0.324986 0.845086 76 153 0
0.042135 0.684568 0.559605 76 153 0
-0.023958 -0.416482 -0.264754 153 0 76
0.055009 0.196046 -0.165986 76 153 0
0.084616 -0.632641 -0.192524 153 0 76
-0.081025 -0.525555 -0.151269 153 0 76
0.082862 -0.243575 -0.165595 153 0 76
0.248522 -0.337026 -0.227665 76 0 153
0.042241 -0.025690 -0.226877 76 153 0
0.002172 -0.446082 -0.272400 153 0 76
-0.236963 -0.325175 -0.181511 76 0 153
-0.356622 -0.373840 -0.214948 127 127 0
0.037081 0.375157 -0.126234 76 153 0
-0.029470 -0.393056 -0.267658 76 0 153
0.037061 0.254632 -0.232057 76 153 0
-0.044872 0.472414 0.851224 76 153 0
0.266152 -0.419282 -0.116146 76 0 153
-0.051449 0.003494 -0.152470 76 153 0
-0.014482 -0.054691 -0.126955 76 153 0
0.009630 0.721559 0.301624 76 153 0
0.081027 -0.306753 -0.160350 153 0 76
0.017022 0.493146 -0.193618 76 153 0
-0.010744 0.606107 -0.133664 76 153 0
-0.220185 -0.372886 -0.112884 76 0 153
0.100584 -0.398184 -0.265442 76 0 153
0.055912 0.258116 -0.203173 76 153 0
-0.074872 -0.369460 -0.114630 76 0 153
0.068741 -0.237019 -0.209751 153 0 76
0.005789 0.117573 -0.126333 76 153 0
0.067022 -0.320424 -0.239087 153 0 76
0.052897 0.717440 0.038447 76 153 0
0.057432 -0.039510 -0.173909 76 153 0
0.371668 -0.386968 -0.040090 0 255 0
-0.036464 -0.358424 -0.265211 153 0 76
-0.323637 -0.416839 -0.047923 127 127 0
0.054462 0.328391 0.850973 76 153 0
-0.046465 -0.336643 -0.112019 153 0 76
0.085146 -0.450824 -0.183919 153 0 76
-0.310325 -0.382983 -0.170487 127 127 0
0.232816 -0.365098 -0.116852 76 0 153
0.084172 -0.276230 -0.175274 153 0 76
-0.032047 0.623067 0.770349 76 153 0
-0.333365 -0.281971 -0.209423 127 127 0
0.002706 0.842755 0.331784 76 153 0
0.026298 0.562940 0.685435 76 153 0
0.002663 0.816183 0.159407 76 153 0
-0.368660 -0.420809 -0.027021 127 127 0
-0.061750 0.697493 0.615629 76 153 0
-0.086376 -0.500681 -0.205093 153 0 76
-0.060860 0.722407 0.107957 76 153 0
0.037318 0.500327 -0.177221 76 153 0
-0.227000 -0.436225 -0.259474 76 0 153
-0.020191 -0.205235 -0.128825 76 153 0
-0.101226 -0.329553 -0.212998 76 0 153
0.056670 0.792270 0.259943 76 153 0
0.057661 0.366535 0.845295 76 153 0
-0.002240 -0.332723 -0.272751 153 0 76
-0.052345 -0.181859 -0.153895 76 153 0
0.130172 -0.347903 -0.241301 76 0 153
0.077459 -0.483090 -0.203225 76 0 153
0.337538 -0.376269 -0.238208 0 255 0
0.016634 -0.301469 -0.100969 153 0 76
-0.018447 0.303599 -0.125301 76 153 0
0.032400 0.294849 -0.233023 76 153 0
0.054962 -0.474239 -0.145922 76 0 153
0.058168 0.578014 -0.074718 76 153 0
0.048005 0.789472 0.165206 76 153 0
0.053358 0.397481 -0.143394 76 153 0
-0.048563 0.254237 -0.223732 76 153 0
-0.183111 -0.453800 -0.121818 76 0 153
0.043603 0.818928 0.286360 76 153 0
0.054811 0.159156 -0.165421 76 153 0
0.019697 0.200995 -0.241977 76 153 0
-0.327158 -0.424206 -0.246619 127 127 0
-0.018492 0.538733 0.699481 76 153 0
0.057746 0.788371 0.375754 76 153 0
0.002994 0.837429 0.397776 76 153 0
0.023693 -0.528527 -0.103171 153 0 76
-0.057651 -0.655009 -0.252006 153 0 76
-0.030970 -0.629893 -0.104606 153 0 76
-0.029143 0.832129 0.383924 76 153 0
0.178172 -0.367837 -0.256283 76 0 153
-0.112756 -0.334628 -0.148782 76 0 153
0.048664 -0.484092 -0.196898 76 0 153
-0.374213 -0.562734 -0.203565 127 127 0
-0.000591 0.821116 0.482828 76 153 0
0.090008 -0.333800 -0.150406 76 0 153
-0.334545 -0.395274 -0.161460 127 127 0
-0.007336 -0.191498 -0.245590 76 153 0
0.033900 -0.218068 -0.234419 153 0 76
0.047939 0.735919 0.439776 76 153 0
0.047523 0.285042 -0.218906 76 153 0
-0.040103 0.733507 0.289136 76 153 0
-0.037452 0.620803 0.022641 76 153 0
-0.058924 -0.035612 -0.203643 76 153 0
-0.054801 0.677348 -0.017892 76 153 0
-0.053531 -0.013583 -0.155783 76 153 0
0.054506 0.757194 0.542582 76 153 0
0.364186 -0.246223 -0.169832 0 255 0
0.054236 0.020519 -0.207962 76 153 0
0.015912 0.480925 0.735674 76 153 0
0.176345 -0.477386 -0.219640 76 0 153
0.051160 0.092525 -0.214674 76 153 0
-0.062680 -0.351491 -0.246977 153 0 76
0.058397 0.647428 0.672717 76 153 0
0.340825 -0.434240 -0.294713 0 255 0
0.369692 -0.532438 -0.166240 0 255 0
0.252587 -0.328764 -0.211450 76 0 153
0.000036 0.722718 0.330228 76 153 0
0.344979 -0.447587 -0.214948 0 255 0
0.031929 -0.570042 -0.265686 153 0 76
-0.337955 -0.378274 -0.044008 127 127 0
-0.044160 0.482307 0.752399 76 153 0
-0.145805 -0.480771 -0.158743 76 0 153
-0.378227 -0.413668 -0.242944 127 127 0
0.075860 -0.345910 -0.225023 153 0 76
-0.069200 -0.328130 -0.162858 76 0 153
-0.052685 0.740566 0.065131 76 153 0
-0.058332 -0.006594 -0.205334 76 153 0
0.342911 -0.565555 -0.200767 0 255 0
-0.061944 0.762374 0.469793 76 153 0
0.247171 -0.325115 -0.181894 76 0 153
0.036229 0.756117 0.604302 76 153 0
-0.024061 0.692634 0.503807 76 153 0
-0.000756 -0.478016 -0.153335 76 0 153
0.031256 0.042042 -0.135660 76 153 0
0.009885 -0.671164 -0.079165 76 0 153
-0.015561 -0.372251 -0.100490 153 0 76
0.015664 0.428288 -0.218684 76 153 0
0.011085 0.811863 0.513291 76 153 0
0.035074 0.791670 0.132677 76 153 0
0.045972 0.744441 0.060676 76 153 0
0.051441 -0.198989 -0.214228 76 153 0
0.053961 -0.108395 -0.208748 76 153 0
-0.000894 -0.671164 -0.092480 76 0 153
0.057523 0.398783 -0.177873 76 153 0
-0.038890 0.700102 0.151388 76 153 0
0.014431 0.674085 0.119947 76 153 0
-0.060329 0.489087 0.801571 76 153 0
0.058172 0.269513 -0.191013 76 153 0
0.344318 -0.340100 -0.156792 0 255 0
0.041415 0.531844 0.724100 76 153 0
0.083660 -0.575473 -0.201015 153 0 76
-0.059079 0.511619 0.803971 76 153 0
0.051324 0.753120 0.092673 76 153 0
0.341287 -0.526157 -0.214948 0 255 0
0.016675 0.693741 0.710306 76 153 0
0.032661 0.630826 0.760545 76 153 0
0.010763 0.327698 0.884936 153 76 0
0.312474 -0.379560 -0.194536 0 255 0
0.057049 -0.556576 -0.249432 153 0 76
0.385544 -0.378281 -0.187118 0 255 0
-0.059953 0.684716 0.051154 76 153 0
0.047421 0.059351 -0.220625 76 153 0
0.114552 -0.476305 -0.221762 76 0 153
-0.376226 -0.419828 -0.134419 127 127 0
-0.082616 -0.598854 -0.215925 153 0 76
0.038549 0.704650 0.154937 76 153 0
0.095644 -0.458796 -0.126814 76 0 153
0.052016 0.509962 0.816651 76 153 0
0.377093 -0.402942 -0.111336 0 255 0
-0.012449 0.364456 0.923052 76 153 0
-0.054543 0.794052 0.456245 76 153 0
0.178540 -0.452740 -0.120758 76 0 153
0.034018 0.713101 0.471862 76 153 0
0.031772 0.280768 -0.134874 76 153 0
-0.358847 -0.376084 -0.331191 127 127 0
-0.056458 0.280850 -0.159957 76 153 0
0.034533 0.733489 0.347950 76 153 0
0.027193 -0.473013 -0.228223 76 0 153
-0.058986 0.493878 -0.149219 76 153 0
0.043755 0.679301 -0.033516 76 153 0
-0.056321 0.704278 0.102096 76 153 0
-0.060987 0.087824 -0.194472 76 153 0
-0.336912 -0.359928 -0.212000 127 127 0
-0.049432 0.627338 -0.080970 76 153 0
-0.020908 0.709132 0.450661 76 153 0
-0.081144 -0.641813 -0.151609 153 0 76
-0.057941 0.550352 0.737842 76 153 0
-0.058489 0.787803 0.219027 76 153 0
-0.017281 -0.292559 -0.100684 153 0 76
0.079664 -0.439316 -0.156457 153 0 76
0.056774 0.729334 0.523475 76 153 0
0.357995 -0.564559 -0.168159 0 255 0
-0.365033 -0.430485 -0.085924 127 127 0
0.026134 0.665051 0.094762 76 153 0
-0.025861 -0.314019 -0.268921 153 0 76
-0.023186 0.407134 -0.222090 76 153 0
0.056489 0.233865 -0.201523 76 153 0
-0.061394 0.772413 0.400824 76 153 0
-0.005548 0.563746 0.675683 76 153 0
0.083806 -0.470720 -0.172027 153 0 76
-0.019909 -0.456490 -0.124508 76 0 153
-0.356187 -0.434240 -0.252250 127 127 0
-0.058704 0.544814 -0.120874 76 153 0
0.003512 0.585593 0.657534 76 153 0
-0.166849 -0.464718 -0.132736 76 0 153
-0.389444 -0.414544 -0.160633 127 127 0
-0.252968 -0.472978 -0.143448 76 0 153
-0.323979 -0.317799 -0.173139 127 127 0
-0.033158 0.685783 0.533358 76 153 0
0.010602 0.462494 -0.208836 76 153 0
-0.012645 -0.348384 -0.241782 76 0 153
0.158238 -0.368297 -0.115222 76 0 153
0.057713 0.544202 0.754137 76 153 0
0.012110 -0.494489 -0.100459 153 0 76
-0.084949 -0.657264 -0.209259 153 0 76
-0.046314 -0.028702 -0.145759 76 153 0
0.053004 0.572346 -0.111493 76 153 0
-0.061451 0.270451 -0.190011 76 153 0
-0.021155 0.666846 0.556118 76 153 0
-0.013692 0.704320 0.200294 76 153 0
-0.043966 0.656553 0.601644 76 153 0
-0.004969 0.486904 -0.068073 76 153 0
0.075206 -0.379934 -0.226063 153 0 76
-0.269806 -0.392738 -0.116364 76 0 153
-0.057909 0.388545 0.868643 76 153 0
0.025757 0.442548 0.879147 76 153 0
-0.044863 0.039064 -0.227432 76 153 0
-0.363545 -0.330283 -0.159466 127 127 0
-0.179812 -0.337916 -0.142329 76 0 153
0.017966 -0.085436 -0.242583 76 153 0
0.081562 -0.589848 -0.161879 153 0 76
-0.074345 -0.237073 -0.202814 153 0 76
-0.105035 -0.395153 -0.106778 76 0 153
0.084746 -0.490227 -0.180367 153 0 76
-0.036701 0.616178 -0.108146 76 153 0
0.084808 -0.363372 -0.180920 153 0 76
-0.056685 -0.250265 -0.118768 153 0 76
0.050952 0.263209 -0.156734 76 153 0
-0.048492 0.782424 0.137437 76 153 0
-0.009974 -0.449378 -0.099860 153 0 76
0.019882 -0.352767 -0.246165 76 0 153
-0.221142 -0.484980 -0.191296 76 0 153
-0.283951 -0.373524 -0.158064 76 0 153
-0.055601 0.223671 -0.159077 76 153 0
-0.083046 -0.574743 -0.157043 153 0 76
-0.059017 0.146183 -0.168364 76 153 0
0.201630 -0.325503 -0.192296 76 0 153
0.152645 -0.383222 -0.108668 76 0 153
0.057674 0.724184 0.112527 76 153 0
0.053830 0.538987 -0.129738 76 153 0
0.333577 -0.308380 -0.159855 0 255 0
-0.030976 0.578449 0.805133 76 153 0
-0.046868 -0.128395 -0.225427 76 153 0
0.035547 0.144903 -0.233384 76 153 0
-0.389366 -0.394209 -0.210306 127 127 0
-0.049485 0.745752 0.339724 76 153 0
-0.003187 -0.485184 -0.181733 76 0 153
0.069461 -0.463613 -0.235205 153 0 76
-0.353049 -0.456718 -0.156792 127 127 0
0.016882 0.560543 -0.158712 76 153 0
-0.027854 -0.469528 -0.234194 76 0 153
0.357218 -0.263358 -0.157177 0 255 0
-0.022040 0.501965 0.853409 76 153 0
-0.053845 -0.671164 -0.274023 76 0 153
0.243573 -0.396136 -0.106622 76 0 153
0.036330 -0.103455 -0.232788 76 153 0
0.042333 0.415435 -0.203867 76 153 0
-0.050983 0.143404 -0.151729 76 153 0
-0.369145 -0.527184 -0.163535 127 127 0
0.109586 -0.483618 -0.199892 76 0 153
-0.371876 -0.303533 -0.165519 127 127 0
-0.038304 -0.442429 -0.256313 76 0 153
0.388482 -0.405792 -0.197657 0 255 0
0.336695 -0.376882 -0.059179 0 255 0
-0.244507 -0.368331 -0.256535 76 0 153
-0.361941 -0.432731 -0.112386 127 127 0
0.056337 0.313376 -0.166228 76 153 0
-0.060152 0.029609 -0.171605 76 153 0
-0.075810 -0.461953 -0.230156 153 0 76
0.052851 0.807386 0.349847 76 153 0
0.198492 -0.467059 -0.236662 76 0 153
-0.298559 -0.411539 -0.159801 76 0 153
0.161618 -0.423310 -0.263673 76 0 153
-0.161685 -0.402507 -0.266126 76 0 153
0.317535 -0.402489 -0.170155 0 255 0
-0.010802 -0.602950 -0.099954 153 0 76
0.055303 0.694281 0.585311 76 153 0
0.028845 0.647705 -0.085693 76 153 0
0.061556 -0.342655 -0.135686 76 0 153
-0.056692 0.415632 0.805720 76 153 0
-0.344834 -0.400231 -0.347091 127 127 0
-0.043495 0.581435 0.792263 76 153 0
0.146036 -0.340891 -0.234289 76 0 153
-0.061214 0.056538 -0.192455 76 153 0
-0.112392 -0.685192 -0.218498 76 0 153
-0.087059 -0.431908 -0.172701 153 0 76
-0.011457 0.750231 0.639279 76 153 0
0.085289 -0.305715 -0.185182 153 0 76
0.030800 0.387903 -0.220845 76 153 0
0.057044 0.006334 -0.171802 76 153 0
0.006141 0.572923 0.668705 76 153 0
0.074828 -0.620724 -0.145075 153 0 76
0.032617 0.826632 0.399286 76 153 0
0.020619 -0.324853 -0.188196 76 0 153
-0.028087 -0.484851 -0.179633 76 0 153
-0.061588 0.737380 0.531409 76 153 0
0.146945 -0.470437 -0.233280 76 0 153
0.057815 0.052124 -0.194435 76 153 0
0.360896 -0.379141 -0.065327 0 255 0
0.327756 -0.426948 -0.250059 0 255 0
0.005140 -0.416659 -0.107014 76 0 153
0.050695 0.808445 0.378676 76 153 0
0.057320 -0.147646 -0.198830 76 153 0
0.011131 -0.213405 -0.126935 76 153 0
-0.055997 0.808760 0.334680 76 153 0
-0.391658 -0.413301 -0.185496 127 127 0
-0.061503 0.330170 -0.184784 76 153 0
-0.006997 0.707435 -0.037166 76 153 0
0.011920 0.665990 0.552948 76 153 0
0.030899 0.464453 -0.091798 76 153 0
-0.255288 -0.395729 -0.265053 76 0 153
0.011091 -0.038614 -0.126931 76 153 0
-0.025851 0.596532 0.653028 76 153 0
-0.060513 0.748443 0.183592 76 153 0
-0.332594 -0.382169 -0.121276 127 127 0
0.084018 -0.601441 -0.173901 153 0 76
-0.033327 0.222945 -0.134965 76 153 0
-0.052395 -0.671164 -0.096782 76 0 153
0.053186 -0.011068 -0.160777 76 153 0
-0.059895 0.623215 -0.026117 76 153 0
-0.133125 -0.327301 -0.203650 76 0 153
-0.088500 -0.477746 -0.186242 153 0 76
-0.052254 0.542993 0.802472 76 153 0
0.052103 -0.337749 -0.117557 153 0 76
-0.048119 0.517742 0.736392 76 153 0
0.043578 0.773611 0.550632 76 153 0
0.053219 0.132671 -0.210869 76 153 0
-0.003470 0.674382 0.534187 76 153 0
0.363146 -0.432181 -0.186248 0 255 0
0.058374 0.470783 -0.145509 76 153 0
-0.038860 -0.451291 -0.119942 76 0 153
0.035135 -0.318849 -0.107175 153 0 76
0.024129 -0.240329 -0.268078 153 0 76
0.075959 -0.382607 -0.108765 76 0 153
0.367063 -0.383622 -0.270756 0 255 0
-0.368391 -0.448294 -0.208753 127 127 0
-0.068185 -0.288018 -0.241472 153 0 76
-0.173773 -0.474094 -0.145638 76 0 153
-0.232919 -0.347163 -0.131179 76 0 153
0.321374 -0.384034 -0.171382 0 255 0
0.280775 -0.369680 -0.130296 76 0 153
0.055813 0.519669 -0.100610 76 153 0
-0.026594 -0.668447 -0.103075 76 0 153
0.150910 -0.331193 -0.216217 76 0 153
0.044318 -0.056194 -0.224800 76 153 0
0.068200 -0.325391 -0.180151 76 0 153
0.078963 -0.489804 -0.154453 153 0 76
0.030602 -0.219414 -0.118609 153 0 76
0.035815 0.728528 0.249751 76 153 0
0.020289 0.017297 -0.129970 76 153 0
0.180897 -0.343765 -0.237163 76 0 153
-0.391658 -0.398820 -0.177589 127 127 0
-0.013582 -0.221076 -0.259259 153 0 76
0.375048 -0.396646 -0.142118 0 255 0
-0.060733 0.741535 0.503759 76 153 0
-0.043727 0.721407 0.012178 76 153 0
0.004181 -0.344495 -0.133847 76 0 153
-0.080693 -0.256308 -0.221422 153 0 76
0.066312 -0.426292 -0.131571 153 0 76
0.023783 -0.313295 -0.268537 153 0 76
-0.379764 -0.408940 -0.104202 127 127 0
0.005951 -0.149545 -0.126351 76 153 0
-0.017218 0.802655 0.532560 76 153 0
-0.088127 -0.649461 -0.182187 153 0 76
-0.060900 0.729243 0.577540 76 153 0
0.043940 -0.352929 -0.246327 76 0 153
0.036276 -0.173481 -0.138898 76 153 0
0.017923 -0.462562 -0.130580 76 0 153
0.243058 -0.482407 -0.207542 76 0 153
0.003505 0.673125 -0.077213 76 153 0
-0.061741 0.368443 -0.176275 76 153 0
-0.014265 -0.260186 -0.100344 153 0 76
0.329935 -0.431239 -0.179546 0 255 0
-0.008076 0.621530 0.782431 76 153 0
0.275585 -0.460983 -0.141856 76 0 153
0.004966 0.597525 0.644230 76 153 0
-0.048415 0.171751 -0.147860 76 153 0
-0.057426 0.390250 -0.190815 76 153 0
-0.328007 -0.424822 -0.148273 127 127 0
0.359902 -0.381758 -0.198849 0 255 0
0.150115 -0.448263 -0.253340 76 0 153
0.317152 -0.406658 -0.128443 0 255 0
0.052998 -0.328127 -0.162876 76 0 153
-0.341377 -0.408377 -0.214948 127 127 0
-0.026464 0.785340 0.097623 76 153 0
-0.098643 -0.330086 -0.157696 76 0 153
-0.087503 -0.460680 -0.195096 153 0 76
-0.363820 -0.494259 -0.212074 127 127 0
-0.042923 0.421805 -0.205044 76 153 0
-0.009267 -0.575777 -0.099781 153 0 76
0.049688 0.748153 0.281517 76 153 0
-0.041313 0.356477 0.911324 76 153 0
0.131636 -0.360853 -0.252725 76 0 153
-0.221481 -0.366125 -0.255411 76 0 153
-0.038541 -0.077181 -0.233498 76 153 0
-0.101259 -0.348076 -0.241474 76 0 153
0.020130 -0.351652 -0.126690 76 0 153
0.266152 -0.465674 -0.230578 76 0 153
-0.053072 -0.059525 -0.216686 76 153 0
-0.051538 -0.213689 -0.219128 153 0 76
0.085186 -0.420403 -0.184273 153 0 76
0.116572 -0.424285 -0.263518 76 0 153
0.053808 0.660731 -0.030342 76 153 0
0.056175 0.659292 0.018496 76 153 0
0.028317 0.785615 0.555739 76 153 0
0.075198 -0.325394 -0.226076 153 0 76
-0.002747 -0.470030 -0.233692 76 0 153
0.280775 -0.439481 -0.242951 76 0 153
0.017187 0.567117 -0.016234 76 153 0
-0.060463 0.574521 0.760741 76 153 0
0.000797 0.109923 -0.245969 76 153 0
0.052639 -0.426113 -0.253842 153 0 76
0.267005 -0.348490 -0.229033 76 0 153
0.041853 0.496078 -0.087352 76 153 0
-0.060301 0.504511 -0.113775 76 153 0
0.044283 0.317877 0.864657 153 76 0
-0.252402 -0.445632 -0.117059 76 0 153
0.280775 -0.398437 -0.135192 76 0 153
-0.322830 -0.395969 -0.147683 127 127 0
0.351721 -0.485104 -0.156792 0 255 0
-0.065198 -0.438295 -0.244459 153 0 76
0.073520 -0.396172 -0.228746 153 0 76
-0.070707 -0.630570 -0.133461 153 0 76
0.005005 0.647796 0.760670 76 153 0
-0.035681 0.813414 0.466119 76 153 0
-0.324966 -0.466109 -0.170102 127 127 0
-0.043535 0.819178 0.410256 76 153 0
-0.026192 0.575205 -0.012741 76 153 0
-0.199245 -0.479097 -0.216284 76 0 153
-0.225093 -0.404198 -0.105345 76 0 153
0.227500 -0.465791 -0.133810 76 0 153
-0.269329 -0.334042 -0.173713 76 0 153
0.044790 0.562373 0.798331 76 153 0
0.056949 0.505346 -0.112736 76 153 0
0.039797 0.537882 -0.154457 76 153 0
0.060241 -0.655396 -0.125500 153 0 76
-0.062889 -0.239704 -0.143833 153 0 76
0.018723 0.783030 0.087310 76 153 0
-0.043052 -0.161701 -0.229243 76 153 0
-0.058828 0.650071 -0.035465 76 153 0
0.025981 0.684662 0.528990 76 153 0
-0.324193 -0.492429 -0.199258 127 127 0
0.054552 -0.484796 -0.179284 76 0 153
-0.283951 -0.353299 -0.198937 76 0 153
0.046727 0.744610 0.297325 76 153 0
-0.067461 -0.582289 -0.242195 153 0 76
0.054429 -0.078625 -0.164328 76 153 0
0.346573 -0.427695 -0.200558 0 255 0
0.054715 0.754794 0.416743 76 153 0
0.388482 -0.400081 -0.165719 0 255 0
-0.315842 -0.386831 -0.205362 127 127 0
-0.059198 0.483658 0.818489 76 153 0
-0.002245 0.086673 -0.125576 76 153 0
-0.123843 -0.481421 -0.211723 76 0 153
0.084945 -0.570145 -0.182130 153 0 76
0.059877 -0.518682 -0.246603 153 0 76
0.214136 -0.339288 -0.139636 76 0 153
-0.241362 -0.390005 -0.107594 76 0 153
-0.017663 0.603107 0.795342 76 153 0
-0.041392 0.772177 0.568205 76 153 0
0.100040 -0.454091 -0.249631 76 0 153
0.022297 0.624027 0.621621 76 153 0
0.017102 0.528353 0.840067 76 153 0
0.143786 -0.480655 -0.213226 76 0 153
-0.050713 0.103944 -0.220442 76 153 0
0.320943 -0.466446 -0.172707 0 255 0
-0.039468 0.337844 -0.226968 76 153 0
0.053791 0.350945 -0.201908 76 153 0
0.056682 0.519191 -0.133173 76 153 0
0.011328 0.393355 0.777885 76 153 0
0.080639 -0.270538 -0.159243 153 0 76
-0.023470 0.553747 -0.161212 76 153 0
0.001915 0.783983 0.078696 76 153 0
-0.081892 -0.659261 -0.153746 76 0 153
0.065251 -0.270415 -0.130511 153 0 76
0.002508 -0.392648 -0.264565 76 0 153
-0.032225 0.834267 0.327397 76 153 0
-0.325417 -0.372621 -0.203026 127 127 0
-0.018538 0.618858 0.037694 76 153 0
-0.191997 -0.364613 -0.254641 76 0 153
0.324092 -0.424285 -0.105367 0 255 0
-0.021591 0.329538 0.811409 76 153 0
-0.057784 0.177658 -0.206901 76 153 0
0.006104 0.253738 -0.245371 76 153 0
0.065427 -0.634977 -0.241053 153 0 76
-0.071163 -0.366318 -0.134188 153 0 76
0.058373 0.781685 0.390678 76 153 0
-0.274682 -0.367969 -0.246149 76 0 153
0.251294 -0.421580 -0.107793 76 0 153
0.373480 -0.403295 -0.172530 0 255 0
0.083704 -0.381446 -0.171117 153 0 76
-0.046263 0.307028 0.851395 153 76 0
0.005089 -0.450268 -0.119421 76 0 153
-0.035160 -0.476724 -0.220941 76 0 153
-0.021611 0.487551 -0.195315 76 153 0
-0.025738 0.674973 -0.065973 76 153 0
-0.087678 -0.570622 -0.178202 153 0 76
0.114884 -0.344323 -0.237721 76 0 153
0.346543 -0.395773 -0.211103 0 255 0
0.010673 0.762762 0.618689 76 153 0
0.057886 0.110475 -0.193805 76 153 0
-0.076716 -0.379263 -0.228715 153 0 76
0.025239 0.189335 -0.131879 76 153 0
-0.029730 0.091868 -0.239035 76 153 0
-0.282950 -0.465341 -0.148481 76 0 153
-0.059020 0.795785 0.386259 76 153 0
-0.044523 0.690075 0.111391 76 153 0
0.360706 -0.291481 -0.159711 0 255 0
0.049117 0.615531 -0.085071 76 153 0
-0.018441 0.345340 0.921365 153 76 0
-0.019596 -0.443611 -0.255711 76 0 153
0.096014 -0.441396 -0.114901 76 0 153
0.278761 -0.333776 -0.185313 76 0 153
0.057650 0.642508 -0.009704 76 153 0
-0.364184 -0.244747 -0.180542 127 127 0
-0.031626 0.115215 -0.237844 76 153 0
0.057306 0.743396 0.554938 76 153 0
-0.086224 -0.400195 -0.105979 76 0 153
-0.003879 0.330957 -0.120673 76 153 0
-0.332199 -0.254038 -0.208576 127 127 0
0.028181 0.720563 0.424113 76 153 0
0.031183 0.505530 0.844858 76 153 0
-0.009295 0.823141 0.190256 76 153 0
0.022724 0.654587 0.579227 76 153 0
0.043899 0.661242 0.058143 76 153 0
0.053812 0.691301 0.077158 76 153 0
0.086674 -0.412129 -0.106296 76 0 153
0.048936 -0.062767 -0.153525 76 153 0
-0.004225 0.213876 -0.125799 76 153 0
-0.048033 0.507649 -0.084165 76 153 0
0.028203 0.690938 0.142743 76 153 0
0.020053 -0.485802 -0.186102 76 0 153
-0.198337 -0.390541 -0.264231 76 0 153
0.016547 -0.029209 -0.243079 76 153 0
-0.058103 0.109490 -0.205989 76 153 0
-0.196729 -0.482605 -0.165452 76 0 153
-0.061241 -0.283033 -0.123325 153 0 76
-0.378227 -0.372706 -0.177363 127 127 0
-0.087923 -0.597646 -0.180376 153 0 76
0.050488 0.672058 0.691703 76 153 0
0.011131 0.447743 0.751522 76 153 0
-0.010601 -0.124582 -0.126517 76 153 0
-0.002826 0.334155 0.898269 153 76 0
-0.010737 0.546808 0.831901 76 153 0
0.266174 -0.391922 -0.116493 76 0 153
-0.042956 -0.242030 -0.109814 153 0 76
0.012654 -0.374788 -0.111915 76 0 153
0.372366 -0.348011 -0.169099 0 255 0
0.038509 0.734816 0.375532 76 153 0
-0.062099 -0.219414 -0.182909 153 0 76
0.029356 -0.483587 -0.200091 76 0 153
0.038413 0.628875 0.632907 76 153 0
-0.102786 -0.403291 -0.266251 76 0 153
-0.031476 0.789319 0.547061 76 153 0
0.037935 0.475628 0.853847 76 153 0
0.001503 0.573795 0.816864 76 153 0
-0.009080 0.455165 0.879546 76 153 0
-0.033381 0.344034 0.810705 76 153 0
0.034476 0.804501 0.164685 76 153 0
-0.315797 -0.430364 -0.176419 127 127 0
-0.222493 -0.348955 -0.242353 76 0 153
0.320005 -0.553973 -0.196145 0 255 0
0.068769 -0.237393 -0.162067 153 0 76
-0.024808 -0.571583 -0.102450 153 0 76
0.071239 -0.548167 -0.232376 153 0 76
0.052621 0.742703 0.217605 76 153 0
-0.021951 0.264462 -0.242300 76 153 0
0.041600 0.740275 0.044640 76 153 0
-0.061101 0.757623 0.201839 76 153 0
0.294800 -0.400552 -0.212219 0 255 0
-0.206507 -0.427082 -0.108665 76 0 153
0.022452 0.831798 0.252504 76 153 0
0.048730 -0.652645 -0.256302 153 0 76
-0.334805 -0.429762 -0.076534 127 127 0
-0.061865 0.650197 -0.011804 76 153 0
0.026272 0.224039 -0.132528 76 153 0
-0.042718 -0.456194 -0.247528 76 0 153
0.155594 -0.326488 -0.198516 76 0 153
-0.322509 -0.259524 -0.177662 127 127 0
0.055619 -0.219414 -0.166480 153 0 76
0.191967 -0.433732 -0.260744 76 0 153
0.054905 0.430018 -0.178946 76 153 0
0.035195 0.228236 -0.233605 76 153 0
0.032643 -0.061163 -0.136531 76 153 0
0.377472 -0.519520 -0.184816 0 255 0
0.024862 0.362828 0.918378 76 153 0
0.057866 0.686827 0.616087 76 153 0
-0.004388 -0.524244 -0.272509 153 0 76
0.154702 -0.332859 -0.152253 76 0 153
0.010371 0.736848 0.001112 76 153 0
0.009532 -0.219414 -0.245635 153 0 76
-0.059571 -0.400664 -0.121654 153 0 76
-0.071502 -0.478702 -0.154682 76 0 153
0.007486 0.429152 0.891945 76 153 0
-0.052556 -0.326964 -0.170218 76 0 153
0.055216 0.124025 -0.166579 76 153 0
-0.047894 0.554298 0.712035 76 153 0
-0.374230 -0.423803 -0.116456 127 127 0
-0.373155 -0.424811 -0.167695 127 127 0
0.054755 0.455409 0.836191 76 153 0
-0.378881 -0.301093 -0.179375 127 127 0
0.335154 -0.378001 -0.306154 0 255 0
-0.064698 -0.240329 -0.227124 153 0 76
-0.020339 -0.054939 -0.242864 76 153 0
-0.141112 -0.484917 -0.191693 76 0 153
-0.348401 -0.434240 -0.056899 127 127 0
0.051135 0.071780 -0.157025 76 153 0
-0.049092 0.679222 0.083533 76 153 0
0.055444 -0.375959 -0.251036 153 0 76
0.015041 0.326291 -0.238824 76 153 0
-0.356819 -0.565948 -0.175529 127 127 0
0.012193 0.706788 0.209373 76 153 0
-0.057242 0.764405 0.528846 76 153 0
0.072647 -0.531965 -0.230135 153 0 76
-0.014164 0.436033 0.757174 76 153 0
0.376709 -0.401758 -0.328120 0 255 0
0.386335 -0.417684 -0.162233 0 255 0
-0.073652 -0.510723 -0.233592 153 0 76
-0.246730 -0.420632 -0.107643 76 0 153
0.351128 -0.549833 -0.156792 0 255 0
-0.032652 0.690820 -0.040502 76 153 0
0.356039 -0.434240 -0.261173 0 255 0
-0.059316 0.498500 0.772542 76 153 0
0.057544 0.743018 0.111221 76 153 0
0.000694 0.478005 -0.203812 76 153 0
0.058029 0.041056 -0.179208 76 153 0
0.134259 -0.429329 -0.262719 76 0 153
0.266152 -0.476611 -0.213118 76 0 153
-0.322783 -0.515657 -0.194918 127 127 0
0.027157 -0.446893 -0.104384 153 0 76
-0.059452 -0.145093 -0.169607 76 153 0
-0.060769 0.784097 0.238143 76 153 0
0.053486 -0.398054 -0.118746 153 0 76
0.057616 0.716329 0.565276 76 153 0
0.083741 -0.333879 -0.171446 153 0 76
-0.011094 0.710460 0.227444 76 153 0
0.130227 -0.341350 -0.136992 76 0 153
-0.046007 0.649681 -0.067163 76 153 0
0.057447 0.735792 0.145756 76 153 0
-0.060398 0.411913 -0.176912 76 153 0
0.017028 0.614871 -0.122325 76 153 0
-0.014556 0.801279 0.123694 76 153 0
0.006146 0.299620 -0.123751 76 153 0
0.345730 -0.244328 -0.174076 0 255 0
0.051681 0.285009 -0.156507 76 153 0
-0.059006 0.538787 -0.089096 76 153 0
-0.377329 -0.357076 -0.174601 127 127 0
-0.002902 0.360727 -0.114504 76 153 0
-0.364265 -0.379281 -0.116440 127 127 0
0.374115 -0.442878 -0.174483 0 255 0
0.083937 -0.390510 -0.198551 153 0 76
0.001803 0.034278 -0.125884 76 153 0
-0.017548 0.521491 -0.183015 76 153 0
0.061278 -0.367269 -0.126538 153 0 76
-0.338103 -0.431211 -0.192372 127 127 0
-0.017104 0.093059 -0.127744 76 153 0
-0.080736 -0.671164 -0.261358 76 0 153
0.340027 -0.257612 -0.214948 0 255 0
0.364285 -0.381603 -0.309770 0 255 0
0.173523 -0.483703 -0.172383 76 0 153
0.100783 -0.671164 -0.222063 76 0 153
-0.056527 0.780503 0.167078 76 153 0
0.248629 -0.447817 -0.118172 76 0 153
-0.043565 0.738405 0.039147 76 153 0
-0.061617 -0.504209 -0.123700 153 0 76
0.158609 -0.445397 -0.116939 76 0 153
-0.028609 -0.091356 -0.239739 76 153 0
-0.026754 0.488159 -0.074779 76 153 0
0.021739 -0.005306 -0.241262 76 153 0
-0.283951 -0.471150 -0.203736 76 0 153
0.057817 -0.486633 -0.248663 153 0 76
-0.052941 0.579848 -0.043311 76 153 0
0.221796 -0.483099 -0.203172 76 0 153
-0.048563 0.532392 -0.150823 76 153 0
-0.016296 0.687980 0.718958 76 153 0
-0.061043 0.648886 0.686879 76 153 0
-0.039871 0.438689 0.873113 76 153 0
-0.227838 -0.484475 -0.177255 76 0 153
-0.334497 -0.368605 -0.161494 127 127 0
0.082953 -0.653007 -0.205886 76 0 153
0.051710 -0.048041 -0.157940 76 153 0
-0.013896 -0.034739 -0.244851 76 153 0
-0.048830 0.001479 -0.223438 76 153 0
-0.036228 0.798627 0.517114 76 153 0
-0.058740 0.254011 -0.167571 76 153 0
-0.060448 -0.113198 -0.172487 76 153 0
-0.009905 -0.646948 -0.271887 153 0 76
0.056735 0.195056 -0.200822 76 153 0
0.007032 0.687000 0.721780 76 153 0
0.043519 0.738686 0.269596 76 153 0
-0.050251 -0.560509 -0.114397 153 0 76
0.041091 -0.383071 -0.108692 153 0 76
0.038919 0.801789 0.491084 76 153 0
-0.335251 -0.430085 -0.099943 127 127 0
0.376664 -0.264125 -0.189411 0 255 0
0.363627 -0.502028 -0.209906 0 255 0
0.058596 -0.053842 -0.184235 76 153 0
-0.251566 -0.454761 -0.248961 76 0 153
-0.144343 -0.379006 -0.261974 76 0 153
-0.029721 0.375251 0.793032 76 153 0
0.266234 -0.417720 -0.255355 76 0 153
-0.010958 0.062741 -0.126558 76 153 0
0.058644 0.705832 0.597263 76 153 0
-0.048494 0.417239 0.789632 76 153 0
-0.019673 -0.259282 -0.270786 153 0 76
0.023967 0.833978 0.286260 76 153 0
0.057506 0.549479 0.774648 76 153 0
0.368743 -0.416207 -0.206189 0 255 0
-0.331058 -0.383285 -0.277371 127 127 0
0.317682 -0.513506 -0.188996 0 255 0
0.066292 -0.704332 -0.092276 76 0 153
0.016277 0.288309 -0.126846 76 153 0
0.058520 -0.085163 -0.183563 76 153 0
-0.337663 -0.343281 -0.159194 127 127 0
-0.070806 -0.517054 -0.133620 153 0 76
0.344635 -0.325908 -0.214948 0 255 0
-0.064296 -0.381671 -0.245361 153 0 76
0.070739 -0.668652 -0.233172 76 0 153
-0.060644 0.330984 -0.169338 76 153 0
-0.003555 0.638132 0.769397 76 153 0
0.036215 0.385075 0.899610 76 153 0
-0.041687 0.824114 0.287161 76 153 0
0.018847 0.832167 0.419122 76 153 0
-0.034158 0.395051 -0.218957 76 153 0
-0.010049 -0.091937 -0.126455 76 153 0
-0.009969 0.712702 0.424231 76 153 0
0.026712 0.706379 -0.025487 76 153 0
-0.042900 0.521988 -0.164445 76 153 0
-0.256547 -0.364519 -0.117147 76 0 153
-0.016861 -0.334978 -0.100636 153 0 76
-0.060392 0.438625 0.836505 76 153 0
0.318197 -0.409872 -0.093477 0 255 0
-0.346335 -0.555597 -0.214948 127 127 0
0.057426 -0.009256 -0.197888 76 153 0
0.007729 -0.282136 -0.099965 153 0 76
-0.037005 0.278435 -0.136345 76 153 0
-0.327013 -0.386224 -0.307389 127 127 0
-0.059719 0.758753 0.239440 76 153 0
-0.000050 -0.304983 -0.272651 153 0 76
-0.081020 -0.604805 -0.151252 153 0 76
-0.314089 -0.417716 -0.162250 127 127 0
0.140879 -0.428506 -0.108890 76 0 153
0.021472 0.256445 -0.130384 76 153 0
0.037692 -0.339115 -0.139975 76 0 153
-0.095573 -0.687899 -0.118612 76 0 153
0.028899 0.772866 0.584699 76 153 0
0.103489 -0.690248 -0.136875 76 0 153
0.036994 -0.321639 -0.263676 153 0 76
0.083072 -0.685306 -0.264357 76 0 153
-0.055007 0.598990 0.689645 76 153 0
-0.039615 0.571768 0.686949 76 153 0
-0.061067 -0.031683 -0.177975 76 153 0
-0.200348 -0.438758 -0.258183 76 0 153
-0.380309 -0.520704 -0.187969 127 127 0
0.054724 -0.535254 -0.119984 153 0 76
0.329901 -0.381817 -0.152012 0 255 0
-0.322712 -0.549570 -0.194700 127 127 0
-0.195210 -0.325286 -0.190929 76 0 153
0.059995 -0.566709 -0.125255 153 0 76
-0.082622 -0.401323 -0.265939 76 0 153
0.368307 -0.331393 -0.165234 0 255 0
0.044552 0.616725 0.001410 76 153 0
-0.020988 0.318654 -0.238436 76 153 0
0.039169 0.309845 -0.138546 76 153 0
-0.020863 -0.123266 -0.242680 76 153 0
0.090581 -0.470797 -0.232573 76 0 153
0.320734 -0.440865 -0.198390 0 255 0
-0.060299 -0.460221 -0.243501 76 0 153
-0.045803 -0.281063 -0.111603 153 0 76
0.066967 -0.401424 -0.132565 153 0 76
-0.054388 0.078213 -0.214593 76 153 0
0.018817 0.823702 0.206688 76 153 0
-0.003155 -0.503267 -0.272648 153 0 76
-0.066753 -0.470666 -0.128836 76 0 153
-0.351346 -0.389580 -0.156792 127 127 0
0.035945 0.416865 0.884472 76 153 0
0.058696 0.351596 0.864390 76 153 0
-0.016898 -0.325234 -0.181137 76 0 153
0.331856 -0.380397 -0.114085 0 255 0
-0.059339 0.461946 -0.161719 76 153 0
-0.230906 -0.332956 -0.219677 76 0 153
0.028541 0.166856 -0.133954 76 153 0
0.069351 -0.678887 -0.277541 76 0 153
-0.015763 0.834360 0.419782 76 153 0
-0.048391 0.760983 0.086785 76 153 0
0.370172 -0.563395 -0.198644 0 255 0
0.051569 0.651076 -0.048619 76 153 0
0.069827 -0.245370 -0.234624 153 0 76
-0.085548 -0.365648 -0.164195 153 0 76
-0.049032 0.743777 0.604735 76 153 0
-0.068756 -0.485836 -0.185889 76 0 153
-0.144315 -0.470008 -0.138026 76 0 153
0.015622 0.615496 0.784543 76 153 0
0.335026 -0.432230 -0.325305 0 255 0
-0.296307 -0.391742 -0.209049 127 127 0
-0.005300 -0.388336 -0.107858 76 0 153
-0.368085 -0.351065 -0.208975 127 127 0
0.032830 0.589595 0.669166 76 153 0
0.023311 0.696332 0.497469 76 153 0
-0.033459 -0.221426 -0.118336 153 0 76
0.026191 -0.185267 -0.132477 76 153 0
-0.032614 0.371102 0.911176 76 153 0
0.039558 0.734239 0.396942 76 153 0
-0.042527 0.566519 -0.036916 76 153 0
0.025792 0.825178 0.437034 76 153 0
0.224583 -0.356369 -0.249767 76 0 153
0.054940 0.372553 0.831105 76 153 0
-0.101874 -0.429180 -0.262743 76 0 153
-0.040203 -0.042800 -0.232091 76 153 0
-0.104788 -0.425070 -0.108346 76 0 153
-0.322693 -0.396390 -0.268610 127 127 0
-0.377066 -0.417240 -0.214666 127 127 0
-0.151522 -0.476230 -0.221910 76 0 153
-0.011340 0.035993 -0.245139 76 153 0
-0.060584 0.793510 0.350200 76 153 0
-0.042310 0.387841 0.895028 76 153 0
-0.224772 -0.433729 -0.110994 76 0 153
0.337460 -0.433998 -0.272972 0 255 0
0.266152 -0.481539 -0.185228 76 0 153
-0.019324 0.581446 -0.146250 76 153 0
-0.056880 0.053655 -0.209485 76 153 0
0.319420 -0.396686 -0.235452 0 255 0
-0.065269 -0.671164 -0.106617 76 0 153
0.025267 0.726234 0.295017 76 153 0
-0.019152 -0.437188 -0.100895 153 0 76
-0.023876 -0.039609 -0.130114 76 153 0
-0.254213 -0.481909 -0.210686 76 0 153
0.341766 -0.376084 -0.223513 0 255 0
0.216511 -0.426982 -0.263091 76 0 153
-0.054384 0.740305 0.217198 76 153 0
0.116549 -0.329797 -0.158264 76 0 153
0.327492 -0.559385 -0.164276 0 255 0
-0.005977 -0.021310 -0.245743 76 153 0
-0.025726 -0.567177 -0.268968 153 0 76
-0.029675 0.729138 0.322820 76 153 0
-0.269329 -0.340206 -0.214170 76 0 153
-0.283951 -0.453172 -0.169284 76 0 153
-0.046678 0.730013 0.439391 76 153 0
-0.340826 -0.438613 -0.214844 127 127 0
0.041663 -0.352997 -0.110997 153 0 76
-0.283951 -0.420332 -0.215301 76 0 153
-0.003759 0.814180 0.510560 76 153 0
-0.043984 0.126682 -0.143429 76 153 0
-0.054982 0.803066 0.417753 76 153 0
0.014178 0.049940 -0.127832 76 153 0
0.034050 0.670028 0.723105 76 153 0
-0.378817 -0.398471 -0.040459 127 127 0
0.050907 0.724838 0.619795 76 153 0
-0.035620 -0.264039 -0.106233 153 0 76
0.091296 -0.377413 -0.261162 76 0 153
-0.085984 -0.247444 -0.206299 153 0 76
-0.349020 -0.434240 -0.313031 127 127 0
0.047904 0.705975 0.006312 76 153 0
0.050140 0.593367 -0.032624 76 153 0
-0.060764 0.358817 0.848310 76 153 0
0.222352 -0.337030 -0.227673 76 0 153
-0.087729 -0.615720 -0.193089 153 0 76
0.029660 0.637971 0.048091 76 153 0
-0.295319 -0.378423 -0.183727 76 0 153
-0.025630 0.603932 -0.128555 76 153 0
0.017618 0.381011 0.786172 76 153 0
-0.228853 -0.481758 -0.211061 76 0 153
0.079747 -0.300537 -0.215046 153 0 76
-0.357333 -0.545054 -0.214948 127 127 0
0.024929 -0.149246 -0.240055 76 153 0
-0.056561 0.674008 0.681418 76 153 0
-0.005645 0.794129 0.103390 76 153 0
0.069325 -0.255401 -0.136317 153 0 76
0.039528 0.240341 -0.142150 76 153 0
-0.061599 0.679374 0.636209 76 153 0
0.058600 0.721748 0.085820 76 153 0
0.027897 -0.338192 -0.267097 153 0 76
-0.048167 0.770788 0.109214 76 153 0
-0.050097 0.333421 0.832866 76 153 0
0.369903 -0.424639 -0.308366 0 255 0
-0.060531 0.151629 -0.198514 76 153 0
0.222385 -0.328648 -0.160519 76 0 153
-0.087125 -0.311186 -0.173293 153 0 76
0.041629 0.648606 0.043902 76 153 0
0.054025 -0.682462 -0.084569 76 0 153
0.009863 0.829761 0.219586 76 153 0
-0.046763 0.366390 0.812333 76 153 0
-0.087651 -0.353628 -0.193780 153 0 76
-0.207971 -0.326880 -0.200995 76 0 153
-0.052100 0.620629 -0.003971 76 153 0
0.007729 0.706891 0.698930 76 153 0
0.337234 -0.433834 -0.237589 0 255 0
0.051904 0.537544 0.800492 76 153 0
-0.093248 -0.454571 -0.249151 76 0 153
0.044653 0.578973 -0.033955 76 153 0
0.209629 -0.376784 -0.260842 76 0 153
-0.039664 0.277671 -0.231698 76 153 0
0.017509 -0.364551 -0.101067 153 0 76
-0.356862 -0.272743 -0.214948 127 127 0
0.043410 0.363019 0.813769 76 153 0
-0.061167 0.131243 -0.192872 76 153 0
-0.070777 -0.575988 -0.133573 153 0 76
-0.076403 -0.426738 -0.229213 153 0 76
0.028108 0.812599 0.179937 76 153 0
0.037310 -0.039204 -0.231808 76 153 0
0.369872 -0.385662 -0.220943 0 255 0
-0.048385 0.738783 0.252208 76 153 0
0.029554 0.473635 -0.194754 76 153 0
-0.003761 0.161325 -0.245993 76 153 0
-0.044442 0.681132 0.563370 76 153 0
-0.042355 0.465087 -0.098967 76 153 0
-0.016488 -0.162959 -0.244211 76 153 0
-0.019477 0.415205 0.769101 76 153 0
0.027407 -0.505417 -0.104471 153 0 76
0.280775 -0.458258 -0.178898 76 0 153
-0.019085 0.477959 0.737406 76 153 0
-0.060778 0.345033 -0.189924 76 153 0
-0.019696 0.723761 0.305574 76 153 0
-0.206023 -0.484810 -0.192370 76 0 153
-0.043395 -0.654315 -0.261650 153 0 76
-0.031024 0.667921 0.097132 76 153 0
-0.037253 -0.335701 -0.146677 76 0 153
-0.036510 0.730222 0.380871 76 153 0
-0.049424 0.705745 0.524756 76 153 0
-0.007121 0.412591 0.900408 76 153 0
-0.051127 0.672724 -0.032302 76 153 0
0.042426 0.614827 0.655041 76 153 0
-0.053873 0.394713 0.809861 76 153 0
0.048066 -0.474873 -0.224574 76 0 153
0.066051 -0.580094 -0.131310 153 0 76
0.036876 0.320490 0.827104 76 153 0
-0.276433 -0.417438 -0.116340 76 0 153
0.058526 0.340322 -0.177809 76 153 0
-0.283951 -0.411802 -0.233125 76 0 153
-0.017983 0.165025 -0.128052 76 153 0
0.009367 0.221457 -0.245003 76 153 0
-0.349985 -0.486757 -0.214948 127 127 0
-0.005277 0.537448 -0.177078 76 153 0
0.084913 -0.250215 -0.189893 153 0 76
0.066456 -0.352872 -0.239989 153 0 76
0.049904 0.352165 0.897516 76 153 0
0.058750 0.661402 0.000661 76 153 0
-0.362772 -0.511361 -0.212835 127 127 0
-0.044068 -0.354186 -0.124155 76 0 153
-0.283951 -0.403267 -0.137020 76 0 153
-0.053441 -0.069474 -0.155640 76 153 0
0.280775 -0.387489 -0.243649 76 0 153
-0.060911 0.096027 -0.176593 76 153 0
-0.374155 -0.386467 -0.314838 127 127 0
0.083710 -0.449100 -0.200570 153 0 76
-0.061452 -0.189116 -0.190345 76 153 0
