ply
format ascii 1.0
element vertex 618
property float x
property float y
property float z
property float nx
property float ny
property float nz
property uchar red
property uchar green
property uchar blue
property float opacity
end_header
0.203896 0.452518 -0.549922 0.000000 0.000000 -1.000000 204 210 220 1.000000
-0.609009 0.319469 -0.311480 1.000000 0.000000 0.000000 255 255 255 1.000000
-0.436235 -0.247961 0.402557 0.000000 -0.000000 1.000000 255 255 255 1.000000
-0.609009 0.153712 -0.448374 -1.000000 0.000000 0.000000 204 210 220 1.000000
-0.609009 0.432225 -0.260912 1.000000 0.000000 0.000000 255 255 255 1.000000
-0.586927 0.576188 0.050200 0.000000 1.000000 0.000000 210 216 226 1.000000
0.590566 -0.195848 0.326896 -1.000000 0.000000 0.000000 255 255 255 1.000000
-0.495767 0.576188 -0.546388 0.000000 -1.000000 -0.000000 255 255 255 1.000000
-0.609009 0.089720 0.124878 -1.000000 0.000000 0.000000 205 211 221 1.000000
-0.315486 -0.039746 0.402557 0.000000 0.000000 -1.000000 255 255 255 1.000000
0.182406 0.576188 -0.168394 0.000000 -1.000000 -0.000000 255 255 255 1.000000
-0.609009 -0.434808 -0.389570 1.000000 0.000000 0.000000 255 255 255 1.000000
0.287377 0.246587 -0.549922 0.000000 0.000000 -1.000000 204 210 220 1.000000
-0.367768 0.061136 -0.549922 0.000000 0.000000 -1.000000 211 217 227 1.000000
-0.084426 -0.410508 -0.549922 0.000000 -0.000000 1.000000 255 255 255 1.000000
-0.068737 0.352746 -0.549922 0.000000 0.000000 -1.000000 202 208 218 1.000000
0.163674 0.533594 0.467899 0.000000 -0.000000 1.000000 238 238 238 1.000000
0.307788 -0.623386 0.307873 0.000000 -1.000000 -0.000000 204 210 220 1.000000
-0.077386 -0.623386 -0.135282 0.000000 1.000000 0.000000 255 255 255 1.000000
-0.156735 -0.621980 -0.549922 0.000000 -0.000000 1.000000 255 255 255 1.000000
-0.554522 -0.527228 0.352031 0.000000 -0.000000 1.000000 35 35 35 1.000000
-0.228257 -0.623386 0.278267 0.000000 -1.000000 -0.000000 200 206 216 1.000000
-0.609009 0.302210 0.423336 -1.000000 0.000000 0.000000 193 193 193 1.000000
0.124903 0.333129 -0.549922 0.000000 0.000000 -1.000000 194 200 210 1.000000
-0.078430 -0.623386 0.205491 0.000000 1.000000 0.000000 255 255 255 1.000000
0.238043 0.174913 -0.549922 0.000000 -0.000000 1.000000 255 255 255 1.000000
0.280701 0.123791 0.409965 0.000000 -0.000000 1.000000 255 255 255 1.000000
-0.609009 0.427468 -0.547321 1.000000 0.000000 0.000000 255 255 255 1.000000
0.388241 -0.402776 0.467899 0.000000 -0.000000 1.000000 239 239 239 1.000000
-0.213633 -0.027145 0.467899 0.000000 0.000000 -1.000000 255 255 255 1.000000
-0.500448 -0.276622 0.402557 0.000000 -0.000000 1.000000 255 255 255 1.000000
0.084766 -0.494319 0.445479 0.000000 1.000000 0.000000 255 255 255 1.000000
-0.036016 0.576188 0.026121 0.000000 -1.000000 -0.000000 255 255 255 1.000000
0.030123 -0.623386 -0.020473 0.000000 -1.000000 -0.000000 198 204 214 1.000000
-0.019963 0.042839 0.402557 0.000000 -0.000000 1.000000 255 255 255 1.000000
-0.327467 0.576188 -0.488162 0.000000 1.000000 0.000000 200 206 216 1.000000
-0.609009 0.065620 -0.038880 1.000000 0.000000 0.000000 255 255 255 1.000000
-0.251845 0.576188 -0.235692 0.000000 1.000000 0.000000 195 201 211 1.000000
0.590566 0.222411 0.162713 -1.000000 0.000000 0.000000 255 255 255 1.000000
0.126023 -0.333607 -0.549922 0.000000 -0.000000 1.000000 255 255 255 1.000000
0.041741 -0.292368 -0.549922 0.000000 -0.000000 1.000000 255 255 255 1.000000
0.134374 -0.623386 -0.351200 0.000000 -1.000000 -0.000000 205 211 221 1.000000
0.129819 -0.363574 0.402557 0.000000 0.000000 -1.000000 255 255 255 1.000000
-0.428470 0.576188 -0.508916 0.000000 -1.000000 -0.000000 255 255 255 1.000000
-0.609009 -0.436510 -0.028643 1.000000 0.000000 0.000000 255 255 255 1.000000
-0.032652 -0.167443 0.467899 0.000000 -0.000000 1.000000 197 197 197 1.000000
0.442420 0.576188 -0.149347 0.000000 1.000000 0.000000 202 208 218 1.000000
0.353061 0.576188 0.140276 0.000000 -1.000000 -0.000000 255 255 255 1.000000
0.590566 -0.316129 0.359866 -1.000000 0.000000 0.000000 255 255 255 1.000000
-0.572491 0.576188 -0.303843 0.000000 -1.000000 -0.000000 255 255 255 1.000000
0.487506 0.030592 -0.549922 0.000000 0.000000 -1.000000 206 212 222 1.000000
0.119228 -0.048177 0.467899 0.000000 0.000000 -1.000000 255 255 255 1.000000
-0.609009 0.326062 0.037112 1.000000 0.000000 0.000000 255 255 255 1.000000
-0.348996 -0.402304 0.467899 0.000000 0.000000 -1.000000 255 255 255 1.000000
-0.609009 0.041033 -0.446980 -1.000000 0.000000 0.000000 207 213 223 1.000000
0.590566 0.326846 -0.148181 -1.000000 0.000000 0.000000 255 255 255 1.000000
0.005029 -0.348633 0.467899 0.000000 -0.000000 1.000000 204 204 204 1.000000
-0.609009 0.104524 -0.527233 -1.000000 0.000000 0.000000 208 214 224 1.000000
0.590566 0.225004 -0.016441 1.000000 0.000000 0.000000 203 209 219 1.000000
0.583329 -0.493982 -0.549922 0.000000 -0.000000 1.000000 255 255 255 1.000000
0.590566 0.146435 -0.047465 -1.000000 0.000000 0.000000 255 255 255 1.000000
-0.368829 0.126087 -0.549922 0.000000 -0.000000 1.000000 255 255 255 1.000000
0.590566 0.417065 0.061563 -1.000000 0.000000 0.000000 255 255 255 1.000000
-0.546642 0.494334 0.409965 0.000000 -0.000000 1.000000 255 255 255 1.000000
0.085038 -0.269575 0.409965 0.000000 -0.000000 1.000000 255 255 255 1.000000
0.025819 0.576188 -0.456846 0.000000 1.000000 0.000000 202 208 218 1.000000
0.302451 0.576188 0.315929 0.000000 -1.000000 -0.000000 255 255 255 1.000000
0.525959 -0.623386 -0.097620 0.000000 1.000000 0.000000 255 255 255 1.000000
0.437399 0.307547 0.467899 0.000000 0.000000 -1.000000 255 255 255 1.000000
0.441654 0.025825 0.467899 0.000000 0.000000 -1.000000 255 255 255 1.000000
0.072707 -0.179721 0.467899 0.000000 0.000000 -1.000000 255 255 255 1.000000
-0.483125 -0.623386 -0.063405 0.000000 1.000000 0.000000 255 255 255 1.000000
-0.363711 -0.623386 0.090350 0.000000 1.000000 0.000000 255 255 255 1.000000
-0.609009 0.560847 -0.470547 1.000000 0.000000 0.000000 255 255 255 1.000000
-0.295566 0.279223 0.467899 0.000000 -0.000000 1.000000 173 173 173 1.000000
0.590566 -0.489677 -0.171068 1.000000 0.000000 0.000000 194 200 214 1.000000
0.590566 0.102219 0.418079 1.000000 0.000000 0.000000 232 232 232 1.000000
0.590566 0.418295 -0.260261 1.000000 0.000000 0.000000 202 208 218 1.000000
-0.073960 0.576188 0.433250 0.000000 -1.000000 -0.000000 255 255 255 1.000000
-0.256085 -0.623386 -0.378221 0.000000 -1.000000 -0.000000 194 200 210 1.000000
-0.247187 -0.623386 0.115362 0.000000 1.000000 0.000000 255 255 255 1.000000
-0.334510 -0.623386 -0.079623 0.000000 -1.000000 -0.000000 202 208 218 1.000000
0.241533 0.576188 -0.074398 0.000000 -1.000000 -0.000000 255 255 255 1.000000
-0.248027 0.160395 0.409965 0.000000 0.000000 -1.000000 255 255 255 1.000000
-0.298628 0.117135 -0.549922 0.000000 0.000000 -1.000000 203 209 219 1.000000
-0.012251 0.153295 -0.549922 0.000000 -0.000000 1.000000 255 255 255 1.000000
-0.543450 0.576188 -0.355903 0.000000 -1.000000 -0.000000 255 255 255 1.000000
0.416448 -0.623386 0.215624 0.000000 -1.000000 -0.000000 207 213 223 1.000000
0.028698 -0.510338 -0.549922 0.000000 0.000000 -1.000000 206 212 222 1.000000
-0.609009 -0.065327 -0.357716 1.000000 0.000000 0.000000 255 255 255 1.000000
0.309734 -0.623386 0.072631 0.000000 -1.000000 -0.000000 204 210 220 1.000000
0.060196 0.394693 0.402557 0.000000 0.000000 -1.000000 255 255 255 1.000000
-0.107919 -0.253498 0.402557 0.000000 -0.000000 1.000000 255 255 255 1.000000
-0.218474 0.447127 -0.549922 0.000000 0.000000 -1.000000 208 214 224 1.000000
-0.149291 0.237331 0.409965 0.000000 0.000000 -1.000000 255 255 255 1.000000
-0.578595 -0.623386 -0.099608 0.000000 -1.000000 -0.000000 202 208 218 1.000000
0.507963 -0.336402 0.402557 0.000000 -0.000000 1.000000 255 255 255 1.000000
0.590566 0.427398 0.199075 -1.000000 0.000000 0.000000 255 255 255 1.000000
-0.609009 -0.141813 0.335182 1.000000 0.000000 0.000000 255 255 255 1.000000
-0.609009 0.102732 0.353987 1.000000 0.000000 0.000000 255 255 255 1.000000
0.590566 0.311218 -0.527992 1.000000 0.000000 0.000000 206 212 222 1.000000
0.311449 0.576188 -0.304902 0.000000 -1.000000 -0.000000 255 255 255 1.000000
-0.562428 0.576188 -0.192266 0.000000 1.000000 0.000000 207 213 223 1.000000
0.590566 0.507540 -0.213371 1.000000 0.000000 0.000000 200 206 216 1.000000
-0.307391 -0.494319 0.467860 0.000000 1.000000 0.000000 255 255 255 1.000000
0.052217 -0.229755 0.467899 0.000000 0.000000 -1.000000 255 255 255 1.000000
0.590566 -0.354204 0.246693 -1.000000 0.000000 0.000000 255 255 255 1.000000
-0.425113 -0.211056 0.409965 0.000000 -0.000000 1.000000 255 255 255 1.000000
0.264656 -0.623386 0.335326 0.000000 -1.000000 -0.000000 211 217 227 1.000000
-0.226248 -0.076805 0.409965 0.000000 -0.000000 1.000000 255 255 255 1.000000
0.577084 -0.117683 0.467899 0.000000 0.000000 -1.000000 255 255 255 1.000000
-0.609009 0.367912 -0.382742 -1.000000 0.000000 0.000000 200 206 216 1.000000
0.590566 0.504390 -0.106213 1.000000 0.000000 0.000000 198 204 214 1.000000
0.081833 0.576188 -0.118569 0.000000 -1.000000 -0.000000 255 255 255 1.000000
-0.558948 -0.623386 0.255158 0.000000 -1.000000 -0.000000 190 196 210 1.000000
0.590566 -0.343225 0.306350 -1.000000 0.000000 0.000000 255 255 255 1.000000
-0.609009 0.163958 -0.229822 -1.000000 0.000000 0.000000 198 204 214 1.000000
-0.372499 -0.415944 0.409965 0.000000 0.000000 -1.000000 255 255 255 1.000000
0.311231 0.480906 -0.549922 0.000000 0.000000 -1.000000 208 214 224 1.000000
-0.495901 0.576188 -0.245279 0.000000 1.000000 0.000000 209 215 225 1.000000
-0.116316 -0.623386 -0.279261 0.000000 -1.000000 -0.000000 209 215 225 1.000000
-0.280112 0.576188 -0.316425 0.000000 1.000000 0.000000 200 206 216 1.000000
0.545455 -0.219707 0.402557 0.000000 -0.000000 1.000000 255 255 255 1.000000
-0.340100 0.576188 -0.421977 0.000000 1.000000 0.000000 202 208 218 1.000000
0.515513 -0.623386 0.004581 0.000000 -1.000000 -0.000000 205 211 221 1.000000
0.590566 -0.464725 -0.210603 -1.000000 0.000000 0.000000 255 255 255 1.000000
0.590566 0.103903 0.048542 1.000000 0.000000 0.000000 198 204 214 1.000000
-0.417293 0.454459 0.467899 0.000000 -0.000000 1.000000 239 239 239 1.000000
-0.609009 0.215032 -0.179396 1.000000 0.000000 0.000000 255 255 255 1.000000
0.590566 -0.278666 -0.493616 1.000000 0.000000 0.000000 199 205 215 1.000000
0.553716 0.081685 0.467899 0.000000 0.000000 -1.000000 255 255 255 1.000000
0.590566 -0.352750 -0.312438 1.000000 0.000000 0.000000 204 210 220 1.000000
-0.385814 0.274885 0.467899 0.000000 -0.000000 1.000000 149 149 149 1.000000
-0.236469 -0.623386 -0.549876 0.000000 1.000000 0.000000 255 255 255 1.000000
-0.019968 -0.623386 0.234441 0.000000 -1.000000 -0.000000 204 210 220 1.000000
-0.609009 -0.025100 0.341534 -1.000000 0.000000 0.000000 201 207 217 1.000000
-0.163598 -0.026010 0.467899 0.000000 0.000000 -1.000000 255 255 255 1.000000
-0.482909 -0.241250 0.467899 0.000000 0.000000 -1.000000 255 255 255 1.000000
0.285798 -0.363974 -0.549922 0.000000 0.000000 -1.000000 211 217 227 1.000000
0.590566 -0.427568 0.388373 1.000000 0.000000 0.000000 198 204 214 1.000000
-0.031966 -0.623386 0.136904 0.000000 -1.000000 -0.000000 204 210 220 1.000000
-0.609009 0.403649 -0.218189 -1.000000 0.000000 0.000000 206 212 222 1.000000
-0.377652 -0.315729 -0.549922 0.000000 0.000000 -1.000000 201 207 217 1.000000
0.258414 0.576188 0.413488 0.000000 -1.000000 -0.000000 255 255 255 1.000000
0.590566 -0.145056 0.439653 -1.000000 0.000000 0.000000 255 255 255 1.000000
0.028325 -0.438501 -0.549922 0.000000 -0.000000 1.000000 255 255 255 1.000000
-0.609009 0.447075 0.330161 1.000000 0.000000 0.000000 255 255 255 1.000000
0.357609 0.492891 0.409965 0.000000 -0.000000 1.000000 255 255 255 1.000000
0.401713 -0.512941 0.352031 0.000000 -0.000000 1.000000 35 35 35 1.000000
-0.609009 0.274949 -0.521363 1.000000 0.000000 0.000000 255 255 255 1.000000
0.273692 -0.134678 0.467899 0.000000 -0.000000 1.000000 155 155 155 1.000000
-0.542077 0.407749 0.467899 0.000000 -0.000000 1.000000 185 185 185 1.000000
0.017100 -0.075480 0.467899 0.000000 0.000000 -1.000000 255 255 255 1.000000
0.103991 0.576188 0.027752 0.000000 1.000000 0.000000 198 204 214 1.000000
-0.102795 0.263404 0.467899 0.000000 -0.000000 1.000000 177 177 177 1.000000
0.167164 -0.130688 0.467899 0.000000 -0.000000 1.000000 229 229 229 1.000000
-0.609009 0.445869 -0.463942 1.000000 0.000000 0.000000 255 255 255 1.000000
0.208234 0.576188 0.040018 0.000000 1.000000 0.000000 200 206 216 1.000000
0.590566 0.236467 0.276139 -1.000000 0.000000 0.000000 255 255 255 1.000000
-0.291541 -0.483095 -0.549922 0.000000 -0.000000 1.000000 255 255 255 1.000000
0.468865 -0.476648 0.402557 0.000000 -0.000000 1.000000 255 255 255 1.000000
0.562394 -0.169853 -0.549922 0.000000 -0.000000 1.000000 255 255 255 1.000000
0.590566 -0.247935 0.069789 -1.000000 0.000000 0.000000 255 255 255 1.000000
-0.609009 0.111741 0.446888 -1.000000 0.000000 0.000000 153 153 153 1.000000
-0.130460 -0.490628 0.467899 0.000000 -0.000000 1.000000 235 235 235 1.000000
-0.609009 -0.412745 -0.310063 -1.000000 0.000000 0.000000 203 209 219 1.000000
-0.039794 0.576188 0.389161 0.000000 -1.000000 -0.000000 255 255 255 1.000000
-0.609009 0.507154 -0.459067 -1.000000 0.000000 0.000000 212 218 228 1.000000
-0.439850 0.330795 -0.549922 0.000000 -0.000000 1.000000 255 255 255 1.000000
0.590566 0.216454 0.070286 -1.000000 0.000000 0.000000 255 255 255 1.000000
0.475752 -0.623386 -0.388313 0.000000 1.000000 0.000000 255 255 255 1.000000
0.548317 -0.259836 -0.549922 0.000000 -0.000000 1.000000 255 255 255 1.000000
-0.605525 -0.623386 -0.046312 0.000000 -1.000000 -0.000000 209 215 225 1.000000
-0.609009 0.363396 -0.262054 1.000000 0.000000 0.000000 255 255 255 1.000000
-0.017976 0.029307 -0.549922 0.000000 0.000000 -1.000000 203 209 219 1.000000
0.064418 0.120347 0.467899 0.000000 -0.000000 1.000000 167 167 167 1.000000
-0.495522 -0.438279 -0.549922 0.000000 -0.000000 1.000000 255 255 255 1.000000
0.484713 0.576188 -0.357732 0.000000 1.000000 0.000000 201 207 217 1.000000
0.087588 0.052172 -0.549922 0.000000 -0.000000 1.000000 255 255 255 1.000000
-0.609009 -0.615964 -0.446581 1.000000 0.000000 0.000000 255 255 255 1.000000
0.590566 0.192953 0.369124 1.000000 0.000000 0.000000 209 215 225 1.000000
0.269919 -0.559977 -0.549922 0.000000 0.000000 -1.000000 208 214 224 1.000000
0.590566 -0.213301 -0.251250 -1.000000 0.000000 0.000000 255 255 255 1.000000
-0.131784 -0.494319 0.410976 0.000000 1.000000 0.000000 255 255 255 1.000000
-0.254190 -0.623386 -0.486498 0.000000 -1.000000 -0.000000 204 210 220 1.000000
-0.609009 -0.166271 -0.056259 -1.000000 0.000000 0.000000 206 212 222 1.000000
0.523789 0.576188 0.020780 0.000000 -1.000000 -0.000000 255 255 255 1.000000
0.180088 0.437033 -0.549922 0.000000 0.000000 -1.000000 204 210 220 1.000000
0.551495 -0.494319 0.436505 0.000000 1.000000 0.000000 255 255 255 1.000000
-0.511902 -0.058649 -0.549922 0.000000 -0.000000 1.000000 255 255 255 1.000000
0.415526 -0.221375 0.467899 0.000000 0.000000 -1.000000 255 255 255 1.000000
0.476921 0.491635 0.409965 0.000000 0.000000 -1.000000 255 255 255 1.000000
-0.609009 0.240590 -0.009122 1.000000 0.000000 0.000000 255 255 255 1.000000
-0.264841 0.511059 0.409965 0.000000 -0.000000 1.000000 255 255 255 1.000000
0.023145 0.576188 0.021842 0.000000 1.000000 0.000000 198 204 214 1.000000
-0.482994 -0.494920 -0.549922 0.000000 -0.000000 1.000000 255 255 255 1.000000
-0.256994 -0.530612 -0.549922 0.000000 -0.000000 1.000000 255 255 255 1.000000
-0.437491 0.561108 0.467899 0.000000 0.000000 -1.000000 255 255 255 1.000000
-0.419115 -0.623386 -0.527931 0.000000 1.000000 0.000000 255 255 255 1.000000
0.036070 -0.623386 -0.054548 0.000000 1.000000 0.000000 255 255 255 1.000000
-0.609009 0.038471 0.118502 1.000000 0.000000 0.000000 255 255 255 1.000000
0.495497 0.369038 0.402557 0.000000 -0.000000 1.000000 255 255 255 1.000000
0.341529 0.576188 0.096840 0.000000 -1.000000 -0.000000 255 255 255 1.000000
0.553830 -0.623386 -0.145407 0.000000 1.000000 0.000000 255 255 255 1.000000
0.431775 -0.114904 -0.549922 0.000000 0.000000 -1.000000 201 207 217 1.000000
-0.609009 0.359904 -0.352069 1.000000 0.000000 0.000000 255 255 255 1.000000
-0.099754 0.418414 -0.549922 0.000000 0.000000 -1.000000 210 216 226 1.000000
-0.578572 0.054131 0.409965 0.000000 -0.000000 1.000000 255 255 255 1.000000
0.590566 0.135692 0.244149 1.000000 0.000000 0.000000 204 210 220 1.000000
-0.609009 0.311081 -0.131063 1.000000 0.000000 0.000000 255 255 255 1.000000
0.590566 0.156979 -0.455043 -1.000000 0.000000 0.000000 255 255 255 1.000000
-0.250983 0.576188 -0.497106 0.000000 -1.000000 -0.000000 255 255 255 1.000000
0.394028 0.419985 -0.549922 0.000000 0.000000 -1.000000 206 212 222 1.000000
0.011919 -0.623386 -0.251683 0.000000 1.000000 0.000000 255 255 255 1.000000
-0.550709 -0.122701 0.402557 0.000000 0.000000 -1.000000 255 255 255 1.000000
0.466825 0.576188 -0.315584 0.000000 1.000000 0.000000 204 210 220 1.000000
0.493758 -0.016334 0.402557 0.000000 0.000000 -1.000000 255 255 255 1.000000
0.590566 -0.136112 0.392071 1.000000 0.000000 0.000000 194 200 210 1.000000
-0.609009 0.385881 -0.046118 -1.000000 0.000000 0.000000 198 204 214 1.000000
-0.323815 0.517228 0.467899 0.000000 -0.000000 1.000000 199 199 199 1.000000
-0.246208 -0.211237 -0.549922 0.000000 -0.000000 1.000000 255 255 255 1.000000
-0.501935 -0.290785 -0.549922 0.000000 0.000000 -1.000000 200 206 216 1.000000
-0.609009 0.222432 -0.077777 1.000000 0.000000 0.000000 255 255 255 1.000000
-0.609009 -0.075396 0.006483 1.000000 0.000000 0.000000 255 255 255 1.000000
0.590566 -0.562061 -0.439715 -1.000000 0.000000 0.000000 255 255 255 1.000000
0.172557 0.576188 -0.112565 0.000000 -1.000000 -0.000000 255 255 255 1.000000
-0.264285 -0.041621 0.409965 0.000000 -0.000000 1.000000 255 255 255 1.000000
-0.609009 -0.598787 0.255442 -1.000000 0.000000 0.000000 198 204 214 1.000000
0.234816 0.444641 -0.549922 0.000000 0.000000 -1.000000 206 212 222 1.000000
-0.609009 -0.140784 -0.231131 -1.000000 0.000000 0.000000 204 210 220 1.000000
0.415241 -0.605575 -0.549922 0.000000 0.000000 -1.000000 206 212 222 1.000000
-0.359352 0.271203 0.402557 0.000000 0.000000 -1.000000 255 255 255 1.000000
-0.579385 0.387840 -0.549922 0.000000 -0.000000 1.000000 255 255 255 1.000000
0.564843 0.496199 0.409965 0.000000 0.000000 -1.000000 255 255 255 1.000000
0.277735 0.576188 -0.398828 0.000000 1.000000 0.000000 195 201 211 1.000000
-0.005039 0.576188 0.105126 0.000000 1.000000 0.000000 197 203 213 1.000000
0.327505 0.576188 -0.547945 0.000000 1.000000 0.000000 191 197 207 1.000000
-0.102194 -0.489775 0.406599 0.000000 1.000000 0.000000 255 255 255 1.000000
0.311697 -0.623386 -0.054563 0.000000 -1.000000 -0.000000 205 211 221 1.000000
-0.203411 -0.492492 -0.549922 0.000000 -0.000000 1.000000 255 255 255 1.000000
-0.220444 -0.469545 0.467899 0.000000 -0.000000 1.000000 184 184 184 1.000000
-0.091952 0.576188 0.062610 0.000000 1.000000 0.000000 202 208 218 1.000000
-0.044120 0.122684 0.467899 0.000000 0.000000 -1.000000 255 255 255 1.000000
-0.472040 0.576188 -0.298204 0.000000 1.000000 0.000000 209 215 225 1.000000
0.194436 0.177252 0.402557 0.000000 -0.000000 1.000000 255 255 255 1.000000
-0.139058 -0.376228 0.409965 0.000000 -0.000000 1.000000 255 255 255 1.000000
0.590566 0.149937 -0.121219 1.000000 0.000000 0.000000 196 202 212 1.000000
-0.362566 0.576188 0.109685 0.000000 1.000000 0.000000 203 209 219 1.000000
-0.385213 -0.623386 -0.421039 0.000000 -1.000000 -0.000000 202 208 218 1.000000
0.540009 0.576188 -0.525051 0.000000 -1.000000 -0.000000 255 255 255 1.000000
0.460907 -0.242413 -0.549922 0.000000 -0.000000 1.000000 255 255 255 1.000000
-0.609009 0.474558 -0.161448 -1.000000 0.000000 0.000000 204 210 220 1.000000
0.159423 0.576188 -0.190861 0.000000 1.000000 0.000000 200 206 216 1.000000
0.590566 0.371159 -0.401166 1.000000 0.000000 0.000000 208 214 224 1.000000
0.524046 -0.623386 0.202621 0.000000 -1.000000 -0.000000 198 204 214 1.000000
0.304470 0.275421 -0.549922 0.000000 -0.000000 1.000000 255 255 255 1.000000
0.384037 0.069606 0.409965 0.000000 0.000000 -1.000000 255 255 255 1.000000
0.297623 0.457130 0.402557 0.000000 0.000000 -1.000000 255 255 255 1.000000
-0.154606 0.233259 0.467899 0.000000 -0.000000 1.000000 160 160 160 1.000000
-0.345683 -0.623386 0.035151 0.000000 -1.000000 -0.000000 198 204 214 1.000000
0.588281 0.264978 -0.549922 0.000000 -0.000000 1.000000 255 255 255 1.000000
0.470073 -0.623386 -0.106127 0.000000 -1.000000 -0.000000 201 207 217 1.000000
0.530173 0.237890 -0.549922 0.000000 0.000000 -1.000000 198 204 214 1.000000
0.473137 0.576188 0.041691 0.000000 1.000000 0.000000 192 198 208 1.000000
0.109056 0.377152 -0.549922 0.000000 -0.000000 1.000000 255 255 255 1.000000
-0.609009 -0.380094 -0.430201 1.000000 0.000000 0.000000 255 255 255 1.000000
0.416622 -0.027504 0.402557 0.000000 -0.000000 1.000000 255 255 255 1.000000
-0.580260 0.576188 -0.549309 0.000000 -1.000000 -0.000000 255 255 255 1.000000
-0.199966 -0.281000 -0.549922 0.000000 -0.000000 1.000000 255 255 255 1.000000
0.590566 0.454672 -0.162802 -1.000000 0.000000 0.000000 255 255 255 1.000000
0.590566 -0.542885 0.006725 1.000000 0.000000 0.000000 208 214 224 1.000000
-0.609009 0.218808 -0.367252 1.000000 0.000000 0.000000 255 255 255 1.000000
-0.193734 0.232235 0.402557 0.000000 0.000000 -1.000000 255 255 255 1.000000
0.540329 -0.554958 0.352031 0.000000 -0.000000 1.000000 35 35 35 1.000000
0.003941 -0.467003 0.402557 0.000000 -0.000000 1.000000 255 255 255 1.000000
-0.081455 -0.025312 0.467899 0.000000 -0.000000 1.000000 167 167 167 1.000000
0.265312 -0.479805 0.402557 0.000000 -0.000000 1.000000 255 255 255 1.000000
0.286732 0.144423 -0.549922 0.000000 0.000000 -1.000000 204 210 220 1.000000
0.590566 0.370626 -0.214064 1.000000 0.000000 0.000000 201 207 217 1.000000
-0.364127 0.576188 -0.338414 0.000000 -1.000000 -0.000000 255 255 255 1.000000
0.018104 -0.166288 0.467899 0.000000 0.000000 -1.000000 255 255 255 1.000000
0.258948 0.065091 0.409965 0.000000 0.000000 -1.000000 255 255 255 1.000000
0.302223 0.449256 0.467899 0.000000 -0.000000 1.000000 221 221 221 1.000000
-0.167518 -0.623386 0.088491 0.000000 1.000000 0.000000 255 255 255 1.000000
-0.425738 0.269366 0.402557 0.000000 0.000000 -1.000000 255 255 255 1.000000
-0.088241 0.240764 0.402557 0.000000 -0.000000 1.000000 255 255 255 1.000000
0.218361 -0.623386 -0.213253 0.000000 -1.000000 -0.000000 206 212 222 1.000000
0.378904 -0.623386 0.001774 0.000000 -1.000000 -0.000000 201 207 217 1.000000
0.522601 0.576188 0.196079 0.000000 -1.000000 -0.000000 255 255 255 1.000000
-0.609009 -0.087337 -0.437046 -1.000000 0.000000 0.000000 196 202 212 1.000000
0.590566 0.397682 0.001577 1.000000 0.000000 0.000000 204 210 220 1.000000
-0.488577 0.480204 0.409965 0.000000 -0.000000 1.000000 255 255 255 1.000000
0.315100 0.357763 0.467899 0.000000 0.000000 -1.000000 255 255 255 1.000000
0.170549 -0.481689 0.402557 0.000000 -0.000000 1.000000 255 255 255 1.000000
-0.049147 -0.623386 0.035558 0.000000 -1.000000 -0.000000 194 200 210 1.000000
0.400596 -0.443433 0.402557 0.000000 -0.000000 1.000000 255 255 255 1.000000
0.590566 0.117958 -0.282486 1.000000 0.000000 0.000000 204 210 220 1.000000
-0.609009 0.168776 0.083263 -1.000000 0.000000 0.000000 202 208 218 1.000000
0.559815 -0.032170 0.409965 0.000000 -0.000000 1.000000 255 255 255 1.000000
-0.432656 0.451222 0.537127 -0.094277 -0.000000 0.995546 206 206 206 1.000000
-0.556484 -0.623386 -0.482140 0.000000 -1.000000 -0.000000 199 205 215 1.000000
0.590566 0.435355 0.002021 1.000000 0.000000 0.000000 204 210 220 1.000000
0.450760 -0.623386 0.343142 0.000000 -1.000000 -0.000000 208 214 224 1.000000
0.378954 0.347996 0.409965 0.000000 -0.000000 1.000000 255 255 255 1.000000
-0.609009 0.272685 -0.481854 -1.000000 0.000000 0.000000 209 215 225 1.000000
0.411218 0.441158 0.514287 -0.065824 0.000000 -0.997831 255 255 255 1.000000
0.300748 -0.623386 0.123674 0.000000 -1.000000 -0.000000 207 213 223 1.000000
0.268014 -0.623386 -0.149053 0.000000 -1.000000 -0.000000 207 213 223 1.000000
0.590566 -0.353128 0.413580 -1.000000 0.000000 0.000000 255 255 255 1.000000
-0.508591 0.576188 0.344269 0.000000 1.000000 0.000000 206 212 222 1.000000
0.525785 0.569331 0.402557 0.000000 -0.000000 1.000000 255 255 255 1.000000
0.514382 -0.623386 -0.258234 0.000000 -1.000000 -0.000000 208 214 224 1.000000
-0.291354 0.474415 -0.549922 0.000000 0.000000 -1.000000 206 212 222 1.000000
0.590566 0.422131 0.267985 -1.000000 0.000000 0.000000 255 255 255 1.000000
-0.574988 0.576188 -0.353962 0.000000 1.000000 0.000000 208 214 224 1.000000
0.227739 -0.623386 0.052202 0.000000 1.000000 0.000000 255 255 255 1.000000
0.023103 -0.623386 0.307261 0.000000 1.000000 0.000000 255 255 255 1.000000
-0.609009 -0.239256 -0.377567 -1.000000 0.000000 0.000000 197 203 213 1.000000
0.052727 0.576188 -0.539496 0.000000 -1.000000 -0.000000 255 255 255 1.000000
-0.609009 0.116322 -0.279970 1.000000 0.000000 0.000000 255 255 255 1.000000
-0.091491 0.311132 0.402557 0.000000 -0.000000 1.000000 255 255 255 1.000000
0.181309 0.062886 -0.549922 0.000000 -0.000000 1.000000 255 255 255 1.000000
0.342300 -0.316839 0.467899 0.000000 -0.000000 1.000000 147 147 147 1.000000
-0.609009 0.527643 -0.365102 -1.000000 0.000000 0.000000 203 209 219 1.000000
0.098371 -0.623386 -0.223431 0.000000 1.000000 0.000000 255 255 255 1.000000
0.590566 -0.269783 0.363861 -1.000000 0.000000 0.000000 255 255 255 1.000000
-0.511351 -0.494319 0.396657 0.000000 1.000000 0.000000 255 255 255 1.000000
-0.609009 0.545778 0.149544 -1.000000 0.000000 0.000000 198 204 214 1.000000
-0.277406 -0.623386 0.273342 0.000000 1.000000 0.000000 255 255 255 1.000000
0.538603 0.576188 0.349422 0.000000 1.000000 0.000000 195 201 211 1.000000
-0.609009 0.173255 -0.280058 -1.000000 0.000000 0.000000 202 208 218 1.000000
-0.349908 0.439785 0.402557 0.000000 0.000000 -1.000000 255 255 255 1.000000
-0.609009 -0.455671 0.224579 1.000000 0.000000 0.000000 255 255 255 1.000000
0.425349 0.444317 0.468346 1.000000 0.000000 0.000000 255 255 255 1.000000
0.590566 0.133901 -0.158065 -1.000000 0.000000 0.000000 255 255 255 1.000000
-0.394116 0.576188 -0.020264 0.000000 1.000000 0.000000 202 208 218 1.000000
-0.214943 -0.623386 0.209272 0.000000 -1.000000 -0.000000 202 208 218 1.000000
0.461321 0.398072 0.402557 0.000000 -0.000000 1.000000 255 255 255 1.000000
-0.207869 0.464019 0.525837 0.033412 0.000000 -0.999442 255 255 255 1.000000
-0.582995 -0.593825 -0.549922 0.000000 0.000000 -1.000000 202 208 218 1.000000
0.082224 -0.623386 -0.248343 0.000000 -1.000000 -0.000000 205 211 221 1.000000
-0.609009 -0.452419 0.152100 1.000000 0.000000 0.000000 255 255 255 1.000000
-0.609009 -0.589962 0.085694 1.000000 0.000000 0.000000 255 255 255 1.000000
-0.609009 -0.622315 -0.509550 -1.000000 0.000000 0.000000 198 204 214 1.000000
-0.609009 -0.547762 -0.336575 -1.000000 0.000000 0.000000 206 212 222 1.000000
0.590566 0.114839 0.093582 -1.000000 0.000000 0.000000 255 255 255 1.000000
-0.609009 0.366275 0.436417 1.000000 0.000000 0.000000 255 255 255 1.000000
0.590566 -0.293684 0.269100 -1.000000 0.000000 0.000000 255 255 255 1.000000
-0.505367 0.576188 -0.195107 0.000000 -1.000000 -0.000000 255 255 255 1.000000
0.580829 0.200288 0.467899 0.000000 0.000000 -1.000000 255 255 255 1.000000
-0.338198 -0.623386 0.205059 0.000000 1.000000 0.000000 255 255 255 1.000000
0.522645 -0.623386 -0.393696 0.000000 1.000000 0.000000 255 255 255 1.000000
-0.371047 -0.623386 -0.521019 0.000000 -1.000000 -0.000000 204 210 220 1.000000
0.590566 -0.097671 -0.124050 1.000000 0.000000 0.000000 200 206 216 1.000000
-0.609009 0.086948 0.025257 1.000000 0.000000 0.000000 255 255 255 1.000000
0.331284 -0.623386 -0.520361 0.000000 -1.000000 -0.000000 207 213 223 1.000000
-0.283907 0.010250 0.402557 0.000000 0.000000 -1.000000 255 255 255 1.000000
0.590566 -0.315480 -0.182587 -1.000000 0.000000 0.000000 255 255 255 1.000000
-0.600264 0.037762 -0.549922 0.000000 -0.000000 1.000000 255 255 255 1.000000
-0.204466 0.543607 -0.549922 0.000000 -0.000000 1.000000 255 255 255 1.000000
-0.045046 0.279074 0.467899 0.000000 0.000000 -1.000000 255 255 255 1.000000
0.590566 -0.083393 -0.386201 -1.000000 0.000000 0.000000 255 255 255 1.000000
-0.609009 -0.261143 0.059175 -1.000000 0.000000 0.000000 202 208 218 1.000000
-0.351938 0.576188 -0.385338 0.000000 -1.000000 -0.000000 255 255 255 1.000000
0.590566 0.304707 -0.104196 -1.000000 0.000000 0.000000 255 255 255 1.000000
-0.477138 -0.373255 -0.549922 0.000000 0.000000 -1.000000 200 206 216 1.000000
0.415581 -0.623386 0.294139 0.000000 -1.000000 -0.000000 206 212 222 1.000000
-0.167575 0.055119 0.402557 0.000000 -0.000000 1.000000 255 255 255 1.000000
-0.609009 0.502037 -0.194079 1.000000 0.000000 0.000000 255 255 255 1.000000
-0.609009 0.185763 -0.339508 1.000000 0.000000 0.000000 255 255 255 1.000000
-0.609009 0.130968 0.261548 -1.000000 0.000000 0.000000 210 216 226 1.000000
0.590566 0.415464 -0.130697 -1.000000 0.000000 0.000000 255 255 255 1.000000
-0.506025 -0.031370 0.402557 0.000000 0.000000 -1.000000 255 255 255 1.000000
0.590566 -0.353547 0.345914 -1.000000 0.000000 0.000000 255 255 255 1.000000
0.590566 -0.493278 -0.374576 1.000000 0.000000 0.000000 206 212 222 1.000000
0.500251 -0.412003 -0.549922 0.000000 0.000000 -1.000000 207 213 223 1.000000
-0.202346 0.502069 0.402557 0.000000 -0.000000 1.000000 255 255 255 1.000000
-0.038212 0.330255 0.402557 0.000000 -0.000000 1.000000 255 255 255 1.000000
0.494060 0.164136 0.467899 0.000000 0.000000 -1.000000 255 255 255 1.000000
0.397693 -0.173218 0.409965 0.000000 0.000000 -1.000000 255 255 255 1.000000
0.465112 -0.519907 0.352031 0.000000 -0.000000 1.000000 35 35 35 1.000000
-0.317825 -0.252133 -0.549922 0.000000 0.000000 -1.000000 203 209 219 1.000000
-0.062144 0.307260 0.409965 0.000000 -0.000000 1.000000 255 255 255 1.000000
0.590566 0.526491 0.110953 1.000000 0.000000 0.000000 202 208 218 1.000000
0.148378 -0.623386 0.209606 0.000000 -1.000000 -0.000000 206 212 222 1.000000
0.579803 0.151450 -0.549922 0.000000 -0.000000 1.000000 255 255 255 1.000000
0.091611 0.302371 0.467899 0.000000 -0.000000 1.000000 232 232 232 1.000000
0.018843 0.576188 0.242319 0.000000 1.000000 0.000000 197 203 213 1.000000
0.402383 -0.623386 -0.147464 0.000000 -1.000000 -0.000000 196 202 212 1.000000
0.590566 0.208452 -0.442996 -1.000000 0.000000 0.000000 255 255 255 1.000000
0.211073 -0.623386 -0.499094 0.000000 1.000000 0.000000 255 255 255 1.000000
0.134606 -0.180939 0.467899 0.000000 -0.000000 1.000000 159 159 159 1.000000
-0.036214 -0.051528 0.467899 0.000000 -0.000000 1.000000 205 205 205 1.000000
0.367104 -0.529031 -0.549922 0.000000 0.000000 -1.000000 202 208 218 1.000000
0.590566 0.010893 0.120764 1.000000 0.000000 0.000000 194 200 210 1.000000
-0.609009 0.123465 0.303680 1.000000 0.000000 0.000000 255 255 255 1.000000
0.461879 0.576188 0.281285 0.000000 1.000000 0.000000 200 206 216 1.000000
-0.591350 -0.391533 0.402557 0.000000 -0.000000 1.000000 255 255 255 1.000000
-0.118028 -0.623386 -0.311299 0.000000 1.000000 0.000000 255 255 255 1.000000
-0.013282 -0.592627 0.352031 0.000000 -0.000000 1.000000 35 35 35 1.000000
0.012809 -0.580988 -0.549922 0.000000 0.000000 -1.000000 202 208 218 1.000000
0.036905 0.083346 0.409965 0.000000 0.000000 -1.000000 255 255 255 1.000000
0.094189 0.072814 0.409965 0.000000 -0.000000 1.000000 255 255 255 1.000000
-0.130876 -0.623386 -0.489702 0.000000 -1.000000 -0.000000 203 209 219 1.000000
-0.049324 -0.329433 0.409965 0.000000 -0.000000 1.000000 255 255 255 1.000000
-0.609009 -0.028919 -0.514595 -1.000000 0.000000 0.000000 204 210 220 1.000000
-0.339896 0.446633 -0.549922 0.000000 0.000000 -1.000000 202 208 218 1.000000
-0.450128 0.570978 -0.549922 0.000000 0.000000 -1.000000 205 211 221 1.000000
-0.014097 -0.623386 -0.549617 0.000000 -1.000000 -0.000000 202 208 218 1.000000
0.098603 -0.184494 -0.549922 0.000000 0.000000 -1.000000 203 209 219 1.000000
0.351376 -0.623386 -0.049971 0.000000 -1.000000 -0.000000 209 215 225 1.000000
0.116512 0.460313 0.402557 0.000000 0.000000 -1.000000 255 255 255 1.000000
-0.520086 -0.623386 -0.020917 0.000000 1.000000 0.000000 255 255 255 1.000000
-0.609009 -0.095050 0.058742 1.000000 0.000000 0.000000 255 255 255 1.000000
-0.563585 -0.025920 0.409965 0.000000 0.000000 -1.000000 255 255 255 1.000000
0.467983 0.576188 -0.528530 0.000000 -1.000000 -0.000000 255 255 255 1.000000
0.365881 0.576188 0.206943 0.000000 -1.000000 -0.000000 255 255 255 1.000000
0.454429 0.576188 -0.221092 0.000000 1.000000 0.000000 198 204 214 1.000000
0.310367 -0.328454 0.409965 0.000000 0.000000 -1.000000 255 255 255 1.000000
-0.326917 -0.494319 0.371916 0.000000 -1.000000 -0.000000 204 210 220 1.000000
-0.581763 0.576188 0.453137 0.000000 -1.000000 -0.000000 255 255 255 1.000000
-0.609009 0.570069 -0.154333 -1.000000 0.000000 0.000000 203 209 219 1.000000
-0.271496 0.122365 -0.549922 0.000000 -0.000000 1.000000 255 255 255 1.000000
-0.102296 -0.606490 0.352031 0.000000 0.000000 -1.000000 255 255 255 1.000000
0.285960 0.576188 -0.451255 0.000000 1.000000 0.000000 198 204 214 1.000000
0.411649 0.576188 0.305800 0.000000 -1.000000 -0.000000 255 255 255 1.000000
-0.317486 0.576188 -0.374943 0.000000 1.000000 0.000000 207 213 223 1.000000
-0.163926 0.576188 -0.364878 0.000000 -1.000000 -0.000000 255 255 255 1.000000
-0.609009 -0.478090 -0.170687 -1.000000 0.000000 0.000000 204 210 220 1.000000
-0.609009 0.488395 0.396041 1.000000 0.000000 0.000000 255 255 255 1.000000
-0.609009 0.045770 -0.151583 -1.000000 0.000000 0.000000 197 203 213 1.000000
-0.541635 0.308253 0.402557 0.000000 -0.000000 1.000000 255 255 255 1.000000
-0.361328 -0.363442 0.402557 0.000000 -0.000000 1.000000 255 255 255 1.000000
0.314955 0.576188 -0.443547 0.000000 -1.000000 -0.000000 255 255 255 1.000000
-0.132228 -0.623386 0.324305 0.000000 1.000000 0.000000 255 255 255 1.000000
0.345804 0.576188 -0.315445 0.000000 1.000000 0.000000 200 206 216 1.000000
0.590566 -0.045322 0.103431 -1.000000 0.000000 0.000000 255 255 255 1.000000
-0.252049 0.069107 0.467899 0.000000 0.000000 -1.000000 255 255 255 1.000000
0.540008 0.017089 0.402557 0.000000 -0.000000 1.000000 255 255 255 1.000000
0.554657 -0.623386 0.033799 0.000000 1.000000 0.000000 255 255 255 1.000000
0.327025 0.367697 0.402557 0.000000 0.000000 -1.000000 255 255 255 1.000000
0.590566 0.047467 -0.161680 1.000000 0.000000 0.000000 200 206 216 1.000000
0.075150 -0.623386 -0.547064 0.000000 -1.000000 -0.000000 200 206 216 1.000000
0.590566 0.199098 0.411580 -1.000000 0.000000 0.000000 255 255 255 1.000000
0.590566 0.366949 -0.311084 1.000000 0.000000 0.000000 200 206 216 1.000000
-0.358436 0.053113 0.409965 0.000000 -0.000000 1.000000 255 255 255 1.000000
0.590566 -0.447873 -0.010559 1.000000 0.000000 0.000000 207 213 223 1.000000
-0.609009 -0.363669 -0.295250 -1.000000 0.000000 0.000000 203 209 219 1.000000
0.129851 -0.424625 0.402557 0.000000 -0.000000 1.000000 255 255 255 1.000000
-0.430699 0.435987 0.514217 0.065911 0.000000 -0.997826 255 255 255 1.000000
0.014050 -0.623386 -0.316501 0.000000 -1.000000 -0.000000 202 208 218 1.000000
0.289098 0.576188 0.063552 0.000000 1.000000 0.000000 200 206 216 1.000000
0.590566 -0.560585 -0.329424 -1.000000 0.000000 0.000000 255 255 255 1.000000
-0.609009 -0.609281 -0.221450 -1.000000 0.000000 0.000000 206 212 222 1.000000
-0.035606 0.430785 0.533330 0.000000 -1.000000 -0.000000 222 222 222 1.000000
-0.582052 -0.467413 0.467899 0.000000 -0.000000 1.000000 186 186 186 1.000000
0.585898 -0.494319 0.413736 0.000000 -1.000000 -0.000000 159 159 159 1.000000
-0.603571 0.576188 0.245832 0.000000 1.000000 0.000000 204 210 220 1.000000
-0.533392 -0.193205 -0.549922 0.000000 0.000000 -1.000000 203 209 219 1.000000
-0.075144 -0.623386 0.326678 0.000000 -1.000000 -0.000000 201 207 217 1.000000
-0.604465 -0.189447 0.406473 1.000000 0.000000 0.000000 255 255 255 1.000000
-0.025828 0.576188 0.447825 0.000000 -1.000000 -0.000000 255 255 255 1.000000
-0.609009 0.148602 -0.295349 1.000000 0.000000 0.000000 255 255 255 1.000000
0.196173 -0.081003 0.409965 0.000000 0.000000 -1.000000 255 255 255 1.000000
0.381366 0.168258 0.402557 0.000000 0.000000 -1.000000 255 255 255 1.000000
-0.311424 0.360671 0.402557 0.000000 -0.000000 1.000000 255 255 255 1.000000
-0.265020 -0.283471 -0.549922 0.000000 0.000000 -1.000000 201 207 217 1.000000
0.400972 0.439454 0.409965 0.000000 0.000000 -1.000000 255 255 255 1.000000
0.324470 0.330422 0.402557 0.000000 0.000000 -1.000000 255 255 255 1.000000
0.515820 -0.623386 -0.145354 0.000000 -1.000000 -0.000000 205 211 221 1.000000
0.030570 0.056070 -0.549922 0.000000 -0.000000 1.000000 255 255 255 1.000000
-0.226063 0.556247 0.409965 0.000000 0.000000 -1.000000 255 255 255 1.000000
-0.609009 -0.528724 -0.385688 1.000000 0.000000 0.000000 255 255 255 1.000000
-0.015131 -0.295979 0.402557 0.000000 0.000000 -1.000000 255 255 255 1.000000
-0.586358 -0.324643 0.467899 0.000000 -0.000000 1.000000 171 171 171 1.000000
0.429868 0.496745 0.467899 0.000000 0.000000 -1.000000 255 255 255 1.000000
-0.017283 0.084716 0.467899 0.000000 0.000000 -1.000000 255 255 255 1.000000
-0.102804 -0.330753 -0.549922 0.000000 -0.000000 1.000000 255 255 255 1.000000
-0.609009 -0.553735 -0.224086 1.000000 0.000000 0.000000 255 255 255 1.000000
-0.042839 -0.590560 0.352031 0.000000 -0.000000 1.000000 35 35 35 1.000000
0.517512 -0.390386 0.467899 0.000000 0.000000 -1.000000 255 255 255 1.000000
-0.589740 0.157077 -0.549922 0.000000 -0.000000 1.000000 255 255 255 1.000000
-0.260084 -0.623386 -0.316214 0.000000 1.000000 0.000000 255 255 255 1.000000
0.068667 0.365419 -0.549922 0.000000 -0.000000 1.000000 255 255 255 1.000000
-0.313658 -0.623386 -0.229125 0.000000 -1.000000 -0.000000 196 202 212 1.000000
0.357677 0.079578 0.402557 0.000000 -0.000000 1.000000 255 255 255 1.000000
-0.601205 0.259216 0.467899 0.000000 0.000000 -1.000000 255 255 255 1.000000
0.047368 -0.547571 0.352031 0.000000 0.000000 -1.000000 255 255 255 1.000000
0.241754 0.290996 0.467899 0.000000 -0.000000 1.000000 238 238 238 1.000000
-0.227732 0.576188 -0.446705 0.000000 1.000000 0.000000 202 208 218 1.000000
0.577326 -0.278582 0.402557 0.000000 0.000000 -1.000000 255 255 255 1.000000
-0.573186 -0.602832 0.352031 0.000000 -0.000000 1.000000 35 35 35 1.000000
0.094575 0.541452 -0.549922 0.000000 -0.000000 1.000000 255 255 255 1.000000
0.327133 0.576188 -0.003053 0.000000 1.000000 0.000000 200 206 216 1.000000
-0.609009 0.362993 0.147678 1.000000 0.000000 0.000000 255 255 255 1.000000
-0.160446 -0.494319 0.352800 0.000000 -1.000000 -0.000000 200 206 216 1.000000
0.087594 -0.113087 0.402557 0.000000 -0.000000 1.000000 255 255 255 1.000000
0.164053 0.576188 0.238805 0.000000 -1.000000 -0.000000 255 255 255 1.000000
-0.398044 -0.366226 0.402557 0.000000 0.000000 -1.000000 255 255 255 1.000000
0.103910 0.576188 0.372239 0.000000 1.000000 0.000000 198 204 214 1.000000
0.590566 -0.420760 -0.059182 -1.000000 0.000000 0.000000 255 255 255 1.000000
-0.400668 0.576188 -0.409700 0.000000 -1.000000 -0.000000 255 255 255 1.000000
0.590566 -0.094844 0.160424 -1.000000 0.000000 0.000000 255 255 255 1.000000
0.590566 -0.336741 -0.030622 1.000000 0.000000 0.000000 202 208 218 1.000000
-0.413855 0.576188 -0.293391 0.000000 1.000000 0.000000 202 208 218 1.000000
-0.603658 -0.623386 -0.110759 0.000000 -1.000000 -0.000000 202 208 218 1.000000
-0.609009 -0.495463 -0.324415 -1.000000 0.000000 0.000000 205 211 221 1.000000
-0.097182 0.470931 0.467899 0.000000 -0.000000 1.000000 156 156 156 1.000000
0.590566 0.281140 -0.152026 1.000000 0.000000 0.000000 196 202 212 1.000000
0.350881 -0.209455 0.467899 0.000000 -0.000000 1.000000 155 155 155 1.000000
0.590566 0.462870 -0.104503 -1.000000 0.000000 0.000000 255 255 255 1.000000
0.590566 -0.535866 -0.108619 -1.000000 0.000000 0.000000 255 255 255 1.000000
0.416880 -0.403447 0.402557 0.000000 -0.000000 1.000000 255 255 255 1.000000
0.218537 0.557435 0.409965 0.000000 -0.000000 1.000000 255 255 255 1.000000
-0.429499 0.469276 0.402557 0.000000 0.000000 -1.000000 255 255 255 1.000000
0.460320 0.576188 0.101490 0.000000 -1.000000 -0.000000 255 255 255 1.000000
0.211426 0.576188 -0.515199 0.000000 -1.000000 -0.000000 255 255 255 1.000000
-0.076509 0.576188 -0.047279 0.000000 1.000000 0.000000 201 207 217 1.000000
0.423409 -0.447576 0.467899 0.000000 -0.000000 1.000000 156 156 156 1.000000
-0.241518 -0.105566 0.467899 0.000000 -0.000000 1.000000 153 153 153 1.000000
-0.609009 -0.064921 -0.172977 1.000000 0.000000 0.000000 255 255 255 1.000000
-0.609009 0.475802 -0.096410 -1.000000 0.000000 0.000000 198 204 214 1.000000
-0.467360 -0.623386 -0.522974 0.000000 1.000000 0.000000 255 255 255 1.000000
0.052645 -0.623386 -0.300162 0.000000 -1.000000 -0.000000 210 216 226 1.000000
0.332905 0.101501 -0.549922 0.000000 -0.000000 1.000000 255 255 255 1.000000
0.096385 0.576188 0.319684 0.000000 -1.000000 -0.000000 255 255 255 1.000000
0.564765 0.335417 0.402557 0.000000 -0.000000 1.000000 255 255 255 1.000000
-0.208580 -0.373062 0.409965 0.000000 -0.000000 1.000000 255 255 255 1.000000
0.011113 -0.623386 -0.348176 0.000000 -1.000000 -0.000000 203 209 219 1.000000
0.076132 0.576188 -0.150179 0.000000 1.000000 0.000000 197 203 213 1.000000
0.241865 0.576188 -0.458586 0.000000 1.000000 0.000000 192 198 208 1.000000
0.120893 -0.623386 -0.461998 0.000000 -1.000000 -0.000000 207 213 223 1.000000
-0.470378 0.576188 -0.142788 0.000000 1.000000 0.000000 204 210 220 1.000000
-0.609009 0.268076 -0.401731 -1.000000 0.000000 0.000000 209 215 225 1.000000
-0.609009 -0.566673 0.217337 -1.000000 0.000000 0.000000 203 209 219 1.000000
-0.343159 -0.596576 -0.549922 0.000000 0.000000 -1.000000 196 202 212 1.000000
0.256115 -0.120472 -0.549922 0.000000 0.000000 -1.000000 210 216 226 1.000000
0.590566 0.280674 -0.241736 1.000000 0.000000 0.000000 202 208 218 1.000000
-0.552955 0.576188 -0.037674 0.000000 1.000000 0.000000 208 214 224 1.000000
0.288709 0.422993 -0.549922 0.000000 0.000000 -1.000000 206 212 222 1.000000
-0.468712 -0.136069 0.467899 0.000000 0.000000 -1.000000 255 255 255 1.000000
-0.176352 -0.623386 0.240306 0.000000 1.000000 0.000000 255 255 255 1.000000
-0.164830 0.498930 -0.549922 0.000000 -0.000000 1.000000 255 255 255 1.000000
0.010072 0.258428 0.467899 0.000000 0.000000 -1.000000 255 255 255 1.000000
-0.244903 0.576188 -0.057755 0.000000 1.000000 0.000000 201 207 217 1.000000
-0.470505 0.237073 0.402557 0.000000 0.000000 -1.000000 255 255 255 1.000000
0.590566 0.138685 0.375922 1.000000 0.000000 0.000000 210 216 226 1.000000
0.547915 0.073053 0.409965 0.000000 -0.000000 1.000000 255 255 255 1.000000
0.046542 -0.183659 -0.549922 0.000000 -0.000000 1.000000 255 255 255 1.000000
-0.027056 -0.320221 0.467899 0.000000 0.000000 -1.000000 255 255 255 1.000000
0.590566 0.108230 -0.327301 -1.000000 0.000000 0.000000 255 255 255 1.000000
0.365045 0.364477 0.467899 0.000000 0.000000 -1.000000 255 255 255 1.000000
0.527203 0.456302 0.402557 0.000000 0.000000 -1.000000 255 255 255 1.000000
-0.321011 -0.098056 0.402557 0.000000 -0.000000 1.000000 255 255 255 1.000000
-0.609009 -0.067220 0.157697 1.000000 0.000000 0.000000 255 255 255 1.000000
0.326249 0.576188 0.365403 0.000000 -1.000000 -0.000000 255 255 255 1.000000
0.220692 -0.182997 0.409965 0.000000 -0.000000 1.000000 255 255 255 1.000000
-0.609009 0.139252 0.416287 1.000000 0.000000 0.000000 255 255 255 1.000000
-0.162896 -0.385572 0.467899 0.000000 -0.000000 1.000000 154 154 154 1.000000
-0.609009 0.408424 0.417201 1.000000 0.000000 0.000000 255 255 255 1.000000
0.198006 -0.397621 0.467899 0.000000 0.000000 -1.000000 255 255 255 1.000000
-0.609009 -0.199454 0.036956 1.000000 0.000000 0.000000 255 255 255 1.000000
-0.072336 0.396417 0.409965 0.000000 -0.000000 1.000000 255 255 255 1.000000
-0.053541 0.497308 0.467899 0.000000 -0.000000 1.000000 232 232 232 1.000000
0.431010 -0.557184 0.352031 0.000000 0.000000 -1.000000 255 255 255 1.000000
-0.384319 0.434813 0.541769 -0.088475 -0.000000 0.996078 227 227 227 1.000000
0.590566 0.001704 -0.180662 -1.000000 0.000000 0.000000 255 255 255 1.000000
-0.043422 -0.623386 -0.075524 0.000000 1.000000 0.000000 255 255 255 1.000000
0.327833 -0.153602 0.467899 0.000000 0.000000 -1.000000 255 255 255 1.000000
-0.518465 -0.609419 0.352031 0.000000 -0.000000 1.000000 35 35 35 1.000000
0.231941 0.501652 0.402557 0.000000 -0.000000 1.000000 255 255 255 1.000000
0.590566 -0.069682 -0.305291 1.000000 0.000000 0.000000 200 206 216 1.000000
0.366570 -0.314230 0.402557 0.000000 0.000000 -1.000000 255 255 255 1.000000
-0.609009 -0.166273 -0.286165 -1.000000 0.000000 0.000000 205 211 221 1.000000
0.590566 0.266260 -0.266240 -1.000000 0.000000 0.000000 255 255 255 1.000000
-0.603236 0.084144 0.409965 0.000000 0.000000 -1.000000 255 255 255 1.000000
0.106013 -0.500747 -0.549922 0.000000 -0.000000 1.000000 255 255 255 1.000000
0.025119 0.154561 0.467899 0.000000 0.000000 -1.000000 255 255 255 1.000000
-0.130907 0.467136 0.554449 0.000000 1.000000 0.000000 231 231 231 1.000000
0.199258 0.277783 0.409965 0.000000 0.000000 -1.000000 255 255 255 1.000000
-0.235067 0.576188 0.253257 0.000000 1.000000 0.000000 205 211 221 1.000000
-0.456498 -0.623386 0.242199 0.000000 1.000000 0.000000 255 255 255 1.000000
-0.101839 0.093874 0.409965 0.000000 0.000000 -1.000000 255 255 255 1.000000
0.345388 -0.276645 -0.549922 0.000000 -0.000000 1.000000 255 255 255 1.000000
0.042776 0.576188 0.293926 0.000000 1.000000 0.000000 196 202 212 1.000000
-0.287017 -0.494319 0.430653 0.000000 -1.000000 -0.000000 160 160 160 1.000000
-0.609009 0.521551 0.019011 1.000000 0.000000 0.000000 255 255 255 1.000000
-0.282637 0.576188 0.167833 0.000000 1.000000 0.000000 204 210 220 1.000000
0.388220 0.413195 0.467899 0.000000 -0.000000 1.000000 238 238 238 1.000000
-0.078347 0.455288 0.402557 0.000000 0.000000 -1.000000 255 255 255 1.000000
-0.275888 -0.623386 -0.183157 0.000000 -1.000000 -0.000000 199 205 215 1.000000
-0.609009 0.050641 0.220041 -1.000000 0.000000 0.000000 206 212 222 1.000000
-0.265032 0.576188 -0.005670 0.000000 1.000000 0.000000 207 213 223 1.000000
-0.609009 0.094365 -0.463943 -1.000000 0.000000 0.000000 198 204 214 1.000000
0.156838 -0.173822 -0.549922 0.000000 0.000000 -1.000000 214 220 230 1.000000
0.405135 -0.623386 0.162386 0.000000 1.000000 0.000000 255 255 255 1.000000
0.590566 -0.381686 0.258149 1.000000 0.000000 0.000000 202 208 218 1.000000
0.590566 0.137827 0.010393 -1.000000 0.000000 0.000000 255 255 255 1.000000
0.223194 -0.276024 0.402557 0.000000 0.000000 -1.000000 255 255 255 1.000000
0.590566 0.282039 -0.186444 1.000000 0.000000 0.000000 203 209 219 1.000000
-0.314014 0.576188 -0.309253 0.000000 -1.000000 -0.000000 255 255 255 1.000000
0.143443 0.466992 -0.549922 0.000000 0.000000 -1.000000 204 210 220 1.000000
0.590566 -0.311391 0.428873 1.000000 0.000000 0.000000 221 221 221 1.000000
-0.609009 -0.413895 -0.098424 1.000000 0.000000 0.000000 255 255 255 1.000000
-0.609009 0.230850 -0.417766 1.000000 0.000000 0.000000 255 255 255 1.000000
-0.466910 -0.623386 -0.366989 0.000000 1.000000 0.000000 255 255 255 1.000000
-0.609009 0.322153 0.230959 1.000000 0.000000 0.000000 255 255 255 1.000000
-0.066922 0.576188 0.262304 0.000000 1.000000 0.000000 206 212 222 1.000000
0.590566 -0.018565 -0.286277 -1.000000 0.000000 0.000000 255 255 255 1.000000
0.131920 0.034353 -0.549922 0.000000 -0.000000 1.000000 255 255 255 1.000000
-0.545670 -0.623386 -0.434602 0.000000 1.000000 0.000000 255 255 255 1.000000
-0.353076 0.231438 0.467899 0.000000 0.000000 -1.000000 255 255 255 1.000000
0.301221 0.576188 -0.489504 0.000000 1.000000 0.000000 197 203 213 1.000000
0.096666 -0.026289 0.402557 0.000000 -0.000000 1.000000 255 255 255 1.000000
-0.439714 0.026079 0.409965 0.000000 0.000000 -1.000000 255 255 255 1.000000
0.318004 -0.623386 -0.417106 0.000000 -1.000000 -0.000000 212 218 228 1.000000
0.180333 0.576188 0.273595 0.000000 1.000000 0.000000 193 199 209 1.000000
-0.489861 -0.623386 -0.474183 0.000000 -1.000000 -0.000000 194 200 210 1.000000
