ply
format ascii 1.0
element vertex 1213
property float x
property float y
property float z
property uchar red
property uchar green
property uchar blue
end_header
-0.084447 0.231446 -0.228419 204 51 127
-0.029090 -0.480823 0.234617 204 51 127
-0.087363 0.518430 -0.227123 204 51 127
-0.077428 -0.020422 -0.231325 204 51 127
0.183933 -0.712728 -0.166253 204 51 127
-0.233376 -0.384027 -0.046264 204 51 127
0.244030 0.493327 0.022028 204 51 127
0.227717 0.610410 -0.061641 204 51 127
0.000018 0.095962 0.237240 204 51 127
0.232712 -0.197245 0.074657 204 51 127
-0.215381 0.476512 -0.104189 204 51 127
-0.133821 0.714616 -0.133217 204 51 127
0.208696 0.407395 0.125044 204 51 127
-0.135608 0.447905 0.192690 204 51 127
0.158758 0.693873 -0.131535 204 51 127
0.119404 -0.777867 -0.041451 204 51 127
-0.187866 0.161837 0.141903 204 51 127
0.226404 0.535578 -0.096908 204 51 127
0.045844 -0.793774 0.187559 204 51 127
-0.219498 0.194376 0.086160 204 51 127
-0.231545 0.451955 0.049112 204 51 127
0.131612 -0.793762 0.151963 204 51 127
0.240175 0.574387 0.021872 204 51 127
0.089482 0.140554 -0.229883 204 51 127
-0.163543 -0.412636 0.169675 204 51 127
-0.196744 -0.785619 0.126799 204 51 127
-0.231772 -0.588341 0.047751 204 51 127
0.138870 0.642821 -0.179625 204 51 127
0.122057 0.539302 -0.214816 204 51 127
0.014862 0.939292 0.048312 0 0 255
0.126166 -0.044452 0.204675 204 51 127
-0.163699 0.515777 0.170100 204 51 127
0.213590 -0.392049 0.116201 204 51 127
-0.028224 0.826036 0.079442 0 0 255
0.049192 -0.269690 0.232809 204 51 127
0.040348 1.002700 -0.005755 255 0 0
0.136752 0.096832 0.197966 204 51 127
0.066627 -0.237991 -0.237773 204 51 127
0.237084 -0.568484 0.060728 204 51 127
-0.103698 -0.474983 -0.220324 204 51 127
0.072542 -0.561806 0.227828 204 51 127
0.084576 0.667655 0.192234 204 51 127
-0.096411 -0.793757 0.190342 204 51 127
0.003890 -0.693070 0.237418 204 51 127
0.241767 -0.755663 -0.047167 204 51 127
0.243973 0.549387 -0.021387 204 51 127
0.101825 0.595465 0.208620 204 51 127
0.072737 -0.229282 0.227758 204 51 127
0.134918 0.544184 0.198215 204 51 127
0.071051 0.395221 0.228645 204 51 127
0.161793 0.136620 0.179236 204 51 127
0.058561 -0.365849 0.231224 204 51 127
0.105287 -0.792224 0.193980 204 51 127
0.002599 0.686344 -0.207850 204 51 127
0.071825 0.279598 -0.236534 204 51 127
0.205672 -0.177003 0.128919 204 51 127
-0.066038 0.857392 -0.029707 0 0 255
-0.013345 -0.062212 -0.245048 204 51 127
-0.217309 -0.259562 0.091446 204 51 127
-0.130481 -0.020260 0.196118 204 51 127
0.079102 -0.691770 0.225503 204 51 127
0.201229 0.594744 -0.130479 204 51 127
-0.201137 -0.177945 0.123503 204 51 127
-0.194123 -0.123772 0.133509 204 51 127
-0.216465 0.124167 -0.101575 204 51 127
0.066448 -0.428256 0.229384 204 51 127
0.183668 0.621033 0.136439 204 51 127
0.142294 -0.400087 -0.202108 204 51 127
0.157640 -0.152594 0.182042 204 51 127
-0.159376 -0.684888 -0.182403 204 51 127
-0.136341 0.162832 -0.200255 204 51 127
0.237986 -0.518431 0.056888 204 51 127
0.055878 -0.443950 -0.240123 204 51 127
0.046512 0.738016 -0.172600 204 51 127
0.243348 -0.625683 -0.036154 204 51 127
0.170697 -0.250902 -0.179913 204 51 127
-0.161853 -0.793774 0.056107 204 51 127
0.074878 -0.793774 0.119920 204 51 127
0.116165 -0.817827 -0.074037 204 51 127
-0.034060 -0.793774 -0.163028 204 51 127
0.138196 0.186512 -0.205028 204 51 127
0.156139 -0.250845 0.183170 204 51 127
-0.003386 0.775617 -0.145560 204 51 127
0.049675 0.519261 -0.241063 204 51 127
0.206474 -0.707587 0.127593 204 51 127
-0.061092 -0.303951 0.228625 204 51 127
0.180897 -0.491327 0.161535 204 51 127
0.245313 -0.221906 -0.001746 204 51 127
-0.038635 0.631227 -0.224825 204 51 127
-0.056607 -0.214826 -0.238115 204 51 127
-0.067780 -0.628501 0.226601 204 51 127
0.045192 -0.168661 0.233473 204 51 127
-0.136702 0.615792 0.176355 204 51 127
0.200173 -0.526779 -0.144543 204 51 127
0.134380 -0.849263 0.120780 204 51 127
-0.236788 0.189925 0.012263 204 51 127
-0.231370 -0.157100 -0.058244 204 51 127
0.244679 0.141643 0.016306 204 51 127
-0.211669 0.104341 0.104628 204 51 127
0.243607 -0.709677 0.025758 204 51 127
0.231424 0.364920 0.077955 204 51 127
-0.147458 0.200776 -0.191767 204 51 127
0.154803 0.374199 0.184599 204 51 127
-0.234454 0.552449 0.020614 204 51 127
0.029653 -0.657304 -0.244082 204 51 127
-0.039117 -0.689720 -0.241544 204 51 127
0.158753 -0.385195 0.181571 204 51 127
0.125695 0.690232 -0.165461 204 51 127
0.223644 -0.315194 0.095447 204 51 127
-0.092410 0.801587 -0.062454 0 0 255
0.183373 0.418458 -0.166871 204 51 127
0.062204 -0.530892 -0.238806 204 51 127
0.075418 0.083933 0.227149 204 51 127
-0.234506 -0.045874 0.030944 204 51 127
0.157895 -0.779626 -0.134521 204 51 127
-0.217892 0.056869 -0.098139 204 51 127
0.112560 -0.495958 0.212019 204 51 127
0.191648 -0.215246 0.148148 204 51 127
-0.082153 -0.602336 -0.229368 204 51 127
0.058420 0.932616 0.002647 0 0 255
-0.207876 -0.308627 -0.120496 204 51 127
0.191528 0.339686 -0.156389 204 51 127
0.170085 -0.008022 0.171920 204 51 127
0.212692 0.626445 0.084281 204 51 127
-0.042438 -0.304334 -0.240945 204 51 127
-0.034348 0.963413 0.026330 0 0 255
0.140281 -0.638217 -0.203543 204 51 127
0.113440 0.803254 -0.016896 0 0 255
-0.093280 -0.793774 0.142120 204 51 127
0.129164 -0.246462 -0.211132 204 51 127
0.045343 -0.806852 -0.162174 204 51 127
0.122460 -0.115588 0.206881 204 51 127
0.229352 -0.388391 0.082501 204 51 127
-0.079970 -0.150577 -0.230272 204 51 127
-0.135485 -0.291664 0.192744 204 51 127
-0.143091 -0.830766 -0.029810 204 51 127
0.060584 0.785031 -0.122987 204 51 127
0.059793 -0.482095 0.230939 204 51 127
0.013805 -0.433079 0.236991 204 51 127
0.116771 0.302537 0.210031 204 51 127
0.210666 -0.104658 -0.129831 204 51 127
0.150600 0.006945 -0.195895 204 51 127
-0.219287 0.618918 0.042403 204 51 127
0.183505 0.290881 -0.166724 204 51 127
-0.216572 -0.649509 0.093228 204 51 127
-0.152720 0.376630 0.179419 204 51 127
0.149707 -0.188954 0.187849 204 51 127
0.238237 0.419440 0.057558 204 51 127
-0.030840 0.155798 0.234689 204 51 127
0.242416 -0.646153 0.033177 204 51 127
-0.062772 -0.745273 0.228563 204 51 127
-0.003446 -0.793313 -0.232508 204 51 127
-0.167322 0.573091 -0.169660 204 51 127
-0.222316 -0.365162 -0.087457 204 51 127
0.137683 0.308907 -0.205394 204 51 127
0.203881 0.017784 -0.139892 204 51 127
0.010145 -0.761321 0.237318 204 51 127
-0.064344 -0.170615 0.227739 204 51 127
-0.039469 -0.793772 0.202133 204 51 127
0.238765 -0.038635 0.054997 204 51 127
-0.168171 0.275557 0.165697 204 51 127
0.079360 -0.793774 -0.012442 204 51 127
-0.079791 -0.835534 0.157220 204 51 127
-0.037359 0.856027 -0.067759 0 0 255
0.211687 -0.006592 0.120323 204 51 127
0.245667 -0.024275 -0.005903 204 51 127
0.237546 0.099327 0.060184 204 51 127
-0.234170 0.158533 -0.041503 204 51 127
0.242320 0.454170 0.035829 204 51 127
-0.112340 -0.373151 -0.216115 204 51 127
0.080457 -0.321110 -0.233432 204 51 127
-0.035789 0.194390 -0.242055 204 51 127
0.216217 -0.396312 -0.120287 204 51 127
-0.234297 -0.405036 0.032538 204 51 127
-0.096368 -0.721398 -0.223484 204 51 127
-0.017635 -0.141975 -0.244552 204 51 127
0.115859 -0.749318 0.210475 204 51 127
0.169237 0.736432 -0.059677 204 51 127
-0.210564 0.427126 0.106897 204 51 127
0.189119 -0.107613 0.151440 204 51 127
-0.232264 -0.637756 0.044796 204 51 127
-0.157400 0.469998 -0.184124 204 51 127
0.239266 -0.159713 0.050131 204 51 127
-0.008899 1.002700 0.027546 255 0 0
-0.134891 0.734042 0.104037 204 51 127
-0.147055 0.757189 -0.050008 204 51 127
0.211310 0.551233 -0.126638 204 51 127
0.008206 -0.688187 -0.245665 204 51 127
-0.234270 -0.049635 -0.040874 204 51 127
0.203202 0.320898 0.132378 204 51 127
0.070743 -0.736363 0.228655 204 51 127
-0.046063 0.512633 -0.240340 204 51 127
-0.012878 -0.022672 -0.245069 204 51 127
0.118629 -0.545306 0.208882 204 51 127
0.143000 -0.750323 -0.201605 204 51 127
-0.017466 0.560346 -0.242320 204 51 127
-0.222847 -0.630401 -0.086176 204 51 127
-0.207747 -0.616382 0.112684 204 51 127
0.105727 -0.793774 -0.184627 204 51 127
0.198422 0.685034 -0.067249 204 51 127
0.241982 0.494125 -0.045881 204 51 127
0.102865 -0.793774 0.076700 204 51 127
0.164124 -0.793731 0.118707 204 51 127
-0.151663 0.727877 -0.094335 204 51 127
-0.096136 0.670367 0.181281 204 51 127
-0.131320 -0.089399 0.195339 204 51 127
0.066402 0.369820 -0.237825 204 51 127
-0.149628 0.314815 -0.190100 204 51 127
-0.215600 -0.547506 0.095573 204 51 127
0.245709 0.393397 -0.004993 204 51 127
0.122089 0.037204 0.207069 204 51 127
-0.048106 0.547157 0.230854 204 51 127
-0.237193 -0.358069 -0.011501 204 51 127
0.076300 0.260378 0.226832 204 51 127
0.056102 -0.589929 -0.240085 204 51 127
0.068069 0.782791 0.114183 204 51 127
-0.038340 -0.367544 -0.241629 204 51 127
-0.154038 -0.163329 0.177494 204 51 127
0.223882 -0.729403 -0.104263 204 51 127
-0.058931 -0.806925 0.083797 204 51 127
0.236809 -0.333112 0.061898 204 51 127
0.069421 0.055863 -0.237121 204 51 127
0.066333 -0.793774 -0.087664 204 51 127
0.045459 0.822205 0.078564 0 0 255
-0.046681 0.032201 -0.240237 204 51 127
-0.224274 -0.118106 -0.082586 204 51 127
-0.201475 -0.015395 -0.131057 204 51 127
0.128747 0.576181 -0.206324 204 51 127
-0.205634 0.635517 -0.081608 204 51 127
0.242901 -0.706254 -0.040082 204 51 127
0.200834 0.188763 0.135539 204 51 127
0.096333 -0.845268 0.150441 204 51 127
-0.095279 0.355108 -0.223934 204 51 127
0.200404 0.688832 0.047459 204 51 127
0.124767 -0.676195 0.205818 204 51 127
0.162487 -0.793774 0.038345 204 51 127
0.222498 -0.480257 -0.107410 204 51 127
-0.120617 -0.220809 0.202498 204 51 127
-0.110062 -0.156197 0.208458 204 51 127
-0.043585 0.130995 -0.240754 204 51 127
0.021681 0.794216 -0.124971 204 51 127
0.115826 0.483225 -0.218584 204 51 127
0.111121 -0.411143 0.212762 204 51 127
-0.009155 -0.757001 -0.245240 204 51 127
-0.128270 -0.734078 0.197921 204 51 127
0.072905 0.827237 0.053194 0 0 255
-0.217551 -0.483424 -0.098962 204 51 127
0.210606 -0.315346 -0.129517 204 51 127
0.240712 -0.058721 -0.053491 204 51 127
-0.060267 0.762561 -0.143461 204 51 127
-0.230157 -0.514818 0.055302 204 51 127
-0.105159 -0.764578 0.211433 204 51 127
-0.151226 0.333640 0.180629 204 51 127
-0.087910 -0.056412 -0.226985 204 51 127
0.213773 -0.635289 -0.125103 204 51 127
0.004497 -0.793739 0.210164 204 51 127
0.178818 -0.075468 0.163545 204 51 127
0.029076 0.844903 -0.080731 0 0 255
-0.111530 -0.547035 -0.216509 204 51 127
-0.098596 -0.329743 0.213831 204 51 127
0.195827 -0.823794 -0.060519 204 51 127
0.165049 -0.790271 0.169364 204 51 127
-0.235857 -0.246561 0.020614 204 51 127
0.022992 0.622782 0.222572 204 51 127
-0.151255 -0.351682 -0.188849 204 51 127
0.011496 -0.318528 -0.245517 204 51 127
-0.158905 -0.248816 -0.182826 204 51 127
-0.049273 -0.817111 -0.141778 204 51 127
0.212352 0.425004 -0.127352 204 51 127
0.065004 -0.654657 0.229738 204 51 127
-0.163062 -0.595247 0.170554 204 51 127
0.165183 -0.529234 0.176631 204 51 127
0.172678 -0.408875 -0.178130 204 51 127
0.175889 -0.531381 -0.175184 204 51 127
0.015022 0.416896 0.236938 204 51 127
0.245596 0.512512 -0.010886 204 51 127
-0.000118 -0.854474 -0.180732 204 51 127
0.169996 0.338699 0.172268 204 51 127
0.222738 0.564546 0.092135 204 51 127
-0.107459 0.100407 -0.218493 204 51 127
0.189013 0.420493 0.150482 204 51 127
0.173846 -0.614733 0.168983 204 51 127
-0.204914 0.592709 -0.110139 204 51 127
0.084123 -0.694623 -0.232101 204 51 127
0.020233 0.228856 0.236702 204 51 127
0.102698 -0.349261 0.216317 204 51 127
-0.025107 0.733340 0.169977 204 51 127
0.228947 0.244276 0.083937 204 51 127
-0.117590 -0.193411 -0.213046 204 51 127
0.220567 0.305185 0.103898 204 51 127
0.035761 0.887634 0.053295 0 0 255
0.065113 0.510437 0.230029 204 51 127
-0.185880 -0.362401 -0.152593 204 51 127
-0.198965 -0.029000 0.126714 204 51 127
-0.044048 0.324170 -0.240677 204 51 127
0.090913 -0.793774 -0.115031 204 51 127
0.237397 -0.710168 0.060819 204 51 127
-0.216097 -0.028010 -0.102461 204 51 127
0.171550 0.730019 0.059469 204 51 127
0.244660 -0.337078 -0.020638 204 51 127
0.229265 0.617060 0.037667 204 51 127
-0.137013 -0.791955 0.161968 204 51 127
0.243875 0.232713 0.023391 204 51 127
0.111756 0.205362 -0.220565 204 51 127
0.236717 0.226557 -0.071671 204 51 127
0.129413 0.748783 -0.111754 204 51 127
-0.235250 -0.671430 -0.033425 204 51 127
0.245183 0.349766 0.008369 204 51 127
-0.105864 0.551439 -0.217824 204 51 127
-0.090482 0.598494 0.209064 204 51 127
0.005224 0.078656 -0.245800 204 51 127
-0.237475 -0.004933 -0.002966 204 51 127
-0.108504 -0.670362 -0.217983 204 51 127
-0.189919 0.698626 -0.041750 204 51 127
-0.168176 0.736564 -0.028907 204 51 127
-0.009935 0.678806 0.202811 204 51 127
0.092741 -0.153575 0.220188 204 51 127
0.228497 -0.679681 -0.092847 204 51 127
0.245008 0.265127 -0.020265 204 51 127
-0.035140 0.781614 0.124688 204 51 127
-0.012201 0.352443 0.236679 204 51 127
0.098326 -0.831598 0.080051 204 51 127
-0.161027 0.107762 0.172384 204 51 127
0.008484 -0.206414 0.236902 204 51 127
-0.030785 -0.041405 0.234695 204 51 127
-0.178561 -0.541900 -0.162145 204 51 127
0.124629 0.180798 0.205589 204 51 127
0.163586 -0.571761 -0.185955 204 51 127
0.051665 -0.793774 0.063827 204 51 127
-0.015848 0.721780 -0.187147 204 51 127
-0.137432 0.011551 -0.199422 204 51 127
-0.191181 0.004397 0.137555 204 51 127
-0.131527 -0.774597 -0.005703 204 51 127
0.120224 -0.554798 -0.216442 204 51 127
-0.092671 -0.334897 -0.225013 204 51 127
0.108581 0.562397 0.211399 204 51 127
0.170084 0.517709 -0.180367 204 51 127
0.242205 -0.492568 -0.044178 204 51 127
0.078459 0.200339 0.226057 204 51 127
0.205061 -0.447468 -0.137687 204 51 127
-0.184608 -0.561720 0.146177 204 51 127
0.227637 0.054703 0.087101 204 51 127
-0.148482 -0.313439 -0.190981 204 51 127
-0.198953 -0.421202 -0.134826 204 51 127
-0.224818 -0.239325 -0.081072 204 51 127
-0.221224 -0.321440 -0.090097 204 51 127
-0.142086 -0.505738 -0.195870 204 51 127
0.142732 -0.312089 -0.201796 204 51 127
0.014373 -0.586215 -0.245387 204 51 127
0.114595 0.741534 0.126306 204 51 127
0.048874 -0.101539 0.233196 204 51 127
0.065306 0.897587 -0.014606 0 0 255
0.229185 -0.411412 -0.090143 204 51 127
-0.205911 0.034780 0.115944 204 51 127
-0.167781 -0.327582 0.165700 204 51 127
0.055292 -0.152444 -0.240220 204 51 127
0.219045 -0.039208 -0.114486 204 51 127
-0.237348 -0.427102 -0.008126 204 51 127
-0.097734 -0.436301 -0.222918 204 51 127
-0.237363 -0.544761 -0.000486 204 51 127
0.141544 0.694541 0.141576 204 51 127
-0.236643 0.518343 0.013677 204 51 127
0.203770 -0.756499 0.131387 204 51 127
0.240036 0.024107 0.049432 204 51 127
-0.126187 0.654144 0.169853 204 51 127
-0.067768 0.645288 -0.212505 204 51 127
-0.223863 0.305754 -0.083724 204 51 127
-0.236920 -0.470317 -0.017479 204 51 127
0.231134 -0.343299 -0.085111 204 51 127
0.216150 -0.770644 -0.120591 204 51 127
0.052693 0.313998 0.232560 204 51 127
-0.004802 -0.596168 0.237019 204 51 127
-0.000343 -0.487932 -0.245642 204 51 127
-0.145101 0.067468 -0.193567 204 51 127
0.238826 0.011583 -0.062839 204 51 127
-0.221279 -0.418782 0.081859 204 51 127
-0.190228 0.699751 0.026988 204 51 127
0.208089 -0.042779 0.125900 204 51 127
0.219865 -0.071143 0.105339 204 51 127
-0.116915 -0.793774 -0.123564 204 51 127
-0.000193 0.746905 -0.170462 204 51 127
-0.236428 -0.094047 0.016246 204 51 127
-0.158388 0.672408 -0.136694 204 51 127
-0.236902 -0.174386 0.009739 204 51 127
0.204511 -0.793632 0.071348 204 51 127
-0.051293 -0.658845 -0.239417 204 51 127
0.244291 -0.459381 0.018966 204 51 127
-0.206577 0.667644 -0.027195 204 51 127
0.240703 0.517002 0.045088 204 51 127
0.183711 0.460106 0.156914 204 51 127
-0.186160 0.684343 0.071340 204 51 127
0.244996 -0.188731 -0.013314 204 51 127
-0.165926 -0.198402 0.167493 204 51 127
0.151429 0.592732 -0.186511 204 51 127
0.245631 -0.568037 -0.006689 204 51 127
-0.045733 -0.828911 -0.208237 204 51 127
0.232131 0.177619 0.076247 204 51 127
0.225802 0.139461 0.091539 204 51 127
0.002650 -0.139671 0.237214 204 51 127
-0.025240 -0.187721 0.234787 204 51 127
0.020188 0.966603 -0.058793 255 0 0
0.242909 -0.582373 0.029483 204 51 127
-0.031526 -0.754383 0.234610 204 51 127
0.234860 -0.201368 -0.074876 204 51 127
-0.084372 0.058977 -0.228450 204 51 127
-0.151452 -0.816521 -0.091454 204 51 127
-0.129573 -0.746325 -0.205087 204 51 127
-0.214960 -0.549113 -0.105201 204 51 127
-0.163678 -0.467566 -0.178530 204 51 127
-0.142381 0.159362 0.187550 204 51 127
-0.115746 0.216846 0.206116 204 51 127
0.146713 -0.085837 0.190692 204 51 127
-0.192173 0.310177 0.136246 204 51 127
0.005717 0.051625 0.237360 204 51 127
0.069325 0.830874 -0.060944 0 0 255
0.089384 -0.793774 -0.051312 204 51 127
-0.236395 -0.084922 -0.024723 204 51 127
0.154752 0.733842 0.088138 204 51 127
-0.167374 0.567271 0.162425 204 51 127
-0.061097 -0.485677 0.228624 204 51 127
0.162375 -0.757954 0.178789 204 51 127
0.118497 -0.197716 0.208950 204 51 127
-0.173213 -0.748750 -0.168664 204 51 127
-0.036798 -0.559701 0.233458 204 51 127
-0.222844 -0.792147 -0.043601 204 51 127
-0.089007 -0.264374 -0.226530 204 51 127
-0.184966 0.124282 0.145706 204 51 127
-0.053694 -0.588936 -0.238800 204 51 127
-0.033153 0.581997 0.229096 204 51 127
-0.032221 -0.793774 0.049485 204 51 127
-0.039285 -0.550316 -0.241471 204 51 127
-0.233733 -0.296743 0.035983 204 51 127
0.195356 -0.793774 -0.006919 204 51 127
-0.075707 -0.533275 0.223942 204 51 127
0.188896 0.171517 -0.159812 204 51 127
-0.185290 0.685542 -0.079948 204 51 127
-0.229195 0.191209 -0.067550 204 51 127
0.210041 -0.105518 0.122900 204 51 127
0.235689 -0.282440 -0.072569 204 51 127
0.211114 -0.357050 0.120356 204 51 127
0.205805 0.275151 -0.137192 204 51 127
-0.138269 -0.577151 0.190682 204 51 127
-0.150555 -0.793774 -0.064630 204 51 127
-0.067104 0.200733 -0.235150 204 51 127
0.130678 0.616966 0.187289 204 51 127
-0.196695 -0.730432 -0.137995 204 51 127
0.174931 0.739203 -0.026656 204 51 127
-0.106015 0.759271 0.106675 204 51 127
0.129471 0.786098 -0.039496 204 51 127
-0.093562 0.566106 0.213489 204 51 127
0.192701 0.714678 -0.011589 204 51 127
0.239498 0.293264 0.051878 204 51 127
0.004626 0.046122 -0.245827 204 51 127
-0.039418 -0.354330 0.233021 204 51 127
-0.043494 0.094327 -0.240769 204 51 127
-0.187917 -0.629565 0.141836 204 51 127
0.204074 0.095743 0.131213 204 51 127
0.164972 0.647380 0.146795 204 51 127
-0.234477 0.021695 -0.039299 204 51 127
-0.077610 0.008007 0.223155 204 51 127
0.079205 -0.207436 -0.233882 204 51 127
-0.054362 0.588478 -0.231897 204 51 127
0.187633 -0.161278 -0.161217 204 51 127
0.009433 -0.537561 -0.245610 204 51 127
-0.196016 0.226924 0.130853 204 51 127
0.033502 0.970764 0.041726 255 0 0
-0.148177 -0.148783 -0.191216 204 51 127
-0.022689 -0.239547 -0.243887 204 51 127
-0.039498 -0.483837 -0.241436 204 51 127
-0.188824 -0.836317 -0.050367 204 51 127
0.076764 0.478304 -0.234777 204 51 127
0.213249 0.636506 -0.082851 204 51 127
0.245177 0.038861 -0.016584 204 51 127
0.242618 -0.158958 -0.039930 204 51 127
0.009360 0.736218 0.170505 204 51 127
0.020278 0.221984 -0.245121 204 51 127
0.173567 0.567281 -0.173345 204 51 127
-0.058742 -0.331922 -0.237611 204 51 127
-0.045089 -0.432436 -0.240503 204 51 127
-0.112844 -0.821563 0.075143 204 51 127
-0.176087 0.643330 0.123956 204 51 127
0.218107 -0.464442 0.107430 204 51 127
0.121769 -0.459635 -0.215690 204 51 127
-0.167433 -0.136250 0.166380 204 51 127
0.213652 0.030505 0.117213 204 51 127
0.074704 0.416435 -0.235512 204 51 127
-0.142464 0.631615 -0.174614 204 51 127
-0.223104 0.026060 -0.085557 204 51 127
-0.230922 -0.118592 0.052024 204 51 127
-0.224597 -0.709328 0.073640 204 51 127
0.020498 -0.006466 0.236690 204 51 127
-0.105277 -0.793774 -0.041418 204 51 127
-0.042608 -0.406246 0.232489 204 51 127
0.014916 -0.070227 0.236943 204 51 127
0.009563 0.905956 0.056324 0 0 255
-0.232167 -0.185506 0.045382 204 51 127
0.243266 0.390713 -0.036878 204 51 127
0.175115 -0.282432 -0.175937 204 51 127
0.239828 0.351813 -0.058594 204 51 127
0.139549 -0.688798 -0.204064 204 51 127
0.233199 -0.761668 0.073305 204 51 127
0.026601 0.459048 0.236132 204 51 127
-0.156468 0.116219 -0.184841 204 51 127
-0.066498 -0.793774 0.115342 204 51 127
0.118652 0.110974 -0.217208 204 51 127
-0.174388 -0.793774 -0.005640 204 51 127
-0.204946 -0.429310 0.117471 204 51 127
0.230441 0.620475 -0.030476 204 51 127
-0.225419 0.303833 0.071296 204 51 127
-0.104257 0.777372 -0.091869 204 51 127
-0.156979 0.743542 0.046460 204 51 127
0.173913 -0.186458 -0.177019 204 51 127
0.078049 0.655562 -0.208102 204 51 127
0.055245 0.174625 -0.240228 204 51 127
-0.128488 -0.793774 0.093639 204 51 127
0.076611 -0.299582 0.226365 204 51 127
0.065788 -0.792287 0.214995 204 51 127
-0.229379 -0.270817 -0.066762 204 51 127
-0.203788 0.321348 -0.127396 204 51 127
-0.093276 -0.029874 0.216668 204 51 127
-0.138290 -0.381310 -0.198767 204 51 127
0.158253 0.592011 0.173233 204 51 127
0.064902 0.045522 0.230081 204 51 127
0.030445 -0.310059 0.235361 204 51 127
0.018322 0.691885 0.196843 204 51 127
-0.014981 -0.111422 0.236429 204 51 127
0.226962 -0.010329 0.088731 204 51 127
-0.169958 0.013911 0.163710 204 51 127
0.199347 -0.605894 0.137491 204 51 127
0.005186 -0.656459 0.237384 204 51 127
0.161614 0.102425 0.179208 204 51 127
-0.032262 0.095658 0.234527 204 51 127
-0.006108 0.315019 -0.245379 204 51 127
-0.106233 -0.089698 -0.219090 204 51 127
-0.124885 0.319917 0.200334 204 51 127
0.120881 0.468795 0.208031 204 51 127
0.025824 0.549426 0.235310 204 51 127
0.242381 -0.286954 0.033349 204 51 127
-0.014187 0.397093 0.236584 204 51 127
-0.234329 0.023182 0.032294 204 51 127
-0.179428 -0.793373 -0.131724 204 51 127
0.109851 0.316384 -0.221447 204 51 127
0.205466 0.688340 -0.028970 204 51 127
0.075819 0.542068 -0.234272 204 51 127
0.051385 0.710265 -0.189416 204 51 127
-0.204542 0.353411 0.118111 204 51 127
0.050061 -0.481016 -0.241092 204 51 127
-0.018962 -0.290275 0.235953 204 51 127
0.021117 1.002700 -0.036387 255 0 0
0.156634 -0.472013 0.183200 204 51 127
0.144049 -0.021098 0.192766 204 51 127
0.205525 -0.241346 0.129136 204 51 127
-0.193426 -0.243180 -0.142579 204 51 127
0.072369 0.851867 0.032457 0 0 255
0.027382 0.151192 0.236043 204 51 127
-0.181767 -0.038775 -0.157970 204 51 127
-0.222342 0.507140 0.079290 204 51 127
-0.231222 -0.610609 -0.058878 204 51 127
-0.128447 0.783327 0.008285 204 51 127
-0.222436 -0.788924 -0.074960 204 51 127
-0.237029 0.254901 -0.015089 204 51 127
0.146157 -0.780688 -0.024044 204 51 127
-0.208815 0.475729 0.110491 204 51 127
0.225872 -0.577354 0.091217 204 51 127
0.018845 -0.378059 0.236432 204 51 127
-0.036475 0.262079 -0.241940 204 51 127
-0.109356 0.026822 -0.217568 204 51 127
0.238847 0.444545 -0.062752 204 51 127
-0.039512 0.702427 0.186817 204 51 127
0.174944 0.630423 -0.151331 204 51 127
-0.232401 -0.573871 -0.052109 204 51 127
0.016560 0.507171 -0.245288 204 51 127
-0.031792 0.982994 -0.052040 255 0 0
0.133470 -0.387478 0.199908 204 51 127
0.156204 -0.820036 0.099629 204 51 127
-0.186475 -0.201803 0.143728 204 51 127
0.012478 -0.194158 -0.245473 204 51 127
0.209327 -0.213563 -0.131022 204 51 127
0.174520 -0.059553 -0.176071 204 51 127
-0.055364 -0.671144 0.230196 204 51 127
0.093631 -0.793774 0.036680 204 51 127
0.042842 0.765571 0.141926 204 51 127
0.091191 -0.107015 0.220733 204 51 127
0.010840 0.870879 -0.073777 0 0 255
0.160427 0.758925 0.007444 204 51 127
0.043906 -0.763115 0.234003 204 51 127
0.244138 -0.136960 0.019658 204 51 127
0.219091 -0.133798 0.106150 204 51 127
0.163926 -0.810448 -0.029096 204 51 127
0.031265 -0.793774 0.028058 204 51 127
-0.237362 -0.233998 -0.007817 204 51 127
-0.226271 -0.291050 0.068924 204 51 127
0.170268 -0.225414 0.172204 204 51 127
0.116306 -0.624204 0.210258 204 51 127
-0.198205 0.407722 0.127781 204 51 127
0.000228 -0.362701 -0.245668 204 51 127
0.219169 0.657970 -0.023658 204 51 127
0.006339 0.388291 -0.245750 204 51 127
-0.221964 -0.435259 -0.088310 204 51 127
-0.115573 -0.643527 0.205834 204 51 127
-0.227467 0.062470 0.065595 204 51 127
-0.040066 0.217136 0.233248 204 51 127
0.095304 0.694476 -0.182024 204 51 127
0.103336 -0.244052 0.216053 204 51 127
-0.112445 -0.617063 -0.216063 204 51 127
-0.010153 -0.408714 0.236702 204 51 127
0.198366 -0.292605 0.139328 204 51 127
0.182739 -0.360396 0.159487 204 51 127
-0.237113 0.495286 -0.013254 204 51 127
-0.236475 0.459461 0.015888 204 51 127
-0.185131 0.177460 -0.153574 204 51 127
0.216944 0.660791 0.025346 204 51 127
-0.110701 0.439217 0.208818 204 51 127
0.166164 -0.106844 -0.183976 204 51 127
0.119997 -0.422243 -0.216553 204 51 127
0.056906 0.617773 -0.226862 204 51 127
-0.092917 -0.366797 0.216338 204 51 127
0.201719 -0.669958 0.134214 204 51 127
-0.087341 0.728361 0.151512 204 51 127
0.082506 -0.593574 0.224247 204 51 127
0.154330 0.137013 -0.193051 204 51 127
-0.235665 -0.761426 0.022078 204 51 127
-0.009552 0.212942 -0.245221 204 51 127
-0.101135 0.341992 0.213416 204 51 127
0.118554 0.249167 -0.217256 204 51 127
0.066566 0.584307 -0.232257 204 51 127
0.183444 -0.151696 0.158704 204 51 127
-0.142181 -0.811437 -0.005901 204 51 127
-0.179113 -0.717577 0.153268 204 51 127
0.199125 0.664538 0.082687 204 51 127
0.103307 0.599199 -0.215192 204 51 127
-0.162613 0.699493 0.100814 204 51 127
0.189477 -0.793774 -0.069684 204 51 127
-0.168185 -0.289636 -0.174255 204 51 127
-0.113312 0.498366 0.207546 204 51 127
-0.089587 0.534626 0.217725 204 51 127
0.159320 -0.584249 0.181136 204 51 127
-0.027646 0.853435 0.065644 0 0 255
-0.087927 0.699354 0.170560 204 51 127
0.219043 0.052485 -0.115102 204 51 127
0.100060 0.792791 -0.079153 204 51 127
0.089112 -0.094523 -0.230036 204 51 127
-0.210698 -0.073085 -0.114703 204 51 127
-0.122223 -0.793774 0.123615 204 51 127
0.128202 -0.844261 0.150713 204 51 127
-0.142973 0.261063 0.187098 204 51 127
-0.197832 -0.774602 -0.001208 204 51 127
0.217293 -0.251626 -0.118206 204 51 127
0.058258 0.888245 0.032581 0 0 255
0.024542 0.853027 0.069829 0 0 255
-0.132919 -0.538902 0.194485 204 51 127
0.001712 -0.793774 0.123764 204 51 127
0.140917 -0.793774 0.073792 204 51 127
0.085644 -0.043634 0.223330 204 51 127
-0.118424 -0.704431 0.204423 204 51 127
0.244931 0.297503 0.013939 204 51 127
0.087153 0.229383 0.222664 204 51 127
0.201017 -0.275869 -0.143074 204 51 127
-0.083222 0.262812 0.220831 204 51 127
0.041501 0.399852 0.234425 204 51 127
-0.088243 0.420167 -0.226847 204 51 127
0.183384 -0.213561 -0.166859 204 51 127
0.245170 0.329603 -0.016731 204 51 127
-0.209815 -0.816478 -0.030772 204 51 127
0.140360 0.517833 -0.203399 204 51 127
-0.177953 -0.465206 0.154495 204 51 127
0.186611 -0.630077 -0.162784 204 51 127
-0.234797 -0.554834 0.028717 204 51 127
0.245703 -0.638820 -0.003094 204 51 127
-0.127533 -0.259779 -0.206540 204 51 127
-0.188137 0.585700 0.132119 204 51 127
-0.154816 -0.732060 -0.186116 204 51 127
0.174733 -0.785566 -0.172897 204 51 127
0.244751 -0.394737 -0.022278 204 51 127
-0.225652 -0.141933 0.070647 204 51 127
0.128913 -0.793774 -0.095854 204 51 127
-0.200565 0.063354 0.124408 204 51 127
0.176870 -0.418274 0.166009 204 51 127
-0.135578 -0.681630 -0.200806 204 51 127
0.086271 -0.822755 0.167948 204 51 127
-0.089844 0.159700 0.218089 204 51 127
-0.018935 0.922517 -0.058422 0 0 255
-0.227539 0.122796 -0.073509 204 51 127
-0.089569 0.290989 -0.226297 204 51 127
-0.038443 -0.793774 -0.094920 204 51 127
0.133000 0.276218 -0.208709 204 51 127
0.030359 -0.598943 0.235707 204 51 127
-0.088767 0.815656 0.023533 0 0 255
-0.049153 0.314453 0.231731 204 51 127
-0.025256 -0.007221 0.235324 204 51 127
0.184670 -0.682073 -0.165310 204 51 127
0.054000 -0.355135 -0.240436 204 51 127
-0.034655 0.777804 -0.137550 204 51 127
0.052106 -0.793770 -0.216501 204 51 127
-0.190926 -0.323690 -0.145983 204 51 127
-0.229222 -0.081780 -0.067432 204 51 127
-0.146866 -0.573711 -0.192220 204 51 127
0.216240 0.365568 -0.120854 204 51 127
-0.068863 -0.096672 0.226422 204 51 127
-0.158256 -0.257041 0.174400 204 51 127
0.244082 -0.056910 0.021567 204 51 127
0.233636 0.509452 -0.080240 204 51 127
-0.092810 0.183241 -0.224956 204 51 127
0.010965 0.998423 0.051143 255 0 0
0.068092 -0.617292 -0.237431 204 51 127
-0.001225 -0.793774 -0.144078 204 51 127
-0.113013 0.669348 -0.180203 204 51 127
-0.050422 1.002700 -0.002092 255 0 0
0.163787 0.749114 0.037714 204 51 127
-0.237529 -0.665350 -0.004169 204 51 127
0.203877 -0.569310 -0.139349 204 51 127
-0.149874 0.361330 -0.189910 204 51 127
-0.179189 -0.405098 -0.161326 204 51 127
-0.203389 0.549658 0.117753 204 51 127
0.149151 0.754541 -0.072365 204 51 127
0.077008 0.441518 0.226578 204 51 127
0.238765 -0.526119 -0.061672 204 51 127
0.242035 0.120707 0.037434 204 51 127
0.245613 0.437022 -0.001111 204 51 127
-0.234058 0.570994 -0.002984 204 51 127
0.107857 0.638518 -0.201729 204 51 127
-0.186375 -0.827681 -0.078802 204 51 127
0.232462 0.504768 0.075426 204 51 127
-0.078922 -0.848408 0.114648 204 51 127
-0.178078 -0.055086 0.154339 204 51 127
-0.200886 -0.096393 0.123899 204 51 127
0.064660 0.763851 -0.144440 204 51 127
0.225783 -0.260952 0.090593 204 51 127
-0.175448 -0.355168 0.157590 204 51 127
-0.224679 0.558704 0.067401 204 51 127
-0.233236 0.082661 -0.047103 204 51 127
0.034218 0.358879 0.235270 204 51 127
0.153404 0.313904 0.185666 204 51 127
0.244452 -0.436760 -0.026434 204 51 127
-0.203970 0.251664 -0.127107 204 51 127
-0.209904 -0.274094 -0.116333 204 51 127
0.001405 -0.118993 -0.245722 204 51 127
0.171474 0.506455 0.170542 204 51 127
-0.046265 -0.082962 -0.240307 204 51 127
0.181064 -0.793774 -0.105573 204 51 127
0.021589 -0.721752 -0.245062 204 51 127
-0.212468 -0.610998 -0.111071 204 51 127
0.179061 0.709827 -0.082482 204 51 127
0.083006 0.701292 0.175596 204 51 127
0.031781 0.681546 -0.208241 204 51 127
0.042708 -0.139195 0.233940 204 51 127
0.082226 -0.291625 -0.232797 204 51 127
-0.188570 0.030198 -0.149069 204 51 127
-0.108175 0.705083 -0.162269 204 51 127
-0.090123 -0.523666 -0.226069 204 51 127
0.120963 -0.045830 -0.216083 204 51 127
-0.235977 -0.732006 0.019694 204 51 127
-0.194750 -0.641060 -0.140722 204 51 127
0.240906 -0.022383 -0.052327 204 51 127
0.139836 -0.835398 -0.072964 204 51 127
-0.120886 -0.774956 -0.078065 204 51 127
0.036911 0.946013 -0.045914 0 0 255
0.218713 -0.005915 -0.115613 204 51 127
-0.229423 -0.032861 -0.066564 204 51 127
0.240892 0.287066 -0.052414 204 51 127
0.002310 0.820991 -0.098563 0 0 255
0.241774 -0.227249 0.035304 204 51 127
0.054460 0.894266 -0.042096 0 0 255
0.033271 -0.046832 0.235377 204 51 127
-0.154127 -0.636358 -0.186640 204 51 127
-0.140155 -0.075951 -0.197344 204 51 127
-0.096543 0.079554 0.215316 204 51 127
0.222586 0.217528 0.099321 204 51 127
0.242659 -0.616481 0.031386 204 51 127
-0.220166 -0.074019 0.084548 204 51 127
0.204433 0.226477 -0.139117 204 51 127
0.169387 -0.831421 -0.049907 204 51 127
0.154347 0.066820 -0.193038 204 51 127
-0.213625 -0.040695 0.100340 204 51 127
-0.212338 0.415135 -0.111337 204 51 127
-0.032476 0.831247 -0.083169 0 0 255
-0.144347 -0.656544 0.186046 204 51 127
0.245011 -0.256389 -0.012984 204 51 127
-0.042078 0.255730 0.232912 204 51 127
0.243591 0.169567 0.025898 204 51 127
0.245399 0.005563 0.003621 204 51 127
0.245247 0.067900 0.006962 204 51 127
-0.112171 0.235476 -0.216197 204 51 127
-0.039611 0.754373 0.150443 204 51 127
0.124204 -0.731949 -0.214265 204 51 127
0.084389 0.844050 -0.003036 0 0 255
0.007344 0.453794 -0.245704 204 51 127
0.058417 0.661999 0.203741 204 51 127
0.242869 0.462753 -0.040369 204 51 127
0.155912 -0.467392 -0.191845 204 51 127
0.001787 -0.793773 -0.203901 204 51 127
-0.168718 0.430533 0.165090 204 51 127
-0.157752 -0.110107 0.175272 204 51 127
0.228705 -0.055368 -0.092058 204 51 127
-0.199567 0.655039 0.070666 204 51 127
0.225433 -0.516862 0.091577 204 51 127
0.069472 0.872393 -0.028401 0 0 255
-0.010671 -0.176665 -0.245170 204 51 127
-0.188217 -0.242753 0.141443 204 51 127
-0.144013 -0.398750 0.186010 204 51 127
0.071663 -0.720412 -0.236592 204 51 127
-0.233633 0.255391 0.036585 204 51 127
-0.170070 -0.622714 0.163585 204 51 127
0.177208 0.024293 0.165138 204 51 127
0.223644 0.203897 -0.104837 204 51 127
-0.110523 -0.250999 0.208162 204 51 127
-0.237076 -0.303201 -0.014057 204 51 127
-0.178746 -0.192856 -0.161906 204 51 127
-0.081228 0.709400 -0.175926 204 51 127
-0.070422 -0.763047 -0.233955 204 51 127
-0.232474 -0.227179 0.043538 204 51 127
0.238957 0.343885 0.054181 204 51 127
-0.035271 0.521497 0.233912 204 51 127
-0.222604 0.158294 0.078657 204 51 127
0.079610 0.736291 0.153550 204 51 127
-0.007939 0.965503 -0.052406 0 0 255
0.103200 -0.793774 0.138041 204 51 127
-0.237282 -0.719244 -0.009572 204 51 127
-0.229003 -0.014579 0.060249 204 51 127
0.133405 0.392777 -0.208442 204 51 127
0.085116 -0.493353 0.223271 204 51 127
-0.138690 -0.180417 -0.198463 204 51 127
-0.178302 -0.259498 -0.162481 204 51 127
0.065271 0.450346 -0.238161 204 51 127
0.117032 0.799985 0.011427 204 51 127
0.108154 0.715891 -0.160727 204 51 127
0.214565 0.084430 -0.123849 204 51 127
-0.065922 -0.793774 -0.140065 204 51 127
-0.236901 0.272286 0.009766 204 51 127
-0.107820 -0.587788 0.209851 204 51 127
0.230385 -0.663381 0.080466 204 51 127
0.013992 0.275568 -0.245404 204 51 127
-0.205729 0.059736 -0.124321 204 51 127
0.210713 -0.315135 0.121028 204 51 127
0.054418 0.953628 -0.016432 0 0 255
-0.006721 -0.462403 0.236931 204 51 127
0.229580 0.255386 -0.090498 204 51 127
0.002784 0.786791 0.125026 204 51 127
0.181664 0.653211 -0.129968 204 51 127
-0.130748 0.091762 -0.204249 204 51 127
-0.233098 0.357870 -0.047930 204 51 127
-0.118874 0.777243 0.061613 204 51 127
0.221636 -0.189906 0.100005 204 51 127
-0.216732 0.577258 -0.089161 204 51 127
-0.063163 0.739214 -0.162575 204 51 127
-0.044515 0.551568 -0.239283 204 51 127
-0.050863 -0.810417 0.148587 204 51 127
-0.172006 -0.778070 -0.104064 204 51 127
-0.081298 -0.268135 0.221466 204 51 127
0.080778 0.138317 0.225224 204 51 127
-0.090480 -0.793745 -0.183297 204 51 127
0.128884 -0.321788 0.202836 204 51 127
-0.196667 0.545026 -0.136498 204 51 127
-0.101937 0.754751 -0.124698 204 51 127
-0.105720 -0.138482 -0.219340 204 51 127
0.187189 0.128008 0.153403 204 51 127
-0.060281 0.867468 0.026670 0 0 255
-0.057398 -0.393085 -0.237928 204 51 127
0.199791 0.379892 0.136885 204 51 127
-0.038059 -0.842153 -0.155354 204 51 127
0.146739 0.338972 -0.198839 204 51 127
0.244157 -0.090424 -0.029026 204 51 127
0.165752 0.042263 -0.184292 204 51 127
-0.123609 -0.793773 -0.151930 204 51 127
0.199543 0.656543 -0.097659 204 51 127
-0.231774 -0.506653 -0.055867 204 51 127
-0.018652 0.023023 -0.244418 204 51 127
0.233712 -0.414499 0.071643 204 51 127
0.243652 -0.578208 -0.033476 204 51 127
-0.159594 -0.016661 0.173673 204 51 127
-0.028737 -0.811913 -0.226688 204 51 127
0.137078 -0.526499 0.197338 204 51 127
0.158697 -0.165361 -0.189708 204 51 127
-0.222618 0.129856 0.078624 204 51 127
-0.033037 -0.689504 0.234421 204 51 127
-0.158054 -0.528885 0.174610 204 51 127
0.043136 -0.196913 0.233815 204 51 127
-0.034387 -0.744507 -0.242289 204 51 127
-0.144228 0.659047 -0.161152 204 51 127
0.229054 0.369592 -0.091768 204 51 127
0.238242 0.244377 0.057223 204 51 127
0.228537 -0.698369 0.084928 204 51 127
0.145114 -0.788540 -0.198108 204 51 127
0.218876 0.263847 0.107372 204 51 127
0.237042 -0.630558 -0.068992 204 51 127
0.012964 -0.634561 -0.245451 204 51 127
-0.155359 -0.793774 0.084958 204 51 127
0.017195 -0.793774 0.177335 204 51 127
0.238144 -0.688976 -0.064849 204 51 127
-0.158594 0.627357 0.153419 204 51 127
-0.079691 0.828643 -0.032986 0 0 255
0.215236 0.168872 -0.122787 204 51 127
-0.092785 0.480430 -0.224967 204 51 127
0.185368 0.719969 0.034981 204 51 127
-0.224600 -0.562699 -0.081679 204 51 127
-0.073171 -0.237171 -0.232967 204 51 127
-0.201488 0.126009 0.122946 204 51 127
-0.198503 -0.351843 0.127361 204 51 127
-0.074650 0.134905 -0.232434 204 51 127
0.099558 0.364524 0.217618 204 51 127
-0.232088 0.304525 -0.053985 204 51 127
0.137488 0.443116 -0.205533 204 51 127
-0.047191 0.883970 -0.045810 0 0 255
0.090945 -0.123043 -0.229277 204 51 127
0.238459 -0.010543 0.056301 204 51 127
0.098597 0.786681 0.084726 204 51 127
0.242162 0.232763 -0.044807 204 51 127
-0.203475 -0.125633 -0.127891 204 51 127
0.107433 0.147743 0.213993 204 51 127
-0.161919 0.004629 -0.180113 204 51 127
0.130070 -0.071818 -0.210560 204 51 127
0.221277 -0.793679 0.015165 204 51 127
-0.044022 0.915230 0.029024 0 0 255
-0.160324 0.042831 0.173016 204 51 127
-0.213011 -0.744011 -0.109893 204 51 127
0.143612 0.398479 0.193077 204 51 127
-0.151285 -0.223443 0.179882 204 51 127
-0.101609 -0.401796 0.212501 204 51 127
0.235660 -0.132186 -0.073521 204 51 127
0.144723 -0.119989 -0.200376 204 51 127
-0.219789 0.411620 0.085457 204 51 127
-0.185726 0.504410 -0.152795 204 51 127
0.082726 0.566226 0.221476 204 51 127
-0.137119 -0.356540 0.191524 204 51 127
-0.188842 -0.291032 0.140622 204 51 127
0.014911 0.582207 -0.240270 204 51 127
-0.207593 -0.492125 0.113000 204 51 127
0.245363 -0.360448 -0.002033 204 51 127
0.145234 -0.805050 -0.127855 204 51 127
0.177513 0.562768 0.161499 204 51 127
0.045583 0.944212 0.029719 0 0 255
-0.195382 -0.540988 -0.139835 204 51 127
-0.174623 0.253387 -0.167102 204 51 127
0.035055 -0.012792 -0.243375 204 51 127
-0.082544 0.794388 -0.087752 204 51 127
0.229631 -0.002768 -0.090162 204 51 127
-0.097571 -0.793774 0.077224 204 51 127
-0.016169 1.002700 -0.034935 255 0 0
-0.027174 0.451369 -0.243297 204 51 127
0.069897 -0.793774 -0.160691 204 51 127
0.184915 -0.757215 0.156851 204 51 127
-0.222506 0.221098 0.078895 204 51 127
0.011960 -0.842352 -0.145413 204 51 127
-0.169828 0.387397 -0.172429 204 51 127
-0.005222 -0.793774 0.039007 204 51 127
0.029551 -0.296921 -0.244095 204 51 127
0.158220 0.242379 -0.190074 204 51 127
0.244474 -0.179573 0.015014 204 51 127
0.086329 0.305153 -0.231188 204 51 127
0.088106 -0.007169 -0.230452 204 51 127
-0.232878 -0.707534 0.041629 204 51 127
-0.205294 -0.211935 -0.125011 204 51 127
-0.061319 0.063879 0.228907 204 51 127
0.212429 0.612833 -0.101746 204 51 127
-0.235932 -0.629625 -0.028241 204 51 127
-0.235775 -0.332187 -0.029433 204 51 127
-0.131284 0.125847 0.195772 204 51 127
0.134827 -0.611054 -0.207429 204 51 127
-0.237115 -0.033007 -0.013213 204 51 127
-0.131148 0.412516 -0.203964 204 51 127
0.037505 -0.653898 0.234898 204 51 127
-0.169817 0.197875 -0.172441 204 51 127
0.171883 0.438113 0.170242 204 51 127
-0.061237 -0.596186 0.228591 204 51 127
-0.218987 0.593142 0.067435 204 51 127
-0.229311 0.489629 0.058931 204 51 127
-0.051075 -0.145109 -0.239418 204 51 127
0.067928 -0.564673 -0.237469 204 51 127
-0.213513 -0.187497 0.100611 204 51 127
0.241576 -0.317846 0.038182 204 51 127
0.134413 0.786148 -0.011047 204 51 127
-0.220606 0.267376 -0.091584 204 51 127
0.009827 -0.256716 0.236841 204 51 127
-0.166266 0.613267 -0.159102 204 51 127
-0.156478 -0.199441 -0.184833 204 51 127
0.039736 0.712604 0.182444 204 51 127
-0.194681 0.641708 0.094421 204 51 127
0.233757 -0.066668 0.071823 204 51 127
-0.169795 0.709310 -0.084746 204 51 127
0.048996 0.802326 0.097456 204 51 127
-0.199918 -0.576462 0.125376 204 51 127
-0.212372 -0.678544 -0.111267 204 51 127
0.241375 -0.462713 -0.048628 204 51 127
0.240687 -0.183925 -0.051633 204 51 127
-0.184553 0.247236 0.146248 204 51 127
0.015971 1.002700 0.010125 255 0 0
0.244364 -0.736441 0.019079 204 51 127
-0.186847 0.332577 -0.151326 204 51 127
0.011746 -0.395273 -0.245506 204 51 127
-0.051064 0.975684 -0.029120 255 0 0
0.035923 -0.105202 -0.243262 204 51 127
0.190027 -0.468197 -0.158340 204 51 127
0.024301 -0.066595 -0.244782 204 51 127
-0.023101 0.034143 0.235569 204 51 127
0.185081 0.201221 -0.164774 204 51 127
0.222933 -0.323544 -0.106287 204 51 127
-0.186263 0.470879 0.144005 204 51 127
-0.015799 -0.625345 0.236370 204 51 127
-0.183796 0.088665 -0.155323 204 51 127
-0.145146 -0.042596 -0.193533 204 51 127
-0.206740 0.296321 0.114631 204 51 127
0.228707 0.149108 -0.092607 204 51 127
-0.154839 0.251506 -0.186093 204 51 127
0.216452 0.333669 -0.120420 204 51 127
0.046432 -0.793774 0.122509 204 51 127
-0.128785 -0.773751 -0.205475 204 51 127
-0.153613 0.213838 0.178694 204 51 127
0.155288 -0.793774 -0.050086 204 51 127
-0.059488 0.066120 -0.237435 204 51 127
-0.213738 -0.387968 -0.108141 204 51 127
-0.174926 -0.599227 -0.166763 204 51 127
0.157674 0.208358 0.182401 204 51 127
0.237254 -0.483376 0.060003 204 51 127
-0.234640 0.165793 0.029922 204 51 127
0.073782 -0.380673 -0.235831 204 51 127
0.232976 -0.125656 0.073934 204 51 127
0.187297 -0.504558 -0.161892 204 51 127
0.151745 -0.238258 -0.195022 204 51 127
-0.054214 0.352195 0.230583 204 51 127
0.240572 -0.236030 -0.052321 204 51 127
-0.078844 -0.083064 -0.230739 204 51 127
0.184390 0.393531 0.156500 204 51 127
-0.230746 0.441293 -0.061290 204 51 127
0.219935 -0.793712 -0.026159 204 51 127
-0.108532 -0.846369 0.103086 204 51 127
-0.235349 -0.120024 0.024500 204 51 127
-0.010734 -0.810716 -0.120575 204 51 127
-0.236415 -0.768933 -0.023715 204 51 127
-0.203556 0.163274 0.119673 204 51 127
-0.059369 -0.372449 0.229032 204 51 127
0.198995 -0.763738 -0.146566 204 51 127
-0.213370 -0.722504 0.100955 204 51 127
0.145005 -0.820734 0.161845 204 51 127
0.235796 0.391591 0.066167 204 51 127
-0.074668 0.483483 0.224333 204 51 127
-0.054998 -0.442742 0.230063 204 51 127
-0.228720 -0.767124 0.061148 204 51 127
0.090980 -0.619223 0.221002 204 51 127
0.201733 0.567260 0.129606 204 51 127
0.132867 0.266997 0.200693 204 51 127
-0.237008 0.433293 -0.015544 204 51 127
0.033856 -0.790816 -0.140761 204 51 127
-0.156055 -0.766398 0.176992 204 51 127
0.245105 -0.526092 0.010106 204 51 127
0.112960 -0.180934 -0.219979 204 51 127
0.156005 -0.833071 -0.105017 204 51 127
0.098661 -0.470573 -0.226082 204 51 127
0.245257 -0.755961 -0.014848 204 51 127
0.244022 -0.038239 -0.030215 204 51 127
0.084009 -0.408375 0.223700 204 51 127
-0.053739 0.824107 0.066879 0 0 255
0.121366 -0.812457 0.070052 204 51 127
-0.119677 0.463096 -0.211727 204 51 127
-0.136857 0.514563 0.191743 204 51 127
-0.091283 0.633002 -0.206988 204 51 127
0.057966 -0.455074 0.231358 204 51 127
-0.087274 -0.574706 -0.227248 204 51 127
-0.214682 0.165038 -0.105869 204 51 127
0.126294 -0.273308 -0.212945 204 51 127
0.242074 -0.299229 -0.043307 204 51 127
0.030998 -0.793774 -0.188936 204 51 127
0.132484 -0.722870 0.200943 204 51 127
0.244652 0.154752 -0.024673 204 51 127
0.062831 0.238339 -0.238659 204 51 127
0.116550 -0.803112 -0.050554 204 51 127
0.109197 -0.369403 -0.221718 204 51 127
-0.234489 -0.665048 0.031074 204 51 127
-0.205142 -0.245735 0.117161 204 51 127
0.078712 0.004380 0.225966 204 51 127
-0.215630 0.444559 -0.103590 204 51 127
0.008644 0.479087 0.237227 204 51 127
0.004572 0.614782 -0.233911 204 51 127
-0.151795 -0.793772 -0.120353 204 51 127
0.027342 0.030905 -0.244384 204 51 127
-0.023555 -0.261823 0.235282 204 51 127
-0.170636 0.339539 0.162956 204 51 127
0.189252 -0.591036 -0.159349 204 51 127
0.237694 0.170918 -0.067634 204 51 127
0.016167 0.659856 -0.218988 204 51 127
-0.197699 -0.398902 0.128491 204 51 127
-0.218847 0.533674 -0.094863 204 51 127
0.058996 0.080516 -0.239555 204 51 127
-0.116115 -0.520910 0.205246 204 51 127
0.116007 0.658358 0.181077 204 51 127
0.026284 -0.537258 0.236168 204 51 127
0.064576 0.147357 -0.238252 204 51 127
-0.218401 -0.793590 0.016861 204 51 127
0.020994 0.112714 0.236667 204 51 127
-0.187952 0.660634 -0.101139 204 51 127
-0.033042 -0.278197 -0.242513 204 51 127
-0.194030 -0.793714 -0.070789 204 51 127
-0.201300 0.593414 0.108857 204 51 127
-0.236936 -0.485459 0.008989 204 51 127
-0.237421 0.353244 -0.001761 204 51 127
-0.103112 0.801142 -0.036204 0 0 255
0.053443 0.996515 0.016836 255 0 0
-0.121580 0.554740 0.200502 204 51 127
-0.220098 -0.087494 -0.092816 204 51 127
0.245568 0.201139 -0.000124 204 51 127
0.055376 0.150009 0.232112 204 51 127
-0.230200 -0.449134 -0.063249 204 51 127
-0.234153 0.257177 -0.041607 204 51 127
-0.121344 0.469700 0.202579 204 51 127
-0.144880 0.747417 -0.077358 204 51 127
-0.202213 -0.155865 -0.129889 204 51 127
0.018312 0.325952 -0.245209 204 51 127
0.231794 -0.580977 -0.084326 204 51 127
0.011579 0.145267 -0.245513 204 51 127
-0.212589 -0.578167 -0.110823 204 51 127
0.209841 -0.643248 0.122150 204 51 127
-0.044493 -0.808613 0.110475 204 51 127
0.222142 -0.231919 0.098856 204 51 127
-0.116724 -0.307861 0.204820 204 51 127
-0.067547 -0.793774 0.018029 204 51 127
-0.086972 -0.429483 0.218962 204 51 127
-0.001758 -0.793774 0.093297 204 51 127
0.119913 0.055409 -0.216594 204 51 127
0.131535 0.069557 0.201479 204 51 127
-0.205368 -0.793771 0.055528 204 51 127
0.190389 0.276192 0.149239 204 51 127
0.138122 -0.217469 -0.205081 204 51 127
0.210759 -0.371830 -0.129276 204 51 127
0.062886 0.906802 0.010275 0 0 255
-0.154408 -0.302726 0.177621 204 51 127
-0.221793 0.328512 0.080618 204 51 127
-0.036770 -0.793774 0.175643 204 51 127
-0.188952 0.233790 -0.148570 204 51 127
-0.226422 -0.648657 0.068526 204 51 127
-0.209624 0.261305 0.108828 204 51 127
-0.235812 -0.144817 -0.029150 204 51 127
-0.223008 -0.528829 0.077681 204 51 127
0.026170 -0.793634 -0.222356 204 51 127
-0.131856 -0.839440 0.130280 204 51 127
0.117542 0.010675 -0.217748 204 51 127
-0.233948 -0.334603 0.034690 204 51 127
0.016562 0.769194 0.143062 204 51 127
0.225886 0.489631 -0.099419 204 51 127
0.059979 -0.819364 0.109518 204 51 127
0.057118 -0.590818 0.231515 204 51 127
-0.101111 -0.793774 -0.009454 204 51 127
0.239914 -0.254771 0.047792 204 51 127
-0.237366 -0.194346 -0.007738 204 51 127
-0.153270 -0.789736 -0.178726 204 51 127
0.137387 -0.793774 0.017294 204 51 127
0.205800 0.400626 -0.137199 204 51 127
0.041354 0.276096 -0.242543 204 51 127
-0.177508 -0.395519 0.155044 204 51 127
0.094844 0.822615 -0.020129 0 0 255
0.034715 -0.492995 0.235214 204 51 127
-0.107477 -0.036208 -0.218484 204 51 127
-0.093124 -0.793774 -0.065316 204 51 127
-0.057743 0.604721 0.219463 204 51 127
-0.156830 0.420131 -0.184563 204 51 127
-0.229307 -0.421277 -0.067070 204 51 127
-0.175665 0.462790 -0.165916 204 51 127
0.227625 -0.539375 -0.095090 204 51 127
-0.236556 -0.575995 -0.023500 204 51 127
-0.223071 -0.657434 -0.085632 204 51 127
0.002120 -0.440900 -0.245755 204 51 127
-0.013685 -0.061447 0.236611 204 51 127
-0.216567 -0.207131 -0.101326 204 51 127
0.207019 -0.049788 -0.135488 204 51 127
-0.195074 0.299876 -0.140268 204 51 127
0.239464 -0.390727 -0.058617 204 51 127
0.095434 0.503431 0.219326 204 51 127
0.094562 0.805102 0.055593 204 51 127
0.198725 0.252378 0.138317 204 51 127
0.012119 -0.793774 -0.064577 204 51 127
-0.070307 0.656050 0.199331 204 51 127
0.083299 0.205287 -0.232411 204 51 127
0.234250 0.295779 -0.078535 204 51 127
0.199937 0.623387 0.112685 204 51 127
-0.204270 -0.322225 0.118542 204 51 127
-0.206888 -0.778009 -0.121905 204 51 127
-0.170008 0.736482 -0.001660 204 51 127
-0.061514 0.680926 -0.199503 204 51 127
-0.237337 0.213261 0.000094 204 51 127
-0.151827 0.733056 0.078844 204 51 127
-0.062815 0.440537 0.228623 204 51 127
0.178051 -0.553904 0.164697 204 51 127
0.079645 -0.793772 0.186243 204 51 127
-0.092816 0.003452 -0.224953 204 51 127
0.126458 -0.797979 0.177378 204 51 127
0.240187 -0.342143 -0.054634 204 51 127
0.096898 -0.783882 -0.225352 204 51 127
-0.091093 -0.212317 -0.225668 204 51 127
0.238593 -0.098281 0.055732 204 51 127
-0.132178 -0.827506 -0.054137 204 51 127
-0.047196 -0.793444 -0.223844 204 51 127
0.198674 -0.370812 0.138923 204 51 127
0.032246 -0.793774 -0.111736 204 51 127
0.136158 -0.146889 -0.206480 204 51 127
0.125787 0.416317 0.205173 204 51 127
-0.118052 -0.185984 0.204026 204 51 127
0.017677 0.300817 0.236817 204 51 127
0.187177 -0.793648 0.106182 204 51 127
-0.111748 -0.113433 0.208228 204 51 127
0.035133 0.918549 -0.053172 0 0 255
-0.226574 -0.212141 -0.076190 204 51 127
0.236494 -0.742864 -0.072293 204 51 127
0.072544 0.743423 -0.158834 204 51 127
-0.034220 0.425326 -0.242316 204 51 127
0.126480 0.359642 0.204736 204 51 127
0.081282 0.322036 0.225042 204 51 127
0.057867 -0.705837 0.231520 204 51 127
0.208308 0.164638 0.125561 204 51 127
0.162360 0.712405 -0.109836 204 51 127
-0.110977 0.525813 -0.216598 204 51 127
-0.041461 0.476121 -0.241108 204 51 127
-0.135502 0.037593 -0.200860 204 51 127
0.231249 0.099252 -0.086467 204 51 127
0.008545 -0.265406 -0.245650 204 51 127
0.162799 -0.276887 0.178391 204 51 127
