-0.184190 0.162491 -0.536045 0.000000 0.000000 1.000000
-0.202941 0.018765 0.530768 0.600000 0.000000 0.300000
0.011644 -0.247343 -0.276189 0.500000 0.000000 0.500000
-0.021929 0.264020 0.565926 0.600000 0.000000 0.300000
0.167386 0.162626 0.355694 1.000000 0.000000 0.000000
0.167386 0.276698 0.454523 1.000000 0.000000 0.000000
-0.184190 0.196049 -0.239503 0.000000 0.000000 1.000000
-0.184190 -0.401620 -0.315795 0.500000 0.500000 0.000000
-0.207629 0.298495 0.074037 0.000000 0.000000 1.000000
-0.113875 0.188876 0.175794 0.600000 0.300000 0.000000
0.190824 -0.251572 0.430611 1.000000 0.000000 0.000000
-0.184190 -0.229586 0.449902 0.000000 0.000000 1.000000
-0.001144 -0.270781 0.182395 0.500000 0.000000 0.500000
-0.002855 0.558675 -0.465364 0.000000 1.000000 0.000000
0.015795 0.643316 0.211144 0.500000 0.000000 0.500000
-0.207629 -0.146092 0.058535 0.000000 0.000000 1.000000
-0.181198 -0.341096 0.525939 0.500000 0.500000 0.000000
0.167386 0.320591 -0.375640 1.000000 0.000000 0.000000
0.167386 -0.725468 -0.101083 0.000000 0.500000 0.500000
0.119681 -0.671690 0.284665 0.500000 0.000000 0.500000
-0.207629 -0.194370 0.400565 0.000000 0.000000 1.000000
-0.040191 0.666755 0.323098 0.500000 0.000000 0.500000
-0.087264 -0.341096 0.490068 0.500000 0.500000 0.000000
-0.017437 -0.270781 0.452177 0.500000 0.000000 0.500000
-0.133884 -0.341096 0.344485 0.500000 0.500000 0.000000
0.036753 0.145250 -0.390944 0.000000 0.500000 0.500000
0.167386 -0.364310 0.030536 1.000000 0.000000 0.000000
0.120509 0.243407 -0.439438 0.000000 0.000000 1.000000
-0.184190 0.523618 -0.258469 0.000000 0.000000 1.000000
-0.169789 0.631059 0.591264 0.600000 0.000000 0.300000
-0.184190 0.688399 0.433969 0.000000 0.000000 1.000000
-0.184190 -0.081076 -0.125699 0.000000 0.000000 1.000000
-0.075697 -0.247343 0.138153 0.500000 0.000000 0.500000
-0.184190 -0.654901 -0.043133 0.500000 0.500000 0.000000
0.097070 0.464126 0.529708 0.000000 1.000000 0.000000
0.167386 0.563387 0.327644 1.000000 0.000000 0.000000
-0.184190 -0.016968 -0.204651 0.000000 0.000000 1.000000
-0.015232 -0.270781 0.095213 0.500000 0.000000 0.500000
0.190824 0.148958 -0.278925 1.000000 0.000000 0.000000
-0.184190 -0.273818 0.252152 0.000000 0.000000 1.000000
-0.184190 -0.580155 0.250900 0.500000 0.500000 0.000000
0.070360 0.145250 0.246465 0.000000 0.500000 0.500000
-0.207629 -0.198089 -0.394180 0.000000 0.000000 1.000000
0.167386 -0.173000 -0.324887 1.000000 0.000000 0.000000
0.052213 0.538536 -0.465364 0.000000 1.000000 0.000000
0.190824 -0.630975 -0.021516 0.000000 0.500000 0.500000
0.190824 0.509840 -0.171144 1.000000 0.000000 0.000000
0.190824 0.333548 0.427111 1.000000 0.000000 0.000000
0.098024 -0.341096 0.155314 0.500000 0.500000 0.000000
-0.184190 0.584741 -0.449994 0.000000 0.000000 1.000000
-0.148552 -0.455006 -0.559117 0.000000 1.000000 0.000000
-0.184190 -0.007685 0.160743 0.000000 0.000000 1.000000
-0.184190 -0.553685 0.043348 0.500000 0.500000 0.000000
0.100782 0.643316 -0.327847 0.500000 0.000000 0.500000
-0.118359 0.701912 -0.527848 0.800000 0.200000 0.500000
0.202543 0.266162 0.555791 0.600000 0.000000 0.300000
0.115314 0.221425 -0.370742 0.300000 0.000000 0.600000
0.167386 -0.584534 -0.453972 0.000000 0.500000 0.500000
-0.139842 0.687751 -0.559117 0.800000 0.200000 0.500000
0.167386 0.215241 0.209366 1.000000 0.000000 0.000000
0.190824 0.624568 -0.437483 1.000000 0.000000 0.000000
-0.184190 0.634870 0.031032 0.000000 0.000000 1.000000
-0.145363 -0.103686 0.601083 0.600000 0.000000 0.300000
-0.184190 -0.285936 0.022957 0.000000 0.000000 1.000000
-0.087312 0.478804 0.542487 0.600000 0.000000 0.300000
-0.172221 -0.007958 0.530768 0.600000 0.000000 0.300000
0.167386 -0.472636 -0.375055 0.000000 0.500000 0.500000
-0.207629 -0.690749 0.070835 0.500000 0.500000 0.000000
-0.113875 0.552311 0.213496 0.600000 0.000000 0.300000
0.058092 0.180123 -0.465364 0.000000 1.000000 0.000000
-0.120537 -0.437858 0.284665 0.500000 0.000000 0.500000
-0.207629 0.204399 0.101544 0.000000 0.000000 1.000000
-0.184190 0.435857 -0.458954 0.000000 0.000000 1.000000
0.167386 0.397828 -0.197125 1.000000 0.000000 0.000000
-0.207629 0.340715 -0.224175 0.000000 0.000000 1.000000
-0.207629 -0.761728 -0.391095 0.500000 0.500000 0.000000
0.120509 0.183226 -0.240167 0.300000 0.000000 0.600000
-0.184190 -0.681489 -0.229985 0.500000 0.500000 0.000000
-0.086562 0.186384 -0.441925 0.000000 1.000000 0.000000
0.167386 -0.349039 0.135623 1.000000 0.000000 0.000000
0.120509 0.565949 0.501955 0.000000 1.000000 0.000000
0.190824 -0.145084 -0.210983 1.000000 0.000000 0.000000
-0.137314 -0.206125 0.404081 0.600000 0.000000 0.300000
-0.184190 0.571260 -0.350098 0.000000 0.000000 1.000000
-0.184190 0.559890 0.422090 0.000000 0.000000 1.000000
-0.184190 -0.355816 -0.394924 0.000000 0.000000 1.000000
-0.184190 0.525840 0.161978 0.000000 0.000000 1.000000
0.069983 -0.247343 -0.389840 0.500000 0.000000 0.500000
0.144553 0.666755 -0.421349 0.500000 0.000000 0.500000
-0.184190 -0.322025 -0.182035 0.000000 0.000000 1.000000
0.097070 0.218943 0.520346 0.000000 1.000000 0.000000
0.167386 0.637510 0.290522 1.000000 0.000000 0.000000
0.120509 0.159425 0.129037 0.300000 0.000000 0.600000
-0.010066 -0.227038 0.601083 0.600000 0.000000 0.300000
-0.184190 0.114420 0.417213 0.000000 0.000000 1.000000
0.126859 0.063982 -0.506381 0.000000 1.000000 0.000000
-0.113875 0.155697 0.271311 0.600000 0.300000 0.000000
0.190824 -0.675397 -0.234112 0.000000 0.500000 0.500000
0.190824 0.557465 0.358541 1.000000 0.000000 0.000000
0.033578 0.053685 -0.523960 0.000000 1.000000 0.000000
-0.207629 -0.486121 -0.088940 0.500000 0.500000 0.000000
-0.087078 0.643316 -0.168102 0.500000 0.000000 0.500000
0.167386 0.158013 -0.102216 1.000000 0.000000 0.000000
0.110263 0.035692 -0.506381 0.000000 1.000000 0.000000
0.120509 0.273180 0.489087 0.000000 1.000000 0.000000
0.051548 0.594743 0.565926 0.600000 0.000000 0.300000
-0.207629 -0.206654 0.463768 0.000000 0.000000 1.000000
0.190824 -0.342090 0.204449 1.000000 0.000000 0.000000
-0.137314 0.543801 0.412773 0.600000 0.000000 0.300000
-0.024186 0.643316 -0.293344 0.500000 0.000000 0.500000
0.167386 -0.054970 -0.260876 1.000000 0.000000 0.000000
0.167386 -0.545650 0.248368 0.000000 0.500000 0.500000
-0.133068 0.655035 0.581662 0.600000 0.000000 0.300000
0.060254 0.625997 -0.559117 0.800000 0.200000 0.500000
0.190824 -0.646747 0.141930 0.000000 0.500000 0.500000
-0.091567 0.641997 0.601083 0.600000 0.000000 0.300000
0.190824 0.316470 0.152829 1.000000 0.000000 0.000000
-0.127683 -0.814408 -0.559117 0.000000 1.000000 0.000000
-0.097819 0.666755 -0.349088 0.500000 0.000000 0.500000
-0.113875 0.180799 0.081976 0.600000 0.300000 0.000000
0.120509 -0.201531 -0.013924 0.300000 0.600000 0.000000
0.120509 0.218114 0.107558 0.300000 0.000000 0.600000
0.167386 0.465124 0.351741 1.000000 0.000000 0.000000
-0.184190 -0.719124 -0.478700 0.500000 0.500000 0.000000
0.167386 0.686298 0.091890 1.000000 0.000000 0.000000
0.167386 -0.102116 0.232836 1.000000 0.000000 0.000000
-0.184190 0.297524 -0.482079 0.000000 0.000000 1.000000
-0.111291 0.145250 0.118408 0.000000 0.500000 0.500000
-0.207629 0.076227 -0.333803 0.000000 0.000000 1.000000
-0.137314 0.140216 0.279927 0.600000 0.300000 0.000000
-0.049623 -0.247343 -0.178703 0.500000 0.000000 0.500000
0.075850 0.321068 -0.523960 0.000000 1.000000 0.000000
0.190824 -0.185398 -0.187099 1.000000 0.000000 0.000000
0.108989 0.540983 0.601083 0.600000 0.000000 0.300000
0.167386 -0.791974 -0.315591 0.000000 0.500000 0.500000
0.167386 0.287252 -0.122214 1.000000 0.000000 0.000000
0.190824 -0.506780 0.112201 0.000000 0.500000 0.500000
-0.029950 0.004085 -0.523960 0.000000 1.000000 0.000000
-0.161581 0.643316 0.425189 0.500000 0.000000 0.500000
-0.113875 0.425853 0.527045 0.500000 0.500000 0.000000
0.037877 0.666755 -0.053610 0.500000 0.000000 0.500000
-0.030736 0.647352 0.595446 0.600000 0.000000 0.300000
-0.207629 0.519605 -0.369799 0.000000 0.000000 1.000000
0.095803 0.013166 -0.465364 0.000000 1.000000 0.000000
-0.207629 -0.641218 -0.137598 0.500000 0.500000 0.000000
0.023724 0.422039 0.565926 0.600000 0.000000 0.300000
-0.117537 0.639503 -0.523960 0.000000 1.000000 0.000000
0.097070 -0.056445 -0.443400 0.000000 1.000000 0.000000
0.190824 0.330642 -0.207238 1.000000 0.000000 0.000000
0.097070 0.582918 -0.311102 0.300000 0.000000 0.600000
0.147884 -0.563481 0.284665 0.500000 0.000000 0.500000
0.012845 -0.270781 -0.015347 0.500000 0.000000 0.500000
0.120509 0.180020 -0.361229 0.300000 0.000000 0.600000
-0.184190 0.532102 0.260692 0.000000 0.000000 1.000000
0.190824 -0.366460 -0.109642 1.000000 0.000000 0.000000
0.075274 0.395580 0.565926 0.600000 0.000000 0.300000
-0.207629 0.225874 0.194712 0.000000 0.000000 1.000000
-0.207629 -0.543252 0.025165 0.500000 0.500000 0.000000
0.190824 -0.113818 -0.463506 1.000000 0.000000 0.000000
0.190824 -0.375259 -0.411812 1.000000 0.000000 0.000000
-0.184190 -0.374244 0.219525 0.000000 0.000000 1.000000
0.069863 0.145250 -0.228062 0.000000 0.500000 0.500000
-0.019524 0.590613 0.636511 0.300000 0.000000 0.600000
-0.113875 0.113507 -0.424336 1.000000 0.000000 0.000000
-0.052619 0.127672 0.246071 0.000000 0.500000 0.500000
-0.207629 -0.349914 -0.130340 0.000000 0.000000 1.000000
-0.207629 0.217305 -0.151013 0.000000 0.000000 1.000000
-0.080700 -0.247343 -0.227027 0.500000 0.000000 0.500000
0.043641 0.092973 -0.523960 0.000000 1.000000 0.000000
-0.207629 -0.591604 0.278412 0.500000 0.500000 0.000000
-0.185841 0.501417 -0.559117 0.000000 0.000000 1.000000
0.171979 -0.737645 -0.559117 0.000000 0.500000 0.500000
-0.207629 0.477870 -0.352073 0.000000 0.000000 1.000000
-0.184190 -0.333535 -0.133133 0.000000 0.000000 1.000000
-0.068357 0.127672 -0.248170 0.000000 0.500000 0.500000
0.190824 0.370700 -0.340120 1.000000 0.000000 0.000000
0.129134 -0.769810 0.284665 0.500000 0.000000 0.500000
-0.128384 0.643316 -0.489812 0.500000 0.000000 0.500000
-0.137314 0.592112 0.441936 0.600000 0.000000 0.300000
0.190824 -0.275382 -0.330186 1.000000 0.000000 0.000000
-0.207629 -0.070677 -0.011815 0.000000 0.000000 1.000000
0.093304 0.435149 0.601083 0.600000 0.000000 0.300000
-0.109491 0.666755 -0.186271 0.500000 0.000000 0.500000
0.167386 -0.137660 0.177717 1.000000 0.000000 0.000000
0.190824 -0.281848 -0.481880 1.000000 0.000000 0.000000
-0.094227 -0.042322 -0.465364 0.000000 1.000000 0.000000
-0.207629 0.510251 -0.105328 0.000000 0.000000 1.000000
-0.184190 0.269494 -0.116892 0.000000 0.000000 1.000000
-0.120904 0.214939 -0.383329 0.600000 0.300000 0.000000
0.190824 0.052438 -0.066519 1.000000 0.000000 0.000000
-0.113875 0.226026 0.519252 0.500000 0.500000 0.000000
0.167386 0.579750 -0.123938 1.000000 0.000000 0.000000
-0.207629 0.302961 0.108395 0.000000 0.000000 1.000000
0.083867 0.643316 -0.106321 0.500000 0.000000 0.500000
0.167386 0.203012 0.003465 1.000000 0.000000 0.000000
-0.184190 0.401034 -0.528956 0.000000 0.000000 1.000000
-0.184190 -0.297511 -0.461720 0.000000 0.000000 1.000000
0.092414 0.054870 -0.465364 0.000000 1.000000 0.000000
0.155666 0.594568 0.585669 0.600000 0.000000 0.300000
-0.047855 0.643316 0.106964 0.500000 0.000000 0.500000
0.105010 0.666755 0.347415 0.500000 0.000000 0.500000
-0.207629 0.096188 -0.007838 0.000000 0.000000 1.000000
-0.120477 -0.341096 -0.261151 0.500000 0.500000 0.000000
-0.184190 -0.366343 -0.102196 0.000000 0.000000 1.000000
0.190824 -0.728826 -0.529604 0.000000 0.500000 0.500000
-0.207629 -0.310453 -0.451119 0.000000 0.000000 1.000000
0.190824 0.462107 0.301678 1.000000 0.000000 0.000000
-0.070392 -0.227573 -0.465364 0.000000 1.000000 0.000000
-0.010102 -0.247343 0.074440 0.500000 0.000000 0.500000
0.190824 0.625962 0.364689 1.000000 0.000000 0.000000
0.057557 -0.300263 -0.506381 0.000000 1.000000 0.000000
-0.055194 0.127672 -0.345575 0.000000 0.500000 0.500000
-0.207629 0.120677 0.298935 0.000000 0.000000 1.000000
-0.184190 -0.235719 0.052972 0.000000 0.000000 1.000000
-0.184190 0.179163 0.076307 0.000000 0.000000 1.000000
-0.207629 0.182463 -0.240841 0.000000 0.000000 1.000000
0.097070 0.516499 0.543469 0.600000 0.000000 0.300000
0.190824 0.699857 -0.177476 1.000000 0.000000 0.000000
0.167386 0.337142 -0.180055 1.000000 0.000000 0.000000
0.190824 -0.495970 -0.006304 0.000000 0.500000 0.500000
-0.184190 0.286794 0.280938 0.000000 0.000000 1.000000
-0.207629 -0.568333 0.150162 0.500000 0.500000 0.000000
-0.207629 -0.035685 0.094547 0.000000 0.000000 1.000000
0.190824 0.447279 -0.405474 1.000000 0.000000 0.000000
0.136116 -0.032718 -0.506381 0.000000 1.000000 0.000000
-0.184190 -0.195512 -0.287932 0.000000 0.000000 1.000000
0.167386 0.172386 0.328191 1.000000 0.000000 0.000000
-0.184190 -0.568711 0.006147 0.500000 0.500000 0.000000
0.115097 0.480558 0.565926 0.000000 1.000000 0.000000
0.167386 0.644879 -0.112408 1.000000 0.000000 0.000000
-0.088542 0.184896 -0.506381 0.000000 1.000000 0.000000
-0.063515 0.135338 0.542487 0.000000 0.500000 0.500000
0.190824 0.430404 0.253100 1.000000 0.000000 0.000000
-0.093695 0.067933 0.601083 0.600000 0.000000 0.300000
-0.081205 0.522577 -0.523960 0.000000 1.000000 0.000000
-0.184190 0.545246 -0.076200 0.000000 0.000000 1.000000
-0.133534 0.221425 -0.151766 0.600000 0.300000 0.000000
-0.021846 0.643316 0.104424 0.500000 0.000000 0.500000
0.167386 0.212240 -0.491467 1.000000 0.000000 0.000000
-0.123686 -0.341096 0.292784 0.500000 0.500000 0.000000
0.167386 0.408222 -0.016354 1.000000 0.000000 0.000000
0.190824 0.193505 -0.025869 1.000000 0.000000 0.000000
0.190824 -0.668735 0.117565 0.000000 0.500000 0.500000
-0.083511 -0.288887 -0.506381 0.000000 1.000000 0.000000
0.120509 0.546876 0.194727 0.300000 0.000000 0.600000
0.190824 0.101985 -0.165975 1.000000 0.000000 0.000000
-0.207629 0.014223 -0.535138 0.000000 0.000000 1.000000
-0.137314 0.003447 -0.401645 1.000000 0.000000 0.000000
0.167386 -0.217608 -0.472700 1.000000 0.000000 0.000000
-0.207629 -0.052066 -0.278538 0.000000 0.000000 1.000000
0.190824 -0.508174 -0.144272 0.000000 0.500000 0.500000
0.190824 0.490328 0.054361 1.000000 0.000000 0.000000
-0.207629 0.586399 0.028004 0.000000 0.000000 1.000000
0.073154 0.274281 0.565926 0.600000 0.000000 0.300000
0.190824 0.111695 0.197583 1.000000 0.000000 0.000000
0.167386 0.219226 0.163018 1.000000 0.000000 0.000000
-0.207629 0.147921 -0.169425 0.000000 0.000000 1.000000
0.167386 -0.078195 0.357879 1.000000 0.000000 0.000000
0.120509 0.285369 0.560336 0.000000 1.000000 0.000000
0.120291 0.221425 0.342218 0.300000 0.000000 0.600000
-0.069091 -0.118663 0.565926 0.600000 0.000000 0.300000
-0.113875 0.267015 0.494835 0.500000 0.500000 0.000000
0.167386 0.329088 0.169860 1.000000 0.000000 0.000000
-0.113875 -0.143243 -0.455267 0.000000 1.000000 0.000000
0.167386 -0.586242 -0.039410 0.000000 0.500000 0.500000
0.066899 -0.341096 0.193813 0.500000 0.500000 0.000000
0.167386 0.249520 0.124944 1.000000 0.000000 0.000000
-0.137314 0.160820 0.182704 0.600000 0.300000 0.000000
0.167386 -0.553098 0.205792 0.000000 0.500000 0.500000
-0.207629 -0.120127 0.059142 0.000000 0.000000 1.000000
-0.068306 -0.247343 -0.091278 0.500000 0.000000 0.500000
-0.113875 0.534757 -0.346041 0.600000 0.000000 0.300000
-0.132357 -0.163631 0.601083 0.600000 0.000000 0.300000
-0.137314 0.575905 -0.392848 1.000000 0.000000 0.000000
-0.006155 0.011956 0.542487 0.600000 0.000000 0.300000
0.167386 0.146326 -0.508480 1.000000 0.000000 0.000000
0.190824 -0.313380 -0.056260 1.000000 0.000000 0.000000
0.034169 0.474055 0.565926 0.600000 0.000000 0.300000
-0.207629 0.210741 -0.277864 0.000000 0.000000 1.000000
0.167386 -0.231547 -0.192309 1.000000 0.000000 0.000000
0.190824 -0.336268 0.382329 1.000000 0.000000 0.000000
0.190824 0.338988 -0.109404 1.000000 0.000000 0.000000
0.190824 0.520596 0.065090 1.000000 0.000000 0.000000
-0.207629 0.032120 0.280414 0.000000 0.000000 1.000000
0.167386 0.542689 -0.366802 1.000000 0.000000 0.000000
0.190824 0.302980 -0.040755 1.000000 0.000000 0.000000
0.190824 -0.326493 0.415780 1.000000 0.000000 0.000000
0.097070 0.218193 -0.015680 0.300000 0.000000 0.600000
-0.178187 0.676385 -0.559117 0.800000 0.200000 0.500000
-0.184190 0.225942 -0.292077 0.000000 0.000000 1.000000
0.019915 0.127672 0.013125 0.000000 0.500000 0.500000
0.071309 0.124611 0.601083 0.600000 0.000000 0.300000
-0.184190 -0.178665 -0.152675 0.000000 0.000000 1.000000
-0.219348 0.510360 0.552946 0.600000 0.000000 0.300000
0.167386 0.112717 0.096372 1.000000 0.000000 0.000000
0.190824 0.039350 0.498860 1.000000 0.000000 0.000000
0.120509 0.101354 0.489551 0.000000 1.000000 0.000000
-0.184190 0.202821 0.000578 0.000000 0.000000 1.000000
-0.184190 -0.623833 0.265738 0.500000 0.500000 0.000000
0.190824 -0.166165 0.039518 1.000000 0.000000 0.000000
-0.184190 0.268936 0.176880 0.000000 0.000000 1.000000
0.167386 0.410360 0.343042 1.000000 0.000000 0.000000
0.092613 -0.117361 -0.441925 0.000000 1.000000 0.000000
0.167386 -0.038335 -0.399421 1.000000 0.000000 0.000000
0.068511 -0.477525 -0.559117 0.000000 1.000000 0.000000
0.012279 0.643316 0.152242 0.500000 0.000000 0.500000
0.190824 -0.795915 0.224181 0.000000 0.500000 0.500000
-0.158826 0.367958 -0.506381 0.000000 1.000000 0.000000
-0.184190 -0.310278 0.372826 0.000000 0.000000 1.000000
0.017790 0.145250 -0.172389 0.000000 0.500000 0.500000
-0.207629 -0.800555 0.077032 0.500000 0.500000 0.000000
-0.207629 -0.417001 0.141134 0.500000 0.500000 0.000000
0.167386 -0.547542 0.074880 0.000000 0.500000 0.500000
-0.184190 -0.519668 0.110974 0.500000 0.500000 0.000000
0.097070 -0.240077 0.361319 0.300000 0.600000 0.000000
0.167386 0.410806 -0.231632 1.000000 0.000000 0.000000
0.018248 -0.050279 0.565926 0.600000 0.000000 0.300000
-0.044732 -0.162061 0.565926 0.600000 0.000000 0.300000
0.190824 0.062859 0.096692 1.000000 0.000000 0.000000
-0.082360 0.683958 0.565926 0.600000 0.000000 0.300000
-0.122980 0.184037 0.601083 0.600000 0.000000 0.300000
0.167386 0.289214 0.263111 1.000000 0.000000 0.000000
0.075772 -0.205403 -0.441925 0.000000 1.000000 0.000000
-0.060395 0.478618 -0.506381 0.000000 1.000000 0.000000
0.167386 -0.511625 -0.557544 0.000000 0.500000 0.500000
-0.035930 -0.399692 -0.557247 0.000000 1.000000 0.000000
0.097070 0.601119 0.311623 0.300000 0.000000 0.600000
-0.133283 -0.294774 -0.523960 0.000000 1.000000 0.000000
-0.207629 -0.519284 -0.208993 0.500000 0.500000 0.000000
0.059674 -0.247343 -0.214519 0.500000 0.000000 0.500000
-0.113875 0.602078 -0.007339 0.600000 0.000000 0.300000
0.120509 0.583124 0.119136 0.300000 0.000000 0.600000
-0.012839 -0.415618 0.284665 0.500000 0.000000 0.500000
0.168009 0.119525 0.530768 0.600000 0.000000 0.300000
-0.184190 -0.429091 0.242888 0.500000 0.500000 0.000000
0.093337 0.643316 -0.486037 0.500000 0.000000 0.500000
0.190824 -0.290189 0.240493 1.000000 0.000000 0.000000
0.105782 0.221425 0.291078 0.300000 0.000000 0.600000
0.167386 -0.032418 -0.366822 1.000000 0.000000 0.000000
0.167386 -0.819986 -0.176346 0.000000 0.500000 0.500000
0.167386 -0.636857 0.245468 0.000000 0.500000 0.500000
-0.184190 0.639851 -0.500286 0.000000 0.000000 1.000000
-0.184190 0.004644 0.414486 0.000000 0.000000 1.000000
-0.034736 0.433072 0.565926 0.600000 0.000000 0.300000
-0.184190 0.616505 -0.210242 0.000000 0.000000 1.000000
-0.120168 0.232983 0.565926 0.500000 0.500000 0.000000
-0.184190 0.443094 0.270529 0.000000 0.000000 1.000000
-0.184190 0.527369 -0.397517 0.000000 0.000000 1.000000
-0.207629 -0.601555 -0.348816 0.500000 0.500000 0.000000
-0.137314 0.197594 -0.165387 0.600000 0.300000 0.000000
0.167386 -0.641197 0.011891 0.000000 0.500000 0.500000
-0.137314 0.599851 0.564133 0.500000 0.500000 0.000000
-0.207629 -0.006937 0.039452 0.000000 0.000000 1.000000
0.167386 -0.727945 0.233824 0.000000 0.500000 0.500000
-0.207629 0.143535 0.398094 0.000000 0.000000 1.000000
0.097070 0.571319 -0.073602 0.300000 0.000000 0.600000
-0.207629 0.296775 -0.186613 0.000000 0.000000 1.000000
-0.207629 -0.065031 0.364396 0.000000 0.000000 1.000000
-0.207629 0.394956 0.045155 0.000000 0.000000 1.000000
-0.184190 0.037114 -0.450939 0.000000 0.000000 1.000000
0.097070 0.131957 0.502274 0.000000 1.000000 0.000000
-0.030421 -0.098329 0.601083 0.600000 0.000000 0.300000
0.167386 -0.335197 -0.080138 1.000000 0.000000 0.000000
-0.024682 -0.019899 -0.523960 0.000000 1.000000 0.000000
0.008237 -0.341096 -0.104829 0.500000 0.500000 0.000000
-0.184190 0.015749 -0.265779 0.000000 0.000000 1.000000
0.099165 -0.240610 0.601083 0.600000 0.000000 0.300000
-0.035284 0.611539 0.635625 0.300000 0.000000 0.600000
0.097070 0.150190 -0.186591 0.300000 0.000000 0.600000
-0.090032 -0.341096 -0.481125 0.500000 0.500000 0.000000
0.036533 -0.605336 0.284665 0.500000 0.000000 0.500000
-0.070962 0.666755 0.405136 0.500000 0.000000 0.500000
-0.142332 -0.114679 -0.506381 0.000000 1.000000 0.000000
-0.207629 -0.791689 -0.242682 0.500000 0.500000 0.000000
0.068195 0.127672 -0.352918 0.000000 0.500000 0.500000
-0.137314 0.554762 -0.454421 1.000000 0.000000 0.000000
-0.117428 0.608159 -0.280680 0.600000 0.000000 0.300000
0.167386 -0.770005 -0.402706 0.000000 0.500000 0.500000
-0.184190 0.649305 -0.354953 0.000000 0.000000 1.000000
-0.137314 0.210977 -0.011157 0.600000 0.300000 0.000000
0.121070 -0.814594 -0.559117 0.000000 1.000000 0.000000
0.109423 0.643316 0.103213 0.500000 0.000000 0.500000
0.167386 -0.681472 -0.434227 0.000000 0.500000 0.500000
-0.184190 0.403252 -0.233219 0.000000 0.000000 1.000000
-0.108192 -0.100710 -0.506381 0.000000 1.000000 0.000000
0.167386 0.360817 0.126404 1.000000 0.000000 0.000000
-0.207629 -0.444816 -0.074322 0.500000 0.500000 0.000000
0.129115 0.643316 0.451862 0.500000 0.000000 0.500000
-0.024791 0.178654 -0.465364 0.000000 1.000000 0.000000
0.100176 -0.329377 0.536685 0.600000 0.000000 0.300000
0.065367 -0.270781 -0.238866 0.500000 0.000000 0.500000
-0.207629 0.105540 -0.502337 0.000000 0.000000 1.000000
-0.184190 -0.151056 0.260283 0.000000 0.000000 1.000000
-0.207629 -0.795223 0.238367 0.500000 0.500000 0.000000
0.147516 -0.764521 -0.559117 0.000000 1.000000 0.000000
-0.184190 0.133006 -0.103686 0.000000 0.000000 1.000000
0.017318 0.605430 0.542487 0.600000 0.000000 0.300000
-0.137314 -0.250563 0.272451 0.600000 0.000000 0.300000
-0.184190 0.450776 -0.234268 0.000000 0.000000 1.000000
-0.113875 0.579580 0.134572 0.600000 0.000000 0.300000
0.118266 0.377034 -0.523960 0.000000 1.000000 0.000000
-0.167407 0.595803 -0.559117 0.800000 0.200000 0.500000
0.167386 0.506084 -0.434445 1.000000 0.000000 0.000000
-0.184190 0.325871 -0.501326 0.000000 0.000000 1.000000
-0.148013 0.499193 0.565926 0.600000 0.000000 0.300000
0.035128 0.145250 0.101319 0.000000 0.500000 0.500000
-0.184190 0.621401 0.278629 0.000000 0.000000 1.000000
0.167386 -0.674140 -0.502300 0.000000 0.500000 0.500000
-0.137314 0.197005 -0.235386 0.600000 0.300000 0.000000
-0.184190 -0.694846 -0.082577 0.500000 0.500000 0.000000
-0.200415 0.196846 0.530768 0.600000 0.000000 0.300000
0.167386 0.184327 -0.047267 1.000000 0.000000 0.000000
0.037815 -0.164939 -0.465364 0.000000 1.000000 0.000000
-0.207629 -0.785631 -0.432622 0.500000 0.500000 0.000000
0.190824 0.394250 -0.318445 1.000000 0.000000 0.000000
-0.055809 -0.057850 -0.441925 0.000000 1.000000 0.000000
-0.094831 0.496423 0.601083 0.600000 0.000000 0.300000
0.097070 0.579238 0.186880 0.300000 0.000000 0.600000
-0.184190 -0.639829 -0.252628 0.500000 0.500000 0.000000
0.190824 0.647986 0.479217 1.000000 0.000000 0.000000
0.097070 0.147895 0.523742 0.000000 1.000000 0.000000
-0.137314 0.557022 -0.179422 0.600000 0.000000 0.300000
0.167386 0.632665 -0.529749 1.000000 0.000000 0.000000
0.190824 -0.795476 -0.032812 0.000000 0.500000 0.500000
0.085071 -0.270781 -0.120128 0.500000 0.000000 0.500000
0.190824 0.473699 -0.086751 1.000000 0.000000 0.000000
-0.207629 -0.251691 0.149940 0.000000 0.000000 1.000000
0.097070 0.579860 0.396974 0.300000 0.000000 0.600000
-0.184190 -0.569151 -0.167947 0.500000 0.500000 0.000000
-0.207629 -0.657888 -0.402501 0.500000 0.500000 0.000000
0.020707 0.145250 -0.037689 0.000000 0.500000 0.500000
0.167386 -0.700369 0.199046 0.000000 0.500000 0.500000
0.167386 0.086245 0.217585 1.000000 0.000000 0.000000
-0.097795 0.689908 -0.559117 0.800000 0.200000 0.500000
0.064583 -0.270781 0.502316 0.500000 0.000000 0.500000
-0.184190 -0.307127 0.239663 0.000000 0.000000 1.000000
-0.017929 0.660626 0.530768 0.600000 0.000000 0.300000
0.165026 0.429375 0.530768 0.600000 0.000000 0.300000
0.097070 -0.211398 0.395397 0.300000 0.600000 0.000000
0.190824 -0.223435 0.346337 1.000000 0.000000 0.000000
-0.207629 0.146331 0.257939 0.000000 0.000000 1.000000
0.015009 -0.270781 -0.429387 0.500000 0.000000 0.500000
-0.207629 -0.270172 -0.020665 0.000000 0.000000 1.000000
-0.047236 0.595358 0.542487 0.600000 0.000000 0.300000
-0.184190 -0.156349 0.114507 0.000000 0.000000 1.000000
-0.041131 0.366204 -0.441925 0.000000 1.000000 0.000000
-0.090657 0.547372 -0.465364 0.000000 1.000000 0.000000
0.141398 0.643316 -0.323133 0.500000 0.000000 0.500000
-0.207629 -0.025359 0.015813 0.000000 0.000000 1.000000
-0.184190 -0.346528 -0.306339 0.000000 0.000000 1.000000
0.190824 -0.393946 -0.361174 1.000000 0.000000 0.000000
0.167386 -0.129584 -0.283350 1.000000 0.000000 0.000000
-0.184190 0.008946 -0.417361 0.000000 0.000000 1.000000
-0.095824 -0.247343 -0.264111 0.500000 0.000000 0.500000
-0.207629 -0.174813 0.154742 0.000000 0.000000 1.000000
-0.023994 -0.247343 -0.428269 0.500000 0.000000 0.500000
0.120509 -0.224321 -0.178496 0.300000 0.600000 0.000000
0.190824 0.061928 -0.445763 1.000000 0.000000 0.000000
-0.207629 0.538973 0.030033 0.000000 0.000000 1.000000
0.073991 -0.228844 0.601083 0.600000 0.000000 0.300000
0.097070 0.600250 -0.058218 0.300000 0.000000 0.600000
-0.078387 0.127672 0.442488 0.000000 0.500000 0.500000
-0.184190 0.124770 0.359409 0.000000 0.000000 1.000000
0.055374 -0.009833 0.542487 0.600000 0.000000 0.300000
0.119382 0.420722 0.565926 0.000000 1.000000 0.000000
0.097070 0.437419 0.538916 0.000000 1.000000 0.000000
-0.207629 0.419322 -0.221462 0.000000 0.000000 1.000000
0.190824 -0.654137 -0.246103 0.000000 0.500000 0.500000
-0.113875 -0.125420 0.547474 0.600000 0.000000 0.300000
0.042028 -0.171311 -0.506381 0.000000 1.000000 0.000000
-0.207629 0.300087 -0.095299 0.000000 0.000000 1.000000
-0.113875 0.198921 0.528218 0.500000 0.500000 0.000000
-0.207629 -0.330451 -0.211408 0.000000 0.000000 1.000000
0.167386 0.302222 0.419431 1.000000 0.000000 0.000000
-0.041512 0.127672 0.435131 0.000000 0.500000 0.500000
0.134573 -0.629390 0.284665 0.500000 0.000000 0.500000
0.190824 0.532960 0.410734 1.000000 0.000000 0.000000
0.120509 0.598634 0.373002 0.300000 0.000000 0.600000
0.190824 -0.593283 -0.087965 0.000000 0.500000 0.500000
-0.062672 0.127672 0.358813 0.000000 0.500000 0.500000
-0.060694 0.357956 0.601083 0.600000 0.000000 0.300000
0.167386 0.628193 0.460352 1.000000 0.000000 0.000000
0.202543 0.694314 0.545444 0.600000 0.000000 0.300000
0.097070 -0.260237 -0.204973 0.300000 0.600000 0.000000
0.190824 -0.358204 0.286110 1.000000 0.000000 0.000000
-0.201367 -0.399692 0.375590 0.000000 0.000000 1.000000
0.190824 -0.314775 -0.297199 1.000000 0.000000 0.000000
-0.149033 -0.024710 0.532399 0.600000 0.000000 0.300000
0.167386 -0.567938 0.090376 0.000000 0.500000 0.500000
0.117109 -0.341096 -0.284737 0.500000 0.500000 0.000000
-0.184190 -0.375080 -0.146663 0.000000 0.000000 1.000000
0.190824 -0.139040 -0.306128 1.000000 0.000000 0.000000
0.190824 -0.340206 -0.378517 1.000000 0.000000 0.000000
-0.184190 0.045650 0.511514 0.000000 0.000000 1.000000
-0.190902 0.701912 -0.130302 0.000000 0.000000 1.000000
0.167386 -0.273545 0.002696 1.000000 0.000000 0.000000
-0.134035 0.384015 -0.383329 1.000000 0.000000 0.000000
0.167386 0.457723 0.070676 1.000000 0.000000 0.000000
-0.207629 -0.494773 -0.400722 0.500000 0.500000 0.000000
-0.118250 -0.067280 0.601083 0.600000 0.000000 0.300000
-0.207629 -0.377485 0.274289 0.000000 0.000000 1.000000
-0.207629 -0.233278 0.109893 0.000000 0.000000 1.000000
-0.113875 0.220968 -0.091317 0.600000 0.300000 0.000000
0.098633 -0.341096 -0.248315 0.500000 0.500000 0.000000
-0.089103 -0.131043 -0.465364 0.000000 1.000000 0.000000
-0.131841 0.666755 -0.266271 0.500000 0.000000 0.500000
-0.207629 -0.720073 0.095629 0.500000 0.500000 0.000000
0.190824 0.051151 0.210707 1.000000 0.000000 0.000000
-0.207629 -0.599826 0.087368 0.500000 0.500000 0.000000
-0.184190 -0.136592 0.082193 0.000000 0.000000 1.000000
-0.207629 0.685799 -0.556968 0.000000 0.000000 1.000000
-0.207629 -0.190830 -0.320034 0.000000 0.000000 1.000000
-0.060331 -0.247343 0.016590 0.500000 0.000000 0.500000
0.003956 0.079721 -0.506381 0.000000 1.000000 0.000000
0.096683 0.061255 0.542487 0.600000 0.000000 0.300000
-0.207629 -0.493252 0.282565 0.500000 0.500000 0.000000
-0.184190 0.701345 -0.019748 0.000000 0.000000 1.000000
0.086914 -0.673380 -0.559117 0.000000 1.000000 0.000000
-0.009364 -0.270781 0.413605 0.500000 0.000000 0.500000
0.135847 0.666755 0.327869 0.500000 0.000000 0.500000
0.176479 -0.423570 0.284665 0.000000 0.500000 0.500000
-0.038517 0.287621 0.601083 0.600000 0.000000 0.300000
0.068894 0.643316 -0.411297 0.500000 0.000000 0.500000
0.167386 -0.244074 0.498698 1.000000 0.000000 0.000000
0.012646 0.411516 -0.523960 0.000000 1.000000 0.000000
-0.132150 0.515690 -0.506381 0.000000 1.000000 0.000000
-0.207629 0.366350 0.052602 0.000000 0.000000 1.000000
0.082219 -0.270781 -0.328923 0.500000 0.000000 0.500000
0.167386 0.184316 0.061399 1.000000 0.000000 0.000000
-0.184190 0.370043 0.253706 0.000000 0.000000 1.000000
-0.118252 -0.136412 -0.383329 1.000000 0.000000 0.000000
0.138199 -0.341096 -0.404530 0.500000 0.500000 0.000000
0.097070 -0.204542 0.470056 0.300000 0.600000 0.000000
0.097070 0.447441 -0.440979 0.000000 0.000000 1.000000
0.167386 -0.503729 0.061664 0.000000 0.500000 0.500000
0.025596 -0.092877 0.565926 0.600000 0.000000 0.300000
0.190824 -0.694950 -0.027160 0.000000 0.500000 0.500000
0.167386 0.292720 -0.219958 1.000000 0.000000 0.000000
0.190824 -0.161851 0.419784 1.000000 0.000000 0.000000
-0.137314 0.206988 0.531056 0.500000 0.500000 0.000000
-0.184190 -0.494424 -0.432039 0.500000 0.500000 0.000000
-0.207629 -0.447127 -0.123003 0.500000 0.500000 0.000000
-0.184190 0.333218 0.101840 0.000000 0.000000 1.000000
-0.014178 0.222545 -0.465364 0.000000 1.000000 0.000000
-0.207629 0.306370 0.021731 0.000000 0.000000 1.000000
0.190824 0.352683 -0.157889 1.000000 0.000000 0.000000
-0.184190 -0.578940 0.214767 0.500000 0.500000 0.000000
-0.207629 -0.421280 0.275254 0.500000 0.500000 0.000000
-0.073079 -0.071611 -0.465364 0.000000 1.000000 0.000000
-0.137314 -0.139977 -0.438440 1.000000 0.000000 0.000000
-0.038979 0.497609 0.565926 0.600000 0.000000 0.300000
0.190824 -0.375969 -0.380116 1.000000 0.000000 0.000000
0.167386 0.176040 0.241419 1.000000 0.000000 0.000000
-0.113875 0.301835 -0.398250 1.000000 0.000000 0.000000
-0.188849 0.701912 -0.352141 0.000000 0.000000 1.000000
-0.207629 0.101129 0.528643 0.000000 0.000000 1.000000
-0.075139 0.643316 -0.044285 0.500000 0.000000 0.500000
0.060873 0.666755 -0.112425 0.500000 0.000000 0.500000
-0.122827 0.666755 0.113896 0.500000 0.000000 0.500000
0.167386 -0.394970 -0.178520 1.000000 0.000000 0.000000
0.019080 0.653761 0.588964 0.600000 0.000000 0.300000
-0.207629 -0.705454 -0.214756 0.500000 0.500000 0.000000
-0.207629 -0.110472 -0.076452 0.000000 0.000000 1.000000
0.190824 -0.220194 -0.244865 1.000000 0.000000 0.000000
-0.051301 0.127672 -0.316354 0.000000 0.500000 0.500000
-0.184190 0.333439 -0.454568 0.000000 0.000000 1.000000
0.169200 -0.036427 0.530768 0.600000 0.000000 0.300000
-0.018871 -0.247343 -0.393285 0.500000 0.000000 0.500000
-0.184190 -0.163689 0.176733 0.000000 0.000000 1.000000
0.167386 -0.537796 0.121657 0.000000 0.500000 0.500000
-0.184190 0.123168 -0.521818 0.000000 0.000000 1.000000
0.041827 0.505230 0.542487 0.600000 0.000000 0.300000
-0.137314 0.157507 -0.090549 0.600000 0.300000 0.000000
0.190824 0.386359 -0.222781 1.000000 0.000000 0.000000
0.190824 0.523525 0.275548 1.000000 0.000000 0.000000
-0.137314 0.586186 0.020107 0.600000 0.000000 0.300000
0.190824 -0.565283 -0.208878 0.000000 0.500000 0.500000
0.190824 -0.150873 0.234743 1.000000 0.000000 0.000000
-0.207629 -0.716671 -0.438972 0.500000 0.500000 0.000000
-0.184190 -0.280466 0.479170 0.000000 0.000000 1.000000
-0.184190 -0.374554 -0.044853 0.000000 0.000000 1.000000
-0.207629 -0.053639 0.047995 0.000000 0.000000 1.000000
-0.184190 0.064437 0.527697 0.000000 0.000000 1.000000
0.041283 0.291329 0.542487 0.600000 0.000000 0.300000
0.167386 0.167703 0.031655 1.000000 0.000000 0.000000
0.190824 -0.261718 0.477504 1.000000 0.000000 0.000000
-0.003759 0.666755 -0.067322 0.500000 0.000000 0.500000
-0.184190 0.461609 -0.464238 0.000000 0.000000 1.000000
-0.207629 -0.802144 -0.518133 0.500000 0.500000 0.000000
-0.207629 -0.280389 0.150725 0.000000 0.000000 1.000000
0.190824 -0.532010 0.159701 0.000000 0.500000 0.500000
0.097070 -0.233481 -0.027990 0.300000 0.600000 0.000000
0.120509 0.069428 -0.441931 0.000000 0.000000 1.000000
0.120509 0.263331 0.531128 0.000000 1.000000 0.000000
-0.131245 0.407776 -0.506381 0.000000 1.000000 0.000000
0.167386 -0.014958 0.502398 1.000000 0.000000 0.000000
0.118220 0.643316 0.223058 0.500000 0.000000 0.500000
0.167386 0.112845 -0.332588 1.000000 0.000000 0.000000
0.118389 -0.237467 -0.523960 0.000000 1.000000 0.000000
0.185589 -0.312910 0.530768 0.600000 0.000000 0.300000
-0.154582 0.666755 0.084592 0.500000 0.000000 0.500000
0.167386 0.180658 -0.516495 1.000000 0.000000 0.000000
0.190824 0.526963 0.198299 1.000000 0.000000 0.000000
0.190824 0.034287 -0.301909 1.000000 0.000000 0.000000
-0.184190 -0.675358 0.114405 0.500000 0.500000 0.000000
0.004101 0.701912 -0.524644 0.800000 0.200000 0.500000
0.190824 -0.471980 -0.342869 0.000000 0.500000 0.500000
0.120509 0.550754 0.270067 0.300000 0.000000 0.600000
-0.137314 0.562929 0.452946 0.600000 0.000000 0.300000
-0.004664 0.579777 -0.559117 0.800000 0.200000 0.500000
0.046694 0.666755 0.009006 0.500000 0.000000 0.500000
0.093492 0.666755 0.305526 0.500000 0.000000 0.500000
0.120509 -0.246282 -0.380656 0.300000 0.600000 0.000000
-0.207629 0.342761 -0.140179 0.000000 0.000000 1.000000
-0.033813 0.643316 0.291610 0.500000 0.000000 0.500000
0.167386 0.160336 0.492937 1.000000 0.000000 0.000000
0.097070 0.579930 0.046764 0.300000 0.000000 0.600000
-0.167363 0.476036 0.593737 0.600000 0.000000 0.300000
0.190824 -0.686222 0.213549 0.000000 0.500000 0.500000
0.190824 -0.577047 -0.494095 0.000000 0.500000 0.500000
0.167386 -0.493990 -0.480057 0.000000 0.500000 0.500000
-0.184190 0.200550 -0.283675 0.000000 0.000000 1.000000
-0.184190 0.429642 0.221211 0.000000 0.000000 1.000000
0.101568 0.631597 0.537445 0.600000 0.000000 0.300000
-0.133875 0.112838 -0.506381 0.000000 1.000000 0.000000
0.190824 0.349109 -0.442941 1.000000 0.000000 0.000000
0.167386 0.366732 -0.123540 1.000000 0.000000 0.000000
0.167386 0.473679 -0.365089 1.000000 0.000000 0.000000
0.097070 -0.211927 -0.168140 0.300000 0.600000 0.000000
0.167386 0.453639 -0.129559 1.000000 0.000000 0.000000
0.190824 -0.554941 -0.110702 0.000000 0.500000 0.500000
-0.184190 0.621708 0.333270 0.000000 0.000000 1.000000
-0.181420 0.643316 0.495590 0.500000 0.000000 0.500000
0.118191 0.526124 -0.075882 0.300000 0.000000 0.600000
-0.207629 -0.302318 0.303812 0.000000 0.000000 1.000000
-0.053644 0.127672 -0.042638 0.000000 0.500000 0.500000
0.121569 -0.196201 -0.506381 0.000000 1.000000 0.000000
-0.043578 0.666755 0.266897 0.500000 0.000000 0.500000
-0.027948 0.643316 -0.330775 0.500000 0.000000 0.500000
-0.066960 0.314764 -0.441925 0.000000 1.000000 0.000000
-0.184190 0.227191 0.026025 0.000000 0.000000 1.000000
0.167386 0.234285 -0.199250 1.000000 0.000000 0.000000
-0.207629 -0.385663 -0.008573 0.000000 0.000000 1.000000
0.017056 0.666755 -0.085489 0.500000 0.000000 0.500000
0.167386 0.692573 -0.533906 1.000000 0.000000 0.000000
0.167386 -0.060449 -0.151647 1.000000 0.000000 0.000000
0.167386 -0.172415 0.243544 1.000000 0.000000 0.000000
0.120509 -0.269840 0.470064 0.300000 0.600000 0.000000
-0.113875 0.458451 -0.449418 0.000000 1.000000 0.000000
0.190824 0.382990 -0.100433 1.000000 0.000000 0.000000
-0.101785 -0.235625 -0.506381 0.000000 1.000000 0.000000
-0.207629 0.209978 -0.246083 0.000000 0.000000 1.000000
0.167386 0.348445 0.005657 1.000000 0.000000 0.000000
0.026383 0.145250 0.315017 0.000000 0.500000 0.500000
0.085443 0.587406 -0.559117 0.800000 0.200000 0.500000
-0.127197 0.666755 -0.329232 0.500000 0.000000 0.500000
-0.113875 -0.252244 -0.340840 0.600000 0.000000 0.300000
0.167386 0.180239 -0.401969 1.000000 0.000000 0.000000
0.060814 -0.247343 0.487226 0.500000 0.000000 0.500000
0.190824 -0.013142 -0.309971 1.000000 0.000000 0.000000
-0.137314 -0.277343 -0.223248 0.600000 0.000000 0.300000
-0.058724 0.666755 0.184086 0.500000 0.000000 0.500000
-0.184190 -0.115935 -0.122763 0.000000 0.000000 1.000000
0.190824 0.430770 0.407779 1.000000 0.000000 0.000000
-0.117061 0.643316 0.281350 0.500000 0.000000 0.500000
-0.018216 -0.247343 0.249910 0.500000 0.000000 0.500000
-0.016716 -0.701272 0.284665 0.500000 0.000000 0.500000
-0.013064 0.127672 -0.033224 0.000000 0.500000 0.500000
-0.041498 -0.344122 -0.506381 0.000000 1.000000 0.000000
-0.207629 0.589571 -0.057973 0.000000 0.000000 1.000000
-0.070354 -0.341096 -0.217328 0.500000 0.500000 0.000000
-0.184190 0.313147 -0.541591 0.000000 0.000000 1.000000
-0.001571 -0.341096 -0.326110 0.500000 0.500000 0.000000
-0.045262 -0.247343 -0.346170 0.500000 0.000000 0.500000
-0.184190 -0.213617 0.101734 0.000000 0.000000 1.000000
-0.207629 0.411532 -0.146403 0.000000 0.000000 1.000000
-0.184190 0.628665 -0.183209 0.000000 0.000000 1.000000
0.099160 0.602172 0.483891 0.300000 0.000000 0.600000
-0.184190 0.394376 0.359797 0.000000 0.000000 1.000000
0.173470 0.623022 0.530768 0.600000 0.000000 0.300000
-0.061833 0.046372 -0.523960 0.000000 1.000000 0.000000
-0.184190 -0.060767 -0.186124 0.000000 0.000000 1.000000
-0.207629 0.264974 0.256059 0.000000 0.000000 1.000000
0.097070 0.205239 0.067806 0.300000 0.000000 0.600000
0.167386 -0.094423 0.189575 1.000000 0.000000 0.000000
-0.137314 0.067081 0.520025 0.500000 0.500000 0.000000
-0.005626 -0.341096 0.149520 0.500000 0.500000 0.000000
0.190824 -0.564274 -0.444245 0.000000 0.500000 0.500000
0.167386 0.171668 -0.365176 1.000000 0.000000 0.000000
-0.207629 0.663161 0.477455 0.000000 0.000000 1.000000
0.190824 0.077383 -0.488351 1.000000 0.000000 0.000000
0.117958 0.648811 0.530768 0.600000 0.000000 0.300000
0.008447 0.643316 0.450932 0.500000 0.000000 0.500000
-0.137314 -0.277926 -0.319705 0.600000 0.000000 0.300000
0.078339 0.643316 0.156943 0.500000 0.000000 0.500000
-0.184190 -0.232749 -0.387524 0.000000 0.000000 1.000000
0.055790 -0.270781 -0.002045 0.500000 0.000000 0.500000
-0.049622 0.666755 -0.350365 0.500000 0.000000 0.500000
0.038426 0.127672 -0.419680 0.000000 0.500000 0.500000
-0.187705 -0.288175 0.530768 0.600000 0.000000 0.300000
0.097070 0.343280 -0.462511 0.000000 1.000000 0.000000
-0.043791 -0.269319 -0.441925 0.000000 1.000000 0.000000
-0.062695 -0.006521 -0.441925 0.000000 1.000000 0.000000
0.097070 -0.075877 0.545913 0.600000 0.000000 0.300000
-0.069999 0.386118 0.601083 0.600000 0.000000 0.300000
0.097070 0.156767 0.216356 0.300000 0.000000 0.600000
0.106516 0.643316 -0.092762 0.500000 0.000000 0.500000
0.167386 0.308102 0.181675 1.000000 0.000000 0.000000
0.097070 -0.202073 0.303176 0.300000 0.600000 0.000000
0.012202 -0.341096 -0.368628 0.500000 0.500000 0.000000
-0.184190 -0.357118 -0.491589 0.000000 0.000000 1.000000
0.190824 -0.173354 0.477715 1.000000 0.000000 0.000000
0.190824 -0.820407 -0.219764 0.000000 0.500000 0.500000
0.167386 0.157404 -0.340836 1.000000 0.000000 0.000000
-0.091402 0.645850 -0.523960 0.000000 1.000000 0.000000
-0.207629 0.501519 -0.344620 0.000000 0.000000 1.000000
0.190824 0.188759 -0.346185 1.000000 0.000000 0.000000
-0.003316 -0.149758 0.565926 0.600000 0.000000 0.300000
-0.184190 -0.376881 0.334582 0.000000 0.000000 1.000000
0.127908 0.646605 -0.559117 0.800000 0.200000 0.500000
0.167386 0.527756 -0.263973 1.000000 0.000000 0.000000
-0.136163 -0.179493 -0.465364 1.000000 0.000000 0.000000
-0.013280 -0.240526 0.565926 0.600000 0.000000 0.300000
0.190824 0.402536 0.260034 1.000000 0.000000 0.000000
0.167386 0.040978 -0.235197 1.000000 0.000000 0.000000
0.048653 0.217539 -0.441925 0.000000 1.000000 0.000000
-0.113875 0.006478 0.533574 0.500000 0.500000 0.000000
0.068816 -0.105234 -0.441925 0.000000 1.000000 0.000000
-0.207629 -0.302996 -0.488195 0.000000 0.000000 1.000000
-0.137314 -0.236146 -0.210325 0.600000 0.000000 0.300000
-0.207629 0.230329 -0.439962 0.000000 0.000000 1.000000
-0.145113 0.643316 -0.055692 0.500000 0.000000 0.500000
-0.083682 0.594324 0.601083 0.600000 0.000000 0.300000
-0.136617 -0.282500 -0.428026 1.000000 0.000000 0.000000
0.190824 0.651406 -0.332192 1.000000 0.000000 0.000000
0.000791 0.026913 0.601083 0.600000 0.000000 0.300000
-0.098169 0.329791 -0.523960 0.000000 1.000000 0.000000
0.094523 0.145250 0.379553 0.000000 0.500000 0.500000
-0.137314 -0.226219 0.116861 0.600000 0.000000 0.300000
-0.137543 0.643316 0.424607 0.500000 0.000000 0.500000
0.190824 0.392980 0.385462 1.000000 0.000000 0.000000
-0.184190 -0.648786 0.160651 0.500000 0.500000 0.000000
0.120509 -0.209250 0.448699 0.300000 0.600000 0.000000
-0.015987 0.469285 -0.465364 0.000000 1.000000 0.000000
-0.219348 -0.183429 0.541896 0.600000 0.000000 0.300000
0.190824 0.587783 -0.237529 1.000000 0.000000 0.000000
0.167386 -0.449536 -0.303267 0.000000 0.500000 0.500000
-0.184190 0.011976 0.507628 0.000000 0.000000 1.000000
-0.108228 -0.639961 -0.559117 0.000000 1.000000 0.000000
-0.045260 -0.270781 -0.378572 0.500000 0.000000 0.500000
0.167386 0.358732 0.099486 1.000000 0.000000 0.000000
-0.184190 -0.710114 -0.252842 0.500000 0.500000 0.000000
-0.010302 -0.341096 0.061083 0.500000 0.500000 0.000000
-0.089816 0.631597 0.558110 0.600000 0.000000 0.300000
-0.207629 0.010956 -0.268054 0.000000 0.000000 1.000000
0.005164 -0.622943 0.284665 0.500000 0.000000 0.500000
-0.184190 -0.477139 -0.061517 0.500000 0.500000 0.000000
0.145082 0.252771 -0.523960 0.000000 1.000000 0.000000
0.061101 0.643316 0.093601 0.500000 0.000000 0.500000
-0.184190 -0.746753 -0.446315 0.500000 0.500000 0.000000
0.190824 0.353831 0.264719 1.000000 0.000000 0.000000
-0.143905 -0.338950 -0.523960 0.000000 1.000000 0.000000
-0.207629 0.251162 -0.401876 0.000000 0.000000 1.000000
-0.113875 0.588221 0.176354 0.600000 0.000000 0.300000
0.190824 -0.609093 0.258613 0.000000 0.500000 0.500000
-0.207629 -0.758593 -0.242276 0.500000 0.500000 0.000000
0.151177 -0.341096 -0.111999 0.500000 0.500000 0.000000
0.134832 -0.341096 0.098619 0.500000 0.500000 0.000000
0.190824 -0.660642 -0.440731 0.000000 0.500000 0.500000
-0.160509 -0.341096 0.131947 0.500000 0.500000 0.000000
0.167386 -0.252701 -0.130728 1.000000 0.000000 0.000000
-0.207629 0.221763 0.255921 0.000000 0.000000 1.000000
-0.207629 0.190918 -0.524818 0.000000 0.000000 1.000000
-0.207629 -0.117477 -0.469795 0.000000 0.000000 1.000000
0.097070 0.541443 -0.064349 0.300000 0.000000 0.600000
-0.184190 0.303586 0.492829 0.000000 0.000000 1.000000
-0.207629 -0.134772 -0.120548 0.000000 0.000000 1.000000
-0.207629 -0.377249 0.449122 0.000000 0.000000 1.000000
-0.164259 0.666755 0.342727 0.500000 0.000000 0.500000
0.167386 0.383603 -0.255212 1.000000 0.000000 0.000000
0.085791 -0.341096 0.350078 0.500000 0.500000 0.000000
-0.184190 -0.374619 -0.183094 0.000000 0.000000 1.000000
-0.149033 0.058725 0.554727 0.600000 0.000000 0.300000
-0.184190 -0.400960 -0.261553 0.500000 0.500000 0.000000
0.167386 -0.305790 -0.267020 1.000000 0.000000 0.000000
0.148329 0.455108 -0.523960 0.000000 1.000000 0.000000
-0.107368 0.145250 -0.200123 0.000000 0.500000 0.500000
-0.012952 0.166787 0.565926 0.600000 0.000000 0.300000
0.122354 0.105189 0.565926 0.600000 0.000000 0.300000
0.027743 -0.024691 -0.465364 0.000000 1.000000 0.000000
0.070236 -0.270781 0.213066 0.500000 0.000000 0.500000
-0.113875 -0.044064 0.514958 0.500000 0.500000 0.000000
-0.113875 -0.262298 0.548542 0.500000 0.500000 0.000000
-0.207629 -0.200340 0.343949 0.000000 0.000000 1.000000
0.146536 0.643316 -0.468741 0.500000 0.000000 0.500000
0.052884 -0.247343 -0.041542 0.500000 0.000000 0.500000
0.167386 -0.424791 -0.503600 0.000000 0.500000 0.500000
-0.137311 0.643316 0.239758 0.500000 0.000000 0.500000
0.190824 -0.800557 -0.114701 0.000000 0.500000 0.500000
-0.103097 0.342865 -0.465364 0.000000 1.000000 0.000000
0.167386 -0.723756 -0.506982 0.000000 0.500000 0.500000
-0.098259 0.369606 -0.441925 0.000000 1.000000 0.000000
-0.184190 0.080528 -0.376392 0.000000 0.000000 1.000000
0.073665 0.666755 -0.450847 0.500000 0.000000 0.500000
0.190824 0.068295 0.012897 1.000000 0.000000 0.000000
-0.207629 0.203596 0.075258 0.000000 0.000000 1.000000
0.167386 0.251900 0.470424 1.000000 0.000000 0.000000
0.055408 0.188051 -0.523960 0.000000 1.000000 0.000000
-0.184190 -0.605687 -0.112247 0.500000 0.500000 0.000000
-0.184190 0.466200 -0.334885 0.000000 0.000000 1.000000
-0.078180 0.573547 -0.523960 0.000000 1.000000 0.000000
-0.207629 -0.104347 -0.159014 0.000000 0.000000 1.000000
0.167386 -0.423509 -0.456399 0.000000 0.500000 0.500000
0.120509 0.469565 0.504570 0.000000 1.000000 0.000000
0.190824 -0.305398 -0.524879 1.000000 0.000000 0.000000
-0.052630 0.651100 -0.506381 0.000000 1.000000 0.000000
0.167386 -0.647519 -0.159321 0.000000 0.500000 0.500000
0.190824 -0.090887 -0.106221 1.000000 0.000000 0.000000
0.190824 0.161877 -0.326232 1.000000 0.000000 0.000000
-0.046737 0.127672 -0.074726 0.000000 0.500000 0.500000
-0.018156 0.666755 -0.387813 0.500000 0.000000 0.500000
0.036491 0.643316 -0.137377 0.500000 0.000000 0.500000
0.190824 0.457976 -0.298009 1.000000 0.000000 0.000000
-0.137314 0.566850 0.110105 0.600000 0.000000 0.300000
-0.207629 0.076423 0.230547 0.000000 0.000000 1.000000
-0.207629 0.310359 0.248378 0.000000 0.000000 1.000000
-0.207629 -0.124618 -0.320309 0.000000 0.000000 1.000000
0.097070 0.574566 0.160910 0.300000 0.000000 0.600000
-0.137314 -0.020921 -0.425320 1.000000 0.000000 0.000000
-0.200050 0.701912 0.131472 0.000000 0.000000 1.000000
-0.099994 0.127672 -0.173966 0.000000 0.500000 0.500000
-0.207629 -0.180234 -0.106563 0.000000 0.000000 1.000000
-0.207629 -0.061678 -0.463291 0.000000 0.000000 1.000000
0.190824 0.173133 0.284220 1.000000 0.000000 0.000000
-0.158399 0.122968 0.565926 0.600000 0.000000 0.300000
-0.169749 -0.064785 0.565926 0.600000 0.000000 0.300000
0.167386 0.461117 0.519962 1.000000 0.000000 0.000000
-0.207629 0.268358 0.042773 0.000000 0.000000 1.000000
-0.137314 0.088694 -0.389644 1.000000 0.000000 0.000000
0.190824 -0.376847 -0.041040 1.000000 0.000000 0.000000
0.167386 0.223248 -0.019291 1.000000 0.000000 0.000000
0.190824 0.121980 0.014634 1.000000 0.000000 0.000000
-0.129769 0.608159 -0.187800 0.600000 0.000000 0.300000
-0.207629 -0.353297 0.513284 0.000000 0.000000 1.000000
0.097070 0.201884 0.392089 0.300000 0.000000 0.600000
-0.184190 0.378859 0.072661 0.000000 0.000000 1.000000
0.190824 -0.746573 -0.485709 0.000000 0.500000 0.500000
-0.153310 0.410364 0.565926 0.600000 0.000000 0.300000
0.007691 0.127672 -0.434116 0.000000 0.500000 0.500000
-0.137314 -0.259997 0.406176 0.600000 0.000000 0.300000
0.190824 0.325166 -0.064822 1.000000 0.000000 0.000000
0.042173 0.666755 0.296673 0.500000 0.000000 0.500000
0.119776 -0.282500 -0.353452 0.300000 0.600000 0.000000
-0.184190 -0.583346 -0.315383 0.500000 0.500000 0.000000
0.167386 -0.195159 0.139774 1.000000 0.000000 0.000000
-0.207629 -0.675350 -0.322810 0.500000 0.500000 0.000000
-0.207629 0.387815 0.420705 0.000000 0.000000 1.000000
-0.207629 -0.030450 0.298478 0.000000 0.000000 1.000000
-0.184190 0.671018 -0.498748 0.000000 0.000000 1.000000
0.167386 0.037306 -0.433916 1.000000 0.000000 0.000000
-0.137314 0.296773 0.484553 0.500000 0.500000 0.000000
0.060377 -0.270781 -0.318492 0.500000 0.000000 0.500000
-0.119297 0.127672 -0.256835 0.600000 0.300000 0.000000
0.167386 -0.131731 0.030272 1.000000 0.000000 0.000000
-0.026656 0.643316 0.187884 0.500000 0.000000 0.500000
