ply
format ascii 1.0
element vertex 1293
property float x
property float y
property float z
property uchar red
property uchar green
property uchar blue
end_header
0.341625 0.217187 -0.015221 76 0 153
-0.367301 -0.092988 -0.218685 76 0 153
0.066650 0.608725 0.267359 255 0 0
-0.367301 -0.440155 0.294411 0 0 255
0.024782 -0.316402 0.340121 0 0 255
0.131699 -0.214599 0.282284 0 0 255
0.341625 -0.261093 0.052792 76 0 153
-0.291636 0.472232 0.327462 255 0 0
0.341625 -0.662452 -0.384869 76 0 153
-0.190245 0.146438 0.335269 0 0 255
-0.172041 0.188382 0.267823 0 0 255
0.341625 0.679745 -0.361240 76 0 153
-0.030401 -0.555428 0.267359 0 0 255
0.341625 -0.527726 -0.102334 76 0 153
-0.053978 -0.233456 -0.441568 76 0 153
0.341625 0.611162 -0.150355 76 0 153
-0.109287 -0.774064 0.213482 76 0 153
0.341625 0.571151 0.135897 76 0 153
-0.192845 -0.743035 0.267359 0 0 255
0.247181 -0.320083 0.329125 0 0 255
0.119257 -0.538474 -0.441568 76 0 153
0.188255 -0.334447 -0.441568 76 0 153
0.341625 0.302423 -0.062553 76 0 153
0.341625 0.351328 -0.379773 76 0 153
-0.117026 -0.173196 -0.441568 76 0 153
0.007278 -0.120661 0.267359 0 0 255
0.341625 -0.228317 -0.405851 76 0 153
-0.123822 0.522811 0.267359 255 0 0
0.025035 -0.034726 0.267359 0 0 255
-0.367301 -0.395280 -0.391755 76 0 153
-0.113836 -0.765821 0.267359 76 0 153
0.341625 0.369663 0.159105 76 0 153
-0.049895 -0.774064 -0.109651 76 0 153
0.341625 0.168112 0.156100 76 0 153
-0.367301 0.706905 -0.356093 76 0 153
-0.311272 0.229522 0.267359 76 0 153
-0.026676 0.633615 0.340354 255 0 0
-0.367301 0.497050 -0.396265 76 0 153
0.073330 0.083035 0.267359 0 0 255
-0.367301 0.010716 -0.265259 76 0 153
0.220404 -0.204761 -0.441568 76 0 153
0.159608 -0.530304 0.335512 0 0 255
-0.265879 0.830349 -0.310004 76 0 153
-0.367301 0.117928 -0.187190 76 0 153
-0.367301 -0.704107 0.224030 76 0 153
-0.367301 -0.705002 -0.266925 76 0 153
0.341625 -0.766918 -0.214249 76 0 153
0.226041 0.242338 0.282284 255 0 0
0.341625 0.465271 0.026992 76 0 153
0.206285 -0.714754 0.332401 0 0 255
0.193316 0.366641 0.333293 255 0 0
0.075492 0.344106 0.339052 255 0 0
-0.028687 -0.025967 0.340334 0 0 255
-0.367301 0.720929 0.039705 76 0 153
-0.367301 -0.352725 -0.319845 76 0 153
-0.234841 0.059263 0.332203 0 0 255
0.341625 -0.244426 0.219865 76 0 153
-0.260219 -0.352970 0.267359 0 0 255
0.341625 -0.391294 0.303435 0 0 255
-0.214724 -0.170329 0.333587 0 0 255
-0.181254 0.212449 -0.441568 76 0 153
0.189062 -0.190280 0.267359 0 0 255
-0.265582 -0.813357 0.180817 153 0 76
-0.367301 0.653518 -0.282634 76 0 153
0.005537 -0.162963 -0.441568 76 0 153
-0.023216 0.071935 0.267359 0 0 255
0.341625 0.496971 -0.347427 76 0 153
0.254075 -0.775771 0.219413 76 153 0
0.123774 -0.635924 0.282284 0 0 255
-0.367301 -0.504440 -0.084603 76 0 153
-0.044594 -0.774064 -0.171102 76 0 153
0.341625 0.279650 0.074001 76 0 153
-0.112910 -0.179117 0.282284 0 0 255
-0.299123 0.408349 0.326799 255 0 0
0.004813 -0.092774 -0.441568 76 0 153
-0.254577 -0.191341 0.330744 0 0 255
-0.058344 0.299068 0.340043 255 0 0
-0.239966 0.830349 0.145625 76 0 153
-0.087167 -0.698453 0.267359 0 0 255
0.341625 0.335841 -0.183246 76 0 153
0.190087 0.627954 0.333515 255 0 0
-0.367301 -0.593517 -0.411992 76 0 153
0.341625 0.184585 -0.305205 76 0 153
-0.209309 -0.699296 -0.441568 76 0 153
-0.367301 -0.289667 -0.148526 76 0 153
0.213684 -0.096331 0.331892 0 0 255
-0.262019 0.100392 -0.441568 76 0 153
-0.277263 0.653621 -0.441568 76 0 153
-0.014474 -0.009656 0.267359 0 0 255
-0.367301 -0.533689 -0.397551 76 0 153
0.123335 0.130820 0.282284 0 0 255
-0.036517 -0.581396 0.340258 0 0 255
-0.064826 0.743853 -0.441568 76 0 153
-0.367301 0.054505 0.050885 76 0 153
0.115413 0.830349 -0.027979 76 0 153
0.284965 -0.367235 0.282284 0 0 255
-0.055857 0.374683 0.282284 255 0 0
0.203061 -0.774064 0.296658 0 0 255
-0.205291 0.244521 0.334236 255 0 0
0.154746 0.491657 0.267359 255 0 0
-0.050132 0.830349 -0.210130 76 0 153
-0.367301 -0.368541 0.014854 76 0 153
-0.204528 -0.774064 -0.245220 76 0 153
0.335642 -0.067573 0.282284 0 0 255
-0.276374 0.533121 0.267359 255 0 0
-0.114114 0.554512 0.338671 255 0 0
-0.339109 -0.774064 -0.287588 76 0 153
0.194888 -0.274379 0.333185 0 0 255
0.261437 -0.774064 -0.336030 76 0 153
-0.346390 -0.052198 0.321862 0 0 255
0.341625 -0.150414 0.041810 76 0 153
-0.367301 0.004493 0.079358 76 0 153
-0.367301 0.314105 -0.417670 76 0 153
-0.005293 -0.605428 -0.441568 76 0 153
-0.317438 0.528557 -0.441568 76 0 153
0.214070 0.631737 0.282284 255 0 0
-0.298294 0.586162 -0.441568 76 0 153
0.058813 0.506003 -0.441568 76 0 153
0.341625 0.273619 0.283863 255 0 0
0.241858 0.579029 -0.441568 76 0 153
0.072967 -0.452853 -0.441568 76 0 153
0.314145 0.830349 -0.311494 76 0 153
-0.162283 0.006367 -0.441568 76 0 153
0.341625 -0.068246 0.137638 76 0 153
-0.367301 -0.609549 0.290189 0 0 255
0.341625 -0.168757 -0.058015 76 0 153
0.122570 0.405348 0.337331 255 0 0
0.215227 0.158636 0.282284 0 0 255
0.341625 -0.314958 0.184580 76 0 153
-0.181992 -0.698004 0.335674 0 0 255
-0.002766 -0.413245 0.282284 0 0 255
-0.059857 0.830349 0.071114 76 0 153
0.320314 -0.774064 -0.234602 76 0 153
-0.352377 0.270350 0.281983 255 0 0
0.341625 0.143296 -0.055228 76 0 153
-0.163420 0.325007 0.336586 255 0 0
0.311797 0.535964 0.267359 255 0 0
-0.367301 0.556030 -0.398906 76 0 153
0.027032 -0.654871 -0.441568 76 0 153
-0.367301 -0.243593 -0.256618 76 0 153
0.341625 -0.356301 -0.129250 76 0 153
0.341625 -0.135025 0.246797 76 0 153
-0.211944 -0.754098 -0.441568 76 0 153
-0.290659 -0.774064 -0.262295 76 0 153
0.341625 -0.747304 0.265128 76 0 153
-0.157291 -0.156085 0.336887 0 0 255
0.341625 -0.192747 0.005043 76 0 153
0.305913 0.477149 -0.441568 76 0 153
-0.025398 -0.774064 -0.209421 76 0 153
0.055787 -0.309371 0.267359 0 0 255
0.181020 0.830349 -0.006303 76 0 153
-0.367301 0.827782 -0.255389 76 0 153
-0.367301 -0.665524 0.007400 76 0 153
0.092709 -0.265644 0.338545 0 0 255
0.341625 -0.423744 -0.251603 76 0 153
-0.367301 -0.711461 -0.400062 76 0 153
0.143546 0.030177 0.336301 0 0 255
-0.367301 -0.200751 -0.061278 76 0 153
0.341625 -0.528555 -0.281244 76 0 153
0.084871 -0.774064 -0.014937 76 0 153
0.341625 -0.761888 -0.049907 76 0 153
0.310619 -0.303608 0.282284 0 0 255
-0.014400 -0.774064 0.091153 76 0 153
0.061927 0.342533 -0.441568 76 0 153
0.341625 -0.501707 0.292955 0 0 255
-0.367301 0.304496 -0.005456 76 0 153
0.231986 0.830349 0.190211 76 0 153
-0.367301 -0.515327 0.026425 76 0 153
-0.293015 -0.745204 -0.441568 76 0 153
-0.014579 -0.745507 0.340473 0 0 255
0.012451 0.830349 -0.230876 76 0 153
-0.367301 0.654913 0.177981 76 0 153
0.329501 0.592814 0.282284 255 0 0
-0.027862 -0.707402 0.267359 0 0 255
0.216000 -0.165393 0.331733 0 0 255
-0.218808 -0.774064 -0.194064 76 0 153
-0.367301 -0.015744 -0.339968 76 0 153
-0.367301 -0.708847 -0.110191 76 0 153
-0.306407 0.134981 0.326154 0 0 255
-0.050200 -0.774064 0.089984 76 0 153
0.341625 0.009706 -0.252047 76 0 153
0.085000 0.172339 0.282284 0 0 255
0.043662 0.521631 0.267359 255 0 0
-0.367301 -0.295892 -0.022493 76 0 153
0.341625 -0.048196 -0.017220 76 0 153
0.341625 0.382904 -0.268655 76 0 153
-0.263795 0.279617 0.282284 255 0 0
-0.070588 0.203307 0.298999 0 0 255
0.288751 0.675568 -0.441568 76 0 153
-0.367301 -0.067429 0.266823 76 0 153
0.341625 0.399983 -0.373986 76 0 153
-0.204115 0.480231 0.267359 255 0 0
-0.339255 0.830349 -0.313727 76 0 153
-0.324887 0.634469 0.282284 255 0 0
-0.355457 -0.774064 -0.085314 76 0 153
0.318298 -0.774064 0.168760 76 0 153
0.242840 -0.446104 -0.441568 76 0 153
-0.155255 0.259143 0.267359 255 0 0
0.341625 0.251371 -0.014744 76 0 153
0.108640 -0.696774 0.338016 0 0 255
-0.367301 -0.629328 0.115452 76 0 153
-0.367301 0.244374 0.103499 76 0 153
-0.367301 0.378487 0.291753 255 0 0
0.113306 0.015358 -0.441568 76 0 153
0.078471 0.133207 0.282284 0 0 255
-0.276906 0.563072 0.267359 255 0 0
-0.367301 0.404439 -0.066705 76 0 153
-0.067872 0.255746 0.273822 255 0 0
0.050811 0.830349 -0.018554 76 0 153
-0.251039 0.830349 -0.080016 76 0 153
-0.169566 0.468902 -0.441568 76 0 153
0.254576 0.450809 0.328470 255 0 0
0.069656 0.724959 0.282284 255 0 0
0.341357 0.185664 -0.441568 76 0 153
0.341625 -0.294783 -0.420485 76 0 153
0.314522 -0.774064 -0.093853 76 0 153
-0.367301 0.248755 -0.050983 76 0 153
0.093122 0.449193 0.282284 255 0 0
-0.367301 -0.536237 -0.027527 76 0 153
-0.117100 -0.548300 0.267359 0 0 255
0.119788 -0.352664 0.282284 0 0 255
0.341625 0.031877 -0.136928 76 0 153
0.179987 0.296116 0.334210 255 0 0
-0.249626 0.830349 0.212980 76 0 153
-0.142297 -0.406769 0.282284 0 0 255
-0.215260 0.508895 0.267359 255 0 0
-0.126531 -0.043613 0.338306 0 0 255
-0.053989 0.475039 0.282284 255 0 0
-0.010399 -0.774064 -0.001162 76 0 153
0.341625 0.692620 -0.227212 76 0 153
-0.160885 0.164321 -0.441568 76 0 153
0.324476 0.100910 0.267359 0 0 255
-0.010149 -0.663606 0.267359 0 0 255
0.341625 0.230375 -0.342079 76 0 153
-0.115394 0.465539 0.267359 255 0 0
0.249094 -0.230774 0.328956 0 0 255
0.110730 -0.727865 0.282284 0 0 255
0.341625 -0.102271 0.296951 0 0 255
-0.108456 -0.774064 -0.413516 76 0 153
-0.367301 0.053828 -0.266112 76 0 153
-0.102113 -0.774064 -0.354966 76 0 153
0.274905 0.155106 0.282284 0 0 255
-0.199003 0.573730 0.267359 255 0 0
-0.061839 -0.255409 0.267359 0 0 255
-0.367301 0.104628 0.213677 76 0 153
0.325088 0.830349 0.024894 76 0 153
0.341625 -0.773736 -0.264339 76 0 153
-0.343823 -0.774064 -0.134484 76 0 153
0.122449 -0.774064 0.292568 0 0 255
-0.083330 -0.148388 0.282284 0 0 255
0.341625 0.449009 0.294680 255 0 0
0.341625 -0.032616 -0.408418 76 0 153
-0.155209 0.830349 0.005789 76 0 153
0.004370 0.790328 0.267359 255 0 0
0.341625 -0.188172 -0.309009 76 0 153
0.297509 -0.642945 0.324376 0 0 255
0.341625 0.040603 -0.337861 76 0 153
0.341625 -0.741663 -0.356955 76 0 153
0.341625 0.408785 -0.233146 76 0 153
-0.223657 -0.622714 0.332972 0 0 255
0.242436 -0.774064 0.017797 76 0 153
0.180399 0.173801 0.334182 0 0 255
0.062661 0.795602 0.339430 255 0 0
-0.171858 0.830349 0.069898 76 0 153
-0.367301 -0.754449 -0.403234 76 0 153
0.267454 -0.774064 -0.179322 76 0 153
-0.173656 0.049828 -0.441568 76 0 153
0.019984 -0.081180 0.267359 0 0 255
0.309840 -0.759139 0.275532 0 0 255
0.341625 -0.365460 0.218424 76 0 153
0.341625 -0.472588 -0.258465 76 0 153
-0.089930 -0.356584 0.267359 0 0 255
0.043566 0.318005 0.267359 255 0 0
-0.367301 0.505993 0.196839 76 0 153
-0.171700 0.358960 0.336179 255 0 0
0.123883 0.622391 -0.441568 76 0 153
-0.336481 0.083445 0.322936 0 0 255
0.117968 0.537471 0.282284 255 0 0
-0.367301 -0.483431 0.001464 76 0 153
-0.145585 -0.774064 -0.319989 76 0 153
0.043865 0.660640 0.339934 255 0 0
0.341625 0.049565 -0.251324 76 0 153
-0.367301 0.652324 -0.219341 76 0 153
-0.152291 -0.040790 -0.441568 76 0 153
0.341625 -0.479123 -0.146851 76 0 153
-0.347644 -0.221065 0.267359 0 0 255
-0.285178 -0.529860 -0.441568 76 0 153
0.341625 -0.015569 0.045551 76 0 153
-0.014862 0.599279 0.267359 255 0 0
-0.357857 -0.366124 -0.441568 76 0 153
-0.107587 0.036910 0.282284 0 0 255
-0.352390 -0.520378 0.282284 0 0 255
-0.247536 -0.362759 -0.441568 76 0 153
-0.367301 0.391218 -0.196133 76 0 153
0.008884 -0.477306 0.267359 0 0 255
-0.367301 -0.138195 -0.100903 76 0 153
-0.003007 0.201508 0.267359 76 0 153
-0.305760 0.258583 0.267359 255 0 0
-0.253846 -0.109779 0.282284 0 0 255
0.042433 -0.495334 0.282284 0 0 255
-0.022420 0.830349 -0.133756 76 0 153
0.234195 -0.562834 0.267359 0 0 255
-0.367301 0.455367 -0.434086 76 0 153
-0.144593 -0.704013 0.282284 0 0 255
0.341625 0.301761 0.018381 76 0 153
0.341625 -0.383636 -0.363337 76 0 153
-0.367301 -0.007361 -0.149810 76 0 153
0.144309 -0.011845 0.336264 0 0 255
0.254733 0.240821 0.326345 255 0 0
-0.341970 -0.092742 -0.441568 76 0 153
-0.289472 -0.755278 0.282284 0 0 255
-0.318424 -0.774064 -0.057242 76 0 153
0.061368 0.203307 0.315272 0 0 255
0.341625 0.819091 0.216824 76 0 153
0.191001 0.479878 0.333453 255 0 0
0.341625 0.811432 -0.430862 76 0 153
-0.172520 0.056964 0.336139 0 0 255
0.341625 -0.199385 0.290077 0 0 255
0.293660 -0.166581 0.282284 0 0 255
0.341625 -0.442515 -0.206392 76 0 153
-0.367301 -0.512582 -0.132054 76 0 153
-0.114941 0.518133 -0.441568 76 0 153
-0.218688 -0.396903 -0.441568 76 0 153
0.140341 0.270505 0.282284 255 0 0
0.337405 -0.489747 0.320053 0 0 255
0.319606 0.734361 0.321982 255 0 0
0.297642 -0.774064 -0.009296 76 0 153
0.226634 -0.564735 -0.441568 76 0 153
0.237480 0.401659 0.282284 255 0 0
-0.120497 0.009086 -0.441568 76 0 153
0.341625 -0.634167 -0.012758 76 0 153
0.088409 0.495654 0.338672 255 0 0
0.247309 -0.745117 0.329114 0 0 255
0.341625 0.210468 -0.261236 76 0 153
0.341625 -0.114378 0.108323 76 0 153
0.236011 0.483761 0.330114 255 0 0
-0.064079 0.369274 0.339987 255 0 0
0.341625 -0.657378 -0.280892 76 0 153
-0.367301 0.279843 -0.229047 76 0 153
-0.170422 -0.774064 0.086209 76 0 153
-0.220718 0.607729 -0.441568 76 0 153
0.174368 0.534584 0.334597 255 0 0
0.341625 0.152621 -0.006775 76 0 153
0.092342 -0.774064 -0.378520 76 0 153
0.341625 -0.518367 0.222938 76 0 153
-0.051461 -0.370790 -0.441568 76 0 153
-0.320913 0.680395 0.282284 255 0 0
-0.198927 0.071998 -0.441568 76 0 153
0.186362 0.060173 -0.441568 76 0 153
-0.299172 0.830349 -0.055018 76 0 153
0.163638 0.154059 0.282284 0 0 255
0.323900 0.532372 -0.441568 76 0 153
0.238533 0.395953 -0.441568 76 0 153
-0.007806 0.830349 0.320435 255 0 0
0.099846 -0.221970 0.267359 0 0 255
-0.032085 -0.745662 -0.441568 76 0 153
-0.249829 -0.542963 -0.441568 76 0 153
0.239825 -0.194639 0.267359 0 0 255
0.341625 -0.268346 -0.271348 76 0 153
-0.318613 -0.128323 -0.441568 76 0 153
-0.045873 -0.152248 0.267359 0 0 255
0.196836 0.106106 0.267359 0 0 255
0.341625 0.488567 -0.131100 76 0 153
0.026876 0.830349 -0.147285 76 0 153
-0.351686 -0.448967 0.321288 0 0 255
-0.019929 -0.468277 0.267359 0 0 255
-0.367301 0.497126 -0.012251 76 0 153
0.263493 -0.774064 -0.406823 76 0 153
-0.102875 0.680697 0.282284 255 0 0
-0.135994 -0.429063 0.337933 0 0 255
-0.019192 -0.526955 0.267359 0 0 255
0.172519 0.578394 0.334724 255 0 0
-0.367301 0.697418 -0.102439 76 0 153
0.197985 -0.685187 0.282284 0 0 255
0.250914 -0.625694 0.267359 0 0 255
-0.119122 0.080637 -0.441568 76 0 153
0.197228 0.779190 0.282284 255 0 0
-0.137580 0.440630 0.337855 255 0 0
-0.004298 0.830349 -0.409450 76 0 153
-0.364381 0.830349 0.024562 76 0 153
0.280571 0.364367 -0.441568 76 0 153
-0.348209 0.640830 -0.441568 76 0 153
-0.244172 -0.774064 -0.397365 76 0 153
-0.004940 -0.569842 0.267359 0 0 255
-0.367301 -0.052683 0.092355 76 0 153
0.205196 0.203307 0.292082 0 0 255
-0.073255 -0.293181 0.339873 0 0 255
0.128599 0.830349 0.293319 255 0 0
-0.095828 0.146025 0.339209 0 0 255
0.022142 0.054978 0.282284 0 0 255
-0.314167 0.112961 0.267359 0 0 255
-0.367301 0.119026 0.058987 76 0 153
-0.367301 0.414838 0.111543 76 0 153
0.341625 -0.272255 0.128057 76 0 153
-0.290616 -0.460983 0.327553 0 0 255
-0.216842 -0.774064 0.231037 76 0 153
0.341625 -0.460903 0.282688 0 0 255
-0.189369 0.721176 0.335312 255 0 0
0.224594 -0.774064 0.317287 0 0 255
-0.004648 -0.396895 -0.441568 76 0 153
-0.089564 0.787125 0.339393 255 0 0
-0.295506 -0.742074 0.327120 0 0 255
0.341625 -0.525010 -0.162345 76 0 153
0.154969 -0.641591 0.335740 0 0 255
0.029386 0.008910 0.340076 0 0 255
0.250196 0.592088 0.267359 255 0 0
0.188090 -0.746777 0.333653 0 0 255
0.176601 0.226880 -0.441568 76 0 153
-0.244109 0.830349 -0.289403 76 0 153
-0.178221 -0.774064 0.123784 76 0 153
0.341625 -0.295775 0.309137 0 0 255
-0.201530 -0.435276 0.267359 0 0 255
-0.311430 -0.275530 0.267359 0 0 255
-0.342790 -0.630177 -0.441568 76 0 153
0.192865 0.438547 -0.441568 76 0 153
-0.276081 0.649179 0.267359 255 0 0
0.167151 -0.466695 0.335093 0 0 255
0.341625 0.569369 -0.021596 76 0 153
-0.138916 0.830349 -0.169692 76 0 153
-0.018861 0.752407 0.340431 255 0 0
-0.226896 0.421631 0.282284 255 0 0
-0.244637 -0.185944 -0.441568 76 0 153
-0.061802 0.050632 -0.441568 76 0 153
-0.367301 0.506437 0.132711 76 0 153
-0.021140 0.804881 -0.441568 76 0 153
-0.335120 -0.051244 0.282284 0 0 255
0.151853 -0.127522 0.267359 0 0 255
0.278740 0.830349 0.223568 76 0 153
0.005207 0.543806 -0.441568 76 0 153
0.202888 -0.774064 0.034976 76 0 153
0.027224 0.493643 0.340097 255 0 0
-0.347785 0.527065 0.282284 255 0 0
-0.303030 -0.460000 0.267359 0 0 255
0.100913 -0.276993 -0.441568 76 0 153
-0.004747 0.452580 0.267359 255 0 0
0.017511 0.189316 0.340192 0 0 255
0.341625 -0.213684 0.173507 76 0 153
0.322279 0.318406 0.267359 255 0 0
0.341625 -0.332429 -0.290603 76 0 153
-0.367301 0.154325 -0.158316 76 0 153
0.341625 -0.662202 -0.247384 76 0 153
0.213423 0.368722 0.267359 255 0 0
-0.303542 -0.827318 0.220267 153 0 76
0.060425 -0.774064 -0.210722 76 0 153
-0.255802 0.830349 -0.369670 76 0 153
-0.164346 0.830349 0.304751 255 0 0
-0.367301 -0.208747 0.184788 76 0 153
0.341625 0.802920 -0.083084 76 0 153
-0.137622 0.764549 -0.441568 76 0 153
0.078273 -0.537697 0.282284 0 0 255
-0.367301 -0.365714 -0.290767 76 0 153
0.209847 0.485807 0.267359 255 0 0
-0.367301 -0.247934 -0.106356 76 0 153
0.243967 0.830349 -0.306562 76 0 153
-0.190185 -0.007776 0.282284 0 0 255
0.333381 -0.323781 -0.441568 76 0 153
-0.051976 0.118224 -0.441568 76 0 153
0.180715 -0.535652 0.267359 0 0 255
-0.288000 0.830349 0.171591 76 0 153
0.167158 0.731290 -0.441568 76 0 153
0.005405 0.617877 0.340311 255 0 0
0.341625 0.415781 0.166915 76 0 153
-0.014717 0.830349 0.209724 76 0 153
-0.139795 0.240821 0.321543 255 0 0
0.311086 -0.218376 -0.441568 76 0 153
0.081705 0.643567 -0.441568 76 0 153
-0.367301 -0.718303 -0.060144 76 0 153
-0.367301 -0.332989 -0.291495 76 0 153
-0.004939 0.576814 0.340412 255 0 0
-0.036703 0.542580 0.267359 255 0 0
-0.086997 -0.559302 0.282284 0 0 255
0.084288 0.830349 -0.344961 76 0 153
-0.367301 -0.674205 0.075936 76 0 153
-0.037134 0.760390 0.282284 255 0 0
0.341625 0.028382 0.313373 0 0 255
-0.136441 0.067736 0.267359 0 0 255
0.056613 0.823653 0.282284 255 0 0
-0.358073 0.524975 -0.441568 76 0 153
-0.096257 -0.081232 0.282284 0 0 255
-0.094180 0.340319 0.282284 255 0 0
0.070426 0.581297 -0.441568 76 0 153
-0.350366 -0.715107 0.321431 0 0 255
0.108593 0.240821 0.312943 255 0 0
-0.286472 -0.801663 0.221767 153 0 76
-0.367301 -0.569416 -0.099267 76 0 153
-0.367301 -0.458482 -0.071153 76 0 153
-0.171838 0.532660 0.267359 255 0 0
-0.354028 0.203307 0.287936 0 0 255
-0.326373 0.699524 0.324031 255 0 0
0.030474 0.830349 0.154340 76 0 153
-0.077059 0.621384 -0.441568 76 0 153
-0.259316 -0.721154 0.330324 0 0 255
-0.367301 0.101839 -0.037383 76 0 153
-0.334172 0.786354 0.282284 255 0 0
0.144610 0.094403 -0.441568 76 0 153
0.341625 0.039033 0.210479 76 0 153
0.341625 0.161669 -0.147760 76 0 153
-0.315976 -0.774064 -0.211076 76 0 153
0.010227 -0.109804 0.340264 0 0 255
0.223913 0.212256 -0.441568 76 0 153
-0.007046 -0.774064 -0.055190 76 0 153
0.068444 -0.119268 -0.441568 76 0 153
-0.159870 -0.774064 -0.346203 76 0 153
0.052594 0.358682 0.267359 255 0 0
0.095537 0.393595 0.282284 255 0 0
-0.143596 -0.569295 0.267359 0 0 255
0.341625 0.750967 -0.413618 76 0 153
0.341625 -0.423075 0.218263 76 0 153
0.043907 -0.197756 -0.441568 76 0 153
0.341625 0.194663 0.092336 76 0 153
0.184679 -0.774064 0.141379 76 0 153
-0.117220 0.169282 0.267359 0 0 255
-0.261284 0.042402 0.282284 0 0 255
0.098437 0.550169 0.338377 255 0 0
-0.115847 0.830349 0.168753 76 0 153
-0.203770 -0.443905 -0.441568 76 0 153
0.341625 0.640341 0.118063 76 0 153
-0.367301 -0.014225 -0.214801 76 0 153
0.180810 0.830349 -0.109334 76 0 153
0.220596 -0.774064 -0.072374 76 0 153
-0.266750 -0.538937 0.267359 0 0 255
-0.367301 0.293894 0.149978 76 0 153
0.057831 0.830349 0.012059 76 0 153
-0.057618 -0.311484 -0.441568 76 0 153
0.341625 0.108871 -0.203022 76 0 153
0.255458 0.263126 -0.441568 76 0 153
0.341625 0.093985 0.206360 76 0 153
0.341625 0.160694 -0.354944 76 0 153
0.181025 0.682680 0.267359 255 0 0
0.248442 -0.774064 -0.259430 76 0 153
0.341625 -0.186873 0.100430 76 0 153
0.176735 -0.399879 0.334434 0 0 255
-0.159741 -0.239090 0.336767 0 0 255
-0.367301 0.444187 0.254066 76 0 153
0.341625 -0.592593 -0.114239 76 0 153
0.341625 0.577425 -0.352687 76 0 153
0.281680 -0.317211 0.267359 0 0 255
0.240220 0.729111 -0.441568 76 0 153
0.094129 0.796469 0.267359 255 0 0
0.341625 0.755501 0.201944 76 0 153
-0.284199 -0.774064 -0.156890 76 0 153
0.253832 0.057329 0.328536 0 0 255
-0.367301 -0.390344 -0.119012 76 0 153
-0.367301 -0.625881 -0.253091 76 0 153
0.228765 0.703709 0.330756 255 0 0
-0.364191 -0.000364 0.267359 76 0 153
0.341625 -0.364450 0.153802 76 0 153
0.233424 0.395038 0.330344 255 0 0
-0.351736 0.646770 0.321283 255 0 0
-0.156147 0.830349 -0.210901 76 0 153
0.341625 -0.289751 -0.350675 76 0 153
0.037744 -0.774064 0.157092 76 0 153
0.032318 0.688918 0.267359 255 0 0
-0.367301 -0.405671 -0.208186 76 0 153
-0.367301 -0.588542 0.266486 76 0 153
-0.202067 0.830349 -0.188425 76 0 153
0.119616 0.089618 0.282284 0 0 255
-0.342223 0.464452 0.267359 255 0 0
-0.135960 -0.774064 -0.270785 76 0 153
-0.150140 -0.774064 -0.389212 76 0 153
-0.367301 -0.622394 0.168368 76 0 153
-0.367301 -0.665652 0.132404 76 0 153
0.022031 -0.286414 0.340148 0 0 255
-0.056450 -0.226551 0.282284 0 0 255
-0.133553 -0.774064 0.182709 76 0 153
-0.189614 -0.072511 0.267359 0 0 255
-0.357219 0.116873 0.267359 76 0 153
0.080651 0.830349 -0.238444 76 0 153
-0.123628 -0.774064 -0.023178 76 0 153
-0.367301 0.071249 0.027871 76 0 153
-0.219983 0.017190 0.267359 0 0 255
-0.367301 0.356868 -0.270083 76 0 153
-0.046453 -0.390761 0.282284 0 0 255
-0.277290 0.398716 0.267359 255 0 0
0.341625 -0.437143 -0.386949 76 0 153
-0.193438 0.810645 0.335051 255 0 0
-0.092828 0.207881 0.267359 76 0 153
-0.367301 -0.566402 0.128539 76 0 153
0.341625 0.674484 -0.014390 76 0 153
-0.275108 -0.424620 0.328926 0 0 255
0.341625 0.710923 0.159620 76 0 153
-0.049992 0.436351 0.267359 255 0 0
0.036621 0.410980 0.282284 255 0 0
0.060202 -0.082103 0.267359 0 0 255
0.341625 0.299450 -0.260952 76 0 153
-0.367301 0.457845 -0.302719 76 0 153
-0.367301 0.757161 -0.314304 76 0 153
-0.112312 -0.122348 0.267359 0 0 255
-0.191611 0.807136 0.267359 255 0 0
-0.045945 -0.505279 0.267359 0 0 255
-0.367301 -0.652293 -0.176223 76 0 153
0.341625 0.207617 -0.324251 76 0 153
0.341625 -0.422038 -0.439559 76 0 153
-0.367301 -0.204110 0.249986 76 0 153
0.007466 -0.617427 0.340291 0 0 255
0.341625 0.505653 -0.058731 76 0 153
0.011148 0.830349 -0.061972 76 0 153
-0.367301 -0.590139 0.014609 76 0 153
-0.367301 -0.104325 -0.045174 76 0 153
-0.344265 -0.138265 0.282284 0 0 255
0.043815 0.135962 0.267359 0 0 255
0.236867 0.830349 0.029172 76 0 153
-0.367301 -0.468305 -0.243761 76 0 153
0.022420 -0.176670 0.340144 0 0 255
0.272329 0.643034 0.282284 255 0 0
0.164754 -0.465529 0.267359 0 0 255
0.341625 0.034736 0.030999 76 0 153
0.341625 -0.303846 -0.217130 76 0 153
0.268818 0.830349 0.071185 76 0 153
0.206411 -0.774064 -0.343935 76 0 153
0.341625 -0.635584 -0.331182 76 0 153
-0.296422 -0.158424 0.282284 0 0 255
0.215703 -0.755446 0.267359 0 0 255
0.313280 0.176384 0.322667 0 0 255
0.051334 0.725214 0.339763 255 0 0
0.267186 -0.119922 0.267359 0 0 255
0.104806 -0.774064 0.240298 76 0 153
-0.216653 -0.038342 0.267359 0 0 255
-0.300209 -0.020767 0.282284 0 0 255
-0.105967 -0.256510 0.267359 0 0 255
0.148906 0.201429 -0.441568 76 0 153
0.190281 0.830349 -0.262022 76 0 153
0.259533 -0.276191 0.282284 0 0 255
-0.087697 -0.015658 0.267359 0 0 255
0.339391 -0.571925 0.267359 76 0 153
0.269616 -0.021535 -0.441568 76 0 153
-0.367301 -0.581059 0.054721 76 0 153
0.271073 -0.697729 0.327010 0 0 255
0.041559 -0.276496 0.282284 0 0 255
0.107354 0.127922 -0.441568 76 0 153
0.127499 0.830349 -0.408204 76 0 153
0.245466 -0.018736 0.282284 0 0 255
0.217553 -0.310990 -0.441568 76 0 153
-0.111657 -0.774064 0.155132 76 0 153
0.341625 0.560444 0.085193 76 0 153
0.225341 0.167013 0.331059 0 0 255
0.065420 0.055977 0.267359 0 0 255
-0.185766 0.273393 -0.441568 76 0 153
-0.332311 0.830349 -0.286412 76 0 153
-0.138752 0.830349 -0.243638 76 0 153
-0.218739 0.830349 -0.401353 76 0 153
-0.041460 0.830349 0.314726 255 0 0
0.341625 -0.131142 -0.134057 76 0 153
-0.076259 0.830349 -0.127038 76 0 153
-0.367301 -0.051186 0.201403 76 0 153
-0.190079 0.413678 -0.441568 76 0 153
0.211031 0.001515 -0.441568 76 0 153
0.269880 0.671428 0.327115 255 0 0
-0.234642 -0.552977 0.282284 0 0 255
0.209120 0.534382 0.332206 255 0 0
-0.367301 0.357184 -0.031287 76 0 153
-0.097973 -0.407428 0.282284 0 0 255
0.116231 0.237366 -0.441568 76 0 153
0.341625 -0.150711 -0.299184 76 0 153
-0.236844 0.670336 0.282284 255 0 0
0.318382 0.063459 0.282284 0 0 255
-0.367301 0.301978 -0.111447 76 0 153
0.183200 -0.347036 0.282284 0 0 255
0.341625 -0.158736 -0.344772 76 0 153
-0.367301 0.351160 -0.341305 76 0 153
0.341625 -0.020378 0.099403 76 0 153
0.341625 -0.770537 -0.157072 76 0 153
-0.148738 0.830349 -0.363512 76 0 153
-0.017694 0.414329 0.340442 255 0 0
0.341625 0.789544 -0.377260 76 0 153
0.267059 0.240821 0.293059 255 0 0
0.270718 -0.254968 0.267359 0 0 255
0.234940 0.138618 0.282284 0 0 255
0.341625 -0.584684 -0.191573 76 0 153
-0.305151 0.595608 0.282284 255 0 0
-0.367301 0.398829 0.000371 76 0 153
0.105785 -0.077457 0.267359 0 0 255
0.341625 -0.672619 -0.115660 76 0 153
0.341625 0.342969 -0.433464 76 0 153
0.119217 0.363588 0.282284 255 0 0
-0.052057 0.244574 0.340105 255 0 0
0.171477 -0.774064 0.245088 76 0 153
0.145209 0.830349 0.087875 76 0 153
-0.367301 0.689961 -0.031597 76 0 153
-0.103071 -0.592473 -0.441568 76 0 153
-0.367301 -0.768551 0.040846 76 0 153
0.207232 0.559664 0.267359 255 0 0
0.053374 0.192347 -0.441568 76 0 153
-0.367301 0.337906 0.039047 76 0 153
-0.226271 0.830349 -0.135368 76 0 153
0.010401 -0.456068 -0.441568 76 0 153
0.170401 0.536643 -0.441568 76 0 153
0.341625 -0.237023 -0.364477 76 0 153
0.280874 -0.774064 -0.276849 76 0 153
-0.106602 0.830349 0.095271 76 0 153
0.195584 0.830349 0.140113 76 0 153
-0.259117 -0.774064 0.212192 76 0 153
0.341625 -0.501568 -0.355365 76 0 153
-0.367301 -0.028795 0.011603 76 0 153
-0.367301 0.618279 -0.083509 76 0 153
-0.341672 -0.422413 -0.441568 76 0 153
0.341625 -0.599908 0.202595 76 0 153
0.292006 0.016302 -0.441568 76 0 153
-0.034222 0.188382 0.270650 0 0 255
0.341625 0.009801 -0.024528 76 0 153
-0.367301 -0.293969 -0.422567 76 0 153
-0.165261 0.107651 0.267359 0 0 255
0.059639 0.487155 0.267359 255 0 0
0.008414 -0.252403 0.282284 0 0 255
-0.130048 -0.671881 0.282284 0 0 255
0.284358 0.011725 0.267359 0 0 255
-0.214293 -0.741909 0.333617 0 0 255
0.163529 0.352795 0.267359 255 0 0
-0.367301 0.167756 -0.273536 76 0 153
-0.367301 -0.119312 -0.418672 76 0 153
0.139234 0.682489 -0.441568 76 0 153
-0.367301 -0.465401 0.256816 76 0 153
0.128779 -0.009167 0.267359 0 0 255
0.341625 0.566200 -0.413137 76 0 153
-0.053145 0.674223 0.282284 255 0 0
-0.367301 -0.053467 -0.113506 76 0 153
-0.256862 0.461833 0.282284 255 0 0
0.078812 0.758408 0.282284 255 0 0
-0.315818 -0.788057 -0.386321 127 0 127
0.341625 0.226834 -0.424765 76 0 153
0.341625 -0.666029 -0.018599 76 0 153
0.071425 -0.657850 -0.441568 76 0 153
-0.367301 -0.608026 0.137170 76 0 153
0.193392 0.830349 -0.078235 76 0 153
0.044621 -0.774064 0.096215 76 0 153
0.341625 0.034568 -0.100842 76 0 153
-0.140423 0.471636 0.282284 255 0 0
0.235449 0.815425 0.269605 255 0 0
-0.304096 0.025166 0.282284 0 0 255
-0.323464 -0.198633 -0.441568 76 0 153
-0.367301 0.376911 0.263491 76 0 153
0.124038 -0.583817 -0.441568 76 0 153
-0.345364 -0.268144 0.267359 0 0 255
-0.011559 -0.774064 -0.107032 76 0 153
0.095955 0.830349 -0.161946 76 0 153
0.002366 0.109415 0.267359 0 0 255
-0.065629 -0.447226 0.267359 0 0 255
0.341625 0.372317 -0.070089 76 0 153
-0.086862 0.126713 0.282284 0 0 255
0.076707 -0.377006 -0.441568 76 0 153
-0.121267 0.082227 0.338460 0 0 255
-0.225999 -0.103060 0.282284 0 0 255
-0.367301 0.219147 -0.006402 76 0 153
-0.221519 0.063418 0.267359 0 0 255
0.281429 -0.428211 0.282284 0 0 255
-0.302783 0.203307 0.311073 0 0 255
0.294467 -0.121288 0.324706 0 0 255
-0.150926 0.362886 0.267359 255 0 0
0.224962 0.559888 0.331093 255 0 0
-0.367301 0.059883 -0.234938 76 0 153
0.341625 0.228276 0.192850 76 0 153
-0.223937 0.354708 -0.441568 76 0 153
-0.367301 0.610727 -0.313381 76 0 153
-0.252758 -0.138828 0.282284 0 0 255
0.126738 -0.774064 -0.096117 76 0 153
0.177540 0.710407 0.267359 255 0 0
0.042488 -0.163555 0.282284 0 0 255
-0.367301 0.390291 0.078281 76 0 153
0.041905 0.615777 0.282284 255 0 0
-0.141359 0.826925 0.337670 255 0 0
-0.278258 -0.666835 -0.441568 76 0 153
-0.155005 -0.183079 0.282284 0 0 255
-0.367301 0.158886 0.130078 76 0 153
-0.026174 -0.139363 0.340359 0 0 255
0.083167 0.277259 -0.441568 76 0 153
0.213702 -0.355178 0.282284 0 0 255
0.132922 0.365833 0.336823 255 0 0
0.341625 0.043561 -0.296727 76 0 153
-0.367301 0.371608 0.174427 76 0 153
0.288230 0.830349 -0.232980 76 0 153
-0.342065 0.228959 0.267359 76 0 153
0.341625 0.367878 0.015345 76 0 153
-0.174383 0.611716 0.336048 255 0 0
-0.153404 0.749473 0.267359 255 0 0
-0.024292 -0.633832 -0.441568 76 0 153
-0.241924 0.609143 0.282284 255 0 0
-0.010714 0.247081 0.282284 255 0 0
0.052772 0.671875 -0.441568 76 0 153
0.262977 -0.148475 0.267359 0 0 255
-0.367301 0.668472 -0.254746 76 0 153
0.276405 -0.391319 -0.441568 76 0 153
-0.283115 -0.681325 0.267359 0 0 255
-0.208419 0.586402 0.334021 255 0 0
-0.048694 0.074987 -0.441568 76 0 153
0.175649 -0.774064 0.040661 76 0 153
-0.275003 -0.774064 -0.316016 76 0 153
-0.367301 0.136212 -0.239695 76 0 153
-0.230342 -0.324111 0.267359 0 0 255
0.341625 0.252962 -0.203568 76 0 153
0.298812 0.830349 -0.344511 76 0 153
-0.014057 0.109390 0.340478 0 0 255
-0.139122 0.830349 0.052773 76 0 153
0.341625 -0.747153 -0.118758 76 0 153
0.341625 0.799474 0.097592 76 0 153
-0.367301 -0.651590 -0.103060 76 0 153
-0.202044 -0.774064 0.027386 76 0 153
-0.316279 -0.137395 0.282284 0 0 255
-0.367301 -0.321032 0.008734 76 0 153
-0.086758 -0.617738 0.339476 0 0 255
-0.004794 -0.698680 0.282284 0 0 255
0.341625 -0.060098 0.092787 76 0 153
0.306868 0.036642 0.267359 0 0 255
-0.185188 -0.153160 0.335517 0 0 255
0.230119 -0.636004 0.282284 0 0 255
0.034318 -0.774064 -0.162713 76 0 153
0.010291 0.294266 0.282284 255 0 0
-0.367301 0.116078 -0.408800 76 0 153
0.307390 -0.369014 0.323306 0 0 255
-0.207139 -0.255581 0.267359 0 0 255
-0.367301 -0.141944 -0.437512 76 0 153
-0.367301 -0.058496 -0.258120 76 0 153
-0.156172 -0.771709 0.282284 0 0 255
0.112477 -0.699265 0.282284 0 0 255
0.030195 0.117412 0.340068 0 0 255
-0.154916 -0.774064 0.222391 76 0 153
-0.340169 -0.774064 0.177007 76 0 153
-0.367301 0.733618 -0.364710 76 0 153
-0.048510 -0.759139 0.279355 0 0 255
0.130954 0.321095 0.267359 255 0 0
0.128492 -0.743601 0.337041 0 0 255
-0.367301 0.569354 0.125225 76 0 153
0.341625 0.298084 0.249153 76 0 153
-0.191492 -0.774064 0.220240 76 0 153
-0.176471 0.830349 -0.263202 76 0 153
-0.340330 0.330603 0.267359 255 0 0
-0.367301 0.676208 0.080244 76 0 153
0.170854 0.642907 -0.441568 76 0 153
0.105090 -0.119792 0.267359 0 0 255
-0.233441 0.766719 0.282284 255 0 0
-0.051797 -0.564161 0.282284 0 0 255
0.341625 0.569012 0.298342 255 0 0
0.102453 -0.492426 0.267359 0 0 255
-0.367301 0.267263 0.200699 76 0 153
0.297460 0.540958 -0.441568 76 0 153
-0.083221 0.830349 0.013747 76 0 153
0.049744 0.272500 0.339810 255 0 0
-0.144471 0.111820 -0.441568 76 0 153
0.069235 -0.774064 0.017825 76 0 153
0.108404 -0.363389 0.338027 0 0 255
0.341625 0.782572 0.299954 255 0 0
0.044679 -0.469105 0.339926 0 0 255
-0.240967 -0.456361 0.282284 0 0 255
-0.367301 -0.486297 -0.203868 76 0 153
-0.180526 -0.531582 0.267359 0 0 255
-0.367301 0.447008 0.119206 76 0 153
-0.367301 0.651708 -0.037880 76 0 153
0.183643 0.614358 0.267359 255 0 0
-0.193973 -0.575039 0.267359 0 0 255
-0.101463 -0.143772 0.339043 0 0 255
-0.228733 0.045979 -0.441568 76 0 153
-0.367301 0.341210 -0.097997 76 0 153
0.115855 0.328736 0.337661 255 0 0
0.315040 0.830349 -0.165766 76 0 153
0.022380 0.811476 0.282284 255 0 0
0.264246 -0.774064 -0.058550 76 0 153
-0.367301 0.128529 0.302330 0 0 255
-0.367301 -0.353669 -0.237732 76 0 153
-0.270878 0.828559 0.267359 76 0 153
-0.235480 -0.386276 0.267359 0 0 255
0.215989 -0.223497 0.267359 0 0 255
-0.367301 -0.488833 0.242580 76 0 153
-0.293681 0.186954 0.267359 0 0 255
0.341625 0.698445 0.286718 255 0 0
-0.218651 0.497291 -0.441568 76 0 153
-0.367301 0.157504 -0.188565 76 0 153
0.083406 0.830349 0.023600 76 0 153
0.341625 -0.657432 0.316852 0 0 255
-0.211065 -0.774064 -0.082360 76 0 153
0.204247 0.088701 0.332541 0 0 255
-0.083913 0.203307 0.331209 0 0 255
-0.367301 0.062086 -0.078594 76 0 153
0.341625 0.371418 -0.186551 76 0 153
-0.367301 -0.227420 -0.304283 76 0 153
-0.130462 -0.444404 0.282284 0 0 255
0.341625 0.732688 -0.039797 76 0 153
-0.275224 -0.173473 0.328916 0 0 255
-0.248351 -0.591645 0.282284 0 0 255
-0.295517 0.830349 0.122179 76 0 153
0.001710 0.752094 -0.441568 76 0 153
-0.356686 -0.408830 0.282284 0 0 255
0.341625 0.808347 0.005061 76 0 153
0.070961 -0.184344 0.267359 0 0 255
-0.362812 -0.589497 -0.441568 76 0 153
-0.284585 0.105206 0.267359 0 0 255
-0.351610 0.830349 0.177771 76 0 153
-0.059139 0.609258 0.267359 255 0 0
-0.367301 -0.127010 -0.298203 76 0 153
0.175446 0.240821 0.300322 255 0 0
-0.367301 0.172391 -0.216901 76 0 153
-0.126319 0.139515 0.282284 0 0 255
0.341625 0.312427 -0.037047 76 0 153
-0.140330 -0.534400 0.337720 0 0 255
-0.215819 -0.759139 0.271012 0 0 255
0.337717 0.678144 0.320019 255 0 0
0.069030 0.830349 -0.309180 76 0 153
0.295414 0.830349 -0.104341 76 0 153
0.321970 0.753778 0.267359 255 0 0
0.341625 -0.718865 -0.251917 76 0 153
-0.316792 -0.774064 -0.141217 76 0 153
-0.367301 -0.234490 0.150946 76 0 153
0.136571 -0.416228 0.267359 0 0 255
-0.001027 -0.343510 0.340374 0 0 255
-0.261429 -0.561022 0.330137 0 0 255
0.267867 0.728209 0.267359 255 0 0
0.341625 0.530050 0.221284 76 0 153
0.160022 -0.182096 0.335492 0 0 255
0.310443 -0.479377 0.282284 0 0 255
0.189735 -0.557401 0.282284 0 0 255
-0.367301 0.424089 -0.095334 76 0 153
-0.367301 -0.059746 0.141521 76 0 153
0.322352 -0.507751 0.267359 0 0 255
-0.336413 0.275176 0.322943 255 0 0
0.341625 0.149642 -0.201923 76 0 153
-0.186930 -0.625980 0.335431 0 0 255
-0.015793 0.215087 -0.441568 76 0 153
-0.328570 0.587118 -0.441568 76 0 153
-0.295448 -0.830778 0.193561 153 0 76
-0.163573 -0.483155 0.267359 0 0 255
-0.175770 0.284142 0.282284 255 0 0
-0.004495 -0.187646 0.340408 0 0 255
0.134574 -0.295504 0.336742 0 0 255
-0.367301 0.676321 0.230284 76 0 153
-0.052662 -0.611795 0.267359 0 0 255
-0.367301 0.784095 0.149849 76 0 153
-0.037894 0.827565 0.267359 76 0 153
-0.209660 0.043081 0.282284 0 0 255
-0.340685 -0.201884 0.322480 0 0 255
0.341625 -0.017340 0.136724 76 0 153
-0.342498 -0.774064 0.009382 76 0 153
0.111008 0.573805 0.267359 255 0 0
-0.124829 0.273358 0.282284 255 0 0
0.341625 0.193880 -0.088799 76 0 153
-0.201727 -0.477808 0.267359 0 0 255
0.294705 -0.737000 0.267359 0 0 255
0.224288 -0.342915 0.331152 0 0 255
0.167166 0.651731 0.267359 255 0 0
-0.012564 -0.121847 -0.441568 76 0 153
0.050541 0.830349 0.194294 76 0 153
0.341625 0.501881 -0.423437 76 0 153
-0.367301 -0.476320 -0.303753 76 0 153
-0.132350 0.302302 0.267359 255 0 0
0.341625 -0.728961 0.060654 76 0 153
0.182949 0.830349 -0.215110 76 0 153
0.341625 -0.378759 0.185388 76 0 153
0.160900 0.066899 0.267359 0 0 255
0.113473 0.413398 -0.441568 76 0 153
-0.081583 0.379018 -0.441568 76 0 153
0.246343 0.040974 0.282284 0 0 255
0.261041 -0.774064 -0.119950 76 0 153
0.064143 0.387961 0.282284 255 0 0
-0.163629 -0.337182 -0.441568 76 0 153
-0.367301 0.767495 -0.342931 76 0 153
0.088928 0.249066 0.338656 255 0 0
0.341625 0.244345 0.309376 255 0 0
0.117745 -0.671858 -0.441568 76 0 153
0.341625 -0.401405 0.068593 76 0 153
-0.367301 -0.358829 -0.034292 76 0 153
-0.244646 -0.774064 -0.029417 76 0 153
0.138488 -0.082346 -0.441568 76 0 153
0.341625 0.607573 -0.087882 76 0 153
-0.307826 0.143886 -0.441568 76 0 153
0.341625 -0.466020 0.139681 76 0 153
-0.068570 0.704907 0.282284 255 0 0
-0.234117 0.616229 0.332253 255 0 0
-0.367301 -0.241044 0.293311 0 0 255
-0.367301 -0.633015 0.261395 76 0 153
0.030961 -0.416122 0.282284 0 0 255
0.198898 0.247100 0.332909 255 0 0
-0.367301 -0.500804 0.293595 0 0 255
-0.201141 -0.617327 -0.441568 76 0 153
-0.286030 -0.399807 0.282284 0 0 255
-0.111589 0.616771 0.338745 255 0 0
0.271462 -0.349125 0.267359 0 0 255
0.236695 -0.772748 0.282284 0 0 255
-0.337699 0.830349 0.029136 76 0 153
0.013514 -0.419014 -0.441568 76 0 153
0.341625 0.243852 0.115625 76 0 153
-0.367301 -0.510305 -0.045450 76 0 153
-0.202756 0.830349 0.017416 76 0 153
0.323368 0.074744 -0.441568 76 0 153
0.341625 -0.697444 0.070337 76 0 153
-0.367301 0.647115 -0.150329 76 0 153
0.341625 -0.009077 0.209496 76 0 153
-0.367301 0.112751 0.089973 76 0 153
-0.367301 -0.537464 0.090169 76 0 153
-0.367301 -0.652585 -0.307611 76 0 153
-0.219580 0.259983 0.282284 255 0 0
-0.352982 -0.682794 -0.441568 76 0 153
-0.367301 0.059951 -0.438752 76 0 153
-0.367301 -0.366524 -0.262654 76 0 153
0.275904 -0.765683 0.326582 0 0 255
0.341625 -0.612155 0.026738 76 0 153
-0.367301 0.253202 0.073375 76 0 153
0.006743 -0.313654 0.267359 0 0 255
-0.191254 -0.286009 0.282284 0 0 255
0.341625 0.561502 0.026483 76 0 153
-0.260940 0.623625 0.267359 255 0 0
-0.367301 0.436195 0.183855 76 0 153
-0.127532 0.331273 -0.441568 76 0 153
-0.101724 -0.774064 0.101296 76 0 153
0.341625 -0.304996 -0.284529 76 0 153
-0.367301 0.539877 -0.215281 76 0 153
0.245451 -0.586612 -0.441568 76 0 153
0.109492 0.801557 0.337974 255 0 0
0.207916 -0.038094 0.282284 0 0 255
0.200532 -0.571459 -0.441568 76 0 153
0.317263 0.830349 -0.248867 76 0 153
-0.102273 0.502261 0.267359 255 0 0
-0.367301 0.253682 0.258413 76 0 153
0.172227 -0.055719 0.282284 0 0 255
0.162319 -0.746904 0.282284 0 0 255
-0.070325 0.693500 -0.441568 76 0 153
0.028664 -0.774064 0.257492 76 0 153
0.260431 0.830349 -0.365713 76 0 153
-0.309243 0.498702 0.282284 255 0 0
-0.280771 0.310360 0.328425 255 0 0
-0.141796 -0.258377 0.282284 0 0 255
-0.133605 -0.082686 -0.441568 76 0 153
-0.156136 -0.657322 -0.441568 76 0 153
-0.152915 0.025469 0.267359 0 0 255
-0.367301 -0.081367 -0.178395 76 0 153
0.341625 -0.349337 0.108502 76 0 153
0.300939 0.460574 0.267359 255 0 0
-0.052953 0.110527 0.340096 0 0 255
0.088271 -0.774064 0.295036 0 0 255
0.087266 -0.265186 0.282284 0 0 255
0.292919 0.309505 0.267359 255 0 0
0.341625 0.608903 0.002936 76 0 153
-0.174993 -0.401513 0.336018 0 0 255
0.306850 0.830349 -0.283242 76 0 153
-0.255044 -0.463522 -0.441568 76 0 153
0.076355 0.830349 -0.201739 76 0 153
-0.232553 0.180099 0.332361 0 0 255
-0.367301 0.712110 0.263494 76 0 153
0.341625 -0.237553 0.095586 76 0 153
-0.367301 -0.434319 -0.037406 76 0 153
0.341625 0.651257 0.056017 76 0 153
0.341625 -0.187936 0.127246 76 0 153
0.020961 0.757014 0.282284 255 0 0
-0.367301 -0.180768 0.097749 76 0 153
0.184884 0.803012 0.282284 255 0 0
-0.206207 0.830349 -0.047084 76 0 153
0.136187 -0.436184 0.336663 0 0 255
-0.355919 -0.751518 0.320829 0 0 255
-0.035599 0.830349 0.128459 76 0 153
-0.331086 -0.589121 0.323520 0 0 255
-0.367301 0.352247 0.096793 76 0 153
-0.221904 0.385630 0.333093 255 0 0
0.247572 0.830349 0.124586 76 0 153
0.086548 -0.374430 0.267359 0 0 255
0.341625 0.745493 0.163018 76 0 153
0.341625 0.202809 -0.207712 76 0 153
0.341625 -0.066287 -0.129179 76 0 153
0.341625 0.237134 -0.245733 76 0 153
-0.007332 -0.070049 0.282284 0 0 255
0.015346 0.615237 -0.441568 76 0 153
0.129222 0.293058 0.337005 255 0 0
-0.367301 0.587352 -0.428637 76 0 153
-0.166508 0.530253 0.336434 255 0 0
0.077948 0.377023 -0.441568 76 0 153
0.307557 0.830349 -0.213344 76 0 153
-0.367301 0.213549 -0.412106 76 0 153
-0.352381 0.136983 -0.441568 76 0 153
-0.079128 -0.774064 0.031968 76 0 153
0.341625 -0.630311 -0.100127 76 0 153
-0.099006 -0.261990 -0.441568 76 0 153
0.006106 0.830349 -0.287057 76 0 153
0.225298 -0.068645 -0.441568 76 0 153
-0.280399 0.676635 0.282284 255 0 0
0.156335 0.770067 0.282284 255 0 0
0.154610 -0.774064 -0.308716 76 0 153
-0.274412 -0.710152 0.282284 0 0 255
-0.069216 0.808672 0.282284 255 0 0
0.264394 0.573265 0.282284 255 0 0
0.317812 0.605240 0.322176 255 0 0
-0.137621 0.171711 0.337853 0 0 255
0.020056 -0.627242 0.282284 0 0 255
-0.031496 -0.024596 0.282284 0 0 255
0.044419 0.076451 0.339928 0 0 255
-0.367301 0.767863 -0.012128 76 0 153
-0.273853 0.717744 0.282284 255 0 0
-0.367301 0.731214 0.077971 76 0 153
0.153301 -0.327296 -0.441568 76 0 153
-0.367301 -0.434201 -0.257324 76 0 153
0.119555 -0.774064 0.036853 76 0 153
0.305107 -0.379893 -0.441568 76 0 153
0.143238 0.041696 0.267359 0 0 255
-0.086011 -0.638329 0.267359 0 0 255
0.300574 0.079952 0.324044 0 0 255
-0.096557 0.093270 0.267359 0 0 255
-0.310161 -0.297476 0.325788 0 0 255
-0.133156 0.609453 -0.441568 76 0 153
0.243039 0.830349 -0.429369 76 0 153
-0.114763 0.043025 -0.441568 76 0 153
-0.367301 -0.018517 0.225108 76 0 153
-0.238755 0.085037 -0.441568 76 0 153
-0.136911 0.656420 0.282284 255 0 0
-0.078604 -0.503758 0.339716 0 0 255
-0.259532 -0.105583 -0.441568 76 0 153
0.015665 0.530941 0.340210 255 0 0
-0.093122 0.830349 -0.309147 76 0 153
-0.367301 -0.618398 -0.146875 76 0 153
0.291590 -0.191139 0.267359 0 0 255
0.341625 -0.105144 -0.305962 76 0 153
0.225683 0.830349 0.304429 255 0 0
0.318232 0.830349 0.198506 76 0 153
0.341625 -0.607705 0.090975 76 0 153
-0.296360 -0.219041 0.327044 0 0 255
0.341625 -0.285907 -0.155711 76 0 153
0.045453 -0.059689 -0.441568 76 0 153
-0.277505 -0.042646 0.328714 0 0 255
0.156172 0.162899 0.335681 0 0 255
-0.003350 0.115512 -0.441568 76 0 153
0.100164 0.245761 0.282284 255 0 0
0.268590 -0.774064 0.027472 76 0 153
-0.367301 -0.569093 -0.236285 76 0 153
0.278442 0.646496 -0.441568 76 0 153
-0.020912 -0.756546 0.282284 0 0 255
0.261653 -0.508195 -0.441568 76 0 153
0.313026 -0.530343 0.282284 0 0 255
-0.367301 0.320200 0.146185 76 0 153
0.042914 -0.774064 -0.369174 76 0 153
-0.367301 -0.574099 -0.393859 76 0 153
-0.026062 -0.227426 0.282284 0 0 255
0.052240 0.177358 0.282284 0 0 255
0.341625 0.430261 -0.000266 76 0 153
0.341625 0.282661 -0.199666 76 0 153
0.041525 0.241560 -0.441568 76 0 153
-0.367301 0.589448 -0.022786 76 0 153
-0.305384 0.655046 0.326245 255 0 0
-0.367301 0.370295 -0.408198 76 0 153
-0.234908 0.534574 0.267359 255 0 0
-0.222704 0.830349 -0.238871 76 0 153
0.273557 0.830349 0.112732 76 0 153
0.341625 0.541598 0.192891 76 0 153
0.341625 -0.048934 -0.061003 76 0 153
-0.367301 -0.547528 0.195147 76 0 153
-0.299623 -0.004602 -0.441568 76 0 153
-0.001120 0.830349 -0.181222 76 0 153
-0.152988 0.230040 0.267359 76 0 153
0.267325 0.830349 0.027868 76 0 153
0.341625 0.206665 -0.150525 76 0 153
0.055233 -0.223129 0.339648 0 0 255
0.074113 -0.494592 0.339093 0 0 255
-0.332823 -0.485694 0.323332 0 0 255
0.341625 -0.364048 -0.009317 76 0 153
0.157722 0.516586 0.282284 255 0 0
0.112016 -0.602052 0.282284 0 0 255
-0.077605 0.799790 -0.441568 76 0 153
-0.251862 0.098109 0.330985 0 0 255
0.341625 -0.203396 -0.049486 76 0 153
0.341625 -0.064548 -0.427591 76 0 153
0.341625 0.266668 0.157790 76 0 153
0.159145 -0.018712 -0.441568 76 0 153
-0.316942 -0.774064 -0.083696 76 0 153
0.337910 -0.711184 0.267359 76 0 153
-0.254834 -0.774064 0.321765 0 0 255
-0.021603 0.509204 0.340404 255 0 0
0.216114 0.010194 0.331725 0 0 255
0.341625 -0.243530 -0.002701 76 0 153
0.341625 0.395245 -0.416387 76 0 153
0.280705 0.099579 0.282284 0 0 255
-0.156621 0.383985 0.282284 255 0 0
-0.033035 -0.290554 0.267359 0 0 255
-0.217619 -0.774064 -0.008818 76 0 153
0.129485 0.362843 -0.441568 76 0 153
-0.335996 -0.322610 0.267359 0 0 255
-0.367301 0.006618 0.295461 0 0 255
0.112845 0.830349 -0.096410 76 0 153
0.321331 -0.400717 0.282284 0 0 255
-0.367301 0.782539 -0.167657 76 0 153
-0.240801 -0.508509 -0.441568 76 0 153
0.341625 -0.228079 0.047490 76 0 153
0.119411 0.168407 0.282284 0 0 255
0.044536 0.540849 0.339927 255 0 0
0.174832 -0.230753 0.267359 0 0 255
-0.293879 0.830349 0.250581 76 0 153
-0.130072 0.830349 0.243832 76 0 153
0.093377 0.639812 0.282284 255 0 0
-0.367301 -0.755009 0.148335 76 0 153
-0.213383 0.805000 0.282284 255 0 0
-0.027722 0.493170 -0.441568 76 0 153
-0.367301 -0.623850 -0.051265 76 0 153
-0.076100 -0.174015 -0.441568 76 0 153
-0.057020 0.576199 0.267359 255 0 0
0.167718 -0.037121 0.335054 0 0 255
0.098649 0.767128 -0.441568 76 0 153
0.202620 0.830349 0.321082 255 0 0
-0.196965 -0.294769 0.334809 0 0 255
0.341625 -0.604219 -0.410869 76 0 153
-0.342329 0.830349 0.152175 76 0 153
-0.136749 -0.136794 0.267359 0 0 255
-0.367301 -0.415384 -0.419031 76 0 153
-0.367301 -0.751060 -0.339660 76 0 153
0.000405 0.717088 0.282284 255 0 0
0.178614 -0.255431 0.282284 0 0 255
0.340167 -0.692493 -0.441568 76 0 153
0.243164 -0.669096 -0.441568 76 0 153
-0.367301 -0.145977 -0.268157 76 0 153
0.341625 0.479930 -0.367495 76 0 153
0.221574 0.531068 -0.441568 76 0 153
0.341625 -0.692952 -0.148430 76 0 153
0.341625 -0.033233 -0.202402 76 0 153
-0.352645 0.162009 0.282284 0 0 255
-0.103652 -0.718948 0.267359 0 0 255
0.308332 -0.264495 0.267359 0 0 255
-0.246359 0.258631 -0.441568 76 0 153
0.341625 -0.457386 0.060013 76 0 153
-0.135146 -0.307429 0.267359 0 0 255
-0.276552 0.766815 0.267359 255 0 0
-0.171643 -0.371236 -0.441568 76 0 153
0.137463 -0.774064 -0.356384 76 0 153
-0.334045 0.364126 0.323200 255 0 0
0.130951 -0.758236 0.267359 0 0 255
0.058726 -0.659631 0.339545 0 0 255
-0.116754 -0.395237 0.267359 0 0 255
0.341625 0.510045 0.311168 255 0 0
-0.238434 -0.583639 -0.441568 76 0 153
-0.367301 0.025281 -0.165670 76 0 153
-0.260001 -0.774064 -0.428750 76 0 153
-0.273488 -0.100785 0.267359 0 0 255
-0.071974 0.054709 0.339910 0 0 255
0.341625 0.283397 0.194910 76 0 153
-0.239359 -0.061832 0.282284 0 0 255
-0.071948 -0.198671 0.267359 0 0 255
-0.276092 -0.774064 -0.095528 76 0 153
-0.095301 0.643970 0.282284 255 0 0
0.341625 0.152612 -0.258328 76 0 153
-0.305853 0.089160 0.326203 0 0 255
0.000372 -0.508961 0.267359 0 0 255
-0.071420 0.435207 0.339915 255 0 0
-0.240941 0.530650 -0.441568 76 0 153
0.130107 0.180542 0.336961 0 0 255
-0.141139 -0.774064 0.036843 76 0 153
0.066631 0.830349 -0.412245 76 0 153
0.328733 0.365390 0.282284 255 0 0
-0.367301 -0.597930 -0.305095 76 0 153
0.165048 -0.610186 0.267359 0 0 255
-0.315271 0.802146 -0.441568 76 0 153
0.341625 -0.488204 0.097633 76 0 153
-0.305107 -0.591263 0.326270 0 0 255
-0.277669 -0.575654 0.267359 0 0 255
0.317101 0.772041 -0.441568 76 0 153
-0.367301 0.512808 -0.366497 76 0 153
-0.333636 0.749840 0.267359 255 0 0
0.341625 0.138462 0.169858 76 0 153
0.026039 -0.495338 0.340109 0 0 255
-0.066350 0.344056 0.282284 255 0 0
0.341625 0.509522 0.241956 76 0 153
0.280801 0.443710 0.282284 255 0 0
0.320980 0.505607 0.282284 255 0 0
0.341625 -0.516043 -0.074912 76 0 153
-0.142509 -0.012235 0.337613 0 0 255
0.341625 0.657788 -0.043029 76 0 153
-0.324248 0.560610 0.267359 255 0 0
-0.312611 -0.297134 -0.441568 76 0 153
-0.221988 -0.722206 -0.441568 76 0 153
0.267291 -0.830778 0.203013 76 153 0
0.242089 -0.774064 -0.008381 76 0 153
0.038199 -0.580600 -0.441568 76 0 153
0.341625 0.262826 -0.038763 76 0 153
-0.135311 -0.774064 -0.063149 76 0 153
-0.280912 0.541887 -0.441568 76 0 153
0.270944 0.130320 0.327021 0 0 255
-0.279163 0.016895 0.328567 0 0 255
0.341625 -0.687070 -0.293066 76 0 153
0.301262 -0.774064 0.243128 76 0 153
-0.367301 0.214635 0.192000 76 0 153
-0.367301 -0.269839 -0.085644 76 0 153
-0.072565 -0.715342 -0.441568 76 0 153
0.341625 -0.633626 0.048102 76 0 153
0.341625 0.529418 0.160367 76 0 153
-0.290497 0.830349 -0.165457 76 0 153
0.249177 -0.730379 -0.441568 76 0 153
0.086339 -0.035828 -0.441568 76 0 153
0.341625 -0.718380 0.112206 76 0 153
0.341625 -0.232231 -0.311892 76 0 153
0.341625 -0.621158 -0.231192 76 0 153
-0.213478 -0.359882 0.333673 0 0 255
0.341625 0.464113 0.126699 76 0 153
-0.224670 0.830349 0.313001 255 0 0
0.341625 0.381790 0.224528 76 0 153
-0.147399 -0.726949 0.337373 0 0 255
-0.367301 -0.152207 0.182829 76 0 153
-0.367301 -0.513518 0.232300 76 0 153
-0.266369 -0.774064 -0.276510 76 0 153
-0.367301 -0.595543 0.236497 76 0 153
0.109144 0.830349 -0.001830 76 0 153
-0.123662 0.093636 0.267359 0 0 255
0.341625 -0.547922 -0.143786 76 0 153
-0.228446 -0.774064 0.047668 76 0 153
0.341625 -0.611061 0.286049 0 0 255
-0.367301 -0.692527 -0.373644 76 0 153
