ply
format ascii 1.0
element vertex 1263
property float x
property float y
property float z
property uchar red
property uchar green
property uchar blue
end_header
0.406381 -0.587771 -0.420737 0 255 0
0.418988 0.164269 -0.411603 127 0 127
0.628399 -0.490308 0.173697 127 127 0
0.108118 0.635795 0.428694 255 0 0
-0.315714 -0.272750 -0.411603 127 0 127
0.599069 -0.377772 -0.097135 153 76 0
-0.651400 0.672599 -0.306206 127 127 0
-0.285714 -0.396040 0.021284 153 76 0
-0.641181 -0.011137 0.232069 127 127 0
-0.654881 0.372416 0.071426 127 127 0
0.642099 -0.232610 -0.243574 0 255 0
0.642099 0.293815 0.138174 0 255 0
0.628399 -0.057619 0.002461 0 255 0
-0.654881 -0.567585 -0.240350 0 127 127
-0.578405 -0.377772 0.054957 153 76 0
-0.378665 0.138280 -0.147714 76 0 153
0.642099 0.616197 0.242119 0 255 0
0.212526 -0.368639 0.407943 0 0 255
0.628399 0.485724 -0.126295 0 255 0
-0.346723 0.457801 0.445249 76 153 0
0.628399 0.561332 0.195514 0 255 0
-0.284095 0.531350 0.445249 76 153 0
-0.641181 0.406317 0.163012 127 127 0
-0.641181 0.181226 -0.301794 127 127 0
-0.522993 0.188460 0.445249 76 153 0
-0.628717 -0.583448 -0.448138 0 255 0
0.628399 0.637363 -0.167026 0 255 0
-0.447432 0.139227 -0.420737 127 0 127
-0.654881 0.231831 -0.420167 127 127 0
-0.641181 -0.047195 -0.425164 127 0 127
0.628399 0.204784 -0.114475 0 255 0
0.047163 -0.094903 0.401293 153 0 76
0.508287 0.346692 -0.420737 127 0 127
0.207619 -0.394946 -0.448138 0 255 0
0.266081 -0.005329 0.445249 204 51 127
0.263709 0.138280 -0.271489 76 0 153
0.173394 -0.396040 -0.216418 153 76 0
0.315043 0.658898 0.446486 204 51 127
0.039865 0.138280 -0.034456 76 0 153
0.200822 -0.377772 -0.346614 153 76 0
-0.061193 -0.361135 0.405022 153 0 76
0.315072 -0.396040 -0.067059 153 76 0
0.102355 0.653069 -0.448138 153 0 76
-0.504767 -0.408673 0.453326 76 153 0
-0.543541 -0.553597 0.300823 127 0 127
0.628399 0.534666 -0.336046 0 255 0
0.580185 0.041461 0.428694 204 51 127
-0.218966 -0.377772 0.018923 153 76 0
-0.637071 0.095327 0.401293 127 127 0
0.278196 0.661691 0.401293 255 0 0
-0.111847 0.053261 -0.411603 127 0 127
0.297931 -0.377772 0.107085 153 76 0
0.325277 0.011632 0.439540 204 51 127
-0.238329 -0.373757 0.428694 76 153 0
0.386628 -0.223599 -0.420737 127 0 127
-0.047214 0.033307 0.456095 76 153 0
-0.641181 0.428552 0.036284 127 127 0
-0.343048 -0.279532 0.439540 76 153 0
-0.641181 -0.406058 -0.431885 0 255 0
-0.470381 -0.396040 0.026378 153 76 0
-0.445580 -0.226084 -0.420737 127 0 127
-0.606534 -0.377772 -0.327809 153 76 0
-0.654881 -0.287202 0.286225 127 127 0
-0.273864 0.138280 -0.387584 76 0 153
-0.652664 -0.556799 -0.448138 0 127 127
-0.190973 -0.396040 0.381747 153 76 0
-0.417827 -0.280648 0.445249 76 153 0
-0.544256 0.110879 -0.116003 76 0 153
-0.641181 0.495661 0.177550 127 127 0
-0.631332 0.543363 -0.411603 127 0 127
0.642099 -0.094891 0.182295 0 255 0
0.321732 0.388255 -0.411603 127 0 127
0.628399 0.191941 -0.078490 0 255 0
-0.051860 -0.538931 0.300823 127 0 127
0.352771 0.138280 -0.166516 76 0 153
-0.096051 0.420644 0.428694 76 153 0
-0.654881 0.175764 -0.219867 127 127 0
0.206209 0.397476 -0.411603 127 0 127
0.642099 0.594525 -0.354368 0 255 0
0.058143 -0.377772 -0.386506 153 76 0
-0.173619 -0.396040 -0.111026 153 76 0
0.610369 -0.446761 -0.448138 0 255 0
-0.641181 -0.353065 -0.016305 127 127 0
0.276047 -0.396040 0.062773 153 76 0
-0.220829 0.500879 0.439540 76 153 0
0.116276 -0.396040 0.186376 153 76 0
0.263662 -0.377772 0.373588 153 76 0
0.099225 -0.377772 -0.143703 153 76 0
0.628399 -0.306779 -0.075649 0 255 0
0.543498 -0.305444 -0.420737 127 0 127
-0.140742 -0.329052 -0.411603 127 0 127
0.642099 -0.253081 -0.011807 0 255 0
0.651233 0.337603 0.411780 76 0 153
0.437449 0.597235 0.428694 204 51 127
0.628399 0.610976 0.043827 0 255 0
-0.065463 -0.392651 0.401293 153 76 0
0.433678 -0.377772 0.027352 153 76 0
-0.654881 -0.409850 0.254221 127 127 0
-0.654881 -0.369083 -0.081482 127 127 0
-0.005960 0.110879 -0.042278 76 0 153
-0.101879 0.138280 -0.042439 76 0 153
0.642099 -0.400436 0.248282 153 76 0
-0.204649 0.581431 0.453705 76 153 0
0.115736 -0.404809 0.401293 153 76 0
-0.316035 0.580302 -0.420737 127 0 127
-0.654881 0.184089 0.376688 127 127 0
-0.605289 0.645198 0.386992 255 0 0
-0.654881 0.064249 -0.286295 127 127 0
-0.654881 -0.582960 -0.157830 0 127 127
-0.641181 0.300075 -0.305316 127 127 0
-0.621628 0.111217 -0.000588 76 0 153
-0.270670 -0.384388 -0.411603 153 76 0
-0.029305 0.647150 -0.420737 153 0 76
0.450055 -0.377772 0.154718 153 76 0
-0.551999 0.047357 -0.420737 127 0 127
0.082133 -0.368639 0.419162 204 51 127
-0.654881 -0.333862 -0.420996 127 127 0
0.628399 0.443110 -0.214533 0 255 0
0.410151 0.623025 0.456095 204 51 127
0.628399 0.279205 0.037380 0 255 0
-0.581409 0.638542 0.428694 76 153 0
0.603784 0.379368 0.401293 76 0 153
0.159294 -0.069472 0.439540 204 51 127
-0.641181 0.283649 0.194955 127 127 0
0.477342 0.107167 -0.420737 127 0 127
0.208221 -0.396040 0.120135 153 76 0
-0.641181 0.377568 -0.072838 127 127 0
-0.406905 0.138280 -0.027309 76 0 153
0.569198 0.672599 -0.444526 153 0 76
0.628399 -0.341183 -0.081523 0 255 0
0.303470 -0.396040 0.074214 153 76 0
-0.115947 0.672455 -0.420737 153 0 76
-0.122754 0.110879 -0.290242 76 0 153
0.537364 -0.142485 0.439540 204 51 127
-0.641181 0.045108 0.011339 127 127 0
-0.641181 -0.134235 0.111301 127 127 0
0.588514 0.357373 0.428694 204 51 127
0.628399 -0.408651 -0.319701 0 255 0
-0.313201 -0.068457 0.445249 76 153 0
0.517927 0.129656 -0.420737 127 0 127
0.628399 0.192269 -0.215734 0 255 0
-0.654881 0.646520 -0.279785 127 127 0
-0.608804 -0.377772 0.005422 153 76 0
0.566553 -0.377772 -0.217740 153 76 0
-0.402518 0.133885 -0.420737 127 0 127
0.628399 0.226025 0.005309 0 255 0
0.642099 -0.584627 -0.070728 127 127 0
0.221631 -0.228178 -0.411603 127 0 127
-0.542762 0.138280 -0.353836 76 0 153
-0.654881 0.363464 -0.223713 127 127 0
0.497837 -0.088576 -0.420737 127 0 127
-0.654881 0.514211 -0.382370 127 127 0
0.628399 -0.561370 -0.379379 127 127 0
-0.180188 -0.295070 0.439540 76 153 0
-0.361999 0.363512 0.445249 76 153 0
-0.641181 -0.096147 0.031826 127 127 0
0.642099 -0.307962 -0.399380 0 255 0
0.642333 0.382252 0.401293 76 0 153
-0.481211 0.555055 0.445249 76 153 0
0.642099 0.659978 0.332985 0 255 0
0.261127 -0.396040 -0.279109 153 76 0
0.566360 0.040861 -0.411603 127 0 127
-0.194112 -0.377772 0.290261 153 76 0
-0.115433 -0.377772 -0.355385 153 76 0
0.642099 -0.053461 0.174350 0 255 0
-0.615040 -0.396040 -0.386985 153 76 0
-0.116952 -0.377772 -0.265537 153 76 0
0.417208 -0.396040 -0.153886 153 76 0
0.231109 -0.396040 0.151686 153 76 0
-0.600983 0.048401 -0.411603 127 0 127
-0.210785 0.110879 -0.241308 76 0 153
0.147107 -0.292535 -0.420737 127 0 127
0.468824 -0.489046 -0.448138 0 255 0
-0.621212 0.237686 0.401293 204 51 127
-0.654881 -0.299486 0.362786 127 127 0
-0.641181 0.040623 0.353980 127 127 0
-0.641181 0.132551 0.366158 127 127 0
-0.037918 -0.377772 -0.320729 153 76 0
-0.570688 0.432402 0.449076 76 153 0
-0.610086 0.456894 -0.411603 127 0 127
0.586247 0.110879 -0.063663 76 0 153
-0.641181 -0.284260 -0.130599 127 127 0
0.628399 -0.089274 0.232046 0 255 0
-0.429212 -0.396040 0.345972 153 76 0
-0.336831 -0.396040 0.275580 153 76 0
0.125935 0.110879 -0.031180 76 0 153
0.362921 0.562995 -0.446644 153 0 76
-0.526612 -0.364722 0.428694 76 153 0
0.377661 -0.555540 -0.420737 0 255 0
-0.070710 0.138280 -0.035781 76 0 153
0.383402 0.113864 -0.000588 76 0 153
-0.296874 0.475095 0.445249 76 153 0
-0.493555 -0.377772 0.231624 153 76 0
0.317987 0.185312 -0.420737 127 0 127
-0.641181 0.386515 0.278906 127 127 0
-0.140419 -0.144077 -0.420737 127 0 127
0.065189 -0.111820 0.456095 204 51 127
-0.106941 -0.377772 0.297111 153 76 0
0.224055 -0.083799 0.445249 204 51 127
-0.654881 -0.022978 0.055174 127 127 0
-0.323250 0.174113 -0.411603 127 0 127
0.293960 0.167092 -0.411603 127 0 127
0.219598 -0.406338 0.314523 127 0 127
0.246582 0.584533 -0.420737 127 0 127
0.642099 0.547501 -0.280496 0 255 0
-0.167124 -0.147873 -0.411603 127 0 127
-0.641181 0.086356 0.365341 127 127 0
0.153513 -0.377772 -0.260186 153 76 0
0.539613 -0.135822 -0.411603 127 0 127
-0.458254 0.395341 -0.420737 127 0 127
-0.641181 -0.578501 -0.053798 0 127 127
0.558344 0.110879 -0.248933 76 0 153
-0.572609 -0.393688 0.428694 76 153 0
0.483252 -0.083422 0.439540 204 51 127
0.575306 0.645198 0.374051 0 0 255
-0.586941 -0.377772 -0.240807 153 76 0
-0.654881 0.013367 -0.099038 127 127 0
0.222831 0.289860 -0.411603 127 0 127
-0.477991 -0.396040 -0.348068 153 76 0
0.642099 0.080170 -0.165382 0 255 0
0.389682 -0.396040 0.360523 153 76 0
-0.654881 0.116452 0.117704 127 127 0
-0.356412 -0.196341 -0.411603 127 0 127
0.310187 -0.329671 -0.411603 127 0 127
-0.232694 0.121637 0.445249 76 153 0
0.559146 0.626931 0.396857 255 0 0
0.186248 -0.396040 -0.030463 153 76 0
0.581898 -0.240665 -0.411603 127 0 127
-0.588906 -0.342517 0.428694 76 153 0
0.642099 0.001197 0.009838 0 255 0
0.642099 0.373407 0.037470 0 255 0
0.395358 0.208057 0.439540 204 51 127
-0.654881 -0.198935 0.175191 127 127 0
0.096630 -0.523572 0.314523 127 0 127
-0.306164 0.200411 0.445249 76 153 0
-0.013346 -0.396040 -0.365338 153 76 0
0.628399 -0.489758 -0.361823 127 127 0
0.447798 -0.460508 -0.420737 0 255 0
0.628399 0.269376 -0.170823 0 255 0
-0.511985 -0.396040 0.264153 153 76 0
0.353271 0.110879 -0.127386 76 0 153
0.628399 -0.493316 0.209991 127 127 0
-0.458167 -0.396040 -0.069990 153 76 0
0.628399 0.145405 -0.417140 127 0 127
-0.627989 0.110879 -0.123515 76 0 153
-0.237169 -0.408765 0.428694 76 153 0
0.083526 -0.377772 0.353823 153 76 0
-0.343661 -0.404792 0.314523 153 76 0
-0.654881 0.283477 -0.152258 127 127 0
-0.006529 -0.377772 0.107884 153 76 0
0.628399 -0.233076 0.386701 0 255 0
0.178862 -0.261711 -0.420737 127 0 127
0.642099 -0.554978 -0.199719 127 127 0
0.535102 -0.380579 0.401293 0 0 255
-0.546673 -0.563218 -0.420737 0 255 0
-0.450289 -0.257990 0.439540 76 153 0
0.517507 -0.508105 -0.420737 0 255 0
0.628399 -0.242981 -0.197650 0 255 0
0.186668 -0.377772 0.177276 153 76 0
-0.629372 -0.306269 0.428694 204 51 127
0.642099 0.407992 0.238313 0 255 0
0.520178 -0.473994 -0.448138 0 255 0
-0.523168 0.175377 -0.411603 127 0 127
-0.388900 0.110879 -0.345791 76 0 153
-0.654881 0.155564 -0.241329 127 127 0
-0.654881 -0.057932 0.213701 127 127 0
0.642099 0.106423 0.082549 0 255 0
0.259280 -0.396040 -0.052498 153 76 0
-0.320252 0.475017 -0.411603 127 0 127
-0.123657 0.186791 -0.411603 127 0 127
-0.396106 -0.377772 0.123854 153 76 0
0.058285 -0.522396 -0.420737 0 255 0
-0.654881 -0.156192 -0.121759 127 127 0
-0.641181 -0.123794 0.205985 127 127 0
-0.037248 0.471526 -0.420737 127 0 127
0.071925 0.110879 -0.038453 76 0 153
-0.419647 0.436437 -0.411603 127 0 127
0.617922 -0.272799 0.456095 204 51 127
-0.491954 0.248119 0.439540 76 153 0
0.628399 0.138440 0.300136 0 255 0
0.642099 -0.188889 -0.214398 0 255 0
0.365751 -0.396040 0.174599 153 76 0
0.245533 -0.396040 0.264608 153 76 0
0.302141 -0.247676 0.439540 204 51 127
-0.407499 -0.396040 -0.362434 153 76 0
-0.641181 0.429488 -0.285658 127 127 0
0.642099 0.647202 0.064152 0 255 0
-0.641181 -0.572876 -0.376206 0 127 127
-0.654881 0.477421 0.252411 127 127 0
0.499420 -0.415851 0.300823 127 0 127
0.642099 -0.569242 -0.041840 127 127 0
0.350054 0.110879 -0.007259 76 0 153
0.413332 -0.329343 -0.420737 127 0 127
-0.486898 -0.552244 0.314523 127 0 127
0.183772 0.648370 0.428694 204 51 127
0.413172 -0.503220 -0.448138 0 255 0
0.012379 -0.317149 0.456095 204 51 127
-0.340288 -0.377772 0.320215 153 76 0
0.580026 0.616673 -0.448138 153 0 76
-0.230154 0.581652 0.430609 76 153 0
-0.449105 0.562995 -0.438944 153 0 76
0.323481 0.138280 -0.133707 76 0 153
0.278253 0.129236 0.439540 204 51 127
0.599973 0.138280 -0.017236 76 0 153
-0.222115 -0.361409 -0.420737 127 0 127
0.550302 0.621938 0.428694 255 0 0
-0.016098 -0.377772 -0.059109 153 76 0
-0.463188 -0.377772 0.263048 153 76 0
0.133267 0.555033 -0.420737 127 0 127
0.219362 -0.396040 -0.163599 153 76 0
0.628399 -0.180415 0.394293 0 255 0
-0.363795 0.168731 -0.411603 127 0 127
-0.517561 -0.546316 -0.420737 0 255 0
0.544431 0.138280 -0.387416 76 0 153
-0.641181 -0.084356 -0.234353 127 127 0
-0.654881 -0.303555 -0.033438 127 127 0
0.642099 0.063708 0.379530 0 255 0
-0.515241 -0.377772 0.158151 153 76 0
-0.654881 -0.223969 -0.387962 127 127 0
-0.654881 -0.080667 -0.447666 127 127 0
-0.581529 -0.196960 0.428694 76 153 0
-0.589947 0.138280 -0.396761 76 0 153
0.642099 0.045165 -0.155441 0 255 0
0.263918 0.398140 -0.411603 127 0 127
0.475207 -0.195386 -0.411603 127 0 127
-0.518317 -0.377772 0.055218 153 76 0
0.642099 -0.426079 0.016517 127 127 0
0.025337 0.617347 0.456095 204 51 127
-0.636675 0.147831 -0.420737 127 0 127
-0.562357 -0.136053 0.439540 76 153 0
-0.188292 0.627102 -0.448138 153 0 76
-0.164456 0.654436 0.401293 255 0 0
-0.153285 -0.291619 0.445249 76 153 0
-0.654881 -0.172147 -0.426236 127 127 0
-0.379933 -0.377772 -0.328190 153 76 0
0.628399 0.109350 0.007266 0 255 0
-0.654881 0.117895 0.243529 127 127 0
-0.654881 -0.352958 0.091121 127 127 0
-0.192135 0.110879 -0.341729 76 0 153
0.396095 0.025384 -0.411603 127 0 127
-0.654881 0.547146 0.221222 127 127 0
0.504009 -0.382570 -0.411603 127 0 127
-0.074958 -0.201826 -0.420737 127 0 127
-0.654881 -0.527129 -0.397122 0 127 127
0.628399 -0.013609 -0.151322 0 255 0
-0.559135 0.126923 -0.411603 127 0 127
0.628399 0.181133 0.267830 0 255 0
-0.561513 -0.477812 -0.448138 0 255 0
0.642099 0.060833 0.002471 0 255 0
-0.654881 0.127012 0.187331 127 127 0
-0.641181 -0.297793 0.338580 127 127 0
-0.144983 -0.562035 0.300823 127 0 127
0.628399 0.227601 0.355806 0 255 0
0.504355 0.138280 -0.341455 76 0 153
0.621938 0.663945 0.428694 76 0 153
0.566812 0.226703 0.456095 204 51 127
0.610469 -0.351325 0.456095 204 51 127
0.362282 -0.377772 -0.319218 153 76 0
0.503472 -0.377772 -0.075654 153 76 0
-0.040771 -0.377772 0.309717 153 76 0
0.392003 -0.564511 -0.448138 0 255 0
-0.641181 -0.201353 0.320617 127 127 0
0.480484 0.162893 -0.411603 127 0 127
-0.438309 0.110879 -0.100353 76 0 153
0.031049 -0.124489 -0.420737 127 0 127
-0.152336 0.138280 -0.043394 76 0 153
0.628399 0.340115 -0.322027 0 255 0
-0.596876 -0.016657 0.428694 76 153 0
0.628399 0.314759 0.330199 0 255 0
0.642099 0.185037 -0.389609 0 255 0
-0.549443 0.110879 -0.181158 76 0 153
0.361190 -0.396040 -0.074327 153 76 0
-0.477957 -0.497285 0.314523 127 0 127
-0.650314 0.121268 0.435967 76 153 0
-0.641181 0.090675 -0.346511 127 127 0
0.642099 -0.391367 -0.115408 153 76 0
0.241629 0.141640 0.445249 204 51 127
0.358770 -0.364918 0.428694 204 51 127
0.305632 -0.377772 0.242534 153 76 0
-0.425088 -0.007179 0.445249 76 153 0
0.651233 -0.089367 0.402521 76 0 153
0.312329 0.578694 -0.420737 127 0 127
0.540453 -0.332049 0.431562 204 51 127
-0.654881 0.332166 -0.162484 127 127 0
0.642099 -0.467098 -0.090372 127 127 0
0.642099 0.516509 0.371710 0 255 0
0.124152 -0.191604 -0.420737 127 0 127
0.642099 0.192378 0.344087 0 255 0
-0.654881 -0.383984 -0.379653 127 127 0
0.535702 0.448867 0.439540 204 51 127
-0.573042 -0.047703 0.430664 76 153 0
-0.582893 -0.377772 0.218685 153 76 0
0.352947 0.110879 -0.044155 76 0 153
0.527845 -0.409740 0.435169 0 0 255
-0.371432 -0.522601 0.314523 127 0 127
-0.263359 -0.396040 0.224763 153 76 0
-0.387139 -0.295132 0.439540 76 153 0
0.454948 -0.377772 -0.136025 153 76 0
-0.313910 0.138280 -0.152837 76 0 153
-0.475753 -0.439506 0.300823 127 0 127
0.476424 -0.377772 0.144040 153 76 0
0.642099 0.506850 -0.159878 0 255 0
-0.210535 0.437593 0.439540 76 153 0
-0.451343 -0.377772 0.059826 153 76 0
-0.044778 0.110879 -0.334357 76 0 153
-0.374039 -0.269635 -0.411603 127 0 127
-0.322745 -0.377772 -0.043536 153 76 0
0.092106 0.110879 -0.005502 76 0 153
0.091395 -0.377772 -0.289255 153 76 0
0.472027 0.138280 -0.163312 76 0 153
-0.334731 -0.396040 0.192454 153 76 0
0.642099 -0.372627 -0.396840 0 255 0
-0.628759 -0.396040 0.232122 153 76 0
-0.483604 -0.587486 0.314523 127 0 127
-0.311103 0.110879 -0.394279 76 0 153
0.642099 0.022294 -0.079036 0 255 0
0.541051 -0.046242 -0.420737 127 0 127
-0.571871 0.138280 -0.356375 76 0 153
-0.609221 0.395702 0.456095 76 153 0
0.609444 -0.017192 0.401293 0 255 0
-0.095805 0.387364 -0.420737 127 0 127
0.628399 0.159633 -0.141388 0 255 0
-0.579193 0.106885 0.428694 76 153 0
0.583994 -0.396040 -0.362560 153 76 0
-0.654881 -0.334201 -0.194710 127 127 0
0.480409 0.617797 0.428309 204 51 127
-0.138850 -0.396040 0.253732 153 76 0
0.642099 -0.216454 -0.123156 0 255 0
0.598287 -0.246839 0.428694 204 51 127
-0.482935 0.205324 0.439540 76 153 0
0.398268 -0.396040 0.328147 153 76 0
0.080070 -0.396040 0.134440 153 76 0
0.412922 -0.377772 0.161462 153 76 0
0.642099 0.590679 0.029047 0 255 0
0.197519 -0.377772 -0.397766 153 76 0
-0.367038 0.520811 -0.420737 127 0 127
-0.641181 0.074430 -0.253701 127 127 0
-0.641181 0.157991 0.330898 127 127 0
-0.654881 0.186243 0.200288 127 127 0
0.417087 -0.377772 -0.128331 153 76 0
0.080014 0.138280 -0.336312 76 0 153
-0.089177 0.110879 -0.022884 76 0 153
-0.499702 0.459299 0.439540 76 153 0
0.434654 0.290614 0.445249 204 51 127
0.330974 -0.396040 0.285072 153 76 0
0.628399 0.484183 0.338645 0 255 0
0.163512 0.633468 0.456095 204 51 127
-0.654881 0.160216 -0.319732 127 127 0
0.628399 0.407709 -0.078640 0 255 0
-0.375851 -0.396040 -0.017007 153 76 0
0.507404 -0.469400 0.300823 127 0 127
0.642099 0.542357 -0.114349 0 255 0
-0.641181 0.616405 0.257786 127 127 0
-0.654881 -0.006156 0.279460 127 127 0
0.642099 0.053875 -0.419035 0 255 0
0.628399 0.455186 -0.169388 0 255 0
-0.440380 0.110879 -0.150300 76 0 153
-0.335886 -0.355976 -0.411603 127 0 127
0.208633 -0.452231 -0.448138 0 255 0
-0.641181 0.161186 -0.088420 127 127 0
-0.654881 -0.176112 0.134140 127 127 0
-0.641181 -0.264575 -0.180954 127 127 0
-0.641181 -0.143682 -0.387855 127 127 0
0.039910 -0.089213 -0.411603 127 0 127
-0.101065 -0.424369 0.314523 127 0 127
0.210406 0.110879 -0.157699 76 0 153
0.397684 -0.172215 0.439540 204 51 127
-0.060182 0.276931 0.456095 76 153 0
0.093915 -0.135063 0.445249 204 51 127
0.151601 -0.377772 -0.137229 153 76 0
0.413197 0.517393 -0.420737 127 0 127
-0.045844 -0.029056 0.428694 76 153 0
-0.415382 -0.377772 -0.039342 153 76 0
0.642099 -0.158459 -0.211170 0 255 0
0.624082 0.138280 -0.199271 0 255 0
0.331782 0.138280 -0.389082 76 0 153
-0.384669 0.138280 -0.187681 76 0 153
-0.654881 -0.443634 -0.041832 0 127 127
-0.654881 -0.340053 0.190579 127 127 0
0.642099 0.647292 -0.383408 0 255 0
0.642099 0.543316 0.244632 0 255 0
0.628399 0.029856 -0.016777 0 255 0
0.628399 -0.216745 -0.381063 0 255 0
-0.642763 -0.046961 0.428694 76 153 0
0.479994 -0.423441 0.427997 0 0 255
-0.594225 -0.096427 0.456095 76 153 0
-0.057565 0.110879 -0.142983 76 0 153
-0.654881 0.612120 -0.003973 127 127 0
0.001363 -0.264765 0.401293 153 0 76
-0.345119 0.057431 0.439540 76 153 0
0.348498 0.332792 0.439540 204 51 127
0.291848 -0.219837 0.439540 204 51 127
-0.150007 -0.396040 -0.073356 153 76 0
-0.564554 0.138280 -0.050016 76 0 153
0.054111 0.110879 -0.102045 76 0 153
0.340813 0.562995 -0.428532 153 0 76
-0.519288 -0.168289 -0.420737 127 0 127
-0.641181 0.008176 -0.340023 127 127 0
-0.641181 -0.575486 -0.106967 0 127 127
-0.184667 -0.396040 -0.329610 153 76 0
-0.256976 -0.396040 0.130438 153 76 0
-0.020935 0.120218 0.431327 153 0 76
0.076488 -0.121829 0.428694 204 51 127
-0.053037 0.642982 0.428694 255 0 0
-0.654881 -0.191744 -0.087169 127 127 0
0.642099 0.134036 -0.279970 0 255 0
0.200040 -0.396040 0.235984 153 76 0
-0.381249 -0.377772 -0.119531 153 76 0
0.078274 -0.407879 -0.448138 0 255 0
-0.570999 0.645198 0.377282 255 0 0
0.008578 0.064293 0.430538 153 0 76
-0.077203 -0.396040 0.281293 153 76 0
-0.387257 -0.413414 -0.420737 127 0 127
-0.185133 -0.377772 0.346833 153 76 0
0.497413 -0.377772 0.022879 153 76 0
-0.641181 0.235056 -0.004165 127 127 0
0.592779 -0.188099 -0.411603 127 0 127
0.642099 0.232757 -0.111567 0 255 0
-0.305988 0.110879 -0.028218 76 0 153
-0.108885 -0.377772 0.066610 153 76 0
0.576732 -0.377772 0.061293 153 76 0
0.222920 0.424114 -0.411603 127 0 127
-0.654881 -0.039847 -0.311529 127 127 0
-0.629145 0.602670 -0.420737 127 0 127
0.343201 0.213307 -0.411603 127 0 127
-0.122014 -0.377772 0.028810 153 76 0
0.265419 0.110879 -0.171708 76 0 153
-0.275169 0.421677 0.439540 76 153 0
-0.260838 -0.396040 0.268749 153 76 0
0.308402 -0.236379 -0.411603 127 0 127
-0.627926 0.672599 0.426643 204 51 127
0.020909 -0.374568 0.456095 204 51 127
0.492740 -0.396040 0.190812 153 76 0
0.594414 -0.439985 0.314523 127 0 127
0.144669 0.138280 -0.399920 76 0 153
-0.353416 -0.396040 -0.134547 153 76 0
-0.654881 -0.247438 0.009875 127 127 0
-0.635325 -0.377772 0.066713 127 127 0
0.241918 -0.396510 -0.420737 127 0 127
0.586089 -0.174734 0.428694 204 51 127
0.628399 -0.002695 0.211422 0 255 0
-0.353155 -0.525847 -0.420737 0 255 0
-0.385994 -0.423441 0.414917 0 0 255
0.349909 -0.377772 0.209363 153 76 0
0.642099 -0.585986 0.056853 127 127 0
-0.294685 -0.478237 -0.420737 0 255 0
-0.131255 0.672599 0.424485 255 0 0
-0.181314 -0.396040 0.211748 153 76 0
-0.165722 -0.396040 -0.195414 153 76 0
-0.020091 -0.384264 0.449633 0 0 255
0.642099 0.006061 0.297664 0 255 0
0.200136 -0.377772 0.049426 153 76 0
0.215287 0.541300 0.439540 204 51 127
-0.200621 0.138280 -0.359464 76 0 153
0.642099 -0.293966 -0.362651 0 255 0
0.628399 0.224826 0.076209 0 255 0
-0.548468 -0.396040 0.162566 153 76 0
0.642099 0.340247 0.320558 0 255 0
0.628399 -0.469873 -0.256016 127 127 0
0.343959 -0.377772 -0.133483 153 76 0
-0.502321 0.138280 -0.402040 127 0 127
-0.482604 -0.036821 0.445249 76 153 0
0.642099 0.067023 -0.248042 0 255 0
-0.062865 0.346314 -0.420737 127 0 127
-0.280347 0.110879 -0.080431 76 0 153
0.457356 0.380452 0.445249 204 51 127
0.642099 0.604159 0.187870 0 255 0
0.015096 -0.377772 0.310778 153 76 0
0.054177 -0.403181 0.401293 153 76 0
0.347353 -0.538540 0.314523 127 0 127
-0.650314 0.542894 0.443590 76 153 0
0.628399 0.591909 0.115642 0 255 0
0.481766 0.286092 0.439540 204 51 127
0.642099 0.145121 -0.027638 0 255 0
-0.069389 0.514035 -0.420737 127 0 127
-0.643611 0.476027 0.456095 76 153 0
-0.654881 -0.215013 -0.437718 127 127 0
0.123239 0.472459 0.439540 204 51 127
-0.654881 0.487080 -0.024201 127 127 0
-0.415623 -0.442966 0.300823 127 0 127
-0.654881 0.183635 -0.395280 127 127 0
-0.641181 -0.400983 -0.257563 153 76 0
-0.641181 0.028969 -0.021333 127 127 0
0.405208 0.402400 0.445249 204 51 127
0.281398 0.110879 -0.258463 76 0 153
0.628399 0.241782 -0.219290 0 255 0
0.410209 0.110879 -0.117721 76 0 153
-0.654881 -0.431230 -0.108460 127 127 0
-0.647740 -0.015797 0.454833 76 153 0
0.102816 0.167966 -0.420737 127 0 127
0.447657 0.622029 -0.411603 127 0 127
-0.641181 0.461785 0.384179 127 127 0
0.566101 -0.092272 0.456095 204 51 127
-0.314669 -0.094891 -0.411603 127 0 127
-0.119106 -0.275001 -0.411603 127 0 127
0.628399 0.651953 0.209173 0 255 0
0.591114 -0.377772 -0.156649 153 76 0
0.628399 -0.362512 -0.248776 0 255 0
0.147507 -0.437189 -0.448138 0 255 0
-0.331585 -0.015185 -0.420737 127 0 127
0.028523 0.550967 0.456095 204 51 127
0.486204 -0.364570 0.428694 204 51 127
0.079866 -0.107352 -0.411603 127 0 127
0.628399 -0.203713 -0.155397 0 255 0
0.628399 0.484588 -0.036982 0 255 0
0.002183 -0.529414 -0.448138 0 255 0
0.290750 -0.522693 -0.448138 0 255 0
-0.537807 -0.396040 0.276393 153 76 0
-0.141633 -0.088988 -0.411603 127 0 127
-0.647015 0.672599 -0.125413 127 127 0
0.443605 0.110879 -0.153272 76 0 153
-0.436581 -0.097801 -0.411603 127 0 127
-0.584642 -0.396040 -0.364847 153 76 0
0.628399 -0.287775 -0.164746 0 255 0
0.296846 -0.409740 0.439382 0 0 255
-0.215016 -0.368639 0.404517 0 0 255
-0.346232 -0.396040 0.223189 153 76 0
0.523984 -0.396040 0.154775 153 76 0
0.274572 -0.189940 0.445249 204 51 127
0.628399 0.470036 0.107672 0 255 0
-0.099042 -0.169771 0.434263 76 153 0
0.642099 0.343354 -0.022457 0 255 0
0.187504 -0.396040 -0.299000 153 76 0
0.104774 0.419215 -0.411603 127 0 127
0.442685 -0.377772 -0.110113 153 76 0
-0.458945 -0.396040 -0.004340 153 76 0
0.416826 0.562995 -0.437223 153 0 76
-0.061193 -0.325406 0.420588 153 0 76
-0.032030 0.551723 -0.411603 127 0 127
0.628399 -0.271489 0.151710 0 255 0
0.628399 0.303242 -0.353564 0 255 0
0.402711 -0.377772 -0.263260 153 76 0
-0.498181 -0.396040 0.400597 0 0 255
-0.135128 0.604081 -0.448138 153 0 76
0.642099 -0.097778 0.276793 0 255 0
0.628399 0.016639 0.323264 0 255 0
-0.054050 -0.387771 -0.420737 127 0 127
0.594058 -0.396040 0.220098 153 76 0
-0.399959 0.110879 -0.125189 76 0 153
-0.379322 -0.396040 0.252748 153 76 0
0.642099 -0.075947 0.296275 0 255 0
0.642099 -0.049951 -0.196311 0 255 0
-0.253537 -0.072515 0.445249 76 153 0
-0.235138 0.149258 0.445249 76 153 0
-0.485005 -0.377772 0.063208 153 76 0
0.161577 -0.396040 0.034228 153 76 0
-0.664015 0.510161 0.402101 204 51 127
-0.651377 0.672599 -0.181475 127 127 0
0.628399 -0.321651 0.366961 0 255 0
-0.654881 0.070033 -0.044303 127 127 0
0.628399 0.012229 0.112096 0 255 0
0.402777 0.617797 0.403157 255 0 0
0.642099 0.614265 -0.258105 0 255 0
-0.299442 0.213027 -0.411603 127 0 127
-0.538279 0.645198 -0.414588 0 255 0
-0.340654 0.607899 -0.448138 153 0 76
0.477742 -0.445153 -0.448138 0 255 0
0.388234 0.672599 0.409215 255 0 0
-0.375119 0.137034 -0.000588 76 0 153
-0.641181 0.171893 -0.341995 127 127 0
-0.148833 -0.259820 -0.411603 127 0 127
0.037885 0.170981 -0.411603 127 0 127
0.076857 -0.164294 0.456095 204 51 127
0.168332 -0.396040 0.379029 153 76 0
0.642099 -0.176005 0.239713 0 255 0
-0.641181 0.312608 -0.078982 127 127 0
-0.487752 0.562995 -0.444587 153 0 76
-0.610260 -0.178712 0.428694 204 51 127
-0.641181 0.217523 -0.095600 127 127 0
0.129359 0.138280 -0.156217 76 0 153
-0.664015 0.438981 0.425342 204 51 127
-0.082635 0.626931 -0.412562 153 0 76
-0.513396 0.110879 -0.380768 76 0 153
0.628399 -0.063586 -0.092246 0 255 0
0.097828 0.138280 -0.102422 76 0 153
0.326350 0.452678 -0.420737 127 0 127
-0.641181 -0.348829 -0.367116 127 127 0
0.628399 0.586707 0.237172 0 255 0
0.337121 -0.396040 -0.362153 153 76 0
0.304188 0.083233 -0.411603 127 0 127
-0.460607 -0.349000 0.456095 76 153 0
0.136025 -0.167573 0.439540 204 51 127
0.628399 -0.287110 0.218965 0 255 0
-0.009314 -0.377772 -0.159187 153 76 0
0.502874 -0.377772 0.372661 153 76 0
0.642099 -0.273075 0.284385 0 255 0
0.628399 0.492778 -0.094539 0 255 0
-0.219544 -0.178015 0.439540 76 153 0
-0.341748 0.337135 0.439540 76 153 0
0.470077 -0.377772 -0.284568 153 76 0
0.036842 -0.131387 0.428694 153 0 76
-0.521911 -0.515608 -0.420737 0 255 0
-0.098797 -0.120780 0.433738 76 153 0
0.628399 -0.318780 0.396636 0 255 0
0.337081 -0.377772 -0.272803 153 76 0
0.005388 -0.396040 -0.297615 153 76 0
-0.073246 -0.073341 0.428694 153 0 76
-0.654881 -0.308602 0.042474 127 127 0
-0.537771 0.110879 -0.030054 76 0 153
-0.640756 0.070926 -0.420737 127 0 127
-0.414295 0.463424 0.439540 76 153 0
0.024477 -0.396040 0.356977 153 76 0
-0.654881 0.427520 -0.198114 127 127 0
0.628399 -0.065181 0.338319 0 255 0
-0.546819 -0.537149 -0.448138 0 255 0
-0.097741 -0.271835 0.453316 76 153 0
0.628399 0.370744 -0.256137 0 255 0
0.151432 0.639296 0.428694 255 0 0
0.541186 0.004397 0.445249 204 51 127
-0.633863 -0.186687 0.401293 127 127 0
-0.641181 -0.521749 -0.155393 0 127 127
0.457067 -0.368192 -0.411603 127 0 127
-0.249166 0.138280 -0.401443 127 0 127
-0.272082 0.110879 -0.147125 76 0 153
0.354771 -0.377772 0.003677 153 76 0
0.199755 -0.479224 -0.420737 0 255 0
-0.382572 -0.529523 -0.448138 0 255 0
-0.654881 -0.259636 -0.428003 127 127 0
0.569210 -0.368673 0.428694 0 0 255
-0.445114 0.672599 0.421403 255 0 0
0.391426 0.254198 -0.411603 127 0 127
-0.055126 -0.377772 -0.242623 153 76 0
0.642099 0.121687 0.256207 0 255 0
-0.654881 0.481844 -0.233819 127 127 0
0.628399 0.025339 0.060905 0 255 0
-0.650314 -0.363687 0.440029 76 153 0
-0.641181 0.130405 0.054872 127 127 0
0.263229 0.632457 0.428694 204 51 127
0.568544 0.313811 0.428694 204 51 127
0.642099 -0.437308 -0.117032 127 127 0
-0.316000 0.642293 0.428694 255 0 0
-0.477566 -0.587847 -0.430702 0 255 0
0.628399 -0.362796 0.287387 0 255 0
-0.584929 0.050404 0.428694 76 153 0
-0.152939 0.138280 -0.262360 76 0 153
0.243515 -0.316886 -0.411603 127 0 127
0.429236 -0.266840 0.439540 204 51 127
0.599528 0.138280 -0.351255 76 0 153
0.531803 0.342927 0.439540 204 51 127
0.070406 0.033431 -0.411603 127 0 127
-0.654881 -0.223437 0.022298 127 127 0
-0.654881 0.005156 0.064852 127 127 0
0.642099 -0.324904 -0.206054 0 255 0
0.628399 -0.493874 -0.296532 127 127 0
0.642099 -0.543279 0.123996 127 127 0
-0.130921 -0.377772 -0.136717 153 76 0
0.628399 -0.231806 -0.302918 0 255 0
0.628399 -0.542596 -0.223578 127 127 0
-0.654881 0.503995 0.329818 127 127 0
-0.390337 0.347726 0.439540 76 153 0
-0.610150 -0.353917 -0.411603 127 0 127
-0.554706 -0.396040 -0.095948 153 76 0
-0.484291 -0.396040 -0.103902 153 76 0
0.565482 0.110879 -0.155759 76 0 153
-0.641181 -0.372607 0.238781 153 76 0
-0.244815 0.526075 -0.411603 127 0 127
-0.018426 0.162999 0.401293 153 0 76
-0.642019 0.331546 -0.448138 127 127 0
-0.079246 -0.396040 -0.193772 153 76 0
0.220799 -0.396040 -0.019382 153 76 0
0.642099 -0.334680 0.006088 0 255 0
-0.180423 0.658898 0.439825 76 153 0
-0.018587 -0.500454 -0.448138 0 255 0
0.642099 0.015623 -0.312377 0 255 0
-0.654881 -0.407846 -0.010872 127 127 0
-0.522636 -0.396040 -0.257075 153 76 0
-0.641181 -0.561601 -0.075667 0 127 127
-0.353734 0.033029 -0.420737 127 0 127
0.324574 0.521356 0.439540 204 51 127
-0.019909 -0.320144 0.401293 153 0 76
-0.654881 0.490228 -0.331271 127 127 0
0.242952 0.153437 -0.420737 127 0 127
-0.144325 0.135499 -0.000588 76 0 153
-0.654881 0.236683 -0.159915 127 127 0
0.142927 -0.377772 -0.079651 153 76 0
-0.329779 -0.498794 -0.448138 0 255 0
-0.141629 0.110879 -0.401488 127 0 127
0.270327 0.307625 0.445249 204 51 127
0.577978 0.200838 0.428694 204 51 127
-0.522984 -0.377150 -0.448138 0 255 0
0.468549 0.581428 0.453699 204 51 127
0.107233 0.054813 0.445249 204 51 127
-0.389855 0.138280 -0.093234 76 0 153
-0.304666 0.372598 0.439540 76 153 0
-0.654881 -0.413591 0.157747 0 127 127
0.304138 -0.439629 -0.420737 0 255 0
0.163256 -0.191723 0.445249 204 51 127
0.642099 0.117362 -0.428058 0 255 0
0.628399 0.194591 0.188335 0 255 0
0.249909 -0.558233 0.314523 127 0 127
-0.650314 0.072600 0.436595 76 153 0
0.157556 0.138280 -0.082200 76 0 153
0.436162 -0.377772 0.341129 153 76 0
-0.649214 0.292216 0.428694 204 51 127
-0.073227 0.138280 -0.006808 76 0 153
-0.006879 -0.048733 -0.411603 127 0 127
-0.282819 -0.377772 -0.277485 153 76 0
-0.169131 0.138280 -0.202436 76 0 153
0.330018 -0.072803 0.445249 204 51 127
0.642099 0.075988 0.334732 0 255 0
-0.230579 0.110879 -0.310859 76 0 153
0.295617 0.223154 -0.420737 127 0 127
-0.641181 -0.194093 -0.003868 127 127 0
-0.628956 0.507585 0.401293 204 51 127
-0.603574 0.613166 -0.420737 0 255 0
0.117582 -0.396040 0.275770 153 76 0
-0.117910 -0.452247 -0.420737 0 255 0
0.029126 0.078170 0.401293 153 0 76
0.642099 0.017736 0.251317 0 255 0
0.109979 0.147104 0.439540 204 51 127
0.628399 0.352722 0.101970 0 255 0
-0.641181 -0.435111 -0.274606 0 127 127
0.202547 0.138280 -0.189346 76 0 153
-0.641181 0.203152 -0.339177 127 127 0
0.337086 -0.396040 0.376117 153 76 0
0.557351 -0.396040 0.041540 153 76 0
-0.641181 -0.055939 -0.092269 127 127 0
-0.043826 -0.260942 0.428694 76 153 0
-0.358796 -0.377772 0.271156 153 76 0
0.628399 0.131663 0.360660 0 255 0
-0.217393 0.580638 -0.448138 153 0 76
-0.642796 -0.587847 0.046985 0 127 127
0.047048 0.571614 0.401293 153 0 76
0.619032 0.025155 0.401293 76 0 153
-0.221238 0.318349 -0.420737 127 0 127
0.642099 -0.382033 0.392841 0 255 0
-0.593722 0.138280 -0.139775 76 0 153
0.360539 0.157113 -0.420737 127 0 127
0.382850 0.630490 0.456095 204 51 127
0.100754 -0.543219 -0.448138 0 255 0
-0.641181 -0.428346 -0.083710 0 127 127
-0.481692 -0.396040 0.363375 153 76 0
0.101637 0.672392 0.428694 255 0 0
0.628399 -0.155238 -0.253859 0 255 0
0.085402 0.645670 0.401293 255 0 0
0.642099 0.623277 -0.372335 0 255 0
-0.009887 0.172583 0.428694 76 153 0
0.530359 -0.510119 -0.448138 0 255 0
0.223438 -0.396040 -0.207446 153 76 0
0.628399 -0.058818 -0.171009 0 255 0
0.171855 -0.396040 0.095616 153 76 0
-0.032996 0.394699 0.428694 153 0 76
0.642099 0.479763 0.168756 0 255 0
-0.654881 0.376683 -0.036348 127 127 0
0.065596 0.532422 0.456095 204 51 127
0.628399 0.525195 -0.420089 127 0 127
0.628399 -0.085825 -0.315841 0 255 0
0.492556 -0.377772 0.273476 153 76 0
-0.022327 -0.320217 0.428694 76 153 0
-0.596550 -0.458816 0.300823 127 0 127
-0.615838 -0.145841 0.456095 76 153 0
-0.579847 -0.443967 -0.420737 0 255 0
-0.137686 0.618075 0.428694 76 153 0
-0.641181 0.093324 -0.377059 127 127 0
0.237733 -0.377772 -0.328996 153 76 0
0.642099 0.093186 -0.343152 0 255 0
-0.322504 0.110879 -0.195733 76 0 153
0.245833 -0.461791 -0.420737 0 255 0
-0.497717 0.138280 -0.139433 76 0 153
0.642099 0.628606 0.296077 0 255 0
-0.022183 0.574295 0.401293 153 0 76
0.034130 0.513759 0.401293 153 0 76
0.087242 -0.221617 0.447430 204 51 127
-0.641181 0.436361 -0.409461 127 0 127
-0.599690 0.626931 0.369467 255 0 0
-0.474404 -0.396040 0.226851 153 76 0
-0.467399 0.378431 0.439540 76 153 0
-0.558088 -0.462113 0.300823 127 0 127
0.420228 0.138280 -0.246362 76 0 153
-0.268085 0.617395 -0.420737 127 0 127
0.255010 -0.396040 -0.224166 153 76 0
0.143600 0.016150 0.445249 204 51 127
-0.376484 -0.396040 -0.371727 153 76 0
0.099667 -0.396040 0.243611 153 76 0
0.503495 -0.034133 0.445249 204 51 127
-0.223388 -0.377772 0.344897 153 76 0
-0.455868 -0.328720 0.439540 76 153 0
0.272101 -0.377772 -0.256917 153 76 0
-0.654881 0.038555 -0.087530 127 127 0
-0.538891 -0.218662 -0.420737 76 153 0
0.046460 -0.587847 -0.424479 0 255 0
0.438182 0.138280 -0.178424 76 0 153
-0.654881 0.511437 0.194164 127 127 0
0.596806 0.572415 0.456095 204 51 127
-0.085821 0.269940 0.456095 76 153 0
0.032717 0.215571 0.428694 153 0 76
-0.404756 -0.220405 -0.411603 127 0 127
-0.052125 0.062513 0.428694 153 0 76
0.267893 -0.377772 0.175907 153 76 0
-0.162190 0.110879 -0.379733 76 0 153
-0.024112 -0.369614 0.401293 0 0 255
-0.641181 -0.391015 0.206561 127 127 0
0.625870 -0.102927 -0.420737 127 0 127
0.596431 -0.315468 0.417856 204 51 127
0.596431 -0.204691 0.426083 76 0 153
0.288122 -0.396040 -0.076278 153 76 0
-0.654881 0.175696 -0.066935 127 127 0
0.628399 0.171680 -0.035070 0 255 0
-0.641181 0.052254 0.075161 127 127 0
0.420899 -0.396040 -0.017594 153 76 0
0.628399 0.271804 0.190092 0 255 0
0.091509 -0.396040 -0.231436 153 76 0
0.272779 0.138280 -0.106039 76 0 153
-0.263626 -0.332879 0.429783 76 153 0
0.525370 -0.167193 0.445249 204 51 127
0.628399 0.505973 -0.182888 0 255 0
-0.097792 -0.396040 -0.007136 153 76 0
0.356147 -0.409740 0.450602 204 51 127
-0.654881 -0.243463 0.351086 127 127 0
-0.572102 -0.396040 -0.159275 153 76 0
-0.111478 -0.381449 -0.420737 0 255 0
-0.518649 -0.377772 0.121519 153 76 0
0.194208 -0.396040 0.004619 153 76 0
-0.131603 0.403434 -0.411603 127 0 127
-0.473404 0.340058 -0.411603 127 0 127
0.326683 -0.377772 -0.050840 153 76 0
-0.175175 0.307148 0.439540 76 153 0
0.048411 0.077032 0.421038 153 0 76
0.440166 -0.396040 0.278893 153 76 0
-0.641181 -0.223123 -0.330462 127 127 0
0.519383 -0.396040 -0.177408 153 76 0
-0.641181 0.517828 -0.298344 127 127 0
0.642099 -0.146312 0.345896 0 255 0
0.004400 0.138280 -0.248535 76 0 153
-0.086175 -0.396040 -0.358926 153 76 0
-0.535272 -0.396040 0.317805 153 76 0
-0.125762 -0.577584 -0.420737 0 255 0
0.621476 -0.089384 0.428694 76 0 153
0.628399 0.612943 -0.307016 0 255 0
0.621296 -0.377772 -0.167149 153 76 0
-0.654881 0.463804 -0.118262 127 127 0
0.138700 -0.396040 -0.059324 153 76 0
0.151542 -0.344549 -0.411603 127 0 127
-0.156776 -0.396040 -0.290451 153 76 0
0.611523 0.617728 0.428694 204 51 127
-0.417598 0.110879 -0.069363 76 0 153
0.093314 -0.480651 -0.420737 0 255 0
0.556298 -0.573301 0.300823 127 0 127
-0.641181 0.287079 -0.103820 127 127 0
0.647877 0.234766 0.428694 204 51 127
-0.318768 -0.409740 0.452079 0 0 255
-0.334404 -0.377772 0.089222 153 76 0
-0.269205 0.324270 0.439540 76 153 0
-0.496234 0.495267 0.445249 76 153 0
0.308383 -0.377772 -0.202738 153 76 0
-0.184497 -0.377772 0.118796 153 76 0
0.473363 -0.377772 0.013574 153 76 0
0.148484 -0.240621 -0.420737 127 0 127
-0.641181 0.308616 0.391534 127 127 0
-0.636377 0.512167 0.456095 76 153 0
-0.317345 0.110879 -0.248309 76 0 153
0.085598 0.207356 0.432845 204 51 127
0.569881 -0.566606 -0.420737 0 255 0
-0.654881 0.138474 -0.359799 127 127 0
0.126103 0.400550 0.445249 204 51 127
0.239238 -0.233335 0.439540 204 51 127
-0.620870 -0.377772 0.215322 153 76 0
0.406207 -0.396040 -0.193957 153 76 0
-0.641181 0.626279 0.111259 127 127 0
-0.584748 0.566880 0.456095 76 153 0
-0.641181 -0.004539 -0.297328 127 127 0
-0.117158 0.217569 -0.411603 127 0 127
0.056051 -0.396040 -0.051605 153 76 0
-0.275929 -0.377772 -0.118075 153 76 0
-0.312376 0.348183 0.445249 76 153 0
0.620697 0.431838 -0.420737 127 0 127
-0.266755 -0.377772 -0.009295 153 76 0
-0.654881 -0.268844 -0.382775 127 127 0
0.568738 -0.377772 -0.078687 153 76 0
-0.188822 -0.030461 -0.420737 127 0 127
-0.609213 0.256333 0.424164 76 153 0
-0.338536 0.398388 -0.420737 127 0 127
0.642099 -0.332554 0.206331 0 255 0
-0.586338 -0.115213 -0.411603 127 0 127
0.225062 -0.396040 -0.384151 153 76 0
-0.641181 0.173757 0.108400 127 127 0
-0.207838 -0.351310 0.428694 76 153 0
0.202887 -0.396040 0.031492 153 76 0
0.333043 -0.043640 0.439540 204 51 127
-0.631610 0.138280 -0.209048 76 0 153
-0.654881 -0.585546 0.288881 0 127 127
-0.654881 -0.103042 -0.139822 127 127 0
-0.053993 -0.083303 -0.420737 127 0 127
-0.068376 -0.033790 -0.411603 127 0 127
-0.116291 -0.357078 0.456095 76 153 0
0.482076 -0.396040 -0.398210 153 76 0
0.290169 0.358498 0.445249 204 51 127
-0.654881 -0.085314 -0.009950 127 127 0
0.379892 -0.410826 0.300823 127 0 127
-0.422169 -0.377772 0.365201 153 76 0
-0.654881 -0.216609 -0.245657 127 127 0
0.308623 0.138280 -0.070763 76 0 153
-0.654881 -0.529261 -0.294803 0 127 127
0.485514 -0.111832 0.439540 204 51 127
0.266909 -0.396040 0.210412 153 76 0
-0.437188 -0.414029 -0.420737 0 255 0
-0.404700 0.585531 0.428694 76 153 0
-0.618138 -0.229510 0.456095 76 153 0
-0.154179 -0.586914 0.300823 127 0 127
-0.409141 -0.389050 0.456095 76 153 0
0.560417 0.436980 0.454461 204 51 127
0.642099 0.168440 0.387890 0 255 0
0.351277 -0.340321 0.428694 204 51 127
0.568925 0.625144 -0.420737 127 0 127
0.147857 -0.195567 -0.411603 127 0 127
-0.641181 0.390500 -0.260814 127 127 0
-0.641181 -0.133756 -0.438865 127 127 0
-0.462163 0.305650 -0.420737 127 0 127
0.037056 0.110879 -0.134469 76 0 153
0.244851 0.503851 -0.411603 127 0 127
-0.595030 -0.281664 0.456095 76 153 0
0.071048 -0.396040 0.263459 153 76 0
0.135651 0.467625 -0.411603 127 0 127
0.529805 -0.377772 -0.113156 153 76 0
-0.654881 0.258215 0.146951 127 127 0
0.616332 0.110879 -0.347851 76 0 153
-0.226250 -0.305894 -0.420737 127 0 127
0.126595 0.138280 -0.240667 76 0 153
-0.641181 -0.492708 -0.435351 0 127 127
0.231871 0.376047 -0.420737 127 0 127
0.642099 0.167485 -0.236205 0 255 0
-0.327462 -0.157211 -0.420737 127 0 127
0.048411 0.347945 0.405128 153 0 76
0.313721 0.138280 -0.330179 76 0 153
-0.654881 0.557097 -0.297939 127 127 0
-0.641181 -0.266483 -0.313201 127 127 0
0.316776 0.620974 0.428694 204 51 127
0.220263 -0.396040 -0.302608 153 76 0
0.642099 -0.059833 -0.342572 0 255 0
0.651233 0.001748 0.406158 76 0 153
-0.654881 -0.194805 0.347981 127 127 0
-0.426763 -0.396040 -0.178204 153 76 0
0.011537 0.276820 -0.420737 127 0 127
-0.213412 -0.401257 -0.448138 0 255 0
0.632758 0.595839 0.401293 0 255 0
-0.308154 -0.377772 -0.079130 153 76 0
0.535934 -0.020070 0.439540 204 51 127
-0.132572 0.651116 0.456095 76 153 0
0.018944 0.582997 -0.420737 127 0 127
-0.070520 0.436731 0.456095 76 153 0
0.585851 -0.056417 -0.420737 127 0 127
-0.609199 0.645198 -0.343192 0 255 0
-0.434490 -0.377772 -0.219076 153 76 0
-0.163676 0.490450 -0.420737 127 0 127
0.050861 -0.582275 0.300823 127 0 127
0.453439 -0.396040 -0.156520 153 76 0
-0.364979 0.309339 -0.411603 127 0 127
0.628399 -0.215256 0.279579 0 255 0
0.241394 0.138280 -0.008671 76 0 153
-0.152072 0.137974 -0.420737 127 0 127
0.642099 0.248244 0.172335 0 255 0
-0.383090 0.635813 0.428694 76 153 0
0.500313 0.138280 -0.250128 76 0 153
0.628399 -0.187125 -0.249156 0 255 0
-0.357551 -0.497509 -0.448138 0 255 0
0.628399 0.242488 0.269407 0 255 0
0.624094 0.404277 0.428694 76 0 153
0.182903 -0.377772 -0.369753 153 76 0
0.227530 -0.396040 0.344304 153 76 0
0.245165 0.653233 0.428694 204 51 127
0.642099 -0.562765 0.085181 127 127 0
0.264621 -0.377772 -0.146557 153 76 0
0.116068 0.618362 0.456095 204 51 127
-0.411014 0.138280 -0.383805 76 0 153
-0.462059 -0.377772 0.092441 153 76 0
-0.224094 -0.377772 -0.326901 153 76 0
-0.403378 -0.396040 -0.213288 153 76 0
0.232240 -0.377772 0.381816 153 76 0
0.332593 0.391177 0.445249 204 51 127
-0.113849 0.076142 0.445249 76 153 0
0.411586 -0.377772 0.065364 153 76 0
0.416818 0.138280 -0.162448 76 0 153
0.559563 0.393174 0.452631 204 51 127
-0.641181 -0.555959 -0.187810 0 127 127
0.618265 -0.313626 0.456095 204 51 127
0.628399 0.396131 -0.044607 0 255 0
-0.444785 0.163013 -0.411603 127 0 127
0.244119 0.110879 -0.372795 76 0 153
-0.654881 0.208139 0.366255 127 127 0
0.279552 0.138280 -0.055187 76 0 153
-0.136396 0.012693 0.445249 76 153 0
-0.524131 -0.377772 -0.140904 153 76 0
0.628399 -0.132070 0.153529 0 255 0
-0.050694 0.300658 -0.411603 127 0 127
0.642099 -0.153282 -0.031315 0 255 0
0.418737 -0.377772 0.242366 153 76 0
-0.063611 0.166299 -0.420737 127 0 127
0.305863 -0.396040 0.357607 153 76 0
0.114984 -0.365123 0.456095 204 51 127
-0.467199 0.252286 0.445249 76 153 0
-0.150868 -0.377772 0.149323 153 76 0
0.628399 0.522302 0.255798 0 255 0
-0.444378 -0.188103 -0.411603 127 0 127
-0.430902 -0.309917 0.445249 76 153 0
0.003606 0.138280 -0.123428 76 0 153
0.590553 -0.396040 0.150494 153 76 0
-0.111599 0.138280 -0.316652 76 0 153
0.519980 0.110879 -0.016712 76 0 153
0.202404 -0.057596 0.445249 204 51 127
0.491464 0.252662 0.439540 204 51 127
0.642099 0.483150 0.090507 0 255 0
-0.183579 -0.377772 -0.219460 153 76 0
-0.354466 -0.377772 -0.040180 153 76 0
-0.654881 0.639964 -0.206639 127 127 0
-0.443106 -0.531140 0.300823 127 0 127
0.073058 -0.345162 0.456095 204 51 127
0.286376 0.253657 0.439540 204 51 127
-0.557295 0.138280 -0.301866 76 0 153
-0.204910 -0.377772 0.177617 153 76 0
0.642099 0.215301 0.305999 0 255 0
-0.083014 -0.377772 0.031816 153 76 0
0.376932 0.657765 -0.448138 153 0 76
0.169159 -0.572423 -0.448138 0 255 0
-0.594088 0.670773 -0.448138 153 0 76
0.494352 0.138951 0.439540 204 51 127
-0.071382 -0.501732 0.300823 127 0 127
-0.573206 0.525871 -0.411603 127 0 127
0.226878 0.384034 0.439540 204 51 127
0.548990 0.031539 0.439540 204 51 127
-0.641181 -0.040109 -0.172078 127 127 0
-0.514430 -0.342406 0.456095 76 153 0
-0.476429 -0.012702 0.439540 76 153 0
0.594142 0.126019 0.428694 204 51 127
-0.271835 0.622783 0.428694 255 0 0
-0.197324 -0.377772 -0.397835 153 76 0
0.236527 -0.111296 0.439540 204 51 127
0.280047 -0.377772 -0.179566 153 76 0
-0.654881 -0.483939 0.149312 0 127 127
-0.641181 0.533654 -0.258853 127 127 0
-0.640233 -0.245787 0.401293 204 51 127
-0.641181 -0.233676 0.088569 127 127 0
-0.623316 0.539129 0.401293 204 51 127
-0.279473 0.199971 -0.420737 127 0 127
-0.654881 0.095362 -0.119065 127 127 0
0.075686 0.214428 -0.420737 127 0 127
0.642099 -0.504733 -0.190232 127 127 0
0.514537 0.105865 0.445249 204 51 127
0.167320 -0.335724 0.456095 204 51 127
-0.102189 -0.497866 -0.420737 0 255 0
-0.443557 -0.396040 -0.291625 153 76 0
-0.630022 0.490608 -0.411603 127 0 127
-0.447425 -0.344466 -0.420737 127 0 127
-0.664015 0.497001 0.427466 204 51 127
0.628399 -0.493213 -0.140834 127 127 0
0.642099 -0.252694 -0.136401 0 255 0
-0.494314 -0.092830 0.439540 76 153 0
0.527396 0.562995 -0.427841 153 0 76
-0.641181 -0.524574 -0.056634 0 127 127
0.033154 -0.377772 -0.373783 153 76 0
-0.125010 -0.396040 0.353734 153 76 0
0.329970 -0.377772 0.265221 153 76 0
0.084898 -0.396040 -0.092011 153 76 0
-0.641181 -0.361850 0.388034 127 127 0
-0.362953 0.649966 -0.448138 153 0 76
0.628399 0.273208 -0.127763 0 255 0
0.488783 -0.396040 -0.092568 153 76 0
0.642099 0.498469 -0.350569 0 255 0
0.593628 -0.396040 0.018683 153 76 0
-0.441053 0.114042 0.445249 76 153 0
0.299653 0.142375 -0.420737 127 0 127
-0.371309 -0.323841 -0.420737 127 0 127
-0.645035 0.352416 0.401293 204 51 127
-0.267288 0.110879 -0.263709 76 0 153
-0.613273 0.203343 -0.420737 127 0 127
0.642099 -0.036936 0.118944 0 255 0
-0.184754 0.546804 -0.420737 127 0 127
-0.641181 0.045255 -0.108591 127 127 0
-0.318785 -0.396040 0.360531 153 76 0
-0.068997 0.650059 0.401293 255 0 0
0.628399 -0.099304 0.036338 0 255 0
0.602741 0.409683 0.456095 204 51 127
0.580068 -0.396040 -0.241919 153 76 0
-0.001878 0.113468 -0.000588 76 0 153
0.628399 0.318351 -0.162498 0 255 0
0.431953 0.416720 -0.420737 127 0 127
-0.061193 0.464253 0.409388 153 0 76
-0.362768 0.620398 0.401293 255 0 0
0.651233 0.043544 0.414595 76 0 153
-0.654881 -0.146939 -0.038754 127 127 0
0.217927 0.672599 -0.444638 153 0 76
0.505461 0.561600 0.439540 204 51 127
-0.513162 0.672599 0.422173 255 0 0
0.609888 -0.396040 -0.331794 153 76 0
-0.641181 0.123315 0.389865 204 51 127
-0.528313 0.504714 -0.420737 127 0 127
0.136491 0.138280 -0.339969 76 0 153
-0.395433 0.427002 0.439540 76 153 0
0.006771 -0.396040 0.200197 153 76 0
-0.077279 0.210057 0.456095 76 153 0
-0.474956 -0.460039 -0.448138 0 255 0
0.642099 0.647947 -0.038308 0 255 0
0.052250 -0.377772 0.324772 153 76 0
-0.167640 0.594594 -0.420737 127 0 127
-0.654881 0.580207 0.377552 127 127 0
-0.248879 -0.396040 -0.218576 153 76 0
-0.398106 -0.396040 -0.167208 153 76 0
-0.346381 0.127560 -0.420737 127 0 127
0.514186 0.659912 0.428694 204 51 127
-0.566174 0.138280 -0.186885 76 0 153
-0.143502 -0.373205 -0.426107 127 0 127
-0.553275 -0.457068 -0.420737 0 255 0
-0.527901 -0.095525 -0.420737 127 0 127
0.632615 0.264004 0.456095 204 51 127
-0.497894 -0.396040 -0.382359 153 76 0
0.510078 -0.225152 -0.411603 127 0 127
-0.540014 0.298847 -0.420737 127 0 127
-0.570911 -0.373205 -0.429180 127 0 127
0.278049 -0.396040 0.153341 153 76 0
-0.654881 0.096509 -0.090581 127 127 0
-0.447036 -0.456781 -0.448138 0 255 0
0.200317 -0.537381 0.314523 127 0 127
-0.497747 0.632183 0.428694 76 153 0
-0.442069 -0.067460 0.439540 76 153 0
-0.641181 -0.369641 0.301459 127 127 0
0.628399 -0.456211 0.145259 127 127 0
0.085481 -0.166489 -0.411603 127 0 127
0.091724 0.573383 0.445249 204 51 127
-0.547623 -0.074234 -0.411603 127 0 127
0.628399 0.087138 0.144832 0 255 0
0.349649 0.121281 0.445249 204 51 127
-0.182173 -0.425824 -0.420737 0 255 0
-0.641181 -0.308565 0.149645 127 127 0
-0.209558 0.138280 -0.058133 76 0 153
-0.412900 0.218816 -0.420737 127 0 127
-0.547783 0.110879 -0.321145 76 0 153
-0.596600 -0.396040 -0.075404 153 76 0
-0.557298 -0.396040 -0.361183 153 76 0
0.616877 0.333143 -0.420737 127 0 127
-0.375735 0.138280 -0.267599 76 0 153
-0.288305 0.564238 -0.411603 127 0 127
0.418940 0.027625 0.445249 204 51 127
0.449833 -0.534630 0.300823 127 0 127
-0.654881 -0.163777 0.225318 127 127 0
0.015170 -0.396040 -0.371977 153 76 0
-0.601494 -0.216766 0.428694 76 153 0
-0.573236 -0.396040 0.317856 127 0 127
-0.536602 -0.406805 0.401293 0 0 255
0.384401 0.321237 -0.420737 127 0 127
-0.629152 -0.557790 -0.420737 0 255 0
-0.641181 -0.408216 0.383401 127 127 0
-0.013150 -0.587847 -0.428420 0 255 0
-0.577134 0.285359 0.456095 76 153 0
0.420534 0.138280 -0.023813 76 0 153
0.603361 0.113644 0.456095 204 51 127
-0.342765 -0.061410 -0.420737 127 0 127
0.642099 -0.162140 0.049598 0 255 0
0.115996 0.256451 -0.411603 127 0 127
0.305870 -0.446434 0.314523 127 0 127
0.101167 0.110879 -0.237442 76 0 153
0.642099 0.360942 -0.062110 0 255 0
-0.406803 -0.341278 0.456095 76 153 0
0.639303 -0.423441 -0.423122 127 127 0
-0.641181 -0.486014 -0.169982 0 127 127
0.628399 0.614764 0.332287 0 0 255
-0.530786 -0.377772 -0.202749 153 76 0
-0.546506 -0.396040 0.026199 153 76 0
0.599528 -0.396040 0.096939 153 76 0
-0.019015 -0.396040 0.156398 153 76 0
0.497277 0.343701 0.445249 204 51 127
-0.641694 0.458444 0.428694 204 51 127
0.474238 0.364990 -0.411603 127 0 127
-0.604683 -0.377772 0.155042 153 76 0
0.028937 0.452961 -0.411603 127 0 127
