ply
format ascii 1.0
element vertex 1295
property float x
property float y
property float z
property uchar red
property uchar green
property uchar blue
end_header
0.226235 -0.351780 -0.176271 255 0 0
0.183024 -0.003662 -0.329872 255 0 0
-0.027369 0.194325 -0.372696 255 0 0
-0.052110 -0.746813 0.148103 255 0 0
-0.371438 0.566028 -0.160628 255 0 0
0.232587 -0.506035 -0.246584 255 0 0
-0.128514 0.099273 0.292911 255 0 0
-0.257739 0.276327 -0.350250 255 0 0
-0.310712 0.113744 -0.117311 255 0 0
-0.273669 -0.408840 -0.231655 255 0 0
0.232737 0.386757 0.146328 255 0 0
0.210105 -0.244538 0.098387 255 0 0
-0.241993 0.025595 -0.251131 255 0 0
-0.214785 -0.364769 -0.303139 255 0 0
-0.388310 0.149869 -0.093946 255 0 0
0.227338 0.395189 0.230889 255 0 0
0.358627 0.375444 -0.144147 255 0 0
-0.250301 0.256553 -0.266455 255 0 0
0.160320 -0.343747 0.137250 255 0 0
0.195683 -0.782106 -0.024480 255 0 0
0.003326 0.042318 0.765522 0 255 0
-0.347692 0.641147 -0.089390 127 127 0
0.211783 0.442661 -0.369152 255 0 0
-0.273154 -0.165241 0.129090 255 0 0
-0.115253 -0.499220 -0.286431 255 0 0
0.292346 0.081131 0.150120 255 0 0
0.253148 -0.334379 -0.077656 255 0 0
-0.159548 -0.425609 -0.270119 255 0 0
-0.088272 -0.790904 0.131230 255 0 0
0.254831 0.338472 -0.239181 255 0 0
0.124431 0.187460 0.215236 255 0 0
0.308780 0.509895 0.139458 255 0 0
-0.012046 -0.230113 -0.338392 255 0 0
-0.134381 0.594427 -0.275088 127 127 0
0.243525 -0.694026 -0.199022 255 0 0
-0.277234 -0.131875 -0.163627 255 0 0
0.361821 0.158812 0.002061 255 0 0
0.154425 -0.479884 -0.248653 255 0 0
0.022125 0.175005 -0.440122 255 0 0
-0.127704 -0.489979 0.155242 255 0 0
-0.028575 0.520227 -0.441195 255 0 0
-0.222037 -0.502277 -0.283914 255 0 0
-0.240689 -0.567916 -0.126136 255 0 0
0.106912 -0.694278 0.125111 255 0 0
-0.336293 0.629524 0.130733 127 127 0
0.128105 0.142340 0.299774 0 255 0
-0.043048 0.566028 0.028821 127 127 0
0.025719 -0.074773 0.262805 255 0 0
0.166723 0.334880 0.271029 255 0 0
0.354036 0.105855 -0.152500 255 0 0
-0.275823 0.594427 -0.230241 127 127 0
0.157198 0.192973 -0.323374 255 0 0
-0.008954 -0.261579 0.209107 255 0 0
0.014777 0.250392 0.508076 0 255 0
-0.291886 -0.477273 0.061501 255 0 0
-0.277682 -0.262489 0.114719 255 0 0
0.120720 -0.617591 -0.327845 255 0 0
0.162537 0.388023 0.530784 0 255 0
-0.046918 0.412895 0.390233 0 255 0
-0.127888 -0.427469 0.163002 255 0 0
-0.139963 0.594427 0.180831 127 127 0
-0.001856 0.594427 0.114132 127 127 0
0.058461 0.707377 -0.402925 127 127 0
-0.376951 0.667920 0.033834 127 127 0
0.091481 -0.948610 -0.273382 255 0 0
-0.338916 0.544946 -0.035857 255 0 0
0.060990 0.363015 0.248839 255 0 0
-0.005271 0.208191 0.706753 0 255 0
-0.163505 -0.120544 -0.371053 0 127 127
0.186101 -0.429098 0.176911 255 0 0
-0.120671 -0.263571 0.185755 255 0 0
0.158718 -0.287095 -0.333528 255 0 0
-0.061487 -0.838815 0.205592 255 0 0
-0.194039 0.566028 -0.335337 127 127 0
0.293187 0.423261 -0.288428 255 0 0
-0.008228 -0.653119 0.229467 255 0 0
0.072030 0.594427 -0.101166 127 127 0
-0.325168 0.517579 -0.156708 255 0 0
0.183766 -0.571147 0.073097 255 0 0
0.026179 -0.792378 -0.268676 255 0 0
0.082939 0.280886 -0.364296 255 0 0
0.337970 0.508727 -0.209536 255 0 0
0.175561 -0.663873 -0.190585 255 0 0
0.129489 0.518412 0.233117 255 0 0
0.107718 -0.836832 0.000666 255 0 0
-0.241797 0.566028 0.150424 127 127 0
-0.149560 0.454151 0.230935 255 0 0
-0.315766 -0.496519 -0.088220 255 0 0
0.105845 0.432606 -0.423205 255 0 0
0.232268 -0.466827 -0.120760 255 0 0
-0.375124 0.217689 0.040491 255 0 0
-0.204381 -0.791406 -0.263882 255 0 0
-0.001223 -0.243273 0.721492 0 255 0
-0.317409 0.161232 -0.034244 255 0 0
-0.144964 0.313275 0.290983 255 0 0
0.081190 0.285128 0.238798 255 0 0
0.279793 0.234089 0.051623 255 0 0
-0.305802 0.395982 0.174397 255 0 0
0.137234 0.599402 0.285250 127 127 0
0.063048 0.487310 -0.380987 255 0 0
0.057939 -0.290102 0.651285 0 255 0
0.199989 -0.835793 0.111152 255 0 0
0.235333 0.039401 -0.231979 255 0 0
0.084678 -0.050430 0.251227 255 0 0
-0.049904 0.282144 -0.376303 255 0 0
-0.252174 -0.531679 -0.037414 255 0 0
0.030382 0.458110 0.342231 0 255 0
0.033437 0.427404 0.565144 0 255 0
0.318478 0.617097 -0.149170 127 127 0
0.144583 0.645409 0.239971 127 127 0
0.230636 -0.302682 0.052439 255 0 0
0.257216 0.006500 0.062579 255 0 0
-0.311455 -0.318251 -0.155768 255 0 0
-0.202002 -0.215346 -0.323431 255 0 0
-0.333886 -0.187508 -0.089594 255 0 0
-0.264233 0.464179 -0.267649 255 0 0
-0.049468 0.700148 0.313334 127 127 0
-0.153495 -0.767820 -0.305443 255 0 0
-0.287945 0.502845 0.111163 255 0 0
-0.275517 0.610726 0.207737 127 127 0
0.323567 0.005355 -0.084454 255 0 0
0.168065 0.594427 0.018760 127 127 0
-0.204752 -0.899275 -0.245848 255 0 0
-0.319451 -0.227554 0.030118 255 0 0
-0.296384 -0.202163 -0.215261 255 0 0
-0.305350 0.486888 -0.204362 255 0 0
-0.275865 0.028107 0.165210 255 0 0
-0.293447 0.210240 -0.315163 255 0 0
0.302848 -0.353089 -0.032283 255 0 0
0.142526 0.151379 0.756910 0 255 0
0.191213 0.051368 0.157996 255 0 0
0.249077 -0.849621 0.016622 255 0 0
0.114843 0.159646 -0.420019 255 0 0
0.057322 -0.399362 0.635014 0 255 0
-0.083697 -0.948610 -0.266303 255 0 0
-0.311064 0.678811 -0.294080 127 127 0
0.302345 0.566028 0.086719 255 0 0
0.168229 -0.717177 -0.286441 255 0 0
0.255419 -0.203730 -0.141046 255 0 0
-0.076376 0.510864 -0.384046 255 0 0
-0.211061 0.594427 -0.154333 127 127 0
0.266817 -0.194151 -0.043177 255 0 0
0.364612 0.468523 -0.031212 255 0 0
0.022364 -0.700601 -0.349228 255 0 0
-0.126806 -0.322152 0.176272 255 0 0
-0.142322 0.566028 -0.153919 127 127 0
0.223337 0.539261 0.167258 255 0 0
-0.319028 0.312887 -0.283417 255 0 0
0.367390 0.331558 -0.058206 255 0 0
-0.257386 0.486635 -0.350565 255 0 0
0.208142 -0.375494 -0.288026 255 0 0
-0.312508 0.285644 0.030910 255 0 0
-0.141619 0.608133 -0.377774 127 127 0
0.286890 -0.090115 0.072993 255 0 0
-0.175463 -0.073897 -0.301350 255 0 0
0.080678 0.542335 0.252632 255 0 0
-0.289312 -0.645552 0.029785 255 0 0
-0.142744 0.594427 -0.094174 127 127 0
0.315598 0.691893 0.033764 127 127 0
0.083815 0.661087 -0.429491 127 127 0
-0.075720 -0.086928 0.258087 255 0 0
0.106526 0.566028 0.173799 127 127 0
0.001003 -0.531191 -0.365902 255 0 0
0.323552 0.034346 0.048999 255 0 0
-0.238169 0.268350 0.239697 255 0 0
0.324634 0.187900 0.111712 255 0 0
0.208332 -0.630901 -0.259661 255 0 0
0.072229 -0.125318 -0.335718 255 0 0
-0.386887 0.106488 -0.052210 255 0 0
0.299828 -0.423509 -0.058059 255 0 0
-0.228789 -0.393507 -0.202216 255 0 0
-0.389349 0.458306 -0.076024 255 0 0
-0.017672 -0.387775 -0.376408 255 0 0
0.311734 0.519630 -0.005626 255 0 0
0.119305 0.427381 -0.359246 255 0 0
0.197243 -0.215887 -0.309539 255 0 0
0.149390 -0.503317 -0.322796 255 0 0
-0.272563 0.379286 -0.249558 255 0 0
0.262766 -0.408039 -0.212811 255 0 0
0.037217 0.378723 0.312423 255 0 0
-0.013637 0.594427 -0.286906 127 127 0
-0.288135 -0.605782 -0.169737 255 0 0
-0.130347 0.564802 0.294467 255 0 0
-0.048168 0.594427 -0.230223 127 127 0
-0.286248 -0.725383 -0.139221 255 0 0
0.285555 0.172172 0.021380 255 0 0
-0.112489 -0.187708 0.197153 255 0 0
-0.190483 -0.606706 -0.212500 255 0 0
-0.145990 -0.948610 -0.084905 255 0 0
-0.036898 -0.284471 -0.382240 0 127 127
-0.304828 0.729446 0.109639 127 127 0
-0.008161 -0.400019 0.194510 255 0 0
0.149941 0.646235 -0.363280 127 127 0
0.172532 0.126574 0.676928 0 255 0
0.264251 -0.300505 0.096915 255 0 0
-0.300564 0.230929 0.054593 255 0 0
-0.280331 -0.432071 0.091336 255 0 0
0.141130 -0.116089 0.685910 0 255 0
0.147833 -0.319440 -0.276620 255 0 0
0.245473 0.443400 0.135409 255 0 0
0.062084 -0.845297 0.199462 255 0 0
-0.309322 0.540108 -0.296149 255 0 0
0.084173 -0.244474 0.252660 0 127 127
0.041479 0.254325 0.762063 0 255 0
0.068843 -0.145355 0.749904 0 255 0
0.140637 0.566028 -0.147369 127 127 0
0.324091 0.307905 -0.238908 255 0 0
-0.041354 0.458760 -0.386817 255 0 0
0.282936 -0.638370 -0.064181 255 0 0
0.088826 0.646176 0.262550 127 127 0
-0.276082 0.641759 0.014409 127 127 0
-0.022424 0.439131 -0.441420 255 0 0
-0.170895 0.566028 -0.245285 127 127 0
-0.146422 -0.132149 0.187182 255 0 0
-0.290002 0.427582 -0.319113 255 0 0
0.220083 0.594427 -0.202409 127 127 0
0.288899 0.446485 -0.187176 255 0 0
-0.305564 -0.041681 -0.234373 0 127 127
0.050255 -0.380658 -0.315557 255 0 0
-0.382769 0.372660 0.009133 255 0 0
-0.325371 0.276485 -0.038727 255 0 0
-0.209890 -0.684510 -0.273710 255 0 0
0.169993 0.462444 0.207131 255 0 0
0.088516 -0.108582 0.260106 0 127 127
0.103621 -0.216716 -0.364734 255 0 0
-0.286000 -0.815108 -0.086924 255 0 0
0.050553 0.140807 0.687438 0 255 0
-0.269387 0.706448 0.159032 127 127 0
-0.205518 -0.473282 0.175281 255 0 0
-0.214821 -0.806252 -0.026774 255 0 0
0.082668 0.007711 -0.344197 255 0 0
0.075525 0.617839 -0.392522 127 127 0
0.366555 0.143266 -0.090286 255 0 0
0.007026 -0.111856 0.704253 0 255 0
-0.014631 0.390308 0.635616 0 255 0
0.163130 0.305602 0.201721 255 0 0
-0.270745 0.235902 0.111122 255 0 0
-0.334540 0.077418 -0.242629 255 0 0
-0.297194 0.001196 -0.138264 255 0 0
-0.084372 -0.835229 -0.252400 255 0 0
-0.205526 0.460033 -0.323859 255 0 0
-0.387892 0.560067 -0.098626 255 0 0
-0.351821 0.021160 -0.005422 255 0 0
0.193720 0.546139 -0.320614 255 0 0
-0.319548 0.291852 -0.132159 255 0 0
0.034487 -0.647766 -0.286632 255 0 0
0.042074 -0.836832 -0.219030 255 0 0
0.266575 -0.207425 0.101967 255 0 0
-0.189374 -0.607152 0.173983 255 0 0
0.015360 -0.038188 -0.354442 255 0 0
0.115530 0.594427 -0.044756 127 127 0
-0.286468 -0.129078 -0.238035 255 0 0
0.233665 0.594427 -0.088853 127 127 0
0.179457 -0.063089 -0.349986 0 127 127
0.329545 0.595940 -0.072562 127 127 0
-0.273452 -0.868784 0.000253 255 0 0
-0.105252 -0.948610 -0.164348 255 0 0
0.206623 0.566028 0.215352 255 0 0
-0.109415 0.022507 0.217579 255 0 0
-0.303704 0.308940 0.177073 255 0 0
-0.208815 -0.406048 0.101029 255 0 0
-0.037926 0.480034 0.314472 255 0 0
0.232112 -0.893809 0.046904 255 0 0
0.090067 0.248420 0.480144 0 255 0
0.229021 -0.337714 0.142901 255 0 0
-0.101741 -0.836832 -0.043429 255 0 0
-0.060219 -0.029496 0.262336 255 0 0
0.291912 0.543075 -0.190965 255 0 0
0.249449 -0.792530 -0.161535 255 0 0
-0.119282 -0.162411 0.249415 0 127 127
0.003812 -0.773473 0.217016 255 0 0
0.014220 0.257137 0.249899 255 0 0
0.015614 -0.153803 0.754885 0 255 0
0.155956 0.003787 0.226235 255 0 0
0.196156 -0.948610 0.005765 255 0 0
0.291712 -0.528840 -0.045215 255 0 0
0.282294 0.110185 0.017112 255 0 0
-0.170645 -0.948610 -0.194786 255 0 0
-0.151539 -0.234228 -0.358961 0 127 127
-0.076990 0.210044 0.240896 255 0 0
0.108778 0.243078 -0.422167 255 0 0
-0.041038 0.131787 -0.367270 255 0 0
-0.054810 -0.189706 -0.383526 0 127 127
0.009667 -0.836832 0.096074 255 0 0
0.146877 0.395403 0.217462 255 0 0
0.191034 -0.613933 -0.178059 255 0 0
-0.136598 0.674002 -0.096140 127 127 0
0.048150 -0.577793 0.230246 255 0 0
-0.070341 -0.577346 0.230216 255 0 0
-0.288475 -0.206308 -0.067896 255 0 0
-0.143252 -0.379497 -0.347829 255 0 0
0.356385 0.496664 -0.153942 255 0 0
-0.326376 -0.045763 0.076266 0 127 127
0.046648 -0.240923 0.204902 255 0 0
-0.031360 -0.248853 0.257499 255 0 0
-0.295431 0.566028 0.148599 127 127 0
0.191927 0.275522 -0.304153 255 0 0
-0.083983 0.604182 0.308278 127 127 0
-0.126082 -0.761469 0.194130 255 0 0
-0.388318 0.313430 -0.093858 255 0 0
-0.382958 0.744845 -0.133494 127 127 0
0.284203 0.001530 -0.215750 255 0 0
-0.171555 0.534864 0.223562 255 0 0
0.122718 -0.447538 -0.277068 255 0 0
-0.263084 -0.449895 -0.059147 255 0 0
-0.129574 -0.901548 -0.301204 255 0 0
0.333790 0.412168 -0.219060 255 0 0
0.095170 0.703867 0.262301 127 127 0
0.240440 -0.420835 -0.019509 255 0 0
-0.203246 0.566028 0.002991 127 127 0
0.017281 0.623608 -0.440536 127 127 0
0.125584 -0.157770 0.183725 255 0 0
0.185977 -0.946557 0.107191 255 0 0
-0.234593 0.566028 -0.248670 127 127 0
-0.293172 -0.115805 0.130243 0 127 127
0.296965 0.433107 0.037160 255 0 0
-0.274280 -0.658997 -0.189510 255 0 0
-0.308219 0.594427 0.090477 127 127 0
0.061446 -0.008789 0.703364 0 255 0
0.269053 -0.077497 0.008852 255 0 0
0.096007 -0.948610 0.050091 255 0 0
-0.280746 0.272082 -0.225759 255 0 0
0.210519 -0.783883 0.107056 255 0 0
-0.222833 -0.744919 -0.102899 255 0 0
0.085030 -0.160957 -0.373684 255 0 0
0.137752 0.106415 -0.328085 255 0 0
0.088999 0.419356 0.593835 0 255 0
-0.123072 -0.668426 0.205518 255 0 0
-0.295053 -0.137509 -0.065997 255 0 0
-0.269657 -0.381689 -0.086242 255 0 0
0.365663 0.121922 -0.035870 255 0 0
-0.072921 0.278334 -0.436497 255 0 0
-0.327874 0.594427 -0.116451 127 127 0
0.102994 -0.800949 0.189917 255 0 0
0.173640 -0.626922 0.166820 255 0 0
-0.208043 0.029527 0.226699 255 0 0
-0.250311 -0.170992 0.176526 0 127 127
-0.181956 0.594427 0.147935 127 127 0
-0.072421 0.594427 -0.180861 127 127 0
0.286811 0.261023 0.170373 255 0 0
0.208995 0.431289 -0.300753 255 0 0
0.064361 0.432377 0.251808 255 0 0
-0.158124 -0.237100 0.223070 255 0 0
-0.033150 0.316652 0.494875 0 255 0
-0.140362 -0.897161 0.169958 255 0 0
-0.379055 0.489878 0.025534 255 0 0
0.007834 0.566028 0.314166 127 127 0
-0.007881 0.306479 0.686921 0 255 0
-0.222559 -0.301618 0.101480 255 0 0
-0.074186 -0.193038 0.254374 255 0 0
-0.389374 0.656149 -0.048628 127 127 0
0.067998 0.500571 0.307050 255 0 0
0.126055 0.110405 0.208377 255 0 0
0.221225 -0.124508 0.166018 255 0 0
-0.307879 -0.106107 0.074136 255 0 0
-0.255246 -0.014665 0.101606 255 0 0
0.143378 0.219890 0.755024 0 255 0
0.042720 -0.379442 0.246094 255 0 0
-0.210916 -0.023401 -0.343018 0 127 127
-0.339048 0.527844 -0.252019 255 0 0
0.124280 -0.264003 0.703975 0 255 0
-0.328268 0.641759 0.025737 127 127 0
-0.076494 -0.320728 -0.321016 255 0 0
0.203196 -0.712763 -0.014493 255 0 0
-0.052077 0.087618 -0.433287 255 0 0
-0.347043 -0.077502 -0.020156 0 127 127
-0.187515 0.629222 -0.397994 127 127 0
-0.047926 -0.420790 -0.315707 255 0 0
0.183311 0.184760 0.688676 0 255 0
0.208970 -0.699146 -0.088358 255 0 0
-0.180552 0.703600 0.232394 127 127 0
-0.062445 0.036743 -0.357196 255 0 0
-0.375190 0.157511 -0.166400 255 0 0
0.041732 -0.398822 -0.371313 255 0 0
-0.291411 -0.332943 -0.210475 255 0 0
-0.048513 0.321155 0.378104 0 255 0
-0.001943 -0.948610 -0.318607 255 0 0
0.121819 0.566028 -0.312675 127 127 0
-0.158636 -0.168730 -0.302265 255 0 0
-0.141619 0.158769 -0.418359 255 0 0
-0.249557 -0.298611 -0.274336 255 0 0
0.264701 0.594427 -0.243643 127 127 0
0.020870 0.503271 -0.440235 255 0 0
-0.383672 0.141823 0.003615 255 0 0
0.268850 -0.025925 -0.151776 255 0 0
0.179239 0.594427 0.097433 127 127 0
0.045387 0.566028 0.202956 127 127 0
-0.225627 0.166074 -0.374900 255 0 0
-0.340070 -0.093494 -0.090355 0 127 127
-0.328188 0.037589 0.095437 255 0 0
0.134522 -0.520097 0.203695 255 0 0
-0.137632 -0.438528 -0.346001 255 0 0
-0.057640 -0.694520 -0.347868 255 0 0
-0.099073 0.551721 0.254139 255 0 0
0.260864 -0.295253 -0.229375 255 0 0
-0.285993 0.060997 0.058019 255 0 0
-0.225523 -0.151003 -0.307840 255 0 0
0.196199 -0.800988 -0.077028 255 0 0
0.168468 0.398736 -0.396448 255 0 0
0.203758 0.222314 0.248474 255 0 0
0.263164 0.255804 -0.324177 255 0 0
0.045453 0.336656 0.720667 0 255 0
0.181595 -0.392383 0.109109 255 0 0
-0.239093 0.546335 -0.365273 255 0 0
-0.349977 0.688984 0.105651 127 127 0
-0.321579 0.754333 -0.203268 127 127 0
-0.131061 -0.671693 0.127368 255 0 0
-0.119467 0.195349 -0.353602 255 0 0
0.246854 0.110566 -0.337563 255 0 0
0.070142 -0.863912 -0.321169 255 0 0
0.065319 -0.309007 -0.371941 255 0 0
-0.121689 -0.021716 0.262068 0 127 127
0.305704 0.342716 -0.023729 255 0 0
0.010696 -0.167762 -0.387188 255 0 0
-0.018432 0.277179 0.606732 0 255 0
0.098557 -0.186921 0.259128 0 127 127
-0.117688 0.566028 0.078074 127 127 0
-0.278085 -0.227907 -0.130952 255 0 0
0.224453 -0.135238 -0.288553 255 0 0
-0.304513 -0.271295 0.064507 255 0 0
0.303531 -0.304240 -0.015037 255 0 0
-0.133169 -0.626972 -0.258998 255 0 0
0.276042 -0.199493 -0.211835 255 0 0
-0.019674 -0.445528 0.246185 255 0 0
-0.321665 -0.147828 -0.198628 0 127 127
-0.138061 0.565877 -0.415837 255 0 0
0.315980 0.380764 0.127339 255 0 0
0.162128 -0.218577 0.209110 255 0 0
0.113498 -0.326622 -0.354638 255 0 0
0.316598 0.044863 -0.207141 255 0 0
0.186719 -0.029848 0.745843 0 255 0
0.113893 0.167984 -0.344807 255 0 0
0.258401 -0.580700 -0.192739 255 0 0
-0.351216 -0.050456 -0.116407 0 127 127
0.258155 0.178534 -0.329134 255 0 0
-0.172018 0.499331 -0.405798 255 0 0
-0.313183 0.481709 0.060055 255 0 0
-0.212337 0.198841 -0.299381 255 0 0
-0.363213 0.247687 -0.202220 255 0 0
-0.274420 0.136663 0.208629 255 0 0
-0.074297 0.566028 0.190416 127 127 0
-0.119041 -0.948610 0.039823 255 0 0
0.140617 -0.862177 0.161019 255 0 0
0.167897 0.357155 0.571522 0 255 0
0.242024 -0.755827 0.061967 255 0 0
0.250275 0.659773 0.210657 127 127 0
-0.102427 -0.321222 -0.367043 255 0 0
-0.151059 -0.800550 0.090425 255 0 0
0.179992 -0.666887 -0.282817 255 0 0
0.004546 0.035621 0.234952 255 0 0
-0.217108 0.517679 0.191876 255 0 0
-0.065544 -0.734231 -0.273085 255 0 0
0.031102 0.429710 0.386554 0 255 0
-0.244985 -0.487509 -0.144842 255 0 0
-0.250722 0.612074 -0.127060 127 127 0
0.180018 -0.147809 0.216679 0 127 127
-0.202856 0.635664 0.263330 127 127 0
0.061863 -0.924051 0.189770 255 0 0
0.204671 0.141171 0.247847 255 0 0
0.108705 -0.040425 0.696636 0 255 0
-0.038443 -0.572735 -0.299066 255 0 0
0.235933 -0.353885 0.025930 255 0 0
-0.342795 0.639222 -0.140863 127 127 0
0.338275 0.298729 0.082490 255 0 0
0.293558 -0.370187 0.015035 255 0 0
-0.080926 -0.598178 -0.352226 255 0 0
0.130764 -0.122000 -0.310648 255 0 0
-0.071702 -0.044422 -0.348777 255 0 0
-0.329383 -0.255636 -0.022177 255 0 0
0.300551 -0.305253 -0.127804 255 0 0
0.277348 -0.571722 0.018305 255 0 0
-0.005059 -0.836832 -0.124473 255 0 0
-0.163015 0.641759 0.026476 127 127 0
-0.358294 0.566028 0.080450 127 127 0
-0.096566 0.708025 0.292295 127 127 0
-0.019990 0.594427 -0.133850 127 127 0
-0.020676 0.376799 0.300979 0 255 0
-0.315483 0.519438 0.162047 255 0 0
-0.160035 -0.585788 -0.321821 255 0 0
0.114544 -0.948610 -0.227956 255 0 0
0.085230 -0.948610 -0.178325 255 0 0
0.129059 0.468523 0.285430 255 0 0
0.284303 0.008884 -0.039124 255 0 0
0.076359 0.566028 0.117924 127 127 0
0.303504 0.354004 -0.120286 255 0 0
-0.063477 0.594427 -0.042311 127 127 0
-0.245213 -0.781432 0.089967 255 0 0
0.094481 0.059948 -0.411619 255 0 0
-0.143631 0.693516 -0.417670 127 127 0
-0.341289 -0.165275 -0.135495 0 127 127
-0.236171 -0.270685 -0.214337 255 0 0
-0.272914 -0.370005 0.111014 255 0 0
0.249747 -0.428416 0.105615 255 0 0
0.168584 -0.285468 0.137955 255 0 0
-0.044354 0.142335 0.313898 255 0 0
0.261446 0.542003 -0.247053 255 0 0
-0.201585 -0.631941 0.066027 255 0 0
0.297588 0.509950 0.045951 255 0 0
-0.019895 0.684593 -0.403738 127 127 0
0.037408 -0.948610 -0.267898 255 0 0
0.040601 -0.836832 -0.102598 255 0 0
-0.235624 -0.213130 -0.225134 255 0 0
0.166140 0.296835 0.558168 0 255 0
0.308983 0.547118 -0.139362 255 0 0
0.042278 0.172526 0.340992 0 255 0
-0.295970 -0.066189 -0.007597 255 0 0
0.248385 0.566028 -0.134807 127 127 0
-0.229692 -0.739703 -0.244532 255 0 0
0.075636 0.085684 0.695305 0 255 0
-0.066649 0.636421 -0.437591 127 127 0
0.092454 -0.551089 -0.279806 255 0 0
0.329181 0.682733 -0.046789 127 127 0
0.224371 -0.947585 0.048116 255 0 0
0.018881 -0.836832 -0.017761 255 0 0
0.032597 -0.090520 -0.347787 255 0 0
-0.280957 0.566028 0.044746 127 127 0
0.268457 -0.748624 -0.018534 255 0 0
0.363593 0.219187 -0.009514 255 0 0
0.347904 0.654540 0.056779 127 127 0
-0.202768 -0.441911 -0.228042 255 0 0
-0.093052 -0.473814 0.233227 255 0 0
0.311062 -0.230289 -0.065726 255 0 0
-0.122932 0.191501 0.298558 255 0 0
0.186582 0.043315 0.234541 255 0 0
-0.175944 -0.548240 0.112038 255 0 0
-0.238232 -0.629300 -0.102419 255 0 0
0.271161 -0.498746 0.053926 255 0 0
0.232456 0.667716 -0.352822 127 127 0
0.275473 0.119861 0.182669 255 0 0
0.064812 -0.544163 -0.355499 255 0 0
0.116981 -0.836832 -0.072878 255 0 0
0.215015 -0.158917 -0.231640 255 0 0
-0.315945 0.213909 -0.126355 255 0 0
0.227874 0.471459 0.230469 255 0 0
0.008351 0.594427 0.055462 127 127 0
-0.205985 -0.458341 -0.302350 255 0 0
0.280697 0.263405 -0.180495 255 0 0
0.008829 0.458110 0.441911 0 255 0
-0.327190 0.687814 -0.189958 127 127 0
-0.287955 -0.709317 0.013150 255 0 0
-0.008049 0.240537 -0.376100 255 0 0
0.315253 0.507596 -0.254824 255 0 0
-0.269291 0.322587 0.122576 255 0 0
0.267987 0.187359 0.070820 255 0 0
0.294384 0.703182 -0.216839 127 127 0
-0.000341 0.160723 0.744232 0 255 0
0.035464 -0.318251 0.241858 255 0 0
0.095204 0.028658 0.215206 255 0 0
-0.065282 -0.876632 -0.326608 255 0 0
0.096112 -0.792909 0.116032 255 0 0
0.278602 0.522004 0.090692 255 0 0
0.219725 -0.517289 -0.142923 255 0 0
0.184073 -0.193135 0.135855 255 0 0
0.039193 -0.948610 0.041363 255 0 0
0.199132 0.262924 -0.377834 255 0 0
0.035158 -0.948610 -0.065505 255 0 0
0.246930 0.508545 -0.340245 255 0 0
0.280193 0.023893 -0.124000 255 0 0
-0.046291 -0.517853 0.178458 255 0 0
0.132029 0.068260 0.690196 0 255 0
-0.101081 0.372497 0.244675 255 0 0
-0.195595 0.594427 0.044683 127 127 0
-0.322122 0.216015 -0.045704 255 0 0
-0.075937 -0.253791 -0.377449 255 0 0
0.081009 -0.093645 -0.377258 255 0 0
0.209647 -0.399698 -0.195889 255 0 0
0.038272 0.016457 0.276053 255 0 0
-0.240467 0.619020 0.084317 127 127 0
-0.169294 -0.620516 0.106179 255 0 0
0.197208 -0.260407 0.204612 0 127 127
0.063171 0.078503 0.767351 0 255 0
0.303806 0.099163 -0.266612 255 0 0
-0.005019 -0.206113 0.214293 255 0 0
0.145918 0.100160 0.277479 255 0 0
0.218949 0.594427 -0.299960 127 127 0
0.300877 -0.047782 -0.192745 0 127 127
0.217474 -0.029765 -0.246885 255 0 0
0.087011 -0.565238 0.154197 255 0 0
0.286580 0.342734 0.052253 255 0 0
0.009112 0.594427 -0.073015 127 127 0
-0.037820 0.303404 0.252560 255 0 0
0.009176 0.566028 -0.320685 127 127 0
0.235659 -0.168459 0.147978 255 0 0
-0.002731 -0.948610 -0.195107 255 0 0
-0.240306 -0.634216 -0.045407 255 0 0
0.247571 0.276062 0.116975 255 0 0
-0.389238 0.205600 -0.080240 255 0 0
-0.142886 -0.164296 -0.360057 255 0 0
0.283787 0.690559 0.107499 127 127 0
0.102745 0.429710 0.456296 0 255 0
-0.116203 0.493277 0.300475 255 0 0
0.125659 -0.648529 0.119402 255 0 0
0.363317 0.598363 -0.007235 127 127 0
-0.370319 0.436756 0.056535 255 0 0
0.281511 0.575304 -0.303171 127 127 0
-0.162244 -0.321130 0.216109 255 0 0
0.130542 0.353529 0.694644 0 255 0
-0.169119 -0.836832 0.059968 255 0 0
-0.015512 -0.108649 0.223316 255 0 0
-0.020705 0.389838 -0.441483 255 0 0
-0.144849 -0.038435 -0.363586 255 0 0
-0.177539 0.051370 -0.312319 255 0 0
0.094028 -0.498766 0.223771 255 0 0
-0.172189 -0.091509 0.228387 0 127 127
0.144058 0.566028 0.247748 127 127 0
0.259729 0.366065 0.108202 255 0 0
0.147000 0.699634 0.238811 127 127 0
0.231579 0.525531 -0.283903 255 0 0
-0.358365 0.737899 0.087713 127 127 0
0.317645 0.549160 -0.044567 255 0 0
0.105698 -0.509581 -0.344545 255 0 0
-0.153836 -0.836832 -0.197558 255 0 0
-0.086080 -0.836832 0.051500 255 0 0
0.023590 -0.338947 -0.324994 255 0 0
0.195742 0.575402 -0.380095 127 127 0
-0.323849 -0.320970 -0.009133 255 0 0
0.223267 -0.462700 0.137120 255 0 0
-0.263027 0.158166 -0.239441 255 0 0
-0.303607 0.660615 0.111575 127 127 0
0.285692 -0.595078 -0.086969 255 0 0
-0.372001 0.363820 -0.177590 255 0 0
0.112492 -0.177936 0.735853 0 255 0
0.168569 0.232025 0.602978 0 255 0
0.018813 0.288592 0.295783 0 255 0
0.327983 0.642572 -0.096548 127 127 0
0.119914 0.456167 0.349365 0 255 0
-0.303573 0.094159 -0.295967 255 0 0
0.078833 -0.706522 -0.336151 255 0 0
0.271511 -0.008523 0.106722 255 0 0
0.046643 -0.948610 0.108254 255 0 0
0.236376 -0.233223 0.056613 255 0 0
-0.096067 0.424015 0.248919 255 0 0
-0.314013 -0.166108 0.094443 0 127 127
0.016300 0.433466 -0.385822 255 0 0
-0.343871 0.708273 0.010215 127 127 0
-0.169494 -0.184683 0.219585 255 0 0
0.267950 -0.133934 -0.008515 255 0 0
-0.274606 0.566028 -0.037790 127 127 0
0.072064 -0.445931 -0.361117 255 0 0
0.251853 0.566028 -0.017296 127 127 0
-0.347688 -0.282480 -0.092176 0 127 127
-0.285228 0.454101 0.111514 255 0 0
-0.247541 0.380754 0.232505 255 0 0
-0.228889 0.182507 0.246515 255 0 0
-0.214599 0.302102 -0.305975 255 0 0
-0.055277 -0.915631 0.197411 255 0 0
-0.090686 -0.836832 -0.143038 255 0 0
-0.155749 0.528420 -0.357766 255 0 0
-0.240865 -0.247106 -0.312627 0 127 127
0.104344 -0.911052 -0.301421 255 0 0
0.130105 -0.289041 0.642183 0 255 0
-0.163966 0.244675 -0.409331 255 0 0
-0.234874 -0.547839 -0.265532 255 0 0
0.181827 0.107713 0.171888 255 0 0
-0.363908 0.337115 0.074058 255 0 0
0.224343 0.053071 0.122539 255 0 0
-0.337523 0.695893 -0.254885 127 127 0
0.362120 0.673844 -0.126410 127 127 0
-0.138085 0.141700 -0.341895 255 0 0
0.138549 0.594427 -0.222042 127 127 0
0.117885 0.251159 0.520047 0 255 0
0.090781 0.079662 0.221055 255 0 0
0.208938 -0.631949 0.004539 255 0 0
-0.168022 -0.276422 -0.341779 255 0 0
0.011174 0.672049 0.314708 127 127 0
0.292986 0.474128 -0.288684 255 0 0
0.080082 0.341905 -0.430596 255 0 0
0.086905 -0.420249 0.232374 255 0 0
0.197265 -0.710704 -0.133887 255 0 0
0.132026 0.297694 0.733118 0 255 0
-0.241251 -0.584334 -0.010469 255 0 0
-0.273065 -0.235932 0.019345 255 0 0
0.055903 0.064593 0.296626 255 0 0
-0.166041 -0.731875 0.089059 255 0 0
-0.019202 -0.948610 -0.130606 255 0 0
-0.286486 0.087301 0.187501 255 0 0
0.042630 0.594427 -0.215568 127 127 0
0.060889 0.131895 0.290247 0 255 0
0.243097 -0.385469 -0.114240 255 0 0
-0.375310 0.797293 0.029746 127 127 0
-0.311031 -0.247714 -0.178321 255 0 0
0.292413 0.116005 -0.088668 255 0 0
-0.318945 0.401753 0.032026 255 0 0
0.283876 -0.456803 0.027986 255 0 0
-0.039731 0.641759 -0.072941 127 127 0
-0.332129 -0.153742 -0.010778 255 0 0
-0.325426 0.634790 -0.194383 127 127 0
0.102988 0.565951 0.293496 255 0 0
-0.004935 -0.836832 -0.208614 255 0 0
-0.184134 -0.014522 0.175350 255 0 0
0.125461 -0.529860 0.137500 255 0 0
-0.126225 -0.270877 0.235586 255 0 0
-0.244627 -0.948610 0.005660 255 0 0
-0.043915 -0.448615 -0.370569 255 0 0
0.188561 -0.618489 0.054824 255 0 0
0.192626 -0.584305 0.155335 255 0 0
-0.307029 0.552102 -0.207428 255 0 0
-0.292210 0.216658 -0.197439 255 0 0
-0.027672 -0.331216 0.201378 255 0 0
0.174102 -0.576774 -0.211060 255 0 0
0.113965 0.330113 0.283264 0 255 0
0.035336 -0.488311 0.180258 255 0 0
-0.090327 0.594427 -0.089374 127 127 0
-0.174803 -0.414483 0.133705 255 0 0
-0.162845 0.501254 0.283622 255 0 0
0.128833 0.247369 0.217332 255 0 0
-0.331485 0.545827 0.011434 255 0 0
-0.248605 -0.324282 0.055864 255 0 0
0.264862 -0.653993 -0.159897 255 0 0
0.201274 -0.753787 -0.249476 255 0 0
0.168880 -0.235674 0.656240 0 255 0
0.027542 -0.145088 -0.343723 255 0 0
-0.050649 -0.948610 0.042090 255 0 0
0.266048 -0.188093 -0.097198 255 0 0
-0.348454 0.615718 -0.017249 127 127 0
0.342638 0.292223 -0.197818 255 0 0
-0.048968 -0.637462 -0.289390 255 0 0
-0.306705 -0.570334 -0.013060 255 0 0
0.044954 0.662481 0.272931 127 127 0
-0.373611 0.719316 0.045853 127 127 0
0.257981 -0.289829 -0.054745 255 0 0
0.174866 0.681995 -0.392767 127 127 0
0.013153 0.358331 -0.382139 255 0 0
-0.322603 0.417200 -0.278097 255 0 0
0.125746 0.037628 0.759117 0 255 0
-0.220178 0.594427 -0.085769 127 127 0
-0.071091 -0.143622 0.257090 255 0 0
-0.099877 0.618440 0.265737 127 127 0
-0.058653 0.646905 0.312363 127 127 0
-0.304487 -0.635786 -0.084455 255 0 0
0.006499 0.011116 -0.401967 255 0 0
0.007258 0.110776 -0.366855 255 0 0
0.035972 0.602463 0.274271 127 127 0
-0.113956 0.456092 -0.427365 255 0 0
0.069503 0.618543 -0.014983 127 127 0
0.042044 -0.246448 -0.331567 255 0 0
0.240725 -0.684874 0.079693 255 0 0
0.134670 -0.948610 -0.049061 255 0 0
-0.130713 0.034824 -0.336450 255 0 0
0.083873 0.247507 0.287223 0 255 0
0.365899 0.520399 -0.029575 255 0 0
-0.111363 -0.245094 -0.317908 255 0 0
0.247522 -0.105439 -0.187209 255 0 0
0.177473 -0.808876 -0.265723 255 0 0
-0.067141 -0.782167 -0.337088 255 0 0
0.159639 0.566028 -0.023252 127 127 0
0.345493 0.200941 -0.190014 255 0 0
-0.278018 0.006746 0.065491 255 0 0
0.254941 0.666690 -0.275869 127 127 0
0.290480 -0.145741 -0.214012 0 127 127
-0.009050 -0.657289 -0.355245 255 0 0
0.352120 0.329457 0.043341 255 0 0
-0.181721 0.410730 0.274715 255 0 0
0.190843 -0.077638 -0.270041 255 0 0
-0.229047 -0.686128 0.127201 255 0 0
-0.275646 -0.179100 -0.154825 255 0 0
0.122107 -0.075474 -0.362824 255 0 0
0.163209 0.566028 -0.275172 127 127 0
0.170755 0.499835 -0.395206 255 0 0
-0.327528 -0.049791 0.025596 255 0 0
-0.132627 0.641759 -0.027485 127 127 0
0.214848 -0.054661 0.199422 0 127 127
0.154277 -0.171780 -0.342387 255 0 0
0.005474 -0.161988 0.272616 0 127 127
0.153742 -0.892321 -0.273232 255 0 0
-0.313580 0.018269 -0.226958 255 0 0
-0.298695 0.325977 0.073279 255 0 0
-0.288510 -0.247565 -0.225004 255 0 0
-0.035835 0.367600 0.474463 0 255 0
0.273844 -0.103207 -0.097275 255 0 0
-0.373442 0.113293 0.040600 255 0 0
-0.238981 -0.896953 0.075008 255 0 0
0.133040 -0.816610 -0.209606 255 0 0
0.253573 -0.253024 -0.130346 255 0 0
-0.048098 0.218771 0.381262 0 255 0
0.260489 -0.086032 0.120152 255 0 0
0.278407 -0.056534 -0.033876 255 0 0
0.217922 -0.461197 -0.165158 255 0 0
0.073254 0.394995 -0.432085 255 0 0
-0.146124 -0.573001 0.204322 255 0 0
0.143141 -0.383574 0.635034 0 255 0
0.060382 -0.836832 0.014542 255 0 0
0.231508 -0.942597 -0.159467 255 0 0
-0.203629 0.087753 0.170344 255 0 0
-0.220811 0.667879 -0.378290 127 127 0
0.314455 -0.282081 0.027891 0 127 127
-0.278631 0.277440 0.204592 255 0 0
-0.157146 -0.532606 -0.256534 255 0 0
-0.158465 0.594427 0.095829 127 127 0
-0.255650 -0.020509 -0.283790 255 0 0
0.314738 -0.134716 -0.054392 255 0 0
0.062143 -0.354703 0.621827 0 255 0
-0.001562 0.329928 -0.441462 255 0 0
-0.008702 -0.024109 0.230745 255 0 0
-0.093973 -0.948610 0.129214 255 0 0
0.304327 0.283405 -0.073408 255 0 0
0.038643 0.230343 -0.438379 255 0 0
-0.317331 0.210432 0.159501 255 0 0
0.239017 0.202180 -0.247387 255 0 0
-0.080452 0.104522 0.232640 255 0 0
-0.276572 -0.318047 -0.083812 255 0 0
0.243868 -0.187443 0.050819 255 0 0
0.234258 -0.220558 0.146157 255 0 0
-0.229250 -0.480218 0.056194 255 0 0
-0.127440 -0.707979 -0.250255 255 0 0
0.362232 0.424976 -0.125378 255 0 0
-0.319331 0.128204 0.156016 255 0 0
0.135023 0.376268 0.321671 0 255 0
-0.195867 0.137198 -0.307081 255 0 0
-0.190889 -0.948610 -0.236799 255 0 0
0.326578 -0.130449 -0.007814 0 127 127
-0.280715 0.616953 -0.328833 127 127 0
0.192009 0.199118 0.171547 255 0 0
-0.049231 -0.621134 0.165281 255 0 0
0.215024 -0.093997 -0.320880 0 127 127
-0.176839 0.594427 0.219373 127 127 0
0.098837 0.413811 0.285254 0 255 0
0.108943 0.657898 -0.381935 127 127 0
0.118025 -0.286176 -0.299885 255 0 0
0.227077 0.566028 0.122674 127 127 0
-0.313866 -0.413901 -0.137143 255 0 0
-0.228709 0.319534 0.246636 255 0 0
-0.349530 0.764575 -0.024641 127 127 0
0.350259 0.638127 -0.175738 127 127 0
0.066596 0.202090 0.371033 0 255 0
-0.250818 -0.727318 0.091751 255 0 0
-0.075522 -0.836832 0.128082 255 0 0
-0.297907 0.012739 0.120221 255 0 0
0.074091 -0.474262 -0.297363 255 0 0
-0.310947 0.057000 -0.051156 255 0 0
0.210678 -0.452255 0.056168 255 0 0
-0.387043 0.558593 -0.019078 255 0 0
0.275230 -0.130741 0.093223 255 0 0
-0.203223 0.096325 0.258045 255 0 0
-0.272442 -0.211404 0.126601 255 0 0
0.047712 -0.781828 0.138794 255 0 0
0.008360 -0.776424 -0.342664 255 0 0
-0.053754 0.237867 0.338272 0 255 0
-0.220785 -0.318251 0.160917 255 0 0
0.162491 -0.781383 -0.181932 255 0 0
0.060378 0.194344 -0.364787 255 0 0
-0.151285 0.680667 -0.007342 127 127 0
0.113138 -0.591110 0.207834 255 0 0
0.275004 0.594427 0.062660 127 127 0
0.309109 -0.053208 0.010462 255 0 0
0.277371 0.151463 -0.168188 255 0 0
0.010785 0.594427 -0.397158 127 127 0
-0.276001 0.543636 -0.333469 255 0 0
0.366586 0.385360 -0.037266 255 0 0
-0.236350 -0.398355 -0.280003 255 0 0
0.294381 0.203315 -0.119723 255 0 0
0.302578 0.166770 -0.274926 255 0 0
0.090700 0.566028 -0.136594 127 127 0
-0.236006 -0.231115 0.095264 255 0 0
-0.136150 -0.068675 -0.324790 255 0 0
-0.002868 -0.431650 -0.316998 255 0 0
-0.264721 -0.035703 0.146565 255 0 0
0.012328 -0.709997 0.155723 255 0 0
0.252537 -0.867767 -0.121504 255 0 0
0.038806 -0.685268 0.221997 255 0 0
-0.073374 0.377425 -0.378076 255 0 0
0.364533 0.184432 -0.110559 255 0 0
-0.206176 -0.784524 0.136816 255 0 0
0.232938 0.611114 0.174577 127 127 0
0.122080 -0.252464 0.175399 255 0 0
-0.095360 -0.583098 0.157681 255 0 0
0.156963 0.566028 0.143145 127 127 0
0.037601 -0.184544 0.212125 255 0 0
-0.216236 -0.569496 -0.183558 255 0 0
0.006659 -0.092896 -0.390142 255 0 0
-0.271402 -0.810838 0.029901 255 0 0
0.277332 0.539304 0.182006 255 0 0
-0.384892 0.654975 -0.123482 127 127 0
-0.331461 0.368586 -0.054981 255 0 0
-0.231630 -0.519982 0.146158 255 0 0
-0.272143 0.566028 -0.152311 127 127 0
0.032354 0.429710 0.304611 0 255 0
0.123580 -0.212907 0.668379 0 255 0
0.333582 0.406000 0.093492 255 0 0
0.296611 0.659495 0.157291 127 127 0
0.123984 -0.377062 -0.346631 255 0 0
0.146165 -0.378243 -0.270159 255 0 0
-0.054866 0.566028 0.288423 255 0 0
0.023503 0.249962 0.552925 0 255 0
0.116145 -0.704469 0.194860 255 0 0
-0.076151 0.566028 -0.338733 127 127 0
0.102112 0.071652 -0.342327 255 0 0
-0.217586 -0.120835 0.189878 255 0 0
0.182249 -0.129618 -0.272168 255 0 0
0.045994 0.596997 -0.138528 127 127 0
-0.184671 -0.691202 -0.202381 255 0 0
-0.314258 -0.350070 0.024647 255 0 0
0.249246 0.002150 -0.270548 255 0 0
0.206179 -0.421735 -0.285731 255 0 0
0.184084 0.233812 0.694547 0 255 0
0.182692 -0.946909 -0.237073 255 0 0
0.011084 0.622610 -0.154336 127 127 0
0.309958 0.390487 -0.084488 255 0 0
-0.195902 -0.367451 0.121429 255 0 0
-0.298147 0.375768 -0.206400 255 0 0
-0.024235 -0.836832 -0.032301 255 0 0
0.183177 0.001111 0.159911 255 0 0
-0.227470 0.422208 0.177124 255 0 0
0.051712 -0.626760 0.159010 255 0 0
-0.105788 0.548260 -0.378254 255 0 0
-0.325570 -0.370800 -0.060856 255 0 0
-0.051505 0.566028 0.114030 127 127 0
-0.268580 -0.119247 -0.283519 0 127 127
-0.314492 0.566028 -0.250750 255 0 0
-0.188669 -0.803618 -0.170075 255 0 0
-0.116975 -0.084268 0.205427 255 0 0
-0.236138 -0.193877 -0.295743 255 0 0
-0.131523 -0.809592 0.185893 255 0 0
0.352477 0.065543 -0.018323 255 0 0
-0.373848 0.460546 -0.171110 255 0 0
0.310436 -0.136428 -0.102488 0 127 127
0.311020 0.500309 -0.119276 255 0 0
-0.388987 0.743606 -0.084195 127 127 0
-0.258951 0.156573 0.118882 255 0 0
0.158051 0.256709 -0.327702 255 0 0
0.164019 0.075407 -0.388341 255 0 0
-0.168413 0.468965 -0.348279 255 0 0
-0.000173 0.458110 0.486299 0 255 0
-0.316418 -0.420856 -0.002670 255 0 0
0.312714 0.001488 0.012034 255 0 0
-0.336702 0.470578 0.123363 255 0 0
0.250720 -0.803415 0.028186 255 0 0
0.039219 0.000194 -0.354527 255 0 0
0.001860 -0.484666 -0.369506 255 0 0
0.126711 0.330279 -0.415799 255 0 0
-0.337459 0.500236 -0.041564 255 0 0
0.282511 0.372282 -0.302046 255 0 0
-0.158643 0.345169 -0.411667 255 0 0
0.215934 -0.530074 0.022703 255 0 0
-0.001018 0.091983 0.739082 0 255 0
0.130094 0.208443 0.631721 0 255 0
-0.079324 -0.948610 -0.044294 255 0 0
0.224588 -0.555812 -0.019593 255 0 0
0.354541 0.468523 0.028120 255 0 0
-0.129927 -0.809989 -0.231899 255 0 0
-0.018050 0.594427 0.217645 127 127 0
-0.069958 -0.090161 -0.385312 255 0 0
0.106067 -0.226688 0.721169 0 255 0
0.072586 -0.311020 0.688255 0 255 0
-0.292475 -0.558916 -0.169640 255 0 0
-0.027345 0.595768 -0.441290 127 127 0
-0.088004 -0.022239 -0.398781 0 127 127
-0.063329 -0.836832 -0.212819 255 0 0
-0.068408 -0.311625 0.248948 255 0 0
-0.024363 0.676323 0.277356 127 127 0
0.134759 -0.123003 0.228864 255 0 0
-0.049413 -0.154453 0.216651 255 0 0
-0.088330 0.366480 0.307413 255 0 0
0.328595 0.635697 -0.037807 127 127 0
0.294973 -0.263838 -0.209001 0 127 127
-0.226907 0.687954 0.200405 127 127 0
0.183624 -0.281161 -0.250407 255 0 0
0.065551 -0.249777 -0.375037 255 0 0
0.091502 0.521213 -0.374602 255 0 0
0.279386 -0.423266 -0.174194 255 0 0
0.253279 -0.076461 -0.281883 0 127 127
0.095317 -0.025570 -0.374699 255 0 0
-0.153830 0.269610 0.287468 255 0 0
-0.097185 0.566028 0.123059 127 127 0
-0.015925 0.025560 0.284997 255 0 0
-0.236485 -0.151762 0.107413 255 0 0
-0.083041 0.566028 0.048712 127 127 0
0.030710 -0.880664 0.202080 255 0 0
-0.204037 0.566028 -0.215361 127 127 0
0.059970 -0.021936 0.767045 0 255 0
-0.216147 -0.270965 0.182644 255 0 0
0.143466 -0.311625 0.210304 255 0 0
-0.025759 -0.538401 0.239052 255 0 0
-0.273936 -0.159363 0.038829 255 0 0
-0.349364 -0.143126 -0.094856 0 127 127
-0.206397 0.026222 -0.287815 255 0 0
0.156617 0.594427 -0.070556 127 127 0
-0.337433 0.628613 -0.255048 127 127 0
0.212999 -0.340048 0.076681 255 0 0
0.187175 0.594427 -0.245193 127 127 0
0.282532 0.594427 -0.132184 127 127 0
-0.149022 -0.535447 -0.332526 255 0 0
-0.123888 -0.102951 -0.381000 0 127 127
-0.246893 -0.605714 -0.243277 255 0 0
-0.058427 0.046841 0.292628 255 0 0
0.029684 0.176941 0.672105 0 255 0
0.285878 -0.208419 0.060738 0 127 127
-0.127539 0.211704 -0.423343 255 0 0
0.144391 -0.197429 0.167680 255 0 0
0.208877 0.654415 0.244888 127 127 0
0.145058 -0.829968 -0.288624 255 0 0
-0.339216 0.170133 0.125608 255 0 0
0.117969 -0.013720 -0.327953 255 0 0
0.271709 -0.146995 -0.075196 255 0 0
-0.046591 -0.797923 -0.268142 255 0 0
-0.139482 0.417116 -0.359508 255 0 0
0.273937 -0.073554 -0.225555 255 0 0
0.263716 -0.823664 -0.073026 255 0 0
-0.223787 -0.079221 -0.258888 255 0 0
-0.321721 0.001020 -0.180583 255 0 0
-0.384971 0.464696 -0.121870 255 0 0
-0.297514 0.352169 0.184344 255 0 0
-0.298377 0.115022 -0.163929 255 0 0
0.138785 0.268874 0.350267 0 255 0
0.100159 -0.656363 -0.333305 255 0 0
0.123970 -0.233354 0.229149 255 0 0
-0.184139 0.428596 0.210494 255 0 0
0.083843 -0.323113 0.185140 255 0 0
0.294317 -0.460450 -0.020183 255 0 0
-0.016998 0.594427 -0.036104 127 127 0
0.262594 0.471363 -0.322282 255 0 0
0.333259 0.566028 -0.006464 127 127 0
-0.016824 -0.948610 0.013146 255 0 0
-0.115071 0.666924 0.261242 127 127 0
0.242785 0.116663 0.105188 255 0 0
-0.099692 0.673407 -0.431095 127 127 0
-0.389585 0.712315 -0.052196 127 127 0
0.316681 0.617413 -0.252561 127 127 0
-0.277552 0.037589 -0.197831 255 0 0
-0.185060 0.566028 -0.063799 127 127 0
0.266289 0.187942 -0.200583 255 0 0
-0.100431 0.658520 0.304712 127 127 0
-0.079231 0.641759 -0.103207 127 127 0
0.367440 0.491552 -0.068622 255 0 0
-0.326138 0.291582 -0.088641 255 0 0
-0.200470 -0.051668 0.158329 255 0 0
0.009456 -0.810456 0.142218 255 0 0
-0.023642 -0.948610 -0.033966 255 0 0
0.366619 0.574369 -0.087247 127 127 0
-0.151191 0.566028 0.246963 127 127 0
0.217446 0.464609 0.168527 255 0 0
0.058750 -0.836832 0.059379 255 0 0
0.315659 -0.039861 -0.100724 255 0 0
-0.117409 -0.156148 -0.324605 255 0 0
-0.330113 0.440000 -0.005077 255 0 0
-0.023293 0.185291 -0.441389 255 0 0
-0.229913 0.597361 0.197906 127 127 0
0.278704 0.076931 -0.146898 255 0 0
-0.236377 -0.364726 0.156721 255 0 0
-0.030779 -0.803516 0.213487 255 0 0
0.046325 0.064596 -0.424416 255 0 0
0.063626 0.429710 0.345545 0 255 0
-0.145390 -0.386726 -0.284620 255 0 0
-0.044617 -0.005373 -0.391160 255 0 0
-0.283348 -0.004553 -0.249213 255 0 0
-0.229314 -0.441585 0.156622 255 0 0
-0.160372 0.594427 -0.340638 127 127 0
-0.323272 0.760502 0.073368 127 127 0
0.273136 -0.703305 -0.018480 255 0 0
0.242390 -0.612083 0.090218 255 0 0
-0.322371 0.338843 -0.132374 255 0 0
0.297668 -0.135575 0.041343 255 0 0
0.024914 0.195275 0.244879 255 0 0
0.173644 -0.263871 0.697027 0 255 0
0.304952 -0.338880 -0.075843 255 0 0
-0.351695 0.786960 -0.062003 127 127 0
0.169606 -0.735156 0.056535 255 0 0
-0.221520 -0.597726 0.040456 255 0 0
0.008807 0.360937 0.256434 255 0 0
0.226278 -0.017606 0.165388 255 0 0
-0.351690 0.689908 -0.064331 127 127 0
-0.048019 0.566028 -0.263253 127 127 0
0.015059 -0.394448 0.644310 0 255 0
-0.389490 0.350243 -0.070631 255 0 0
-0.270804 0.606356 -0.283496 127 127 0
0.366906 0.271548 -0.083194 255 0 0
0.316373 -0.090283 -0.058136 255 0 0
-0.285887 0.146659 0.073096 255 0 0
0.022026 0.123511 -0.439465 255 0 0
-0.258731 -0.927346 -0.151011 255 0 0
-0.005145 0.641759 0.007656 127 127 0
0.225786 -0.215470 -0.205845 255 0 0
0.082793 0.429710 0.416734 0 255 0
0.341816 0.092077 0.058927 255 0 0
-0.016633 -0.948610 0.112585 255 0 0
0.366952 0.431505 -0.081938 255 0 0
-0.108108 -0.601720 0.217715 255 0 0
-0.257515 -0.488598 -0.038700 255 0 0
0.199523 -0.590882 -0.274003 255 0 0
0.270431 0.671161 -0.316178 127 127 0
0.129348 -0.082092 0.752979 0 255 0
-0.339426 -0.052630 -0.074708 255 0 0
0.134479 0.181032 0.318327 0 255 0
0.320160 -0.070078 -0.149472 0 127 127
0.195915 -0.684578 0.139268 255 0 0
0.289286 -0.057152 0.101067 0 127 127
0.107873 0.188632 0.761469 0 255 0
-0.078138 0.637305 0.048305 127 127 0
0.220434 0.176728 -0.362513 255 0 0
-0.253815 -0.084774 0.093076 255 0 0
0.093211 0.594427 0.026553 127 127 0
-0.347926 0.766804 -0.114191 127 127 0
0.209894 -0.481527 -0.276164 255 0 0
-0.264101 -0.515706 -0.232013 255 0 0
0.169620 0.594427 -0.122474 127 127 0
-0.141407 0.594427 -0.231247 127 127 0
0.092864 0.391306 0.241365 255 0 0
-0.367691 0.759425 -0.190194 127 127 0
0.247594 -0.322928 -0.001942 255 0 0
0.188651 0.141959 0.729256 0 255 0
0.188380 -0.894719 -0.240223 255 0 0
0.097800 -0.411612 -0.355283 255 0 0
0.297812 -0.348391 -0.128568 255 0 0
-0.288797 -0.435442 -0.201122 255 0 0
0.201630 0.594427 0.058178 127 127 0
0.144768 -0.477742 0.130927 255 0 0
-0.148595 0.089985 -0.409968 255 0 0
0.191491 -0.307251 -0.308534 255 0 0
-0.252400 -0.408808 0.024051 255 0 0
0.266994 -0.351938 -0.212231 255 0 0
0.241633 -0.759498 -0.188188 255 0 0
-0.187738 0.590251 0.271688 127 127 0
0.277648 -0.481717 -0.167026 255 0 0
0.047314 -0.948610 -0.114191 255 0 0
0.013203 0.608805 0.314585 127 127 0
-0.214156 0.384812 -0.312190 255 0 0
-0.352916 0.320365 -0.225779 255 0 0
-0.240824 0.641759 -0.025821 127 127 0
-0.201635 -0.485684 -0.221893 255 0 0
-0.231101 -0.000527 0.134333 255 0 0
-0.055859 -0.378621 -0.319188 255 0 0
0.256742 0.566028 -0.211650 127 127 0
0.176388 0.566028 0.181545 127 127 0
-0.213854 -0.836809 -0.064229 255 0 0
-0.208567 -0.778502 -0.136779 255 0 0
-0.252492 -0.535627 -0.080234 255 0 0
-0.213039 -0.758175 0.006395 255 0 0
-0.006102 0.173421 0.348230 0 255 0
-0.129004 0.566028 -0.012058 127 127 0
0.364053 0.300887 -0.012519 255 0 0
0.041429 -0.592171 -0.292351 255 0 0
-0.232223 0.566028 -0.124441 127 127 0
0.276367 0.616584 0.119605 127 127 0
0.207220 -0.854852 -0.224639 255 0 0
-0.282657 -0.249934 -0.094431 255 0 0
0.008044 -0.489777 -0.309880 255 0 0
-0.130233 0.418305 0.296201 255 0 0
-0.219265 0.707737 -0.341883 127 127 0
0.309598 0.214975 -0.264274 255 0 0
-0.214856 -0.156575 -0.258302 255 0 0
-0.258866 0.664151 0.170599 127 127 0
-0.313270 -0.311625 -0.111799 255 0 0
-0.218163 0.510755 -0.380028 255 0 0
-0.309454 0.713796 -0.227393 127 127 0
-0.329940 0.609268 0.056767 127 127 0
-0.213007 0.636584 -0.132023 127 127 0
0.175632 -0.183298 0.725911 0 255 0
0.051120 0.024659 0.227928 255 0 0
0.204286 -0.163153 0.180193 255 0 0
-0.211135 0.255028 -0.384459 255 0 0
0.228619 0.599655 0.229781 127 127 0
0.341028 0.154438 -0.202218 255 0 0
-0.275451 -0.318251 0.095430 255 0 0
-0.157687 0.016004 0.246410 255 0 0
0.091210 -0.737342 -0.253895 255 0 0
0.104884 0.245468 0.566074 0 255 0
-0.037984 0.566028 -0.160123 127 127 0
-0.160999 -0.948610 -0.044984 255 0 0
-0.317831 -0.466439 -0.035566 255 0 0
-0.115545 -0.791126 -0.321566 255 0 0
-0.296341 0.770224 0.123361 127 127 0
0.227860 -0.411393 0.029887 255 0 0
-0.194988 -0.729758 0.154707 255 0 0
-0.001811 0.239235 0.453243 0 255 0
0.020778 -0.944888 0.195658 255 0 0
0.121563 -0.417144 0.608731 0 255 0
-0.094227 0.647188 -0.393414 127 127 0
0.306961 0.636807 -0.185044 127 127 0
0.010149 -0.308578 0.650015 0 255 0
0.219489 -0.612110 -0.031534 255 0 0
-0.247000 0.640457 -0.359119 127 127 0
-0.180333 0.415047 -0.401666 255 0 0
0.314009 0.457874 -0.059577 255 0 0
-0.248588 0.079722 0.123217 255 0 0
-0.290874 -0.778599 -0.053593 255 0 0
0.125968 -0.948610 -0.093013 255 0 0
0.117304 -0.583593 -0.261409 255 0 0
0.241969 -0.547904 0.101241 255 0 0
-0.166761 0.594427 -0.131857 127 127 0
-0.122036 -0.441361 0.226147 255 0 0
-0.291824 0.736424 0.190790 127 127 0
-0.356595 0.363895 -0.217733 255 0 0
0.349821 0.566028 -0.133508 255 0 0
0.316541 0.569505 0.126516 127 127 0
0.008140 -0.193938 0.743496 0 255 0
0.171822 -0.244712 -0.327371 255 0 0
0.148583 0.218973 0.280133 255 0 0
0.188973 0.048928 0.731704 0 255 0
0.123387 -0.649420 -0.247170 255 0 0
0.195098 0.629068 -0.334301 127 127 0
0.122988 0.566028 -0.194761 127 127 0
0.305432 0.449177 -0.135508 255 0 0
-0.160009 0.272420 0.214481 255 0 0
0.241483 -0.349556 -0.136528 255 0 0
-0.174865 -0.197442 -0.362360 0 127 127
-0.277614 -0.697747 -0.172894 255 0 0
-0.274619 0.039902 -0.302058 255 0 0
-0.144915 -0.030711 0.197748 255 0 0
-0.297759 -0.472859 -0.174819 255 0 0
0.331461 0.470193 0.090023 255 0 0
-0.105863 -0.379816 0.178927 255 0 0
0.172364 0.465511 -0.331893 255 0 0
-0.241111 0.188399 -0.270334 255 0 0
0.043743 -0.407962 0.594784 0 255 0
0.351328 0.681157 -0.172422 127 127 0
0.095407 0.594427 -0.329225 127 127 0
0.014785 -0.227375 -0.384235 255 0 0
0.319386 -0.211548 -0.024592 0 127 127
-0.261347 -0.862216 0.040077 255 0 0
0.217733 -0.053834 0.117000 255 0 0
-0.326582 0.421042 -0.133338 255 0 0
-0.100163 -0.545453 -0.286920 255 0 0
0.012637 -0.287802 0.707909 0 255 0
0.126944 -0.327860 0.626154 0 255 0
-0.001375 0.237863 0.736366 0 255 0
0.083958 0.429710 0.521062 0 255 0
-0.226629 -0.651228 -0.136423 255 0 0
-0.192615 -0.198646 0.147640 255 0 0
0.168908 -0.093842 0.161382 255 0 0
0.030230 -0.133194 0.218234 255 0 0
0.295480 0.617501 0.158841 127 127 0
0.133209 0.493557 -0.413027 255 0 0
-0.335549 -0.169317 -0.051741 255 0 0
0.144877 0.244484 0.396564 0 255 0
-0.176982 0.336679 0.277098 255 0 0
-0.291491 -0.106199 -0.122659 255 0 0
0.164724 0.019663 -0.359634 255 0 0
-0.271917 -0.742908 -0.174606 255 0 0
-0.162468 0.624745 0.067031 127 127 0
-0.063105 0.137959 -0.438046 255 0 0
-0.002633 -0.043648 0.726809 0 255 0
0.027568 0.594427 0.010429 127 127 0
-0.064357 0.676817 -0.399671 127 127 0
0.100221 0.239407 0.440406 0 255 0
0.221162 0.031484 -0.326852 255 0 0
0.002738 -0.501585 0.241901 255 0 0
0.278219 0.077770 -0.293676 255 0 0
-0.201123 0.685764 0.264288 127 127 0
0.243400 0.411952 -0.261599 255 0 0
0.051770 -0.720647 0.146366 255 0 0
-0.245805 -0.416104 -0.164689 255 0 0
-0.103917 0.566028 -0.269630 127 127 0
-0.210186 -0.458611 0.089751 255 0 0
0.100266 -0.833564 0.106895 255 0 0
0.341756 0.563288 0.072866 255 0 0
-0.359594 0.558578 -0.210702 255 0 0
-0.074818 0.043070 0.229034 255 0 0
-0.276201 0.387371 -0.333267 255 0 0
-0.020770 0.090198 0.309794 255 0 0
-0.303251 -0.034685 -0.041863 255 0 0
-0.237520 0.566028 0.064149 127 127 0
-0.089715 -0.336208 0.189409 255 0 0
0.081241 0.566028 -0.275377 127 127 0
-0.170324 -0.366569 0.208229 255 0 0
-0.287894 -0.079208 -0.238977 255 0 0
0.221039 -0.948610 -0.115781 255 0 0
0.032596 -0.733476 0.218173 255 0 0
0.001129 0.534582 -0.391361 255 0 0
-0.187530 -0.948610 0.044651 255 0 0
-0.230385 -0.861831 0.095689 255 0 0
0.046617 0.302248 -0.374692 255 0 0
-0.015811 -0.077206 0.264775 255 0 0
0.242773 0.037674 0.184408 255 0 0
0.203511 -0.170901 -0.306653 255 0 0
0.363448 0.343456 -0.117950 255 0 0
0.164143 0.139919 0.272357 255 0 0
-0.005522 0.344649 0.703348 0 255 0
0.198569 -0.147675 0.127031 255 0 0
0.087312 0.393424 -0.369610 255 0 0
0.042124 0.033265 0.704651 0 255 0
-0.311568 0.443401 -0.185456 255 0 0
0.311575 -0.057340 0.051972 0 127 127
-0.293722 0.016480 0.028240 255 0 0
-0.219992 0.731162 0.215542 127 127 0
-0.171389 0.287972 -0.335271 255 0 0
0.239005 -0.894511 -0.155983 255 0 0
-0.050231 -0.213773 -0.337096 255 0 0
-0.387353 0.468126 -0.022189 255 0 0
-0.147877 -0.530767 0.137204 255 0 0
-0.076212 0.641759 -0.013625 127 127 0
0.181777 0.604701 0.217755 127 127 0
-0.279694 -0.512214 0.080341 255 0 0
0.120631 -0.741297 0.107919 255 0 0
0.238537 -0.265223 -0.263837 255 0 0
-0.167519 -0.269330 0.158646 255 0 0
-0.159370 -0.836832 -0.156425 255 0 0
-0.056816 -0.106597 0.219849 255 0 0
0.029103 -0.430475 0.187842 255 0 0
0.139511 0.690776 -0.368662 127 127 0
0.290196 0.340711 0.165963 255 0 0
-0.062723 -0.428277 0.186002 255 0 0
-0.350337 0.566028 -0.069696 127 127 0
0.274550 -0.620720 0.012639 255 0 0
-0.375570 0.699982 -0.165321 127 127 0
-0.312119 0.638037 0.166485 127 127 0
