ply
format ascii 1.0
element vertex 1294
property float x
property float y
property float z
property uchar red
property uchar green
property uchar blue
end_header
0.069658 -0.497049 0.231766 255 0 0
-0.151819 -0.685951 -0.236362 255 0 0
0.044945 -0.948610 -0.043211 255 0 0
-0.168110 -0.746182 0.084132 255 0 0
-0.192322 0.470296 -0.333661 255 0 0
-0.230625 -0.010260 -0.308995 255 0 0
-0.275261 0.041281 0.176088 255 0 0
-0.310722 0.121508 -0.120191 255 0 0
-0.329700 -0.221695 -0.013783 255 0 0
0.241651 -0.318251 0.127597 255 0 0
-0.279451 0.237652 -0.223813 255 0 0
-0.119721 0.566028 -0.235813 127 127 0
0.005134 0.429710 0.484933 0 255 0
-0.349509 0.697767 -0.101894 127 127 0
-0.298400 -0.588307 -0.143205 255 0 0
-0.186825 0.658176 -0.398371 127 127 0
-0.254096 -0.044476 -0.284625 0 127 127
-0.386029 0.392889 -0.114960 255 0 0
0.217117 0.604674 0.189818 127 127 0
0.175048 0.635904 0.222186 127 127 0
-0.290327 0.393125 0.096840 255 0 0
0.046767 0.524351 0.259794 255 0 0
-0.321499 0.213185 -0.279740 255 0 0
-0.039933 0.069625 -0.362809 255 0 0
-0.147440 0.434556 -0.357016 255 0 0
-0.016898 0.637577 0.277484 127 127 0
-0.064739 0.683064 0.273400 127 127 0
0.171204 0.378680 0.596657 0 255 0
0.147742 0.078801 0.756223 0 255 0
0.150377 0.528368 0.222728 255 0 0
-0.064615 -0.169098 0.212770 255 0 0
0.222484 -0.488995 0.019023 255 0 0
0.042410 -0.836832 -0.223655 255 0 0
0.053334 0.315180 -0.436130 255 0 0
0.326444 -0.102381 0.003019 0 127 127
-0.129521 -0.311625 -0.346167 255 0 0
0.132231 -0.101104 0.185701 255 0 0
-0.324795 -0.184860 0.018411 255 0 0
-0.277716 0.566028 -0.270589 127 127 0
0.017117 -0.368312 0.661916 0 255 0
0.095517 0.053238 0.217130 255 0 0
0.010598 -0.836832 -0.152921 255 0 0
-0.388904 0.699739 -0.040879 127 127 0
0.202562 -0.458643 0.159588 255 0 0
0.222129 -0.865063 -0.199803 255 0 0
-0.243830 0.539678 0.235352 255 0 0
-0.009909 0.429710 0.356959 0 255 0
-0.191781 -0.278646 0.200516 0 127 127
-0.119571 -0.019597 -0.374161 255 0 0
-0.312441 -0.000515 -0.200014 255 0 0
-0.126700 -0.242461 0.185436 255 0 0
-0.250409 0.099867 0.225636 255 0 0
0.211702 0.297219 0.243015 255 0 0
0.096901 -0.282069 0.699413 0 255 0
0.216462 0.363758 0.239415 255 0 0
-0.015299 0.566028 0.216255 127 127 0
0.131742 0.566028 -0.122894 127 127 0
-0.286482 -0.577260 0.053949 255 0 0
0.313969 0.356775 0.130778 255 0 0
-0.316784 -0.177119 -0.171440 255 0 0
-0.225953 -0.839777 0.105559 255 0 0
-0.134926 -0.590714 -0.334258 255 0 0
-0.182923 0.256639 -0.325950 255 0 0
0.012780 0.139136 0.314718 0 255 0
-0.299814 0.057719 0.018985 255 0 0
0.293446 -0.443409 -0.006702 255 0 0
-0.004400 -0.420364 -0.374197 255 0 0
0.168093 0.566028 -0.354149 255 0 0
0.016056 -0.303929 0.699392 0 255 0
-0.371446 0.686281 0.052569 127 127 0
0.224007 0.298165 -0.274989 255 0 0
0.236191 -0.929396 -0.151335 255 0 0
0.028425 0.058787 0.704637 0 255 0
0.102664 0.208904 0.761106 0 255 0
0.367193 0.443435 -0.050722 255 0 0
-0.119529 -0.857754 -0.311613 255 0 0
0.150880 0.642449 0.278961 127 127 0
-0.238817 0.566028 0.136712 127 127 0
0.017343 0.053936 0.297702 255 0 0
0.167515 -0.090665 0.211487 0 127 127
-0.246856 0.416569 0.157785 255 0 0
0.186702 -0.575110 0.067874 255 0 0
0.090859 0.594427 -0.137133 127 127 0
-0.311468 -0.318251 -0.123163 255 0 0
0.019318 0.337151 0.295717 0 255 0
0.244788 0.594427 -0.261707 127 127 0
0.320873 0.003077 -0.095560 255 0 0
0.123121 -0.236211 0.176572 255 0 0
0.295369 0.153501 -0.285418 255 0 0
-0.098525 0.348148 -0.431355 255 0 0
-0.300744 -0.158876 0.084514 255 0 0
-0.351814 0.076920 0.080463 255 0 0
-0.023281 0.186376 0.246100 255 0 0
-0.089936 0.566028 -0.329290 127 127 0
0.027827 0.089554 -0.363314 255 0 0
0.168986 0.633958 -0.396018 127 127 0
0.224947 -0.420186 -0.265952 255 0 0
0.057523 0.179652 -0.364365 255 0 0
-0.010980 -0.244918 0.210745 255 0 0
-0.040220 0.566028 0.120414 127 127 0
-0.389115 0.619041 -0.044352 127 127 0
0.029315 -0.870313 -0.329783 255 0 0
0.155251 -0.917800 -0.268169 255 0 0
0.278373 -0.300437 -0.196009 255 0 0
0.276250 0.150262 -0.171010 255 0 0
0.155226 0.280653 0.475218 0 255 0
-0.060061 0.630241 0.312181 127 127 0
-0.063717 -0.677418 -0.281138 255 0 0
0.312354 0.623732 0.133600 127 127 0
-0.169068 0.687472 -0.364924 127 127 0
0.180861 -0.594083 -0.198610 255 0 0
-0.211301 0.660909 -0.338658 127 127 0
-0.324528 0.330070 -0.275233 255 0 0
0.229740 0.424928 0.152814 255 0 0
-0.251365 0.644945 -0.355525 127 127 0
-0.138617 0.508417 0.293231 255 0 0
-0.336755 0.373410 -0.255944 255 0 0
-0.104670 -0.418301 0.174755 255 0 0
-0.081739 -0.863373 -0.324299 255 0 0
0.046405 -0.043138 -0.386918 0 127 127
-0.343218 0.632949 0.118354 127 127 0
-0.125614 -0.474284 0.222260 255 0 0
-0.330123 0.681337 -0.266717 127 127 0
0.038730 0.229359 0.421822 0 255 0
-0.129994 0.297594 -0.422613 255 0 0
0.141333 0.004932 0.235098 255 0 0
-0.176409 0.405889 0.277387 255 0 0
-0.058686 0.536098 -0.438712 255 0 0
0.115139 0.333289 -0.419913 255 0 0
-0.255823 -0.783465 0.071995 255 0 0
0.299935 0.255114 -0.105922 255 0 0
0.246917 0.194154 0.213922 255 0 0
-0.155744 -0.836046 -0.205292 255 0 0
0.223758 -0.102905 0.101870 255 0 0
0.018970 -0.138192 0.261328 255 0 0
-0.244341 -0.948610 -0.173595 255 0 0
0.149329 0.518613 0.279806 255 0 0
0.190375 -0.792234 -0.255593 255 0 0
0.246404 -0.014407 -0.268766 0 127 127
0.239317 -0.438985 -0.100762 255 0 0
0.304976 -0.071565 -0.182725 0 127 127
0.008321 0.323648 0.254425 255 0 0
0.198018 -0.781826 -0.085469 255 0 0
0.104320 0.238804 0.437806 0 255 0
0.218402 -0.044496 0.117454 255 0 0
-0.110426 -0.756850 0.126159 255 0 0
0.192580 0.707128 0.216893 127 127 0
-0.140296 0.594427 0.218528 127 127 0
0.191906 -0.286539 -0.240449 255 0 0
-0.292073 -0.022543 0.023026 255 0 0
-0.337964 0.770654 -0.159381 127 127 0
-0.065251 -0.761633 -0.269281 255 0 0
-0.217691 -0.506726 0.161282 255 0 0
0.278899 0.566028 -0.083861 127 127 0
0.173145 -0.948610 -0.089851 255 0 0
0.008347 0.335618 -0.381369 255 0 0
0.082299 -0.404900 -0.361154 255 0 0
-0.099051 0.566028 0.059289 127 127 0
-0.321686 -0.088601 -0.167209 255 0 0
0.192771 -0.784698 0.127985 255 0 0
-0.010492 -0.836832 -0.248167 255 0 0
-0.090012 0.636122 -0.394485 127 127 0
0.363064 0.648883 -0.121366 127 127 0
-0.085826 0.566028 -0.140686 127 127 0
-0.044408 0.566028 0.291079 255 0 0
-0.323670 -0.022602 -0.166932 255 0 0
0.327691 0.604562 -0.027057 127 127 0
0.167352 0.476128 0.209679 255 0 0
0.114550 -0.318653 0.631841 0 255 0
-0.094224 -0.493181 0.169568 255 0 0
-0.282049 0.099785 0.073435 255 0 0
-0.219146 0.273395 0.253064 255 0 0
0.089735 0.138108 0.307333 255 0 0
0.112458 -0.148064 0.743622 0 255 0
0.265430 -0.144280 0.138444 0 127 127
-0.177632 -0.050598 0.220141 255 0 0
-0.270019 -0.146515 -0.177600 255 0 0
0.004784 0.566028 -0.059580 127 127 0
0.273833 0.665625 -0.249840 127 127 0
0.002943 -0.838822 0.209830 255 0 0
0.323467 -0.258845 -0.009347 0 127 127
-0.294681 -0.511890 -0.174370 255 0 0
0.178561 -0.272420 -0.320838 0 127 127
-0.016930 0.594427 -0.277744 127 127 0
-0.007491 -0.948610 0.179916 255 0 0
0.146695 0.682029 -0.365074 127 127 0
0.022908 -0.213871 -0.387688 0 127 127
-0.316132 0.409676 0.161220 255 0 0
-0.171510 0.336918 -0.406021 255 0 0
-0.108119 0.002010 0.255244 255 0 0
0.354651 0.064240 -0.068845 255 0 0
0.233570 0.510623 -0.351928 255 0 0
0.245183 0.081212 0.205081 255 0 0
0.196397 -0.192140 -0.249286 255 0 0
0.145952 -0.001917 0.756299 0 255 0
0.037403 0.594427 -0.290483 127 127 0
0.080515 0.229410 -0.361722 255 0 0
-0.060717 -0.550360 -0.298161 255 0 0
-0.040957 -0.399583 0.192851 255 0 0
-0.377142 0.536611 -0.159550 255 0 0
-0.307860 -0.599608 -0.082096 255 0 0
-0.274169 0.225475 -0.335320 255 0 0
0.098080 -0.836832 -0.058198 255 0 0
-0.024585 -0.691067 -0.285281 255 0 0
-0.235944 -0.892280 0.081188 255 0 0
-0.034808 -0.828618 0.210285 255 0 0
0.314066 0.555618 -0.115776 255 0 0
0.196970 -0.139400 -0.256164 255 0 0
0.279693 -0.241658 -0.237821 0 127 127
0.048242 0.429710 0.428708 0 255 0
0.209009 0.022583 0.204504 255 0 0
-0.206221 -0.723123 0.145760 255 0 0
0.179109 -0.349131 0.118686 255 0 0
0.323378 0.545930 -0.240290 255 0 0
-0.192548 -0.455288 0.186805 255 0 0
-0.338009 0.255681 -0.253799 255 0 0
0.327103 0.697778 -0.022487 127 127 0
-0.339130 0.532180 -0.048688 255 0 0
0.052466 0.458110 0.381823 0 255 0
-0.113099 -0.382295 0.233513 255 0 0
-0.152097 0.566028 0.008878 127 127 0
0.215417 0.438171 -0.366363 255 0 0
-0.208000 -0.916212 0.112940 255 0 0
0.033041 0.374713 -0.439147 255 0 0
-0.337954 0.600408 -0.254105 127 127 0
-0.035995 0.611363 -0.440767 127 127 0
-0.365385 0.767591 0.070101 127 127 0
-0.000453 0.594427 0.188454 127 127 0
0.156006 0.351493 -0.402717 255 0 0
-0.082973 0.489660 0.308581 255 0 0
-0.170407 0.117392 0.279097 255 0 0
0.233242 0.350304 -0.269164 255 0 0
-0.005640 -0.078914 -0.390930 255 0 0
0.153491 -0.131987 0.226248 0 127 127
0.203127 -0.720314 -0.018745 255 0 0
-0.172788 -0.330141 -0.273100 255 0 0
0.004764 0.446640 0.297632 0 255 0
0.089442 0.388820 0.658406 0 255 0
-0.244205 -0.347526 -0.185440 255 0 0
0.265031 -0.178321 -0.110070 255 0 0
-0.084846 -0.122023 0.212517 255 0 0
0.365292 0.702125 -0.096193 127 127 0
-0.229955 -0.434877 -0.282869 255 0 0
-0.104549 -0.070759 0.263168 0 127 127
-0.026855 0.702848 0.314052 127 127 0
0.007062 -0.948610 0.018805 255 0 0
-0.283584 0.225747 0.199690 255 0 0
0.124815 -0.206736 0.228398 0 127 127
-0.228124 0.306629 -0.294297 255 0 0
0.077859 0.210765 0.635732 0 255 0
0.271091 0.661145 0.127874 127 127 0
0.269788 -0.767480 -0.074656 255 0 0
-0.249154 0.720414 0.228758 127 127 0
-0.325745 0.681690 0.067437 127 127 0
-0.232388 0.351769 0.167493 255 0 0
0.279947 0.504376 -0.212484 255 0 0
-0.086614 -0.323581 -0.317853 255 0 0
0.140194 0.290494 0.360973 0 255 0
-0.284594 -0.831261 -0.043325 255 0 0
0.142916 0.410746 0.611445 0 255 0
-0.218984 -0.618868 -0.165696 255 0 0
0.210933 -0.551959 -0.266980 255 0 0
0.044804 -0.276683 0.251694 0 127 127
-0.230422 -0.068327 -0.307157 255 0 0
0.103645 -0.948610 -0.169764 255 0 0
-0.183521 0.522973 0.215960 255 0 0
0.298847 -0.362263 -0.006863 255 0 0
0.037308 -0.810254 0.137531 255 0 0
-0.025927 -0.948610 0.051673 255 0 0
0.142959 0.255256 0.282602 255 0 0
0.114808 -0.602102 0.134218 255 0 0
0.156585 0.566028 0.062277 127 127 0
-0.135274 -0.904076 -0.297916 255 0 0
0.183888 -0.269937 0.125493 255 0 0
0.349015 0.398411 -0.180014 255 0 0
-0.089511 0.264165 -0.433419 255 0 0
0.316936 -0.076901 -0.065877 0 127 127
-0.250077 0.501874 -0.356662 255 0 0
-0.243811 -0.112213 -0.229798 255 0 0
0.095434 0.071425 0.289131 255 0 0
0.196452 0.481425 -0.379635 255 0 0
0.252811 0.594427 -0.142432 127 127 0
0.117453 -0.546758 -0.266652 255 0 0
0.164769 0.325482 0.547752 0 255 0
-0.110084 0.708025 0.285226 127 127 0
0.115410 -0.687861 -0.323178 255 0 0
0.072049 0.703738 0.304605 127 127 0
-0.160823 -0.635799 0.190064 255 0 0
0.079415 -0.476452 -0.295217 255 0 0
-0.200512 -0.167079 -0.270880 255 0 0
-0.026606 0.330516 -0.441267 255 0 0
0.001804 0.221306 0.248416 255 0 0
-0.018767 0.692207 -0.441601 127 127 0
0.351508 0.087030 0.021384 255 0 0
0.254516 -0.323274 -0.054466 255 0 0
-0.173312 -0.465064 -0.253777 255 0 0
0.285859 0.407158 0.171615 255 0 0
-0.312159 0.104097 -0.022321 255 0 0
0.106506 0.060700 0.694228 0 255 0
0.211871 0.110879 -0.366670 255 0 0
0.037132 0.625292 -0.400320 127 127 0
-0.195446 0.577806 -0.393659 127 127 0
0.146283 0.566028 -0.313210 127 127 0
0.040484 0.594427 0.160502 127 127 0
-0.051045 0.261613 0.248682 255 0 0
-0.038946 0.566028 0.048286 127 127 0
-0.233163 0.102080 -0.365920 255 0 0
0.239354 0.158326 0.115480 255 0 0
-0.335937 0.532845 -0.257343 255 0 0
0.169457 0.566028 0.231326 255 0 0
0.079309 -0.361552 0.658295 0 255 0
-0.315646 0.190140 -0.006631 255 0 0
-0.055618 0.566028 0.240285 127 127 0
0.257304 0.004742 0.062097 255 0 0
0.131450 0.566028 -0.189718 127 127 0
0.241523 -0.185123 0.164054 0 127 127
0.252738 0.120309 0.207036 255 0 0
-0.229922 0.091682 0.146333 255 0 0
-0.093392 -0.948610 0.137619 255 0 0
-0.317513 0.156046 -0.038911 255 0 0
-0.226553 -0.014379 -0.264112 255 0 0
0.271451 -0.729040 -0.101991 255 0 0
-0.336511 0.486304 -0.087768 255 0 0
-0.048335 0.066164 -0.427558 255 0 0
0.129846 0.309427 0.282322 0 255 0
0.137923 -0.432476 -0.268836 255 0 0
0.179708 -0.052818 0.749013 0 255 0
-0.168992 0.594427 0.055156 127 127 0
0.360462 0.630829 0.008966 127 127 0
0.011332 -0.112963 0.762889 0 255 0
-0.257412 -0.121872 0.080863 255 0 0
-0.363737 0.371655 -0.200991 255 0 0
0.110078 0.594427 0.108016 127 127 0
0.264839 -0.072207 -0.151242 255 0 0
-0.222992 -0.912769 -0.221528 255 0 0
-0.296581 0.526317 0.098747 255 0 0
-0.143933 -0.362339 0.162364 255 0 0
-0.383385 0.364374 0.005371 255 0 0
0.149394 -0.585266 -0.314942 255 0 0
-0.078922 0.557095 -0.385555 255 0 0
0.345144 0.630141 0.065205 127 127 0
-0.378365 0.411758 0.028547 255 0 0
0.083359 0.594427 -0.281655 127 127 0
0.208880 -0.922736 -0.207997 255 0 0
0.295864 0.456613 0.043769 255 0 0
0.307148 -0.104708 0.037819 0 127 127
-0.000922 0.109880 0.739814 0 255 0
-0.020713 0.363798 0.589392 0 255 0
0.062196 0.442694 0.252859 255 0 0
-0.340253 -0.011501 -0.045296 255 0 0
-0.116759 -0.389015 -0.299343 255 0 0
0.367120 0.142756 -0.077357 255 0 0
-0.301393 -0.353100 -0.186466 255 0 0
-0.000022 0.641157 0.028528 127 127 0
0.046251 -0.133551 0.755248 0 255 0
0.185856 -0.285670 0.207402 0 127 127
0.044402 0.675287 -0.437562 127 127 0
-0.316786 0.046622 -0.250944 255 0 0
-0.273539 -0.197803 0.126042 255 0 0
-0.301288 -0.629560 -0.011719 255 0 0
0.153290 0.239506 0.577958 0 255 0
0.218517 -0.451805 -0.166417 255 0 0
-0.268302 0.405668 0.214748 255 0 0
-0.129967 -0.102337 -0.365649 0 127 127
-0.089255 -0.281756 0.246765 255 0 0
0.080936 0.249201 0.485578 0 255 0
0.122976 -0.027336 0.695421 0 255 0
-0.072795 0.191960 -0.436518 255 0 0
0.011162 0.260070 0.314802 255 0 0
0.226554 -0.214494 0.078543 255 0 0
0.149235 -0.300240 -0.278046 255 0 0
0.046720 -0.356094 -0.319013 255 0 0
-0.093583 0.253161 -0.365878 255 0 0
-0.295724 0.594427 -0.062772 127 127 0
0.258697 -0.802649 -0.127507 255 0 0
0.071965 0.596895 -0.393446 127 127 0
-0.186727 0.181939 0.272196 255 0 0
0.304160 0.003865 -0.173893 255 0 0
0.039490 0.641759 -0.048717 127 127 0
0.076645 -0.275259 -0.319213 255 0 0
0.367376 0.392432 -0.057679 255 0 0
-0.281674 0.478650 0.201580 255 0 0
0.136449 0.566028 -0.380762 255 0 0
0.150163 0.165790 0.663160 0 255 0
0.048446 -0.244199 0.722000 0 255 0
-0.321643 0.566028 0.095507 127 127 0
-0.292488 0.566028 -0.161162 127 127 0
-0.217461 0.434902 0.186742 255 0 0
0.254756 0.200383 0.097178 255 0 0
0.351515 0.229569 -0.171570 255 0 0
-0.227157 0.141653 0.247679 255 0 0
-0.037882 0.566028 -0.201819 127 127 0
-0.229832 0.009731 0.136959 255 0 0
0.333127 0.020987 -0.033500 255 0 0
0.208819 -0.476905 -0.277734 255 0 0
-0.114255 -0.802833 -0.243071 255 0 0
-0.231886 0.671971 0.196266 127 127 0
0.012853 -0.003422 -0.357540 255 0 0
-0.389138 0.471563 -0.044726 255 0 0
-0.104306 0.043537 -0.347391 255 0 0
-0.352772 -0.131049 -0.054687 0 127 127
-0.302260 -0.525285 0.022380 255 0 0
0.087389 0.429710 0.327788 0 255 0
0.090609 0.138391 -0.427623 255 0 0
-0.104507 0.439078 0.303808 255 0 0
0.092808 0.294225 -0.361799 255 0 0
0.025684 0.471690 -0.386806 255 0 0
0.111813 -0.744103 -0.240131 255 0 0
0.284609 0.566028 -0.039466 127 127 0
0.068968 -0.585807 -0.285050 255 0 0
0.289321 -0.188601 -0.184416 0 127 127
0.078106 -0.310306 0.640313 0 255 0
-0.003556 -0.167786 0.217877 255 0 0
-0.125133 -0.268713 -0.382569 0 127 127
-0.229795 -0.948610 -0.021664 255 0 0
-0.141102 -0.760537 -0.232108 255 0 0
-0.042652 -0.003303 -0.391410 255 0 0
0.238357 -0.449398 -0.027016 255 0 0
-0.234939 0.358916 -0.368501 255 0 0
0.249104 0.373240 -0.338093 255 0 0
-0.071091 -0.035673 0.223432 255 0 0
0.337544 0.705686 -0.201623 127 127 0
0.206304 0.566028 -0.196824 127 127 0
-0.123645 0.062376 0.284246 255 0 0
-0.023189 0.206845 -0.373719 255 0 0
-0.006472 0.641759 -0.047219 127 127 0
0.353131 0.696944 -0.166545 127 127 0
0.318605 0.599542 -0.249044 127 127 0
-0.307429 -0.533042 -0.125635 255 0 0
0.145393 -0.948610 -0.014353 255 0 0
-0.137618 0.566028 0.095852 127 127 0
0.139466 -0.149752 -0.351650 255 0 0
0.220389 0.566028 0.127880 127 127 0
0.206564 0.162057 0.246546 255 0 0
-0.206521 -0.805592 -0.259445 255 0 0
-0.263460 -0.713616 0.073043 255 0 0
0.355107 0.133111 0.032162 255 0 0
-0.291531 0.498192 -0.231024 255 0 0
0.235503 0.566028 0.046194 127 127 0
-0.339203 0.566028 0.046324 127 127 0
-0.167517 0.211752 0.205899 255 0 0
-0.289623 -0.730227 -0.123374 255 0 0
0.308483 0.701803 0.138455 127 127 0
-0.241538 -0.574766 -0.119899 255 0 0
0.260217 0.696046 0.200842 127 127 0
0.222483 -0.253470 0.078180 255 0 0
-0.148445 -0.923727 0.161494 255 0 0
-0.007224 -0.363704 0.251747 255 0 0
-0.066044 -0.904174 -0.322999 255 0 0
0.254708 0.686024 -0.276152 127 127 0
0.276368 0.009701 -0.135749 255 0 0
0.261016 0.560305 -0.249105 255 0 0
0.060665 -0.667447 -0.345372 255 0 0
0.014818 -0.178344 0.691061 0 255 0
0.187446 0.376463 0.259150 255 0 0
0.142979 -0.179016 0.674039 0 255 0
0.218110 -0.376644 0.060215 255 0 0
0.047035 0.625961 -0.137722 127 127 0
-0.188033 0.690544 0.271525 127 127 0
-0.324149 0.243722 -0.070708 255 0 0
-0.136579 0.594427 0.027965 127 127 0
-0.272021 0.601997 0.155831 127 127 0
0.146880 -0.948610 0.052760 255 0 0
-0.060843 -0.836832 0.122713 255 0 0
-0.219720 0.594427 0.119668 127 127 0
0.023018 -0.401205 -0.318310 255 0 0
0.018741 -0.719359 0.221448 255 0 0
0.169528 0.566028 -0.136076 127 127 0
0.097297 0.429710 0.490145 0 255 0
-0.150995 0.594427 0.182857 127 127 0
0.162257 -0.836832 -0.006565 255 0 0
-0.133469 0.634453 -0.421310 127 127 0
0.140049 -0.473771 0.204754 255 0 0
-0.361876 0.468687 0.069975 255 0 0
0.039252 0.253446 -0.372808 255 0 0
0.116505 -0.376490 0.163754 255 0 0
0.314297 -0.078576 -0.104264 255 0 0
0.039236 -0.311625 0.240152 255 0 0
0.093073 -0.664830 -0.263585 255 0 0
0.138368 0.664722 0.243010 127 127 0
0.333430 0.038977 0.024015 255 0 0
-0.082605 0.641704 0.044914 127 127 0
-0.319901 0.039529 0.113110 255 0 0
0.134924 0.193433 0.320917 0 255 0
0.098998 0.147676 0.762637 0 255 0
0.043819 0.458110 0.306357 255 0 0
-0.196472 -0.011758 -0.335627 255 0 0
0.062653 -0.059248 0.218241 255 0 0
0.060525 -0.371563 0.613357 0 255 0
0.312225 0.664762 -0.170311 127 127 0
-0.008506 -0.500680 0.242383 255 0 0
0.038875 0.451144 -0.438343 255 0 0
0.179215 -0.116492 0.685714 0 255 0
-0.286831 -0.406231 0.083193 255 0 0
0.116953 -0.530830 0.142934 255 0 0
-0.186916 -0.026345 -0.298272 255 0 0
0.243047 -0.403965 0.118618 255 0 0
0.212828 0.623940 -0.319898 127 127 0
0.000365 -0.187560 0.739092 0 255 0
-0.046457 0.209738 0.382580 0 255 0
-0.070403 -0.563300 0.168129 255 0 0
0.008534 -0.317452 0.646319 0 255 0
0.291716 -0.389511 0.017228 255 0 0
-0.312095 0.689367 0.166518 127 127 0
-0.252574 0.566028 -0.071875 127 127 0
0.124546 0.436123 0.389095 0 255 0
-0.216569 0.013494 0.208725 255 0 0
-0.358664 0.237558 -0.212883 255 0 0
0.044903 0.566028 -0.220548 127 127 0
0.291739 0.603284 0.093116 127 127 0
-0.135105 0.376793 -0.420743 255 0 0
0.150610 -0.397742 0.623971 0 255 0
-0.092370 0.092851 -0.427711 255 0 0
-0.308115 -0.111685 0.073119 255 0 0
0.258156 0.594427 -0.222863 127 127 0
-0.074080 0.566028 -0.039235 127 127 0
-0.384486 0.604313 -0.125584 127 127 0
-0.019278 -0.037093 -0.355630 255 0 0
0.131682 -0.349471 0.615371 0 255 0
0.195603 -0.739043 -0.258147 255 0 0
-0.385022 0.171072 -0.004634 255 0 0
0.086226 -0.266766 0.261578 0 127 127
0.264731 -0.676984 0.027410 255 0 0
0.043914 0.566028 0.034946 127 127 0
0.059674 -0.065066 -0.344707 255 0 0
-0.069566 0.373975 0.252417 255 0 0
0.225030 0.416762 -0.283634 255 0 0
-0.145363 0.566028 -0.335314 127 127 0
0.125457 0.566028 0.264940 255 0 0
0.197914 -0.655355 0.141208 255 0 0
0.157988 0.279172 0.203179 255 0 0
-0.187854 0.179092 -0.316462 255 0 0
0.191571 0.594427 -0.077445 127 127 0
0.240973 -0.065930 0.173040 0 127 127
0.054608 -0.761055 0.139731 255 0 0
0.149311 -0.101741 -0.348212 255 0 0
0.190795 -0.249151 0.209350 0 127 127
0.156540 0.594427 -0.194661 127 127 0
0.268045 0.100403 -0.313562 255 0 0
0.259498 0.252169 0.201525 255 0 0
-0.027769 -0.147470 -0.395241 255 0 0
0.153759 0.325017 0.464073 0 255 0
0.072950 -0.000858 -0.382982 255 0 0
0.124484 -0.070521 0.254253 0 127 127
-0.077912 -0.421176 -0.309462 255 0 0
-0.038735 0.309311 0.303355 255 0 0
-0.231922 -0.573549 -0.265626 255 0 0
-0.046965 -0.094831 -0.388474 255 0 0
-0.326936 0.432883 -0.134635 255 0 0
-0.006553 -0.836832 0.008545 255 0 0
-0.387488 0.558205 -0.023535 255 0 0
0.001743 0.612615 -0.441551 127 127 0
-0.311877 0.615956 -0.119014 127 127 0
-0.046102 0.284023 0.396434 0 255 0
-0.258206 -0.924795 0.027167 255 0 0
0.285183 0.131798 -0.138552 255 0 0
0.141878 0.594427 -0.256630 127 127 0
0.118658 0.073129 -0.408108 255 0 0
0.145902 0.141912 0.756465 0 255 0
0.138536 0.408160 0.222633 255 0 0
-0.225665 -0.345269 0.089823 255 0 0
0.296971 -0.459175 -0.080032 255 0 0
-0.038051 0.566028 -0.081711 127 127 0
-0.147864 -0.948610 0.018810 255 0 0
-0.170271 -0.433133 -0.329433 255 0 0
-0.010062 0.208165 0.669662 0 255 0
0.109662 0.706962 0.290124 127 127 0
-0.080749 0.594427 0.235268 127 127 0
-0.199516 0.637161 0.075224 127 127 0
-0.062997 0.594427 -0.134292 127 127 0
0.046826 -0.163005 -0.394720 0 127 127
-0.076175 0.497166 0.257185 255 0 0
-0.220836 -0.867977 -0.233249 255 0 0
-0.298005 -0.694042 -0.094602 255 0 0
0.191518 0.295666 -0.306141 255 0 0
-0.260066 0.428582 -0.269978 255 0 0
0.227544 -0.902204 0.054081 255 0 0
0.162405 -0.370314 -0.325304 255 0 0
0.076427 0.219330 0.305120 255 0 0
0.301704 0.375124 -0.134366 255 0 0
0.289337 0.075918 -0.278158 255 0 0
-0.221060 -0.040453 0.212192 0 127 127
-0.328951 0.477892 0.009071 255 0 0
-0.293352 -0.753955 -0.051207 255 0 0
0.229234 -0.083747 -0.222961 255 0 0
-0.301443 -0.192518 -0.239381 0 127 127
0.271391 0.566028 -0.179557 127 127 0
0.279960 0.594427 -0.117361 127 127 0
0.210910 0.027972 0.135484 255 0 0
0.293330 0.218635 0.161880 255 0 0
0.061995 0.207015 -0.434540 255 0 0
-0.139200 -0.560522 -0.264941 255 0 0
0.053062 0.140053 -0.362523 255 0 0
0.063562 -0.199763 0.251513 255 0 0
0.196973 -0.618152 -0.273203 255 0 0
0.054941 -0.193033 0.207664 255 0 0
-0.325528 0.496251 -0.152009 255 0 0
0.076728 0.603826 -0.098021 127 127 0
0.133727 0.425381 0.342707 0 255 0
-0.132226 0.594427 -0.255180 127 127 0
0.185708 0.200629 0.260189 255 0 0
0.002606 -0.948610 -0.241627 255 0 0
0.254069 0.027269 -0.198643 255 0 0
0.105067 0.462123 0.297213 0 255 0
-0.005337 0.665190 0.315378 127 127 0
0.153647 -0.719119 -0.207277 255 0 0
-0.113350 -0.948610 -0.113798 255 0 0
0.302468 -0.306704 -0.116992 255 0 0
0.315091 -0.028618 -0.018593 0 127 127
-0.329464 -0.300535 -0.055101 255 0 0
-0.293956 0.062676 -0.164652 255 0 0
0.094137 -0.755199 -0.325228 255 0 0
0.193180 -0.767789 -0.005548 255 0 0
-0.083253 0.117414 0.307325 255 0 0
-0.315468 -0.488675 -0.028471 255 0 0
0.001751 -0.030629 0.760128 0 255 0
-0.316248 -0.385703 -0.134915 255 0 0
-0.385748 0.125366 -0.113424 255 0 0
-0.275676 -0.642807 0.064107 255 0 0
-0.202178 0.566028 -0.003575 127 127 0
0.049973 -0.163449 0.256137 255 0 0
0.250273 -0.843369 0.014996 255 0 0
-0.351690 0.744469 -0.064225 127 127 0
-0.183785 -0.396088 -0.254781 255 0 0
-0.274450 -0.921579 -0.071134 255 0 0
0.211741 0.094713 0.237318 255 0 0
0.258000 -0.035833 -0.178403 255 0 0
0.046523 -0.060278 0.260165 255 0 0
-0.226664 -0.642532 -0.262450 255 0 0
-0.176232 0.042964 0.253561 255 0 0
-0.243090 0.278482 0.150430 255 0 0
0.086493 -0.948610 0.013336 255 0 0
0.192807 -0.865063 0.114362 255 0 0
-0.182565 0.641759 0.028648 127 127 0
0.149891 0.427938 0.544509 0 255 0
-0.026000 0.454418 0.417697 0 255 0
-0.333378 0.439292 -0.098630 255 0 0
-0.206723 0.594427 -0.233021 127 127 0
0.061669 0.534525 -0.434612 255 0 0
0.255562 0.574784 -0.331868 127 127 0
-0.226056 -0.337985 -0.216918 255 0 0
0.005859 0.389902 0.314996 0 255 0
-0.218834 0.608819 0.206939 127 127 0
0.077145 0.609091 0.304972 127 127 0
-0.181997 -0.362654 -0.327686 255 0 0
0.090094 -0.199624 0.676109 0 255 0
-0.096647 0.031970 0.222527 255 0 0
0.165625 -0.013171 -0.341416 255 0 0
0.333188 0.091965 0.081419 255 0 0
0.020016 0.458110 0.415507 0 255 0
0.037566 -0.637419 0.161122 255 0 0
0.068306 -0.126742 0.210489 255 0 0
0.135476 0.140283 0.285886 255 0 0
-0.187519 0.566028 0.035944 127 127 0
-0.060219 0.594427 -0.198256 127 127 0
0.187251 -0.507106 0.081540 255 0 0
-0.300101 0.574612 0.181300 127 127 0
-0.330800 0.601963 -0.180905 127 127 0
-0.101376 -0.621416 -0.276293 255 0 0
0.177862 0.566028 -0.025297 127 127 0
0.237361 -0.829529 -0.179606 255 0 0
-0.065206 -0.948610 -0.151155 255 0 0
-0.167978 -0.775855 -0.295319 255 0 0
-0.276493 -0.270084 0.117827 255 0 0
0.222230 -0.598194 -0.040047 255 0 0
-0.060883 -0.117221 -0.344463 255 0 0
0.129566 -0.789990 -0.217981 255 0 0
0.195612 0.046414 -0.279606 255 0 0
-0.036982 0.566028 -0.142658 127 127 0
0.131203 -0.655058 0.192383 255 0 0
0.206878 -0.560363 0.035042 255 0 0
0.010728 -0.669097 0.227121 255 0 0
0.210417 0.608883 -0.370002 127 127 0
0.106676 -0.000933 0.208008 255 0 0
-0.116580 0.641759 -0.018284 127 127 0
-0.031429 -0.523349 -0.305740 255 0 0
0.217526 0.566028 0.003365 127 127 0
-0.111650 -0.855594 0.189030 255 0 0
0.189234 0.426563 0.258080 255 0 0
0.193595 0.566028 0.170972 127 127 0
0.069796 -0.071011 -0.381177 255 0 0
-0.073046 -0.836832 -0.004896 255 0 0
0.194038 -0.016715 0.194722 255 0 0
0.021639 -0.948610 0.103165 255 0 0
-0.110769 -0.213102 0.255456 0 127 127
0.012027 -0.044042 -0.403501 0 127 127
-0.272919 -0.378840 0.110062 255 0 0
0.314487 0.626503 0.037154 127 127 0
0.097077 0.166735 0.328131 0 255 0
0.237743 -0.682003 -0.211533 255 0 0
0.235422 0.463319 0.149184 255 0 0
0.322554 0.197530 -0.241887 255 0 0
-0.136087 0.594427 -0.043071 127 127 0
-0.075015 -0.767554 0.210654 255 0 0
0.016242 0.402464 0.645051 0 255 0
0.143685 0.068698 0.269904 255 0 0
-0.266007 -0.593239 -0.217194 255 0 0
-0.270568 -0.517983 0.095360 255 0 0
-0.381250 0.469486 -0.124296 255 0 0
-0.183543 -0.087828 0.215500 255 0 0
-0.034064 -0.254574 0.273677 0 127 127
0.107486 0.561559 -0.422587 127 127 0
0.068172 0.409352 0.624131 0 255 0
0.181056 -0.205567 -0.344384 0 127 127
-0.130939 0.138060 0.295893 255 0 0
-0.260992 0.594427 -0.092469 127 127 0
-0.041581 -0.546940 -0.363343 255 0 0
-0.209340 -0.830486 -0.016764 255 0 0
0.227851 0.566028 -0.033653 127 127 0
0.079602 -0.797348 0.199677 255 0 0
-0.001015 0.247904 0.739108 0 255 0
-0.067638 -0.300048 -0.376575 255 0 0
0.327834 0.566028 0.036896 127 127 0
0.292283 0.185670 -0.002227 255 0 0
-0.018762 -0.524851 0.180044 255 0 0
-0.065106 0.566028 -0.243724 127 127 0
0.060176 -0.731929 -0.338946 255 0 0
0.228150 -0.386638 -0.162606 255 0 0
0.185400 0.200444 -0.386646 255 0 0
-0.057450 -0.695311 0.153965 255 0 0
-0.208223 0.064589 -0.290191 255 0 0
-0.222678 -0.409244 -0.208153 255 0 0
0.042427 0.018664 0.770080 0 255 0
-0.188271 -0.469161 -0.314792 255 0 0
0.183981 -0.930407 0.112463 255 0 0
0.194191 0.566028 -0.274517 127 127 0
0.067618 -0.836675 -0.249960 255 0 0
0.202347 -0.948610 0.029413 255 0 0
0.354144 0.240608 0.036238 255 0 0
-0.011899 0.156515 0.334165 0 255 0
0.303509 -0.230915 -0.131847 255 0 0
0.344102 0.513471 0.067679 255 0 0
-0.098413 0.594427 0.024054 127 127 0
-0.166236 -0.829788 0.068953 255 0 0
0.197765 -0.067100 -0.264471 255 0 0
0.111976 -0.948610 -0.077666 255 0 0
0.279022 0.215236 0.050500 255 0 0
0.127594 -0.671380 0.114142 255 0 0
-0.319995 -0.369249 -0.003692 255 0 0
-0.341418 0.302410 -0.247965 255 0 0
-0.037844 0.592432 0.314422 127 127 0
0.019588 -0.265681 0.665365 0 255 0
-0.111555 -0.726904 -0.330177 255 0 0
-0.017925 0.597970 0.277482 127 127 0
-0.319120 0.777985 0.082248 127 127 0
0.081611 -0.129087 0.751492 0 255 0
-0.350129 0.566028 -0.071137 127 127 0
0.224749 0.372027 0.154306 255 0 0
0.238307 -0.756985 -0.195203 255 0 0
-0.333945 -0.201319 -0.045728 255 0 0
-0.189909 0.594427 -0.201376 127 127 0
-0.275116 0.404857 -0.334364 255 0 0
0.271313 -0.444833 0.063582 255 0 0
-0.192614 -0.774374 0.150618 255 0 0
-0.216937 -0.209158 0.183936 0 127 127
-0.008276 0.472063 0.262706 255 0 0
-0.176688 -0.003887 0.181454 255 0 0
0.018903 -0.268630 0.206629 255 0 0
-0.047799 -0.179117 0.259142 0 127 127
-0.303224 0.295096 -0.303958 255 0 0
-0.034199 -0.392947 0.249088 255 0 0
-0.338197 0.638037 -0.158593 127 127 0
-0.277897 -0.226069 0.006175 255 0 0
0.009321 -0.227096 0.733286 0 255 0
0.241143 0.501599 0.145196 255 0 0
-0.036891 0.311321 0.466435 0 255 0
0.060975 -0.642486 0.221485 255 0 0
-0.389638 0.336052 -0.065005 255 0 0
-0.125551 -0.168513 -0.366978 255 0 0
-0.081666 -0.083189 -0.343061 255 0 0
-0.217840 -0.749484 -0.121114 255 0 0
-0.158706 0.594427 -0.177909 127 127 0
0.096831 0.594427 0.069957 127 127 0
-0.305453 0.402812 -0.301189 255 0 0
-0.324577 0.084114 -0.262719 255 0 0
-0.205159 -0.235512 -0.257455 255 0 0
-0.106318 -0.655562 -0.339466 255 0 0
-0.198940 -0.151263 0.202659 255 0 0
-0.389545 0.790845 -0.051466 127 127 0
0.182350 0.384915 -0.319694 255 0 0
0.163694 0.566028 0.127405 127 127 0
-0.115126 0.566028 -0.401101 127 127 0
0.314029 0.050694 0.092779 255 0 0
-0.309787 0.285515 0.039305 255 0 0
0.261983 0.071382 -0.190446 255 0 0
-0.090162 0.145951 0.233178 255 0 0
-0.271668 -0.641922 -0.198325 255 0 0
-0.050438 -0.255050 -0.398268 0 127 127
-0.050041 -0.836832 -0.215291 255 0 0
-0.005688 0.594427 -0.401104 127 127 0
-0.094832 0.594427 0.089758 127 127 0
-0.282349 -0.205873 -0.269187 0 127 127
-0.177720 -0.183019 0.161492 255 0 0
-0.043379 0.424368 0.392205 0 255 0
-0.267485 0.139472 0.104366 255 0 0
0.260559 -0.739795 0.019880 255 0 0
-0.211094 -0.381324 0.102606 255 0 0
0.187780 0.586038 0.258928 127 127 0
-0.201647 0.545267 -0.331267 255 0 0
0.024883 0.124664 0.695693 0 255 0
0.327921 -0.259434 -0.082160 0 127 127
0.182595 0.594427 -0.294520 127 127 0
-0.260385 -0.316938 -0.239385 255 0 0
-0.152189 0.230258 -0.341764 255 0 0
-0.333701 0.409946 -0.067988 255 0 0
0.087811 -0.028963 0.699966 0 255 0
0.068088 -0.948610 -0.212070 255 0 0
0.306793 0.392360 -0.013605 255 0 0
0.161646 0.376685 0.665743 0 255 0
-0.338593 -0.072950 -0.043512 0 127 127
0.187725 -0.517823 -0.293156 255 0 0
0.255222 -0.360198 -0.231531 255 0 0
-0.087229 0.627720 -0.148572 127 127 0
-0.050294 -0.598606 -0.358023 255 0 0
-0.199132 0.619117 -0.347197 127 127 0
-0.038901 -0.427616 -0.316065 255 0 0
-0.004353 -0.014556 -0.392567 255 0 0
0.295753 0.684621 0.084771 127 127 0
-0.312996 0.080076 -0.057967 255 0 0
-0.038373 0.594427 -0.333927 127 127 0
-0.292289 -0.692525 0.002386 255 0 0
0.031684 0.594427 0.108641 127 127 0
-0.330308 -0.255763 -0.082155 255 0 0
-0.229693 -0.641390 0.004899 255 0 0
-0.074213 0.594427 -0.343446 127 127 0
0.210607 -0.325474 -0.209305 255 0 0
0.056144 -0.266320 0.660319 0 255 0
0.361111 0.589619 -0.131764 127 127 0
0.212816 0.482465 -0.300405 255 0 0
-0.279588 -0.806678 0.004838 255 0 0
-0.117646 -0.036835 -0.335740 255 0 0
0.152616 -0.396628 0.203451 255 0 0
0.260861 0.138154 -0.326383 255 0 0
-0.350178 0.108476 -0.226220 255 0 0
0.011411 0.039839 0.772598 0 255 0
0.032592 -0.836832 0.073725 255 0 0
-0.106149 0.177399 -0.357013 255 0 0
-0.174982 -0.836832 -0.060120 255 0 0
0.054168 0.618834 -0.435974 127 127 0
0.199960 0.342130 -0.377278 255 0 0
0.286861 -0.512136 -0.000284 255 0 0
-0.083562 -0.238691 0.201507 255 0 0
-0.073195 0.671802 -0.436538 127 127 0
0.036346 0.699394 0.274336 127 127 0
0.038814 0.151797 0.239830 255 0 0
0.140241 0.221320 0.377883 0 255 0
-0.181970 0.628526 0.274732 127 127 0
-0.019620 0.485587 0.315269 255 0 0
0.139705 -0.576647 0.195424 255 0 0
0.252746 -0.172810 0.032455 255 0 0
0.037027 -0.381744 0.246885 255 0 0
0.109820 -0.948610 0.160624 255 0 0
0.208933 0.108466 -0.273087 255 0 0
0.321678 0.398914 0.117588 255 0 0
0.142484 -0.481540 -0.258417 255 0 0
-0.198819 -0.846472 0.134352 255 0 0
-0.060431 -0.001975 0.228283 255 0 0
0.265630 0.260092 -0.321467 255 0 0
0.096107 -0.524493 0.220876 255 0 0
0.313679 -0.023695 -0.117492 255 0 0
-0.197426 -0.782783 0.034071 255 0 0
0.090303 0.446346 -0.371501 255 0 0
-0.236622 -0.044384 -0.248755 255 0 0
-0.216939 -0.665471 -0.156059 255 0 0
0.022963 0.165436 0.680115 0 255 0
-0.077739 0.589449 -0.435682 127 127 0
-0.384088 0.303545 0.001077 255 0 0
0.003277 0.425950 0.576485 0 255 0
0.204652 -0.710957 -0.106376 255 0 0
-0.062258 0.336405 0.251538 255 0 0
0.269717 -0.243004 0.126850 0 127 127
0.267226 -0.193048 -0.078245 255 0 0
-0.131145 0.594427 -0.155279 127 127 0
-0.180987 0.657559 0.232153 127 127 0
0.268138 -0.139505 -0.113880 255 0 0
-0.333958 0.462393 -0.022859 255 0 0
-0.302315 0.084580 0.167787 255 0 0
-0.004959 0.594427 -0.197406 127 127 0
-0.293663 -0.152168 -0.065972 255 0 0
-0.001433 0.566028 -0.342018 127 127 0
-0.386851 0.733239 -0.017908 127 127 0
-0.325384 0.582759 0.148013 127 127 0
-0.150457 0.325928 0.288907 255 0 0
0.041549 -0.728592 -0.274354 255 0 0
0.146450 0.399718 -0.344111 255 0 0
0.169471 0.000167 0.171042 255 0 0
0.063000 -0.275772 0.197214 255 0 0
-0.310334 0.045177 -0.059572 255 0 0
0.063581 0.029953 -0.405711 255 0 0
-0.283429 0.252819 0.092714 255 0 0
0.172190 -0.262938 0.697865 0 255 0
-0.026556 0.223926 0.419135 0 255 0
-0.280359 0.169225 0.087173 255 0 0
-0.317390 0.276373 0.159414 255 0 0
0.362863 0.527298 -0.004751 255 0 0
-0.264407 -0.437130 -0.056271 255 0 0
-0.079639 0.594427 0.178289 127 127 0
0.226436 -0.260559 0.152210 255 0 0
0.167120 0.484006 0.270824 255 0 0
0.293937 -0.503752 -0.054499 255 0 0
-0.247391 -0.380821 -0.269505 255 0 0
-0.279290 -0.445018 0.091330 255 0 0
0.056881 0.658341 0.270685 127 127 0
-0.344694 0.794926 0.063239 127 127 0
-0.025268 -0.464416 0.186955 255 0 0
0.204857 -0.138242 -0.329394 0 127 127
0.196287 -0.350125 0.174836 255 0 0
-0.147940 -0.024461 0.236480 255 0 0
0.308397 0.247329 0.140028 255 0 0
0.089542 -0.844017 0.190436 255 0 0
0.354993 0.131167 -0.158927 255 0 0
0.254686 0.594427 0.012430 127 127 0
-0.128977 0.594427 0.071767 127 127 0
-0.236742 0.705583 -0.363037 127 127 0
0.274352 0.497727 -0.311676 255 0 0
0.260846 -0.536353 -0.196022 255 0 0
0.312390 0.429035 -0.073446 255 0 0
0.072785 0.520172 0.305954 255 0 0
-0.095452 -0.836832 -0.072371 255 0 0
0.121156 0.365467 0.228637 255 0 0
0.036037 0.212612 0.244564 255 0 0
0.329867 0.131108 0.100762 255 0 0
-0.213851 -0.726985 0.016660 255 0 0
0.043365 -0.447347 -0.367664 255 0 0
0.208594 0.285181 -0.371475 255 0 0
-0.237815 0.181841 -0.366275 255 0 0
0.261779 -0.709118 -0.152968 255 0 0
-0.191454 -0.575682 -0.217104 255 0 0
0.294987 0.257204 0.006984 255 0 0
0.162214 -0.445176 0.120674 255 0 0
-0.001100 0.295219 -0.441450 255 0 0
-0.052181 0.420720 0.305124 0 255 0
0.159027 0.374291 0.504112 0 255 0
0.181996 -0.865792 -0.252215 255 0 0
0.234803 -0.501279 -0.244359 255 0 0
0.033093 0.538370 -0.388802 255 0 0
0.013276 0.403304 -0.384501 255 0 0
-0.291784 -0.106994 0.134549 0 127 127
0.051601 0.594427 -0.322259 127 127 0
0.154681 0.207787 0.754336 0 255 0
0.172306 -0.665480 -0.194956 255 0 0
0.321619 0.343070 -0.243697 255 0 0
0.092605 -0.100719 -0.330990 255 0 0
0.004564 0.087089 0.238964 255 0 0
-0.284975 0.708788 -0.312158 127 127 0
-0.315644 0.237843 0.008223 255 0 0
-0.204244 -0.074830 -0.329117 0 127 127
0.042573 -0.948610 -0.272346 255 0 0
-0.012898 0.094745 -0.366286 255 0 0
-0.256269 0.042063 0.107921 255 0 0
-0.085329 0.566028 -0.072123 127 127 0
0.318480 0.387676 -0.249432 255 0 0
0.153138 -0.118005 -0.296889 255 0 0
-0.274843 0.339505 0.116197 255 0 0
0.020497 0.594427 -0.090058 127 127 0
0.321467 0.586061 0.117607 127 127 0
-0.267770 0.729780 0.160995 127 127 0
0.217483 -0.305661 0.076052 255 0 0
0.224521 0.142394 -0.359377 255 0 0
-0.389217 0.399629 -0.081038 255 0 0
-0.331129 0.367711 -0.081371 255 0 0
0.164227 0.594427 -0.000659 127 127 0
0.214241 -0.634620 -0.108595 255 0 0
-0.270857 -0.379299 -0.055621 255 0 0
0.365849 0.245801 -0.029017 255 0 0
0.147300 0.330653 0.414978 0 255 0
0.105222 -0.743830 0.118445 255 0 0
0.131659 -0.318251 -0.334072 255 0 0
-0.117058 0.663782 0.013162 127 127 0
-0.366468 0.352317 0.067059 255 0 0
0.111415 0.006489 0.761003 0 255 0
-0.255611 0.542320 -0.282976 255 0 0
0.174445 -0.514593 0.178104 255 0 0
-0.382661 0.087640 -0.089199 255 0 0
-0.342445 0.707885 0.119769 127 127 0
-0.239866 -0.471384 -0.162854 255 0 0
0.032167 0.641759 -0.109661 127 127 0
0.255064 -0.600332 -0.195498 255 0 0
0.032484 0.231113 0.612090 0 255 0
0.275973 -0.699751 -0.039271 255 0 0
-0.258488 0.566028 -0.314269 127 127 0
0.086921 0.036777 0.277159 255 0 0
-0.145451 -0.260921 -0.299895 255 0 0
0.244688 -0.137876 0.060215 255 0 0
-0.260049 0.594427 -0.174077 127 127 0
0.234422 0.016654 0.103960 255 0 0
-0.235312 -0.060774 0.121851 255 0 0
-0.051413 0.438707 0.258638 255 0 0
0.283943 -0.611868 -0.036494 255 0 0
0.144757 -0.492526 -0.326478 255 0 0
-0.335927 -0.060048 -0.110944 255 0 0
-0.047273 0.566028 0.013277 127 127 0
0.093336 -0.203120 0.730729 0 255 0
-0.282656 -0.166254 0.115184 255 0 0
-0.157834 0.608724 -0.370494 127 127 0
-0.268543 -0.754793 0.053029 255 0 0
-0.186439 0.594427 -0.095524 127 127 0
0.057480 -0.648313 -0.280678 255 0 0
-0.086385 0.566028 0.118327 127 127 0
-0.090103 -0.087897 -0.381052 255 0 0
0.091859 -0.018417 -0.338782 255 0 0
0.021758 -0.459359 0.185770 255 0 0
-0.004059 0.250007 0.556200 0 255 0
0.203896 -0.948610 -0.105565 255 0 0
0.128401 -0.600074 -0.251300 255 0 0
-0.286034 -0.017061 -0.244634 255 0 0
0.100104 0.672745 0.298698 127 127 0
-0.318709 0.410134 0.034377 255 0 0
-0.276246 -0.020079 -0.190428 255 0 0
-0.037966 0.566028 -0.407209 127 127 0
-0.371896 0.057574 -0.020977 255 0 0
-0.033613 0.701864 -0.403654 127 127 0
-0.316634 -0.463697 -0.103587 255 0 0
-0.327052 -0.266445 -0.011043 255 0 0
0.245489 -0.323187 -0.132601 255 0 0
0.282450 -0.024182 -0.074079 255 0 0
-0.020174 0.566028 -0.246586 127 127 0
0.257981 0.634535 -0.329500 127 127 0
-0.110817 0.566028 -0.021457 127 127 0
-0.116330 0.069437 -0.415080 255 0 0
0.298650 0.497409 0.041294 255 0 0
-0.268507 -0.053370 0.073091 255 0 0
0.280481 0.566028 0.130245 127 127 0
0.075681 -0.094418 0.696945 0 255 0
0.247494 0.020897 -0.292149 255 0 0
0.109873 0.566028 -0.153071 127 127 0
-0.309162 0.463514 -0.296356 255 0 0
0.203089 0.032958 -0.342661 255 0 0
0.031506 -0.370196 0.194277 255 0 0
0.155478 0.566028 0.196911 127 127 0
-0.276747 -0.849072 -0.122017 255 0 0
-0.306297 0.234723 -0.165947 255 0 0
0.323469 0.684164 -0.127044 127 127 0
0.141909 -0.948610 -0.222199 255 0 0
-0.140598 0.626636 0.251934 127 127 0
-0.259122 -0.425318 -0.005113 255 0 0
-0.074645 -0.002576 -0.351660 255 0 0
-0.056032 -0.693822 0.221977 255 0 0
0.176521 -0.342150 0.637069 0 255 0
0.184647 0.071617 0.165958 255 0 0
0.165303 -0.821611 -0.167222 255 0 0
0.188330 0.454339 0.193420 255 0 0
0.232914 0.247016 -0.259770 255 0 0
0.243120 0.566028 0.161364 127 127 0
-0.310412 0.742684 0.168775 127 127 0
0.026450 0.566028 -0.306345 127 127 0
0.230026 -0.291211 -0.271939 255 0 0
-0.011678 -0.845135 -0.335777 255 0 0
0.049086 -0.948610 -0.103523 255 0 0
-0.115713 0.669297 0.300749 127 127 0
-0.305495 -0.230148 -0.193680 255 0 0
-0.387291 0.511172 -0.105353 255 0 0
0.149174 0.594427 -0.075717 127 127 0
-0.143050 -0.380158 -0.347874 255 0 0
-0.076765 -0.361100 -0.371166 255 0 0
-0.013161 0.617369 -0.156965 127 127 0
0.086036 0.557686 0.251752 127 127 0
0.097409 0.708025 -0.414452 127 127 0
0.258801 0.129557 0.080147 255 0 0
0.102852 0.479712 -0.424182 255 0 0
-0.175481 0.641759 -0.043989 127 127 0
-0.223598 0.634013 0.250247 127 127 0
-0.211618 -0.246824 0.123069 255 0 0
0.142441 -0.240931 0.710892 0 255 0
-0.318438 0.345386 0.157890 255 0 0
-0.265200 -0.882029 -0.149244 255 0 0
-0.286670 -0.224770 -0.055784 255 0 0
0.013380 0.429710 0.326094 0 255 0
0.285270 -0.553882 -0.117427 255 0 0
0.082325 -0.921103 -0.309610 255 0 0
-0.009256 0.230169 0.623624 0 255 0
0.271115 0.266713 0.075878 255 0 0
-0.319218 0.146283 -0.283133 255 0 0
0.222716 0.441510 0.234513 255 0 0
-0.264611 0.594427 0.086633 127 127 0
-0.244338 -0.569104 -0.015732 255 0 0
0.270000 0.481327 0.190409 255 0 0
-0.090354 0.594427 -0.012284 127 127 0
-0.079864 -0.508566 0.233822 255 0 0
-0.109202 -0.579123 -0.278581 255 0 0
0.092316 -0.236631 0.191331 255 0 0
0.122638 -0.832357 -0.216295 255 0 0
0.111464 -0.173892 0.237445 0 127 127
-0.163423 0.404964 0.221120 255 0 0
0.237534 -0.043107 -0.216504 255 0 0
-0.245433 0.566028 -0.001844 127 127 0
-0.012993 0.338016 0.648070 0 255 0
-0.212869 -0.948610 -0.156309 255 0 0
-0.239082 0.420740 0.238996 255 0 0
-0.374927 0.553362 0.041158 255 0 0
-0.298922 -0.279169 -0.201374 255 0 0
-0.144493 -0.812092 0.094048 255 0 0
0.260376 -0.233226 -0.019945 255 0 0
-0.054163 -0.948610 -0.234802 255 0 0
-0.142539 0.510272 0.236744 255 0 0
0.207113 0.708025 -0.337775 127 127 0
0.057982 -0.802941 -0.331784 255 0 0
0.020409 -0.050216 0.281478 0 127 127
0.297115 -0.041905 0.048129 0 127 127
0.058395 -0.836832 -0.022846 255 0 0
-0.276593 0.025050 0.071362 255 0 0
-0.109363 0.594427 -0.308923 127 127 0
0.296792 0.422652 0.036002 255 0 0
0.342482 0.685872 0.072024 127 127 0
-0.331606 0.722988 0.052530 127 127 0
0.159915 0.605188 0.231589 127 127 0
0.093870 0.594427 0.159690 127 127 0
-0.253105 -0.858577 -0.185133 255 0 0
0.238641 -0.032855 0.151169 0 127 127
0.222631 -0.071627 -0.293337 0 127 127
-0.149908 -0.070229 -0.360465 255 0 0
-0.162941 0.566028 -0.142158 127 127 0
0.264250 -0.808734 -0.090196 255 0 0
-0.045194 -0.836832 -0.062684 255 0 0
-0.079852 -0.632229 0.156557 255 0 0
-0.103683 0.033509 0.276977 255 0 0
-0.323072 0.301640 -0.117927 255 0 0
-0.058793 0.319898 -0.438702 255 0 0
0.349366 0.356700 -0.178828 255 0 0
0.076136 -0.765029 -0.257037 255 0 0
0.000620 -0.461773 -0.313535 255 0 0
0.134310 0.065084 0.200271 255 0 0
0.229449 -0.510001 -0.110568 255 0 0
-0.144328 -0.863675 0.172289 255 0 0
0.078428 -0.948610 -0.036050 255 0 0
0.041223 -0.836832 -0.089313 255 0 0
-0.360850 0.566028 -0.155030 255 0 0
-0.094106 0.088630 0.227841 255 0 0
0.279703 0.086634 0.019913 255 0 0
-0.281705 0.145039 0.201549 255 0 0
0.074144 0.365048 0.305642 255 0 0
0.359701 0.479687 0.012927 255 0 0
-0.321064 -0.221139 -0.151821 255 0 0
0.028137 0.273712 0.249527 255 0 0
0.186738 -0.349039 -0.309214 255 0 0
-0.248636 0.594427 -0.216903 127 127 0
0.064240 -0.411541 0.624269 0 255 0
0.076543 -0.436792 -0.300941 255 0 0
-0.356683 0.224162 0.091193 255 0 0
-0.021573 -0.923423 -0.326163 255 0 0
0.054797 0.058422 -0.356008 255 0 0
-0.030055 0.454191 0.304123 0 255 0
-0.360295 0.584060 -0.209172 127 127 0
0.182240 0.050126 -0.367221 255 0 0
0.200986 0.690534 -0.376749 127 127 0
0.115135 0.566028 0.068245 127 127 0
0.348911 0.159480 0.054102 255 0 0
0.308896 0.359788 -0.058300 255 0 0
-0.306004 0.010112 -0.093424 255 0 0
-0.389543 0.665306 -0.069723 127 127 0
-0.240035 -0.338174 -0.281474 255 0 0
-0.026974 -0.836832 -0.094928 255 0 0
-0.223274 0.030435 -0.342627 255 0 0
0.253005 -0.240287 -0.136987 255 0 0
0.104247 -0.042516 0.263755 0 127 127
0.259851 0.594427 -0.089120 127 127 0
-0.270414 0.107725 -0.335771 255 0 0
-0.218328 -0.801863 -0.075615 255 0 0
-0.024306 0.037802 -0.361429 255 0 0
0.170972 0.058548 -0.301832 255 0 0
-0.193847 0.566028 0.168203 127 127 0
0.287209 0.193833 -0.296054 255 0 0
-0.036120 -0.948610 -0.177779 255 0 0
0.310648 0.124162 -0.261332 255 0 0
0.255253 0.552142 0.205814 255 0 0
0.099138 -0.344633 -0.359244 255 0 0
0.119179 -0.492848 0.146931 255 0 0
0.273296 0.462914 0.094989 255 0 0
-0.208790 -0.127397 0.141955 255 0 0
-0.389313 0.161519 -0.077399 255 0 0
0.008864 0.672854 -0.441086 127 127 0
0.101347 0.248905 0.755277 0 255 0
-0.063791 -0.480331 -0.365535 255 0 0
0.218150 -0.128764 -0.232164 255 0 0
-0.030638 0.462078 -0.441120 255 0 0
0.038832 -0.791068 0.211081 255 0 0
0.273527 0.449207 -0.219616 255 0 0
0.149171 0.594427 0.079875 127 127 0
0.316102 0.035066 -0.196547 255 0 0
-0.244410 -0.606835 -0.057437 255 0 0
0.156193 0.332268 0.709054 0 255 0
0.169633 0.342068 0.199843 255 0 0
-0.319370 0.328779 -0.142884 255 0 0
-0.013640 -0.312524 -0.368460 255 0 0
-0.236053 0.594427 -0.251196 127 127 0
-0.185308 -0.375390 0.198221 255 0 0
-0.215937 0.594427 -0.280647 127 127 0
0.053486 0.566028 -0.266593 127 127 0
0.116802 0.293326 0.226056 255 0 0
-0.117029 0.594427 0.152590 127 127 0
0.186777 -0.213596 0.191881 255 0 0
0.008062 -0.599918 0.233649 255 0 0
0.262417 -0.090139 0.027446 255 0 0
-0.343506 0.005839 -0.016635 255 0 0
-0.274514 0.541548 0.208667 255 0 0
-0.097642 -0.217556 -0.325693 255 0 0
-0.134916 0.380609 0.233152 255 0 0
0.105692 -0.627169 0.207691 255 0 0
0.235386 -0.567745 0.108067 255 0 0
0.309824 0.467126 -0.117517 255 0 0
0.061627 0.399995 0.308498 255 0 0
0.238223 -0.657653 0.089115 255 0 0
-0.313456 0.566028 -0.065813 127 127 0
-0.035241 0.129952 -0.440674 255 0 0
0.223991 -0.190248 -0.213504 255 0 0
-0.026111 0.380347 0.548370 0 255 0
-0.262175 0.655302 0.167059 127 127 0
-0.200678 0.148926 0.178151 255 0 0
-0.227573 -0.078297 -0.254671 255 0 0
-0.053897 0.594427 -0.376910 127 127 0
-0.380962 0.233519 -0.143313 255 0 0
-0.010834 -0.209769 0.258641 255 0 0
-0.324158 -0.146074 -0.191597 0 127 127
-0.306015 0.465950 0.074658 255 0 0
-0.150665 -0.948610 -0.104955 255 0 0
-0.212812 -0.948610 0.056339 255 0 0
0.015342 -0.611272 -0.358206 255 0 0
0.073046 0.641759 -0.075432 127 127 0
0.120915 -0.254063 0.656286 0 255 0
-0.171352 0.641759 -0.090403 127 127 0
-0.216331 0.566028 -0.170597 127 127 0
-0.119476 0.566028 0.022943 127 127 0
-0.269198 -0.859896 0.019315 255 0 0
-0.361477 0.046222 -0.139081 255 0 0
0.069498 -0.577513 0.159699 255 0 0
-0.170289 -0.252316 -0.341880 255 0 0
-0.387413 0.205602 -0.022779 255 0 0
-0.378181 0.505756 0.029350 255 0 0
-0.190857 0.148763 0.270119 255 0 0
0.147076 -0.173301 -0.294839 255 0 0
0.069792 0.594427 0.097641 127 127 0
-0.135972 0.154020 0.217573 255 0 0
-0.275728 0.049720 -0.307473 255 0 0
-0.128668 -0.948610 -0.180615 255 0 0
0.145433 -0.729898 0.087839 255 0 0
0.020377 -0.948610 -0.211517 255 0 0
0.146510 -0.806489 0.164591 255 0 0
-0.293436 -0.624866 -0.149074 255 0 0
0.161286 0.708025 -0.385698 127 127 0
-0.118675 0.175806 0.299771 255 0 0
-0.083476 -0.405044 0.240657 255 0 0
-0.231364 0.072815 0.232250 255 0 0
0.263947 0.065640 0.058704 255 0 0
0.307361 0.700375 -0.267216 127 127 0
0.046147 0.127981 0.292187 0 255 0
-0.294445 -0.092876 0.100936 255 0 0
0.100974 0.265428 -0.424717 255 0 0
0.196177 0.594427 -0.182398 127 127 0
-0.302985 0.566028 -0.248148 255 0 0
0.043863 0.458110 0.450917 0 255 0
-0.055845 0.082175 0.305404 255 0 0
-0.233789 -0.517928 0.036861 255 0 0
0.170327 0.451656 -0.332526 255 0 0
0.351466 0.314907 0.045638 255 0 0
0.198788 0.566028 0.041580 127 127 0
0.229941 -0.346759 0.141013 255 0 0
0.168421 0.594427 0.148235 127 127 0
-0.209028 0.403060 -0.317429 255 0 0
0.277710 -0.059132 -0.028595 255 0 0
0.242886 -0.899855 0.016721 255 0 0
-0.216222 -0.286090 0.111890 255 0 0
-0.214993 0.594427 -0.112789 127 127 0
-0.162016 0.247679 -0.410187 255 0 0
0.136105 0.429710 0.487658 0 255 0
0.233080 -0.215935 -0.274081 255 0 0
0.314404 0.176613 0.130035 255 0 0
-0.386731 0.109357 -0.037373 255 0 0
0.082713 -0.568884 -0.348094 255 0 0
-0.271947 -0.326821 -0.014003 255 0 0
0.027703 -0.207854 0.682366 0 255 0
0.155712 0.249886 0.545763 0 255 0
0.181395 0.331129 -0.316860 255 0 0
0.040966 -0.195751 -0.336724 255 0 0
0.137144 0.627137 -0.369783 127 127 0
-0.174840 0.338243 0.210514 255 0 0
-0.322764 0.566028 -0.143561 255 0 0
0.038407 0.566028 -0.412746 127 127 0
0.111274 -0.285674 0.231811 255 0 0
0.138879 -0.771614 0.174244 255 0 0
0.298102 -0.443127 -0.044918 255 0 0
0.223868 0.594427 0.068770 127 127 0
0.165728 0.519058 -0.397827 255 0 0
-0.281014 -0.670800 0.045450 255 0 0
-0.129041 0.298678 -0.356981 255 0 0
-0.164057 -0.811182 0.167089 255 0 0
-0.267277 -0.195633 -0.172152 255 0 0
0.071604 -0.326918 -0.369181 255 0 0
0.030935 0.241271 0.455891 0 255 0
0.281323 0.643810 -0.303400 127 127 0
-0.017792 -0.267606 -0.401515 0 127 127
0.160336 0.254387 0.746403 0 255 0
-0.289299 0.641759 0.063404 127 127 0
-0.184010 -0.532103 -0.232975 255 0 0
-0.027239 -0.948610 -0.046394 255 0 0
