ply
format ascii 1.0
element vertex 1274
property float x
property float y
property float z
property uchar red
property uchar green
property uchar blue
end_header
-0.074265 0.448877 0.294634 76 153 0
-0.100413 -0.607909 0.294634 76 153 0
-0.387823 0.039559 0.195663 76 153 0
0.323082 -0.009568 0.260921 76 153 0
-0.361910 0.133302 -0.212584 76 153 0
0.149806 0.450136 0.294634 76 153 0
0.334953 0.586216 0.108940 76 153 0
-0.215474 -0.082573 -0.283188 76 153 0
0.296719 -0.260723 0.282182 76 153 0
-0.348775 0.047227 0.238409 76 153 0
0.040418 -0.639425 0.056469 76 153 0
-0.395317 0.171567 -0.170849 76 153 0
-0.319603 -0.563291 0.233473 76 153 0
-0.047607 -0.022218 0.294634 76 153 0
0.354224 0.307324 -0.215383 76 153 0
0.045106 0.467709 -0.283188 76 153 0
0.129646 -0.670824 0.155028 76 153 0
-0.251690 -0.679480 -0.204477 76 153 0
0.320436 -0.266571 -0.252372 76 153 0
-0.041507 -0.351937 -0.283188 76 153 0
-0.307448 -0.142040 -0.267126 76 153 0
-0.018427 -0.627335 -0.009229 76 153 0
-0.031636 -0.690761 -0.114779 76 153 0
-0.035546 0.269402 0.294634 76 153 0
0.340569 -0.584764 0.192877 76 153 0
0.311131 0.594124 0.143298 76 153 0
0.128908 -0.546288 0.294634 76 153 0
-0.068425 -0.586879 -0.283188 76 153 0
0.233885 0.212643 -0.283188 76 153 0
-0.259916 -0.510447 -0.283188 76 153 0
-0.034391 -0.690761 -0.083236 76 153 0
-0.254521 0.548990 0.250568 76 153 0
-0.396751 -0.001507 0.179388 76 153 0
0.391175 -0.003174 -0.168850 76 153 0
0.204108 -0.690761 -0.098978 76 153 0
0.366465 -0.113351 0.213429 76 153 0
-0.021197 -0.690761 -0.191079 76 153 0
-0.266681 0.525899 0.256407 76 153 0
-0.025943 -0.289119 0.294634 76 153 0
-0.361391 -0.467295 -0.208700 76 153 0
-0.437250 -0.357854 -0.073635 76 153 0
-0.368927 -0.631397 -0.093835 76 153 0
-0.043070 -0.308336 -0.283188 76 153 0
-0.253743 0.009833 0.294634 76 153 0
-0.407084 -0.450933 -0.143341 76 153 0
0.424295 -0.109300 0.113130 76 153 0
-0.366486 -0.648689 -0.072025 76 153 0
-0.432762 -0.052658 -0.094914 76 153 0
0.296877 -0.437775 -0.269938 76 153 0
0.223993 -0.690761 -0.039743 76 153 0
0.159789 0.709149 0.099888 153 0 76
0.206120 0.343838 0.294634 76 153 0
0.384017 -0.096019 0.194215 76 153 0
0.351609 0.400404 0.222860 76 153 0
0.151803 -0.690761 0.107380 76 153 0
-0.242373 -0.678429 -0.053062 76 153 0
-0.039338 -0.277117 -0.283188 76 153 0
-0.387774 -0.437341 0.194828 76 153 0
-0.055144 0.629775 0.270688 76 153 0
0.097394 -0.265180 -0.283188 76 153 0
0.319196 -0.677067 -0.114745 76 153 0
0.424968 -0.214191 0.111764 76 153 0
-0.382461 -0.351840 0.201533 76 153 0
0.181617 -0.617983 0.294634 76 153 0
-0.259998 -0.184013 0.294634 76 153 0
0.236605 0.675313 -0.083595 76 153 0
0.319951 0.296562 -0.252903 76 153 0
-0.384124 -0.623640 0.069593 76 153 0
0.432268 0.111181 -0.072702 76 153 0
0.093733 -0.063240 0.294634 76 153 0
-0.107018 0.834573 0.065425 153 0 76
-0.386652 0.210868 -0.185498 76 153 0
0.211207 -0.473245 0.294634 76 153 0
-0.073999 0.794786 -0.074539 153 0 76
0.373748 0.364232 0.203795 76 153 0
0.072308 -0.409256 0.294634 76 153 0
-0.446371 -0.026093 0.026891 76 153 0
0.084396 -0.652130 0.033541 76 153 0
0.013741 0.793437 -0.099728 153 0 76
0.196476 -0.690761 0.052736 76 153 0
-0.295200 0.597271 -0.156821 76 153 0
0.090884 0.318899 -0.283188 76 153 0
0.331277 0.520960 -0.180820 76 153 0
-0.218985 0.614873 -0.208834 76 153 0
-0.047387 0.022980 -0.283188 76 153 0
-0.308834 -0.315503 -0.266232 76 153 0
0.330492 -0.036067 -0.241362 76 153 0
0.439946 -0.389818 -0.023715 76 153 0
-0.250674 -0.578098 0.280509 76 153 0
-0.441755 0.270936 -0.044895 76 153 0
0.218863 0.662826 0.150663 76 153 0
0.182604 -0.474654 0.294634 76 153 0
0.431400 -0.198025 -0.078240 76 153 0
-0.364568 -0.509170 0.206443 76 153 0
-0.257916 -0.078210 0.294634 76 153 0
-0.092799 0.684156 -0.188486 76 153 0
-0.409236 -0.523877 0.122664 76 153 0
0.018545 0.713100 0.161667 153 0 76
-0.127163 0.186549 0.294634 76 153 0
0.048486 -0.690761 0.049297 76 153 0
0.442487 0.250308 0.018949 76 153 0
0.439205 -0.303764 0.039888 76 153 0
0.001252 -0.628870 0.036622 76 153 0
0.099511 0.778602 -0.058799 153 0 76
-0.448852 0.255625 0.000388 76 153 0
-0.393733 0.237102 -0.174062 76 153 0
-0.073617 0.703725 0.172475 153 0 76
0.165694 -0.023918 -0.283188 76 153 0
-0.301267 0.559343 -0.188809 76 153 0
-0.078411 0.761576 -0.095826 153 0 76
0.170735 -0.667692 0.030222 76 153 0
0.369623 -0.529145 0.188242 76 153 0
0.223249 0.420128 0.294634 76 153 0
-0.308709 0.613531 -0.110356 76 153 0
-0.058372 0.735019 -0.120920 153 0 76
-0.189186 -0.690761 -0.026263 76 153 0
0.429092 0.280346 0.103401 76 153 0
0.060842 -0.661553 -0.093769 76 153 0
0.194634 0.547550 -0.275399 76 153 0
0.399364 -0.028876 0.163688 76 153 0
0.068828 -0.377128 0.294634 76 153 0
0.018450 -0.155166 0.294634 76 153 0
0.253616 0.574682 0.230315 76 153 0
-0.251467 0.265167 0.294634 76 153 0
-0.252232 -0.332326 0.294634 76 153 0
0.124584 -0.690761 -0.003731 76 153 0
0.096483 0.991004 -0.050130 76 0 153
0.167766 -0.666542 -0.262563 76 153 0
-0.209634 -0.453941 0.294634 76 153 0
0.175975 -0.670391 0.085895 76 153 0
-0.231728 -0.497750 0.294634 76 153 0
-0.252614 -0.211737 0.294634 76 153 0
0.156549 0.637531 -0.221769 76 153 0
-0.217617 0.477467 -0.283188 76 153 0
-0.014654 -0.437884 -0.283188 76 153 0
0.389935 0.474022 -0.120599 76 153 0
-0.194389 -0.143937 -0.283188 76 153 0
-0.403491 -0.097561 0.165720 76 153 0
-0.000387 -0.513731 0.294634 76 153 0
0.103577 -0.676073 0.212318 76 153 0
-0.192645 0.589440 -0.248963 76 153 0
-0.175774 -0.332515 -0.283188 76 153 0
0.013658 0.044480 0.294634 76 153 0
-0.346177 0.426482 -0.216919 76 153 0
-0.160874 -0.675306 -0.158865 76 153 0
0.410537 0.049378 -0.129583 76 153 0
0.017860 -0.239392 -0.283188 76 153 0
-0.039846 -0.155750 0.294634 76 153 0
0.439063 -0.203217 -0.029349 76 153 0
0.194618 0.460745 -0.283188 76 153 0
0.419857 0.255483 -0.110683 76 153 0
-0.157609 -0.664944 0.004404 76 153 0
-0.174764 0.513689 0.294634 76 153 0
0.054132 -0.231775 0.294634 76 153 0
0.415047 0.131132 -0.120438 76 153 0
0.101969 -0.373771 -0.283188 76 153 0
0.059269 0.549876 -0.283188 76 153 0
0.171220 0.590654 0.268282 76 153 0
0.044508 -0.043973 0.294634 76 153 0
0.023176 0.587996 -0.283188 76 153 0
0.288001 -0.233675 -0.276355 76 153 0
-0.110513 0.898719 -0.038535 76 0 153
-0.310187 0.595259 0.153611 76 153 0
0.341119 -0.653202 -0.109155 76 153 0
-0.215389 0.253473 0.294634 76 153 0
-0.061977 -0.662210 0.115950 76 153 0
-0.328572 -0.184880 -0.249079 76 153 0
-0.039986 0.977869 -0.102368 76 0 153
0.292191 -0.690761 0.097234 76 153 0
-0.259433 -0.537880 -0.278872 76 153 0
0.399214 0.457041 0.125657 76 153 0
-0.204683 0.010534 -0.283188 76 153 0
-0.016116 -0.687153 0.295949 76 153 0
0.407026 0.498969 0.035214 76 153 0
0.112880 -0.404352 0.294634 76 153 0
0.093746 0.950062 0.072305 76 0 153
-0.355048 -0.536705 0.206960 76 153 0
-0.181541 0.332589 -0.283188 76 153 0
-0.388536 -0.465821 0.189449 76 153 0
-0.097917 -0.165400 0.294634 76 153 0
-0.247476 0.659770 0.130123 76 153 0
-0.092796 0.405894 0.294634 76 153 0
-0.435054 -0.448611 0.089736 76 153 0
0.403070 -0.546133 0.110375 76 153 0
-0.215133 -0.354576 -0.283188 76 153 0
-0.300628 -0.213091 0.282968 76 153 0
-0.199175 -0.690761 -0.064432 76 153 0
-0.094633 -0.590260 -0.283188 76 153 0
-0.073991 0.391729 -0.283188 76 153 0
0.301370 0.427029 0.269141 76 153 0
-0.178233 0.374198 -0.283188 76 153 0
-0.158341 -0.690761 0.096934 76 153 0
0.246967 0.614991 -0.182360 76 153 0
0.264018 -0.676658 0.200267 76 153 0
-0.112150 0.950312 -0.035230 76 0 153
0.359831 0.197706 0.220691 76 153 0
0.189715 0.387549 -0.283188 76 153 0
-0.166329 -0.221940 -0.283188 76 153 0
-0.349315 -0.376974 -0.226372 76 153 0
0.103165 -0.239655 0.294634 76 153 0
-0.202467 -0.589645 -0.283188 76 153 0
0.412698 0.478345 -0.038134 76 153 0
0.370149 0.298712 -0.197950 76 153 0
-0.427971 0.348954 -0.103729 76 153 0
-0.061748 -0.450652 0.294634 76 153 0
0.418592 0.163614 -0.113249 76 153 0
-0.240368 0.228735 -0.283188 76 153 0
-0.078512 0.938472 0.096296 76 0 153
-0.304589 -0.479189 0.275118 76 153 0
0.045964 0.625116 -0.263608 76 153 0
-0.367482 0.350695 -0.205793 76 153 0
-0.147010 0.462580 0.294634 76 153 0
-0.243323 0.594583 0.223368 76 153 0
0.030225 0.321704 -0.283188 76 153 0
-0.115158 0.874972 -0.014838 76 0 153
-0.389667 -0.070954 -0.182198 76 153 0
-0.440239 -0.120644 -0.054568 76 153 0
-0.186617 -0.690761 0.048326 76 153 0
0.427707 -0.532542 0.005520 76 153 0
-0.418762 -0.079837 0.134751 76 153 0
-0.332781 0.116811 0.255918 76 153 0
0.069649 0.775999 0.099345 153 0 76
0.353835 0.458138 0.202755 76 153 0
0.029407 -0.648466 -0.072932 76 153 0
0.327952 0.453746 -0.221254 76 153 0
0.030829 -0.690761 0.067241 76 153 0
-0.062571 0.842600 -0.098604 153 0 76
0.166237 -0.690761 -0.048755 76 153 0
0.392519 -0.609195 0.034651 76 153 0
-0.106741 0.782074 -0.051837 153 0 76
-0.266372 0.390514 0.294634 76 153 0
0.429184 -0.079577 0.103215 76 153 0
0.007148 0.416451 0.294634 76 153 0
0.443505 0.331613 -0.001005 76 153 0
0.032733 0.296476 0.294634 76 153 0
0.161124 -0.579144 0.294634 76 153 0
-0.150617 0.623141 -0.239333 76 153 0
-0.120751 -0.628008 0.294634 76 153 0
0.001604 -0.502474 -0.283188 76 153 0
-0.179929 -0.208177 0.294634 76 153 0
0.443625 0.296510 -0.000241 76 153 0
0.115996 0.838551 -0.008097 153 0 76
-0.330885 0.552250 -0.162694 76 153 0
-0.161383 0.296974 0.294634 76 153 0
-0.190345 0.664417 -0.167924 76 153 0
0.100302 0.660508 0.227740 76 153 0
-0.314619 0.623673 0.087719 76 153 0
-0.138775 -0.690761 0.050986 76 153 0
-0.090258 -0.663243 -0.097964 76 153 0
-0.043602 -0.208270 0.294634 76 153 0
0.251512 -0.086396 -0.283188 76 153 0
0.202286 0.067142 -0.283188 76 153 0
-0.373009 0.288869 0.211880 76 153 0
-0.322091 -0.406661 -0.256174 76 153 0
0.386887 -0.610587 0.065641 76 153 0
0.290126 0.556759 0.209136 76 153 0
-0.284670 -0.596066 0.250093 76 153 0
-0.174821 -0.270980 -0.283188 76 153 0
-0.103273 0.097669 -0.283188 76 153 0
0.121319 0.773910 0.033776 153 0 76
0.372602 -0.317953 -0.195265 76 153 0
0.300534 -0.527741 -0.252009 76 153 0
-0.162151 0.525481 -0.283188 76 153 0
-0.065544 0.595189 0.294634 76 153 0
-0.436570 0.056021 -0.077979 76 153 0
0.075510 -0.202411 0.294634 76 153 0
-0.211500 0.686405 -0.102740 76 153 0
-0.073006 -0.690761 -0.226629 76 153 0
-0.059286 -0.252303 0.294634 76 153 0
0.081591 0.076801 0.294634 76 153 0
-0.351723 0.336431 0.235181 76 153 0
-0.089235 -0.690761 0.197441 76 153 0
0.389011 -0.473726 0.175495 76 153 0
-0.231222 0.052139 -0.283188 76 153 0
-0.410513 0.504735 0.030110 76 153 0
0.294663 -0.682482 -0.148729 76 153 0
0.358007 0.123983 0.222688 76 153 0
-0.405776 -0.398936 -0.149640 76 153 0
0.007931 0.825548 -0.113275 153 0 76
-0.384269 -0.474086 -0.182256 76 153 0
-0.035657 -0.690761 0.118285 76 153 0
0.182242 -0.213547 -0.283188 76 153 0
-0.110658 -0.690761 0.027513 76 153 0
-0.200794 0.051547 -0.283188 76 153 0
-0.267998 0.570570 -0.215245 76 153 0
0.185915 -0.675398 0.133789 76 153 0
-0.445353 -0.365474 0.033382 76 153 0
0.413743 -0.537226 -0.075332 76 153 0
0.317008 -0.669882 0.143151 76 153 0
0.427517 -0.498945 -0.048420 76 153 0
0.196416 -0.646067 0.274040 76 153 0
0.340900 -0.218294 -0.229969 76 153 0
-0.022095 -0.517974 -0.283188 76 153 0
-0.362590 -0.250253 -0.211839 76 153 0
0.227214 -0.690761 -0.063975 76 153 0
0.307690 0.623098 0.092622 76 153 0
-0.234820 -0.472759 -0.283188 76 153 0
0.262591 -0.113112 0.294634 76 153 0
0.174784 0.324497 0.294634 76 153 0
0.041427 -0.690761 -0.025296 76 153 0
0.032376 0.254632 0.294634 76 153 0
-0.267936 0.633187 -0.140098 76 153 0
-0.100725 0.569401 -0.283188 76 153 0
0.336835 0.480801 0.210391 76 153 0
0.219629 -0.575521 -0.283188 76 153 0
0.107282 0.904311 -0.035403 76 0 153
-0.088801 -0.440854 -0.283188 76 153 0
0.286323 0.277689 -0.277436 76 153 0
-0.127714 0.101633 0.294634 76 153 0
-0.429922 0.424733 0.074727 76 153 0
0.070902 0.222775 0.294634 76 153 0
0.094572 -0.038247 0.294634 76 153 0
-0.160030 0.603552 0.264534 76 153 0
-0.170365 0.635513 0.229926 76 153 0
-0.112179 -0.679373 0.232015 76 153 0
-0.051936 -0.667715 -0.163458 76 153 0
-0.348850 -0.005075 0.238327 76 153 0
-0.322976 0.627077 0.035372 76 153 0
0.444042 -0.379085 0.002420 76 153 0
0.385777 -0.181459 0.191243 76 153 0
0.438474 0.346964 0.042579 76 153 0
-0.237547 0.616876 0.206211 76 153 0
-0.196224 -0.658666 -0.256895 76 153 0
-0.161115 0.136975 -0.283188 76 153 0
-0.093720 0.821641 -0.032618 153 0 76
0.355671 0.285001 0.225246 76 153 0
0.380218 0.485038 0.142542 76 153 0
-0.020649 0.994552 -0.017519 76 0 153
0.410797 0.000778 -0.129058 76 153 0
0.050155 -0.259440 -0.283188 76 153 0
0.129437 -0.690761 -0.255703 76 153 0
-0.396861 -0.170058 -0.167719 76 153 0
0.111079 -0.690761 0.150806 76 153 0
-0.349152 -0.399108 0.237997 76 153 0
0.298433 0.259634 0.281077 76 153 0
0.308103 0.348748 -0.262975 76 153 0
-0.443802 -0.268508 0.043282 76 153 0
-0.162995 -0.666538 -0.041283 76 153 0
0.319812 0.000616 -0.253054 76 153 0
0.152420 0.058923 -0.283188 76 153 0
0.304251 -0.084683 -0.265881 76 153 0
-0.429807 -0.435741 -0.099597 76 153 0
-0.325018 0.191587 -0.252969 76 153 0
-0.212446 0.592496 0.245046 76 153 0
0.254382 -0.565837 0.280084 76 153 0
-0.424359 0.461091 0.048015 76 153 0
-0.361321 -0.560728 0.189071 76 153 0
-0.436149 -0.275377 0.092109 76 153 0
-0.315593 0.133497 0.273323 76 153 0
-0.291688 0.651901 -0.042248 76 153 0
-0.411154 -0.483109 0.137914 76 153 0
0.205662 -0.463751 -0.283188 76 153 0
-0.040952 -0.663487 0.294634 76 153 0
0.442444 0.250657 -0.007772 76 153 0
-0.221388 0.551960 0.269898 76 153 0
-0.437327 -0.029160 0.084593 76 153 0
0.021945 0.733375 0.140395 153 0 76
-0.073732 0.357816 0.294634 76 153 0
0.112422 0.156672 0.294634 76 153 0
-0.384389 -0.207888 -0.187976 76 153 0
-0.210614 0.526081 -0.281002 76 153 0
0.059244 -0.663466 0.129541 76 153 0
0.398126 0.343741 0.165893 76 153 0
-0.354232 0.569530 -0.096332 76 153 0
0.393718 -0.100404 -0.163693 76 153 0
-0.416618 0.268241 0.139100 76 153 0
0.231200 0.092641 -0.283188 76 153 0
-0.210992 -0.690761 0.023626 76 153 0
0.215049 -0.398764 0.294634 76 153 0
0.328814 0.616127 -0.023895 76 153 0
0.428272 -0.116285 -0.093618 76 153 0
-0.017096 -0.640308 -0.061620 76 153 0
-0.093809 0.113925 0.294634 76 153 0
0.431687 0.296135 -0.076411 76 153 0
0.166188 -0.669822 -0.086729 76 153 0
0.353331 -0.423060 0.227503 76 153 0
0.098954 0.803302 -0.014667 153 0 76
0.008203 -0.648221 0.294634 76 153 0
-0.082268 0.616212 -0.267648 76 153 0
-0.381451 -0.032610 -0.191192 76 153 0
0.012336 -0.671257 0.207752 76 153 0
-0.445709 -0.447786 0.022226 76 153 0
-0.410210 -0.044600 0.152095 76 153 0
0.195729 -0.670911 -0.017321 76 153 0
0.360795 -0.047235 -0.208190 76 153 0
-0.140552 -0.605167 -0.283188 76 153 0
0.420389 0.434380 0.086320 76 153 0
0.131640 0.738578 -0.063419 153 0 76
0.069162 -0.430009 -0.283188 76 153 0
0.026661 -0.576720 0.294634 76 153 0
-0.151833 -0.174612 -0.283188 76 153 0
-0.028125 -0.690761 0.160324 76 153 0
-0.176323 0.545902 0.294634 76 153 0
0.117426 0.926167 0.003077 76 0 153
0.420399 -0.060621 0.121032 76 153 0
-0.425390 0.280280 -0.109863 76 153 0
-0.300971 -0.688902 -0.010276 76 153 0
-0.380547 -0.039965 0.203629 76 153 0
-0.300279 0.196903 0.283193 76 153 0
-0.078313 -0.197514 -0.283188 76 153 0
-0.291130 -0.064817 -0.277644 76 153 0
0.039446 -0.210630 -0.283188 76 153 0
0.147310 0.366473 0.294634 76 153 0
0.356776 0.244507 0.224035 76 153 0
0.162096 0.044264 0.294634 76 153 0
0.014586 -0.336755 -0.283188 76 153 0
0.376951 0.193476 0.201950 76 153 0
0.310198 0.151377 0.273494 76 153 0
0.205198 0.004845 0.294634 76 153 0
0.266287 0.311331 0.294634 76 153 0
-0.436447 -0.079303 0.090210 76 153 0
0.417416 0.056655 0.127081 76 153 0
0.181546 -0.682684 -0.243620 76 153 0
-0.044062 -0.119211 -0.283188 76 153 0
0.099141 0.612134 -0.265393 76 153 0
-0.025915 0.714440 0.158478 153 0 76
-0.077986 -0.690761 0.090309 76 153 0
0.207392 0.569022 0.263970 76 153 0
-0.309591 0.316712 -0.265744 76 153 0
0.213368 -0.690761 0.020847 76 153 0
-0.112481 -0.266780 0.294634 76 153 0
-0.328256 -0.582093 0.213467 76 153 0
0.251133 -0.301701 0.294634 76 153 0
0.333304 0.170645 0.249731 76 153 0
-0.081612 0.483407 -0.283188 76 153 0
-0.144635 -0.654062 -0.280561 76 153 0
-0.312936 0.241325 -0.263589 76 153 0
0.054843 0.696494 0.189746 76 153 0
-0.425070 0.471801 0.019412 76 153 0
-0.373902 0.079435 0.210903 76 153 0
0.105417 -0.667838 0.294634 76 153 0
-0.078499 0.258714 0.294634 76 153 0
0.416055 -0.134133 0.129840 76 153 0
0.213152 -0.347699 0.294634 76 153 0
-0.352048 0.590270 -0.052814 76 153 0
0.124692 0.576569 0.294634 76 153 0
-0.061851 -0.023874 -0.283188 76 153 0
0.211482 -0.123278 0.294634 76 153 0
-0.128507 -0.690761 0.183313 76 153 0
0.334023 -0.657262 0.128580 76 153 0
0.259515 0.674642 -0.012576 76 153 0
0.013967 -0.122402 -0.283188 76 153 0
-0.197546 -0.680153 -0.160092 76 153 0
-0.213918 -0.690761 -0.127763 76 153 0
0.181163 -0.136695 -0.283188 76 153 0
-0.313163 0.558365 0.188102 76 153 0
0.126377 -0.690761 0.172673 76 153 0
-0.248547 -0.688644 -0.161087 76 153 0
-0.438510 -0.469555 0.054107 76 153 0
0.329940 0.174533 -0.241967 76 153 0
0.358452 -0.375575 0.222201 76 153 0
0.063879 0.938154 -0.092182 76 0 153
-0.264812 0.359885 0.294634 76 153 0
-0.256547 0.675461 -0.053060 76 153 0
0.180767 -0.078873 0.294634 76 153 0
-0.418055 0.044002 -0.124739 76 153 0
0.362913 -0.217728 -0.205871 76 153 0
0.310473 0.587080 -0.145611 76 153 0
-0.348431 0.459735 0.213699 76 153 0
0.066550 0.326973 -0.283188 76 153 0
0.439691 0.175782 -0.025340 76 153 0
-0.334784 0.000142 -0.242279 76 153 0
0.321597 0.455631 0.238966 76 153 0
0.240076 -0.238940 0.294634 76 153 0
-0.388163 -0.278362 0.195291 76 153 0
0.432210 -0.296578 0.084519 76 153 0
0.325952 -0.189433 0.257779 76 153 0
0.165210 -0.690761 0.173322 76 153 0
-0.158323 0.055295 -0.283188 76 153 0
-0.075411 0.982370 -0.081743 76 0 153
-0.035437 0.883074 0.116709 76 0 153
0.372651 -0.595380 0.129100 76 153 0
0.107214 0.527444 0.294634 76 153 0
-0.210904 0.647019 0.189170 76 153 0
0.419233 0.391347 0.115653 76 153 0
-0.085786 -0.551071 0.294634 76 153 0
-0.035314 -0.354339 0.294634 76 153 0
-0.319737 -0.455576 -0.255887 76 153 0
-0.315345 0.335407 0.273482 76 153 0
-0.410713 -0.448239 0.147955 76 153 0
0.087482 -0.620515 0.294634 76 153 0
0.062270 -0.107987 -0.283188 76 153 0
-0.301019 -0.532980 0.264932 76 153 0
0.260719 -0.555822 -0.268377 76 153 0
0.194875 -0.690761 -0.041718 76 153 0
0.170678 0.713876 -0.048603 153 0 76
-0.285813 0.462418 -0.261066 76 153 0
-0.437548 -0.176223 -0.071737 76 153 0
-0.013959 -0.185598 0.294634 76 153 0
0.143151 0.338985 -0.283188 76 153 0
-0.441356 0.118879 0.058884 76 153 0
-0.130484 -0.534573 0.294634 76 153 0
-0.126148 -0.666398 0.115932 76 153 0
-0.225725 -0.690761 -0.095841 76 153 0
0.074915 -0.690761 0.054692 76 153 0
-0.128398 0.485262 -0.283188 76 153 0
-0.086674 0.115403 -0.283188 76 153 0
0.387959 0.440247 0.158283 76 153 0
-0.010012 0.439343 -0.283188 76 153 0
-0.253759 -0.583789 -0.264628 76 153 0
0.263741 -0.690761 -0.062376 76 153 0
0.047654 -0.015396 -0.283188 76 153 0
-0.337093 0.130351 -0.239751 76 153 0
-0.200308 0.708521 -0.011141 153 0 76
0.154530 -0.672624 0.147723 76 153 0
0.311160 -0.567044 0.234999 76 153 0
0.375202 0.029575 0.203865 76 153 0
-0.115929 0.064976 0.294634 76 153 0
0.068561 -0.252330 0.294634 76 153 0
-0.114575 0.654010 -0.220355 76 153 0
0.086528 0.315053 0.294634 76 153 0
-0.124780 -0.662101 0.022833 76 153 0
-0.168081 -0.690761 0.190066 76 153 0
-0.253203 0.410342 0.294634 76 153 0
0.265930 0.028212 -0.283188 76 153 0
0.404074 0.150631 0.154138 76 153 0
0.372974 -0.135260 -0.194857 76 153 0
0.174932 -0.690761 -0.133145 76 153 0
-0.111229 0.311180 0.294634 76 153 0
0.322439 0.481376 -0.214402 76 153 0
-0.039821 -0.667596 -0.283188 76 153 0
0.050144 -0.690761 0.149979 76 153 0
0.083857 -0.297971 0.294634 76 153 0
-0.370148 0.202271 0.215012 76 153 0
0.425606 0.250710 0.110471 76 153 0
0.034588 0.822581 0.113130 153 0 76
0.330752 0.218465 -0.241078 76 153 0
-0.323110 0.306905 0.266505 76 153 0
0.410562 0.009839 0.140979 76 153 0
-0.010543 -0.690761 0.085279 76 153 0
-0.420745 0.143375 0.130730 76 153 0
0.099242 0.266083 -0.283188 76 153 0
0.119564 0.734947 0.091500 153 0 76
0.275071 0.546728 -0.223090 76 153 0
-0.148439 -0.305072 -0.283188 76 153 0
0.282637 0.145274 0.291258 76 153 0
-0.042462 -0.102841 0.294634 76 153 0
-0.149521 -0.664499 -0.020468 76 153 0
0.117269 0.319347 0.294634 76 153 0
-0.049736 -0.690761 0.044951 76 153 0
0.036472 0.053001 0.294634 76 153 0
0.425084 -0.336633 -0.100083 76 153 0
0.200684 -0.082711 -0.283188 76 153 0
-0.145337 0.675164 -0.179533 76 153 0
0.088087 0.813674 -0.033836 153 0 76
0.278064 -0.596238 -0.239511 76 153 0
-0.238049 -0.163616 -0.283188 76 153 0
-0.022288 0.237885 -0.283188 76 153 0
-0.402174 0.428962 -0.134996 76 153 0
-0.131296 0.769564 -0.011822 153 0 76
-0.407300 -0.211700 -0.146549 76 153 0
-0.256488 0.491873 0.279733 76 153 0
0.011625 0.899611 0.121619 76 0 153
-0.383776 -0.392389 -0.188647 76 153 0
-0.101686 0.914037 0.070689 76 0 153
-0.219098 0.701379 0.002595 153 0 76
0.341885 -0.674962 -0.072496 76 153 0
0.395680 0.486077 -0.098871 76 153 0
-0.005576 0.811212 0.105070 153 0 76
0.431693 -0.302428 -0.076370 76 153 0
0.215538 -0.678540 0.122223 76 153 0
-0.276783 -0.204102 -0.283188 76 153 0
-0.447488 0.104474 0.019760 76 153 0
-0.016534 -0.390891 -0.283188 76 153 0
-0.102146 0.822581 -0.003078 153 0 76
-0.430695 0.053885 0.110553 76 153 0
0.327562 0.541732 -0.170070 76 153 0
0.134076 -0.215523 -0.283188 76 153 0
-0.045405 0.576276 -0.283188 76 153 0
0.290734 0.648357 0.055019 76 153 0
-0.174738 0.718604 -0.006224 153 0 76
-0.072083 -0.544060 -0.283188 76 153 0
0.340285 0.562308 -0.124431 76 153 0
-0.174131 -0.541851 -0.283188 76 153 0
-0.232898 -0.690761 0.081591 76 153 0
0.232288 0.496477 0.290168 76 153 0
-0.235141 0.555239 -0.247349 76 153 0
0.090471 -0.465528 -0.283188 76 153 0
-0.013158 0.152114 -0.283188 76 153 0
0.124208 -0.029907 -0.283188 76 153 0
0.274987 0.059400 0.294634 76 153 0
-0.020444 0.822581 -0.104404 153 0 76
-0.347151 0.256295 -0.228741 76 153 0
0.226320 -0.690761 0.000726 76 153 0
-0.234974 -0.683772 -0.140199 76 153 0
-0.007237 -0.087927 -0.283188 76 153 0
0.413375 -0.118243 -0.123829 76 153 0
-0.153775 0.716881 -0.073009 153 0 76
0.111326 0.346481 -0.283188 76 153 0
-0.322922 -0.216710 0.266711 76 153 0
-0.105573 0.616229 -0.261243 76 153 0
0.442687 0.090021 -0.006220 76 153 0
-0.164377 0.716517 0.068211 153 0 76
-0.071963 0.001109 0.294634 76 153 0
-0.088370 -0.660710 -0.060677 76 153 0
0.102475 -0.411475 -0.283188 76 153 0
0.032183 0.866458 -0.102703 76 0 153
0.205337 -0.690761 -0.172886 76 153 0
-0.195810 0.084002 -0.283188 76 153 0
-0.441252 0.164012 -0.048102 76 153 0
0.413309 -0.402247 0.135409 76 153 0
-0.333428 0.598494 -0.089326 76 153 0
-0.327237 -0.064397 -0.250540 76 153 0
0.102562 0.994552 0.020319 76 0 153
0.198427 -0.673382 -0.072328 76 153 0
-0.089636 0.775119 0.090245 153 0 76
-0.332131 0.087348 -0.245183 76 153 0
-0.099151 -0.240963 0.294634 76 153 0
-0.152448 0.086577 -0.283188 76 153 0
-0.245136 -0.690761 0.019834 76 153 0
-0.131394 -0.413101 -0.283188 76 153 0
0.205125 -0.601908 0.294634 76 153 0
-0.335720 0.377659 0.250075 76 153 0
0.152298 0.551578 0.294634 76 153 0
-0.447661 -0.333087 -0.007213 76 153 0
0.148610 0.743245 0.015527 153 0 76
-0.342492 0.296850 0.245287 76 153 0
-0.334521 0.296571 -0.242567 76 153 0
0.145226 0.122649 0.294634 76 153 0
-0.273567 -0.399695 -0.283188 76 153 0
-0.327950 -0.664691 -0.128117 76 153 0
-0.273331 0.570356 0.221043 76 153 0
0.146245 0.141626 -0.283188 76 153 0
0.105854 -0.680827 -0.229731 76 153 0
-0.382079 0.349829 0.201323 76 153 0
0.219223 -0.356207 -0.283188 76 153 0
-0.135204 -0.055446 0.294634 76 153 0
-0.342107 -0.604936 0.183621 76 153 0
-0.186648 -0.690761 0.243536 76 153 0
0.389667 -0.523841 0.151970 76 153 0
-0.367424 -0.656978 0.040490 76 153 0
0.428534 -0.422523 -0.092637 76 153 0
0.061570 -0.539510 -0.283188 76 153 0
0.138186 0.394806 0.294634 76 153 0
-0.441325 -0.294305 0.059082 76 153 0
-0.249029 0.139217 -0.283188 76 153 0
-0.172503 0.358452 0.294634 76 153 0
0.296537 0.248666 -0.270853 76 153 0
-0.149383 0.686832 -0.157496 76 153 0
0.267680 0.139485 -0.283188 76 153 0
-0.210638 0.672635 0.144639 76 153 0
0.238882 -0.653734 -0.229850 76 153 0
0.380573 -0.279990 -0.186539 76 153 0
-0.110291 0.371700 0.294634 76 153 0
0.390756 -0.173959 -0.169698 76 153 0
0.201510 0.508684 -0.283188 76 153 0
0.267871 0.573593 -0.207082 76 153 0
-0.328896 -0.492258 0.250408 76 153 0
-0.033893 0.954359 -0.107414 76 0 153
0.424285 -0.494568 0.086414 76 153 0
0.216442 -0.543221 0.294634 76 153 0
-0.201064 -0.436564 -0.283188 76 153 0
-0.120911 0.766845 0.060810 153 0 76
0.366374 -0.586851 0.150759 76 153 0
0.016488 0.994552 0.021857 76 0 153
0.392662 0.530436 0.027655 76 153 0
-0.071413 -0.280801 0.294634 76 153 0
-0.286656 0.535242 -0.225317 76 153 0
0.009553 0.752670 -0.120757 153 0 76
0.310269 -0.690761 -0.051406 76 153 0
-0.296622 -0.039183 0.285550 76 153 0
-0.284110 0.301237 0.293615 76 153 0
0.432406 0.195173 -0.071820 76 153 0
-0.099540 0.868341 0.066044 76 0 153
0.388754 0.435207 -0.148165 76 153 0
0.140705 -0.347248 0.294634 76 153 0
0.105783 0.024129 -0.283188 76 153 0
-0.001922 0.994552 -0.047918 76 0 153
0.135175 -0.664043 -0.038623 76 153 0
0.145745 0.278081 -0.283188 76 153 0
-0.438219 0.278962 -0.067454 76 153 0
0.034430 -0.663017 0.134604 76 153 0
0.243979 0.685632 0.014974 76 153 0
0.363038 -0.558620 0.182282 76 153 0
0.360342 0.563800 -0.081646 76 153 0
-0.211673 0.023543 0.294634 76 153 0
-0.432938 -0.531423 0.007243 76 153 0
0.085975 -0.093140 -0.283188 76 153 0
-0.378271 0.562259 0.028798 76 153 0
-0.040066 -0.071341 0.294634 76 153 0
-0.006592 -0.690761 -0.043374 76 153 0
0.191770 0.465404 0.294634 76 153 0
0.434005 -0.158888 -0.061615 76 153 0
0.413133 -0.303985 0.135765 76 153 0
0.433816 -0.228941 0.074269 76 153 0
0.429258 0.072329 -0.091620 76 153 0
-0.014114 0.357416 -0.283188 76 153 0
0.355765 0.087888 -0.213696 76 153 0
-0.369974 0.574210 -0.020726 76 153 0
0.439557 0.218245 -0.026192 76 153 0
-0.052384 0.819379 0.092125 153 0 76
-0.110364 0.946954 0.051858 76 0 153
0.409615 -0.153675 -0.131454 76 153 0
-0.315286 -0.546098 -0.234850 76 153 0
0.028499 -0.690761 0.190975 76 153 0
-0.280212 -0.145158 0.294634 76 153 0
-0.178702 -0.690761 -0.143670 76 153 0
0.051917 -0.532901 0.294634 76 153 0
0.322178 -0.143937 0.261911 76 153 0
-0.039982 0.392438 0.294634 76 153 0
-0.208867 0.152625 -0.283188 76 153 0
0.444525 0.035005 0.005503 76 153 0
0.410202 -0.551475 0.079031 76 153 0
-0.339709 0.165336 0.248334 76 153 0
0.347272 0.150588 -0.222994 76 153 0
0.194307 0.284396 -0.283188 76 153 0
-0.023204 0.086957 -0.283188 76 153 0
0.288620 -0.170877 -0.275956 76 153 0
0.348306 -0.632501 0.135166 76 153 0
-0.155012 0.341403 0.294634 76 153 0
0.389995 -0.580985 0.108267 76 153 0
0.225864 -0.638001 0.260464 76 153 0
-0.362019 0.511991 -0.153387 76 153 0
0.305947 -0.076863 0.276234 76 153 0
-0.315242 -0.690761 -0.106585 76 153 0
-0.409532 -0.582830 -0.027477 76 153 0
0.432790 -0.510293 0.000603 76 153 0
0.368824 -0.651417 -0.013138 76 153 0
0.072543 0.894289 -0.083148 76 0 153
-0.398461 0.053856 0.175921 76 153 0
-0.287050 -0.331466 0.291720 76 153 0
0.213125 -0.034881 -0.283188 76 153 0
-0.089023 0.678095 0.209673 76 153 0
-0.095381 0.355845 -0.283188 76 153 0
-0.040924 -0.630204 0.006894 76 153 0
0.316290 -0.267025 0.268356 76 153 0
-0.131403 0.222660 -0.283188 76 153 0
0.402522 0.123666 -0.145838 76 153 0
-0.076665 -0.321465 -0.283188 76 153 0
-0.127897 0.699446 -0.145302 153 0 76
0.049286 -0.324401 0.294634 76 153 0
0.366504 0.479536 0.174953 76 153 0
0.131662 -0.594709 0.294634 76 153 0
0.231038 -0.680723 -0.105848 76 153 0
0.052328 -0.690761 0.102076 76 153 0
-0.271538 -0.300607 -0.283188 76 153 0
0.422725 -0.005190 -0.104867 76 153 0
0.392050 -0.341981 0.178521 76 153 0
0.414104 0.114595 0.133797 76 153 0
-0.069256 0.636961 -0.251600 76 153 0
0.294432 0.625741 0.113749 76 153 0
-0.442866 0.365985 0.040913 76 153 0
-0.094849 -0.472620 0.294634 76 153 0
0.081400 0.446445 -0.283188 76 153 0
0.431338 -0.098489 -0.078632 76 153 0
0.008007 -0.286188 -0.283188 76 153 0
0.433482 -0.372074 0.076400 76 153 0
-0.185321 -0.367676 0.294634 76 153 0
-0.326316 -0.615435 -0.181802 76 153 0
-0.384526 -0.391859 0.199272 76 153 0
-0.212163 0.340923 -0.283188 76 153 0
0.029652 0.937106 0.120345 76 0 153
-0.434778 0.429610 -0.023951 76 153 0
-0.125338 -0.152178 0.294634 76 153 0
0.428827 -0.500096 0.049945 76 153 0
0.442096 0.216787 0.021441 76 153 0
0.429354 0.141187 0.102738 76 153 0
-0.349437 0.464816 -0.199165 76 153 0
0.144149 -0.690761 0.025877 76 153 0
-0.234032 -0.150163 0.294634 76 153 0
0.118784 0.717396 -0.102078 153 0 76
-0.388919 -0.563245 -0.125213 76 153 0
0.113979 -0.690761 0.072578 76 153 0
-0.301842 -0.690761 0.118230 76 153 0
-0.011359 -0.662467 0.132994 76 153 0
-0.353072 -0.151089 -0.222258 76 153 0
0.136885 0.097129 -0.283188 76 153 0
0.275163 -0.648416 -0.205016 76 153 0
0.023176 0.994552 -0.056021 76 0 153
-0.341611 -0.520493 -0.216340 76 153 0
0.410194 0.342708 0.141537 76 153 0
-0.383703 0.478391 0.151431 76 153 0
0.139353 -0.304937 0.294634 76 153 0
-0.181328 -0.690761 -0.224773 76 153 0
0.400341 0.020598 0.161708 76 153 0
0.437538 0.137501 -0.039075 76 153 0
-0.188816 0.650806 -0.187045 76 153 0
-0.204953 -0.687350 0.216545 76 153 0
0.206045 -0.279506 -0.283188 76 153 0
0.168357 0.131528 -0.283188 76 153 0
-0.094266 0.994552 0.061043 76 0 153
-0.230315 -0.213191 -0.283188 76 153 0
-0.258198 0.211801 -0.283188 76 153 0
0.435147 -0.098848 0.065780 76 153 0
-0.274637 -0.685054 0.184823 76 153 0
0.352097 -0.389924 -0.217712 76 153 0
0.235447 -0.690761 0.169200 76 153 0
-0.127684 -0.095201 -0.283188 76 153 0
-0.033419 -0.538060 0.294634 76 153 0
0.088981 -0.186475 -0.283188 76 153 0
0.304818 0.556930 -0.181453 76 153 0
-0.146933 0.514892 0.294634 76 153 0
-0.022098 -0.633929 0.053616 76 153 0
-0.241586 0.112934 -0.283188 76 153 0
0.400619 -0.446687 0.158327 76 153 0
0.042271 -0.667430 0.174334 76 153 0
-0.285353 -0.356185 -0.281367 76 153 0
0.396262 -0.602935 -0.019006 76 153 0
0.401453 -0.390470 0.159452 76 153 0
-0.398430 0.529328 -0.015736 76 153 0
0.129601 -0.481514 -0.283188 76 153 0
-0.139341 0.438987 -0.283188 76 153 0
-0.447599 -0.247724 -0.007610 76 153 0
0.400795 -0.106168 0.160786 76 153 0
-0.219121 -0.307109 0.294634 76 153 0
-0.256288 0.628456 -0.159329 76 153 0
0.210393 -0.689698 -0.218979 76 153 0
0.057136 0.510910 -0.283188 76 153 0
0.259245 0.357989 0.294634 76 153 0
0.106489 -0.690761 -0.190433 76 153 0
-0.060270 -0.648296 0.068051 76 153 0
0.051772 -0.671274 -0.190818 76 153 0
0.119428 -0.666841 0.123559 76 153 0
0.036173 -0.671740 0.208240 76 153 0
0.378539 0.402579 0.192909 76 153 0
-0.131985 -0.664882 -0.077306 76 153 0
-0.444902 -0.475354 0.007755 76 153 0
0.162218 0.190024 0.294634 76 153 0
-0.438889 -0.209276 0.074625 76 153 0
-0.096784 0.821689 0.036668 153 0 76
0.253979 -0.015837 0.294634 76 153 0
-0.027340 -0.471285 -0.283188 76 153 0
0.151554 0.515958 -0.283188 76 153 0
-0.111976 -0.088514 0.294634 76 153 0
-0.407889 0.501509 0.056207 76 153 0
0.196820 -0.593880 -0.283188 76 153 0
0.229388 0.171223 -0.283188 76 153 0
0.410569 -0.345200 0.140965 76 153 0
-0.025497 0.580848 0.294634 76 153 0
-0.142616 -0.508310 -0.283188 76 153 0
0.434293 0.249515 -0.059779 76 153 0
-0.408870 0.087270 -0.143365 76 153 0
0.369636 0.040993 -0.198511 76 153 0
-0.308387 -0.690647 0.029828 76 153 0
0.290015 0.599864 0.165455 76 153 0
0.287412 -0.121508 0.288181 76 153 0
-0.445780 -0.183623 0.030657 76 153 0
0.047602 0.852120 0.091877 153 0 76
0.393517 -0.122714 0.175546 76 153 0
-0.174911 -0.690761 -0.008361 76 153 0
-0.384608 0.160418 -0.187736 76 153 0
-0.166847 -0.451790 0.294634 76 153 0
-0.183419 0.422790 -0.283188 76 153 0
-0.130650 -0.690761 0.139580 76 153 0
0.443251 -0.017226 -0.002622 76 153 0
0.298248 0.537051 -0.205751 76 153 0
-0.243691 -0.678665 0.065195 76 153 0
0.176072 -0.500490 -0.283188 76 153 0
-0.315869 -0.163859 0.273144 76 153 0
0.186676 0.386144 0.294634 76 153 0
0.063015 0.994552 0.022361 76 0 153
-0.441211 -0.045425 0.059813 76 153 0
-0.428236 -0.145261 -0.104093 76 153 0
-0.411260 -0.261837 -0.138518 76 153 0
0.125266 -0.690372 0.282933 76 153 0
-0.402086 -0.342051 -0.157124 76 153 0
0.218889 0.457801 -0.283188 76 153 0
0.022283 0.536646 -0.283188 76 153 0
-0.061420 0.717051 0.145795 153 0 76
0.253213 -0.135779 -0.283188 76 153 0
-0.102098 0.471773 -0.283188 76 153 0
-0.095540 -0.023729 0.294634 76 153 0
0.100974 -0.105682 0.294634 76 153 0
0.359472 0.197577 -0.209638 76 153 0
-0.357730 -0.299159 -0.217160 76 153 0
-0.149564 -0.690761 -0.177242 76 153 0
0.163426 0.681836 -0.153766 76 153 0
-0.107237 0.843218 -0.030610 153 0 76
0.163110 0.670283 0.184121 76 153 0
-0.046882 -0.610397 0.294634 76 153 0
0.052604 -0.690761 -0.148374 76 153 0
-0.102914 -0.683505 -0.247046 76 153 0
0.333769 -0.690761 0.024956 76 153 0
0.433667 -0.348984 -0.063776 76 153 0
-0.117724 0.628340 -0.246086 76 153 0
-0.026036 -0.690761 0.208768 76 153 0
0.214147 -0.044128 0.294634 76 153 0
-0.233090 0.576777 -0.233670 76 153 0
-0.229085 0.568097 0.253925 76 153 0
0.371297 0.404997 -0.188866 76 153 0
-0.392416 -0.312333 0.188180 76 153 0
-0.065439 -0.639953 -0.019563 76 153 0
0.118619 0.629064 0.254783 76 153 0
-0.093049 0.138193 -0.283188 76 153 0
-0.132545 0.044946 0.294634 76 153 0
0.202583 0.589156 -0.239494 76 153 0
-0.044605 0.755541 0.126032 153 0 76
-0.089576 0.287101 -0.283188 76 153 0
0.306917 0.630881 -0.065784 76 153 0
0.328650 -0.321611 0.254825 76 153 0
-0.417010 0.168820 0.138304 76 153 0
-0.085269 -0.690761 0.111877 76 153 0
0.209883 0.618005 -0.208103 76 153 0
-0.143709 -0.255859 -0.283188 76 153 0
0.041580 -0.690761 0.286062 76 153 0
-0.014127 0.516547 -0.283188 76 153 0
-0.240284 0.672001 0.109101 76 153 0
-0.190013 -0.690761 0.132364 76 153 0
0.063383 0.622169 0.275606 76 153 0
0.354541 -0.652476 0.094530 76 153 0
-0.369476 0.156693 -0.204302 76 153 0
-0.304714 0.345330 -0.268653 76 153 0
0.344081 0.604141 0.000821 76 153 0
-0.345168 0.217272 -0.230912 76 153 0
-0.110013 -0.660554 0.003488 76 153 0
0.410922 0.426544 0.119712 76 153 0
-0.393245 -0.249611 0.186498 76 153 0
0.141550 -0.063101 -0.283188 76 153 0
-0.204907 0.250672 -0.283188 76 153 0
0.414609 0.191917 0.132772 76 153 0
0.051759 0.994552 -0.074873 76 0 153
-0.405523 -0.508233 0.138684 76 153 0
-0.244456 -0.442891 0.294634 76 153 0
0.331998 0.272368 0.251161 76 153 0
0.367889 -0.632581 -0.083895 76 153 0
0.350034 -0.126270 0.231416 76 153 0
-0.014659 -0.453589 0.294634 76 153 0
0.039848 0.414978 -0.283188 76 153 0
0.033005 0.906323 0.118087 76 0 153
-0.055078 0.336591 -0.283188 76 153 0
0.276196 -0.585101 0.257742 76 153 0
0.082903 0.747828 0.110643 153 0 76
-0.052213 -0.690761 -0.243280 76 153 0
0.144107 0.012136 -0.283188 76 153 0
0.424211 0.210867 0.113300 76 153 0
-0.411593 0.265758 -0.137843 76 153 0
-0.177912 -0.423965 -0.283188 76 153 0
-0.403797 -0.585378 -0.057414 76 153 0
0.423648 -0.500730 -0.070682 76 153 0
-0.435147 -0.509445 0.029675 76 153 0
-0.374790 -0.561887 -0.154979 76 153 0
-0.363788 0.017251 -0.210528 76 153 0
-0.208315 -0.690406 -0.221080 76 153 0
0.251640 0.302346 -0.283188 76 153 0
0.320941 -0.521209 0.244529 76 153 0
0.091330 -0.660848 0.064007 76 153 0
-0.371566 0.128626 0.213460 76 153 0
-0.004401 -0.323957 -0.283188 76 153 0
0.028755 0.129032 -0.283188 76 153 0
0.122467 -0.184532 0.294634 76 153 0
-0.076189 -0.148004 -0.283188 76 153 0
0.075388 0.580155 0.294634 76 153 0
-0.169102 -0.682390 -0.252569 76 153 0
0.185819 0.165267 -0.283188 76 153 0
-0.024058 -0.679817 -0.247280 76 153 0
0.226310 -0.302471 0.294634 76 153 0
0.120028 -0.683262 0.248011 76 153 0
-0.030218 0.822581 0.122304 153 0 76
-0.432496 -0.220309 0.106900 76 153 0
0.197160 -0.673905 0.094927 76 153 0
0.253619 0.418129 -0.283188 76 153 0
0.011858 0.605938 0.294634 76 153 0
-0.335467 -0.185067 0.252978 76 153 0
-0.302643 0.091743 0.281669 76 153 0
0.047821 0.839584 -0.102590 153 0 76
0.438627 -0.308625 -0.032131 76 153 0
-0.368556 -0.150636 -0.205309 76 153 0
-0.437859 -0.254797 0.081197 76 153 0
0.191199 -0.680209 0.173668 76 153 0
0.032489 -0.399938 -0.283188 76 153 0
-0.361626 0.588372 0.012965 76 153 0
0.274910 -0.690761 0.159233 76 153 0
-0.148620 0.671603 0.194630 76 153 0
-0.293198 -0.439271 0.287014 76 153 0
0.207830 0.048502 0.294634 76 153 0
-0.204430 -0.200985 0.294634 76 153 0
-0.443581 0.361043 -0.026559 76 153 0
-0.009933 0.469050 -0.283188 76 153 0
0.075848 -0.669928 -0.169716 76 153 0
0.342428 0.485909 -0.190137 76 153 0
-0.248907 0.537562 -0.250174 76 153 0
0.025849 -0.150790 -0.283188 76 153 0
-0.182630 -0.009816 -0.283188 76 153 0
-0.444067 0.129845 -0.030143 76 153 0
-0.341202 0.554597 0.155327 76 153 0
0.178420 -0.420396 -0.283188 76 153 0
0.425963 -0.154423 -0.098301 76 153 0
0.144822 -0.393620 -0.283188 76 153 0
-0.284887 -0.370891 0.293114 76 153 0
0.176875 0.556593 0.288543 76 153 0
-0.016757 0.199410 -0.283188 76 153 0
0.410738 -0.512191 0.115879 76 153 0
-0.397437 -0.226367 -0.166550 76 153 0
0.100806 0.822581 -0.050196 153 0 76
-0.024824 0.368401 0.294634 76 153 0
0.150252 -0.664758 0.002763 76 153 0
-0.092000 -0.690761 0.149364 76 153 0
0.059368 0.696725 -0.176612 153 0 76
-0.213828 0.639970 -0.184990 76 153 0
0.057703 -0.639233 0.032529 76 153 0
-0.289443 0.042625 0.290178 76 153 0
-0.442337 -0.160191 -0.041182 76 153 0
-0.108973 0.173251 0.294634 76 153 0
0.109660 0.880490 -0.021830 76 0 153
-0.291514 0.182336 -0.277396 76 153 0
-0.420453 -0.557986 -0.020727 76 153 0
-0.070252 -0.642918 0.294634 76 153 0
0.069433 -0.329269 -0.283188 76 153 0
0.060589 -0.690761 0.210288 76 153 0
0.400953 -0.146714 0.160466 76 153 0
-0.094420 0.720732 0.126117 153 0 76
0.113016 -0.662888 0.071213 76 153 0
-0.409086 -0.291578 0.154373 76 153 0
-0.259487 -0.683966 -0.090395 76 153 0
0.421056 -0.071069 -0.108251 76 153 0
-0.442827 0.050841 -0.038051 76 153 0
-0.226370 -0.427523 -0.283188 76 153 0
-0.274655 0.238514 0.294634 76 153 0
0.268468 -0.690761 0.135260 76 153 0
0.441232 0.157516 0.026951 76 153 0
-0.396352 -0.205626 0.180197 76 153 0
-0.187185 -0.690761 0.095896 76 153 0
0.395845 -0.508804 -0.136200 76 153 0
0.132403 0.502853 -0.283188 76 153 0
-0.295929 -0.439482 -0.273801 76 153 0
-0.027691 -0.690761 -0.166114 76 153 0
-0.114617 0.421690 0.294634 76 153 0
0.337581 0.373622 0.242713 76 153 0
-0.153484 0.740008 0.034780 153 0 76
0.080488 -0.675155 -0.204554 76 153 0
-0.255435 -0.240370 -0.283188 76 153 0
0.167105 0.720744 0.013472 153 0 76
0.148978 0.651431 0.220052 76 153 0
0.112258 -0.371901 0.294634 76 153 0
0.320748 -0.395083 -0.252030 76 153 0
0.391855 -0.146839 -0.167470 76 153 0
0.122156 -0.150662 -0.283188 76 153 0
0.059539 0.031919 -0.283188 76 153 0
0.084515 0.092073 -0.283188 76 153 0
0.427288 0.022586 -0.095614 76 153 0
-0.264446 -0.247860 0.294634 76 153 0
-0.251415 0.463264 0.294445 76 153 0
0.023392 -0.036403 0.294634 76 153 0
0.154767 0.281653 0.294634 76 153 0
-0.170697 -0.632160 -0.283188 76 153 0
0.245986 -0.451314 0.294634 76 153 0
0.223089 0.502682 -0.282149 76 153 0
-0.376256 -0.128721 -0.196879 76 153 0
0.384754 0.337354 -0.181871 76 153 0
-0.317032 0.065617 0.272395 76 153 0
-0.312036 -0.602429 0.218190 76 153 0
-0.355792 0.407307 0.222399 76 153 0
-0.396604 0.182420 0.179686 76 153 0
0.353930 -0.673090 -0.006788 76 153 0
0.333092 -0.686252 0.081593 76 153 0
-0.118725 0.594113 -0.274357 76 153 0
0.437131 -0.158865 0.053118 76 153 0
0.182138 0.341039 -0.283188 76 153 0
-0.172385 -0.510482 -0.283188 76 153 0
0.290193 0.503617 -0.237895 76 153 0
-0.170912 0.466347 -0.283188 76 153 0
0.026218 -0.000089 -0.283188 76 153 0
0.243992 0.561416 0.245570 76 153 0
0.200349 -0.118375 -0.283188 76 153 0
-0.445383 -0.003227 -0.021744 76 153 0
-0.218309 -0.514977 -0.283188 76 153 0
-0.085092 -0.690761 0.244614 76 153 0
0.281313 -0.484155 -0.274583 76 153 0
0.433980 -0.176773 0.073224 76 153 0
-0.444412 -0.294361 -0.027944 76 153 0
-0.330456 0.542793 0.183019 76 153 0
0.107618 0.943397 -0.035579 76 0 153
-0.120601 -0.127757 0.294634 76 153 0
-0.231936 0.692007 0.044544 153 0 76
-0.329490 0.580570 -0.128933 76 153 0
0.235446 0.214871 0.294634 76 153 0
-0.257644 -0.662939 0.225496 76 153 0
0.397031 -0.463672 -0.150833 76 153 0
0.166145 0.022287 0.294634 76 153 0
-0.344975 0.024461 0.242569 76 153 0
-0.118510 0.016722 0.294634 76 153 0
-0.434735 0.138534 0.101128 76 153 0
0.234182 -0.609124 -0.261216 76 153 0
-0.368882 0.565350 0.075887 76 153 0
-0.119627 0.394349 -0.283188 76 153 0
-0.007088 -0.690761 -0.077371 76 153 0
-0.302651 -0.654595 -0.174734 76 153 0
-0.307287 -0.569480 -0.232042 76 153 0
-0.027007 0.705148 0.178747 153 0 76
0.142914 0.707444 0.124454 153 0 76
-0.048861 -0.690761 0.075514 76 153 0
0.376824 -0.041669 -0.190643 76 153 0
-0.411413 -0.216707 0.149654 76 153 0
0.316607 -0.643166 0.175678 76 153 0
0.338257 -0.402467 0.244309 76 153 0
0.090738 0.476697 0.294634 76 153 0
0.387589 0.195475 -0.176121 76 153 0
0.318810 0.062071 -0.254151 76 153 0
-0.316948 0.007971 0.272449 76 153 0
-0.329398 -0.318627 -0.248175 76 153 0
0.218885 0.154025 0.294634 76 153 0
0.226750 -0.258477 0.294634 76 153 0
-0.448724 0.063426 -0.000429 76 153 0
0.101160 -0.207581 -0.283188 76 153 0
-0.116483 -0.661445 -0.020571 76 153 0
0.042350 0.583066 0.294634 76 153 0
-0.235210 0.516785 -0.270125 76 153 0
-0.297227 0.341054 0.285160 76 153 0
0.271744 -0.095722 -0.283188 76 153 0
0.395961 0.410419 0.156267 76 153 0
0.352236 -0.665150 -0.055384 76 153 0
0.178043 0.411090 0.294634 76 153 0
-0.449566 -0.175135 0.004942 76 153 0
0.192816 0.012095 -0.283188 76 153 0
0.105528 0.302119 -0.283188 76 153 0
0.023651 -0.190455 -0.283188 76 153 0
0.235467 -0.531872 -0.283188 76 153 0
0.318083 0.123800 0.266393 76 153 0
0.170470 -0.388237 -0.283188 76 153 0
-0.106657 0.689699 0.185845 76 153 0
-0.111610 0.231098 0.294634 76 153 0
0.027926 -0.407696 0.294634 76 153 0
-0.417737 -0.005409 -0.125384 76 153 0
-0.145908 -0.344898 0.294634 76 153 0
0.218556 -0.690761 0.084753 76 153 0
0.059019 0.485049 -0.283188 76 153 0
-0.017719 0.993342 0.117350 76 0 153
0.413605 0.300350 -0.123361 76 153 0
-0.440205 -0.119034 0.066228 76 153 0
-0.127625 -0.690761 -0.158291 76 153 0
-0.382071 -0.641434 -0.002129 76 153 0
-0.100341 0.429515 -0.283188 76 153 0
-0.269166 -0.666775 -0.199297 76 153 0
-0.104131 -0.562713 -0.283188 76 153 0
0.007916 -0.690761 -0.194555 76 153 0
0.084700 0.843218 0.059103 153 0 76
-0.139861 -0.227357 0.294634 76 153 0
-0.333082 -0.645113 0.158922 76 153 0
-0.049688 -0.690761 -0.053359 76 153 0
-0.154842 0.318659 0.294634 76 153 0
0.131012 0.592711 0.280768 76 153 0
0.086053 0.166295 0.294634 76 153 0
0.226678 0.337108 -0.283188 76 153 0
-0.445477 -0.375089 -0.021147 76 153 0
0.387751 0.526397 0.072130 76 153 0
-0.183402 -0.487131 0.294634 76 153 0
0.432860 0.316163 0.080371 76 153 0
-0.052953 -0.690761 -0.202129 76 153 0
-0.007993 -0.138259 0.294634 76 153 0
-0.172627 0.499116 -0.283188 76 153 0
0.392499 -0.318669 -0.166164 76 153 0
0.003522 -0.422812 -0.283188 76 153 0
-0.153085 0.379702 -0.283188 76 153 0
0.300873 -0.168045 0.279504 76 153 0
-0.113256 0.319501 -0.283188 76 153 0
0.083611 0.646699 -0.237494 76 153 0
0.045320 -0.690761 -0.210964 76 153 0
-0.061848 -0.365557 0.294634 76 153 0
0.246395 0.378178 0.294634 76 153 0
0.227051 -0.690761 0.148696 76 153 0
-0.333896 -0.690761 -0.063888 76 153 0
0.361050 -0.467436 -0.203430 76 153 0
-0.423073 -0.104086 0.126010 76 153 0
0.184014 -0.303569 0.294634 76 153 0
-0.250222 -0.382822 -0.283188 76 153 0
0.231626 0.667474 -0.115494 76 153 0
-0.431115 0.318243 0.109700 76 153 0
0.435010 -0.181256 -0.055207 76 153 0
0.280574 -0.051642 -0.281142 76 153 0
0.176948 -0.690761 0.094489 76 153 0
0.239591 -0.678304 0.041021 76 153 0
-0.080805 0.822581 -0.067496 153 0 76
0.101584 0.862907 -0.038431 76 0 153
0.257318 0.491621 -0.264547 76 153 0
-0.079204 -0.645028 0.023805 76 153 0
-0.043829 -0.502349 -0.283188 76 153 0
0.000503 0.290695 0.294634 76 153 0
-0.351181 -0.625526 0.148617 76 153 0
0.096976 0.844255 0.004182 153 0 76
0.024413 -0.627289 0.294634 76 153 0
-0.096033 -0.427604 0.294634 76 153 0
-0.088959 -0.690761 0.005130 76 153 0
-0.107756 -0.179650 -0.283188 76 153 0
-0.148241 -0.690429 0.275839 76 153 0
-0.109017 0.211777 -0.283188 76 153 0
-0.255898 0.680049 0.026618 76 153 0
0.071223 0.199116 -0.283188 76 153 0
-0.107187 -0.504408 -0.283188 76 153 0
-0.165787 -0.645043 0.290064 76 153 0
0.389394 -0.015273 0.183907 76 153 0
0.113058 0.923662 -0.026470 76 0 153
-0.103853 -0.660743 0.045610 76 153 0
-0.040011 0.691823 -0.188223 153 0 76
-0.006263 -0.690463 -0.301888 76 153 0
0.064968 0.715145 0.147264 153 0 76
0.109370 0.822581 0.042790 153 0 76
0.309700 0.002337 0.273815 76 153 0
0.112618 0.952107 0.025187 76 0 153
-0.440162 -0.012773 -0.055060 76 153 0
0.368659 -0.083692 -0.199581 76 153 0
0.185372 0.524185 0.294634 76 153 0
0.441906 -0.075359 0.022655 76 153 0
0.356896 0.331877 0.223904 76 153 0
0.339277 -0.145198 -0.231746 76 153 0
0.320051 0.621975 0.053898 76 153 0
0.058404 0.087607 0.294634 76 153 0
-0.252153 -0.690761 0.198384 76 153 0
0.435035 0.164091 0.066496 76 153 0
0.088726 -0.009706 0.294634 76 153 0
0.321979 -0.421104 0.261903 76 153 0
-0.381448 -0.295807 -0.191195 76 153 0
-0.216948 -0.170033 -0.283188 76 153 0
0.207893 0.672803 -0.130229 76 153 0
0.443269 -0.097648 -0.002510 76 153 0
0.248876 0.646853 -0.133382 76 153 0
-0.150633 -0.690761 -0.057357 76 153 0
0.439977 -0.007360 -0.023514 76 153 0
0.137447 0.446734 -0.283188 76 153 0
-0.198290 -0.638737 -0.269603 76 153 0
0.158034 0.714331 -0.071654 153 0 76
-0.188817 -0.472087 -0.283188 76 153 0
-0.350218 -0.674141 0.069138 76 153 0
0.158053 -0.671052 0.126055 76 153 0
-0.219959 0.533823 0.282281 76 153 0
-0.188901 -0.672869 -0.099767 76 153 0
-0.149194 -0.139905 -0.283188 76 153 0
-0.334047 0.522063 0.194079 76 153 0
0.073087 -0.105578 0.294634 76 153 0
0.106235 -0.670473 -0.158169 76 153 0
0.340503 0.558520 0.140794 76 153 0
-0.170877 -0.690761 -0.189552 76 153 0
0.158418 -0.679889 -0.191000 76 153 0
0.058229 -0.362551 -0.283188 76 153 0
-0.129042 -0.674717 -0.272189 76 153 0
0.366814 -0.622029 0.110754 76 153 0
0.069319 0.841804 0.101002 153 0 76
-0.070357 -0.690761 -0.271800 76 153 0
0.212657 0.138799 -0.283188 76 153 0
0.144241 -0.153610 0.294634 76 153 0
-0.331769 0.044423 -0.245579 76 153 0
-0.360492 0.513574 0.166173 76 153 0
0.223686 0.036095 -0.283188 76 153 0
-0.019930 -0.356105 -0.283188 76 153 0
-0.368488 0.545155 0.113350 76 153 0
0.057355 -0.130049 -0.283188 76 153 0
0.084610 -0.690761 -0.183505 76 153 0
-0.026005 0.395167 -0.283188 76 153 0
-0.002296 -0.675878 -0.226559 76 153 0
-0.367419 -0.466947 0.213619 76 153 0
-0.375013 0.425561 -0.185690 76 153 0
-0.320044 0.624782 -0.057291 76 153 0
-0.137122 -0.579341 0.294634 76 153 0
-0.118370 -0.670904 -0.156945 76 153 0
-0.061859 -0.375248 -0.283188 76 153 0
-0.380331 0.506646 0.133629 76 153 0
-0.222453 0.653340 0.168393 76 153 0
-0.084329 0.529634 0.294634 76 153 0
-0.006793 -0.183869 -0.283188 76 153 0
0.212015 0.603354 0.232779 76 153 0
-0.070696 0.822581 0.078154 153 0 76
-0.210661 -0.479441 0.294634 76 153 0
0.100203 -0.612352 -0.283188 76 153 0
0.110523 0.392238 0.294634 76 153 0
-0.359653 -0.355814 0.226501 76 153 0
0.126777 -0.662949 0.038420 76 153 0
0.331785 0.609905 -0.044687 76 153 0
-0.425479 -0.509424 -0.079946 76 153 0
-0.282938 -0.690761 -0.151557 76 153 0
0.434374 0.369551 0.061178 76 153 0
-0.149799 -0.690761 0.172917 76 153 0
-0.042328 0.994552 -0.027719 76 0 153
-0.305054 0.028505 -0.268669 76 153 0
0.439042 0.196502 0.040924 76 153 0
0.287763 0.502848 0.251842 76 153 0
-0.266443 -0.690761 0.105823 76 153 0
-0.441281 0.391921 0.036085 76 153 0
-0.068212 0.294847 -0.283188 76 153 0
0.256727 0.671092 0.068404 76 153 0
0.085508 0.994552 -0.014108 76 0 153
-0.010784 -0.690761 0.047805 76 153 0
-0.359011 0.255182 0.227203 76 153 0
0.410933 -0.106829 0.140227 76 153 0
-0.321854 -0.690761 -0.022112 76 153 0
-0.422726 0.454457 -0.058339 76 153 0
