ply
format ascii 1.0
element vertex 1277
property float x
property float y
property float z
property uchar red
property uchar green
property uchar blue
end_header
0.124378 0.929456 -0.043089 153 0 76
0.232959 -0.465004 -0.112056 153 76 0
0.187781 -0.349190 -0.167632 153 76 0
0.195463 0.053890 -0.163097 153 76 0
-0.203131 0.319464 -0.137570 153 76 0
-0.078572 0.643075 -0.066071 76 0 153
0.081410 -0.529181 -0.251937 153 76 0
-0.152663 0.022616 -0.190117 153 76 0
-0.236569 -0.034811 0.030901 153 76 0
0.253020 -0.528877 -0.027508 153 76 0
0.167408 -0.256580 0.177045 153 76 0
0.229628 -0.228402 -0.100068 153 76 0
-0.118370 0.164682 -0.233481 0 0 255
-0.133053 0.351615 -0.199128 153 76 0
-0.077522 0.936807 0.021372 76 0 153
-0.183936 -0.063497 -0.159509 153 76 0
-0.118870 -0.314969 0.207093 153 76 0
-0.259440 -0.397994 0.018018 0 0 255
-0.090174 0.027082 0.221554 153 76 0
-0.240410 -0.126510 -0.013814 153 76 0
0.084911 0.673662 -0.088850 76 0 153
0.127242 0.990849 -0.003541 153 0 76
0.042228 0.960109 -0.099680 153 0 76
0.197445 -0.634199 0.031102 153 76 0
-0.022228 0.901595 -0.088664 76 0 153
-0.219034 0.295712 -0.110712 153 76 0
-0.196427 -0.283453 0.160442 0 0 255
-0.211556 0.010063 -0.156403 0 0 255
-0.028747 -0.300719 -0.250282 153 76 0
0.017313 0.974066 -0.088705 153 0 76
0.059205 -0.608807 0.058157 153 76 0
0.086708 0.964376 0.083396 76 0 153
-0.049493 0.873392 0.067328 76 0 153
-0.010704 0.917881 0.063093 76 0 153
-0.092482 -0.614282 -0.131829 153 76 0
0.022894 0.346568 0.245329 153 76 0
0.117716 0.398652 0.192371 153 76 0
-0.207065 -0.174576 0.119971 153 76 0
0.036520 -0.615049 0.115648 153 76 0
-0.253057 -0.596820 0.033661 153 76 0
0.220060 -0.160513 -0.123455 153 76 0
0.145840 0.422684 0.153071 153 76 0
-0.146773 0.143024 0.186158 153 76 0
-0.236937 -0.037368 0.101997 0 0 255
0.191668 0.455986 0.005317 153 76 0
0.233710 0.276401 0.130126 153 76 0
-0.228281 0.163329 0.058033 153 76 0
0.175567 0.454517 -0.077225 153 76 0
-0.231008 -0.003664 0.056198 153 76 0
-0.254718 -0.369616 -0.065997 0 0 255
-0.260070 0.170442 0.022938 0 0 255
0.044594 0.663671 -0.108949 76 0 153
-0.085804 0.054395 -0.230003 153 76 0
-0.210637 -0.563552 -0.159905 153 76 0
0.107856 -0.121657 -0.227613 153 76 0
0.091590 0.856544 -0.058143 76 0 153
-0.229527 -0.398223 0.111838 0 0 255
-0.152874 0.348151 -0.185814 153 76 0
0.015588 -0.632614 0.196893 153 76 0
-0.119866 -0.098868 -0.234957 0 0 255
-0.229817 -0.626167 0.016843 153 76 0
0.162020 0.502807 -0.052760 76 0 153
-0.237926 -0.515942 0.092065 153 76 0
-0.006554 0.994577 -0.089638 153 0 76
0.003684 0.974066 0.068473 153 0 76
-0.058620 0.828943 0.048879 76 0 153
-0.075931 0.773730 -0.002632 76 0 153
-0.049337 -0.282540 0.233219 153 76 0
0.010784 -0.629296 -0.223026 153 76 0
-0.157441 -0.616974 0.039880 153 76 0
-0.102926 0.327309 -0.227184 153 76 0
0.124291 -0.053625 0.211473 153 76 0
0.108161 -0.010013 -0.227405 153 76 0
0.047817 0.351032 -0.244140 153 76 0
0.169121 -0.589053 -0.197596 153 76 0
-0.219238 -0.182614 -0.107154 153 76 0
-0.235875 0.183963 0.105210 0 0 255
-0.255064 0.195273 0.045787 0 0 255
0.070084 -0.163565 0.231107 153 76 0
0.006028 0.615091 -0.121497 76 0 153
-0.237438 -0.037007 -0.030773 153 76 0
-0.220237 -0.295741 -0.110361 153 76 0
-0.143378 0.490101 0.023703 76 0 153
-0.167118 -0.128566 0.170011 153 76 0
-0.155550 -0.329131 0.181359 153 76 0
0.037851 0.977752 0.012259 153 0 76
0.255671 0.157744 -0.006586 153 76 0
0.256294 0.349340 0.029943 153 76 0
-0.071567 -0.606911 -0.091368 153 76 0
-0.155496 -0.354885 -0.197189 153 76 0
-0.186701 -0.442743 -0.188950 0 0 255
-0.119678 -0.628249 0.192311 153 76 0
-0.234921 -0.105872 0.047078 153 76 0
0.135455 -0.542315 0.206826 153 76 0
0.235367 0.159130 -0.101289 153 76 0
-0.254535 0.221064 -0.061728 0 0 255
0.122559 0.067074 0.214880 153 76 0
-0.149053 0.047572 -0.192668 153 76 0
0.091929 -0.003439 0.226465 153 76 0
0.094700 -0.631929 0.198667 153 76 0
-0.067294 0.765877 -0.039777 76 0 153
0.035648 0.022616 -0.247611 153 76 0
-0.240752 0.120615 0.094278 0 0 255
0.244812 -0.008355 0.057425 153 76 0
-0.063570 0.486672 -0.141689 76 0 153
-0.011599 -0.425652 0.239229 153 76 0
-0.147321 -0.294847 -0.220187 0 0 255
0.113273 -0.509737 0.221385 153 76 0
-0.011784 -0.026277 -0.248542 153 76 0
-0.004799 -0.525404 0.247635 153 76 0
0.140083 0.039883 0.203241 153 76 0
-0.104191 0.209689 -0.220330 153 76 0
0.086130 -0.289805 0.223540 153 76 0
-0.202496 -0.430744 -0.155965 153 76 0
0.103238 0.211493 0.229712 153 76 0
-0.223047 -0.209291 0.126077 0 0 255
0.245646 -0.425871 -0.034203 153 76 0
-0.161819 -0.416669 -0.195243 153 76 0
-0.255715 -0.361936 0.042807 0 0 255
-0.035854 0.299908 -0.253615 153 76 0
0.007935 -0.607924 0.080463 153 76 0
-0.215512 -0.129097 -0.112297 153 76 0
0.256352 0.182926 0.005520 153 76 0
-0.196910 0.413314 0.018719 153 76 0
0.092833 -0.467580 0.229942 153 76 0
-0.114573 0.273755 -0.225043 153 76 0
0.044273 -0.619791 -0.168572 153 76 0
0.127650 0.621594 -0.053540 76 0 153
-0.149628 0.075965 -0.216680 0 0 255
-0.215432 0.188206 0.139883 0 0 255
0.189593 0.092038 0.163334 153 76 0
0.239327 -0.359490 0.050326 153 76 0
-0.195648 -0.135318 -0.147528 153 76 0
0.041975 -0.132755 -0.247622 153 76 0
-0.047678 0.935108 0.103493 153 0 76
0.088102 -0.618909 0.106105 153 76 0
-0.204411 0.146450 -0.164887 0 0 255
0.057413 -0.466512 0.241515 153 76 0
-0.106012 0.248209 0.225946 153 76 0
0.095562 0.484922 -0.140590 76 0 153
-0.223434 -0.567055 0.121911 153 76 0
-0.182356 0.111341 -0.156009 153 76 0
-0.260206 -0.115492 0.000708 0 0 255
0.241795 -0.167140 0.057545 153 76 0
-0.201769 -0.111942 0.126765 153 76 0
-0.207492 0.370495 0.087614 153 76 0
-0.186053 0.111970 -0.186423 0 0 255
-0.184189 -0.195405 0.153494 153 76 0
-0.259584 -0.464394 0.022664 0 0 255
0.055147 -0.480770 -0.258101 153 76 0
-0.217475 0.220723 0.099234 153 76 0
-0.165144 -0.393985 -0.190084 153 76 0
-0.222459 0.313364 0.100303 153 76 0
0.054642 -0.341572 0.232720 153 76 0
0.048581 0.107322 -0.244888 153 76 0
-0.172909 -0.043873 -0.171592 153 76 0
0.066822 0.998756 -0.021776 153 0 76
0.220980 0.047617 0.119001 153 76 0
-0.048356 0.014576 -0.242868 153 76 0
-0.050790 -0.519545 0.242639 153 76 0
0.062017 0.957155 0.058697 76 0 153
-0.095809 -0.608231 0.224634 153 76 0
-0.225226 -0.071110 -0.088545 153 76 0
-0.181239 -0.156728 -0.192071 0 0 255
-0.238444 -0.315928 0.045955 153 76 0
0.038557 -0.390593 0.235392 153 76 0
0.238014 -0.475279 0.083475 153 76 0
0.246878 -0.324508 0.004377 153 76 0
-0.033796 -0.386143 -0.250585 153 76 0
0.111242 0.738332 -0.041618 76 0 153
-0.204197 0.399055 -0.040465 153 76 0
-0.234274 0.053386 0.107336 0 0 255
0.119267 -0.625852 0.114745 153 76 0
0.169227 0.499701 0.031851 76 0 153
-0.030428 -0.060198 0.238441 153 76 0
-0.032451 -0.603400 0.039675 153 76 0
-0.261590 -0.160514 -0.017219 0 0 255
0.201481 -0.365469 0.135329 153 76 0
0.124576 -0.615680 -0.048578 153 76 0
-0.002266 0.878953 -0.088918 76 0 153
-0.017167 0.875691 0.092035 76 0 153
0.191970 -0.632396 0.007126 153 76 0
0.249053 -0.192404 -0.014386 153 76 0
0.057053 -0.629713 -0.202085 153 76 0
-0.015126 0.727405 -0.093525 76 0 153
-0.251436 -0.470210 -0.062831 153 76 0
-0.040603 0.919621 0.086881 76 0 153
-0.190377 -0.355559 0.147361 153 76 0
-0.226617 -0.273665 -0.135079 0 0 255
-0.097113 -0.039484 -0.227075 153 76 0
-0.242348 -0.316462 0.085339 0 0 255
0.253255 0.077816 0.019960 153 76 0
0.091227 -0.615794 0.081993 153 76 0
-0.198888 -0.322457 -0.149770 153 76 0
-0.084993 0.677577 0.043072 76 0 153
-0.037872 -0.603775 -0.073801 153 76 0
-0.035216 -0.632753 0.203965 153 76 0
-0.170788 -0.203533 -0.200805 0 0 255
-0.258024 -0.438093 -0.049775 0 0 255
0.125747 0.130679 0.214002 153 76 0
-0.208340 0.134790 -0.114747 153 76 0
-0.030051 0.986123 0.098870 153 0 76
0.080257 -0.112453 -0.239182 153 76 0
0.230833 -0.053954 -0.103688 153 76 0
0.182258 -0.339148 0.158595 153 76 0
-0.221379 0.147526 0.131178 0 0 255
0.128180 -0.080539 0.208717 153 76 0
-0.170996 -0.629912 0.130159 153 76 0
0.075082 -0.425429 0.226891 153 76 0
0.096505 0.997116 -0.040365 153 0 76
0.254696 0.213014 0.046063 153 76 0
-0.124423 0.093775 -0.208677 153 76 0
-0.187237 0.030558 -0.185590 0 0 255
0.201692 -0.161830 0.140811 153 76 0
0.164396 0.275358 -0.209078 153 76 0
-0.011175 0.977752 0.021222 153 0 76
-0.011144 -0.222549 -0.250650 153 76 0
-0.259597 -0.011554 -0.027581 0 0 255
-0.075554 -0.230802 -0.238128 153 76 0
-0.021788 -0.033271 0.239767 153 76 0
-0.236071 0.076320 -0.024311 153 76 0
-0.232085 -0.421156 -0.126021 0 0 255
0.076327 -0.606978 -0.016160 153 76 0
0.112588 0.844763 0.026793 76 0 153
-0.170200 -0.318386 -0.201953 0 0 255
-0.116119 -0.627918 -0.195510 153 76 0
-0.004020 0.594675 -0.124235 76 0 153
-0.231887 -0.444686 0.096131 153 76 0
-0.154105 -0.612413 -0.205730 153 76 0
0.181121 0.106801 -0.178287 153 76 0
0.093693 -0.631437 -0.194849 153 76 0
-0.055728 0.565946 -0.113708 76 0 153
0.116918 -0.086168 -0.223169 153 76 0
-0.024233 -0.586734 0.245796 153 76 0
-0.100037 -0.129452 0.216658 153 76 0
-0.022765 0.195246 -0.245042 153 76 0
0.154113 0.197961 0.198774 153 76 0
-0.258929 -0.409047 -0.035701 0 0 255
0.172826 -0.630916 0.061999 153 76 0
-0.251018 -0.021409 0.063356 0 0 255
-0.007061 0.100350 -0.247525 153 76 0
0.008669 0.172527 0.243341 153 76 0
0.252927 0.330764 0.076997 153 76 0
-0.241171 0.010624 -0.103420 0 0 255
0.155084 0.095031 0.194567 153 76 0
0.252469 0.136885 -0.041069 153 76 0
0.248271 0.021707 0.044650 153 76 0
0.046617 0.977752 0.087928 153 0 76
-0.139788 0.452820 0.096214 153 76 0
-0.253356 0.030217 0.057021 0 0 255
-0.215354 0.182658 -0.097747 153 76 0
-0.049160 -0.615628 0.125101 153 76 0
-0.016586 0.167262 -0.246025 153 76 0
-0.198664 -0.240937 0.157813 0 0 255
0.011184 -0.607068 -0.105381 153 76 0
-0.175890 -0.578574 0.179418 153 76 0
0.207094 -0.634547 -0.012919 153 76 0
-0.256188 -0.234397 0.041164 0 0 255
0.247057 -0.450198 0.037570 153 76 0
-0.255709 -0.127628 -0.060998 0 0 255
0.124201 0.972596 -0.027500 153 0 76
0.213661 0.351870 -0.140414 153 76 0
0.012917 -0.615390 -0.156768 153 76 0
0.013521 -0.604017 0.040802 153 76 0
-0.058363 -0.014953 0.232930 153 76 0
-0.230303 -0.325945 -0.089180 153 76 0
-0.110138 -0.306152 -0.225565 153 76 0
-0.175396 -0.314356 0.163568 153 76 0
0.105673 0.039038 -0.228588 153 76 0
0.211487 0.103426 -0.140607 153 76 0
0.111913 -0.610253 -0.231877 153 76 0
-0.242742 -0.243099 -0.005595 153 76 0
0.262169 0.337578 0.011011 153 76 0
0.130878 0.501300 -0.105864 76 0 153
-0.026575 0.592465 -0.119574 76 0 153
-0.144399 -0.118664 -0.199755 153 76 0
-0.229513 -0.478084 -0.133121 0 0 255
0.105200 0.236196 -0.237765 153 76 0
0.133349 -0.423611 0.199157 153 76 0
-0.183339 0.429508 0.030904 153 76 0
0.095272 0.752916 0.069412 76 0 153
-0.205284 0.194480 -0.118180 153 76 0
-0.148875 0.373327 -0.173362 153 76 0
-0.064019 0.966317 -0.056137 153 0 76
0.208336 0.190170 -0.147997 153 76 0
0.125937 -0.557120 -0.231043 153 76 0
-0.073862 0.526167 -0.117832 76 0 153
-0.217776 -0.469857 0.131888 0 0 255
-0.009115 -0.484426 -0.264314 153 76 0
-0.060761 -0.187679 0.231355 153 76 0
-0.097109 0.470002 0.127740 76 0 153
-0.232744 0.153152 -0.038423 153 76 0
0.119026 0.995032 0.018503 153 0 76
0.190432 0.213119 0.171954 153 76 0
0.074447 -0.042676 -0.240516 153 76 0
-0.242948 -0.497930 -0.097163 153 76 0
-0.236070 -0.071724 0.037661 153 76 0
-0.189005 -0.012669 -0.183888 0 0 255
-0.133486 -0.376908 0.199036 153 76 0
-0.134862 -0.056374 -0.225213 0 0 255
0.009607 0.959420 0.110546 153 0 76
0.262170 0.223128 0.024132 153 76 0
-0.227641 -0.229704 0.076971 153 76 0
0.212746 -0.531304 0.132668 153 76 0
-0.095566 0.436195 -0.161114 153 76 0
-0.192656 -0.225246 0.142276 153 76 0
0.240977 0.145266 0.081421 153 76 0
-0.245175 -0.375057 -0.012712 153 76 0
0.182887 -0.604358 0.162786 153 76 0
-0.154177 0.028114 -0.213788 0 0 255
-0.079968 -0.631320 0.199010 153 76 0
-0.251003 -0.484670 0.060686 0 0 255
-0.039515 0.972381 0.016653 76 0 153
0.059666 0.891090 0.099983 76 0 153
0.045627 0.998930 0.005414 153 0 76
-0.214217 -0.228227 -0.155003 0 0 255
-0.217895 0.006086 0.134519 0 0 255
-0.256342 -0.314405 -0.057200 0 0 255
0.006690 0.774582 0.099534 76 0 153
-0.236977 -0.330346 -0.065437 153 76 0
-0.037066 -0.326032 0.235424 153 76 0
0.169525 0.445191 0.101194 153 76 0
0.123931 0.029404 -0.219683 153 76 0
-0.076808 0.584003 0.092267 76 0 153
-0.192822 -0.346471 -0.180584 0 0 255
-0.026773 0.670593 0.105672 76 0 153
-0.237368 -0.252366 0.046453 153 76 0
-0.215419 -0.339148 -0.152551 0 0 255
0.045863 0.783024 0.096827 76 0 153
0.205176 -0.491706 -0.159318 153 76 0
-0.252262 -0.425955 0.059606 0 0 255
0.248356 -0.022964 0.039695 153 76 0
0.046685 -0.067128 0.237660 153 76 0
-0.000619 0.303344 0.255021 153 76 0
-0.233582 0.054184 0.040455 153 76 0
-0.168485 -0.301756 -0.184078 153 76 0
0.251620 0.244074 -0.091007 153 76 0
0.251580 -0.057183 0.012359 153 76 0
-0.240858 0.308583 -0.035674 153 76 0
-0.205668 -0.616399 -0.145408 153 76 0
0.149881 -0.594001 -0.212996 153 76 0
-0.054599 0.375754 -0.225205 153 76 0
-0.045643 -0.356122 -0.248491 153 76 0
0.020253 0.315090 0.253955 153 76 0
-0.033928 0.798612 0.081134 76 0 153
-0.210949 0.021931 0.109534 153 76 0
0.044861 -0.319388 0.235008 153 76 0
-0.154119 -0.357769 0.182952 153 76 0
0.126363 -0.106206 0.209157 153 76 0
0.138612 0.549812 0.071429 76 0 153
0.052058 -0.118131 0.236127 153 76 0
-0.016238 0.165922 0.241873 153 76 0
0.051352 0.974858 0.109492 153 0 76
-0.251314 -0.155990 0.063779 0 0 255
-0.242924 0.074573 0.086050 0 0 255
-0.248935 -0.416740 -0.087178 0 0 255
0.047531 0.050173 0.239275 153 76 0
0.175912 0.379659 0.162483 153 76 0
0.021140 0.136793 -0.247963 153 76 0
-0.184359 -0.425023 -0.175738 153 76 0
-0.176819 -0.539696 -0.197642 153 76 0
0.059788 0.929658 -0.091365 76 0 153
0.107608 -0.198903 0.217344 153 76 0
-0.241612 -0.119532 -0.104888 0 0 255
0.082688 -0.539437 0.232569 153 76 0
-0.229410 0.108898 0.115015 0 0 255
-0.174213 0.371164 0.144374 153 76 0
0.166824 -0.332833 -0.187960 153 76 0
0.239890 -0.538900 0.075375 153 76 0
-0.070923 -0.613281 0.230713 153 76 0
0.192821 0.419436 -0.099569 153 76 0
0.210030 0.279834 -0.166338 153 76 0
0.071107 0.259899 -0.251185 153 76 0
-0.237019 -0.042592 -0.112904 0 0 255
-0.236460 -0.184736 0.045802 153 76 0
0.025658 -0.497807 0.246226 153 76 0
-0.095270 -0.623199 0.143033 153 76 0
0.241374 -0.398690 -0.054491 153 76 0
0.224869 0.370507 0.101295 153 76 0
-0.041910 0.579452 0.118974 76 0 153
0.114369 0.820176 -0.006042 76 0 153
-0.129384 -0.573402 0.213865 153 76 0
-0.028741 0.974066 0.036904 153 0 76
-0.255374 -0.339872 0.041089 0 0 255
0.233470 0.388479 0.044343 153 76 0
0.103093 0.689859 0.073262 76 0 153
-0.049872 -0.627699 -0.208161 153 76 0
0.249677 0.110573 0.045745 153 76 0
-0.006316 0.800986 0.094149 76 0 153
-0.213815 -0.163747 0.139904 0 0 255
-0.093625 -0.577545 -0.248509 153 76 0
0.189900 0.165562 0.164722 153 76 0
0.071725 0.909526 -0.089036 76 0 153
-0.080590 0.447983 0.158010 153 76 0
-0.048460 0.938036 -0.067950 76 0 153
0.195018 0.122076 0.157701 153 76 0
0.207711 0.032516 0.139725 153 76 0
0.184802 -0.179133 -0.172588 153 76 0
-0.036150 -0.499107 0.245570 153 76 0
-0.210153 -0.278603 -0.160232 0 0 255
0.058576 0.974063 -0.070914 153 0 76
-0.147583 0.221355 -0.216214 0 0 255
0.035765 0.998793 0.051646 153 0 76
0.038016 -0.047573 -0.247796 153 76 0
-0.101650 0.135627 -0.221791 153 76 0
0.101781 0.469033 0.145331 76 0 153
-0.260217 0.057279 0.018629 0 0 255
-0.036707 -0.224146 -0.248261 153 76 0
0.100922 0.974066 -0.039400 153 0 76
-0.241082 -0.089360 -0.104200 0 0 255
0.030645 -0.607082 -0.258007 153 76 0
-0.260650 -0.305009 0.005796 0 0 255
-0.231202 0.202364 0.046423 153 76 0
0.152775 -0.071225 -0.201770 153 76 0
0.064008 0.733079 0.095012 76 0 153
-0.125791 -0.162482 -0.231092 0 0 255
-0.211946 0.121641 0.104769 153 76 0
0.196818 -0.024729 -0.160267 153 76 0
0.252222 -0.497960 0.026290 153 76 0
-0.261371 0.084379 -0.009790 0 0 255
-0.157599 0.426410 0.105281 153 76 0
-0.257925 -0.386895 -0.044275 0 0 255
0.141274 -0.222932 0.196988 153 76 0
0.065734 -0.254864 0.231227 153 76 0
-0.131666 -0.026573 0.198936 153 76 0
0.228240 0.347397 -0.121099 153 76 0
0.045321 0.296604 0.253345 153 76 0
0.024282 0.270103 -0.258241 153 76 0
0.236662 -0.512443 -0.101973 153 76 0
0.223380 -0.215144 0.101938 153 76 0
0.056724 -0.560255 -0.258250 153 76 0
-0.156471 0.287492 0.191908 153 76 0
-0.095297 -0.606128 -0.050167 153 76 0
0.179177 0.215738 -0.185493 153 76 0
-0.046177 0.499797 -0.143998 76 0 153
-0.195321 -0.392136 -0.179122 0 0 255
0.060581 0.492495 -0.152703 76 0 153
0.219963 -0.121120 -0.124431 153 76 0
0.072878 -0.210771 -0.241603 153 76 0
-0.230383 -0.149204 -0.077838 153 76 0
0.043326 0.426024 0.197320 153 76 0
-0.114487 -0.541013 0.221358 153 76 0
-0.171997 -0.230611 -0.178280 153 76 0
0.101086 0.397016 -0.203528 153 76 0
-0.131292 -0.100487 -0.208234 153 76 0
-0.236909 -0.555030 0.096120 153 76 0
-0.135383 -0.380275 -0.211532 153 76 0
0.209051 -0.217851 -0.138583 153 76 0
-0.012389 0.448846 -0.182934 153 76 0
-0.234247 -0.228164 -0.068868 153 76 0
-0.212588 -0.042433 -0.156401 0 0 255
-0.021767 -0.102107 -0.248564 153 76 0
0.150328 -0.622642 0.042887 153 76 0
-0.104700 -0.524896 -0.243823 153 76 0
-0.229990 0.345429 0.054063 153 76 0
-0.243890 -0.342285 -0.028833 153 76 0
-0.183708 -0.116039 -0.189315 0 0 255
-0.038115 0.424477 0.194665 153 76 0
-0.201775 -0.326561 -0.171602 0 0 255
-0.257910 -0.544851 0.010288 153 76 0
-0.070189 0.872284 0.024593 76 0 153
0.246614 -0.540004 -0.070546 153 76 0
-0.223659 -0.338302 0.122786 0 0 255
-0.009206 -0.305493 0.238776 153 76 0
-0.256253 -0.016442 -0.058382 0 0 255
-0.261381 -0.446588 -0.013150 0 0 255
0.235302 -0.283256 -0.082379 153 76 0
-0.240832 -0.198643 -0.028304 153 76 0
0.227019 0.236490 -0.136538 153 76 0
0.010897 0.423950 0.201340 153 76 0
-0.076649 -0.166942 0.226808 153 76 0
-0.011599 0.382071 0.227495 153 76 0
-0.216264 0.221199 -0.149249 0 0 255
-0.068669 0.942550 0.066550 153 0 76
0.058231 -0.008633 -0.243733 153 76 0
0.235436 -0.628140 0.015585 153 76 0
-0.096819 -0.106089 -0.228316 153 76 0
0.218874 -0.476144 0.124294 153 76 0
0.037795 0.939405 -0.094746 76 0 153
0.131104 0.945512 -0.029233 153 0 76
-0.114374 0.478197 -0.105144 153 76 0
0.232061 -0.581246 0.091814 153 76 0
0.175538 0.154057 0.180118 153 76 0
-0.201636 -0.018636 -0.134386 153 76 0
0.109310 0.085426 -0.226792 153 76 0
-0.254105 -0.160403 -0.066991 0 0 255
-0.065470 0.319382 -0.243163 153 76 0
-0.198052 -0.544458 0.157963 153 76 0
-0.228079 -0.185912 -0.087619 153 76 0
-0.124615 -0.610194 0.210272 153 76 0
-0.068000 0.095483 -0.235631 153 76 0
-0.081981 0.726067 0.003396 76 0 153
0.157145 0.345980 -0.202279 153 76 0
-0.240355 0.001677 0.092651 0 0 255
0.236292 -0.610983 -0.085036 153 76 0
-0.056514 -0.138518 0.232207 153 76 0
-0.099747 -0.454170 0.226831 153 76 0
-0.229014 -0.101361 -0.079221 153 76 0
-0.135045 -0.311387 -0.210271 153 76 0
0.034321 -0.607384 -0.098415 153 76 0
-0.229588 0.003818 -0.068864 153 76 0
0.022903 -0.543948 -0.264101 153 76 0
0.019592 0.974066 0.046688 153 0 76
-0.047042 -0.623425 0.229470 153 76 0
0.136754 -0.450515 -0.221611 153 76 0
-0.050013 -0.038419 -0.243162 153 76 0
-0.059740 -0.431259 0.234059 153 76 0
-0.199915 -0.166594 -0.171688 0 0 255
0.220695 -0.146796 0.111531 153 76 0
-0.205073 0.091117 -0.123462 153 76 0
0.138278 -0.444616 0.200786 153 76 0
0.241736 -0.468661 -0.087851 153 76 0
0.114092 0.351977 0.222178 153 76 0
-0.029094 0.511059 0.146982 76 0 153
0.106855 0.778299 0.049717 76 0 153
0.003843 -0.597519 -0.262908 153 76 0
0.164196 -0.311515 -0.190381 153 76 0
0.125600 0.940165 0.010909 76 0 153
-0.245740 -0.153412 -0.095965 0 0 255
0.238940 -0.585017 -0.091057 153 76 0
-0.200327 -0.054631 -0.137929 153 76 0
-0.239867 -0.204216 -0.109239 0 0 255
-0.020309 0.844540 -0.077694 76 0 153
-0.064751 0.164152 -0.235675 153 76 0
0.251664 0.082876 -0.039700 153 76 0
-0.012384 0.042710 0.241512 153 76 0
-0.252743 -0.244346 -0.072406 0 0 255
0.050201 -0.431884 0.235640 153 76 0
-0.001180 -0.469302 0.248066 153 76 0
-0.130897 0.137063 -0.203368 153 76 0
-0.138024 -0.343310 -0.208948 153 76 0
-0.009162 -0.067525 -0.249157 153 76 0
-0.183830 -0.061585 -0.189895 0 0 255
-0.222509 0.027579 0.127002 0 0 255
-0.047226 -0.489024 -0.260927 153 76 0
0.028450 -0.513067 -0.263047 153 76 0
0.016786 -0.059005 0.240547 153 76 0
-0.243758 -0.452306 -0.100411 0 0 255
-0.170331 0.003008 -0.173139 153 76 0
0.245017 -0.329486 -0.038597 153 76 0
-0.172549 -0.089358 -0.173379 153 76 0
0.039060 0.855533 0.095922 76 0 153
-0.041258 0.868955 -0.065033 76 0 153
-0.055111 -0.363581 0.231681 153 76 0
-0.074123 -0.077635 0.228372 153 76 0
-0.252178 0.111484 -0.069766 0 0 255
-0.066537 0.245187 -0.244499 153 76 0
0.214518 -0.419511 -0.128133 153 76 0
0.238680 -0.209424 0.065870 153 76 0
-0.218280 0.260523 0.113858 153 76 0
-0.186395 0.413499 0.067251 153 76 0
0.193746 -0.239183 0.147335 153 76 0
-0.164096 -0.272792 0.173937 153 76 0
0.058825 -0.048689 0.235716 153 76 0
-0.199570 -0.373335 0.134629 153 76 0
0.129549 0.322308 -0.226649 153 76 0
-0.186270 -0.203946 -0.161067 153 76 0
0.148549 -0.264382 0.190861 153 76 0
0.250165 0.064477 0.038200 153 76 0
-0.144753 -0.018971 -0.219260 0 0 255
-0.197045 0.121624 0.162017 0 0 255
-0.082534 0.495592 -0.124570 153 76 0
0.194633 -0.634625 0.066072 153 76 0
0.205334 0.161049 0.146700 153 76 0
-0.212500 -0.185176 0.141470 0 0 255
0.163487 0.529149 -0.001833 76 0 153
-0.192660 0.041888 -0.145646 153 76 0
0.254384 0.285536 -0.086187 153 76 0
-0.241076 -0.279783 0.026035 153 76 0
-0.060387 0.849389 -0.036456 76 0 153
-0.260544 0.218873 -0.005703 0 0 255
0.225165 0.320011 0.140554 153 76 0
-0.259370 -0.181799 0.025401 0 0 255
-0.033777 0.613563 0.114537 76 0 153
-0.116511 0.213226 0.211675 153 76 0
-0.100502 0.571818 0.065643 76 0 153
-0.178858 0.347518 0.156183 153 76 0
-0.191596 -0.008602 0.140053 153 76 0
-0.090280 0.372935 0.210441 153 76 0
-0.190375 0.038062 0.141045 153 76 0
-0.229373 -0.055296 -0.074542 153 76 0
0.150212 0.112739 -0.204475 153 76 0
-0.097861 -0.631652 0.184184 153 76 0
-0.221787 -0.246525 0.128136 0 0 255
0.008020 0.130249 0.242980 153 76 0
0.241745 -0.251975 -0.062392 153 76 0
0.245822 0.315482 -0.105029 153 76 0
-0.065121 -0.376888 -0.244023 153 76 0
0.192651 -0.079223 -0.164805 153 76 0
0.252031 0.284998 0.092873 153 76 0
0.206867 0.432760 0.023024 153 76 0
-0.209321 0.025873 0.145664 0 0 255
-0.251323 -0.217796 0.063392 0 0 255
0.033913 0.317349 -0.255376 153 76 0
0.220685 -0.279352 -0.119646 153 76 0
-0.195803 0.172828 0.165045 0 0 255
0.215840 0.421437 -0.017813 153 76 0
0.251559 -0.522908 0.027785 153 76 0
-0.240310 -0.241819 0.027919 153 76 0
0.091693 0.314815 0.241748 153 76 0
-0.181189 -0.262789 -0.193625 0 0 255
0.001086 0.643693 -0.114701 76 0 153
0.170297 0.016268 -0.187166 153 76 0
-0.254677 -0.040566 0.049933 0 0 255
0.241878 0.357535 -0.077994 153 76 0
-0.228991 0.126794 -0.060211 153 76 0
-0.067943 -0.135493 -0.239291 153 76 0
-0.054799 0.977855 0.080688 153 0 76
0.056239 -0.614019 -0.132011 153 76 0
0.144626 -0.320308 -0.206649 153 76 0
0.250862 -0.593923 -0.025290 153 76 0
-0.254763 0.023032 -0.063540 0 0 255
0.141397 0.267921 0.221275 153 76 0
-0.116318 0.173750 -0.212400 153 76 0
-0.022317 0.209983 0.242811 153 76 0
-0.048058 0.649054 -0.094487 76 0 153
-0.074712 0.106677 0.228021 153 76 0
0.187326 -0.077973 0.160471 153 76 0
0.130043 0.483283 0.115640 76 0 153
-0.016535 0.952222 -0.093712 153 0 76
0.226272 -0.078195 -0.113145 153 76 0
0.045946 0.998562 -0.052395 153 0 76
-0.140806 -0.618437 -0.111760 153 76 0
-0.155678 -0.619196 -0.095680 153 76 0
-0.165728 -0.444150 0.182678 153 76 0
0.075774 0.265992 0.247898 153 76 0
0.162944 -0.563692 -0.204129 153 76 0
-0.122338 0.553623 -0.011217 76 0 153
0.003137 0.513517 -0.151364 76 0 153
-0.062545 0.236548 0.242251 153 76 0
0.250383 -0.139410 0.000842 153 76 0
0.021688 0.215046 0.246169 153 76 0
-0.237678 -0.280565 -0.057516 153 76 0
0.087852 0.586008 0.111147 76 0 153
-0.230424 -0.140923 0.065118 153 76 0
0.163967 -0.552522 0.186537 153 76 0
0.058896 -0.402177 -0.245758 153 76 0
-0.017598 -0.395291 0.237627 153 76 0
0.264949 0.265950 -0.048887 153 76 0
-0.153687 0.465746 -0.040641 153 76 0
0.011577 -0.037247 0.241234 153 76 0
-0.169485 0.443221 0.045316 153 76 0
0.008174 0.743900 -0.096591 76 0 153
-0.111645 -0.609609 0.044159 153 76 0
0.106350 0.602940 0.091794 76 0 153
0.165258 -0.014907 -0.191352 153 76 0
0.089962 0.762534 -0.067590 76 0 153
-0.234775 0.332378 -0.048921 153 76 0
-0.251518 -0.491261 -0.064569 153 76 0
0.010110 -0.304472 -0.251967 153 76 0
0.196623 -0.105009 -0.159692 153 76 0
-0.238184 -0.160558 0.099025 0 0 255
0.037664 0.400815 -0.218750 153 76 0
-0.112281 0.058292 -0.217381 153 76 0
0.040925 0.221867 -0.249412 153 76 0
-0.249902 -0.381825 0.064298 0 0 255
0.067643 0.379580 0.223452 153 76 0
-0.250575 0.165012 0.067676 0 0 255
-0.059530 -0.610334 -0.124820 153 76 0
-0.094644 -0.605366 -0.004911 153 76 0
-0.106783 0.609718 -0.003314 76 0 153
0.066178 0.340654 -0.244718 153 76 0
-0.197358 -0.624821 -0.015336 153 76 0
-0.247659 0.221119 -0.088060 0 0 255
-0.261074 -0.401136 -0.005276 0 0 255
-0.220255 -0.325872 -0.111723 153 76 0
-0.225400 0.195599 0.122765 0 0 255
-0.205935 -0.170456 -0.133263 153 76 0
-0.031984 -0.618535 -0.173164 153 76 0
-0.160323 0.210291 -0.179279 153 76 0
-0.219295 -0.110376 -0.146563 0 0 255
-0.259648 -0.139683 -0.027888 0 0 255
-0.233774 0.155858 0.107408 0 0 255
-0.237679 0.224926 0.009247 153 76 0
-0.219311 0.207875 -0.088627 153 76 0
-0.026999 -0.627671 0.176365 153 76 0
-0.182243 0.299714 0.166623 153 76 0
-0.216700 -0.150037 0.102029 153 76 0
-0.261217 0.175110 -0.018496 0 0 255
-0.101447 0.542724 -0.080944 76 0 153
-0.213709 -0.184703 -0.155522 0 0 255
-0.225742 -0.014877 0.073196 153 76 0
-0.078430 -0.207605 -0.236777 153 76 0
0.248626 -0.116664 -0.037238 153 76 0
-0.257296 -0.205685 -0.054728 0 0 255
0.123608 -0.633901 0.167152 153 76 0
-0.127809 0.273795 0.215224 153 76 0
-0.065880 0.704190 0.066081 76 0 153
0.045577 -0.290342 0.235358 153 76 0
0.250016 -0.093635 -0.025651 153 76 0
-0.024730 0.125153 0.240377 153 76 0
-0.164514 -0.170067 -0.184415 153 76 0
0.220162 0.081368 -0.126703 153 76 0
-0.260721 -0.039284 -0.024047 0 0 255
-0.170625 0.174257 0.164742 153 76 0
0.050385 0.530268 0.143770 76 0 153
-0.258481 0.209533 -0.042026 0 0 255
-0.051555 0.995996 -0.052254 153 0 76
-0.207891 -0.210697 0.146120 0 0 255
0.100551 0.791308 -0.051341 76 0 153
0.105738 -0.048903 -0.228606 153 76 0
0.199774 0.069747 0.150412 153 76 0
0.209619 0.424166 0.043607 153 76 0
0.084040 0.939043 0.095847 153 0 76
-0.090653 0.684829 -0.003629 76 0 153
0.191894 -0.632467 -0.035622 153 76 0
0.224890 0.116521 0.114407 153 76 0
-0.222767 -0.558435 -0.141491 153 76 0
0.079810 0.174085 0.233363 153 76 0
0.245105 -0.374353 0.013936 153 76 0
0.175536 0.045509 0.176853 153 76 0
0.036057 0.379142 0.228792 153 76 0
0.225589 0.405919 0.027724 153 76 0
-0.254102 -0.521744 -0.054336 153 76 0
-0.152017 0.056989 0.182352 153 76 0
0.049290 0.977752 -0.046934 153 0 76
-0.006582 -0.611229 0.104500 153 76 0
-0.191467 0.217126 0.141221 153 76 0
0.030850 -0.604520 -0.066812 153 76 0
0.028683 0.976842 0.111940 153 0 76
0.032939 -0.428958 -0.252864 153 76 0
0.188343 -0.002839 0.161138 153 76 0
0.195952 -0.127165 -0.160342 153 76 0
-0.231735 -0.168386 0.062529 153 76 0
-0.136775 -0.467425 0.210003 153 76 0
-0.150498 -0.302761 0.185327 153 76 0
0.184744 -0.240139 -0.172108 153 76 0
0.241739 0.124766 0.077663 153 76 0
0.164124 0.483169 0.065770 76 0 153
-0.211332 -0.462418 -0.159508 0 0 255
-0.035504 0.974056 -0.024767 153 0 76
-0.135192 0.152951 -0.223798 0 0 255
-0.256829 -0.480430 0.009631 153 76 0
-0.067871 -0.445500 -0.252488 153 76 0
-0.225103 -0.159408 -0.136721 0 0 255
-0.188476 -0.073353 0.145822 153 76 0
-0.258246 -0.378948 0.026351 0 0 255
-0.119222 0.055685 0.207147 153 76 0
-0.243693 -0.252051 -0.099382 0 0 255
-0.227572 0.169277 -0.132297 0 0 255
0.120726 0.323592 0.229838 153 76 0
-0.148922 -0.264505 -0.199855 153 76 0
-0.086171 0.376933 -0.213742 153 76 0
-0.175462 -0.272999 -0.175580 153 76 0
-0.045888 0.010137 0.235846 153 76 0
0.230257 0.133606 -0.111568 153 76 0
-0.155259 0.157876 -0.212154 0 0 255
-0.022113 -0.443258 0.242723 153 76 0
-0.222408 0.066741 -0.140777 0 0 255
-0.043770 0.401293 -0.212608 153 76 0
0.143338 0.518142 0.082261 76 0 153
0.044080 -0.629515 -0.226318 153 76 0
-0.235943 -0.141113 -0.052179 153 76 0
0.142153 0.928204 0.024457 153 0 76
0.015655 0.998930 -0.017423 153 0 76
0.229178 -0.184006 0.092127 153 76 0
-0.092764 -0.611988 0.083995 153 76 0
0.263942 0.303961 -0.051503 153 76 0
-0.014879 0.251367 -0.256227 153 76 0
-0.214928 -0.008021 0.101793 153 76 0
0.137069 -0.301247 -0.212119 153 76 0
-0.025138 0.956128 0.046693 76 0 153
-0.221547 -0.243180 -0.142637 0 0 255
0.030155 0.453449 0.178717 153 76 0
-0.221167 -0.361033 0.098782 153 76 0
0.148084 -0.185421 -0.204763 153 76 0
-0.009455 -0.354382 0.238292 153 76 0
-0.057356 0.827693 -0.042957 76 0 153
-0.144275 -0.025043 -0.197789 153 76 0
-0.183201 0.185237 0.149093 153 76 0
-0.037522 0.263209 0.250599 153 76 0
0.067835 0.050245 0.235140 153 76 0
0.169110 0.311104 -0.203800 153 76 0
0.116827 -0.547917 0.218116 153 76 0
-0.248945 0.179701 -0.081053 0 0 255
-0.100052 -0.172952 0.216443 153 76 0
-0.239427 0.331918 0.005008 153 76 0
-0.005253 -0.626963 -0.240154 153 76 0
0.126337 -0.516759 -0.230824 153 76 0
0.199670 -0.590682 -0.164196 153 76 0
0.090141 -0.110904 0.225403 153 76 0
-0.232868 -0.444065 -0.124426 0 0 255
0.243185 -0.277820 -0.056209 153 76 0
-0.027312 0.474733 -0.161884 76 0 153
-0.233735 -0.049714 0.048316 153 76 0
-0.084580 -0.003179 -0.231468 153 76 0
-0.250148 -0.067100 0.065468 0 0 255
0.016290 0.992170 -0.098653 153 0 76
-0.233614 0.204709 0.019013 153 76 0
0.253688 0.259178 0.088082 153 76 0
-0.152480 -0.477139 0.199620 153 76 0
-0.134074 0.119874 -0.224639 0 0 255
0.242922 -0.102987 -0.067401 153 76 0
-0.242093 -0.311622 0.020287 153 76 0
0.186664 -0.161058 0.158671 153 76 0
0.127026 0.695197 -0.007315 76 0 153
-0.072631 0.474478 0.143293 76 0 153
0.120124 0.973387 0.047241 153 0 76
-0.140401 -0.166623 -0.203528 153 76 0
0.047572 0.941914 -0.056893 76 0 153
0.138431 0.621634 0.024234 76 0 153
-0.185154 -0.306865 -0.165463 153 76 0
0.063614 0.344357 0.241832 153 76 0
-0.097894 0.642365 -0.020930 76 0 153
-0.125703 -0.484320 -0.233828 0 0 255
0.171100 -0.023306 0.179291 153 76 0
0.002774 0.713084 0.106170 76 0 153
-0.025896 0.032233 -0.246669 153 76 0
0.013445 0.958819 -0.058893 76 0 153
0.229381 -0.400908 0.080887 153 76 0
-0.236134 -0.202872 0.101047 0 0 255
0.206883 -0.449426 -0.151588 153 76 0
-0.239690 -0.395432 0.094164 0 0 255
0.224588 -0.493704 0.112007 153 76 0
-0.044015 -0.018774 -0.244373 153 76 0
-0.246637 -0.604209 -0.073473 153 76 0
-0.122486 0.471379 0.099276 76 0 153
0.118548 0.456353 0.143114 153 76 0
-0.003828 -0.369834 -0.252470 153 76 0
-0.205071 -0.093915 -0.131699 153 76 0
0.248959 -0.004789 -0.047685 153 76 0
-0.243313 0.260597 -0.031455 153 76 0
-0.038728 -0.539600 0.244619 153 76 0
-0.034791 -0.414060 -0.251004 153 76 0
-0.246999 -0.301210 -0.090899 0 0 255
0.003477 0.407849 0.212748 153 76 0
-0.070484 0.205783 -0.233959 153 76 0
0.260447 0.233618 -0.051574 153 76 0
0.244802 -0.334930 0.024136 153 76 0
-0.261549 -0.187943 -0.015785 0 0 255
0.055442 0.794836 -0.085514 76 0 153
-0.259364 -0.265919 -0.037146 0 0 255
-0.122459 0.554365 0.011252 76 0 153
0.105340 0.730137 0.059671 76 0 153
0.191226 -0.200951 -0.165090 153 76 0
0.124501 -0.349730 0.205124 153 76 0
0.053623 0.977752 0.048499 153 0 76
-0.116660 -0.196827 -0.219863 153 76 0
0.159226 -0.436189 -0.200177 153 76 0
-0.208591 -0.086203 -0.162659 0 0 255
-0.183547 0.388986 -0.115042 153 76 0
0.108562 0.929535 0.072572 153 0 76
-0.246385 -0.403738 -0.019877 153 76 0
0.151196 0.564792 -0.019507 76 0 153
-0.190144 -0.051909 0.142972 153 76 0
0.171120 -0.291340 -0.184486 153 76 0
-0.156043 -0.248148 -0.213894 0 0 255
-0.234888 0.179115 0.000659 153 76 0
0.011315 -0.220677 0.239430 153 76 0
0.247161 -0.519562 -0.069580 153 76 0
-0.104036 0.619863 0.014692 76 0 153
0.117193 0.706226 -0.039647 76 0 153
0.152392 0.115972 0.196835 153 76 0
0.098108 0.995234 0.065651 153 0 76
-0.034880 -0.248191 -0.248844 153 76 0
-0.148868 -0.572340 0.202608 153 76 0
-0.151276 -0.195608 -0.196726 153 76 0
-0.228191 -0.257719 0.076587 153 76 0
0.042150 0.257661 0.253724 153 76 0
0.150753 0.336611 0.207543 153 76 0
-0.023621 0.925297 -0.089948 153 0 76
0.172440 -0.623312 -0.176625 153 76 0
0.239162 -0.179937 -0.075843 153 76 0
-0.042749 -0.619358 0.144141 153 76 0
-0.259652 -0.019072 0.014980 0 0 255
-0.258853 -0.208935 0.027852 0 0 255
0.233678 -0.359709 0.072916 153 76 0
-0.204183 -0.373085 -0.144351 153 76 0
0.035938 0.998931 0.023395 153 0 76
0.248296 -0.142215 0.026675 153 76 0
-0.223602 -0.121461 0.084016 153 76 0
-0.244378 0.247246 -0.010805 153 76 0
0.104713 0.997524 -0.004241 153 0 76
0.082203 0.763847 0.080648 76 0 153
0.090770 0.989514 -0.076005 153 0 76
0.253495 -0.489671 -0.031024 153 76 0
-0.216577 0.104973 -0.098774 153 76 0
-0.115758 0.555096 0.044542 76 0 153
0.163111 -0.624244 0.016626 153 76 0
0.109626 -0.188363 -0.226784 153 76 0
0.074376 0.788427 0.084193 76 0 153
-0.060715 0.260649 0.245801 153 76 0
-0.129571 0.516389 0.043633 76 0 153
-0.005686 -0.114553 -0.249855 153 76 0
0.127452 -0.624983 -0.210601 153 76 0
-0.238348 -0.166015 -0.110691 0 0 255
-0.202294 -0.260645 0.154159 0 0 255
-0.061565 -0.255571 0.231070 153 76 0
0.083816 0.516501 0.136356 76 0 153
0.131630 -0.195616 -0.215844 153 76 0
-0.201266 0.061752 0.157366 0 0 255
-0.221158 0.333896 -0.095029 153 76 0
-0.228296 0.067137 -0.069643 153 76 0
0.031051 0.928548 0.071141 76 0 153
0.247648 0.147016 0.059589 153 76 0
-0.204197 0.037633 0.120541 153 76 0
0.260482 0.327950 -0.052053 153 76 0
-0.178509 0.040274 0.157390 153 76 0
0.210442 -0.067482 -0.139650 153 76 0
-0.023149 0.579205 0.126767 76 0 153
-0.249032 -0.016161 -0.084486 0 0 255
0.228807 0.363698 -0.104092 153 76 0
-0.192033 0.364283 0.124653 153 76 0
-0.132736 -0.611328 0.021379 153 76 0
-0.256145 0.217779 0.040457 0 0 255
-0.138155 -0.177738 -0.224816 0 0 255
-0.024236 0.998780 -0.010793 153 0 76
0.250896 0.193417 0.049717 153 76 0
-0.085417 0.985189 0.010891 153 0 76
0.247092 -0.309405 -0.012344 153 76 0
-0.051794 0.092689 0.234918 153 76 0
-0.112703 0.291116 0.223120 153 76 0
0.013224 0.432121 -0.197257 153 76 0
0.110564 -0.461126 0.222533 153 76 0
-0.111614 -0.081524 -0.220608 153 76 0
-0.243170 -0.476311 -0.103531 0 0 255
0.107131 0.962119 -0.059060 153 0 76
0.075049 0.488427 0.149784 76 0 153
-0.122869 -0.129374 -0.233394 0 0 255
-0.108648 0.569278 -0.047475 76 0 153
0.181748 -0.496657 -0.188108 153 76 0
-0.194132 0.383733 0.100526 153 76 0
-0.222144 0.173073 0.075495 153 76 0
0.007911 -0.242241 0.239526 153 76 0
-0.205982 -0.352535 -0.140670 153 76 0
-0.041509 -0.601677 -0.029680 153 76 0
-0.202462 -0.347945 0.129877 153 76 0
-0.020272 0.974063 -0.052267 153 0 76
-0.260552 -0.262690 0.008473 0 0 255
-0.019662 0.333020 0.248243 153 76 0
-0.261142 -0.424388 -0.007094 0 0 255
-0.153416 0.186632 0.180304 153 76 0
-0.260362 -0.505026 -0.023829 0 0 255
0.246737 -0.350246 -0.004480 153 76 0
-0.235515 0.341821 -0.028291 153 76 0
-0.162819 0.383428 -0.149432 153 76 0
0.062794 0.580850 0.124786 76 0 153
-0.120687 0.225085 -0.214354 153 76 0
-0.166750 0.243410 -0.183721 153 76 0
-0.258227 0.094980 -0.038841 0 0 255
0.107153 -0.630145 0.143856 153 76 0
-0.046079 -0.308061 0.233622 153 76 0
-0.034292 -0.090633 0.237379 153 76 0
-0.208819 -0.092578 0.115508 153 76 0
0.074889 -0.396834 0.226172 153 76 0
-0.113346 0.436422 0.145201 153 76 0
0.231744 -0.584189 -0.111041 153 76 0
0.089400 0.018970 -0.235838 153 76 0
-0.260701 0.134066 -0.023211 0 0 255
0.107968 0.357646 -0.224354 153 76 0
0.061541 0.520616 -0.142432 76 0 153
0.070116 0.420336 0.195699 153 76 0
0.201805 -0.053357 0.144339 153 76 0
-0.200975 0.102279 0.157978 0 0 255
-0.025795 0.917082 -0.041903 76 0 153
0.241660 0.078931 -0.078549 153 76 0
0.059614 0.703361 -0.096455 76 0 153
-0.241015 -0.155961 -0.001973 153 76 0
0.210570 -0.492862 0.137263 153 76 0
0.094600 0.508094 -0.132089 76 0 153
-0.165351 0.061941 -0.203653 0 0 255
-0.261396 -0.267141 -0.012469 0 0 255
0.183059 -0.062300 -0.175236 153 76 0
-0.181145 -0.252250 -0.168421 153 76 0
-0.052458 -0.625117 0.165484 153 76 0
-0.235161 0.030481 0.032818 153 76 0
-0.110296 0.123372 0.211744 153 76 0
0.009699 0.527443 0.148413 76 0 153
-0.110387 -0.000493 -0.219741 153 76 0
0.194309 -0.532154 -0.174362 153 76 0
-0.042773 0.324436 -0.248898 153 76 0
-0.209199 0.388893 0.047752 153 76 0
0.213490 0.310864 0.157536 153 76 0
-0.234960 0.084894 0.026339 153 76 0
0.216152 -0.607884 0.115500 153 76 0
-0.194941 0.315504 0.147255 153 76 0
0.165723 -0.624126 -0.012164 153 76 0
-0.126643 0.010086 -0.208980 153 76 0
-0.240289 -0.106336 -0.005103 153 76 0
-0.181034 -0.494745 -0.194214 0 0 255
-0.250407 -0.192762 0.064023 0 0 255
-0.129824 0.083409 0.200093 153 76 0
0.071184 0.998728 0.028257 153 0 76
-0.096967 0.926142 -0.006736 153 0 76
-0.227128 -0.412582 0.091025 153 76 0
0.220982 -0.039116 -0.124095 153 76 0
-0.032723 0.422798 -0.199800 153 76 0
0.255252 0.199928 -0.038605 153 76 0
-0.242421 -0.339098 0.087026 0 0 255
0.097770 0.741137 -0.062237 76 0 153
-0.159584 0.449048 0.062368 153 76 0
-0.240289 -0.539885 -0.105253 153 76 0
0.064037 0.449571 -0.176674 153 76 0
-0.056542 0.997027 -0.032877 153 0 76
-0.192577 -0.107821 -0.150832 153 76 0
0.111770 0.577948 -0.091131 76 0 153
-0.062712 -0.612251 0.102683 153 76 0
0.084346 0.977752 0.068686 153 0 76
0.039059 0.142796 0.241466 153 76 0
0.009939 0.997387 0.088649 153 0 76
0.071833 0.298517 0.248887 153 76 0
0.124916 -0.194407 0.208360 153 76 0
-0.086081 -0.311476 0.223136 153 76 0
-0.131751 -0.421980 -0.218143 153 76 0
0.133523 -0.044662 -0.214789 153 76 0
0.246874 -0.189335 0.027706 153 76 0
-0.137569 -0.234784 -0.224688 0 0 255
-0.218776 -0.379260 -0.117238 153 76 0
-0.147208 0.209581 0.188277 153 76 0
-0.173398 0.092860 -0.166869 153 76 0
-0.134675 0.022774 -0.224859 0 0 255
0.089898 0.924974 0.020586 76 0 153
0.230256 0.091285 -0.109057 153 76 0
-0.088904 0.239497 0.232951 153 76 0
-0.255850 0.145317 -0.056289 0 0 255
0.249839 -0.164064 -0.009474 153 76 0
0.087465 0.964790 0.018722 76 0 153
-0.070975 -0.608766 0.078323 153 76 0
-0.171955 0.447064 0.006773 153 76 0
0.007676 0.006200 -0.249329 153 76 0
0.074181 -0.585694 0.234269 153 76 0
-0.198754 0.213779 0.161487 0 0 255
-0.062048 0.380218 0.218035 153 76 0
0.250063 0.032336 -0.044792 153 76 0
-0.251126 -0.289245 0.061493 0 0 255
-0.258139 -0.245023 -0.041597 0 0 255
-0.189918 -0.624411 0.032464 153 76 0
-0.152864 -0.627240 -0.164176 153 76 0
0.259784 0.207669 0.005828 153 76 0
-0.234612 0.293857 -0.071416 153 76 0
-0.001568 -0.105169 0.240581 153 76 0
0.157641 0.384630 0.175663 153 76 0
-0.121327 -0.272695 -0.234325 0 0 255
-0.175021 -0.618727 -0.025079 153 76 0
0.048464 0.446280 0.181611 153 76 0
-0.208792 0.138950 0.148137 0 0 255
-0.194152 -0.264124 -0.178632 0 0 255
-0.185901 -0.404615 0.154601 153 76 0
-0.000522 -0.074946 0.241065 153 76 0
-0.060133 -0.336037 -0.244829 153 76 0
-0.133402 -0.462914 -0.228438 0 0 255
-0.103503 0.173524 0.215130 153 76 0
-0.261167 -0.067812 -0.020350 0 0 255
-0.220893 0.096396 0.131756 0 0 255
-0.222582 -0.614810 0.104916 153 76 0
-0.085121 0.078131 -0.229880 153 76 0
-0.200633 -0.213183 -0.171168 0 0 255
-0.216740 -0.261883 -0.151349 0 0 255
0.219824 0.068262 0.121894 153 76 0
0.225498 -0.026075 0.107107 153 76 0
0.091690 0.718379 -0.073180 76 0 153
-0.195021 -0.034242 0.135424 153 76 0
-0.098914 -0.435053 -0.238938 153 76 0
0.084680 -0.162206 -0.238049 153 76 0
-0.136991 -0.625780 0.124415 153 76 0
0.125169 0.294256 0.230188 153 76 0
0.040350 -0.346842 -0.249191 153 76 0
0.243615 -0.083345 -0.064997 153 76 0
-0.214350 -0.426272 0.136550 0 0 255
-0.260863 -0.376525 0.000105 0 0 255
0.144925 -0.615780 0.191449 153 76 0
0.234600 -0.115059 0.083877 153 76 0
0.223584 -0.605547 -0.122695 153 76 0
-0.231049 0.179175 0.043676 153 76 0
-0.162873 -0.118154 -0.207604 0 0 255
0.199615 0.322310 -0.174289 153 76 0
-0.009730 -0.522283 -0.264686 153 76 0
0.003664 0.274106 0.255886 153 76 0
0.015042 0.884616 0.102758 76 0 153
0.186344 0.421085 0.107149 153 76 0
-0.089366 -0.626963 -0.196642 153 76 0
0.037801 0.469022 -0.168739 76 0 153
-0.104090 0.524167 -0.087896 76 0 153
-0.246373 -0.195858 -0.092546 0 0 255
-0.001062 -0.345551 -0.252338 153 76 0
-0.013310 0.782509 0.093551 76 0 153
-0.078668 0.936462 -0.003426 76 0 153
0.167796 -0.359990 0.173713 153 76 0
0.254384 -0.523120 -0.003873 153 76 0
0.012084 0.977752 -0.067463 153 0 76
-0.132041 -0.285612 -0.211734 153 76 0
-0.228803 0.136385 0.057519 153 76 0
-0.173116 -0.086951 0.164451 153 76 0
0.247968 -0.270020 -0.006119 153 76 0
-0.180241 -0.225439 0.158328 153 76 0
-0.212877 -0.023724 -0.112793 153 76 0
0.034171 0.469678 0.168074 153 76 0
0.045811 -0.207178 0.236374 153 76 0
0.074752 -0.316355 -0.241456 153 76 0
-0.042309 0.724802 -0.079478 76 0 153
0.237690 0.330934 -0.115816 153 76 0
0.029739 0.865361 -0.089173 76 0 153
0.122752 0.649095 0.056240 76 0 153
0.062623 0.165622 0.237929 153 76 0
-0.243214 -0.335289 0.012117 153 76 0
-0.224450 -0.208381 0.085318 153 76 0
-0.223938 -0.133877 -0.095150 153 76 0
0.130246 0.544015 -0.085448 76 0 153
0.175396 0.488528 0.006193 76 0 153
0.031805 -0.619088 0.234651 153 76 0
-0.222099 0.057202 0.080700 153 76 0
0.021706 0.926493 0.124346 153 0 76
-0.171395 0.252043 0.178786 153 76 0
-0.243104 -0.107964 0.084491 0 0 255
-0.257826 -0.077117 -0.049385 0 0 255
0.012804 0.077344 -0.248568 153 76 0
0.094756 0.306178 -0.243965 153 76 0
0.219110 -0.526145 -0.138449 153 76 0
0.191202 0.446380 -0.051936 153 76 0
-0.221908 -0.091676 -0.097445 153 76 0
0.099979 -0.554485 0.225837 153 76 0
-0.259038 -0.550543 -0.012494 153 76 0
0.166032 -0.040656 -0.190513 153 76 0
0.223462 0.280907 0.146447 153 76 0
0.090257 -0.439585 0.224600 153 76 0
0.178317 -0.045928 0.171903 153 76 0
-0.172139 -0.527090 0.182744 153 76 0
0.130478 -0.307874 0.202446 153 76 0
-0.102452 0.611001 -0.030537 76 0 153
-0.220983 -0.096607 0.090090 153 76 0
-0.159447 -0.140702 -0.210510 0 0 255
-0.231659 0.091173 -0.050370 153 76 0
-0.173994 0.202136 -0.196729 0 0 255
-0.252215 -0.445460 0.056430 0 0 255
-0.113537 0.575500 -0.023524 76 0 153
-0.222002 -0.284443 0.126093 0 0 255
0.209520 -0.010446 -0.142027 153 76 0
0.038189 0.597770 -0.124114 76 0 153
0.027057 -0.261021 -0.250486 153 76 0
-0.101943 0.157027 -0.221260 153 76 0
0.093823 0.805620 0.065422 76 0 153
0.071484 0.128979 -0.240351 153 76 0
0.078635 -0.019654 -0.239339 153 76 0
-0.229932 -0.111016 0.114217 0 0 255
0.166240 -0.625304 -0.050421 153 76 0
-0.010472 -0.431729 -0.255837 153 76 0
-0.154313 -0.378309 -0.216056 0 0 255
-0.007285 0.834997 0.091482 76 0 153
-0.105896 -0.251551 0.213549 153 76 0
-0.132269 0.493061 -0.060279 76 0 153
-0.207812 -0.063797 0.147081 0 0 255
0.145878 0.460209 -0.116115 153 76 0
-0.091560 0.133039 0.220629 153 76 0
-0.196512 0.285581 -0.151685 153 76 0
0.047874 -0.087138 -0.246206 153 76 0
0.211034 -0.458210 0.134372 153 76 0
-0.002342 0.942811 0.108800 153 0 76
0.095946 -0.611014 0.024265 153 76 0
-0.259177 -0.341054 0.021872 0 0 255
-0.224218 -0.022200 0.123626 0 0 255
-0.185316 -0.176026 -0.187888 0 0 255
0.103630 -0.264174 -0.229749 153 76 0
-0.106069 -0.220142 0.213228 153 76 0
0.150116 -0.378554 0.187446 153 76 0
-0.260237 -0.423303 0.015337 0 0 255
0.107206 0.831909 0.040445 76 0 153
-0.113594 -0.613707 -0.230571 153 76 0
0.157662 0.022398 0.190441 153 76 0
0.180413 0.054047 -0.178592 153 76 0
0.183770 0.242236 -0.190218 153 76 0
-0.238978 -0.135350 -0.033801 153 76 0
0.078257 0.941348 -0.082714 76 0 153
0.078969 0.955998 -0.030256 76 0 153
0.139469 -0.618684 0.016802 153 76 0
0.022518 0.040673 -0.248803 153 76 0
-0.160177 -0.161161 -0.209147 0 0 255
0.197460 -0.336532 -0.154306 153 76 0
0.251560 -0.474071 -0.048171 153 76 0
-0.049672 0.977752 0.055048 153 0 76
-0.097021 0.546977 0.085972 76 0 153
-0.216654 -0.397433 0.134884 0 0 255
-0.237204 -0.334489 0.051698 153 76 0
0.229712 -0.189691 -0.101667 153 76 0
-0.213281 0.180978 -0.152770 0 0 255
-0.198316 -0.246580 -0.147929 153 76 0
0.072536 -0.087311 0.231859 153 76 0
0.064018 0.811310 0.087952 76 0 153
0.234920 -0.373057 -0.079901 153 76 0
-0.068942 0.469497 -0.149006 153 76 0
-0.050892 0.950912 0.074458 76 0 153
-0.002762 0.249155 0.254792 153 76 0
0.061577 0.661508 0.108771 76 0 153
0.030738 0.997693 0.085546 153 0 76
-0.260951 0.112361 0.000776 0 0 255
-0.071326 0.924908 -0.037200 76 0 153
-0.056855 0.738822 0.068598 76 0 153
0.075314 -0.247980 -0.241038 153 76 0
0.246137 0.111289 -0.066996 153 76 0
-0.234200 0.202401 -0.020158 153 76 0
-0.161867 0.155931 -0.177928 153 76 0
0.087874 0.214620 -0.238814 153 76 0
-0.171914 0.412613 0.101573 153 76 0
-0.216173 -0.048672 0.100251 153 76 0
0.085406 0.350966 -0.236399 153 76 0
0.216158 0.222540 0.145098 153 76 0
0.123647 0.923121 0.031749 76 0 153
0.261714 0.338582 -0.009877 153 76 0
0.141267 0.617458 -0.000021 76 0 153
0.248260 -0.115289 0.029975 153 76 0
0.177457 -0.567835 -0.191468 153 76 0
0.235542 -0.628919 -0.003865 153 76 0
-0.033490 0.620164 -0.109979 76 0 153
-0.234662 -0.265503 -0.070464 153 76 0
0.178677 0.473641 -0.032133 153 76 0
-0.217802 0.273518 -0.115035 153 76 0
0.109806 -0.617654 0.073233 153 76 0
-0.190824 -0.451851 0.162616 153 76 0
-0.030446 0.288324 0.251849 153 76 0
-0.069428 -0.413805 -0.244496 153 76 0
-0.176915 -0.059441 0.160388 153 76 0
-0.188480 -0.529475 0.168357 153 76 0
-0.130156 0.415141 -0.154402 153 76 0
0.058139 -0.304044 -0.245425 153 76 0
0.195338 0.391366 0.129232 153 76 0
-0.113676 0.451006 0.129990 153 76 0
0.110465 0.939263 -0.052213 76 0 153
-0.140080 0.499135 -0.024260 76 0 153
-0.179460 -0.179988 -0.168175 153 76 0
-0.248861 -0.058470 -0.082751 0 0 255
-0.239258 -0.103453 -0.026223 153 76 0
-0.208034 -0.129677 -0.162495 0 0 255
0.072434 0.859276 -0.074834 76 0 153
-0.239337 0.181487 -0.108154 0 0 255
0.149708 0.246172 -0.218394 153 76 0
-0.128377 0.534171 -0.017836 76 0 153
0.096101 0.904012 0.081506 76 0 153
0.126594 0.231546 0.226220 153 76 0
-0.034629 -0.135719 0.236662 153 76 0
0.086216 -0.633392 0.181418 153 76 0
-0.206695 0.233865 -0.127964 153 76 0
-0.229244 -0.513796 0.111338 153 76 0
0.251491 0.009304 -0.029237 153 76 0
0.219430 0.122513 -0.129289 153 76 0
0.035365 0.939119 0.110665 153 0 76
0.117592 0.745799 0.028607 76 0 153
-0.120523 -0.228645 -0.218175 153 76 0
0.232301 0.177919 -0.109230 153 76 0
-0.244340 0.049178 -0.097872 0 0 255
0.195744 -0.264426 -0.157895 153 76 0
-0.192309 -0.561555 0.164675 153 76 0
0.093748 0.106769 -0.234059 153 76 0
-0.039238 0.958020 0.001355 76 0 153
-0.169970 -0.486923 0.184522 153 76 0
-0.260796 -0.102397 -0.013831 0 0 255
0.076063 -0.494438 0.235684 153 76 0
-0.053556 0.447534 -0.173239 153 76 0
0.103005 0.029789 0.222970 153 76 0
0.168231 0.152965 -0.189837 153 76 0
0.046232 0.208699 0.242891 153 76 0
-0.253371 -0.395564 -0.068418 0 0 255
-0.147825 0.482208 -0.017743 76 0 153
0.112939 0.695696 0.057732 76 0 153
0.216405 0.332941 -0.148885 153 76 0
0.233886 -0.538485 -0.108896 153 76 0
-0.226110 0.031826 -0.080124 153 76 0
-0.259072 -0.301483 -0.039886 0 0 255
0.228522 -0.443010 -0.110986 153 76 0
0.043048 0.355857 0.239880 153 76 0
-0.210728 -0.320398 0.141830 0 0 255
-0.242943 -0.530343 0.078704 153 76 0
0.148389 0.571325 0.027005 76 0 153
0.002491 0.086183 0.242570 153 76 0
-0.028988 0.983393 -0.089366 153 0 76
-0.208987 0.396606 0.009761 153 76 0
-0.199567 0.030742 -0.170920 0 0 255
-0.142468 -0.521191 0.206618 153 76 0
-0.203130 0.127906 0.120582 153 76 0
0.049325 0.409936 0.208229 153 76 0
-0.192736 -0.617858 -0.159462 153 76 0
-0.231637 -0.021717 -0.124676 0 0 255
0.252900 0.016084 -0.011389 153 76 0
-0.259513 -0.095920 0.017974 0 0 255
0.167932 0.080881 0.184915 153 76 0
-0.074825 0.926950 -0.070948 153 0 76
-0.159488 -0.207772 0.177012 153 76 0
0.085649 0.390401 0.211445 153 76 0
0.098880 -0.528107 -0.244237 153 76 0
