0.470164 -0.103199 -0.148725 0.800000 0.200000 0.500000
0.112967 0.288461 -0.214246 1.000000 0.000000 0.000000
0.678461 0.138489 -0.232150 0.800000 0.200000 0.500000
-0.895754 0.214066 -0.084034 0.600000 0.000000 0.300000
-0.507271 -0.276410 0.003726 0.000000 0.000000 1.000000
-0.000077 -0.276410 -0.068615 0.000000 0.000000 1.000000
-0.014359 -0.203722 -0.165362 0.000000 0.000000 1.000000
0.412502 0.045744 0.245069 0.500000 0.000000 0.500000
0.748226 0.187625 0.215822 0.500000 0.000000 0.500000
0.515267 0.288461 -0.242879 1.000000 0.000000 0.000000
0.281513 0.287048 0.186634 0.600000 0.300000 0.000000
-0.149285 -0.125459 -0.217541 0.800000 0.200000 0.500000
-0.162558 0.024277 -0.232150 0.800000 0.200000 0.500000
0.896253 -0.047004 -0.147181 0.300000 0.000000 0.600000
0.915731 0.262017 -0.111212 0.300000 0.000000 0.600000
-0.567703 -0.276410 -0.067277 0.000000 0.000000 1.000000
-0.781337 -0.152410 -0.232150 0.800000 0.200000 0.500000
0.857407 0.049140 -0.217541 0.800000 0.200000 0.500000
-0.019473 0.288461 0.094317 1.000000 0.000000 0.000000
0.557969 -0.088553 0.220595 0.500000 0.000000 0.500000
-0.453628 0.294877 0.215852 0.600000 0.300000 0.000000
0.101159 -0.276410 -0.213518 0.000000 0.000000 1.000000
0.752232 -0.256932 0.080422 0.000000 0.000000 1.000000
0.379858 0.239766 0.190114 0.600000 0.300000 0.000000
0.470164 0.111395 -0.011192 0.800000 0.200000 0.500000
0.084922 0.117252 0.245069 0.500000 0.000000 0.500000
0.810970 0.288461 0.064671 1.000000 0.000000 0.000000
0.866493 0.006945 -0.232150 0.800000 0.200000 0.500000
-0.014359 -0.202798 0.045241 0.000000 0.000000 1.000000
-0.934711 -0.091561 0.208652 0.600000 0.000000 0.300000
0.470164 -0.189179 0.092654 0.800000 0.200000 0.500000
-0.353541 -0.048809 0.220595 0.500000 0.000000 0.500000
-0.143384 -0.001830 0.220595 0.500000 0.000000 0.500000
0.404486 0.236105 0.245040 0.500000 0.000000 0.500000
0.327633 0.288461 0.109094 1.000000 0.000000 0.000000
-0.705661 -0.001603 0.245069 0.500000 0.000000 0.500000
-0.775780 -0.285208 0.186634 0.300000 0.000000 0.600000
0.716578 0.081990 0.245069 0.500000 0.000000 0.500000
-0.911044 0.268983 0.036430 1.000000 0.000000 0.000000
0.915731 0.102904 -0.085515 0.300000 0.000000 0.600000
0.376446 0.268983 -0.094158 1.000000 0.000000 0.000000
0.014858 0.168751 -0.157246 0.000000 0.000000 1.000000
-0.440448 -0.040960 0.126119 1.000000 0.000000 0.000000
-0.372546 -0.160888 0.220595 0.500000 0.000000 0.500000
-0.195701 0.260343 0.186634 0.600000 0.300000 0.000000
-0.455283 0.045907 0.220595 0.500000 0.000000 0.500000
0.014858 -0.147806 0.139364 0.000000 0.000000 1.000000
-0.257158 0.129017 -0.232150 0.500000 0.500000 0.000000
-0.497582 0.141374 -0.232150 0.800000 0.200000 0.500000
0.033706 0.077348 -0.217541 0.800000 0.200000 0.500000
-0.111078 0.187259 -0.217541 0.800000 0.200000 0.500000
0.275346 0.078947 -0.251628 0.500000 0.000000 0.500000
0.041010 -0.135534 -0.217541 0.800000 0.200000 0.500000
-0.115387 -0.149660 -0.232150 0.800000 0.200000 0.500000
0.547218 -0.160183 -0.217541 0.800000 0.200000 0.500000
-0.866115 -0.256932 0.077803 0.000000 0.000000 1.000000
0.622338 -0.040751 -0.232150 0.800000 0.200000 0.500000
0.092172 -0.235864 -0.217541 0.800000 0.200000 0.500000
-0.010954 0.239766 0.193108 0.600000 0.300000 0.000000
0.743187 0.124285 0.243693 0.500000 0.000000 0.500000
0.797078 0.136352 -0.217541 0.800000 0.200000 0.500000
0.389725 -0.276410 0.122697 0.000000 0.000000 1.000000
-0.014359 -0.145824 0.175554 0.000000 0.000000 1.000000
-0.469665 0.058215 -0.083378 1.000000 0.000000 0.000000
-0.097327 0.007312 0.245069 0.500000 0.000000 0.500000
0.730686 -0.256932 0.007488 0.000000 0.000000 1.000000
-0.386594 0.122781 -0.232150 0.800000 0.200000 0.500000
-0.382833 -0.276410 -0.112133 0.000000 0.000000 1.000000
-0.654066 -0.205297 0.245040 0.500000 0.000000 0.500000
0.882436 -0.256932 -0.026420 0.000000 0.000000 1.000000
0.500337 0.288461 0.139834 1.000000 0.000000 0.000000
0.910754 0.028204 -0.232150 0.000000 0.500000 0.500000
0.689583 0.268983 0.069332 1.000000 0.000000 0.000000
0.137374 -0.014308 0.220595 0.500000 0.000000 0.500000
-0.569221 0.013024 0.220595 0.500000 0.000000 0.500000
-0.736800 0.142665 0.220595 0.500000 0.000000 0.500000
0.512971 0.288461 -0.139000 1.000000 0.000000 0.000000
-0.934711 0.227955 0.215392 0.600000 0.000000 0.300000
0.521236 -0.256932 0.080786 0.000000 0.000000 1.000000
-0.124566 0.268983 -0.164451 1.000000 0.000000 0.000000
-0.394827 0.082011 0.220595 0.500000 0.000000 0.500000
-0.895754 0.196959 -0.125273 0.600000 0.000000 0.300000
0.014858 -0.104385 0.084038 0.000000 0.000000 1.000000
0.443824 -0.133296 -0.232150 0.800000 0.200000 0.500000
0.281586 -0.276410 0.090639 0.000000 0.000000 1.000000
-0.261478 -0.045772 -0.232150 0.800000 0.200000 0.500000
-0.807497 -0.001207 -0.217541 0.800000 0.200000 0.500000
-0.440448 0.118481 0.137114 1.000000 0.000000 0.000000
0.043184 0.225450 0.215822 0.500000 0.000000 0.500000
0.670641 0.268983 -0.119823 1.000000 0.000000 0.000000
0.052835 0.268983 -0.195075 1.000000 0.000000 0.000000
0.014858 -0.174619 -0.174914 0.000000 0.000000 1.000000
0.780115 0.288461 0.090103 1.000000 0.000000 0.000000
0.454917 0.288461 0.051769 1.000000 0.000000 0.000000
-0.440448 -0.213837 -0.052247 1.000000 0.000000 0.000000
0.440947 0.176842 -0.054411 0.800000 0.200000 0.500000
-0.181842 0.075824 -0.232150 0.800000 0.200000 0.500000
0.597735 0.268983 0.115686 1.000000 0.000000 0.000000
-0.775458 0.288461 0.035555 1.000000 0.000000 0.000000
-0.719710 -0.061525 0.220595 0.500000 0.000000 0.500000
0.742588 -0.088452 -0.232150 0.800000 0.200000 0.500000
0.721196 0.007174 0.245069 0.500000 0.000000 0.500000
-0.337243 0.258070 -0.251628 0.500000 0.500000 0.000000
-0.889667 0.288461 -0.169338 1.000000 0.000000 0.000000
0.360295 0.213645 0.245040 0.500000 0.000000 0.500000
0.915731 0.183563 -0.216189 0.300000 0.000000 0.600000
0.873036 -0.276410 0.054351 0.000000 0.000000 1.000000
-0.655141 0.288461 -0.073908 1.000000 0.000000 0.000000
-0.826560 0.232568 -0.232150 0.800000 0.200000 0.500000
-0.233491 -0.008012 -0.243972 0.500000 0.500000 0.000000
0.303457 0.288461 -0.132507 1.000000 0.000000 0.000000
0.370820 0.117266 -0.232150 0.800000 0.200000 0.500000
0.470164 0.070207 -0.169114 0.800000 0.200000 0.500000
0.701290 -0.276410 -0.250164 0.000000 0.000000 1.000000
0.172516 0.288461 0.025415 1.000000 0.000000 0.000000
-0.452874 0.217474 0.245040 0.500000 0.000000 0.500000
0.683645 -0.059940 0.245069 0.500000 0.000000 0.500000
-0.876276 -0.082677 0.197873 0.600000 0.000000 0.300000
0.219214 0.268983 0.021326 1.000000 0.000000 0.000000
0.010509 0.180909 0.242572 0.500000 0.000000 0.500000
0.470164 0.214101 -0.034741 0.800000 0.200000 0.500000
-0.341418 -0.100222 -0.251628 0.500000 0.500000 0.000000
-0.014359 0.011183 -0.161238 0.000000 0.000000 1.000000
-0.322634 -0.050308 0.220595 0.500000 0.000000 0.500000
0.047589 0.268983 0.038977 1.000000 0.000000 0.000000
-0.135343 -0.276410 -0.127492 0.000000 0.000000 1.000000
-0.185543 -0.256932 0.095320 0.000000 0.000000 1.000000
0.014858 0.193607 0.090381 0.000000 0.000000 1.000000
0.260292 -0.276410 -0.104741 0.000000 0.000000 1.000000
-0.813751 -0.276410 -0.122778 0.000000 0.000000 1.000000
-0.469665 -0.002060 -0.028076 1.000000 0.000000 0.000000
-0.014359 0.013215 0.155345 0.000000 0.000000 1.000000
-0.853335 -0.169135 -0.217541 0.800000 0.200000 0.500000
-0.592375 0.073542 0.220595 0.500000 0.000000 0.500000
0.641828 0.268983 0.120802 1.000000 0.000000 0.000000
0.475257 -0.276410 0.002722 0.000000 0.000000 1.000000
0.896253 -0.088898 -0.096371 0.300000 0.000000 0.600000
0.358936 0.022290 0.220595 0.500000 0.000000 0.500000
-0.440448 -0.255926 -0.127523 1.000000 0.000000 0.000000
0.107416 0.288461 0.105748 1.000000 0.000000 0.000000
0.788037 -0.084550 0.230852 0.500000 0.000000 0.500000
-0.915232 0.117626 -0.001054 0.600000 0.000000 0.300000
-0.630854 -0.276410 -0.222244 0.000000 0.000000 1.000000
-0.535656 0.268983 -0.240435 1.000000 0.000000 0.000000
0.915731 0.200684 0.157935 0.300000 0.000000 0.600000
0.896253 0.041506 -0.162000 0.300000 0.000000 0.600000
0.139286 0.288461 -0.182918 1.000000 0.000000 0.000000
-0.309754 0.288461 0.047405 1.000000 0.000000 0.000000
-0.199541 0.031624 -0.217541 0.800000 0.200000 0.500000
0.731458 -0.179465 -0.217541 0.800000 0.200000 0.500000
0.419295 -0.256932 -0.195705 0.000000 0.000000 1.000000
-0.385034 0.288461 0.029857 1.000000 0.000000 0.000000
0.014858 0.210065 0.008055 0.000000 0.000000 1.000000
0.337623 0.029963 -0.217541 0.800000 0.200000 0.500000
-0.910597 -0.276410 -0.237897 0.000000 0.000000 1.000000
0.698857 -0.221704 0.215822 0.500000 0.000000 0.500000
-0.292610 0.078952 -0.251628 0.500000 0.500000 0.000000
0.581889 0.268983 -0.195539 1.000000 0.000000 0.000000
-0.913095 -0.256932 -0.133911 0.000000 0.000000 1.000000
-0.492278 0.288461 -0.075917 1.000000 0.000000 0.000000
-0.798784 0.288461 0.152614 1.000000 0.000000 0.000000
-0.072355 0.167510 0.220595 0.500000 0.000000 0.500000
-0.915232 -0.156343 0.144818 0.600000 0.000000 0.300000
-0.775874 0.185606 0.245040 0.500000 0.000000 0.500000
-0.106722 0.280073 0.215852 0.600000 0.300000 0.000000
-0.313778 -0.115172 0.220595 0.500000 0.000000 0.500000
-0.800715 -0.256932 -0.061901 0.000000 0.000000 1.000000
-0.842777 0.206036 -0.232150 0.800000 0.200000 0.500000
0.799546 -0.256932 -0.075564 0.000000 0.000000 1.000000
-0.853542 0.129252 0.245040 0.500000 0.000000 0.500000
-0.895754 -0.134627 -0.012845 0.600000 0.000000 0.300000
0.176138 -0.276410 0.095641 0.000000 0.000000 1.000000
0.368996 -0.052522 0.245069 0.500000 0.000000 0.500000
-0.062473 -0.276410 -0.118580 0.000000 0.000000 1.000000
0.896253 -0.123580 -0.148921 0.300000 0.000000 0.600000
0.860253 0.288461 -0.113359 1.000000 0.000000 0.000000
-0.440448 -0.230382 -0.186521 1.000000 0.000000 0.000000
-0.440448 -0.008467 0.029327 1.000000 0.000000 0.000000
0.093195 -0.192782 -0.217541 0.800000 0.200000 0.500000
-0.626463 0.169040 -0.232150 0.800000 0.200000 0.500000
0.896253 0.258305 0.032295 0.300000 0.000000 0.600000
-0.336572 -0.161446 -0.251628 0.500000 0.500000 0.000000
-0.725684 -0.256932 0.141106 0.000000 0.000000 1.000000
-0.500979 -0.071007 -0.217541 0.800000 0.200000 0.500000
-0.469665 -0.084136 -0.092243 1.000000 0.000000 0.000000
-0.004726 0.288461 -0.220056 1.000000 0.000000 0.000000
-0.895754 0.207508 -0.196690 0.600000 0.000000 0.300000
-0.383341 -0.256932 -0.242650 0.000000 0.000000 1.000000
-0.677078 0.035200 0.220595 0.500000 0.000000 0.500000
-0.253103 -0.059469 0.220595 0.500000 0.000000 0.500000
0.386971 0.297351 0.215852 0.600000 0.300000 0.000000
-0.434968 0.288461 -0.083720 1.000000 0.000000 0.000000
0.066468 0.268983 -0.226910 1.000000 0.000000 0.000000
-0.312387 0.267757 -0.232150 0.500000 0.500000 0.000000
-0.301765 0.223388 0.215822 0.500000 0.000000 0.500000
0.915731 -0.203867 0.032894 0.300000 0.000000 0.600000
0.280421 -0.169011 0.244298 0.500000 0.000000 0.500000
-0.258408 -0.153602 -0.251628 0.500000 0.500000 0.000000
0.626792 0.268983 -0.045006 1.000000 0.000000 0.000000
0.896253 0.242710 -0.216049 0.300000 0.000000 0.600000
-0.234882 -0.078879 0.245069 0.500000 0.000000 0.500000
-0.322471 0.288461 -0.107967 1.000000 0.000000 0.000000
-0.717516 -0.286149 0.196146 0.300000 0.000000 0.600000
0.051521 0.134034 -0.217541 0.800000 0.200000 0.500000
-0.470930 -0.276410 -0.049341 0.000000 0.000000 1.000000
-0.655310 0.249499 0.244221 0.500000 0.000000 0.500000
-0.652699 0.288461 -0.173980 1.000000 0.000000 0.000000
0.915731 0.245106 0.049747 0.300000 0.000000 0.600000
-0.341688 0.056328 -0.251628 0.500000 0.500000 0.000000
-0.687029 -0.256932 0.035798 0.000000 0.000000 1.000000
0.875219 -0.145906 0.215822 0.500000 0.000000 0.500000
-0.469715 -0.276410 -0.119035 0.000000 0.000000 1.000000
0.440947 0.234780 -0.050439 0.800000 0.200000 0.500000
-0.734890 0.268983 -0.162422 1.000000 0.000000 0.000000
0.345051 -0.256932 0.184402 0.000000 0.000000 1.000000
-0.895754 0.168288 -0.122538 0.600000 0.000000 0.300000
0.119507 -0.153676 -0.217541 0.800000 0.200000 0.500000
0.786749 0.259244 0.225662 0.500000 0.000000 0.500000
0.470164 -0.051601 -0.031464 0.800000 0.200000 0.500000
-0.762402 0.288461 -0.215626 1.000000 0.000000 0.000000
-0.159719 0.038906 0.220595 0.500000 0.000000 0.500000
0.202032 -0.002322 0.245069 0.500000 0.000000 0.500000
-0.824462 -0.256932 -0.007833 0.000000 0.000000 1.000000
-0.469665 0.089983 -0.143875 1.000000 0.000000 0.000000
-0.720500 0.268983 -0.098635 1.000000 0.000000 0.000000
0.465331 -0.276410 -0.176904 0.000000 0.000000 1.000000
0.440947 -0.207234 0.082944 0.800000 0.200000 0.500000
-0.765741 -0.256932 0.077088 0.000000 0.000000 1.000000
0.486749 -0.040293 -0.232150 0.800000 0.200000 0.500000
-0.915232 -0.035046 -0.071801 0.600000 0.000000 0.300000
-0.852721 -0.256932 -0.063572 0.000000 0.000000 1.000000
-0.228557 -0.237785 -0.217541 0.800000 0.200000 0.500000
-0.895754 0.232777 0.147817 0.600000 0.000000 0.300000
0.913863 0.268983 0.085963 1.000000 0.000000 0.000000
0.789775 -0.219437 0.245040 0.500000 0.000000 0.500000
0.828929 0.288461 -0.167880 1.000000 0.000000 0.000000
-0.309626 -0.021275 -0.251628 0.500000 0.500000 0.000000
0.678935 0.091320 0.220595 0.500000 0.000000 0.500000
-0.521422 0.121319 -0.217541 0.800000 0.200000 0.500000
-0.860878 -0.256932 0.022128 0.000000 0.000000 1.000000
-0.309174 -0.150504 0.229880 0.500000 0.000000 0.500000
-0.579433 0.126385 0.220595 0.500000 0.000000 0.500000
0.554486 -0.286149 0.190711 0.300000 0.000000 0.600000
-0.572498 -0.260851 0.215852 0.300000 0.000000 0.600000
-0.011562 0.286775 0.215852 0.600000 0.300000 0.000000
-0.916141 -0.026608 -0.232150 0.000000 1.000000 0.000000
-0.872310 -0.117703 -0.251628 0.000000 1.000000 0.000000
0.289711 0.166284 0.220595 0.500000 0.000000 0.500000
0.470164 0.111151 0.184545 0.800000 0.200000 0.500000
-0.123702 0.228462 -0.217541 0.800000 0.200000 0.500000
-0.081368 -0.192103 -0.217541 0.800000 0.200000 0.500000
0.164056 -0.276410 0.050061 0.000000 0.000000 1.000000
0.906415 -0.276410 0.164228 0.000000 0.000000 1.000000
0.205047 0.288461 -0.001885 1.000000 0.000000 0.000000
0.898094 0.069555 0.186634 0.300000 0.600000 0.000000
0.690823 0.268983 0.036223 1.000000 0.000000 0.000000
-0.600445 -0.256932 0.161225 0.000000 0.000000 1.000000
-0.896959 0.268983 0.128099 1.000000 0.000000 0.000000
-0.349587 -0.276410 -0.140195 0.000000 0.000000 1.000000
-0.615614 -0.276410 0.065729 0.000000 0.000000 1.000000
-0.375594 0.148650 -0.217541 0.800000 0.200000 0.500000
0.070221 0.268983 -0.162812 1.000000 0.000000 0.000000
0.470164 -0.201241 0.158880 0.800000 0.200000 0.500000
0.908910 0.175999 -0.251628 0.000000 0.500000 0.500000
-0.327310 -0.276410 -0.007790 0.000000 0.000000 1.000000
0.275013 -0.153260 -0.251628 0.500000 0.000000 0.500000
0.615685 -0.256932 -0.222237 0.000000 0.000000 1.000000
-0.556705 0.288461 -0.185097 1.000000 0.000000 0.000000
-0.346837 -0.207097 -0.232150 0.800000 0.200000 0.500000
0.248395 0.288461 -0.159521 1.000000 0.000000 0.000000
0.322879 0.011895 0.220595 0.500000 0.000000 0.500000
-0.440448 0.203881 0.155618 1.000000 0.000000 0.000000
0.620199 -0.198294 -0.232150 0.800000 0.200000 0.500000
-0.413310 0.235989 0.215822 0.500000 0.000000 0.500000
0.798814 -0.276410 0.064984 0.000000 0.000000 1.000000
0.007965 0.182745 0.186634 0.000000 0.000000 1.000000
0.826379 0.268983 -0.006941 1.000000 0.000000 0.000000
0.651199 -0.163110 0.238654 0.500000 0.000000 0.500000
0.431704 -0.229706 -0.217541 0.800000 0.200000 0.500000
-0.037277 -0.168385 -0.232150 0.800000 0.200000 0.500000
0.821341 -0.145222 -0.217541 0.800000 0.200000 0.500000
0.536798 0.127530 -0.217541 0.800000 0.200000 0.500000
0.440947 0.150398 0.184956 0.800000 0.200000 0.500000
0.596978 0.198352 0.245040 0.500000 0.000000 0.500000
-0.761850 0.129325 0.220595 0.500000 0.000000 0.500000
0.915731 0.265527 -0.053822 0.300000 0.000000 0.600000
0.896253 -0.232908 -0.227448 0.300000 0.000000 0.600000
-0.792310 0.288461 -0.146505 1.000000 0.000000 0.000000
-0.469665 -0.013244 -0.089571 1.000000 0.000000 0.000000
0.405600 0.178794 0.241844 0.500000 0.000000 0.500000
-0.028438 0.268983 0.168754 1.000000 0.000000 0.000000
0.315838 0.268983 -0.065374 1.000000 0.000000 0.000000
-0.873941 0.268983 -0.073903 1.000000 0.000000 0.000000
0.225228 -0.017627 -0.232150 0.800000 0.200000 0.500000
0.434645 0.026720 0.220595 0.500000 0.000000 0.500000
0.604572 -0.276410 -0.037823 0.000000 0.000000 1.000000
-0.512540 -0.276410 -0.024118 0.000000 0.000000 1.000000
-0.344110 -0.256932 0.119363 0.000000 0.000000 1.000000
-0.588253 -0.256932 -0.063798 0.000000 0.000000 1.000000
-0.838852 0.268983 0.057234 1.000000 0.000000 0.000000
-0.253622 0.078364 -0.232150 0.800000 0.200000 0.500000
0.012779 0.095321 0.245069 0.500000 0.000000 0.500000
-0.461579 0.247130 -0.217541 0.800000 0.200000 0.500000
-0.788956 -0.276410 0.021139 0.000000 0.000000 1.000000
-0.469665 -0.114999 0.084783 1.000000 0.000000 0.000000
0.282702 0.028553 0.245069 0.500000 0.000000 0.500000
0.915731 0.253436 -0.002912 0.300000 0.000000 0.600000
0.223563 -0.286149 0.201527 0.300000 0.000000 0.600000
-0.915232 -0.028461 -0.173320 0.600000 0.000000 0.300000
-0.857104 -0.276410 -0.144950 0.000000 0.000000 1.000000
-0.014359 0.102905 0.033062 0.000000 0.000000 1.000000
0.220234 -0.241119 0.240317 0.500000 0.000000 0.500000
0.360743 0.249221 0.215852 0.600000 0.300000 0.000000
-0.440448 -0.233357 -0.105147 1.000000 0.000000 0.000000
-0.300777 -0.141000 -0.232150 0.800000 0.200000 0.500000
0.014858 0.051298 -0.087803 0.000000 0.000000 1.000000
0.440947 0.232849 0.089760 0.800000 0.200000 0.500000
0.633821 -0.276410 -0.178385 0.000000 0.000000 1.000000
0.890292 0.288461 0.040034 1.000000 0.000000 0.000000
0.658016 -0.256932 0.120114 0.000000 0.000000 1.000000
0.805316 0.123210 0.229719 0.500000 0.000000 0.500000
0.317544 -0.094930 0.245069 0.500000 0.000000 0.500000
-0.732365 -0.131823 0.220595 0.500000 0.000000 0.500000
-0.119052 0.268983 -0.048165 1.000000 0.000000 0.000000
0.234208 -0.256932 0.025301 0.000000 0.000000 1.000000
0.914570 0.288461 -0.028890 1.000000 0.000000 0.000000
-0.014359 -0.052318 0.177965 0.000000 0.000000 1.000000
-0.557818 0.069588 -0.217541 0.800000 0.200000 0.500000
-0.000875 0.288461 -0.106381 1.000000 0.000000 0.000000
-0.315203 0.113810 0.220595 0.500000 0.000000 0.500000
0.824592 -0.276410 -0.130696 0.000000 0.000000 1.000000
0.412801 0.098070 -0.232150 0.800000 0.200000 0.500000
-0.353094 0.085581 0.245069 0.500000 0.000000 0.500000
-0.565231 0.036150 0.245069 0.500000 0.000000 0.500000
-0.355711 -0.256932 -0.062011 0.000000 0.000000 1.000000
0.440947 0.110845 -0.130505 0.800000 0.200000 0.500000
-0.062876 -0.262003 -0.251628 0.000000 0.000000 1.000000
-0.469665 0.107774 -0.166107 1.000000 0.000000 0.000000
0.237181 -0.082003 -0.217541 0.800000 0.200000 0.500000
-0.625952 -0.050898 0.220595 0.500000 0.000000 0.500000
0.541163 -0.276410 0.131924 0.000000 0.000000 1.000000
0.926917 -0.276410 -0.123080 0.000000 0.000000 1.000000
-0.317933 0.156598 -0.232150 0.500000 0.500000 0.000000
0.497584 -0.276410 0.112704 0.000000 0.000000 1.000000
0.909653 -0.256932 0.086444 0.000000 0.000000 1.000000
0.130762 -0.276410 -0.017154 0.000000 0.000000 1.000000
-0.495371 -0.276410 -0.213296 0.000000 0.000000 1.000000
0.327313 -0.178637 -0.217541 0.800000 0.200000 0.500000
0.470164 -0.128362 -0.193579 0.800000 0.200000 0.500000
0.260985 -0.190669 0.215822 0.500000 0.000000 0.500000
0.014858 0.053414 0.150818 0.000000 0.000000 1.000000
-0.701073 -0.256932 0.063177 0.000000 0.000000 1.000000
-0.039845 -0.257656 0.186634 0.300000 0.000000 0.600000
0.001530 0.226158 -0.232150 0.800000 0.200000 0.500000
-0.419775 0.279938 -0.251628 1.000000 0.000000 0.000000
0.896253 0.184071 0.064581 0.300000 0.000000 0.600000
-0.412297 -0.220775 0.215822 0.500000 0.000000 0.500000
0.896253 0.000815 0.075895 0.300000 0.000000 0.600000
-0.412776 0.029027 0.220595 0.500000 0.000000 0.500000
-0.702707 -0.276410 -0.139292 0.000000 0.000000 1.000000
-0.403605 0.194416 0.245040 0.500000 0.000000 0.500000
-0.588813 0.288461 -0.214965 1.000000 0.000000 0.000000
0.241144 0.221822 -0.232150 0.800000 0.200000 0.500000
-0.259614 -0.256932 0.003627 0.000000 0.000000 1.000000
0.544785 -0.042368 0.245069 0.500000 0.000000 0.500000
0.350859 0.251160 -0.239746 0.500000 0.000000 0.500000
0.915731 -0.169961 -0.014856 0.300000 0.000000 0.600000
0.245601 0.200935 0.215822 0.500000 0.000000 0.500000
-0.184155 0.236273 0.215822 0.500000 0.000000 0.500000
-0.623468 -0.144500 -0.232150 0.600000 0.000000 0.300000
0.588103 -0.081465 0.220595 0.500000 0.000000 0.500000
-0.539995 0.239766 0.188286 0.600000 0.300000 0.000000
0.915731 -0.044702 0.057514 0.300000 0.000000 0.600000
-0.064846 0.267899 0.215852 0.600000 0.300000 0.000000
-0.915232 0.208707 0.184559 0.600000 0.000000 0.300000
0.896253 0.203247 -0.114594 0.300000 0.000000 0.600000
-0.740705 -0.276410 0.183558 0.000000 0.000000 1.000000
0.450670 0.288461 0.133022 1.000000 0.000000 0.000000
-0.455547 0.288461 0.144477 1.000000 0.000000 0.000000
-0.175717 0.085580 0.245069 0.500000 0.000000 0.500000
0.405039 0.288461 -0.051841 1.000000 0.000000 0.000000
-0.198312 -0.256932 -0.177166 0.000000 0.000000 1.000000
0.896253 -0.240926 -0.106419 0.300000 0.000000 0.600000
0.876774 -0.063488 0.211438 0.300000 0.600000 0.000000
-0.494785 -0.176500 0.245040 0.500000 0.000000 0.500000
0.137980 -0.227883 0.245040 0.500000 0.000000 0.500000
0.440947 0.012650 0.183533 0.800000 0.200000 0.500000
0.145534 0.198551 0.245040 0.500000 0.000000 0.500000
-0.201034 0.288461 -0.083792 1.000000 0.000000 0.000000
0.818339 0.140081 -0.246534 0.000000 0.500000 0.500000
0.158162 -0.244341 0.215833 0.500000 0.000000 0.500000
-0.827434 0.167387 -0.217541 0.800000 0.200000 0.500000
0.461102 -0.243499 0.186634 0.800000 0.200000 0.500000
0.915731 -0.188211 -0.211560 0.300000 0.000000 0.600000
-0.080256 -0.011121 -0.217541 0.800000 0.200000 0.500000
0.829459 0.268983 0.056546 1.000000 0.000000 0.000000
-0.327502 0.288461 -0.213808 1.000000 0.000000 0.000000
0.861549 -0.276410 -0.012967 0.000000 0.000000 1.000000
0.014858 -0.212286 0.038258 0.000000 0.000000 1.000000
-0.739743 -0.256932 0.014796 0.000000 0.000000 1.000000
0.318884 0.142658 -0.232150 0.800000 0.200000 0.500000
0.014858 0.137915 0.093230 0.000000 0.000000 1.000000
-0.440448 -0.230021 -0.001135 1.000000 0.000000 0.000000
0.156036 0.288461 -0.073974 1.000000 0.000000 0.000000
0.737879 0.226310 0.245040 0.500000 0.000000 0.500000
0.270255 -0.209413 0.245040 0.500000 0.000000 0.500000
0.018089 0.140497 0.220595 0.500000 0.000000 0.500000
0.064491 0.110517 0.220595 0.500000 0.000000 0.500000
-0.469665 0.052249 0.025104 1.000000 0.000000 0.000000
-0.120637 0.105724 0.245069 0.500000 0.000000 0.500000
0.138791 -0.276410 -0.156840 0.000000 0.000000 1.000000
0.014858 -0.037193 -0.123231 0.000000 0.000000 1.000000
0.725736 -0.145238 -0.217541 0.800000 0.200000 0.500000
-0.659007 0.288461 -0.202412 1.000000 0.000000 0.000000
-0.014359 -0.139769 -0.038411 0.000000 0.000000 1.000000
-0.299474 0.268983 -0.077059 1.000000 0.000000 0.000000
0.014858 -0.114046 0.057779 0.000000 0.000000 1.000000
-0.613400 0.288461 -0.033145 1.000000 0.000000 0.000000
0.685497 0.171185 0.220595 0.500000 0.000000 0.500000
0.139789 -0.227714 0.189073 0.300000 0.000000 0.600000
0.748888 -0.245596 0.215852 0.300000 0.000000 0.600000
0.935209 -0.253696 0.207047 0.300000 0.000000 0.600000
0.150433 0.144707 0.233481 0.500000 0.000000 0.500000
-0.169440 -0.276410 -0.038729 0.000000 0.000000 1.000000
-0.023613 -0.246913 0.233035 0.500000 0.000000 0.500000
-0.769476 -0.233048 -0.232150 0.800000 0.200000 0.500000
0.076335 -0.256932 0.080699 0.000000 0.000000 1.000000
-0.697969 -0.103383 0.245069 0.500000 0.000000 0.500000
-0.196256 0.268983 -0.172247 1.000000 0.000000 0.000000
0.466730 0.268983 -0.030046 1.000000 0.000000 0.000000
0.539044 0.185849 0.215822 0.500000 0.000000 0.500000
0.093741 -0.097444 -0.232150 0.800000 0.200000 0.500000
-0.440448 -0.161986 -0.069631 1.000000 0.000000 0.000000
0.728883 -0.253407 0.186634 0.300000 0.000000 0.600000
-0.079866 0.087872 0.220595 0.500000 0.000000 0.500000
-0.443027 0.131548 -0.232150 0.800000 0.200000 0.500000
0.440947 0.165072 0.136363 0.800000 0.200000 0.500000
-0.541369 -0.276410 0.027540 0.000000 0.000000 1.000000
-0.469665 -0.063283 0.045045 1.000000 0.000000 0.000000
-0.363878 0.268983 0.090660 1.000000 0.000000 0.000000
0.890996 0.298201 0.211725 0.600000 0.300000 0.000000
-0.665536 -0.020188 0.245069 0.500000 0.000000 0.500000
-0.060900 0.120743 0.245069 0.500000 0.000000 0.500000
-0.915232 0.021468 -0.088041 0.600000 0.000000 0.300000
-0.440448 -0.034028 -0.007019 1.000000 0.000000 0.000000
0.005081 -0.256932 0.016400 0.000000 0.000000 1.000000
0.915731 0.033492 0.092729 0.300000 0.000000 0.600000
-0.714791 0.038855 0.245069 0.500000 0.000000 0.500000
0.423004 0.099197 0.245069 0.500000 0.000000 0.500000
-0.846339 -0.256932 0.115940 0.000000 0.000000 1.000000
-0.765656 0.268983 -0.020500 1.000000 0.000000 0.000000
-0.322419 0.268983 0.000100 1.000000 0.000000 0.000000
-0.109791 -0.102116 -0.217541 0.800000 0.200000 0.500000
-0.489020 0.268983 0.142635 1.000000 0.000000 0.000000
-0.895754 -0.147580 -0.174786 0.600000 0.000000 0.300000
0.512867 -0.256932 -0.012423 0.000000 0.000000 1.000000
0.575655 0.268983 -0.247011 1.000000 0.000000 0.000000
-0.396558 -0.284598 0.186634 0.300000 0.000000 0.600000
-0.156071 -0.249248 -0.217541 0.800000 0.200000 0.500000
0.440947 0.090320 0.162554 0.800000 0.200000 0.500000
0.140302 0.268983 0.161202 1.000000 0.000000 0.000000
-0.000882 0.288461 0.042827 1.000000 0.000000 0.000000
0.915731 0.096548 -0.015803 0.300000 0.000000 0.600000
0.896253 0.173896 -0.062138 0.300000 0.000000 0.600000
-0.915232 0.159806 0.098816 0.600000 0.000000 0.300000
-0.915232 -0.073877 -0.138706 0.600000 0.000000 0.300000
0.810489 0.093999 0.231948 0.500000 0.000000 0.500000
-0.662749 -0.177617 0.215822 0.500000 0.000000 0.500000
-0.469665 -0.061774 -0.007587 1.000000 0.000000 0.000000
0.874192 0.153682 -0.232150 0.000000 0.500000 0.500000
0.621807 -0.256932 -0.089690 0.000000 0.000000 1.000000
-0.014359 0.261189 0.096192 0.000000 0.000000 1.000000
-0.469665 -0.117206 0.026106 1.000000 0.000000 0.000000
-0.608288 -0.170993 0.245040 0.500000 0.000000 0.500000
0.293654 0.288461 0.036445 1.000000 0.000000 0.000000
-0.641949 -0.276410 0.038100 0.000000 0.000000 1.000000
0.875444 0.268983 -0.149309 1.000000 0.000000 0.000000
0.588674 -0.057593 -0.232150 0.800000 0.200000 0.500000
0.051696 0.288461 -0.009549 1.000000 0.000000 0.000000
-0.920628 0.131763 0.215852 0.600000 0.000000 0.300000
-0.677647 0.153233 -0.232150 0.800000 0.200000 0.500000
0.648170 -0.276410 -0.001283 0.000000 0.000000 1.000000
0.820398 -0.079312 -0.232150 0.000000 0.500000 0.500000
0.854602 -0.276410 -0.193330 0.000000 0.000000 1.000000
0.076133 -0.256932 -0.021931 0.000000 0.000000 1.000000
-0.246265 -0.225842 0.215822 0.500000 0.000000 0.500000
-0.079094 -0.256932 -0.047228 0.000000 0.000000 1.000000
0.809134 0.268983 0.037610 1.000000 0.000000 0.000000
-0.422015 0.109387 -0.232150 0.800000 0.200000 0.500000
-0.855189 -0.021035 -0.232150 0.800000 0.200000 0.500000
0.021351 -0.100237 0.245069 0.500000 0.000000 0.500000
0.896253 -0.158281 0.037830 0.300000 0.000000 0.600000
-0.120092 0.288461 -0.130417 1.000000 0.000000 0.000000
0.573749 0.288461 0.119191 1.000000 0.000000 0.000000
0.632139 -0.223300 0.245040 0.500000 0.000000 0.500000
-0.915232 0.223550 -0.223678 0.600000 0.000000 0.300000
-0.645653 -0.093341 -0.217541 0.800000 0.200000 0.500000
0.508809 0.268983 -0.118233 1.000000 0.000000 0.000000
-0.885692 -0.256932 -0.024008 0.000000 0.000000 1.000000
0.915731 -0.077410 0.145622 0.300000 0.000000 0.600000
0.905386 0.162907 0.186634 0.300000 0.600000 0.000000
0.524478 0.288461 -0.021624 1.000000 0.000000 0.000000
0.104632 0.035690 -0.217541 0.800000 0.200000 0.500000
0.362787 0.046538 -0.232150 0.800000 0.200000 0.500000
0.201395 -0.231036 -0.232150 0.800000 0.200000 0.500000
-0.493818 -0.037255 0.220595 0.500000 0.000000 0.500000
-0.686943 -0.256932 -0.127427 0.000000 0.000000 1.000000
0.470164 0.186591 0.115447 0.800000 0.200000 0.500000
0.759170 0.257436 -0.232150 0.800000 0.200000 0.500000
-0.313111 -0.041363 0.245069 0.500000 0.000000 0.500000
0.880742 0.222164 -0.232150 0.800000 0.200000 0.500000
0.915731 -0.254490 -0.191088 0.300000 0.000000 0.600000
-0.069373 0.288461 -0.007047 1.000000 0.000000 0.000000
-0.915232 -0.249712 -0.182921 0.600000 0.000000 0.300000
-0.174846 -0.143270 -0.232150 0.800000 0.200000 0.500000
-0.824487 -0.256932 -0.200319 0.000000 0.000000 1.000000
0.051015 -0.276410 -0.200030 0.000000 0.000000 1.000000
0.256379 0.010445 0.220595 0.500000 0.000000 0.500000
-0.419138 0.022842 -0.217541 0.800000 0.200000 0.500000
-0.391413 -0.158337 -0.232150 0.800000 0.200000 0.500000
0.445194 -0.256932 -0.215146 0.000000 0.000000 1.000000
-0.543152 -0.256932 0.083866 0.000000 0.000000 1.000000
-0.534137 -0.256932 -0.019325 0.000000 0.000000 1.000000
0.916527 -0.005310 -0.232150 0.000000 0.500000 0.500000
0.216480 0.020831 0.220595 0.500000 0.000000 0.500000
-0.654493 0.031203 0.245069 0.500000 0.000000 0.500000
0.299164 -0.158458 -0.232150 0.800000 0.200000 0.500000
0.645238 0.268983 -0.153487 1.000000 0.000000 0.000000
-0.469665 -0.016693 -0.190530 1.000000 0.000000 0.000000
0.725583 0.276481 0.215852 0.600000 0.300000 0.000000
0.236477 -0.206837 -0.251628 0.500000 0.000000 0.500000
-0.014359 -0.171508 -0.135590 0.000000 0.000000 1.000000
-0.915232 -0.062164 -0.202798 0.600000 0.000000 0.300000
0.470164 -0.161864 -0.151203 0.800000 0.200000 0.500000
0.852374 -0.211379 -0.232150 0.800000 0.200000 0.500000
-0.014359 -0.113566 -0.050528 0.000000 0.000000 1.000000
0.601145 -0.256932 -0.184679 0.000000 0.000000 1.000000
0.915731 -0.046552 -0.067412 0.300000 0.000000 0.600000
0.209444 -0.255570 0.186634 0.300000 0.000000 0.600000
-0.427505 -0.239038 -0.232150 0.800000 0.200000 0.500000
-0.865016 -0.276410 -0.084725 0.000000 0.000000 1.000000
-0.895754 0.213715 0.040415 0.600000 0.000000 0.300000
0.365376 0.288461 0.132675 1.000000 0.000000 0.000000
0.250904 -0.239659 -0.217541 0.800000 0.200000 0.500000
-0.440448 -0.065021 0.037046 1.000000 0.000000 0.000000
0.073283 0.175638 0.215822 0.500000 0.000000 0.500000
0.627351 -0.068937 0.245069 0.500000 0.000000 0.500000
0.068648 0.288461 0.080098 1.000000 0.000000 0.000000
0.269089 0.126267 0.220595 0.500000 0.000000 0.500000
0.459342 0.242642 0.215852 0.600000 0.300000 0.000000
0.790806 -0.235864 0.215852 0.300000 0.000000 0.600000
-0.888845 -0.053930 0.215852 0.600000 0.000000 0.300000
0.100638 0.268983 -0.040964 1.000000 0.000000 0.000000
-0.257374 -0.256932 -0.027839 0.000000 0.000000 1.000000
-0.603232 0.239341 -0.232150 0.800000 0.200000 0.500000
0.711629 0.268983 0.173300 1.000000 0.000000 0.000000
0.904080 0.249379 0.186634 0.600000 0.300000 0.000000
0.913349 -0.256932 -0.219976 0.000000 0.000000 1.000000
-0.267427 -0.230791 0.245040 0.500000 0.000000 0.500000
0.431373 -0.276410 -0.123119 0.000000 0.000000 1.000000
0.721087 -0.256932 0.147827 0.000000 0.000000 1.000000
-0.481844 -0.256932 0.110724 0.000000 0.000000 1.000000
0.102505 0.077710 -0.217541 0.800000 0.200000 0.500000
-0.329959 0.268983 -0.171280 1.000000 0.000000 0.000000
0.750757 -0.233649 -0.217541 0.800000 0.200000 0.500000
0.579275 0.288461 -0.003922 1.000000 0.000000 0.000000
0.897370 -0.276410 -0.038919 0.000000 0.000000 1.000000
-0.538433 0.181601 -0.232150 0.800000 0.200000 0.500000
-0.862654 -0.097309 -0.217541 0.800000 0.200000 0.500000
0.530208 -0.265432 0.215852 0.300000 0.000000 0.600000
-0.581069 0.288461 -0.149869 1.000000 0.000000 0.000000
-0.678229 0.048386 0.245069 0.500000 0.000000 0.500000
0.055591 -0.276410 -0.065842 0.000000 0.000000 1.000000
0.627194 -0.276410 0.157647 0.000000 0.000000 1.000000
-0.296841 -0.256932 -0.009969 0.000000 0.000000 1.000000
-0.907625 0.288461 -0.032150 1.000000 0.000000 0.000000
-0.290393 0.071840 0.245069 0.500000 0.000000 0.500000
0.080404 0.011308 0.220595 0.500000 0.000000 0.500000
0.440947 0.007817 -0.093647 0.800000 0.200000 0.500000
0.847089 0.262268 -0.232150 0.000000 0.500000 0.500000
0.915731 0.237632 -0.050089 0.300000 0.000000 0.600000
0.836523 -0.163945 0.245040 0.500000 0.000000 0.500000
-0.715645 0.059580 0.220595 0.500000 0.000000 0.500000
0.816854 -0.227714 0.212421 0.300000 0.000000 0.600000
-0.440448 0.073936 -0.124159 1.000000 0.000000 0.000000
0.623891 0.287981 0.186634 0.600000 0.300000 0.000000
0.014858 0.195127 -0.107288 0.000000 0.000000 1.000000
0.808534 -0.188915 -0.217541 0.800000 0.200000 0.500000
-0.814272 -0.276410 0.089508 0.000000 0.000000 1.000000
0.329234 -0.276410 -0.180603 0.000000 0.000000 1.000000
-0.247367 0.049522 -0.251628 0.500000 0.500000 0.000000
0.286652 -0.256932 -0.014656 0.000000 0.000000 1.000000
0.847728 -0.256932 0.094732 0.000000 0.000000 1.000000
-0.530378 -0.236456 0.215822 0.500000 0.000000 0.500000
0.025593 0.288461 0.014300 1.000000 0.000000 0.000000
-0.097923 -0.219528 -0.232150 0.800000 0.200000 0.500000
-0.626206 0.268983 0.021162 1.000000 0.000000 0.000000
0.610686 -0.276410 0.016201 0.000000 0.000000 1.000000
0.353262 -0.171098 0.245040 0.500000 0.000000 0.500000
0.856150 0.268983 0.007846 1.000000 0.000000 0.000000
0.699151 0.268983 -0.099218 1.000000 0.000000 0.000000
0.285851 -0.099415 -0.232150 0.800000 0.200000 0.500000
0.780580 0.268983 0.040605 1.000000 0.000000 0.000000
-0.216175 -0.256932 -0.018273 0.000000 0.000000 1.000000
0.440947 -0.100176 0.170432 0.800000 0.200000 0.500000
0.608436 0.090136 -0.217541 0.800000 0.200000 0.500000
0.569255 0.268983 0.165188 1.000000 0.000000 0.000000
0.365440 0.188998 0.215822 0.500000 0.000000 0.500000
-0.407292 0.288461 -0.026075 1.000000 0.000000 0.000000
0.218756 -0.131023 -0.232150 0.800000 0.200000 0.500000
-0.405921 0.288461 -0.090448 1.000000 0.000000 0.000000
0.014858 -0.108318 -0.048473 0.000000 0.000000 1.000000
0.146849 0.277677 0.186634 0.600000 0.300000 0.000000
-0.895975 -0.114751 -0.232150 0.000000 1.000000 0.000000
0.896253 0.079219 -0.181962 0.300000 0.000000 0.600000
-0.651321 0.122430 -0.217541 0.800000 0.200000 0.500000
-0.724296 -0.221674 0.215822 0.500000 0.000000 0.500000
-0.440448 0.221798 -0.143608 1.000000 0.000000 0.000000
-0.140643 -0.263579 0.215852 0.300000 0.000000 0.600000
-0.895754 -0.178750 0.161306 0.600000 0.000000 0.300000
0.263190 -0.256932 0.126864 0.000000 0.000000 1.000000
-0.222044 -0.276410 -0.153493 0.000000 0.000000 1.000000
0.051362 0.268983 -0.068557 1.000000 0.000000 0.000000
0.470164 -0.016895 -0.172908 0.800000 0.200000 0.500000
0.249742 0.203864 -0.251628 0.500000 0.000000 0.500000
0.170149 0.288461 0.098141 1.000000 0.000000 0.000000
0.270016 -0.256932 -0.168691 0.000000 0.000000 1.000000
-0.915232 -0.231582 -0.123403 0.600000 0.000000 0.300000
-0.889448 -0.020651 -0.251628 0.000000 1.000000 0.000000
0.114496 0.288461 0.157082 1.000000 0.000000 0.000000
-0.833926 0.118413 -0.232150 0.000000 1.000000 0.000000
0.540897 -0.276410 -0.120831 0.000000 0.000000 1.000000
0.342723 0.268983 -0.060157 1.000000 0.000000 0.000000
-0.165178 0.298201 0.188089 0.600000 0.300000 0.000000
-0.023544 0.251233 0.241029 0.500000 0.000000 0.500000
-0.469665 -0.237082 -0.041826 1.000000 0.000000 0.000000
-0.560401 -0.227714 0.190696 0.300000 0.000000 0.600000
0.440947 -0.132744 -0.021274 0.800000 0.200000 0.500000
0.533020 0.288461 -0.222039 1.000000 0.000000 0.000000
-0.915232 0.086515 -0.231353 0.600000 0.000000 0.300000
0.896253 -0.003770 0.043234 0.300000 0.000000 0.600000
0.020413 -0.157429 -0.232150 0.800000 0.200000 0.500000
-0.440448 -0.000078 -0.177727 1.000000 0.000000 0.000000
-0.573300 -0.171455 -0.217541 0.800000 0.200000 0.500000
-0.195721 0.167808 -0.232150 0.800000 0.200000 0.500000
-0.915232 -0.191660 -0.017178 0.600000 0.000000 0.300000
0.244474 -0.237286 0.215822 0.500000 0.000000 0.500000
-0.469665 0.098568 -0.089638 1.000000 0.000000 0.000000
0.246596 -0.031296 0.220595 0.500000 0.000000 0.500000
-0.440448 -0.071452 0.134086 1.000000 0.000000 0.000000
0.778758 0.050888 0.220595 0.500000 0.000000 0.500000
-0.036393 0.031491 -0.232150 0.800000 0.200000 0.500000
-0.844230 -0.091823 -0.251628 0.000000 1.000000 0.000000
0.099148 0.149027 -0.217541 0.800000 0.200000 0.500000
-0.198637 -0.021936 0.220595 0.500000 0.000000 0.500000
0.357878 -0.256932 -0.221710 0.000000 0.000000 1.000000
-0.934711 0.263889 0.201014 0.600000 0.300000 0.000000
0.761122 -0.096419 0.220595 0.500000 0.000000 0.500000
-0.861676 -0.220515 -0.251628 0.000000 1.000000 0.000000
-0.247901 0.209685 -0.232150 0.500000 0.500000 0.000000
0.915731 0.166781 0.127506 0.300000 0.000000 0.600000
-0.630175 -0.097925 0.245069 0.500000 0.000000 0.500000
0.196747 0.268983 -0.162805 1.000000 0.000000 0.000000
0.160987 -0.091320 -0.217541 0.800000 0.200000 0.500000
0.677537 0.031778 -0.217541 0.800000 0.200000 0.500000
-0.205899 0.237770 0.245040 0.500000 0.000000 0.500000
-0.420107 0.268983 0.117295 1.000000 0.000000 0.000000
0.236259 -0.276410 -0.037797 0.000000 0.000000 1.000000
0.244101 0.298201 0.213421 0.600000 0.300000 0.000000
0.520975 -0.056569 0.220595 0.500000 0.000000 0.500000
-0.190792 0.268983 -0.229679 1.000000 0.000000 0.000000
0.717767 0.268983 -0.048825 1.000000 0.000000 0.000000
0.687187 0.249631 0.241351 0.500000 0.000000 0.500000
0.470164 0.057238 0.086478 0.800000 0.200000 0.500000
0.096699 -0.276410 0.036921 0.000000 0.000000 1.000000
0.440947 -0.184851 0.165363 0.800000 0.200000 0.500000
-0.853428 -0.033330 0.215822 0.500000 0.000000 0.500000
-0.780046 -0.122454 0.233971 0.500000 0.000000 0.500000
0.014858 0.096605 0.182947 0.000000 0.000000 1.000000
-0.882009 -0.109427 0.245040 0.500000 0.000000 0.500000
-0.653773 0.127247 0.220595 0.500000 0.000000 0.500000
-0.469665 -0.107057 -0.037480 1.000000 0.000000 0.000000
0.005350 -0.084223 -0.232150 0.800000 0.200000 0.500000
-0.649241 0.194910 -0.217541 0.800000 0.200000 0.500000
0.933912 0.035366 -0.251628 0.000000 0.500000 0.500000
0.671711 -0.261346 -0.251628 0.000000 0.000000 1.000000
-0.794639 -0.039094 0.230003 0.500000 0.000000 0.500000
0.311883 -0.065145 -0.251628 0.500000 0.000000 0.500000
0.664055 -0.209333 -0.217541 0.800000 0.200000 0.500000
-0.802509 -0.256932 -0.232206 0.000000 0.000000 1.000000
-0.367330 -0.256932 -0.000946 0.000000 0.000000 1.000000
-0.355312 -0.276410 -0.171712 0.000000 0.000000 1.000000
-0.409315 -0.256932 -0.012928 0.000000 0.000000 1.000000
-0.197311 0.288461 -0.125791 1.000000 0.000000 0.000000
0.470164 -0.033108 0.004532 0.800000 0.200000 0.500000
-0.494077 -0.159208 -0.217541 0.800000 0.200000 0.500000
0.916650 -0.256932 -0.011882 0.000000 0.000000 1.000000
-0.027531 -0.256932 0.130491 0.000000 0.000000 1.000000
0.896253 -0.025430 -0.093275 0.300000 0.000000 0.600000
0.545138 -0.276410 -0.067126 0.000000 0.000000 1.000000
-0.006771 -0.271213 -0.251628 0.000000 0.000000 1.000000
0.888235 -0.073476 0.186634 0.300000 0.600000 0.000000
0.915731 -0.186894 -0.052721 0.300000 0.000000 0.600000
0.859772 -0.211378 0.245040 0.500000 0.000000 0.500000
-0.014359 -0.204012 0.164173 0.000000 0.000000 1.000000
-0.014359 -0.031629 -0.037100 0.000000 0.000000 1.000000
0.276619 0.268983 0.008221 1.000000 0.000000 0.000000
0.603059 0.288461 -0.110409 1.000000 0.000000 0.000000
-0.335831 0.268983 0.094345 1.000000 0.000000 0.000000
-0.915232 -0.112509 -0.149887 0.600000 0.000000 0.300000
0.001571 -0.276410 -0.113403 0.000000 0.000000 1.000000
-0.915232 -0.163830 0.065280 0.600000 0.000000 0.300000
0.915731 0.221787 -0.202161 0.300000 0.000000 0.600000
0.117255 -0.064031 0.220595 0.500000 0.000000 0.500000
-0.876600 0.083036 -0.232150 0.800000 0.200000 0.500000
-0.017565 0.115261 -0.232150 0.800000 0.200000 0.500000
-0.150913 -0.127176 0.234931 0.500000 0.000000 0.500000
0.268618 -0.276410 -0.062085 0.000000 0.000000 1.000000
-0.605500 0.156763 0.230041 0.500000 0.000000 0.500000
-0.703604 0.288461 0.080473 1.000000 0.000000 0.000000
0.013883 0.091001 -0.232150 0.800000 0.200000 0.500000
0.349652 0.141879 -0.217541 0.800000 0.200000 0.500000
-0.606688 0.268983 0.125507 1.000000 0.000000 0.000000
-0.638409 -0.156639 0.229708 0.500000 0.000000 0.500000
-0.274141 0.008840 -0.251628 0.500000 0.500000 0.000000
0.934953 0.217105 -0.232150 0.000000 0.500000 0.500000
-0.014359 -0.139081 -0.198199 0.000000 0.000000 1.000000
0.928621 -0.136303 0.215852 0.300000 0.600000 0.000000
0.200540 0.268983 0.139205 1.000000 0.000000 0.000000
-0.272191 -0.184814 -0.251628 0.500000 0.500000 0.000000
0.186600 0.268983 0.060344 1.000000 0.000000 0.000000
0.599002 -0.237460 0.215822 0.500000 0.000000 0.500000
0.930357 -0.256932 0.175636 0.000000 0.000000 1.000000
0.413001 -0.256932 0.109170 0.000000 0.000000 1.000000
0.074297 0.242608 0.215852 0.600000 0.300000 0.000000
0.440947 0.215003 -0.010503 0.800000 0.200000 0.500000
0.717495 0.288461 -0.010415 1.000000 0.000000 0.000000
-0.381907 0.147997 0.232110 0.500000 0.000000 0.500000
-0.090761 -0.276410 -0.213390 0.000000 0.000000 1.000000
-0.915232 0.203848 0.013279 0.600000 0.000000 0.300000
-0.444432 0.071636 0.245069 0.500000 0.000000 0.500000
-0.469665 0.173931 0.032380 1.000000 0.000000 0.000000
0.501164 0.254438 0.239552 0.500000 0.000000 0.500000
0.173769 -0.162834 0.238274 0.500000 0.000000 0.500000
0.408719 -0.158001 -0.217541 0.800000 0.200000 0.500000
0.303950 0.268983 0.112628 1.000000 0.000000 0.000000
-0.014359 0.161995 -0.012878 0.000000 0.000000 1.000000
-0.915232 -0.043676 0.142352 0.600000 0.000000 0.300000
0.136765 -0.261348 0.186634 0.300000 0.000000 0.600000
0.796284 0.228265 -0.232150 0.800000 0.200000 0.500000
0.522276 0.015646 0.245069 0.500000 0.000000 0.500000
0.892057 -0.064659 0.239152 0.500000 0.000000 0.500000
-0.014359 -0.174579 -0.086832 0.000000 0.000000 1.000000
-0.529163 -0.112522 0.240710 0.500000 0.000000 0.500000
-0.014359 0.258696 0.029986 0.000000 0.000000 1.000000
0.492302 -0.256932 0.038431 0.000000 0.000000 1.000000
0.340183 -0.276410 -0.075833 0.000000 0.000000 1.000000
-0.491077 0.268983 -0.240824 1.000000 0.000000 0.000000
-0.424784 0.288461 -0.048489 1.000000 0.000000 0.000000
0.371022 0.009693 0.245069 0.500000 0.000000 0.500000
0.349559 -0.276410 0.043645 0.000000 0.000000 1.000000
0.278946 0.154705 -0.232150 0.800000 0.200000 0.500000
-0.278923 -0.276410 -0.102383 0.000000 0.000000 1.000000
-0.864910 0.268983 0.005942 1.000000 0.000000 0.000000
0.792467 0.257208 0.186634 0.600000 0.300000 0.000000
0.462058 0.208388 0.245040 0.500000 0.000000 0.500000
-0.915232 0.046970 0.052845 0.600000 0.000000 0.300000
0.135212 0.051500 0.220595 0.500000 0.000000 0.500000
0.646272 0.239766 0.206227 0.600000 0.300000 0.000000
0.893118 0.234076 0.215822 0.500000 0.000000 0.500000
-0.469665 -0.212298 -0.058371 1.000000 0.000000 0.000000
0.502377 -0.006847 -0.217541 0.800000 0.200000 0.500000
0.855492 -0.026748 0.245040 0.500000 0.000000 0.500000
0.834630 0.016762 -0.251628 0.000000 0.500000 0.500000
0.476132 -0.276410 -0.098918 0.000000 0.000000 1.000000
-0.190065 0.200077 -0.232150 0.800000 0.200000 0.500000
-0.846149 -0.217738 -0.217541 0.800000 0.200000 0.500000
-0.146227 -0.256932 0.171825 0.000000 0.000000 1.000000
-0.152006 -0.089044 -0.217541 0.800000 0.200000 0.500000
-0.895754 -0.056760 -0.118514 0.600000 0.000000 0.300000
0.710172 0.048070 0.245069 0.500000 0.000000 0.500000
-0.762693 -0.256932 -0.008550 0.000000 0.000000 1.000000
0.240522 0.084050 0.220595 0.500000 0.000000 0.500000
-0.895754 0.120663 -0.177577 0.600000 0.000000 0.300000
0.292525 -0.258599 -0.251628 0.000000 0.000000 1.000000
0.717759 0.050097 -0.217541 0.800000 0.200000 0.500000
-0.440448 -0.215676 0.132647 1.000000 0.000000 0.000000
0.520553 -0.158763 0.229649 0.500000 0.000000 0.500000
-0.440448 0.000424 0.057259 1.000000 0.000000 0.000000
0.711575 0.239987 0.215852 0.600000 0.300000 0.000000
-0.116475 -0.252012 -0.232150 0.800000 0.200000 0.500000
0.513910 0.276046 0.215852 0.600000 0.300000 0.000000
-0.112059 -0.141067 0.220595 0.500000 0.000000 0.500000
0.523005 0.082734 0.245069 0.500000 0.000000 0.500000
0.283150 0.076277 0.220595 0.500000 0.000000 0.500000
-0.407099 0.057938 0.220595 0.500000 0.000000 0.500000
-0.633397 0.268983 -0.041469 1.000000 0.000000 0.000000
0.238132 -0.128533 0.234715 0.500000 0.000000 0.500000
-0.216691 0.147874 0.232162 0.500000 0.000000 0.500000
0.934634 0.054017 0.215852 0.300000 0.600000 0.000000
0.915731 0.080278 0.093652 0.300000 0.000000 0.600000
-0.440448 -0.113417 0.101869 1.000000 0.000000 0.000000
-0.915232 0.075861 -0.030859 0.600000 0.000000 0.300000
-0.069969 0.268983 -0.103894 1.000000 0.000000 0.000000
-0.440448 0.038437 -0.190509 1.000000 0.000000 0.000000
0.915731 0.080574 -0.118892 0.300000 0.000000 0.600000
0.465522 -0.256932 -0.249915 0.000000 0.000000 1.000000
-0.269187 0.255977 0.215822 0.500000 0.000000 0.500000
0.014858 0.000416 0.110441 0.000000 0.000000 1.000000
-0.497551 0.255623 0.215852 0.600000 0.300000 0.000000
-0.372135 0.175507 0.215822 0.500000 0.000000 0.500000
-0.085564 0.135968 -0.232150 0.800000 0.200000 0.500000
-0.469665 0.161207 -0.037485 1.000000 0.000000 0.000000
-0.915232 -0.248075 0.046069 0.600000 0.000000 0.300000
-0.123448 0.126752 0.220595 0.500000 0.000000 0.500000
-0.048081 0.100480 -0.232150 0.800000 0.200000 0.500000
0.592350 -0.256932 -0.089619 0.000000 0.000000 1.000000
0.040132 -0.029574 0.220595 0.500000 0.000000 0.500000
-0.224079 0.268983 -0.143527 1.000000 0.000000 0.000000
0.619008 -0.256932 0.129971 0.000000 0.000000 1.000000
0.091382 -0.256932 -0.086290 0.000000 0.000000 1.000000
-0.162265 0.288461 -0.084642 1.000000 0.000000 0.000000
0.154135 0.170038 -0.217541 0.800000 0.200000 0.500000
-0.482668 -0.256932 -0.099445 0.000000 0.000000 1.000000
0.255451 0.156929 -0.251628 0.500000 0.000000 0.500000
-0.014359 0.154386 -0.114189 0.000000 0.000000 1.000000
0.388217 0.268983 -0.179090 1.000000 0.000000 0.000000
-0.911528 -0.252801 0.215852 0.300000 0.000000 0.600000
-0.907302 -0.276410 -0.026638 0.000000 0.000000 1.000000
0.732250 -0.276410 -0.175950 0.000000 0.000000 1.000000
0.394495 0.268983 0.004810 1.000000 0.000000 0.000000
-0.452893 -0.012616 0.186634 1.000000 0.000000 0.000000
0.644718 -0.003360 0.220595 0.500000 0.000000 0.500000
-0.402799 -0.256932 -0.184428 0.000000 0.000000 1.000000
0.895222 0.268983 -0.130459 1.000000 0.000000 0.000000
0.583473 0.075090 0.220595 0.500000 0.000000 0.500000
0.235950 0.062266 -0.232150 0.500000 0.000000 0.500000
0.461805 0.288461 -0.086009 1.000000 0.000000 0.000000
0.025532 0.258584 0.234003 0.500000 0.000000 0.500000
0.233892 -0.256932 0.144087 0.000000 0.000000 1.000000
-0.440448 0.213887 0.086173 1.000000 0.000000 0.000000
0.896253 -0.107241 -0.189193 0.300000 0.000000 0.600000
0.470164 0.228169 -0.099749 0.800000 0.200000 0.500000
0.043655 -0.227714 0.210672 0.300000 0.000000 0.600000
0.631790 -0.256932 -0.027573 0.000000 0.000000 1.000000
-0.298901 -0.069479 -0.232150 0.500000 0.500000 0.000000
0.816263 -0.012575 0.242079 0.500000 0.000000 0.500000
-0.469665 0.265615 -0.039481 1.000000 0.000000 0.000000
-0.447279 -0.276410 -0.079127 0.000000 0.000000 1.000000
0.902426 0.288461 0.016019 1.000000 0.000000 0.000000
0.915731 -0.082415 -0.027264 0.300000 0.000000 0.600000
0.807603 -0.256932 0.136587 0.000000 0.000000 1.000000
-0.440448 -0.084736 -0.125467 1.000000 0.000000 0.000000
0.440947 0.136233 0.008087 0.800000 0.200000 0.500000
-0.915232 0.179788 -0.081728 0.600000 0.000000 0.300000
0.470164 -0.167355 0.159413 0.800000 0.200000 0.500000
0.414479 0.288461 0.175966 1.000000 0.000000 0.000000
0.436254 -0.064596 -0.232150 0.800000 0.200000 0.500000
0.774532 -0.182935 0.215822 0.500000 0.000000 0.500000
0.711555 -0.276410 -0.038010 0.000000 0.000000 1.000000
-0.451546 -0.276410 0.131261 0.000000 0.000000 1.000000
0.316043 0.268983 -0.163972 1.000000 0.000000 0.000000
-0.448962 -0.286149 0.194588 0.300000 0.000000 0.600000
-0.895754 0.085056 0.024742 0.600000 0.000000 0.300000
0.915731 -0.248318 -0.066323 0.300000 0.000000 0.600000
