ply
format ascii 1.0
element vertex 639
property float x
property float y
property float z
property float nx
property float ny
property float nz
property uchar red
property uchar green
property uchar blue
property float opacity
end_header
0.156575 -0.066188 -0.294064 0.000000 -0.000000 1.000000 170 170 170 1.000000
0.244624 -0.302815 0.391106 0.000000 -0.000000 1.000000 58 58 58 0.501961
-0.625779 -0.006051 -0.138510 -1.000000 0.000000 0.000000 170 170 170 1.000000
0.558115 0.478709 0.047991 -0.000020 1.000000 -0.000054 0 0 0 1.000000
-0.354415 0.478685 -0.141418 0.000020 -1.000000 0.000054 0 0 0 1.000000
0.264658 0.312145 -0.378208 0.000000 -0.000000 1.000000 0 0 0 1.000000
0.304997 -0.315949 0.073775 0.000000 1.000000 0.000000 170 170 170 1.000000
0.087611 -0.458859 -0.246104 0.000000 -1.000000 -0.000000 138 135 154 1.000000
-0.160838 0.478698 0.249151 0.000020 -1.000000 0.000054 0 0 0 1.000000
-0.333758 -0.394447 -0.378208 0.000000 0.000000 -1.000000 0 0 0 1.000000
-0.745902 0.291321 -0.136535 -1.000000 0.000026 0.000033 0 0 0 1.000000
-0.022282 0.334495 0.283137 0.000000 -1.000000 -0.000000 170 170 170 1.000000
0.838923 0.135165 -0.378208 0.000000 -0.000000 1.000000 0 0 0 1.000000
0.129657 0.478718 0.229947 0.000020 -1.000000 0.000054 0 0 0 1.000000
0.564538 0.462659 0.391106 0.000000 0.000000 -1.000000 170 170 170 1.000000
-0.000084 -0.315949 0.001892 0.000000 1.000000 0.000000 170 170 170 1.000000
0.468089 -0.086876 0.262067 1.000000 0.000000 0.000000 138 135 154 1.000000
-0.087797 -0.241387 -0.294064 0.000000 -0.000000 1.000000 170 170 170 1.000000
0.391542 0.478677 -0.224613 0.000020 -1.000000 0.000054 0 0 0 1.000000
-0.672621 0.344008 0.391106 0.000000 -0.000000 1.000000 0 0 0 1.000000
-0.191105 -0.478060 0.391106 0.000000 0.000000 -1.000000 0 0 0 1.000000
0.468089 -0.458848 0.384383 1.000000 0.000000 0.000000 0 0 0 1.000000
0.059253 -0.395242 0.391106 0.000000 0.000000 -1.000000 170 170 170 1.000000
0.070592 0.110336 0.343023 0.000000 0.000000 -1.000000 58 58 58 0.501961
0.714052 0.281326 0.391106 0.000000 -0.000000 1.000000 170 170 170 1.000000
0.282221 -0.336408 -0.294064 0.000000 -0.000000 1.000000 227 224 221 1.000000
0.371924 -0.132989 -0.082187 -1.000000 0.000000 0.000000 170 170 170 1.000000
0.840687 -0.403182 0.035826 1.000000 0.000007 -0.000076 0 0 0 1.000000
-0.066769 0.478676 -0.233020 -0.000020 1.000000 -0.000054 0 0 0 1.000000
-0.745902 0.303277 0.050763 -1.000000 0.000026 0.000033 0 0 0 1.000000
0.163328 -0.482891 0.042041 0.000007 1.000000 0.000033 0 0 0 1.000000
-0.625130 0.478666 -0.288737 -0.000020 1.000000 -0.000054 0 0 0 1.000000
0.173379 0.327103 0.343023 0.000000 0.000000 -1.000000 58 58 58 0.501961
-0.630349 0.454701 0.225410 0.000000 1.000000 0.000000 138 135 154 1.000000
-0.597048 -0.344784 -0.378208 0.000000 0.000000 -1.000000 0 0 0 1.000000
0.119609 0.478697 -0.050442 -0.000020 1.000000 -0.000054 0 0 0 1.000000
-0.468851 0.177129 0.343023 0.000000 -0.000000 1.000000 58 58 58 0.501961
-0.713622 -0.199847 -0.294064 0.000000 -0.000000 1.000000 227 224 221 1.000000
-0.625779 -0.171960 -0.172226 -1.000000 0.000000 0.000000 170 170 170 1.000000
0.840642 0.343883 0.025837 -1.000000 -0.000007 0.000076 0 0 0 1.000000
-0.745902 0.053680 -0.199117 -1.000000 0.000026 0.000033 0 0 0 1.000000
0.758960 -0.153798 0.391106 0.000000 -0.000000 1.000000 0 0 0 1.000000
-0.652410 -0.458859 -0.098732 0.000000 1.000000 0.000000 227 224 221 1.000000
-0.216472 0.334495 0.021932 0.000000 -1.000000 -0.000000 170 170 170 1.000000
0.840642 -0.176964 -0.240211 1.000000 0.000007 -0.000076 0 0 0 1.000000
-0.605800 0.105832 -0.378208 0.000000 -0.000000 1.000000 0 0 0 1.000000
-0.286715 -0.126056 -0.378208 0.000000 0.000000 -1.000000 0 0 0 1.000000
0.828758 0.327426 -0.378208 0.000000 0.000000 -1.000000 0 0 0 1.000000
0.095949 0.408631 -0.378208 0.000000 -0.000000 1.000000 0 0 0 1.000000
-0.625779 0.158665 0.025013 -1.000000 0.000000 0.000000 170 170 170 1.000000
-0.553611 0.334495 0.250885 0.000000 1.000000 0.000000 170 170 170 1.000000
-0.461480 0.334495 -0.264858 0.000000 1.000000 0.000000 170 170 170 1.000000
-0.530853 -0.364319 0.391106 0.000000 0.000000 -1.000000 0 0 0 1.000000
0.410884 0.360120 -0.378208 0.000000 0.000000 -1.000000 0 0 0 1.000000
-0.745902 -0.264514 0.327958 -1.000000 0.000026 0.000033 0 0 0 1.000000
0.478000 0.023398 -0.378208 0.000000 -0.000000 1.000000 0 0 0 1.000000
-0.745902 0.007903 -0.063243 -1.000000 0.000026 0.000033 0 0 0 1.000000
-0.745902 0.196129 -0.248931 -1.000000 0.000026 0.000033 0 0 0 1.000000
0.468089 0.345030 0.041246 1.000000 0.000000 0.000000 138 135 154 1.000000
0.191570 0.186348 0.343023 0.000000 0.000000 -1.000000 58 58 58 0.501961
0.468089 0.079124 -0.069982 1.000000 0.000000 0.000000 138 135 154 1.000000
-0.745902 -0.249081 0.043583 -1.000000 0.000026 0.000033 0 0 0 1.000000
0.100546 0.090900 -0.378208 0.000000 0.000000 -1.000000 0 0 0 1.000000
0.713773 -0.482829 -0.319007 -0.000007 -1.000000 -0.000033 0 0 0 1.000000
-0.198432 0.123705 0.391106 0.000000 -0.000000 1.000000 58 58 58 0.501961
0.578891 -0.470326 -0.378208 0.000000 -0.000000 1.000000 0 0 0 1.000000
-0.160354 0.454701 -0.096819 0.000000 1.000000 0.000000 138 135 154 1.000000
-0.745902 -0.116957 0.294353 -1.000000 0.000026 0.000033 0 0 0 1.000000
0.075146 0.454701 0.082916 0.000000 -1.000000 -0.000000 227 224 221 1.000000
0.074674 0.334495 -0.206188 0.000000 -1.000000 -0.000000 170 170 170 1.000000
-0.009376 0.334495 -0.066877 0.000000 -1.000000 -0.000000 170 170 170 1.000000
-0.613571 -0.315949 -0.078105 0.000000 -1.000000 -0.000000 170 170 170 1.000000
0.768310 0.072465 0.391106 0.000000 -0.000000 1.000000 0 0 0 1.000000
-0.481357 -0.315949 0.194957 0.000000 1.000000 0.000000 170 170 170 1.000000
-0.218102 0.084394 -0.294064 0.000000 0.000000 -1.000000 170 170 170 1.000000
-0.267915 0.309794 0.343023 0.000000 -0.000000 1.000000 58 58 58 0.501961
-0.508117 0.334495 0.024414 0.000000 -1.000000 -0.000000 170 170 170 1.000000
0.840642 0.146300 0.071746 -1.000000 -0.000007 0.000076 0 0 0 1.000000
0.443130 -0.482849 -0.253232 -0.000007 -1.000000 -0.000033 0 0 0 1.000000
0.468089 0.360752 -0.177505 -1.000000 0.000000 0.000000 227 224 221 1.000000
0.037983 0.401774 0.391106 0.000000 0.000000 -1.000000 0 0 0 1.000000
-0.372205 -0.458859 -0.084333 0.000000 1.000000 0.000000 227 224 221 1.000000
0.840710 -0.317921 0.250912 1.000000 0.000007 -0.000076 0 0 0 1.000000
-0.382833 -0.482858 0.179281 -0.000007 -1.000000 -0.000033 0 0 0 1.000000
0.468089 0.055442 0.102134 1.000000 0.000000 0.000000 138 135 154 1.000000
0.033893 -0.145043 -0.294064 0.000000 0.000000 -1.000000 170 170 170 1.000000
-0.078246 -0.315949 0.253505 0.000000 -1.000000 -0.000000 170 170 170 1.000000
-0.355513 -0.239829 -0.294064 0.000000 0.000000 -1.000000 170 170 170 1.000000
-0.613249 0.210721 0.343023 0.000000 -0.000000 1.000000 58 58 58 0.501961
0.282406 0.412383 0.391106 0.000000 0.000000 -1.000000 170 170 170 1.000000
-0.132852 -0.458859 0.216465 0.000000 1.000000 0.000000 227 224 221 1.000000
0.840682 -0.186273 -0.008225 -1.000000 -0.000007 0.000076 0 0 0 1.000000
-0.110058 -0.315949 -0.078359 0.000000 -1.000000 -0.000000 170 170 170 1.000000
0.542010 0.478677 -0.219948 0.000020 -1.000000 0.000054 0 0 0 1.000000
-0.211098 0.334495 -0.220384 0.000000 1.000000 0.000000 170 170 170 1.000000
0.811514 0.478669 -0.228254 0.000020 -1.000000 0.000054 0 0 0 1.000000
0.420656 0.326127 0.391106 0.000000 -0.000000 1.000000 0 0 0 1.000000
0.333446 0.478703 -0.001830 -0.000020 1.000000 -0.000054 0 0 0 1.000000
0.007202 -0.358530 -0.294064 0.000000 0.000000 -1.000000 138 135 154 1.000000
0.468089 0.051812 0.287477 -1.000000 0.000000 0.000000 227 224 221 1.000000
0.357578 -0.315949 0.292141 0.000000 -1.000000 -0.000000 170 170 170 1.000000
0.630878 -0.482852 -0.107431 0.000007 1.000000 0.000033 0 0 0 1.000000
-0.605458 -0.049463 0.343023 0.000000 0.000000 -1.000000 58 58 58 0.501961
0.362182 -0.482900 0.261021 0.000007 1.000000 0.000033 0 0 0 1.000000
0.322770 0.065358 0.343023 0.000000 0.000000 -1.000000 58 58 58 0.501961
0.468089 0.195557 0.081286 -1.000000 0.000000 0.000000 227 224 221 1.000000
0.371924 -0.244429 -0.239964 -1.000000 0.000000 0.000000 170 170 170 1.000000
0.371924 0.232817 -0.163030 1.000000 0.000000 0.000000 170 170 170 1.000000
0.468089 -0.210417 -0.027563 -1.000000 0.000000 0.000000 227 224 221 1.000000
0.158833 -0.278976 -0.294064 0.000000 0.000000 -1.000000 170 170 170 1.000000
-0.439677 0.048704 -0.378208 0.000000 -0.000000 1.000000 0 0 0 1.000000
0.213764 0.454701 -0.244778 0.000000 1.000000 0.000000 138 135 154 1.000000
-0.745902 -0.365328 0.240304 -1.000000 0.000026 0.000033 0 0 0 1.000000
-0.745902 -0.148572 -0.072897 -1.000000 0.000026 0.000033 0 0 0 1.000000
-0.745902 0.091885 0.293844 1.000000 -0.000026 -0.000033 0 0 0 1.000000
-0.550087 0.454701 -0.096564 0.000000 1.000000 0.000000 138 135 154 1.000000
0.468089 0.268568 -0.278620 -1.000000 0.000000 0.000000 227 224 221 1.000000
0.468089 -0.086042 0.129136 1.000000 0.000000 0.000000 138 135 154 1.000000
0.371924 0.264026 0.279561 -1.000000 0.000000 0.000000 170 170 170 1.000000
-0.108858 0.478701 0.087694 0.000020 -1.000000 0.000054 0 0 0 1.000000
0.839795 0.464550 0.114001 0.921440 0.388520 0.000000 0 0 0 1.000000
0.686806 -0.031598 0.391106 0.000000 0.000000 -1.000000 0 0 0 1.000000
0.468089 -0.041758 -0.136611 1.000000 0.000000 0.000000 138 135 154 1.000000
0.246222 -0.315949 -0.044187 0.000000 -1.000000 -0.000000 170 170 170 1.000000
0.100961 -0.315949 -0.082301 0.000000 -1.000000 -0.000000 170 170 170 1.000000
-0.094929 0.249151 -0.294064 0.000000 0.000000 -1.000000 170 170 170 1.000000
-0.442651 0.478707 0.370586 0.000035 -1.000000 -0.000000 170 170 170 1.000000
-0.342759 0.454701 0.083512 0.000000 -1.000000 -0.000000 227 224 221 1.000000
0.647858 0.478696 -0.059584 0.000020 -1.000000 0.000054 0 0 0 1.000000
0.285713 -0.046004 -0.294064 0.000000 -0.000000 1.000000 170 170 170 1.000000
0.430458 0.478732 0.244606 -0.000020 1.000000 -0.000054 0 0 0 1.000000
0.468089 -0.060080 -0.278515 1.000000 0.000000 0.000000 138 135 154 1.000000
0.716854 0.478705 0.185927 0.000020 -1.000000 0.000054 0 0 0 1.000000
0.159511 -0.173147 -0.378208 0.000000 0.000000 -1.000000 0 0 0 1.000000
-0.625779 -0.188918 0.115428 -1.000000 0.000000 0.000000 170 170 170 1.000000
0.608127 0.167696 -0.378208 0.000000 -0.000000 1.000000 0 0 0 1.000000
0.825789 -0.082701 -0.378208 0.000000 -0.000000 1.000000 0 0 0 1.000000
-0.067773 -0.143280 -0.378208 0.000000 0.000000 -1.000000 0 0 0 1.000000
-0.613773 0.256587 -0.378208 0.000000 -0.000000 1.000000 0 0 0 1.000000
-0.625779 -0.081132 -0.275982 1.000000 0.000000 0.000000 170 170 170 1.000000
0.545455 -0.035685 0.391106 0.000000 -0.000000 1.000000 0 0 0 1.000000
0.727766 -0.482890 0.294117 0.000007 1.000000 0.000033 0 0 0 1.000000
-0.500727 -0.374686 -0.294064 0.000000 -0.000000 1.000000 227 224 221 1.000000
0.410760 -0.458859 0.140560 0.000000 -1.000000 -0.000000 138 135 154 1.000000
0.032146 0.334495 0.143882 0.000000 -1.000000 -0.000000 170 170 170 1.000000
-0.353281 -0.315949 0.265143 0.000000 -1.000000 -0.000000 170 170 170 1.000000
0.360147 0.082083 -0.378208 0.000000 -0.000000 1.000000 0 0 0 1.000000
-0.721943 -0.358516 0.110139 1.000000 0.000000 0.000000 227 224 221 1.000000
-0.459472 -0.458859 0.073781 0.000000 1.000000 0.000000 227 224 221 1.000000
-0.733155 -0.481395 0.299372 -0.387326 -0.921943 -0.000000 0 0 0 1.000000
0.752261 0.033317 -0.378208 0.000000 0.000000 -1.000000 0 0 0 1.000000
0.468089 -0.371705 -0.046003 1.000000 0.000000 0.000000 138 135 154 1.000000
-0.403589 0.346249 -0.378208 0.000000 -0.000000 1.000000 0 0 0 1.000000
-0.363618 -0.158949 0.343023 0.000000 -0.000000 1.000000 58 58 58 0.501961
0.840642 0.031626 -0.162970 1.000000 0.000007 -0.000076 0 0 0 1.000000
-0.363076 0.334495 -0.005854 0.000000 1.000000 0.000000 170 170 170 1.000000
0.840707 -0.032461 0.224095 1.000000 0.000007 -0.000076 0 0 0 1.000000
-0.625779 0.029543 0.146072 -1.000000 0.000000 0.000000 170 170 170 1.000000
0.480109 -0.144219 0.380513 1.000000 0.000000 0.000000 0 0 0 1.000000
0.262771 0.334495 0.109604 0.000000 -1.000000 -0.000000 170 170 170 1.000000
0.789068 -0.336115 -0.378208 0.000000 -0.000000 1.000000 0 0 0 1.000000
-0.677553 -0.392164 -0.294064 0.000000 0.000000 -1.000000 138 135 154 1.000000
0.371924 0.141004 0.149811 -1.000000 0.000000 0.000000 170 170 170 1.000000
0.468089 -0.276200 0.205670 -1.000000 0.000000 0.000000 227 224 221 1.000000
-0.162482 0.367274 0.391106 0.000000 0.000000 -1.000000 0 0 0 1.000000
-0.246640 -0.002684 -0.378208 0.000000 -0.000000 1.000000 0 0 0 1.000000
0.554285 -0.482888 0.282494 0.000007 1.000000 0.000033 0 0 0 1.000000
-0.316625 -0.482900 0.376251 0.000035 1.000000 0.000000 0 0 0 1.000000
-0.054694 0.171582 0.391106 0.000000 0.000000 -1.000000 58 58 58 0.501961
-0.230722 -0.315949 0.114326 0.000000 -1.000000 -0.000000 170 170 170 1.000000
-0.745902 0.335336 -0.267652 1.000000 -0.000026 -0.000033 0 0 0 1.000000
0.532956 -0.353714 0.391106 0.000000 0.000000 -1.000000 0 0 0 1.000000
0.258181 -0.458859 -0.165486 0.000000 1.000000 0.000000 227 224 221 1.000000
0.021972 0.006523 0.391106 0.000000 -0.000000 1.000000 58 58 58 0.501961
0.371924 0.001743 -0.065246 1.000000 0.000000 0.000000 170 170 170 1.000000
0.840712 0.232840 0.273516 -1.000000 -0.000007 0.000076 0 0 0 1.000000
-0.134352 0.334495 -0.090366 0.000000 1.000000 0.000000 170 170 170 1.000000
-0.131419 -0.194074 0.343023 0.000000 -0.000000 1.000000 58 58 58 0.501961
0.371924 -0.007749 0.058948 1.000000 0.000000 0.000000 170 170 170 1.000000
-0.540874 -0.236029 -0.294064 0.000000 -0.000000 1.000000 170 170 170 1.000000
0.840642 0.331679 -0.098398 -1.000000 -0.000007 0.000076 0 0 0 1.000000
-0.283453 0.405298 -0.294064 0.000000 -0.000000 1.000000 227 224 221 1.000000
0.154602 -0.315949 0.309815 0.000000 -1.000000 -0.000000 170 170 170 1.000000
0.835081 -0.476462 -0.061551 -0.725573 0.688145 0.000000 0 0 0 1.000000
-0.495635 -0.315949 -0.141973 0.000000 1.000000 0.000000 170 170 170 1.000000
0.623462 -0.482866 0.060547 0.000007 1.000000 0.000033 0 0 0 1.000000
0.009204 0.393901 -0.294064 0.000000 0.000000 -1.000000 138 135 154 1.000000
0.367301 0.478663 -0.343839 0.000020 -1.000000 0.000054 0 0 0 1.000000
-0.406557 0.283621 0.391106 0.000000 0.000000 -1.000000 58 58 58 0.501961
0.222434 0.175339 -0.378208 0.000000 0.000000 -1.000000 0 0 0 1.000000
0.147492 -0.458859 0.159862 0.000000 -1.000000 -0.000000 138 135 154 1.000000
0.323488 -0.419157 -0.378208 0.000000 0.000000 -1.000000 0 0 0 1.000000
-0.491966 -0.065073 -0.378208 0.000000 -0.000000 1.000000 0 0 0 1.000000
0.260592 0.334495 0.259598 0.000000 -1.000000 -0.000000 170 170 170 1.000000
-0.428660 0.134453 -0.294064 0.000000 0.000000 -1.000000 170 170 170 1.000000
-0.399043 0.089446 0.391106 0.000000 0.000000 -1.000000 58 58 58 0.501961
-0.004962 0.478709 0.304623 -0.000020 1.000000 -0.000054 0 0 0 1.000000
-0.629244 -0.017546 -0.378208 0.000000 -0.000000 1.000000 0 0 0 1.000000
0.534971 0.183478 0.391106 0.000000 0.000000 -1.000000 0 0 0 1.000000
-0.721943 0.188126 0.223013 1.000000 0.000000 0.000000 227 224 221 1.000000
0.371924 -0.127727 0.322621 -1.000000 0.000000 0.000000 170 170 170 1.000000
-0.011063 -0.221654 0.343023 0.000000 -0.000000 1.000000 58 58 58 0.501961
-0.632118 -0.458859 0.228824 0.000000 -1.000000 -0.000000 138 135 154 1.000000
0.371924 0.117190 -0.129571 1.000000 0.000000 0.000000 170 170 170 1.000000
0.202429 -0.475439 0.391106 0.000000 0.000000 -1.000000 0 0 0 1.000000
0.706695 -0.482840 -0.199522 -0.000007 -1.000000 -0.000033 0 0 0 1.000000
0.173037 0.352768 -0.294064 0.000000 0.000000 -1.000000 138 135 154 1.000000
0.753991 -0.482870 0.115078 -0.000007 -1.000000 -0.000033 0 0 0 1.000000
0.035679 -0.458859 0.243616 0.000000 1.000000 0.000000 227 224 221 1.000000
-0.459682 0.454701 0.108216 0.000000 1.000000 0.000000 138 135 154 1.000000
0.550163 -0.318766 -0.378208 0.000000 -0.000000 1.000000 0 0 0 1.000000
0.563506 -0.071446 -0.378208 0.000000 0.000000 -1.000000 0 0 0 1.000000
-0.212350 0.478695 0.355543 0.000035 -1.000000 -0.000000 170 170 170 1.000000
-0.654951 0.367265 -0.378208 0.000000 -0.000000 1.000000 0 0 0 1.000000
-0.745902 0.386816 -0.065683 -1.000000 0.000026 0.000033 0 0 0 1.000000
-0.625779 0.105407 -0.080229 -1.000000 0.000000 0.000000 170 170 170 1.000000
-0.058403 -0.022674 -0.294064 0.000000 -0.000000 1.000000 170 170 170 1.000000
-0.163013 0.478664 -0.337595 -0.000020 1.000000 -0.000054 0 0 0 1.000000
0.371924 -0.123190 -0.252835 1.000000 0.000000 0.000000 170 170 170 1.000000
-0.641464 -0.290050 0.391106 0.000000 0.000000 -1.000000 0 0 0 1.000000
-0.745902 -0.383881 -0.153734 -1.000000 0.000026 0.000033 0 0 0 1.000000
-0.116036 0.373111 -0.294064 0.000000 -0.000000 1.000000 227 224 221 1.000000
0.371924 0.233004 -0.003563 -1.000000 0.000000 0.000000 170 170 170 1.000000
-0.378805 0.478673 -0.255707 -0.000020 1.000000 -0.000054 0 0 0 1.000000
-0.113330 -0.481537 -0.378208 0.000000 0.000000 -1.000000 0 0 0 1.000000
0.777825 -0.375292 0.391106 0.000000 0.000000 -1.000000 170 170 170 1.000000
0.520993 -0.482883 0.170871 0.000007 1.000000 0.000033 0 0 0 1.000000
-0.540971 -0.228836 0.391106 0.000000 -0.000000 1.000000 58 58 58 0.501961
-0.254685 -0.482872 0.137001 -0.000007 -1.000000 -0.000033 0 0 0 1.000000
-0.194632 -0.458859 -0.206918 0.000000 1.000000 0.000000 227 224 221 1.000000
0.374293 -0.458859 -0.162214 0.000000 1.000000 0.000000 227 224 221 1.000000
-0.745902 0.040377 0.048175 1.000000 -0.000026 -0.000033 0 0 0 1.000000
-0.650464 0.091083 0.391106 0.000000 -0.000000 1.000000 0 0 0 1.000000
0.009093 0.454701 -0.130718 0.000000 -1.000000 -0.000000 227 224 221 1.000000
0.266223 -0.042860 0.343023 0.000000 0.000000 -1.000000 58 58 58 0.501961
-0.083610 0.334495 0.182630 0.000000 -1.000000 -0.000000 170 170 170 1.000000
-0.519455 0.334495 0.139335 0.000000 1.000000 0.000000 170 170 170 1.000000
-0.294465 0.080302 0.343023 0.000000 0.000000 -1.000000 58 58 58 0.501961
-0.258365 -0.371499 -0.294064 0.000000 0.000000 -1.000000 138 135 154 1.000000
-0.348648 -0.315949 0.016227 0.000000 -1.000000 -0.000000 170 170 170 1.000000
-0.459081 -0.458859 -0.159829 0.000000 1.000000 0.000000 227 224 221 1.000000
-0.210057 0.454701 0.138182 0.000000 1.000000 0.000000 138 135 154 1.000000
-0.721943 -0.123081 0.159132 -1.000000 0.000000 0.000000 138 135 154 1.000000
0.359701 -0.315949 0.177351 0.000000 -1.000000 -0.000000 170 170 170 1.000000
-0.460765 0.478662 -0.355642 0.000020 -1.000000 0.000054 0 0 0 1.000000
0.050475 0.196975 -0.378208 0.000000 0.000000 -1.000000 0 0 0 1.000000
-0.049007 0.306659 0.391106 0.000000 0.000000 -1.000000 58 58 58 0.501961
-0.255309 0.193479 -0.294064 0.000000 -0.000000 1.000000 170 170 170 1.000000
-0.405804 -0.373810 0.391106 0.000000 0.000000 -1.000000 0 0 0 1.000000
-0.439545 -0.458859 0.275576 0.000000 -1.000000 -0.000000 138 135 154 1.000000
-0.358230 0.334495 -0.192983 0.000000 1.000000 0.000000 170 170 170 1.000000
-0.566921 0.188624 -0.294064 0.000000 -0.000000 1.000000 170 170 170 1.000000
0.176017 0.103278 -0.294064 0.000000 0.000000 -1.000000 170 170 170 1.000000
0.703159 -0.242065 -0.378208 0.000000 -0.000000 1.000000 0 0 0 1.000000
0.358820 0.248585 -0.378208 0.000000 0.000000 -1.000000 0 0 0 1.000000
-0.242751 -0.188369 -0.294064 0.000000 0.000000 -1.000000 170 170 170 1.000000
-0.320197 0.454701 -0.033015 0.000000 1.000000 0.000000 138 135 154 1.000000
0.729320 0.478667 -0.308607 -0.000020 1.000000 -0.000054 0 0 0 1.000000
0.840642 0.238094 -0.308692 -1.000000 -0.000007 0.000076 0 0 0 1.000000
-0.047151 -0.458859 0.044825 0.000000 1.000000 0.000000 227 224 221 1.000000
-0.322659 -0.253472 0.391106 0.000000 0.000000 -1.000000 58 58 58 0.501961
0.368594 0.334495 -0.113543 0.000000 -1.000000 -0.000000 170 170 170 1.000000
-0.735555 -0.480214 -0.007940 0.500418 0.865784 0.000000 0 0 0 1.000000
-0.625779 -0.076464 0.107795 -1.000000 0.000000 0.000000 170 170 170 1.000000
0.193681 -0.482860 -0.277091 0.000007 1.000000 0.000033 0 0 0 1.000000
-0.634064 0.454701 -0.171324 0.000000 1.000000 0.000000 138 135 154 1.000000
-0.216806 -0.277584 0.343023 0.000000 -0.000000 1.000000 58 58 58 0.501961
0.830194 0.476119 0.361166 -0.525731 -0.850651 -0.000000 0 0 0 1.000000
-0.391372 -0.348267 -0.294064 0.000000 -0.000000 1.000000 227 224 221 1.000000
0.076261 0.017361 -0.294064 0.000000 0.000000 -1.000000 170 170 170 1.000000
0.247319 -0.271929 -0.378208 0.000000 0.000000 -1.000000 0 0 0 1.000000
0.434597 0.091789 -0.294064 0.000000 0.000000 -1.000000 138 135 154 1.000000
0.173116 -0.163617 0.343023 0.000000 0.000000 -1.000000 58 58 58 0.501961
0.700240 0.161530 0.391106 0.000000 0.000000 -1.000000 0 0 0 1.000000
0.467915 -0.225481 -0.294064 0.000000 -0.000000 1.000000 227 224 221 1.000000
0.468089 -0.256930 -0.128472 -1.000000 0.000000 0.000000 227 224 221 1.000000
0.069322 -0.458859 -0.011237 0.000000 1.000000 0.000000 227 224 221 1.000000
0.365578 0.454701 -0.107990 0.000000 -1.000000 -0.000000 227 224 221 1.000000
-0.389716 -0.175925 -0.378208 0.000000 0.000000 -1.000000 0 0 0 1.000000
-0.625779 -0.078342 -0.042862 -1.000000 0.000000 0.000000 170 170 170 1.000000
-0.721943 -0.007989 -0.287182 1.000000 0.000000 0.000000 227 224 221 1.000000
0.383732 -0.381471 -0.294064 0.000000 0.000000 -1.000000 138 135 154 1.000000
0.260002 -0.458859 0.298799 0.000000 -1.000000 -0.000000 138 135 154 1.000000
0.315050 -0.315949 -0.179063 0.000000 1.000000 0.000000 170 170 170 1.000000
0.507517 0.478721 0.154958 0.000020 -1.000000 0.000054 0 0 0 1.000000
0.501259 0.064943 0.391106 0.000000 -0.000000 1.000000 0 0 0 1.000000
0.124106 0.302572 -0.378208 0.000000 -0.000000 1.000000 0 0 0 1.000000
0.043485 -0.482880 -0.147462 0.000007 1.000000 0.000033 0 0 0 1.000000
0.840699 -0.151991 0.153239 -1.000000 -0.000007 0.000076 0 0 0 1.000000
-0.261852 -0.315949 -0.121817 0.000000 1.000000 0.000000 170 170 170 1.000000
-0.263256 0.264768 -0.378208 0.000000 0.000000 -1.000000 0 0 0 1.000000
0.453959 0.478704 0.008966 0.000020 -1.000000 0.000054 0 0 0 1.000000
-0.120873 0.134262 -0.294064 0.000000 0.000000 -1.000000 170 170 170 1.000000
0.371924 0.132429 0.262900 1.000000 0.000000 0.000000 170 170 170 1.000000
0.616688 0.478668 -0.301030 0.000020 -1.000000 0.000054 0 0 0 1.000000
-0.101518 -0.407447 0.391106 0.000000 -0.000000 1.000000 170 170 170 1.000000
-0.625779 -0.226800 0.220744 -1.000000 0.000000 0.000000 170 170 170 1.000000
0.302064 0.478719 0.132718 -0.000020 1.000000 -0.000054 0 0 0 1.000000
0.270377 -0.458859 0.036123 0.000000 1.000000 0.000000 227 224 221 1.000000
-0.625779 0.009650 0.253856 -1.000000 0.000000 0.000000 170 170 170 1.000000
0.840717 0.111519 0.319860 -1.000000 -0.000007 0.000076 0 0 0 1.000000
-0.330680 0.334495 0.197862 0.000000 1.000000 0.000000 170 170 170 1.000000
-0.681169 0.478662 0.057036 0.000020 -1.000000 0.000054 0 0 0 1.000000
0.468089 0.374116 -0.069465 1.000000 0.000000 0.000000 138 135 154 1.000000
0.570481 -0.251732 0.391106 0.000000 -0.000000 1.000000 170 170 170 1.000000
-0.114754 -0.042742 0.343023 0.000000 0.000000 -1.000000 58 58 58 0.501961
0.223006 -0.083709 -0.378208 0.000000 -0.000000 1.000000 0 0 0 1.000000
-0.622804 0.334495 0.061635 0.000000 -1.000000 -0.000000 170 170 170 1.000000
0.468089 -0.219617 0.298148 1.000000 0.000000 0.000000 138 135 154 1.000000
-0.172254 -0.187674 -0.378208 0.000000 -0.000000 1.000000 0 0 0 1.000000
-0.170421 0.334495 0.276851 0.000000 -1.000000 -0.000000 170 170 170 1.000000
-0.745902 -0.312569 -0.268419 1.000000 -0.000026 -0.000033 0 0 0 1.000000
0.468089 0.390054 -0.281394 1.000000 0.000000 0.000000 138 135 154 1.000000
-0.389168 0.239295 -0.378208 0.000000 0.000000 -1.000000 0 0 0 1.000000
0.371924 -0.250968 0.018401 -1.000000 0.000000 0.000000 170 170 170 1.000000
0.654949 0.371286 0.391106 0.000000 -0.000000 1.000000 0 0 0 1.000000
-0.566824 0.334495 -0.139590 0.000000 1.000000 0.000000 170 170 170 1.000000
0.038501 -0.315949 0.102142 0.000000 -1.000000 -0.000000 170 170 170 1.000000
0.286417 0.158480 0.391106 0.000000 0.000000 -1.000000 58 58 58 0.501961
0.402707 -0.373986 0.391106 0.000000 -0.000000 1.000000 0 0 0 1.000000
-0.666618 0.137961 -0.294064 0.000000 0.000000 -1.000000 138 135 154 1.000000
0.840696 0.049095 0.119853 1.000000 0.000007 -0.000076 0 0 0 1.000000
-0.390002 0.454701 0.278562 0.000000 -1.000000 -0.000000 227 224 221 1.000000
0.390379 -0.458859 0.035478 0.000000 -1.000000 -0.000000 138 135 154 1.000000
-0.625779 0.155588 0.142143 -1.000000 0.000000 0.000000 170 170 170 1.000000
0.341084 -0.230642 0.391106 0.000000 0.000000 -1.000000 58 58 58 0.501961
-0.363915 -0.482885 -0.326782 -0.000007 -1.000000 -0.000033 0 0 0 1.000000
0.480109 0.252402 0.331484 -1.000000 0.000000 0.000000 0 0 0 1.000000
-0.131016 -0.458859 -0.025592 0.000000 -1.000000 -0.000000 138 135 154 1.000000
0.061897 -0.394346 -0.378208 0.000000 -0.000000 1.000000 0 0 0 1.000000
0.121884 0.334495 0.084264 0.000000 -1.000000 -0.000000 170 170 170 1.000000
0.041678 -0.315949 0.322923 0.000000 -1.000000 -0.000000 170 170 170 1.000000
-0.625779 0.037753 -0.242699 1.000000 0.000000 0.000000 170 170 170 1.000000
-0.234904 -0.458859 0.017553 0.000000 1.000000 0.000000 227 224 221 1.000000
0.087027 -0.315949 -0.220115 0.000000 -1.000000 -0.000000 170 170 170 1.000000
0.468089 -0.191716 0.125586 -1.000000 0.000000 0.000000 227 224 221 1.000000
-0.745902 -0.439045 -0.367431 1.000000 -0.000026 -0.000033 0 0 0 1.000000
0.672192 0.478717 0.295441 -0.000020 1.000000 -0.000054 0 0 0 1.000000
-0.721943 -0.270896 -0.057234 1.000000 0.000000 0.000000 227 224 221 1.000000
-0.474667 -0.010133 0.343023 0.000000 -0.000000 1.000000 58 58 58 0.501961
-0.745902 0.412732 0.241432 -1.000000 0.000026 0.000033 0 0 0 1.000000
0.840681 -0.079756 -0.012452 1.000000 0.000007 -0.000076 0 0 0 1.000000
0.316514 -0.164599 -0.378208 0.000000 0.000000 -1.000000 0 0 0 1.000000
0.840642 0.125896 -0.116286 -1.000000 -0.000007 0.000076 0 0 0 1.000000
0.840642 0.368113 0.261279 -1.000000 -0.000007 0.000076 0 0 0 1.000000
-0.069402 0.169991 -0.378208 0.000000 -0.000000 1.000000 0 0 0 1.000000
0.299398 0.057848 -0.294064 0.000000 -0.000000 1.000000 170 170 170 1.000000
-0.386229 -0.061647 -0.378208 0.000000 -0.000000 1.000000 0 0 0 1.000000
0.468089 0.272045 0.180927 -1.000000 0.000000 0.000000 227 224 221 1.000000
0.468089 0.369666 0.142784 -1.000000 0.000000 0.000000 227 224 221 1.000000
-0.448483 -0.315949 0.086664 0.000000 1.000000 0.000000 170 170 170 1.000000
-0.282600 -0.087415 0.343023 0.000000 -0.000000 1.000000 58 58 58 0.501961
-0.745902 -0.176644 0.385844 0.999999 -0.000017 0.001097 0 0 0 1.000000
0.710127 0.128424 -0.378208 0.000000 0.000000 -1.000000 0 0 0 1.000000
0.085200 0.334495 0.262768 0.000000 -1.000000 -0.000000 170 170 170 1.000000
0.137828 -0.008638 -0.378208 0.000000 0.000000 -1.000000 0 0 0 1.000000
-0.015408 0.076515 -0.378208 0.000000 0.000000 -1.000000 0 0 0 1.000000
-0.745902 0.267655 0.151440 -1.000000 0.000026 0.000033 0 0 0 1.000000
0.109817 -0.482857 -0.354852 -0.000007 -1.000000 -0.000033 0 0 0 1.000000
-0.113088 -0.458859 -0.127313 0.000000 -1.000000 -0.000000 138 135 154 1.000000
-0.672493 -0.243266 -0.378208 0.000000 0.000000 -1.000000 0 0 0 1.000000
0.043805 0.258665 -0.294064 0.000000 -0.000000 1.000000 170 170 170 1.000000
-0.304185 0.334495 0.098127 0.000000 -1.000000 -0.000000 170 170 170 1.000000
0.840683 -0.305055 0.002531 1.000000 0.000007 -0.000076 0 0 0 1.000000
0.279125 0.391921 -0.294064 0.000000 0.000000 -1.000000 138 135 154 1.000000
-0.495063 -0.184951 -0.378208 0.000000 -0.000000 1.000000 0 0 0 1.000000
-0.625779 0.237324 -0.155335 -1.000000 0.000000 0.000000 170 170 170 1.000000
0.371924 -0.096541 0.220613 1.000000 0.000000 0.000000 170 170 170 1.000000
0.468089 0.047621 -0.187147 1.000000 0.000000 0.000000 138 135 154 1.000000
-0.672800 0.252235 -0.294064 0.000000 -0.000000 1.000000 227 224 221 1.000000
0.840642 0.204495 0.161547 -1.000000 -0.000007 0.000076 0 0 0 1.000000
0.147255 -0.315949 0.153986 0.000000 1.000000 0.000000 170 170 170 1.000000
-0.116369 0.303484 -0.378208 0.000000 0.000000 -1.000000 0 0 0 1.000000
-0.138333 -0.418888 -0.294064 0.000000 -0.000000 1.000000 227 224 221 1.000000
0.840716 -0.404469 0.305551 -1.000000 -0.000007 0.000076 0 0 0 1.000000
0.840670 -0.200264 -0.115255 1.000000 0.000007 -0.000076 0 0 0 1.000000
-0.567397 -0.482897 -0.311043 -0.000007 -1.000000 -0.000033 0 0 0 1.000000
-0.721943 -0.018742 0.277837 1.000000 0.000000 0.000000 227 224 221 1.000000
0.840664 -0.379884 -0.172607 1.000000 0.000007 -0.000076 0 0 0 1.000000
0.840642 -0.073444 -0.230006 1.000000 0.000007 -0.000076 0 0 0 1.000000
-0.625779 0.235431 0.245047 1.000000 0.000000 0.000000 170 170 170 1.000000
0.468089 0.409142 0.331543 1.000000 0.000000 0.000000 170 170 170 1.000000
0.219542 0.454701 -0.029002 0.000000 -1.000000 -0.000000 227 224 221 1.000000
-0.631359 -0.391062 0.391106 0.000000 -0.000000 1.000000 170 170 170 1.000000
-0.256146 0.454701 -0.133029 0.000000 -1.000000 -0.000000 227 224 221 1.000000
-0.225043 0.230610 0.391106 0.000000 -0.000000 1.000000 58 58 58 0.501961
-0.468276 -0.482896 -0.261363 -0.000007 -1.000000 -0.000033 0 0 0 1.000000
-0.446094 0.238929 -0.294064 0.000000 0.000000 -1.000000 170 170 170 1.000000
0.163552 0.454701 -0.155331 0.000000 -1.000000 -0.000000 227 224 221 1.000000
0.212028 0.454701 0.171908 0.000000 1.000000 0.000000 138 135 154 1.000000
0.224099 0.334495 -0.057961 0.000000 -1.000000 -0.000000 170 170 170 1.000000
-0.444567 -0.028858 -0.294064 0.000000 0.000000 -1.000000 170 170 170 1.000000
0.840642 0.255704 -0.164265 1.000000 0.000007 -0.000076 0 0 0 1.000000
-0.721943 0.265430 -0.041689 -1.000000 0.000000 0.000000 138 135 154 1.000000
-0.354015 -0.128257 -0.294064 0.000000 -0.000000 1.000000 170 170 170 1.000000
-0.254770 -0.078919 -0.294064 0.000000 0.000000 -1.000000 170 170 170 1.000000
-0.333683 0.078749 -0.294064 0.000000 -0.000000 1.000000 170 170 170 1.000000
-0.210788 -0.401782 -0.378208 0.000000 -0.000000 1.000000 0 0 0 1.000000
0.401799 -0.482843 -0.344466 0.000007 1.000000 0.000033 0 0 0 1.000000
-0.450643 0.478678 -0.113758 0.000020 -1.000000 0.000054 0 0 0 1.000000
0.371924 0.135055 -0.228341 -1.000000 0.000000 0.000000 170 170 170 1.000000
0.554066 0.398002 -0.378208 0.000000 0.000000 -1.000000 0 0 0 1.000000
0.840642 0.415544 -0.303192 1.000000 0.000007 -0.000076 0 0 0 1.000000
-0.548164 0.294388 -0.294064 0.000000 -0.000000 1.000000 170 170 170 1.000000
0.566464 -0.482863 -0.027429 0.000007 1.000000 0.000033 0 0 0 1.000000
0.124147 -0.379291 -0.294064 0.000000 -0.000000 1.000000 227 224 221 1.000000
-0.070550 -0.482884 0.142280 0.000007 1.000000 0.000033 0 0 0 1.000000
0.247150 -0.482849 -0.370162 0.000007 1.000000 0.000033 0 0 0 1.000000
0.234676 -0.458859 -0.058955 0.000000 -1.000000 -0.000000 138 135 154 1.000000
0.739703 0.478685 -0.109970 -0.000020 1.000000 -0.000054 0 0 0 1.000000
-0.694142 0.183601 -0.378208 0.000000 0.000000 -1.000000 0 0 0 1.000000
-0.453260 0.381961 0.391106 0.000000 0.000000 -1.000000 0 0 0 1.000000
-0.668422 0.444576 0.391106 0.000000 0.000000 -1.000000 170 170 170 1.000000
-0.721943 0.156850 -0.160633 1.000000 0.000000 0.000000 227 224 221 1.000000
0.727226 -0.460936 0.391106 0.000000 0.000000 -1.000000 0 0 0 1.000000
-0.127611 -0.057928 -0.378208 0.000000 -0.000000 1.000000 0 0 0 1.000000
0.468089 -0.318429 0.305462 1.000000 0.000000 0.000000 138 135 154 1.000000
0.468089 0.259181 -0.170514 1.000000 0.000000 0.000000 138 135 154 1.000000
-0.284126 -0.458859 -0.161778 0.000000 1.000000 0.000000 227 224 221 1.000000
-0.056593 -0.282676 -0.378208 0.000000 0.000000 -1.000000 0 0 0 1.000000
0.468089 -0.384824 0.109152 1.000000 0.000000 0.000000 138 135 154 1.000000
0.099621 -0.482900 0.370308 -0.000035 -1.000000 -0.000000 0 0 0 1.000000
0.049133 0.478665 -0.326892 -0.000020 1.000000 -0.000054 0 0 0 1.000000
0.371924 0.001714 0.285304 1.000000 0.000000 0.000000 170 170 170 1.000000
0.840653 -0.437591 -0.273300 1.000000 0.000007 -0.000076 0 0 0 1.000000
-0.721943 0.095035 0.190872 1.000000 0.000000 0.000000 227 224 221 1.000000
-0.582510 0.472486 -0.378208 0.000000 -0.000000 1.000000 0 0 0 1.000000
-0.305990 0.358640 -0.378208 0.000000 0.000000 -1.000000 0 0 0 1.000000
0.716656 0.330624 -0.378208 0.000000 0.000000 -1.000000 0 0 0 1.000000
-0.110709 -0.315949 0.019768 0.000000 1.000000 0.000000 170 170 170 1.000000
0.371924 -0.213336 -0.146897 -1.000000 0.000000 0.000000 170 170 170 1.000000
0.161405 -0.370317 0.391106 0.000000 0.000000 -1.000000 0 0 0 1.000000
-0.644852 -0.288111 -0.294064 0.000000 0.000000 -1.000000 138 135 154 1.000000
0.840642 0.239244 0.039444 1.000000 0.000007 -0.000076 0 0 0 1.000000
0.468089 -0.135447 0.042385 -1.000000 0.000000 0.000000 227 224 221 1.000000
-0.557178 0.454701 0.289867 0.000000 -1.000000 -0.000000 227 224 221 1.000000
0.468089 -0.005093 0.200303 -1.000000 0.000000 0.000000 227 224 221 1.000000
-0.563380 -0.315949 0.005474 0.000000 -1.000000 -0.000000 170 170 170 1.000000
0.683049 -0.214937 0.391106 0.000000 -0.000000 1.000000 170 170 170 1.000000
0.468089 0.165047 -0.011269 -1.000000 0.000000 0.000000 227 224 221 1.000000
0.371924 -0.078372 -0.166553 -1.000000 0.000000 0.000000 170 170 170 1.000000
-0.745902 0.292301 0.347564 0.999999 -0.000017 0.001097 0 0 0 1.000000
0.037138 0.334495 0.018480 0.000000 -1.000000 -0.000000 170 170 170 1.000000
0.095802 0.160198 -0.294064 0.000000 -0.000000 1.000000 170 170 170 1.000000
0.546350 0.092042 -0.378208 0.000000 0.000000 -1.000000 0 0 0 1.000000
0.468089 -0.116624 -0.074376 1.000000 0.000000 0.000000 138 135 154 1.000000
0.183655 -0.057965 0.391106 0.000000 -0.000000 1.000000 58 58 58 0.501961
-0.184925 -0.109955 0.343023 0.000000 -0.000000 1.000000 58 58 58 0.501961
-0.355068 -0.288636 -0.378208 0.000000 -0.000000 1.000000 0 0 0 1.000000
0.368627 0.334495 0.213617 0.000000 -1.000000 -0.000000 170 170 170 1.000000
-0.625779 0.302750 0.314277 -1.000000 0.000000 0.000000 170 170 170 1.000000
0.619966 0.478713 0.122141 -0.000020 1.000000 -0.000054 0 0 0 1.000000
0.149414 0.478664 -0.337451 0.000020 -1.000000 0.000054 0 0 0 1.000000
0.116883 0.017020 0.343023 0.000000 0.000000 -1.000000 58 58 58 0.501961
-0.721943 0.394366 0.029678 1.000000 0.000000 0.000000 227 224 221 1.000000
0.080837 0.334495 -0.110091 0.000000 1.000000 0.000000 170 170 170 1.000000
-0.576090 0.396036 -0.294064 0.000000 -0.000000 1.000000 227 224 221 1.000000
0.468089 0.090756 0.192018 -1.000000 0.000000 0.000000 227 224 221 1.000000
-0.603130 -0.482848 0.131868 0.000007 1.000000 0.000033 0 0 0 1.000000
-0.122037 0.454701 -0.004439 0.000000 -1.000000 -0.000000 227 224 221 1.000000
-0.193731 0.275362 -0.294064 0.000000 0.000000 -1.000000 170 170 170 1.000000
0.329580 0.334495 0.331982 0.000000 -1.000000 -0.000000 170 170 170 1.000000
0.319749 -0.013608 -0.378208 0.000000 -0.000000 1.000000 0 0 0 1.000000
0.730202 -0.482847 -0.106569 -0.000007 -1.000000 -0.000033 0 0 0 1.000000
-0.069223 -0.315949 -0.236774 0.000000 1.000000 0.000000 170 170 170 1.000000
-0.708716 0.423469 -0.294064 0.000000 -0.000000 1.000000 227 224 221 1.000000
0.193626 0.454701 0.297087 0.000000 -1.000000 -0.000000 227 224 221 1.000000
0.129337 -0.314491 -0.378208 0.000000 0.000000 -1.000000 0 0 0 1.000000
0.371924 -0.236279 0.121088 -1.000000 0.000000 0.000000 170 170 170 1.000000
-0.625779 0.200261 -0.060977 -1.000000 0.000000 0.000000 170 170 170 1.000000
-0.284753 0.454701 0.297985 0.000000 1.000000 0.000000 138 135 154 1.000000
0.264030 0.264621 -0.294064 0.000000 -0.000000 1.000000 170 170 170 1.000000
-0.688365 -0.087505 0.391106 0.000000 0.000000 -1.000000 0 0 0 1.000000
0.096582 -0.100062 -0.378208 0.000000 0.000000 -1.000000 0 0 0 1.000000
0.371924 -0.080393 -0.002667 -1.000000 0.000000 0.000000 170 170 170 1.000000
0.460360 0.269847 -0.378208 0.000000 -0.000000 1.000000 0 0 0 1.000000
0.468089 0.167226 -0.106308 -1.000000 0.000000 0.000000 227 224 221 1.000000
-0.136806 -0.458859 0.311227 0.000000 1.000000 0.000000 227 224 221 1.000000
-0.179867 -0.275561 -0.294064 0.000000 0.000000 -1.000000 170 170 170 1.000000
0.445455 -0.157021 -0.378208 0.000000 0.000000 -1.000000 0 0 0 1.000000
-0.546284 0.478671 -0.000820 0.000020 -1.000000 0.000054 0 0 0 1.000000
-0.381888 0.383853 -0.294064 0.000000 -0.000000 1.000000 227 224 221 1.000000
0.055203 -0.145325 0.391106 0.000000 -0.000000 1.000000 58 58 58 0.501961
-0.745902 0.197464 0.019632 1.000000 -0.000026 -0.000033 0 0 0 1.000000
0.840698 -0.346493 0.137990 1.000000 0.000007 -0.000076 0 0 0 1.000000
0.084378 0.463169 0.331003 0.000000 -0.000000 1.000000 170 170 170 1.000000
-0.540146 -0.458859 0.283228 0.000000 -1.000000 -0.000000 138 135 154 1.000000
-0.157177 0.012331 -0.294064 0.000000 0.000000 -1.000000 170 170 170 1.000000
-0.253143 0.478660 -0.370336 0.000020 -1.000000 0.000054 0 0 0 1.000000
0.411744 0.190785 -0.294064 0.000000 -0.000000 1.000000 227 224 221 1.000000
0.359556 0.454701 0.301634 0.000000 -1.000000 -0.000000 227 224 221 1.000000
-0.550636 0.159697 0.391106 0.000000 -0.000000 1.000000 58 58 58 0.501961
-0.514978 -0.315949 0.289997 0.000000 -1.000000 -0.000000 170 170 170 1.000000
-0.183930 -0.362454 0.391106 0.000000 -0.000000 1.000000 0 0 0 1.000000
-0.625779 -0.182202 -0.266064 1.000000 0.000000 0.000000 170 170 170 1.000000
0.371924 -0.078965 0.123050 -1.000000 0.000000 0.000000 170 170 170 1.000000
-0.536638 -0.424995 -0.378208 0.000000 -0.000000 1.000000 0 0 0 1.000000
-0.059327 0.379985 -0.378208 0.000000 0.000000 -1.000000 0 0 0 1.000000
0.301390 0.454701 -0.211866 0.000000 1.000000 0.000000 138 135 154 1.000000
0.840662 -0.258879 -0.195139 -1.000000 -0.000007 0.000076 0 0 0 1.000000
-0.721943 -0.181497 -0.201985 1.000000 0.000000 0.000000 227 224 221 1.000000
-0.655610 -0.482891 -0.267139 0.000007 1.000000 0.000033 0 0 0 1.000000
0.468089 -0.168471 0.216887 -1.000000 0.000000 0.000000 227 224 221 1.000000
-0.578886 -0.248874 -0.378208 0.000000 -0.000000 1.000000 0 0 0 1.000000
-0.721943 -0.104640 -0.292260 1.000000 0.000000 0.000000 227 224 221 1.000000
0.319135 0.391705 -0.378208 0.000000 -0.000000 1.000000 0 0 0 1.000000
-0.526593 -0.085006 -0.294064 0.000000 0.000000 -1.000000 170 170 170 1.000000
0.826404 0.477866 0.019265 -0.242048 -0.970264 -0.000000 0 0 0 1.000000
-0.740543 -0.170882 -0.378208 0.000000 -0.000000 1.000000 0 0 0 1.000000
0.119861 -0.180369 -0.294064 0.000000 0.000000 -1.000000 170 170 170 1.000000
-0.560920 -0.141572 0.343023 0.000000 -0.000000 1.000000 58 58 58 0.501961
-0.409735 -0.482877 -0.000937 0.000007 1.000000 0.000033 0 0 0 1.000000
-0.019425 0.454701 0.080434 0.000000 1.000000 0.000000 138 135 154 1.000000
0.582858 0.478689 -0.125704 -0.000020 1.000000 -0.000054 0 0 0 1.000000
-0.285449 -0.476031 -0.378208 0.000000 0.000000 -1.000000 0 0 0 1.000000
-0.447838 -0.393083 -0.378208 0.000000 -0.000000 1.000000 0 0 0 1.000000
-0.298342 -0.315949 -0.231742 0.000000 1.000000 0.000000 170 170 170 1.000000
0.840719 -0.133617 0.340791 -1.000000 -0.000007 0.000076 0 0 0 1.000000
0.610691 -0.248854 -0.378208 0.000000 0.000000 -1.000000 0 0 0 1.000000
0.494477 -0.482838 -0.342706 -0.000007 -1.000000 -0.000033 0 0 0 1.000000
0.529211 0.478734 0.291469 0.000020 -1.000000 0.000054 0 0 0 1.000000
-0.405748 0.454701 0.183169 0.000000 -1.000000 -0.000000 227 224 221 1.000000
0.014635 -0.251000 -0.294064 0.000000 -0.000000 1.000000 170 170 170 1.000000
0.357196 0.192605 0.343023 0.000000 0.000000 -1.000000 58 58 58 0.501961
-0.548273 -0.482863 0.037297 -0.000007 -1.000000 -0.000033 0 0 0 1.000000
-0.361566 -0.315949 -0.074902 0.000000 -1.000000 -0.000000 170 170 170 1.000000
0.188174 0.386833 -0.378208 0.000000 0.000000 -1.000000 0 0 0 1.000000
-0.499705 0.287865 -0.378208 0.000000 -0.000000 1.000000 0 0 0 1.000000
-0.467485 -0.315949 -0.229368 0.000000 -1.000000 -0.000000 170 170 170 1.000000
0.470943 -0.272422 -0.378208 0.000000 -0.000000 1.000000 0 0 0 1.000000
0.805746 0.282281 0.391106 0.000000 0.000000 -1.000000 0 0 0 1.000000
0.336436 -0.076670 0.391106 0.000000 0.000000 -1.000000 58 58 58 0.501961
0.380875 -0.037014 -0.294064 0.000000 -0.000000 1.000000 227 224 221 1.000000
0.637915 0.230518 0.391106 0.000000 -0.000000 1.000000 0 0 0 1.000000
0.743943 -0.415733 -0.378208 0.000000 0.000000 -1.000000 0 0 0 1.000000
0.447568 -0.482899 0.298640 0.000007 1.000000 0.000033 0 0 0 1.000000
-0.284095 -0.458859 -0.265706 0.000000 -1.000000 -0.000000 138 135 154 1.000000
-0.233824 0.117712 -0.378208 0.000000 -0.000000 1.000000 0 0 0 1.000000
-0.078797 0.478688 -0.132293 0.000020 -1.000000 0.000054 0 0 0 1.000000
0.468089 -0.400665 -0.153176 1.000000 0.000000 0.000000 138 135 154 1.000000
-0.745902 0.371532 -0.377413 1.000000 -0.000026 -0.000033 0 0 0 1.000000
-0.449910 -0.234207 -0.294064 0.000000 0.000000 -1.000000 170 170 170 1.000000
-0.744045 0.466946 -0.108734 -0.921440 0.388520 0.000000 0 0 0 1.000000
0.228035 -0.458859 0.208820 0.000000 1.000000 0.000000 227 224 221 1.000000
-0.343782 -0.458859 0.292973 0.000000 1.000000 0.000000 227 224 221 1.000000
0.687398 -0.031727 -0.378208 0.000000 0.000000 -1.000000 0 0 0 1.000000
-0.741206 0.093081 0.391106 0.000000 -0.000000 1.000000 0 0 0 1.000000
-0.004634 0.094316 0.391106 0.000000 0.000000 -1.000000 58 58 58 0.501961
-0.583387 0.388960 0.391106 0.000000 -0.000000 1.000000 0 0 0 1.000000
0.162155 -0.458859 -0.194617 0.000000 1.000000 0.000000 227 224 221 1.000000
-0.686832 -0.482820 0.385405 -0.000035 -1.000000 -0.000000 0 0 0 1.000000
0.763206 -0.482880 0.207208 0.000007 1.000000 0.000033 0 0 0 1.000000
-0.486743 0.417709 -0.294064 0.000000 -0.000000 1.000000 227 224 221 1.000000
-0.625779 -0.219116 0.316335 -1.000000 0.000000 0.000000 170 170 170 1.000000
0.756447 0.385874 0.391106 0.000000 0.000000 -1.000000 0 0 0 1.000000
-0.158765 0.334495 0.097136 0.000000 -1.000000 -0.000000 170 170 170 1.000000
-0.745902 0.387861 0.360744 -0.999999 0.000017 -0.001097 0 0 0 1.000000
0.261432 -0.223235 0.343023 0.000000 0.000000 -1.000000 58 58 58 0.501961
0.444421 -0.458859 -0.036522 0.000000 1.000000 0.000000 227 224 221 1.000000
-0.447065 0.334495 0.199604 0.000000 1.000000 0.000000 170 170 170 1.000000
-0.301328 0.454701 -0.211559 0.000000 1.000000 0.000000 138 135 154 1.000000
0.840642 0.131153 -0.020245 1.000000 0.000007 -0.000076 0 0 0 1.000000
0.325927 -0.323034 -0.378208 0.000000 0.000000 -1.000000 0 0 0 1.000000
0.111416 0.174172 0.391106 0.000000 -0.000000 1.000000 58 58 58 0.501961
0.546281 0.478698 -0.040919 -0.000020 1.000000 -0.000054 0 0 0 1.000000
0.840616 0.015452 -0.378208 0.000000 -0.000000 1.000000 0 0 0 1.000000
-0.341295 0.168058 -0.294064 0.000000 0.000000 -1.000000 170 170 170 1.000000
0.751197 0.419103 -0.378208 0.000000 0.000000 -1.000000 0 0 0 1.000000
-0.055495 -0.112181 -0.294064 0.000000 -0.000000 1.000000 170 170 170 1.000000
-0.721943 -0.066911 -0.110762 -1.000000 0.000000 0.000000 138 135 154 1.000000
-0.023190 -0.359940 0.391106 0.000000 -0.000000 1.000000 0 0 0 1.000000
-0.554023 0.099108 -0.294064 0.000000 -0.000000 1.000000 170 170 170 1.000000
0.210296 0.005375 -0.294064 0.000000 -0.000000 1.000000 170 170 170 1.000000
-0.721943 0.080128 -0.114111 -1.000000 0.000000 0.000000 138 135 154 1.000000
0.269011 -0.315949 0.304310 0.000000 1.000000 0.000000 170 170 170 1.000000
-0.023502 -0.368072 -0.378208 0.000000 -0.000000 1.000000 0 0 0 1.000000
0.359849 0.334495 0.070415 0.000000 1.000000 0.000000 170 170 170 1.000000
0.840642 0.098682 -0.294901 1.000000 0.000007 -0.000076 0 0 0 1.000000
-0.570387 -0.315949 0.199152 0.000000 -1.000000 -0.000000 170 170 170 1.000000
-0.648249 0.478664 0.141453 -0.000020 1.000000 -0.000054 0 0 0 1.000000
0.840675 -0.386066 -0.072578 -1.000000 -0.000007 0.000076 0 0 0 1.000000
0.015888 -0.173643 -0.378208 0.000000 -0.000000 1.000000 0 0 0 1.000000
-0.745192 -0.468244 -0.125538 -0.951256 -0.308403 -0.000000 0 0 0 1.000000
-0.640346 0.478665 0.310446 0.000020 -1.000000 0.000054 0 0 0 1.000000
0.098712 0.330150 0.391106 0.000000 -0.000000 1.000000 58 58 58 0.501961
-0.038774 0.319147 -0.294064 0.000000 -0.000000 1.000000 170 170 170 1.000000
-0.675715 0.254998 0.391106 0.000000 0.000000 -1.000000 0 0 0 1.000000
-0.554192 0.034004 -0.378208 0.000000 -0.000000 1.000000 0 0 0 1.000000
-0.549509 0.454701 0.173266 0.000000 1.000000 0.000000 138 135 154 1.000000
0.371924 0.193960 -0.083678 1.000000 0.000000 0.000000 170 170 170 1.000000
-0.012483 -0.453064 -0.294064 0.000000 0.000000 -1.000000 138 135 154 1.000000
-0.458106 -0.173914 0.343023 0.000000 0.000000 -1.000000 58 58 58 0.501961
-0.005044 0.051714 -0.294064 0.000000 0.000000 -1.000000 170 170 170 1.000000
-0.586138 -0.396930 -0.294064 0.000000 -0.000000 1.000000 227 224 221 1.000000
0.419335 -0.300732 -0.294064 0.000000 0.000000 -1.000000 138 135 154 1.000000
-0.076533 0.454701 0.258830 0.000000 1.000000 0.000000 138 135 154 1.000000
-0.524796 -0.452293 0.391106 0.000000 0.000000 -1.000000 0 0 0 1.000000
-0.112199 0.454701 0.172477 0.000000 1.000000 0.000000 138 135 154 1.000000
0.022621 0.185708 0.343023 0.000000 0.000000 -1.000000 58 58 58 0.501961
-0.388249 -0.083568 0.391106 0.000000 0.000000 -1.000000 58 58 58 0.501961
0.529713 0.212684 -0.378208 0.000000 0.000000 -1.000000 0 0 0 1.000000
-0.721943 -0.197056 0.266725 -1.000000 0.000000 0.000000 138 135 154 1.000000
-0.625779 -0.256718 0.042643 1.000000 0.000000 0.000000 170 170 170 1.000000
0.417875 0.234900 0.391106 0.000000 0.000000 -1.000000 0 0 0 1.000000
0.840714 0.025533 0.293435 1.000000 0.000007 -0.000076 0 0 0 1.000000
0.630467 0.260211 -0.378208 0.000000 -0.000000 1.000000 0 0 0 1.000000
0.220302 -0.315949 0.105296 0.000000 1.000000 0.000000 170 170 170 1.000000
-0.721943 0.364162 -0.181198 1.000000 0.000000 0.000000 227 224 221 1.000000
0.475539 -0.074656 -0.378208 0.000000 0.000000 -1.000000 0 0 0 1.000000
0.838556 -0.471636 0.094939 0.887965 -0.459912 -0.000000 0 0 0 1.000000
-0.721943 0.353844 0.181105 1.000000 0.000000 0.000000 227 224 221 1.000000
0.468089 0.045605 0.010960 -1.000000 0.000000 0.000000 227 224 221 1.000000
0.134823 0.173357 -0.378208 0.000000 0.000000 -1.000000 0 0 0 1.000000
0.364634 0.454701 0.188999 0.000000 1.000000 0.000000 138 135 154 1.000000
-0.511924 0.110566 -0.378208 0.000000 -0.000000 1.000000 0 0 0 1.000000
0.245784 -0.394814 0.391106 0.000000 -0.000000 1.000000 170 170 170 1.000000
-0.143473 -0.270183 -0.378208 0.000000 -0.000000 1.000000 0 0 0 1.000000
-0.544971 0.334495 -0.054794 0.000000 1.000000 0.000000 170 170 170 1.000000
0.012280 -0.477240 0.391106 0.000000 0.000000 -1.000000 0 0 0 1.000000
0.206356 0.257681 0.391106 0.000000 0.000000 -1.000000 58 58 58 0.501961
0.468089 0.134013 0.316740 1.000000 0.000000 0.000000 138 135 154 1.000000
0.218687 -0.396036 -0.294064 0.000000 -0.000000 1.000000 227 224 221 1.000000
0.371924 0.217573 0.205927 -1.000000 0.000000 0.000000 170 170 170 1.000000
-0.286644 -0.482891 -0.048206 0.000007 1.000000 0.000033 0 0 0 1.000000
0.753624 -0.278566 0.391106 0.000000 -0.000000 1.000000 0 0 0 1.000000
-0.721943 -0.188876 0.101687 -1.000000 0.000000 0.000000 138 135 154 1.000000
0.759176 0.478706 0.296849 -0.000020 1.000000 -0.000054 0 0 0 1.000000
-0.721943 -0.028896 0.101565 1.000000 0.000000 0.000000 227 224 221 1.000000
-0.343477 0.051549 -0.378208 0.000000 -0.000000 1.000000 0 0 0 1.000000
-0.721943 -0.449474 0.082622 1.000000 0.000000 0.000000 227 224 221 1.000000
0.820816 -0.482887 0.272082 -0.000007 -1.000000 -0.000033 0 0 0 1.000000
0.213917 0.334495 0.037979 0.000000 -1.000000 -0.000000 170 170 170 1.000000
0.331947 -0.315949 0.378854 0.000000 -1.000000 -0.000000 0 0 0 1.000000
0.555456 -0.482852 -0.158937 -0.000007 -1.000000 -0.000033 0 0 0 1.000000
0.284602 0.478669 -0.293382 0.000020 -1.000000 0.000054 0 0 0 1.000000
-0.181093 0.053884 0.343023 0.000000 -0.000000 1.000000 58 58 58 0.501961
-0.131886 0.151034 0.343023 0.000000 -0.000000 1.000000 58 58 58 0.501961
0.468089 -0.406066 -0.293894 -1.000000 0.000000 0.000000 227 224 221 1.000000
0.065586 0.478713 0.165357 0.000020 -1.000000 0.000054 0 0 0 1.000000
