ply
format ascii 1.0
element vertex 1277
property float x
property float y
property float z
property uchar red
property uchar green
property uchar blue
end_header
-0.544737 0.664008 -0.393178 76 0 153
-0.081383 0.430750 -0.565597 76 0 153
-0.544737 -0.601608 0.292743 76 0 153
0.012109 -0.071630 0.499237 76 0 153
0.497796 -0.097166 0.197132 76 0 153
-0.098511 0.562061 0.479724 76 0 153
-0.544737 -0.454399 -0.408916 76 0 153
-0.522437 -0.163763 0.297122 76 0 153
-0.346566 0.606041 -0.565597 76 0 153
-0.120382 -0.569060 -0.191013 76 0 153
-0.269141 0.735500 0.358843 76 0 153
0.520096 -0.736517 -0.139858 76 0 153
0.294033 0.690900 0.320319 76 0 153
-0.367115 0.735500 0.133190 76 0 153
-0.522437 0.411751 -0.135930 76 0 153
0.478653 -0.524170 0.421186 76 0 153
-0.544737 0.726919 0.304175 76 0 153
-0.177409 0.735500 -0.462717 76 0 153
-0.544737 0.518524 0.304607 76 0 153
-0.544737 0.366215 -0.008782 76 0 153
0.232155 0.231292 0.391917 76 0 153
0.497796 -0.179928 0.156090 76 0 153
-0.271306 0.735500 -0.269465 76 0 153
-0.477839 -0.163318 0.514459 153 0 76
-0.544737 -0.625962 -0.052296 76 0 153
0.412505 0.184074 -0.543296 76 0 153
0.298054 -0.543266 0.421186 76 0 153
-0.287714 0.730171 -0.565597 76 0 153
0.243224 -0.166380 -0.565597 76 0 153
-0.441300 0.690900 -0.090883 76 0 153
-0.118947 -0.605298 0.442836 76 0 153
0.220668 -0.758612 -0.153660 76 0 153
-0.522437 0.364318 -0.322387 76 0 153
0.497664 -0.569060 -0.159446 76 0 153
0.483435 -0.048890 -0.565597 76 0 153
0.497796 0.324999 -0.452789 76 0 153
-0.178647 0.341954 0.391917 76 0 153
0.206118 0.690900 -0.102550 76 0 153
-0.522437 -0.335647 0.132135 76 0 153
0.466076 0.296505 0.421186 76 0 153
-0.409323 -0.638530 0.331986 76 0 153
0.115619 0.690900 0.333001 76 0 153
0.198158 -0.569060 0.352686 76 0 153
0.348693 -0.031017 0.479724 76 0 153
-0.544737 -0.204552 -0.290774 76 0 153
-0.544737 -0.166936 0.019669 76 0 153
-0.544737 -0.749374 0.264092 76 0 153
-0.539162 0.155635 0.436753 76 0 153
-0.257572 0.735500 0.245524 76 0 153
0.332903 -0.569060 -0.312511 76 0 153
0.155460 0.664964 0.499237 76 0 153
0.408715 0.185015 0.391917 76 0 153
-0.321180 0.420382 0.421186 76 0 153
-0.544737 0.578167 -0.288142 76 0 153
0.364971 0.735500 0.217213 76 0 153
-0.434990 0.735500 0.240789 76 0 153
-0.269465 -0.043025 0.479724 76 0 153
0.187319 0.360844 -0.565597 76 0 153
0.354679 0.735500 -0.542868 76 0 153
-0.004431 -0.209553 0.479724 76 0 153
-0.522437 -0.001427 -0.408210 76 0 153
-0.099506 0.243960 0.421186 76 0 153
-0.522437 0.178447 -0.509892 76 0 153
0.031879 0.019681 0.421186 76 0 153
0.497796 0.306813 -0.078432 76 0 153
-0.063628 0.690900 -0.414791 76 0 153
-0.465589 -0.605298 0.495462 76 0 153
-0.522437 -0.034327 0.026205 76 0 153
-0.542579 0.735500 -0.076474 76 0 153
-0.448368 -0.017110 0.421186 76 0 153
-0.331449 -0.275903 0.421186 76 0 153
0.230857 -0.336673 0.421186 76 0 153
0.389040 0.662703 -0.543296 76 0 153
-0.011268 -0.128808 0.391917 76 0 153
0.343655 0.583726 0.479724 76 0 153
-0.393322 -0.569060 -0.204460 76 0 153
-0.522437 0.501996 -0.008427 76 0 153
0.144347 0.292067 0.421186 76 0 153
0.520096 0.234363 0.091066 76 0 153
-0.104672 -0.132453 -0.565597 76 0 153
-0.399474 0.549066 -0.565597 76 0 153
0.387183 0.696538 0.499237 76 0 153
-0.522437 0.015098 -0.176443 76 0 153
0.028354 -0.323087 0.391917 76 0 153
0.010108 -0.569060 -0.494417 76 0 153
-0.079479 -0.758612 0.139120 76 0 153
0.094857 0.045067 0.479724 76 0 153
-0.199766 -0.202763 -0.565597 76 0 153
0.426192 0.735500 -0.256905 76 0 153
-0.014334 0.483480 0.421186 76 0 153
0.520096 -0.299994 -0.287786 76 0 153
0.451938 -0.627390 -0.565597 76 0 153
0.078268 0.239289 0.421186 76 0 153
-0.480655 0.735500 0.027240 76 0 153
0.019722 -0.440031 0.499237 76 0 153
-0.025892 0.024231 0.479724 76 0 153
-0.065634 -0.469360 0.479724 76 0 153
0.446653 -0.758612 -0.200484 76 0 153
-0.107039 -0.422389 -0.543296 76 0 153
-0.467915 0.735500 -0.409164 76 0 153
0.309196 -0.320028 0.421186 76 0 153
-0.322772 0.179719 0.421186 76 0 153
0.514521 -0.245733 0.479700 76 0 153
-0.544737 0.573562 0.221534 76 0 153
-0.363661 -0.040379 0.499237 76 0 153
0.444632 0.502155 0.499237 76 0 153
-0.362690 0.673877 -0.543296 76 0 153
-0.218769 0.690900 0.042965 76 0 153
0.199345 0.157880 0.499237 76 0 153
-0.170350 -0.758612 -0.129360 76 0 153
-0.482263 -0.312345 -0.543296 76 0 153
0.061799 -0.746956 -0.565597 76 0 153
0.497796 -0.095069 -0.142112 76 0 153
-0.544737 0.308531 0.250125 76 0 153
-0.105652 0.491853 0.479724 76 0 153
0.500635 -0.446320 0.391917 76 0 153
0.497796 0.442027 -0.056904 76 0 153
-0.484093 -0.464633 0.499237 76 0 153
0.038229 -0.569060 -0.027157 76 0 153
0.235314 -0.758612 0.233216 76 0 153
-0.348497 -0.758612 -0.480194 76 0 153
-0.290527 0.621240 0.421186 76 0 153
-0.311827 0.690900 0.242358 76 0 153
0.482086 0.685728 -0.565597 76 0 153
0.497796 0.368757 -0.117044 76 0 153
0.520096 -0.231558 -0.173085 76 0 153
-0.533587 0.389411 0.414839 76 0 153
0.520096 -0.104433 0.263694 76 0 153
-0.195079 -0.442730 0.421186 76 0 153
-0.544737 -0.251133 0.052526 76 0 153
-0.047868 -0.660889 -0.565597 76 0 153
0.497704 0.031137 0.421186 76 0 153
-0.495595 -0.569060 -0.095713 76 0 153
0.272484 -0.569060 0.091240 76 0 153
0.206294 -0.392980 -0.565597 76 0 153
-0.212396 -0.605298 0.432052 76 0 153
-0.364157 -0.018161 0.421186 76 0 153
-0.275456 -0.392932 0.421186 76 0 153
0.288595 0.060394 0.479724 76 0 153
-0.544737 0.645155 -0.159800 76 0 153
0.497796 0.263603 -0.302163 76 0 153
-0.033303 -0.569060 -0.135998 76 0 153
0.448037 -0.274979 -0.543296 76 0 153
0.520096 -0.534206 -0.049558 76 0 153
0.235141 0.504135 0.421186 76 0 153
0.468315 0.735500 -0.439413 76 0 153
-0.544737 0.222473 -0.294272 76 0 153
-0.522437 0.100575 -0.137904 76 0 153
-0.110504 0.558571 -0.565597 76 0 153
0.516819 -0.758612 -0.561518 76 0 153
0.520096 0.294761 -0.011130 76 0 153
0.131976 0.735500 -0.301961 76 0 153
0.168396 0.735500 -0.063455 76 0 153
-0.544737 -0.318973 0.259332 76 0 153
0.437805 0.423145 0.421186 76 0 153
0.086486 0.227976 -0.565597 76 0 153
-0.539162 -0.366467 0.434973 76 0 153
0.497796 0.440128 0.093244 76 0 153
-0.522437 -0.366328 0.018010 76 0 153
-0.022053 -0.569060 0.236086 76 0 153
-0.221997 0.735500 -0.037490 76 0 153
-0.064107 -0.559232 0.421186 76 0 153
-0.496467 0.690900 0.347259 76 0 153
0.369769 -0.162106 -0.565597 76 0 153
-0.334880 -0.176405 -0.565597 76 0 153
-0.030269 -0.526470 -0.543296 76 0 153
0.520096 0.268450 -0.225573 76 0 153
-0.489687 -0.569060 -0.513527 76 0 153
-0.539162 0.471292 0.447084 76 0 153
0.173011 -0.569060 0.154238 76 0 153
0.476738 -0.172868 -0.565597 76 0 153
-0.483140 -0.569060 0.114564 76 0 153
-0.141231 0.735500 0.221506 76 0 153
-0.131494 0.454621 0.421186 76 0 153
0.096799 0.735500 -0.503879 76 0 153
-0.169084 0.129790 -0.543296 76 0 153
0.439619 -0.036092 0.421186 76 0 153
0.120078 0.494781 0.499237 76 0 153
0.028036 0.735500 -0.447061 76 0 153
0.356659 0.009707 0.421186 76 0 153
-0.133284 0.735500 -0.357774 76 0 153
0.497796 0.246212 0.313498 76 0 153
-0.105230 0.138383 0.479724 76 0 153
-0.087559 -0.018972 0.421186 76 0 153
-0.469751 -0.620629 0.365574 76 0 153
-0.479020 -0.569060 0.218167 76 0 153
-0.544737 -0.533457 -0.223652 76 0 153
0.303784 0.720169 0.491018 76 0 153
0.197799 0.690900 -0.177077 76 0 153
-0.285696 -0.697211 -0.565597 76 0 153
-0.271681 0.309828 -0.543296 76 0 153
-0.233043 0.260979 0.479724 76 0 153
0.454787 0.735500 -0.335786 76 0 153
0.352327 -0.758612 -0.431846 76 0 153
0.065361 -0.569060 0.241267 76 0 153
-0.410759 -0.414482 0.391917 76 0 153
-0.229849 -0.569060 0.359456 76 0 153
-0.337882 -0.310841 -0.543296 76 0 153
0.309968 -0.780158 0.331986 76 0 153
-0.522437 -0.006250 0.169282 76 0 153
-0.010391 -0.330836 -0.543296 76 0 153
-0.427720 0.690900 -0.022926 76 0 153
0.177060 -0.569060 -0.016731 76 0 153
0.421117 0.735500 0.264211 76 0 153
0.202415 -0.127248 0.421186 76 0 153
-0.522437 -0.063631 -0.280859 76 0 153
0.285719 -0.460450 -0.543296 76 0 153
0.252935 0.735500 0.162051 76 0 153
0.117565 -0.569060 0.025887 76 0 153
-0.320174 0.690900 0.013954 76 0 153
-0.220786 0.189086 0.479724 76 0 153
-0.544737 -0.109101 0.236150 76 0 153
0.475061 -0.176885 0.391917 76 0 153
-0.539162 -0.211798 0.425767 76 0 153
-0.012712 0.188758 0.479724 76 0 153
-0.479651 -0.758612 -0.227827 76 0 153
-0.040580 -0.758612 -0.383130 76 0 153
0.301997 -0.200329 0.479724 76 0 153
0.407934 -0.620629 0.391391 76 0 153
0.024253 0.735500 -0.102839 76 0 153
0.520096 0.568278 0.062271 76 0 153
-0.278141 -0.556350 0.421186 76 0 153
-0.052298 0.078259 0.421186 76 0 153
0.345863 0.271851 0.421186 76 0 153
-0.270488 -0.632019 0.304110 76 0 153
-0.544737 -0.243710 0.254701 76 0 153
0.151415 0.690900 0.226166 76 0 153
-0.496208 -0.069465 0.499237 76 0 153
-0.379472 -0.758612 -0.343429 76 0 153
0.477787 0.377509 0.499237 76 0 153
-0.510467 0.735500 -0.356358 76 0 153
-0.061153 0.735500 0.104581 76 0 153
0.341502 0.075785 0.421186 76 0 153
-0.476785 -0.174492 -0.543296 76 0 153
-0.391504 -0.758612 -0.094204 76 0 153
-0.120032 0.735500 -0.206484 76 0 153
0.298435 0.349197 0.479724 76 0 153
0.220940 -0.395713 0.499237 76 0 153
-0.544737 0.706685 -0.488909 76 0 153
-0.406688 0.735500 -0.173025 76 0 153
-0.522437 -0.273466 -0.424902 76 0 153
0.325868 -0.607209 -0.565597 76 0 153
-0.544737 -0.195058 -0.533881 76 0 153
0.348965 0.690900 -0.290905 76 0 153
-0.123696 -0.274689 0.479724 76 0 153
-0.121543 -0.758612 -0.469113 76 0 153
0.104995 -0.388870 0.421186 76 0 153
0.463642 0.127104 0.391917 76 0 153
0.520096 0.695931 -0.235997 76 0 153
-0.522437 0.044391 -0.262804 76 0 153
0.255290 0.096818 0.421186 76 0 153
0.520096 0.384750 -0.410621 76 0 153
0.520096 -0.743542 -0.283197 76 0 153
-0.385698 0.735500 -0.072889 76 0 153
-0.544536 -0.758612 -0.443217 204 51 127
-0.146381 -0.726887 0.304110 76 0 153
0.229601 -0.718915 0.331986 76 0 153
0.203635 -0.232132 0.499237 76 0 153
-0.008497 0.690900 0.146369 76 0 153
-0.305209 0.331442 0.421186 76 0 153
-0.500015 0.454740 0.499237 76 0 153
0.104107 0.690900 -0.157691 76 0 153
0.442539 0.244777 -0.543296 76 0 153
0.497796 -0.515522 -0.330253 76 0 153
0.303870 -0.758612 0.008873 76 0 153
0.520096 -0.649468 -0.051025 76 0 153
-0.002728 -0.569060 -0.372921 76 0 153
0.020602 -0.758612 -0.311441 76 0 153
0.449587 -0.569060 -0.234841 76 0 153
0.497796 0.346151 0.312215 76 0 153
0.385908 0.735500 -0.395632 76 0 153
0.071495 0.690900 -0.242620 76 0 153
0.501732 0.268373 -0.565597 76 0 153
0.202606 0.735500 0.224637 76 0 153
0.520096 -0.587862 0.337340 76 0 153
0.156388 0.735500 0.034118 76 0 153
0.029727 -0.623225 -0.565597 76 0 153
0.108912 -0.303218 0.499237 76 0 153
0.520096 0.202568 -0.120497 76 0 153
-0.544737 0.312432 0.102037 76 0 153
-0.438643 -0.241439 -0.565597 76 0 153
0.497796 0.468013 0.325884 76 0 153
-0.218207 0.720169 0.431581 76 0 153
0.065417 0.114861 0.421186 76 0 153
0.497796 -0.392906 -0.029707 76 0 153
0.497796 0.672271 -0.035877 76 0 153
0.426869 0.069137 -0.565597 76 0 153
0.268822 0.179730 0.479724 76 0 153
-0.235042 0.735500 0.175641 76 0 153
0.497796 -0.436333 0.316424 76 0 153
0.302146 -0.127881 -0.543296 76 0 153
0.364288 -0.031069 -0.543296 76 0 153
-0.375723 0.381154 -0.565597 76 0 153
-0.128863 0.279835 -0.543296 76 0 153
-0.398627 0.148229 0.421186 76 0 153
-0.487997 -0.375052 0.499237 76 0 153
0.160808 0.690900 0.122720 76 0 153
0.281880 -0.114004 0.479724 76 0 153
0.038631 0.355752 0.421186 76 0 153
-0.054769 -0.708901 0.307703 76 0 153
-0.282682 -0.469189 0.421186 76 0 153
0.520096 0.592009 0.175913 76 0 153
-0.522437 -0.351918 0.206122 76 0 153
0.089913 0.315549 -0.565597 76 0 153
0.082052 -0.229423 0.421186 76 0 153
-0.038255 0.735500 0.037431 76 0 153
0.393849 0.735500 0.150258 76 0 153
0.520096 0.466708 -0.183410 76 0 153
-0.209693 -0.231004 0.421186 76 0 153
-0.544737 -0.189943 -0.394366 76 0 153
-0.339686 0.670143 0.391917 76 0 153
-0.544737 0.545451 -0.206777 76 0 153
-0.522437 -0.295879 0.006325 76 0 153
0.499038 -0.310877 -0.565597 76 0 153
-0.412071 0.565589 0.391917 76 0 153
0.170836 0.524129 0.421186 76 0 153
-0.522437 -0.369280 -0.348048 76 0 153
0.514521 -0.293337 0.433495 76 0 153
0.461302 0.609402 0.421186 76 0 153
-0.544349 0.735500 0.165868 76 0 153
-0.544737 -0.585686 0.153568 76 0 153
0.384978 -0.758612 0.266929 76 0 153
0.242081 -0.569060 0.232917 76 0 153
-0.487789 -0.477249 -0.543296 76 0 153
-0.544737 0.461090 0.089588 76 0 153
0.520096 0.723394 0.304987 76 0 153
-0.544737 -0.602236 0.022055 76 0 153
0.044481 -0.738389 0.304110 76 0 153
-0.544737 0.364621 0.186586 76 0 153
0.067485 0.735500 0.211919 76 0 153
-0.228132 0.230968 0.421186 76 0 153
-0.105900 0.670127 0.391917 76 0 153
-0.243583 -0.569060 -0.338875 76 0 153
-0.041077 -0.569060 0.015468 76 0 153
0.520096 -0.461524 -0.220702 76 0 153
-0.114565 -0.215633 0.421186 76 0 153
0.476406 -0.785219 -0.496390 0 0 255
-0.315109 0.433191 -0.565597 76 0 153
-0.107548 -0.409995 0.499237 76 0 153
0.456991 0.549855 -0.543296 76 0 153
-0.198516 -0.758612 -0.069870 76 0 153
0.429825 0.449856 -0.543296 76 0 153
-0.077224 -0.342290 0.479724 76 0 153
0.267614 0.591531 0.421186 76 0 153
-0.435852 -0.373392 -0.565597 76 0 153
-0.273271 -0.211539 -0.543296 76 0 153
0.103844 0.365902 0.479724 76 0 153
-0.245991 0.009768 0.421186 76 0 153
0.344415 -0.758612 0.154244 76 0 153
-0.175344 0.574332 0.421186 76 0 153
-0.371786 0.735500 0.065900 76 0 153
0.076885 0.735500 -0.046580 76 0 153
0.520096 -0.226384 -0.331083 76 0 153
0.237464 -0.536223 -0.543296 76 0 153
0.347989 -0.390304 0.421186 76 0 153
0.398895 -0.758612 -0.311255 76 0 153
-0.522437 -0.481926 -0.053573 76 0 153
0.401473 0.735500 0.065016 76 0 153
-0.122117 -0.620629 0.347999 76 0 153
-0.456340 -0.303932 0.421186 76 0 153
0.138524 0.531012 -0.543296 76 0 153
0.270343 0.735500 -0.404294 76 0 153
0.350014 0.493055 0.421186 76 0 153
0.253223 -0.569060 -0.265484 76 0 153
0.371838 0.631207 0.421186 76 0 153
-0.522437 -0.448171 0.284685 76 0 153
-0.522437 0.672853 0.108042 76 0 153
-0.410504 -0.758612 -0.015236 76 0 153
-0.385257 0.690900 -0.323717 76 0 153
-0.296783 0.735500 -0.390411 76 0 153
-0.103755 0.279803 0.499237 76 0 153
0.520096 0.144060 -0.560140 76 0 153
0.497796 -0.238880 -0.464298 76 0 153
0.073099 0.464458 0.391917 76 0 153
-0.544737 0.669028 -0.040741 76 0 153
-0.487265 0.582097 -0.543296 76 0 153
0.404674 -0.758612 -0.076853 76 0 153
0.197089 -0.758612 0.167270 76 0 153
-0.216210 -0.758612 0.084156 76 0 153
0.520096 -0.559526 -0.486268 76 0 153
0.121187 -0.028924 0.499237 76 0 153
-0.522437 0.093974 -0.368909 76 0 153
-0.544737 0.412234 -0.197879 76 0 153
0.497796 -0.343725 -0.149439 76 0 153
0.514521 -0.372383 0.441146 76 0 153
0.067947 0.670478 0.421186 76 0 153
0.497796 -0.036489 -0.108814 76 0 153
-0.383896 0.735500 -0.450499 76 0 153
0.467528 -0.758612 0.188426 76 0 153
-0.370993 -0.569060 -0.500824 76 0 153
-0.045844 -0.452945 -0.565597 76 0 153
-0.306472 -0.526483 -0.565597 76 0 153
-0.028486 0.197455 0.391917 76 0 153
0.103545 -0.317372 -0.543296 76 0 153
-0.522437 -0.112225 0.358855 76 0 153
-0.118636 -0.047592 0.479724 76 0 153
-0.092191 0.016310 0.499237 76 0 153
0.362077 -0.501463 -0.543296 76 0 153
0.108574 -0.147686 0.499237 76 0 153
0.520096 0.659442 0.290799 76 0 153
-0.136379 0.383019 0.421186 76 0 153
0.514521 0.415923 0.428407 76 0 153
0.404214 -0.569060 -0.093049 76 0 153
-0.431463 0.356048 0.421186 76 0 153
-0.314417 -0.758612 -0.105245 76 0 153
-0.211986 0.227517 -0.565597 76 0 153
0.352593 0.690900 -0.486581 76 0 153
0.385600 0.283126 0.479724 76 0 153
-0.350857 0.671521 0.499237 76 0 153
0.520096 -0.218081 0.207777 76 0 153
-0.484233 0.735500 -0.108504 76 0 153
0.520096 -0.600416 0.133889 76 0 153
-0.539162 0.253117 0.450582 76 0 153
0.371187 -0.569060 -0.232998 76 0 153
0.497796 0.635534 0.052527 76 0 153
-0.124165 0.100136 0.421186 76 0 153
-0.522437 -0.544170 0.265782 76 0 153
-0.406130 -0.274408 0.479724 76 0 153
0.475390 -0.365319 0.499237 76 0 153
-0.278636 -0.300743 -0.565597 76 0 153
-0.522437 0.217518 -0.129511 76 0 153
-0.492893 0.690900 -0.305634 76 0 153
0.028744 0.735500 0.051335 76 0 153
0.520096 0.086684 0.141392 76 0 153
-0.522437 0.472411 -0.480782 76 0 153
-0.435963 0.295836 0.479724 76 0 153
0.476299 0.735500 0.047047 76 0 153
0.366777 0.118527 0.479724 76 0 153
-0.513251 0.343783 0.555818 153 0 76
-0.357830 -0.033997 -0.565597 76 0 153
-0.388412 0.447385 0.421186 76 0 153
-0.236466 -0.002369 -0.565597 76 0 153
0.520096 0.184736 0.185529 76 0 153
0.007508 0.691228 0.499237 76 0 153
0.276419 -0.047991 -0.565597 76 0 153
0.349344 -0.758612 -0.189545 76 0 153
0.492931 0.014223 -0.565597 76 0 153
0.207555 0.690900 0.270011 76 0 153
-0.287972 -0.569060 -0.038600 76 0 153
-0.544737 -0.454583 -0.560954 76 0 153
-0.374232 -0.538207 0.421186 76 0 153
-0.407026 -0.220983 0.421186 76 0 153
-0.544737 0.461194 -0.240940 76 0 153
-0.242020 0.123074 0.421186 76 0 153
0.281706 0.690900 -0.215878 76 0 153
0.520096 -0.429687 -0.131447 76 0 153
0.474830 0.735500 0.189820 76 0 153
-0.330391 -0.620629 0.366208 76 0 153
0.122908 -0.568413 -0.565597 76 0 153
0.186819 0.548954 0.499237 76 0 153
0.520096 0.081067 -0.048857 76 0 153
0.000757 -0.216340 -0.543296 76 0 153
-0.061685 0.060041 -0.565597 76 0 153
-0.421596 0.735500 0.307838 76 0 153
-0.522437 -0.375339 -0.481670 76 0 153
-0.522437 -0.519093 -0.159940 76 0 153
0.198291 0.430320 0.421186 76 0 153
-0.005285 0.231599 -0.565597 76 0 153
0.520096 -0.657105 0.032316 76 0 153
0.218160 0.735500 0.001574 76 0 153
-0.544737 0.591875 -0.438904 76 0 153
0.002557 0.144653 0.421186 76 0 153
0.081538 0.596789 0.421186 76 0 153
0.264804 0.619818 0.488286 76 0 153
-0.539162 0.659669 0.459096 76 0 153
-0.474566 0.625227 0.499237 76 0 153
0.078799 0.690900 -0.319893 76 0 153
0.314139 0.064635 -0.565597 76 0 153
0.497796 0.411925 0.000675 76 0 153
-0.127528 0.492927 -0.565597 76 0 153
0.328706 -0.598641 0.421186 76 0 153
0.166241 -0.436522 -0.543296 76 0 153
0.080100 0.283204 0.479724 76 0 153
0.509563 0.322327 0.499237 76 0 153
0.443445 0.735500 -0.025295 76 0 153
0.229578 0.735500 -0.145613 76 0 153
0.070227 -0.506000 -0.543296 76 0 153
-0.508455 0.222087 0.580643 153 0 76
0.121046 -0.758612 0.274041 76 0 153
0.028521 -0.543858 0.421186 76 0 153
0.462006 -0.620629 0.334254 76 0 153
-0.464185 0.068347 0.421186 76 0 153
-0.544737 -0.429394 0.033095 76 0 153
0.305020 0.542584 -0.565597 76 0 153
-0.344857 -0.758612 -0.215447 76 0 153
-0.522437 0.118550 -0.485015 76 0 153
-0.495877 -0.263195 0.499237 76 0 153
0.020742 -0.569060 -0.186226 76 0 153
0.454426 -0.758612 -0.262840 76 0 153
0.520096 0.514844 0.364319 76 0 153
-0.480170 0.173114 0.421186 76 0 153
0.520096 -0.722865 0.074037 76 0 153
0.121861 -0.569060 -0.323828 76 0 153
-0.386304 -0.689796 0.304110 76 0 153
-0.321149 0.265784 0.499237 76 0 153
0.236217 -0.330479 0.499237 76 0 153
-0.075738 -0.166995 0.499237 76 0 153
0.028048 0.282042 0.421186 76 0 153
-0.544737 -0.646315 -0.151764 76 0 153
0.520096 0.294876 0.191940 76 0 153
-0.522437 -0.088858 -0.505446 76 0 153
-0.082475 -0.717322 -0.565597 76 0 153
0.353593 0.176428 0.421186 76 0 153
-0.544737 -0.656915 0.196178 76 0 153
-0.178829 0.690900 -0.327553 76 0 153
-0.156805 -0.569060 0.329908 76 0 153
0.299222 -0.569060 -0.384108 76 0 153
-0.193957 0.176520 0.421186 76 0 153
-0.259521 -0.569060 -0.209036 76 0 153
0.231889 0.031617 0.479724 76 0 153
-0.544737 0.118774 0.193336 76 0 153
-0.173577 0.735500 0.159373 76 0 153
-0.094045 -0.314645 -0.543296 76 0 153
-0.329593 0.690900 -0.268582 76 0 153
0.183455 0.628413 0.391917 76 0 153
-0.300333 -0.382622 0.479724 76 0 153
-0.011481 0.276959 0.479724 76 0 153
-0.307322 -0.603616 -0.565597 76 0 153
0.508946 -0.122875 0.407602 76 0 153
0.351687 0.564065 0.421186 76 0 153
-0.289710 0.474856 0.479724 76 0 153
-0.544737 0.659287 0.323876 76 0 153
-0.108489 0.543386 0.421186 76 0 153
0.520096 0.568530 -0.170422 76 0 153
0.179065 -0.145999 0.479724 76 0 153
0.183246 0.277571 0.479724 76 0 153
0.307169 0.430677 0.421186 76 0 153
-0.492847 -0.737926 0.331986 76 0 153
0.173918 0.178518 0.421186 76 0 153
0.180696 -0.059317 -0.543296 76 0 153
0.133788 -0.758612 -0.474780 76 0 153
0.368260 0.448582 0.479724 76 0 153
-0.264413 0.735500 -0.174388 76 0 153
0.520096 -0.666288 0.243881 76 0 153
0.249600 -0.758612 -0.275924 76 0 153
0.084963 -0.569060 -0.482410 76 0 153
0.197130 0.360380 0.479724 76 0 153
0.281692 -0.203277 0.391917 76 0 153
-0.286907 0.735500 0.084114 76 0 153
-0.544737 -0.466001 0.156812 76 0 153
-0.074246 0.690900 -0.221476 76 0 153
0.344044 -0.758612 0.219405 76 0 153
-0.166917 -0.494494 -0.543296 76 0 153
-0.089312 -0.569060 0.360311 76 0 153
0.491596 0.611315 0.499237 76 0 153
-0.311679 -0.758612 0.080323 76 0 153
-0.398592 0.085318 0.421186 76 0 153
0.419245 -0.063545 -0.543296 76 0 153
0.257924 -0.013070 0.391917 76 0 153
0.402334 -0.578774 0.499237 76 0 153
-0.544737 -0.247081 0.373541 76 0 153
0.024104 0.473687 0.479724 76 0 153
-0.331944 0.735500 -0.110589 76 0 153
-0.011225 -0.360488 0.421186 76 0 153
-0.375715 -0.503144 -0.565597 76 0 153
0.345791 0.501860 -0.543296 76 0 153
0.179620 0.720169 0.485804 76 0 153
0.409203 -0.758612 0.064215 76 0 153
0.299839 0.735500 -0.015719 76 0 153
0.432165 -0.506575 -0.543296 76 0 153
-0.252379 -0.133570 0.499237 76 0 153
-0.544737 -0.262719 -0.522082 76 0 153
-0.522437 -0.425159 -0.087202 76 0 153
0.006364 -0.370174 0.479724 76 0 153
-0.082978 -0.569060 0.113560 76 0 153
0.158934 -0.758612 -0.265402 76 0 153
-0.544737 0.164551 -0.015688 76 0 153
0.042443 0.007138 -0.543296 76 0 153
-0.125237 -0.758612 -0.269947 76 0 153
0.099187 -0.569060 -0.416841 76 0 153
0.514521 -0.572929 0.431900 76 0 153
-0.462692 0.218983 -0.543296 76 0 153
-0.463744 0.690900 0.124164 76 0 153
-0.296491 -0.090476 -0.543296 76 0 153
0.284460 0.272530 0.421186 76 0 153
0.418315 -0.535400 0.421186 76 0 153
-0.353217 -0.569060 -0.030190 76 0 153
-0.544737 -0.092441 -0.073930 76 0 153
0.516310 0.735500 -0.315220 76 0 153
0.039927 0.735500 0.268407 76 0 153
-0.522437 0.410650 -0.437770 76 0 153
-0.001672 0.690900 -0.151066 76 0 153
-0.464688 -0.758612 0.185855 76 0 153
-0.423203 -0.581872 -0.565597 76 0 153
-0.224294 0.719279 0.499237 76 0 153
-0.041578 0.593658 0.479724 76 0 153
0.193331 -0.758612 -0.036547 76 0 153
0.520096 -0.741022 -0.357223 76 0 153
-0.522437 0.492915 -0.367254 76 0 153
-0.494384 0.256062 0.499237 76 0 153
0.219676 0.735500 -0.279956 76 0 153
0.063243 -0.431412 -0.565597 76 0 153
-0.544737 0.278120 -0.532476 76 0 153
0.232367 0.690900 -0.386923 76 0 153
-0.314054 -0.569060 -0.146941 76 0 153
-0.544737 0.459956 -0.561677 76 0 153
0.418730 -0.185592 0.421186 76 0 153
-0.028668 -0.605298 0.439842 76 0 153
0.075115 -0.623776 0.304110 76 0 153
0.520096 -0.538558 0.239068 76 0 153
0.109288 -0.620629 0.365565 76 0 153
-0.522437 -0.566616 -0.333622 76 0 153
0.071616 -0.442644 0.421186 76 0 153
-0.539162 0.344683 0.456087 76 0 153
-0.522437 -0.460429 -0.269172 76 0 153
0.520096 -0.008611 0.283456 76 0 153
0.520096 -0.730591 0.282888 76 0 153
-0.327211 0.690900 0.315681 76 0 153
-0.208195 -0.569060 -0.289314 76 0 153
-0.174683 0.735500 -0.110129 76 0 153
-0.033222 0.285047 -0.543296 76 0 153
-0.537216 0.592139 0.391917 76 0 153
-0.134331 0.735500 0.330037 76 0 153
0.406783 0.735500 -0.180940 76 0 153
-0.279815 0.189132 -0.543296 76 0 153
0.497796 -0.522398 -0.264459 76 0 153
0.520096 0.688294 -0.165584 76 0 153
0.292462 0.735500 -0.110617 76 0 153
0.301601 0.693225 0.421186 76 0 153
-0.544737 -0.219699 0.312702 76 0 153
-0.202346 0.062239 0.421186 76 0 153
-0.390234 0.497882 0.483701 76 0 153
0.520096 -0.333246 -0.065597 76 0 153
-0.006376 -0.072677 0.421186 76 0 153
-0.135675 0.728640 -0.565597 76 0 153
-0.544737 0.202198 -0.206717 76 0 153
0.281336 -0.251049 -0.565597 76 0 153
-0.520739 0.393039 -0.565597 76 0 153
-0.507186 -0.517950 0.391917 76 0 153
-0.522437 0.329884 0.302269 76 0 153
0.520096 -0.606602 -0.288374 76 0 153
-0.484980 0.108748 -0.543296 76 0 153
-0.495083 0.510082 0.391917 76 0 153
0.491272 -0.758612 -0.005368 76 0 153
0.037827 0.575411 -0.565597 76 0 153
-0.462812 -0.758612 -0.460676 204 51 127
0.408461 -0.569060 -0.429651 76 0 153
0.508126 0.735500 0.121477 76 0 153
0.321915 -0.548679 0.499237 76 0 153
-0.012008 -0.569060 -0.298655 76 0 153
-0.539162 -0.516024 0.497651 76 0 153
0.371082 0.735500 0.318628 76 0 153
-0.544737 -0.262821 0.111695 76 0 153
-0.092714 0.735500 0.265514 76 0 153
-0.522437 -0.311461 -0.113188 76 0 153
0.241082 0.735500 0.328964 76 0 153
-0.368427 0.735500 -0.254729 76 0 153
-0.420177 -0.363003 0.479724 76 0 153
-0.417396 0.163675 0.479724 76 0 153
-0.522437 0.588937 -0.059932 76 0 153
0.396418 0.309904 0.421186 76 0 153
0.514521 0.508250 0.444714 76 0 153
0.111059 0.500826 0.421186 76 0 153
-0.071933 -0.569060 -0.396693 76 0 153
0.056350 0.690900 -0.011814 76 0 153
-0.195570 -0.569060 -0.403220 76 0 153
0.497796 0.456932 -0.498002 76 0 153
0.306703 -0.569060 0.356939 76 0 153
0.064119 0.690900 0.171733 76 0 153
0.341529 0.690900 -0.001787 76 0 153
0.120585 -0.569060 0.274346 76 0 153
-0.544737 -0.487759 -0.337876 76 0 153
-0.544737 -0.016917 -0.123423 76 0 153
-0.323292 0.690900 0.150852 76 0 153
0.167886 -0.784829 0.331986 76 0 153
0.063899 -0.569060 0.099792 76 0 153
-0.228202 0.653219 0.391917 76 0 153
0.520096 0.619377 -0.070641 76 0 153
-0.024481 0.690900 -0.026620 76 0 153
-0.152828 0.059684 -0.565597 76 0 153
-0.544737 -0.406020 0.386733 76 0 153
-0.544737 -0.755081 -0.195035 76 0 153
-0.313985 -0.758612 0.015780 76 0 153
0.461481 0.690900 -0.224249 76 0 153
-0.522437 -0.209086 -0.070554 76 0 153
0.464396 -0.758612 -0.137704 76 0 153
-0.522437 0.385454 0.043389 76 0 153
0.520096 -0.083165 0.362970 76 0 153
-0.292342 0.690900 -0.446327 76 0 153
0.481444 0.680528 0.499237 76 0 153
0.039542 0.690900 -0.408812 76 0 153
0.520096 0.348253 -0.321444 76 0 153
0.003279 -0.191053 0.421186 76 0 153
-0.043585 0.735500 -0.522202 76 0 153
0.455758 -0.551814 0.499237 76 0 153
0.419167 0.690900 -0.311754 76 0 153
-0.229191 0.690900 -0.239725 76 0 153
0.250074 0.040751 -0.543296 76 0 153
-0.406494 -0.070208 -0.565597 76 0 153
0.141964 0.690900 -0.093252 76 0 153
-0.273102 0.521340 -0.543296 76 0 153
-0.021743 -0.301097 0.421186 76 0 153
0.303126 -0.431129 0.421186 76 0 153
-0.544737 0.095182 0.004160 76 0 153
-0.413919 -0.118523 0.421186 76 0 153
0.497796 -0.511182 -0.112056 76 0 153
0.046571 0.587107 0.479724 76 0 153
0.520096 0.486004 -0.261869 76 0 153
0.315410 0.735500 0.250379 76 0 153
-0.160988 0.690900 0.066728 76 0 153
-0.400583 0.162609 -0.565597 76 0 153
-0.087377 0.690900 -0.059226 76 0 153
-0.319960 -0.758612 0.287050 76 0 153
-0.090309 0.188607 -0.565597 76 0 153
0.520096 0.296622 -0.505166 76 0 153
0.172629 -0.620629 0.389282 76 0 153
-0.360420 -0.569060 -0.419971 76 0 153
-0.425413 0.673574 -0.543296 76 0 153
-0.405365 0.690900 0.112563 76 0 153
0.400955 -0.402011 -0.565597 76 0 153
0.001036 -0.398598 -0.543296 76 0 153
0.170624 0.735500 -0.218819 76 0 153
-0.544737 -0.690178 0.087243 76 0 153
0.520096 -0.615886 0.275434 76 0 153
0.281034 0.178425 0.421186 76 0 153
0.497796 0.541001 0.234436 76 0 153
0.497796 0.358596 -0.504538 76 0 153
0.303631 -0.623417 0.306781 76 0 153
0.520096 -0.513106 0.302423 76 0 153
0.463168 -0.569060 -0.305148 76 0 153
-0.248620 -0.569060 0.278260 76 0 153
-0.544737 -0.525317 0.055049 76 0 153
0.105639 -0.758612 -0.226428 76 0 153
0.497796 0.210293 -0.426074 76 0 153
0.497796 0.083881 -0.413401 76 0 153
0.115548 0.735500 0.111931 76 0 153
-0.398863 0.690900 0.268970 76 0 153
-0.544737 -0.683516 -0.038375 76 0 153
0.009421 0.679418 0.421186 76 0 153
0.267183 0.674530 -0.543296 76 0 153
0.514521 0.060555 0.487708 76 0 153
0.123082 -0.758612 -0.141448 76 0 153
-0.490620 0.690900 -0.442260 76 0 153
0.514521 -0.482033 0.454675 76 0 153
0.278410 -0.569060 0.018816 76 0 153
0.344964 -0.391338 0.499237 76 0 153
0.310234 -0.160596 0.421186 76 0 153
0.520096 -0.533036 0.135647 76 0 153
-0.033033 0.400409 -0.543296 76 0 153
-0.128483 0.735500 0.090849 76 0 153
-0.028586 0.735500 0.233112 76 0 153
-0.544737 -0.258012 -0.260419 76 0 153
-0.544737 0.034859 0.336472 76 0 153
0.029430 0.399898 0.499237 76 0 153
0.403752 -0.252100 0.479724 76 0 153
-0.173704 -0.749465 -0.565597 76 0 153
0.462709 -0.758612 0.120621 76 0 153
0.272210 0.247028 0.479724 76 0 153
0.520096 0.689352 0.015906 76 0 153
-0.295378 0.566138 0.488804 76 0 153
-0.326910 0.690900 -0.352694 76 0 153
-0.125522 0.690900 0.181079 76 0 153
-0.522437 -0.160865 -0.257027 76 0 153
-0.539162 -0.564451 0.427740 76 0 153
0.127056 0.735500 -0.557960 76 0 153
0.520096 -0.633752 -0.371213 76 0 153
0.497796 0.498439 -0.126603 76 0 153
0.359288 0.690900 0.166778 76 0 153
-0.522437 -0.020681 0.314066 76 0 153
0.281601 -0.758612 0.079635 76 0 153
0.497796 -0.368493 -0.500195 76 0 153
-0.206435 0.434820 -0.565597 76 0 153
-0.522437 0.330787 -0.411892 76 0 153
0.455748 0.197977 0.499237 76 0 153
0.050121 0.097370 -0.543296 76 0 153
0.520096 -0.054801 -0.429790 76 0 153
-0.544737 0.017097 -0.050643 76 0 153
-0.522437 0.595048 -0.494866 76 0 153
0.497796 -0.316871 0.237346 76 0 153
-0.491096 -0.626685 0.304110 76 0 153
0.396285 0.690900 -0.432342 76 0 153
-0.172964 -0.134247 0.479724 76 0 153
0.003377 -0.758612 -0.515131 76 0 153
-0.544737 0.669314 -0.555056 76 0 153
0.176352 -0.041491 0.479724 76 0 153
0.176530 0.735500 -0.375695 76 0 153
0.199550 0.690900 0.034676 76 0 153
-0.544737 -0.500598 0.298260 76 0 153
-0.297407 -0.422458 -0.565597 76 0 153
0.497796 0.331026 0.385069 76 0 153
-0.522437 0.157540 0.376869 76 0 153
0.198568 0.690900 -0.311437 76 0 153
0.222784 0.732750 0.391917 76 0 153
-0.412613 -0.605298 0.450797 76 0 153
-0.522437 -0.421210 0.232779 76 0 153
-0.544737 0.062097 -0.520611 76 0 153
0.109194 -0.075447 0.391917 76 0 153
-0.346392 -0.569060 0.259141 76 0 153
-0.544737 -0.636720 -0.417894 76 0 153
0.373447 -0.730543 -0.565597 76 0 153
-0.093105 -0.242157 -0.565597 76 0 153
-0.058928 0.690900 0.326617 76 0 153
0.101184 0.720169 0.428101 76 0 153
0.454363 0.531040 0.391917 76 0 153
0.408772 0.690900 0.318370 76 0 153
0.225948 -0.341114 -0.543296 76 0 153
0.416974 0.077917 0.499237 76 0 153
0.162030 -0.007541 0.391917 76 0 153
-0.202064 -0.758612 -0.178325 76 0 153
0.270590 0.735500 0.047656 76 0 153
0.469002 -0.402903 0.421186 76 0 153
0.101108 0.585116 -0.565597 76 0 153
0.349084 0.324183 0.499237 76 0 153
-0.383732 0.572263 0.479724 76 0 153
0.460492 0.076824 0.421186 76 0 153
-0.494867 0.059414 0.499237 76 0 153
0.428650 -0.569060 -0.520821 76 0 153
0.473847 0.690900 0.385700 76 0 153
0.388521 -0.569060 0.068914 76 0 153
-0.489855 0.108794 0.552997 153 0 76
-0.522437 0.223141 0.164453 76 0 153
-0.174498 -0.569060 0.004347 76 0 153
0.063107 0.690900 -0.523203 76 0 153
-0.315724 0.157963 0.499237 76 0 153
-0.480084 0.446748 0.421186 76 0 153
0.328502 0.735500 -0.181686 76 0 153
-0.177494 -0.105790 0.421186 76 0 153
-0.338249 -0.343297 0.421186 76 0 153
-0.544737 0.529551 0.365358 76 0 153
-0.360143 0.301669 0.391917 76 0 153
0.520096 0.554884 0.131198 76 0 153
-0.348500 0.735500 -0.554104 76 0 153
-0.522437 0.528274 -0.429685 76 0 153
-0.213409 0.690900 -0.415325 76 0 153
-0.522437 0.027315 0.224753 76 0 153
0.441232 -0.785093 0.322285 76 0 153
0.520096 0.195414 -0.327864 76 0 153
0.293701 -0.315890 0.479724 76 0 153
0.520096 -0.597472 -0.077705 76 0 153
0.497796 0.280386 -0.414588 76 0 153
-0.522437 -0.249635 -0.172515 76 0 153
-0.310273 -0.307550 0.499237 76 0 153
0.446005 0.370378 -0.543296 76 0 153
-0.168430 -0.533502 0.499237 76 0 153
0.497796 0.373753 -0.246026 76 0 153
0.198140 0.690900 -0.036201 76 0 153
0.101800 -0.758612 -0.045555 76 0 153
-0.422190 0.735500 0.022861 76 0 153
0.202548 -0.569060 -0.489252 76 0 153
0.094543 -0.758612 -0.419524 76 0 153
-0.030415 -0.569060 0.321809 76 0 153
0.349778 0.735500 -0.440668 76 0 153
-0.062685 0.735500 -0.120590 76 0 153
-0.207516 0.690900 0.327477 76 0 153
-0.240233 -0.758612 -0.252845 76 0 153
-0.000794 0.732370 -0.565597 76 0 153
-0.522437 0.481835 -0.117843 76 0 153
-0.376893 -0.569060 -0.129422 76 0 153
-0.245617 0.104855 -0.565597 76 0 153
-0.441130 -0.569060 0.052806 76 0 153
0.497796 0.027001 -0.480699 76 0 153
-0.246295 -0.435420 0.391917 76 0 153
-0.296638 0.095775 0.421186 76 0 153
0.247846 -0.079560 0.391917 76 0 153
0.196034 0.735500 0.132058 76 0 153
0.476483 -0.569060 -0.025029 76 0 153
0.520096 -0.712021 -0.087755 76 0 153
-0.522437 0.145342 -0.101758 76 0 153
-0.544737 -0.662675 -0.238332 76 0 153
0.186671 -0.569060 0.097880 76 0 153
-0.522437 0.655941 -0.270855 76 0 153
0.075247 -0.131815 0.421186 76 0 153
0.078688 -0.574891 0.391917 76 0 153
0.520096 0.376203 0.112333 76 0 153
0.520096 -0.463247 -0.338669 76 0 153
-0.263948 -0.758612 -0.400387 76 0 153
0.214959 0.357724 0.391917 76 0 153
0.497796 -0.421640 -0.526293 76 0 153
0.189059 -0.179707 0.391917 76 0 153
-0.269118 0.690900 0.193997 76 0 153
0.514521 0.157102 0.433146 76 0 153
-0.027993 0.735500 -0.309281 76 0 153
-0.522437 -0.375013 -0.290943 76 0 153
-0.544737 -0.412569 -0.181767 76 0 153
0.401362 0.714594 0.402925 76 0 153
0.104086 0.735500 -0.121634 76 0 153
-0.239719 0.423214 0.421186 76 0 153
0.057479 0.357230 -0.543296 76 0 153
0.374581 -0.498339 0.421186 76 0 153
-0.539162 0.017261 0.441874 76 0 153
0.113399 -0.249519 0.479724 76 0 153
0.520096 0.013291 -0.368669 76 0 153
-0.090970 -0.758612 -0.112095 76 0 153
0.497796 0.014948 -0.148586 76 0 153
-0.544737 -0.060789 -0.195376 76 0 153
-0.544737 -0.566145 -0.533741 76 0 153
0.192348 -0.758612 0.053840 76 0 153
0.497796 0.347256 0.010987 76 0 153
-0.077267 0.188337 0.421186 76 0 153
-0.323080 0.072922 0.499237 76 0 153
-0.376695 0.690900 0.030445 76 0 153
0.146814 0.735500 0.350535 76 0 153
0.520096 0.651768 -0.279208 76 0 153
0.104445 -0.569060 0.144881 76 0 153
-0.172205 -0.637272 -0.565597 76 0 153
0.039546 -0.306468 0.479724 76 0 153
0.132631 0.095341 0.421186 76 0 153
0.174022 0.690900 -0.411317 76 0 153
0.214073 0.599018 -0.565597 76 0 153
0.027832 -0.758612 -0.441103 76 0 153
0.520096 -0.408781 -0.316430 76 0 153
-0.126407 0.672296 -0.565597 76 0 153
0.497912 0.603578 -0.565597 76 0 153
-0.544737 0.050658 0.121412 76 0 153
-0.209635 -0.549324 0.421186 76 0 153
0.385381 0.222149 0.479724 76 0 153
0.063773 -0.024394 0.391917 76 0 153
0.334692 0.735500 0.389677 76 0 153
0.367439 0.690900 -0.360558 76 0 153
-0.258521 0.690900 -0.055535 76 0 153
-0.326804 0.720169 0.447838 76 0 153
0.139175 -0.758612 0.155377 76 0 153
0.314330 -0.486980 0.421186 76 0 153
0.520096 -0.060494 0.093438 76 0 153
-0.187686 -0.305697 -0.543296 76 0 153
-0.427891 0.409524 -0.543296 76 0 153
-0.165433 -0.758612 0.260886 76 0 153
-0.113935 -0.569060 -0.351627 76 0 153
-0.416268 0.690900 -0.414340 76 0 153
0.520096 0.254900 0.232700 76 0 153
-0.544737 0.218129 -0.397536 76 0 153
0.343054 -0.569060 0.123316 76 0 153
-0.208200 0.690900 0.135010 76 0 153
-0.226205 -0.758612 0.278537 76 0 153
0.113102 -0.728839 0.331986 76 0 153
-0.303713 -0.181963 0.421186 76 0 153
0.520096 -0.669981 -0.507780 76 0 153
0.263248 -0.758612 -0.348213 76 0 153
-0.240663 -0.220769 0.479724 76 0 153
-0.544737 -0.305477 0.372104 76 0 153
-0.486375 0.690900 -0.007362 76 0 153
0.114345 0.357367 0.391917 76 0 153
-0.411144 -0.048344 0.391917 76 0 153
-0.446869 -0.700091 -0.565597 76 0 153
0.369239 0.383914 0.421186 76 0 153
-0.173308 -0.675143 0.304110 76 0 153
-0.435005 0.735500 0.092840 76 0 153
-0.133287 0.690900 0.005586 76 0 153
-0.431282 0.467397 -0.543296 76 0 153
0.040341 0.690900 0.370146 76 0 153
0.201252 0.237404 -0.543296 76 0 153
-0.434232 -0.153708 0.479724 76 0 153
-0.050744 0.669558 0.499237 76 0 153
-0.522437 0.143399 -0.396409 76 0 153
-0.226066 0.351591 0.421186 76 0 153
0.520096 -0.083531 -0.521001 76 0 153
-0.352938 -0.569060 0.371468 76 0 153
0.198729 0.266239 0.421186 76 0 153
0.475449 -0.569060 0.148671 76 0 153
-0.201066 -0.330164 0.499237 76 0 153
0.126433 -0.462646 0.421186 76 0 153
0.520096 0.471882 0.156976 76 0 153
0.497796 0.590798 -0.229558 76 0 153
0.356713 -0.223055 -0.565597 76 0 153
0.497796 0.090053 -0.113558 76 0 153
-0.522437 0.257459 0.071309 76 0 153
-0.522437 0.565099 0.272644 76 0 153
0.497796 0.597049 -0.333019 76 0 153
-0.034147 -0.509179 0.421186 76 0 153
-0.544737 -0.730358 0.026755 76 0 153
0.286387 0.690900 0.153708 76 0 153
-0.326914 0.342267 0.479724 76 0 153
0.385250 0.529523 0.391917 76 0 153
-0.313501 -0.569060 -0.520165 76 0 153
0.497796 0.660194 -0.409695 76 0 153
-0.070780 -0.289847 0.499237 76 0 153
0.142353 -0.546345 0.391917 76 0 153
-0.027940 0.367659 0.479724 76 0 153
-0.482197 0.735500 0.314950 76 0 153
0.520096 0.676758 0.221429 76 0 153
-0.544737 -0.540660 0.199465 76 0 153
-0.309590 -0.758612 0.161377 76 0 153
-0.033788 -0.237147 0.421186 76 0 153
-0.089820 -0.605261 -0.565597 76 0 153
0.497796 0.254147 -0.119279 76 0 153
-0.353829 0.109742 -0.565597 76 0 153
-0.031290 0.735500 0.177004 76 0 153
0.033512 -0.303866 -0.565597 76 0 153
0.520096 -0.413760 0.225164 76 0 153
0.165981 -0.758612 -0.357322 76 0 153
0.196120 0.735500 -0.491653 76 0 153
-0.544737 0.527378 -0.324486 76 0 153
0.303386 -0.065986 0.499237 76 0 153
0.497796 -0.212643 0.258958 76 0 153
-0.544737 0.116941 -0.250684 76 0 153
-0.214808 -0.036836 0.421186 76 0 153
0.307124 -0.569060 -0.441663 76 0 153
0.139145 -0.569060 -0.100110 76 0 153
-0.436993 -0.569060 0.175705 76 0 153
0.208339 -0.675202 0.304110 76 0 153
-0.219841 0.536372 0.421186 76 0 153
0.078456 -0.569060 -0.194682 76 0 153
-0.430749 -0.569060 0.333258 76 0 153
0.517128 0.735500 -0.125304 76 0 153
-0.057699 0.441077 0.421186 76 0 153
-0.522437 0.612198 -0.378309 76 0 153
-0.374563 0.690900 -0.184778 76 0 153
-0.544737 -0.138318 0.102397 76 0 153
-0.206734 0.690900 -0.484710 76 0 153
0.070855 0.104707 0.499237 76 0 153
-0.135932 0.009687 0.421186 76 0 153
0.359246 -0.758612 0.016753 76 0 153
-0.383828 -0.230547 -0.565597 76 0 153
-0.407867 0.348216 0.479724 76 0 153
-0.426795 -0.569060 -0.503531 76 0 153
0.392975 -0.143034 0.391917 76 0 153
0.487462 -0.712225 0.331986 76 0 153
0.374144 0.447589 -0.543296 76 0 153
0.182386 -0.569060 0.226640 76 0 153
0.497796 0.206443 -0.504580 76 0 153
-0.429886 -0.536116 0.421186 76 0 153
0.520096 0.223648 0.375068 76 0 153
0.215901 -0.605298 0.450308 76 0 153
-0.291361 0.500194 0.391917 76 0 153
-0.349514 0.735500 0.220601 76 0 153
0.497796 0.069909 0.219851 76 0 153
-0.481866 -0.569060 -0.173323 76 0 153
0.429761 -0.758612 -0.511028 0 0 255
-0.544737 0.396745 0.301240 76 0 153
0.139108 -0.548331 0.499237 76 0 153
0.520096 -0.348534 -0.227471 76 0 153
0.497796 0.176614 -0.217206 76 0 153
-0.502505 0.690900 -0.080730 76 0 153
-0.332230 -0.568649 0.499237 76 0 153
-0.055197 0.556130 -0.543296 76 0 153
-0.284224 0.219752 0.421186 76 0 153
0.497796 0.637752 -0.133257 76 0 153
0.006846 0.735500 0.344379 76 0 153
-0.522437 0.353338 0.135909 76 0 153
0.497796 -0.323780 0.380865 76 0 153
-0.417772 0.720169 0.425876 76 0 153
-0.539936 -0.296873 -0.565597 76 0 153
-0.153091 0.690900 -0.206449 76 0 153
0.058995 0.690900 0.106095 76 0 153
-0.431968 0.025114 -0.543296 76 0 153
0.244200 0.510318 0.479724 76 0 153
0.313278 0.609615 -0.565597 76 0 153
0.247593 -0.569060 -0.096953 76 0 153
0.297355 0.690900 -0.461783 76 0 153
0.379971 0.638182 0.499237 76 0 153
-0.479937 0.563039 0.520566 153 0 76
-0.483949 0.367703 0.391917 76 0 153
0.299459 0.220804 -0.543296 76 0 153
-0.273403 0.690900 0.054158 76 0 153
0.520096 0.329056 -0.211302 76 0 153
-0.509446 0.083942 0.391917 76 0 153
0.025887 0.690900 -0.070042 76 0 153
-0.508027 -0.792062 0.283007 0 255 0
-0.488322 0.690900 0.060091 76 0 153
0.344005 0.735500 0.093014 76 0 153
0.249071 0.690900 0.362472 76 0 153
-0.068042 0.690900 0.141760 76 0 153
-0.544737 -0.529994 -0.108601 76 0 153
-0.539162 -0.170242 0.467232 76 0 153
-0.115846 0.391200 -0.543296 76 0 153
0.084910 0.184128 0.421186 76 0 153
-0.110290 -0.130954 0.421186 76 0 153
-0.049500 -0.135995 -0.565597 76 0 153
-0.337654 -0.709878 0.331986 76 0 153
0.100248 0.005660 -0.543296 76 0 153
0.259666 -0.569060 0.328026 76 0 153
-0.490944 0.005735 -0.543296 76 0 153
-0.544737 0.167091 0.257455 76 0 153
-0.544737 -0.022631 -0.518694 76 0 153
-0.544737 -0.376147 -0.075264 76 0 153
-0.544737 -0.003205 -0.289520 76 0 153
-0.500037 -0.758612 -0.300069 76 0 153
-0.441170 0.690900 0.333777 76 0 153
-0.544737 -0.272758 -0.054838 76 0 153
-0.019807 -0.043798 -0.543296 76 0 153
0.520096 0.099824 -0.285612 76 0 153
-0.055512 0.020307 0.391917 76 0 153
-0.217346 -0.017750 0.479724 76 0 153
-0.522437 0.247213 -0.343369 76 0 153
0.520096 -0.110984 -0.421093 76 0 153
0.520096 0.195737 0.130831 76 0 153
-0.516621 -0.758612 0.129729 76 0 153
-0.371976 0.690900 -0.039983 76 0 153
-0.409553 0.735500 -0.511573 76 0 153
-0.132364 0.735500 -0.034042 76 0 153
-0.416526 0.281311 -0.565597 76 0 153
0.396742 -0.569060 -0.349978 76 0 153
-0.377198 0.247886 0.479724 76 0 153
-0.544737 0.683083 0.215589 76 0 153
-0.522437 0.293664 -0.158853 76 0 153
-0.496484 0.690900 -0.509889 76 0 153
-0.502690 -0.569060 -0.281159 76 0 153
0.208436 0.470323 -0.565597 76 0 153
0.464560 -0.390522 -0.565597 76 0 153
0.100528 0.690900 -0.396748 76 0 153
0.445143 0.690900 0.144265 76 0 153
-0.069872 0.735500 -0.372928 76 0 153
-0.292290 -0.569060 0.176659 76 0 153
0.264221 0.690900 -0.095811 76 0 153
0.486231 0.735500 -0.253101 76 0 153
-0.522437 0.687951 -0.133806 76 0 153
0.520096 -0.098386 -0.017680 76 0 153
-0.283859 0.690900 -0.298773 76 0 153
-0.522437 0.436321 -0.381876 76 0 153
0.385815 -0.569060 0.189649 76 0 153
0.497796 -0.254838 -0.516677 76 0 153
0.163416 0.586714 0.421186 76 0 153
0.169608 0.070958 0.499237 76 0 153
0.028682 0.573397 0.421186 76 0 153
-0.436411 -0.733578 0.331986 76 0 153
-0.172992 -0.569060 -0.509069 76 0 153
0.419198 -0.298869 0.391917 76 0 153
0.088724 -0.199773 0.499237 76 0 153
-0.165992 0.415505 0.479724 76 0 153
0.215338 -0.482429 0.421186 76 0 153
0.193298 -0.166353 -0.543296 76 0 153
0.102823 -0.216326 -0.543296 76 0 153
0.495876 -0.623417 0.444319 76 0 153
0.497796 0.448345 -0.315982 76 0 153
-0.351597 0.261448 -0.565597 76 0 153
-0.132182 -0.090831 -0.543296 76 0 153
0.162897 0.040249 0.421186 76 0 153
-0.222191 0.611790 -0.543296 76 0 153
0.520096 0.141432 0.136372 76 0 153
0.120950 0.157503 -0.565597 76 0 153
0.427435 0.735500 -0.120022 76 0 153
-0.522437 0.235678 0.335807 76 0 153
0.050820 -0.563567 0.499237 76 0 153
0.406807 0.011099 0.479724 76 0 153
0.020620 -0.632580 0.304110 76 0 153
0.014520 -0.569533 -0.565597 76 0 153
0.514521 0.564689 0.455222 76 0 153
0.077317 -0.348605 0.391917 76 0 153
-0.544737 -0.701219 -0.357202 76 0 153
0.468633 0.371105 0.421186 76 0 153
-0.336723 -0.217126 0.391917 76 0 153
0.254422 0.735500 0.105623 76 0 153
0.009074 -0.758612 0.237748 76 0 153
-0.011873 0.690900 0.264532 76 0 153
-0.324603 0.735500 -0.437236 76 0 153
0.370331 0.690900 0.050472 76 0 153
0.494609 -0.183849 0.499237 76 0 153
0.238374 0.456211 0.479724 76 0 153
0.366439 -0.270560 0.391917 76 0 153
-0.476057 0.405686 0.499237 76 0 153
-0.304231 -0.467429 0.479724 76 0 153
0.014499 0.145066 -0.565597 76 0 153
0.466479 -0.067136 0.499237 76 0 153
0.472787 0.495965 -0.565597 76 0 153
-0.162593 -0.758612 -0.433530 76 0 153
-0.039698 0.735500 -0.060973 76 0 153
-0.045218 0.649057 -0.543296 76 0 153
-0.424239 -0.552282 0.499237 76 0 153
-0.504866 0.672371 0.499237 76 0 153
0.489404 -0.018077 0.391917 76 0 153
0.160069 0.402169 -0.543296 76 0 153
-0.064251 0.452863 0.499237 76 0 153
-0.179731 -0.001302 -0.543296 76 0 153
-0.419110 -0.758612 0.286707 76 0 153
0.038886 0.735500 -0.500205 76 0 153
0.253391 -0.533781 0.391917 76 0 153
0.205686 -0.758612 -0.237924 76 0 153
-0.079575 -0.569060 -0.028872 76 0 153
-0.544737 -0.633400 0.069570 76 0 153
0.486746 0.690900 -0.344772 76 0 153
-0.544737 0.330204 -0.358075 76 0 153
0.278325 -0.758612 -0.042743 76 0 153
-0.467446 0.285198 0.391917 76 0 153
0.074218 0.735500 0.318510 76 0 153
-0.315691 -0.066966 0.421186 76 0 153
0.354318 -0.569060 -0.002229 76 0 153
-0.544737 -0.056163 -0.401081 76 0 153
-0.445349 0.477280 0.499237 76 0 153
0.520096 0.450686 -0.442218 76 0 153
0.319892 -0.017052 0.391917 76 0 153
-0.493946 0.735500 0.139563 76 0 153
-0.544737 0.366680 -0.521650 76 0 153
-0.010358 0.690900 -0.441494 76 0 153
0.473486 -0.569060 0.029789 76 0 153
-0.491722 0.345216 -0.543296 76 0 153
0.497796 0.578555 -0.040282 76 0 153
-0.502411 -0.020177 0.421186 76 0 153
-0.369903 0.531816 0.391917 76 0 153
-0.215139 -0.463880 0.479724 76 0 153
0.212813 0.690900 0.100963 76 0 153
-0.355943 0.217835 0.391917 76 0 153
0.520096 -0.397225 0.039940 76 0 153
-0.164855 0.696199 0.391917 76 0 153
-0.522437 -0.095389 -0.446884 76 0 153
-0.293223 -0.758612 -0.331465 76 0 153
0.396994 -0.438791 0.479724 76 0 153
-0.544737 -0.120884 -0.121931 76 0 153
-0.298155 0.735500 0.307085 76 0 153
-0.490006 0.735500 0.256341 76 0 153
-0.522437 0.485891 0.047298 76 0 153
-0.522437 0.076077 0.309930 76 0 153
-0.394769 -0.667327 -0.565597 76 0 153
-0.102509 0.690900 -0.464996 76 0 153
0.520096 -0.478629 -0.017544 76 0 153
-0.144797 0.690900 -0.100419 76 0 153
0.290092 -0.727645 0.331986 76 0 153
-0.544737 0.475582 0.337907 76 0 153
0.328550 -0.569060 0.242343 76 0 153
-0.317844 0.690900 -0.518640 76 0 153
0.127041 0.443194 0.479724 76 0 153
-0.115107 0.735500 -0.422849 76 0 153
-0.535421 0.720169 0.438311 76 0 153
-0.261633 -0.277507 0.391917 76 0 153
-0.116595 -0.547992 0.421186 76 0 153
0.002255 0.525515 0.391917 76 0 153
0.196929 0.475256 0.391917 76 0 153
-0.246545 -0.569060 0.006607 76 0 153
-0.008353 0.134458 0.479724 76 0 153
-0.096858 0.720169 0.444105 76 0 153
0.318442 0.735500 0.337328 76 0 153
-0.213879 -0.536285 -0.543296 76 0 153
-0.329605 0.484795 -0.565597 76 0 153
-0.522437 -0.419725 -0.373784 76 0 153
0.261242 0.720169 0.455103 76 0 153
-0.354723 0.690900 -0.461616 76 0 153
-0.040549 0.735500 0.385392 76 0 153
-0.056613 0.119667 -0.543296 76 0 153
-0.225677 0.690900 -0.181062 76 0 153
0.358381 -0.620704 0.304110 76 0 153
-0.544737 0.258761 -0.254999 76 0 153
-0.544737 0.040396 -0.381207 76 0 153
-0.227492 -0.122861 -0.543296 76 0 153
0.447174 -0.677122 0.331986 76 0 153
0.001556 -0.021616 0.479724 76 0 153
-0.262314 0.159279 0.499237 76 0 153
0.484356 0.735500 0.346247 76 0 153
0.437236 -0.569060 0.090793 76 0 153
-0.483758 -0.558839 -0.565597 76 0 153
0.474766 0.735500 0.266604 76 0 153
-0.059737 -0.758612 -0.185014 76 0 153
-0.251207 0.735500 -0.322859 76 0 153
0.461177 -0.620629 0.388081 76 0 153
-0.491394 0.735500 -0.165391 76 0 153
-0.202922 -0.569060 0.114376 76 0 153
-0.429820 0.464975 0.391917 76 0 153
0.497796 0.044172 -0.320560 76 0 153
-0.236655 -0.758612 -0.506536 76 0 153
-0.522437 -0.181842 -0.342868 76 0 153
0.286811 0.488977 0.421186 76 0 153
-0.423635 -0.758612 -0.169358 76 0 153
-0.522437 0.584955 0.054991 76 0 153
-0.153118 -0.625839 0.304110 76 0 153
-0.519018 0.122966 0.499237 76 0 153
-0.544737 -0.160347 -0.033190 76 0 153
-0.157193 0.635020 -0.543296 76 0 153
-0.533587 -0.462364 0.397206 76 0 153
0.424623 -0.569060 0.283487 76 0 153
-0.291284 0.142080 -0.565597 76 0 153
-0.522437 0.620716 0.211037 76 0 153
0.157356 -0.419410 0.421186 76 0 153
0.016690 0.690900 0.025055 76 0 153
0.520096 -0.179316 0.034098 76 0 153
-0.194203 -0.569060 -0.172752 76 0 153
0.138644 0.404622 0.391917 76 0 153
-0.544737 0.216708 -0.480533 76 0 153
-0.544737 -0.184390 -0.119489 76 0 153
-0.009293 -0.619869 0.391917 76 0 153
0.418233 -0.088002 0.391917 76 0 153
0.277697 0.416369 -0.565597 76 0 153
0.311449 -0.494900 0.479724 76 0 153
-0.382184 0.500927 -0.543296 76 0 153
0.520096 -0.139630 -0.194500 76 0 153
-0.115804 0.143580 0.391917 76 0 153
-0.199817 0.458976 0.421186 76 0 153
-0.243541 0.572732 0.479724 76 0 153
-0.522437 -0.478467 -0.454763 76 0 153
-0.365531 -0.428651 -0.543296 76 0 153
0.497796 0.180661 0.297615 76 0 153
-0.491238 0.735500 -0.474955 76 0 153
-0.522437 0.188464 0.058473 76 0 153
-0.491221 0.735500 0.378449 76 0 153
-0.496772 -0.758612 -0.016169 76 0 153
0.036311 -0.486386 0.479724 76 0 153
0.255697 0.735500 -0.455154 76 0 153
-0.025322 0.457433 -0.543296 76 0 153
-0.052265 0.690900 -0.294404 76 0 153
-0.544737 0.620384 -0.019860 76 0 153
