ply
format ascii 1.0
element vertex 1253
property float x
property float y
property float z
property uchar red
property uchar green
property uchar blue
end_header
0.472941 -0.418651 -0.231603 127 127 0
0.216543 -0.873661 -0.087669 127 127 0
-0.363930 -0.885283 0.012492 127 127 0
0.290499 0.339485 -0.437851 127 127 0
-0.474436 -0.546546 -0.276440 127 127 0
0.471538 0.017964 0.261336 127 127 0
-0.067193 0.791830 0.176350 0 255 0
0.027367 -0.873661 0.134656 127 127 0
-0.368288 0.894365 0.048650 0 255 0
0.148919 -0.649112 -0.507008 127 127 0
-0.089069 -0.021397 -0.523972 127 127 0
-0.245618 0.791830 0.059771 0 255 0
-0.426805 -0.892640 0.119057 127 127 0
0.515056 0.446851 0.156276 127 127 0
0.383458 0.813032 -0.076461 0 255 0
0.284072 -0.703121 -0.442783 127 127 0
-0.204475 -0.089410 -0.494652 127 127 0
0.308539 -0.702604 0.450354 127 127 0
-0.053563 0.894365 0.005558 0 255 0
0.529673 -0.445173 -0.022080 127 127 0
-0.277246 -0.873661 -0.109191 127 127 0
-0.266052 0.569723 -0.469146 127 127 0
0.465240 -0.603586 0.276540 127 127 0
-0.309454 0.791830 -0.175285 0 255 0
0.473105 -0.146890 -0.231208 127 127 0
0.271893 0.677401 0.380339 127 127 0
-0.473003 0.117504 -0.278309 127 127 0
0.152185 -0.873661 0.185555 127 127 0
-0.099750 -0.873661 -0.219577 127 127 0
0.214378 -0.538856 -0.479894 127 127 0
-0.021850 0.791830 0.083463 0 255 0
0.508705 -0.020890 0.171607 127 127 0
-0.469827 -0.411648 -0.282447 127 127 0
-0.241856 -0.500707 0.505514 127 127 0
-0.008230 0.791830 -0.323719 0 255 0
0.418622 -0.456128 0.341998 127 127 0
-0.107857 0.791830 -0.002865 0 255 0
-0.228190 0.704675 -0.367854 127 127 0
-0.097694 0.255207 0.549182 127 127 0
-0.329757 0.524468 0.453812 127 127 0
0.499074 0.538382 -0.168513 127 127 0
-0.169556 0.894365 -0.239415 0 255 0
0.121454 -0.207571 -0.516321 127 127 0
0.319150 0.791830 0.189477 0 255 0
-0.242338 0.164478 -0.478969 127 127 0
-0.057357 0.894365 -0.233218 0 255 0
0.520887 0.609925 -0.031700 127 127 0
-0.382670 -0.351467 0.413211 127 127 0
0.280001 -0.375439 0.472252 127 127 0
0.402096 -0.739022 -0.337189 127 127 0
0.361499 0.321879 -0.383371 127 127 0
-0.195183 -0.873661 -0.230204 127 127 0
0.123918 0.894365 -0.067396 0 255 0
0.474607 -0.700445 0.253927 127 127 0
-0.114934 -0.124063 0.546912 127 127 0
0.001570 -0.884697 -0.420753 127 127 0
-0.020227 0.393341 0.559380 127 127 0
0.023518 -0.080901 -0.529215 127 127 0
-0.544207 0.619809 0.039487 127 127 0
0.169520 0.382547 -0.498475 127 127 0
-0.402998 0.779493 0.110828 127 127 0
0.030288 -0.873661 -0.286448 127 127 0
0.172882 -0.007827 0.523428 127 127 0
-0.436600 0.533894 -0.325749 127 127 0
0.091185 -0.593862 0.546652 127 127 0
-0.533926 -0.028675 0.172825 127 127 0
-0.169147 0.822517 0.386405 0 255 0
-0.492793 -0.311956 -0.245783 127 127 0
0.425063 0.504424 -0.307259 127 127 0
0.212805 -0.611657 -0.480546 127 127 0
0.115191 0.835086 0.398099 0 255 0
-0.509216 0.321354 -0.206134 127 127 0
-0.085578 0.468908 0.550777 127 127 0
0.441850 -0.862489 0.038402 127 127 0
-0.010438 -0.873661 -0.179159 127 127 0
0.022221 0.292124 0.555731 127 127 0
0.202419 -0.856611 -0.395493 127 127 0
0.238800 -0.873661 0.234801 127 127 0
0.064239 -0.873661 -0.055872 127 127 0
-0.132121 -0.094933 -0.518304 127 127 0
0.097757 -0.069006 -0.519441 127 127 0
0.301973 -0.053136 -0.429046 127 127 0
-0.100603 0.816801 0.409742 0 255 0
0.411383 0.681514 0.187034 127 127 0
0.523240 0.389786 0.097289 127 127 0
-0.484737 0.668501 0.090719 127 127 0
-0.126502 0.331690 0.545389 127 127 0
0.529351 0.380919 -0.024526 127 127 0
0.230651 0.376219 0.499500 127 127 0
0.297517 0.894365 -0.113161 0 255 0
0.528792 0.188491 0.055118 127 127 0
0.463019 -0.487857 -0.255557 127 127 0
0.446272 -0.372524 -0.279619 127 127 0
-0.217514 0.791830 -0.070125 0 255 0
0.377427 -0.663545 -0.369339 127 127 0
0.015890 0.695602 -0.429773 127 127 0
-0.546407 -0.686328 0.116724 127 127 0
-0.514754 0.405009 0.219110 127 127 0
-0.388199 -0.812665 0.351136 127 127 0
-0.083451 0.185021 0.551057 127 127 0
-0.200977 0.033296 -0.496101 127 127 0
0.301986 0.066855 -0.429036 127 127 0
0.096923 -0.898910 -0.330109 127 127 0
0.387246 0.573706 -0.356543 127 127 0
-0.230932 0.433952 0.510039 127 127 0
0.222808 0.894365 0.238166 0 255 0
0.333225 0.203723 -0.405066 127 127 0
-0.172786 -0.397291 0.534124 127 127 0
-0.549965 0.082468 0.089696 127 127 0
-0.544328 0.551104 0.132513 127 127 0
-0.311090 0.882765 -0.262846 0 255 0
-0.388848 -0.887507 -0.200960 127 127 0
-0.400523 0.739950 -0.113949 127 127 0
-0.384838 -0.360306 -0.385202 127 127 0
-0.066025 -0.793444 0.533253 127 127 0
0.517762 -0.613310 0.138898 127 127 0
-0.490232 -0.753179 0.278311 127 127 0
-0.288544 -0.345364 0.485436 127 127 0
0.305165 -0.873661 0.024136 127 127 0
0.204664 0.791830 -0.249463 0 255 0
-0.544340 0.578959 -0.106083 127 127 0
-0.433278 0.525240 0.356424 127 127 0
0.467649 0.420921 -0.244380 127 127 0
-0.160030 -0.450191 -0.513062 127 127 0
-0.078779 -0.242488 0.551672 127 127 0
0.381768 0.118446 -0.363681 127 127 0
0.358098 -0.882114 0.243731 127 127 0
-0.465585 0.455730 -0.287975 127 127 0
-0.251008 -0.175828 0.501723 127 127 0
-0.359523 -0.120684 0.430972 127 127 0
-0.386529 0.433918 0.410249 127 127 0
-0.323714 0.000872 -0.432104 127 127 0
-0.176397 -0.884826 0.412995 127 127 0
-0.470433 -0.860935 -0.002153 127 127 0
-0.130917 0.109044 -0.518462 127 127 0
0.391589 -0.055691 0.377228 127 127 0
0.067856 0.894365 -0.323596 0 255 0
0.231117 0.723561 -0.324937 127 127 0
0.428285 0.166997 -0.303059 127 127 0
-0.493576 -0.464920 -0.243893 127 127 0
0.070145 -0.873661 0.069440 127 127 0
-0.235739 -0.386849 -0.481702 127 127 0
-0.263836 0.087500 -0.470064 127 127 0
-0.326890 -0.909391 -0.247158 127 127 0
0.088239 -0.610586 -0.520694 127 127 0
-0.559590 0.336691 0.016590 127 127 0
-0.490917 0.147834 0.276659 127 127 0
0.238936 -0.483712 0.496068 127 127 0
-0.226090 0.302654 0.512045 127 127 0
-0.070350 0.894365 0.364160 0 255 0
-0.506004 -0.580423 -0.213888 127 127 0
-0.548869 0.223336 0.098021 127 127 0
-0.031024 0.710643 0.443326 127 127 0
0.206034 0.013490 -0.483351 127 127 0
0.530041 -0.537371 -0.019288 127 127 0
-0.152591 0.791830 0.258235 0 255 0
-0.521804 -0.367243 0.202091 127 127 0
0.000227 -0.203165 0.558627 127 127 0
-0.555406 0.020570 0.048372 127 127 0
-0.138316 -0.873661 -0.097208 127 127 0
0.357082 0.700917 0.250445 127 127 0
0.476153 0.102395 0.250194 127 127 0
-0.079273 -0.698198 0.551607 127 127 0
0.156565 0.454851 0.530187 127 127 0
-0.353691 -0.459203 0.435447 127 127 0
-0.119193 0.375249 -0.520006 127 127 0
-0.444110 0.379473 0.342307 127 127 0
-0.131056 0.237829 -0.518444 127 127 0
0.118251 0.706347 -0.401044 127 127 0
-0.437745 -0.102761 0.350603 127 127 0
0.313204 -0.568187 0.446774 127 127 0
-0.408478 -0.467081 -0.362399 127 127 0
0.413871 -0.717774 0.348190 127 127 0
0.249852 0.286443 -0.465201 127 127 0
-0.103177 -0.439692 0.548460 127 127 0
0.090554 -0.873661 -0.159652 127 127 0
0.523681 0.527542 0.093941 127 127 0
-0.329549 -0.578867 -0.427627 127 127 0
-0.470219 -0.214443 -0.281937 127 127 0
0.521705 -0.239180 0.108948 127 127 0
0.198253 0.791830 0.148954 0 255 0
0.168293 -0.726146 -0.498984 127 127 0
-0.241871 0.894365 0.097952 0 255 0
-0.457981 0.334884 -0.297884 127 127 0
0.369671 -0.830141 -0.286947 127 127 0
-0.373143 -0.824743 -0.324742 127 127 0
-0.015978 0.538118 0.559940 127 127 0
0.289217 0.378130 0.465180 127 127 0
0.125062 0.791830 0.002011 0 255 0
-0.433996 -0.243731 0.355488 127 127 0
0.050434 0.513514 0.552017 127 127 0
-0.050442 0.894365 -0.134702 0 255 0
-0.229694 -0.532481 -0.484206 127 127 0
0.496320 -0.577086 0.201508 127 127 0
0.360561 0.186025 0.410436 127 127 0
0.246829 0.636656 0.470656 127 127 0
0.215554 -0.150841 0.505753 127 127 0
0.034320 0.189786 0.554138 127 127 0
0.329676 0.478066 -0.407789 127 127 0
-0.327279 -0.115072 -0.429369 127 127 0
-0.054192 -0.563274 0.554909 127 127 0
0.482954 -0.594077 -0.207431 127 127 0
0.417949 -0.605309 -0.316529 127 127 0
0.521598 0.323808 0.109762 127 127 0
-0.019122 0.894365 0.246335 0 255 0
-0.438238 -0.322318 0.349960 127 127 0
-0.505090 0.643930 0.169885 127 127 0
0.487647 -0.818378 0.000759 127 127 0
0.082068 0.894365 -0.201033 0 255 0
-0.404087 0.894365 0.108110 0 255 0
-0.191344 0.894365 -0.037983 0 255 0
-0.008435 0.759244 -0.392983 127 127 0
-0.544410 0.300066 0.131891 127 127 0
0.373534 0.482385 0.400482 127 127 0
0.068301 0.791830 0.340223 0 255 0
-0.238594 0.653717 -0.434612 127 127 0
0.372376 0.894365 -0.056110 0 255 0
0.129851 -0.222081 0.541252 127 127 0
-0.397488 -0.178192 -0.375495 127 127 0
-0.553958 0.433591 -0.033022 127 127 0
0.164391 0.668505 -0.430739 127 127 0
0.012250 0.894365 -0.004025 0 255 0
0.179915 -0.873661 -0.003915 127 127 0
0.533069 0.433631 0.022630 127 127 0
-0.353479 -0.532914 0.435610 127 127 0
0.212895 -0.910140 -0.321089 127 127 0
0.490698 -0.242216 0.215079 127 127 0
-0.254095 0.894365 0.229168 0 255 0
0.518488 0.418860 -0.107045 127 127 0
-0.253822 0.559153 0.500558 127 127 0
0.117851 -0.910140 0.369756 127 127 0
0.222851 -0.393054 -0.476385 127 127 0
-0.002824 -0.141862 -0.532683 127 127 0
-0.227854 -0.812712 0.469068 127 127 0
0.267603 -0.639960 -0.455420 127 127 0
0.253761 -0.873661 0.068497 127 127 0
-0.503218 0.075695 0.246960 127 127 0
-0.558492 0.253283 0.001414 127 127 0
0.503104 0.252317 0.185129 127 127 0
-0.507033 0.096921 -0.211406 127 127 0
-0.420722 0.880743 0.011189 0 255 0
0.366872 0.256371 -0.379248 127 127 0
0.457035 -0.486777 0.291937 127 127 0
0.517311 0.214964 -0.115984 127 127 0
-0.506466 -0.015563 -0.212773 127 127 0
-0.493797 -0.797416 0.207345 127 127 0
-0.280934 -0.767451 -0.462982 127 127 0
0.389494 0.844878 0.056959 0 255 0
0.338727 -0.519234 -0.400844 127 127 0
0.252646 -0.230552 0.490389 127 127 0
0.376938 0.656945 0.318715 127 127 0
0.027729 0.283209 -0.528661 127 127 0
-0.515720 -0.646924 -0.190432 127 127 0
0.068163 0.791830 0.196169 0 255 0
-0.425565 -0.626733 0.366476 127 127 0
-0.468115 -0.209834 0.311024 127 127 0
0.231514 -0.747983 -0.472797 127 127 0
-0.415360 -0.283460 -0.353429 127 127 0
0.230248 -0.619568 0.499666 127 127 0
0.270397 -0.275501 -0.453276 127 127 0
0.531676 0.501956 0.033211 127 127 0
0.426121 0.607993 0.321523 127 127 0
0.435951 0.649899 -0.225004 127 127 0
-0.121817 -0.209042 -0.519660 127 127 0
0.531737 -0.348227 -0.006407 127 127 0
0.507622 0.642156 0.023530 127 127 0
-0.313424 0.894365 0.013319 0 255 0
-0.037536 -0.429206 0.557102 127 127 0
0.419580 0.232669 -0.314404 127 127 0
-0.557993 -0.756322 -0.002377 127 127 0
-0.180738 0.791830 -0.133757 0 255 0
-0.050384 -0.273670 -0.529065 127 127 0
0.066519 -0.511114 -0.523554 127 127 0
0.092945 0.482517 -0.520075 127 127 0
0.268516 0.791830 0.230394 0 255 0
0.303795 -0.875796 -0.298445 127 127 0
0.531068 -0.121759 -0.011484 127 127 0
0.491897 -0.208249 -0.185841 127 127 0
-0.538338 -0.526306 -0.135827 127 127 0
0.334822 -0.910140 0.152119 127 127 0
-0.398544 -0.425715 0.401030 127 127 0
0.517293 0.194342 0.142465 127 127 0
0.312215 0.894365 0.138687 0 255 0
0.350121 0.581677 0.418447 127 127 0
-0.500515 -0.437164 0.253485 127 127 0
0.056727 0.160598 -0.524843 127 127 0
-0.052652 0.112425 -0.528766 127 127 0
0.172589 0.632740 0.503469 127 127 0
-0.189515 -0.317819 -0.500849 127 127 0
-0.400066 0.729907 0.151934 127 127 0
0.142336 -0.114555 -0.509735 127 127 0
0.385069 -0.118285 -0.359379 127 127 0
0.186895 0.894365 -0.105007 0 255 0
0.087656 0.791830 0.105282 0 255 0
0.457916 -0.014880 -0.264444 127 127 0
0.282660 0.894365 0.262017 0 255 0
-0.030757 0.894365 -0.358254 0 255 0
0.274671 -0.901015 -0.205556 127 127 0
0.246485 -0.882128 0.362025 127 127 0
0.077241 -0.901352 -0.394136 127 127 0
-0.159814 0.003349 0.539497 127 127 0
-0.116589 0.830436 -0.381292 0 255 0
0.517569 -0.633135 -0.114019 127 127 0
0.328535 -0.170158 0.435011 127 127 0
-0.558228 -0.680044 0.026936 127 127 0
0.269531 0.737269 0.309863 127 127 0
0.492734 0.084819 -0.183820 127 127 0
0.308200 0.277676 0.450614 127 127 0
-0.354496 -0.251749 0.434830 127 127 0
-0.288955 0.192420 0.485121 127 127 0
0.193871 0.791830 0.307721 0 255 0
-0.155821 0.653991 -0.468455 127 127 0
0.381428 -0.343384 0.390470 127 127 0
0.149204 -0.826996 -0.449316 127 127 0
-0.507949 0.534623 0.235538 127 127 0
-0.533260 0.182324 0.174434 127 127 0
0.412489 -0.542377 -0.323646 127 127 0
0.515453 -0.463802 -0.128970 127 127 0
0.295394 0.748602 -0.250732 127 127 0
-0.034429 -0.873661 0.119949 127 127 0
0.094563 0.894365 0.172063 0 255 0
-0.072714 -0.705805 -0.526125 127 127 0
0.051698 0.894365 0.057317 0 255 0
-0.125951 -0.200507 0.545462 127 127 0
0.499987 -0.717199 -0.166309 127 127 0
0.517314 -0.771269 -0.115962 127 127 0
0.207764 0.314949 0.508980 127 127 0
-0.069991 -0.873661 0.235265 127 127 0
0.462673 -0.349107 0.282739 127 127 0
-0.542128 0.103223 0.149227 127 127 0
-0.469299 0.652867 0.221343 127 127 0
0.320993 0.005447 -0.414452 127 127 0
-0.464488 -0.678665 -0.289404 127 127 0
0.375421 0.772693 0.123091 127 127 0
-0.381001 -0.910140 0.078977 127 127 0
-0.334294 -0.345671 -0.423985 127 127 0
-0.442675 -0.066956 -0.317832 127 127 0
0.142939 0.126908 0.535831 127 127 0
0.267182 0.505422 0.482088 127 127 0
0.517260 -0.676264 0.142712 127 127 0
-0.504093 0.227300 -0.218502 127 127 0
0.425990 0.701916 -0.001432 127 127 0
0.526658 -0.726330 0.071326 127 127 0
-0.439464 0.395604 -0.322017 127 127 0
-0.443235 -0.512072 0.343447 127 127 0
-0.155483 -0.873661 0.294615 127 127 0
0.247373 0.894365 -0.075106 0 255 0
0.525605 0.074856 0.079329 127 127 0
0.021601 -0.633848 -0.529467 127 127 0
-0.293858 0.201278 -0.455013 127 127 0
0.043175 0.894365 -0.255606 0 255 0
-0.110776 -0.889768 0.352389 127 127 0
-0.259326 0.791830 -0.243876 0 255 0
-0.317621 0.076514 -0.436779 127 127 0
-0.301861 0.380071 -0.448873 127 127 0
-0.068086 0.791830 0.362292 0 255 0
0.327236 -0.203996 -0.409662 127 127 0
-0.468794 -0.412293 0.310138 127 127 0
0.228043 0.156093 -0.474234 127 127 0
-0.267718 -0.890593 0.258217 127 127 0
0.431765 -0.188994 0.324869 127 127 0
-0.554885 -0.383668 -0.025984 127 127 0
-0.299729 -0.213779 0.476854 127 127 0
0.434361 0.682855 -0.087041 127 127 0
0.533758 -0.247977 0.017404 127 127 0
-0.365193 -0.026448 0.426621 127 127 0
-0.142720 -0.623999 0.543254 127 127 0
0.221319 -0.908379 0.298131 127 127 0
0.448951 -0.811744 0.216384 127 127 0
-0.407396 0.626067 -0.338665 127 127 0
-0.194854 0.791830 0.304073 0 255 0
-0.304187 -0.056393 -0.447087 127 127 0
0.166887 0.555545 0.525911 127 127 0
0.403993 0.052644 -0.334718 127 127 0
0.051151 0.894365 -0.141093 0 255 0
-0.083236 0.791830 -0.136645 0 255 0
0.333025 0.894365 0.016397 0 255 0
0.225238 -0.050057 -0.475396 127 127 0
-0.206872 0.894365 -0.294119 0 255 0
-0.284509 0.894365 -0.042258 0 255 0
-0.535609 0.434886 0.168762 127 127 0
-0.441265 0.712453 -0.005326 127 127 0
-0.523345 -0.158626 0.198370 127 127 0
-0.363582 0.090154 0.427858 127 127 0
-0.180784 0.123731 0.530811 127 127 0
-0.337655 -0.325111 0.447752 127 127 0
0.479954 0.270336 -0.214672 127 127 0
0.131394 0.791830 0.236313 0 255 0
-0.549944 -0.170194 0.089858 127 127 0
-0.003218 0.894365 0.382291 0 255 0
0.523817 -0.229347 -0.066562 127 127 0
0.254973 0.791830 -0.026847 0 255 0
0.498741 -0.706321 0.195663 127 127 0
0.139800 -0.877827 0.321896 127 127 0
0.521066 -0.558184 -0.087458 127 127 0
0.052115 0.057036 -0.525450 127 127 0
-0.405201 -0.063119 -0.366670 127 127 0
0.517517 0.072199 0.140765 127 127 0
0.221858 -0.217441 -0.476796 127 127 0
-0.546562 -0.774105 0.109769 127 127 0
-0.543882 -0.423465 0.135907 127 127 0
0.486367 -0.141944 0.225536 127 127 0
0.121792 -0.007736 -0.516277 127 127 0
0.111934 -0.355405 0.543920 127 127 0
-0.528423 -0.581279 0.186109 127 127 0
-0.021040 0.791830 0.271961 0 255 0
0.215045 0.894365 0.030656 0 255 0
-0.167697 -0.336149 0.536232 127 127 0
-0.549260 -0.250875 -0.068709 127 127 0
0.054830 -0.875236 0.449547 127 127 0
0.095067 -0.808954 0.510532 127 127 0
0.324825 -0.285084 0.437857 127 127 0
-0.245229 -0.046872 -0.477771 127 127 0
-0.150855 0.791830 0.122721 0 255 0
-0.498746 -0.302826 0.257756 127 127 0
-0.348864 0.589080 -0.412806 127 127 0
-0.380439 0.289708 -0.388577 127 127 0
-0.302558 0.002061 0.474683 127 127 0
-0.335315 -0.892087 0.155416 127 127 0
-0.515633 -0.429756 -0.190642 127 127 0
0.437863 -0.067740 -0.290578 127 127 0
0.111282 0.186867 -0.517660 127 127 0
-0.066738 -0.320406 0.553257 127 127 0
0.252313 0.894365 -0.229391 0 255 0
-0.548208 -0.479223 -0.076699 127 127 0
-0.481553 0.036523 0.293511 127 127 0
0.302384 0.634449 -0.404299 127 127 0
0.150112 0.791830 -0.300017 0 255 0
0.027382 0.114323 0.555052 127 127 0
-0.255425 -0.873661 0.119425 127 127 0
-0.518170 -0.284586 -0.184519 127 127 0
0.531094 0.302058 -0.011288 127 127 0
-0.188382 -0.110013 0.527664 127 127 0
0.172660 -0.873661 0.126173 127 127 0
0.067151 -0.815564 -0.481252 127 127 0
-0.451487 0.271594 -0.306348 127 127 0
0.245020 -0.161594 -0.467202 127 127 0
-0.314172 -0.448079 -0.439426 127 127 0
-0.430255 0.084841 0.360363 127 127 0
0.227410 -0.033982 0.500842 127 127 0
-0.204818 0.557219 -0.494510 127 127 0
0.502234 0.638258 0.094156 127 127 0
-0.205643 -0.042903 0.520514 127 127 0
0.101825 0.358659 -0.518905 127 127 0
-0.542116 -0.269692 0.149320 127 127 0
0.097621 0.894365 0.357609 0 255 0
-0.518360 -0.230416 0.210403 127 127 0
0.035305 0.835033 0.414952 0 255 0
-0.239170 -0.634511 0.506626 127 127 0
-0.553382 0.304693 -0.037398 127 127 0
-0.291065 -0.163109 -0.457156 127 127 0
-0.037539 -0.886112 0.444334 127 127 0
-0.149844 0.731940 -0.372710 127 127 0
-0.491339 0.584693 -0.249294 127 127 0
0.256555 0.180567 0.488770 127 127 0
-0.526375 -0.516115 0.191054 127 127 0
0.482345 -0.435180 0.235246 127 127 0
-0.098083 0.894365 -0.037931 0 255 0
0.495475 0.324725 -0.177203 127 127 0
-0.142082 0.758286 0.396323 127 127 0
0.186528 -0.873661 -0.261423 127 127 0
-0.105493 -0.520493 0.548155 127 127 0
0.168029 -0.445826 -0.499093 127 127 0
0.286775 -0.873661 0.166513 127 127 0
0.452183 0.047798 -0.271915 127 127 0
0.328170 0.656476 0.376627 127 127 0
0.026041 -0.073067 0.555228 127 127 0
-0.298376 0.474878 -0.451546 127 127 0
0.525076 -0.535460 0.083343 127 127 0
-0.468195 0.258274 0.310919 127 127 0
-0.144080 0.522061 0.543075 127 127 0
-0.433826 -0.536128 -0.329364 127 127 0
0.148706 0.791830 -0.054474 0 255 0
-0.189605 -0.575610 -0.500812 127 127 0
-0.446703 -0.168669 -0.312583 127 127 0
-0.384874 -0.009854 -0.385174 127 127 0
-0.530132 0.138121 -0.155639 127 127 0
-0.488019 -0.035204 0.283654 127 127 0
0.066219 0.791830 -0.114229 0 255 0
-0.482312 -0.544594 0.292521 127 127 0
-0.216751 -0.714572 0.515913 127 127 0
0.258248 0.894365 0.112943 0 255 0
0.497040 -0.787827 0.162248 127 127 0
-0.218974 0.508325 0.514992 127 127 0
-0.032955 -0.910140 -0.379145 127 127 0
0.347734 -0.454742 0.420278 127 127 0
-0.559435 0.516936 0.008581 127 127 0
0.034460 0.894365 0.272630 0 255 0
0.222129 0.791830 0.094289 0 255 0
0.527996 -0.027541 0.061170 127 127 0
-0.476978 0.455039 0.299473 127 127 0
0.337080 -0.892436 -0.030811 127 127 0
-0.506108 -0.825138 0.029419 127 127 0
0.398011 0.634738 -0.310442 127 127 0
-0.551075 -0.512273 0.081268 127 127 0
-0.506102 -0.808158 0.149806 127 127 0
-0.211982 0.791830 -0.308231 0 255 0
-0.289875 0.791830 0.256455 0 255 0
-0.392183 0.198216 -0.379566 127 127 0
-0.509452 -0.134912 -0.205566 127 127 0
-0.379685 -0.115759 -0.389156 127 127 0
0.529740 -0.120311 0.047920 127 127 0
-0.554880 -0.088508 -0.026020 127 127 0
-0.403874 -0.142136 0.394744 127 127 0
0.532769 -0.630010 0.001430 127 127 0
-0.368324 -0.233692 -0.397874 127 127 0
0.170116 0.825573 -0.349003 0 255 0
-0.035218 -0.121485 0.557407 127 127 0
0.390766 0.715705 -0.120637 127 127 0
-0.559533 0.402195 0.017023 127 127 0
-0.250969 -0.301144 0.501740 127 127 0
-0.418318 -0.817934 -0.276956 127 127 0
-0.385233 -0.910140 -0.036866 127 127 0
0.330289 -0.798953 0.401662 127 127 0
-0.088996 -0.612951 -0.523981 127 127 0
0.173367 -0.323095 -0.496882 127 127 0
-0.390546 -0.599425 -0.380822 127 127 0
0.081632 -0.453392 0.547909 127 127 0
-0.281424 0.306121 0.489124 127 127 0
-0.413875 -0.824441 0.298495 127 127 0
-0.044724 0.791830 -0.275902 0 255 0
-0.499409 -0.135780 0.256156 127 127 0
-0.394782 0.840281 0.148486 0 255 0
0.295361 -0.877560 -0.140274 127 127 0
0.056884 -0.908569 0.375995 127 127 0
0.050721 0.425761 -0.525634 127 127 0
-0.441205 -0.452158 0.346093 127 127 0
-0.469293 -0.149350 0.309489 127 127 0
-0.371075 0.846972 0.205719 0 255 0
-0.466307 -0.859277 0.072430 127 127 0
-0.545375 -0.617306 0.124565 127 127 0
0.450690 0.215600 0.300206 127 127 0
-0.009574 -0.817329 0.515934 127 127 0
-0.154416 -0.780933 -0.507245 127 127 0
0.190794 -0.273100 0.516009 127 127 0
0.216727 0.090890 0.505267 127 127 0
0.168348 0.570178 -0.498961 127 127 0
0.172299 0.894365 -0.161809 0 255 0
-0.213668 -0.873661 -0.117136 127 127 0
0.395866 -0.667157 0.371654 127 127 0
0.252057 -0.102349 0.490633 127 127 0
-0.554921 0.144906 0.052055 127 127 0
0.483793 -0.022947 -0.205405 127 127 0
0.043118 -0.873661 0.002153 127 127 0
0.466580 0.565703 -0.246961 127 127 0
-0.073947 -0.873661 0.172817 127 127 0
-0.469323 -0.272874 -0.283104 127 127 0
0.375852 -0.875751 -0.200689 127 127 0
0.377356 -0.004322 -0.369432 127 127 0
0.253808 0.894365 -0.015720 0 255 0
-0.273519 0.791830 0.115112 0 255 0
0.372859 -0.248519 -0.374654 127 127 0
0.128069 -0.873661 0.061917 127 127 0
0.146670 -0.558499 0.534285 127 127 0
-0.454328 0.042322 -0.302646 127 127 0
-0.203099 0.791830 -0.013157 0 255 0
-0.221387 -0.152109 -0.487647 127 127 0
0.487793 0.558211 0.222093 127 127 0
-0.066888 0.618091 -0.515366 127 127 0
-0.305580 -0.628640 -0.446019 127 127 0
0.199063 0.894365 0.166269 0 255 0
-0.381008 0.791830 0.050899 0 255 0
0.023131 0.791830 0.004893 0 255 0
-0.046390 -0.907871 0.380060 127 127 0
-0.134166 -0.873661 0.069266 127 127 0
-0.415359 0.306914 0.379777 127 127 0
0.386396 0.686650 -0.202182 127 127 0
-0.127776 0.589034 0.545221 127 127 0
-0.061188 -0.839139 -0.461848 127 127 0
-0.498284 0.660747 -0.050378 127 127 0
-0.047390 0.894365 0.195680 0 255 0
-0.088996 -0.873661 -0.278571 127 127 0
-0.134948 -0.684309 0.544277 127 127 0
-0.114275 -0.869848 0.450496 127 127 0
-0.093031 -0.043641 0.549796 127 127 0
-0.133673 -0.801972 0.515818 127 127 0
-0.510962 0.251793 0.228265 127 127 0
-0.212684 -0.827768 -0.432850 127 127 0
0.195172 -0.106729 -0.487850 127 127 0
0.318022 0.155115 0.443077 127 127 0
0.257347 -0.812188 0.441094 127 127 0
-0.065194 0.791830 -0.332654 0 255 0
-0.081067 0.791830 0.049601 0 255 0
0.302465 -0.102680 0.455014 127 127 0
-0.246753 0.620842 0.489669 127 127 0
0.288619 0.216285 -0.439293 127 127 0
-0.191639 -0.598739 0.526315 127 127 0
0.512386 -0.084860 -0.136376 127 127 0
-0.544173 -0.486122 0.133692 127 127 0
-0.036946 -0.001986 0.557179 127 127 0
-0.532135 -0.747705 -0.150803 127 127 0
0.386133 -0.562823 0.384338 127 127 0
0.060345 -0.181889 0.550712 127 127 0
0.265440 0.596580 -0.455864 127 127 0
0.326764 -0.403697 0.436369 127 127 0
-0.413513 0.743359 -0.055401 127 127 0
-0.213776 0.452031 -0.490800 127 127 0
-0.552280 0.199673 -0.045767 127 127 0
-0.351951 0.471966 0.436782 127 127 0
-0.519056 0.613816 -0.157953 127 127 0
-0.085244 -0.778641 -0.519179 127 127 0
0.138614 -0.873661 -0.051094 127 127 0
0.527618 0.145438 -0.037694 127 127 0
0.522352 -0.413234 0.104037 127 127 0
-0.132817 0.053714 0.544558 127 127 0
0.485280 0.207932 -0.201814 127 127 0
0.163311 -0.134943 0.527393 127 127 0
0.134251 -0.051388 0.539430 127 127 0
0.198679 -0.568512 0.512743 127 127 0
-0.529987 0.439205 -0.155989 127 127 0
-0.214367 0.791830 0.189810 0 255 0
0.462406 -0.783493 -0.230747 127 127 0
-0.281660 0.756188 0.315921 127 127 0
-0.118269 -0.399433 -0.520127 127 127 0
-0.511446 0.185378 0.227097 127 127 0
0.501489 0.031805 -0.162682 127 127 0
-0.141435 0.052202 -0.517078 127 127 0
0.486236 -0.535366 -0.199508 127 127 0
-0.547283 -0.412009 -0.083728 127 127 0
-0.345206 0.177549 -0.415612 127 127 0
-0.374394 -0.693256 0.419561 127 127 0
-0.031813 -0.592090 -0.531510 127 127 0
0.400753 -0.289579 0.365285 127 127 0
-0.022244 -0.873661 -0.085927 127 127 0
0.432989 0.413453 0.323274 127 127 0
-0.358946 0.378058 0.431415 127 127 0
0.185978 -0.738331 0.518004 127 127 0
0.110709 0.388365 0.544081 127 127 0
0.355767 0.839425 0.180569 0 255 0
-0.230697 0.712371 0.384533 127 127 0
-0.178774 0.894365 -0.118006 0 255 0
-0.370758 0.705168 -0.233273 127 127 0
0.265206 -0.828117 -0.388811 127 127 0
-0.199402 -0.536534 0.523099 127 127 0
0.292669 0.862165 -0.253327 0 255 0
-0.334612 0.762157 -0.229062 127 127 0
-0.193246 0.894365 0.031913 0 255 0
0.467038 0.645657 -0.166542 127 127 0
0.150836 0.683446 0.438498 127 127 0
-0.400016 0.649852 0.339603 127 127 0
-0.501937 -0.498095 0.250054 127 127 0
0.341518 0.791830 0.021923 0 255 0
0.518514 -0.141816 0.133187 127 127 0
0.239746 0.445708 -0.469387 127 127 0
0.337354 0.101807 -0.401897 127 127 0
0.171671 -0.884749 0.404380 127 127 0
-0.392371 -0.712391 -0.379422 127 127 0
0.325549 -0.573367 -0.410956 127 127 0
-0.284851 0.436205 0.487705 127 127 0
-0.069088 0.894365 0.307571 0 255 0
-0.127393 -0.569324 -0.518926 127 127 0
-0.169190 0.625365 0.519415 127 127 0
0.033676 0.894365 0.110839 0 255 0
-0.557188 -0.421149 0.034839 127 127 0
-0.106819 0.693947 -0.422749 127 127 0
0.395373 0.454867 -0.345952 127 127 0
0.344200 0.540837 -0.396644 127 127 0
-0.100744 -0.503501 -0.522435 127 127 0
0.458705 -0.055213 0.289761 127 127 0
0.520319 -0.298616 -0.093135 127 127 0
-0.051535 0.104048 0.555259 127 127 0
-0.300547 0.646499 0.436381 127 127 0
0.354511 0.050561 0.415079 127 127 0
0.140771 -0.872866 -0.403585 127 127 0
-0.120641 -0.666330 -0.519815 127 127 0
-0.181505 -0.229471 0.530512 127 127 0
0.388793 -0.483653 0.380872 127 127 0
-0.471679 -0.335507 0.306379 127 127 0
-0.415171 0.187240 0.380022 127 127 0
0.350526 -0.907525 0.070626 127 127 0
-0.533701 0.591899 0.173368 127 127 0
0.525150 -0.673518 -0.056441 127 127 0
0.109406 -0.873661 0.274913 127 127 0
-0.550403 -0.576520 0.086370 127 127 0
0.440704 -0.855771 0.098126 127 127 0
0.057909 0.558904 -0.524687 127 127 0
0.436662 -0.721828 -0.292143 127 127 0
-0.543551 -0.212456 -0.112075 127 127 0
0.163390 -0.370085 0.527360 127 127 0
0.108311 -0.389177 -0.518052 127 127 0
0.329747 -0.057805 0.434080 127 127 0
0.472581 0.511635 0.258818 127 127 0
0.409901 -0.179919 -0.327018 127 127 0
-0.546316 -0.698626 -0.091072 127 127 0
-0.020416 -0.617101 0.559355 127 127 0
0.005651 0.843151 -0.392511 0 255 0
0.443786 -0.558215 0.309204 127 127 0
0.402906 -0.070818 -0.336134 127 127 0
0.217971 0.853370 -0.319727 0 255 0
0.207797 -0.873661 -0.209276 127 127 0
-0.525575 0.198767 -0.166642 127 127 0
-0.552291 0.493961 0.072032 127 127 0
0.303136 0.473106 0.454500 127 127 0
0.295380 -0.517300 0.460451 127 127 0
0.454441 0.619036 0.271550 127 127 0
0.087479 0.894365 0.238653 0 255 0
0.001034 0.894365 -0.109752 0 255 0
0.134527 -0.475311 0.539315 127 127 0
-0.228587 -0.900465 0.372583 127 127 0
0.337736 0.669782 -0.311904 127 127 0
0.166938 -0.234646 -0.499545 127 127 0
-0.550979 -0.337234 0.081995 127 127 0
0.331723 0.894365 -0.158610 0 255 0
-0.332079 0.204756 0.452031 127 127 0
0.430622 -0.495671 -0.300015 127 127 0
-0.442303 -0.731293 -0.318317 127 127 0
0.192231 0.712126 0.390897 127 127 0
-0.399818 0.825491 -0.109982 0 255 0
-0.232175 -0.732857 -0.483179 127 127 0
-0.207051 0.189434 0.519931 127 127 0
0.043393 0.894365 0.336172 0 255 0
-0.212618 -0.431943 0.517625 127 127 0
0.000590 -0.249169 -0.532233 127 127 0
-0.546021 -0.058907 0.119654 127 127 0
0.370763 -0.772419 -0.376262 127 127 0
-0.364628 -0.486594 -0.400709 127 127 0
-0.557475 -0.478175 0.032656 127 127 0
-0.142723 0.791830 -0.239770 0 255 0
-0.253562 -0.873661 -0.028842 127 127 0
-0.321319 -0.778796 -0.427130 127 127 0
0.412587 -0.794128 0.316015 127 127 0
0.266080 -0.736644 0.482933 127 127 0
-0.075801 0.791830 0.307861 0 255 0
-0.349258 0.791830 0.131051 0 255 0
-0.538297 -0.122795 -0.135926 127 127 0
0.502771 0.605275 -0.146017 127 127 0
0.064076 -0.873661 0.175337 127 127 0
0.405584 0.266226 0.358989 127 127 0
0.183721 0.089225 -0.492593 127 127 0
-0.383666 0.632822 0.389011 127 127 0
0.230703 0.508167 -0.473132 127 127 0
0.027415 -0.714548 0.555047 127 127 0
-0.156610 -0.873661 -0.037394 127 127 0
-0.286287 -0.885633 -0.202745 127 127 0
-0.512715 -0.623508 0.224034 127 127 0
0.412943 -0.890759 -0.016890 127 127 0
0.306689 -0.320535 -0.425428 127 127 0
0.434863 -0.858512 -0.095331 127 127 0
0.026432 -0.367726 -0.528831 127 127 0
-0.550531 -0.398253 0.085398 127 127 0
0.001396 0.622290 0.544887 127 127 0
0.100071 -0.706736 0.545482 127 127 0
0.392045 0.754187 -0.007842 127 127 0
-0.019498 -0.034775 -0.533131 127 127 0
0.142744 0.894365 0.146410 0 255 0
-0.073613 0.870832 0.413295 0 255 0
0.102651 -0.551735 -0.518797 127 127 0
0.063613 0.791830 -0.258607 0 255 0
0.513006 0.307948 0.161224 127 127 0
-0.182888 0.330683 0.529939 127 127 0
0.524889 -0.604948 0.084763 127 127 0
-0.257766 -0.896609 -0.328667 127 127 0
0.196306 0.894365 0.340991 0 255 0
0.516391 -0.780387 0.095831 127 127 0
0.426157 -0.397093 0.332178 127 127 0
0.198066 0.424194 0.512997 127 127 0
-0.184700 0.791830 -0.197525 0 255 0
-0.331566 -0.874990 -0.110913 127 127 0
-0.202302 -0.479504 -0.495553 127 127 0
-0.186025 0.894365 0.323349 0 255 0
0.152233 -0.898624 -0.306889 127 127 0
0.516639 0.521764 0.147435 127 127 0
-0.282860 -0.843147 -0.376223 127 127 0
-0.222420 -0.895373 0.300632 127 127 0
-0.014107 0.317312 -0.533841 127 127 0
0.366784 0.394618 0.405660 127 127 0
-0.205871 0.748714 -0.345456 127 127 0
0.479615 0.155987 0.241836 127 127 0
-0.275679 0.798675 -0.295185 0 255 0
-0.541911 -0.059965 -0.124527 127 127 0
-0.237516 0.081721 0.507312 127 127 0
-0.219955 -0.620405 -0.488240 127 127 0
-0.498187 -0.755042 -0.232761 127 127 0
-0.347348 0.838207 -0.215594 0 255 0
0.444453 -0.302386 0.308335 127 127 0
-0.270779 0.887620 -0.298945 0 255 0
0.344718 0.602077 -0.391662 127 127 0
0.396401 -0.226107 0.370957 127 127 0
-0.165459 -0.873661 0.121533 127 127 0
-0.049928 -0.873661 -0.002474 127 127 0
0.185391 -0.778796 -0.486052 127 127 0
0.190506 0.202202 0.516128 127 127 0
0.121589 0.894365 -0.318980 0 255 0
-0.476969 -0.355645 -0.273139 127 127 0
-0.283847 -0.542334 -0.461775 127 127 0
-0.556103 -0.503413 -0.016731 127 127 0
-0.470849 -0.822719 -0.170844 127 127 0
0.529631 -0.020498 -0.022399 127 127 0
-0.498079 -0.090057 -0.233021 127 127 0
-0.410499 0.892040 -0.066467 0 255 0
0.101380 -0.847826 0.470829 127 127 0
-0.458272 -0.628085 0.323851 127 127 0
0.105430 -0.873661 -0.214854 127 127 0
0.279998 0.851529 0.296185 0 255 0
0.216315 0.615873 -0.467891 127 127 0
0.184348 0.779616 0.363924 127 127 0
-0.040959 0.669822 -0.463217 127 127 0
-0.541173 -0.787950 0.045544 127 127 0
-0.422262 -0.018965 0.370780 127 127 0
-0.420913 0.820904 0.012635 0 255 0
-0.291820 -0.099197 0.482922 127 127 0
0.142569 0.791830 0.288630 0 255 0
0.331834 0.360115 -0.406134 127 127 0
0.518071 0.300413 -0.110205 127 127 0
0.446678 0.515402 0.305435 127 127 0
-0.397314 -0.653080 -0.375629 127 127 0
-0.553078 -0.321303 -0.039706 127 127 0
0.098258 0.699782 0.441332 127 127 0
0.007501 0.343941 0.557669 127 127 0
-0.213169 -0.873661 0.024730 127 127 0
-0.502160 -0.186101 -0.223169 127 127 0
0.491975 -0.083945 -0.185652 127 127 0
-0.529669 0.298729 0.183102 127 127 0
-0.136985 -0.339920 -0.517663 127 127 0
0.330719 0.791830 -0.092773 0 255 0
-0.310344 0.791830 -0.049193 0 255 0
-0.507852 -0.047369 0.235772 127 127 0
-0.406353 0.563886 0.391514 127 127 0
0.377146 0.539846 0.396050 127 127 0
-0.138762 0.434619 0.543775 127 127 0
0.387049 -0.120965 0.383144 127 127 0
-0.000005 -0.796051 -0.509606 127 127 0
-0.354519 0.894365 0.127165 0 255 0
0.373476 -0.909496 -0.118998 127 127 0
-0.543716 0.371899 -0.110822 127 127 0
0.388045 0.791830 0.058593 0 255 0
0.027586 -0.873661 0.312694 127 127 0
-0.203526 -0.287692 0.521391 127 127 0
-0.494943 -0.250703 0.266939 127 127 0
-0.545452 0.399789 0.123975 127 127 0
0.410329 -0.848108 0.215417 127 127 0
-0.070917 0.661067 0.498835 127 127 0
0.415549 -0.352649 -0.319658 127 127 0
0.117291 0.773101 0.392994 127 127 0
-0.557609 -0.177593 -0.005293 127 127 0
-0.277291 -0.047048 0.490837 127 127 0
-0.552395 -0.100048 0.071244 127 127 0
0.335035 0.695941 -0.260475 127 127 0
-0.160802 0.791830 -0.294605 0 255 0
-0.326184 -0.680512 -0.430208 127 127 0
0.445064 -0.824636 -0.166021 127 127 0
-0.134189 0.894365 -0.334101 0 255 0
-0.400729 -0.899146 -0.142125 127 127 0
0.305359 -0.379239 -0.426448 127 127 0
0.474687 0.361556 0.253734 127 127 0
0.062639 -0.286290 -0.524065 127 127 0
0.506853 -0.511679 -0.149733 127 127 0
0.360230 0.441830 -0.384345 127 127 0
-0.547273 -0.224631 0.110145 127 127 0
-0.138964 0.894365 0.251789 0 255 0
0.414626 0.467912 0.347206 127 127 0
-0.512364 -0.797147 -0.136869 127 127 0
0.521885 -0.442191 -0.081241 127 127 0
0.411224 0.374659 0.351639 127 127 0
-0.165152 0.601633 -0.507236 127 127 0
-0.546219 -0.301378 -0.091804 127 127 0
-0.140048 0.894365 0.131051 0 255 0
0.370415 -0.764902 0.402875 127 127 0
-0.403080 -0.227060 0.395779 127 127 0
0.338992 0.776568 -0.182836 127 127 0
-0.438467 -0.843702 0.221006 127 127 0
0.041948 -0.856108 -0.444026 127 127 0
-0.419027 0.412152 0.374997 127 127 0
0.507515 -0.361540 0.174480 127 127 0
-0.552156 -0.138092 -0.046713 127 127 0
-0.112874 0.497376 -0.520838 127 127 0
-0.333609 -0.670913 0.450857 127 127 0
-0.520616 -0.226480 -0.178613 127 127 0
-0.235510 -0.873661 0.205472 127 127 0
-0.085063 -0.910140 -0.373202 127 127 0
-0.544851 0.046068 -0.102197 127 127 0
-0.049548 0.460050 -0.529175 127 127 0
-0.312141 -0.444660 0.467330 127 127 0
-0.509639 0.397322 -0.205114 127 127 0
-0.263870 -0.262065 -0.470050 127 127 0
0.260946 -0.873661 0.120293 127 127 0
-0.556414 -0.291607 0.040713 127 127 0
0.399533 0.346581 -0.340530 127 127 0
0.341068 -0.670300 0.425393 127 127 0
-0.055639 0.894365 -0.312382 0 255 0
0.428937 -0.076886 0.328555 127 127 0
-0.091721 0.791830 -0.228825 0 255 0
0.432407 0.627077 -0.271737 127 127 0
0.093095 0.557807 0.546400 127 127 0
-0.248146 0.791830 0.297932 0 255 0
-0.019025 0.071898 -0.533193 127 127 0
-0.451693 0.567632 0.332426 127 127 0
-0.021302 0.791830 0.141291 0 255 0
0.240093 0.791830 -0.154263 0 255 0
0.269761 -0.873661 -0.094965 127 127 0
-0.245609 0.829455 0.344604 0 255 0
-0.208466 0.357335 -0.492999 127 127 0
-0.335607 0.894365 -0.150179 0 255 0
0.172006 -0.507510 -0.497446 127 127 0
0.023795 0.791830 0.371097 0 255 0
-0.512425 -0.752077 0.224733 127 127 0
0.323697 0.791830 0.137704 0 255 0
0.033730 0.426234 0.554216 127 127 0
-0.305487 -0.877650 0.342087 127 127 0
0.249180 0.791830 -0.078447 0 255 0
-0.057093 0.894365 0.108793 0 255 0
0.138952 0.894365 -0.017735 0 255 0
0.460138 -0.784768 0.259266 127 127 0
0.232978 0.791830 0.187497 0 255 0
0.000216 -0.518199 0.558628 127 127 0
0.389382 0.846222 -0.031461 0 255 0
0.109710 0.642015 -0.492751 127 127 0
-0.501923 0.362795 0.250087 127 127 0
0.454966 -0.111313 -0.268288 127 127 0
-0.334616 0.681265 -0.318315 127 127 0
0.003961 0.791830 -0.191811 0 255 0
-0.104159 0.894365 0.202722 0 255 0
0.529021 -0.443855 0.053383 127 127 0
0.463724 -0.245050 0.280202 127 127 0
-0.181966 -0.727479 -0.503976 127 127 0
0.494879 -0.318787 0.204987 127 127 0
-0.200247 0.833784 -0.347178 0 255 0
-0.065190 0.407677 -0.527115 127 127 0
-0.541558 -0.384053 -0.127214 127 127 0
-0.297498 0.385194 0.478566 127 127 0
0.482328 -0.815639 -0.060453 127 127 0
0.475221 -0.648206 0.252445 127 127 0
-0.010323 -0.856005 0.477356 127 127 0
-0.409546 0.507518 -0.361006 127 127 0
-0.464191 0.642913 -0.246255 127 127 0
-0.346670 0.791830 -0.129356 0 255 0
-0.164367 -0.819658 -0.461566 127 127 0
0.390649 0.091081 0.378453 127 127 0
0.497675 0.618961 0.167271 127 127 0
-0.298862 -0.218436 -0.451173 127 127 0
-0.454762 -0.057043 0.328426 127 127 0
0.083628 0.894365 -0.378699 0 255 0
-0.505051 0.514046 -0.216189 127 127 0
0.272828 0.542195 -0.451410 127 127 0
-0.481493 0.658386 -0.143978 127 127 0
0.114897 -0.642789 0.543530 127 127 0
0.235213 -0.372554 0.497610 127 127 0
-0.553591 0.090975 -0.035812 127 127 0
0.023348 0.240077 0.555583 127 127 0
0.159773 0.519534 -0.502513 127 127 0
-0.209169 -0.849770 0.437040 127 127 0
0.030086 0.738745 0.418050 127 127 0
-0.164491 0.894365 0.370014 0 255 0
-0.110396 -0.890096 -0.326416 127 127 0
-0.271166 0.894365 0.141459 0 255 0
0.115771 0.807908 -0.371513 0 255 0
-0.418106 -0.748020 0.376196 127 127 0
0.193694 -0.873661 -0.135063 127 127 0
-0.151734 0.448797 -0.515722 127 127 0
-0.292865 -0.332685 -0.455775 127 127 0
-0.264033 -0.646765 -0.469983 127 127 0
0.387059 -0.791094 -0.327880 127 127 0
0.380246 -0.441457 -0.365665 127 127 0
-0.542838 0.268297 -0.117486 127 127 0
0.463029 0.414549 0.281880 127 127 0
-0.292852 0.315387 -0.455785 127 127 0
0.361287 0.820413 -0.140896 0 255 0
0.352673 0.151118 -0.390143 127 127 0
-0.545806 -0.153764 -0.094947 127 127 0
-0.238366 0.291142 -0.480614 127 127 0
-0.050850 0.805480 0.416292 0 255 0
0.461638 0.315458 0.285237 127 127 0
0.255541 -0.430422 0.489190 127 127 0
-0.128081 0.791830 0.070346 0 255 0
-0.160107 0.345664 -0.513030 127 127 0
-0.421546 -0.348039 -0.345367 127 127 0
0.108146 0.246636 -0.518073 127 127 0
0.128015 -0.336939 -0.515457 127 127 0
0.202439 0.256938 -0.484840 127 127 0
-0.444034 0.207999 -0.316062 127 127 0
0.030984 -0.793144 0.534779 127 127 0
0.097183 -0.748829 -0.519517 127 127 0
0.084742 -0.873661 -0.109160 127 127 0
0.529826 -0.205348 0.047268 127 127 0
-0.528044 -0.006994 -0.160681 127 127 0
0.523237 0.524659 -0.070970 127 127 0
-0.490963 0.338701 -0.250202 127 127 0
0.100167 0.038670 -0.519124 127 127 0
0.300736 0.894365 0.212170 0 255 0
0.517379 -0.062114 0.141810 127 127 0
-0.061884 0.301850 -0.527551 127 127 0
-0.051281 -0.490513 -0.528947 127 127 0
-0.360831 0.706443 0.270596 127 127 0
-0.206899 -0.426638 -0.493648 127 127 0
0.519346 -0.045808 -0.100524 127 127 0
0.281246 0.791830 0.091002 0 255 0
-0.006938 0.894365 -0.248841 0 255 0
-0.282028 -0.608520 0.488874 127 127 0
-0.509239 0.655963 0.048356 127 127 0
0.486534 0.410274 -0.198787 127 127 0
-0.359787 0.894365 0.218921 0 255 0
0.142392 0.894365 0.330082 0 255 0
0.027408 0.791830 0.285838 0 255 0
0.039604 -0.611663 0.553443 127 127 0
-0.296092 0.712160 -0.308257 127 127 0
-0.010640 -0.543540 -0.533712 127 127 0
0.287275 -0.910140 -0.253476 127 127 0
0.033210 -0.182443 -0.527939 127 127 0
0.260603 0.761527 -0.284759 127 127 0
0.369906 0.893458 0.146434 0 255 0
-0.554986 -0.554411 -0.025212 127 127 0
-0.082889 0.253053 -0.524785 127 127 0
0.066286 0.315620 0.549930 127 127 0
0.035472 0.791830 0.084716 0 255 0
-0.545215 0.500738 0.125779 127 127 0
-0.373994 -0.910140 0.128920 127 127 0
-0.465484 -0.004448 -0.288107 127 127 0
0.037868 0.791830 -0.343525 0 255 0
-0.290123 0.894365 -0.218774 0 255 0
-0.044549 -0.873661 0.279785 127 127 0
-0.555694 0.230896 0.046187 127 127 0
-0.314272 -0.873661 0.012307 127 127 0
-0.159700 0.675317 0.458649 127 127 0
-0.377943 -0.759091 -0.390493 127 127 0
-0.122445 -0.316718 0.545923 127 127 0
0.267342 -0.909384 0.255200 127 127 0
0.300716 -0.835285 -0.352606 127 127 0
0.061637 -0.551785 0.550542 127 127 0
-0.107396 0.894365 -0.233494 0 255 0
0.147323 0.791830 0.115461 0 255 0
0.471228 0.169653 -0.235739 127 127 0
-0.426720 -0.904065 -0.006579 127 127 0
-0.419796 0.688839 0.204652 127 127 0
-0.474041 -0.849937 -0.058280 127 127 0
0.408464 0.575710 0.355236 127 127 0
-0.264331 0.671675 -0.390335 127 127 0
0.525067 -0.338605 -0.057066 127 127 0
-0.558462 -0.077246 0.025160 127 127 0
0.188844 -0.665498 0.516817 127 127 0
0.121532 0.598582 -0.514356 127 127 0
0.417832 -0.869637 0.141525 127 127 0
0.192809 -0.873661 0.214431 127 127 0
-0.327151 0.287118 -0.429467 127 127 0
-0.557954 0.017965 -0.002671 127 127 0
-0.229703 0.791830 -0.119878 0 255 0
-0.299778 0.791830 0.024888 0 255 0
0.316976 0.078497 0.443880 127 127 0
-0.051981 0.431313 0.555200 127 127 0
-0.558477 0.566061 0.001298 127 127 0
-0.060089 -0.873661 -0.177825 127 127 0
-0.198528 -0.204104 -0.497115 127 127 0
0.184971 0.196468 -0.492075 127 127 0
0.218310 -0.332724 -0.478266 127 127 0
0.117700 -0.157272 -0.516815 127 127 0
0.308642 0.814021 -0.232510 0 255 0
0.113259 0.791830 0.058996 0 255 0
-0.460689 -0.106702 -0.294356 127 127 0
0.512559 0.027864 0.162303 127 127 0
0.254005 -0.511303 -0.463480 127 127 0
-0.517290 -0.711086 -0.186643 127 127 0
-0.550237 -0.049334 -0.061290 127 127 0
0.492770 0.455388 0.210078 127 127 0
-0.041073 0.493033 0.556636 127 127 0
-0.004920 -0.873661 -0.321172 127 127 0
-0.307606 0.580180 -0.444464 127 127 0
0.122499 0.791830 -0.097793 0 255 0
0.528489 -0.346908 0.057419 127 127 0
0.170805 0.791830 -0.134552 0 255 0
-0.020745 -0.353619 -0.532967 127 127 0
-0.063630 0.056165 0.553666 127 127 0
0.112709 -0.438372 -0.517473 127 127 0
0.106886 0.894365 0.054765 0 255 0
-0.319414 -0.899181 0.299876 127 127 0
0.478776 -0.484791 0.243863 127 127 0
0.304007 -0.868574 0.334824 127 127 0
0.530516 -0.745770 -0.015684 127 127 0
0.282676 0.894365 -0.164080 0 255 0
-0.159891 -0.873661 0.239591 127 127 0
0.129822 0.894365 -0.188820 0 255 0
0.028507 0.670026 0.487508 127 127 0
0.317472 -0.904325 0.260503 127 127 0
0.351000 -0.217525 0.417772 127 127 0
0.489604 0.004016 0.217722 127 127 0
-0.169793 -0.717914 0.535363 127 127 0
0.141435 0.455092 -0.510109 127 127 0
0.234921 0.540718 0.497731 127 127 0
0.364344 0.791830 -0.033684 0 255 0
-0.184119 0.777027 0.375189 127 127 0
-0.390910 0.446702 -0.380542 127 127 0
-0.445240 0.696454 0.116089 127 127 0
-0.388535 0.087711 -0.382365 127 127 0
0.221859 0.673608 -0.398669 127 127 0
0.432570 0.024186 0.323821 127 127 0
-0.360170 0.772195 0.219075 127 127 0
0.133492 0.894365 0.255733 0 255 0
0.527620 0.301733 0.064024 127 127 0
-0.546730 -0.588854 -0.087924 127 127 0
-0.549811 0.329431 0.090873 127 127 0
-0.343509 -0.800718 0.409054 127 127 0
-0.415301 0.756863 0.049188 127 127 0
0.521680 -0.300447 0.109139 127 127 0
0.519315 -0.118676 -0.100760 127 127 0
-0.443309 -0.642044 -0.317005 127 127 0
0.471928 0.269232 0.260394 127 127 0
-0.071735 0.564605 -0.526254 127 127 0
0.378369 -0.850469 -0.242505 127 127 0
-0.278570 0.123049 0.490307 127 127 0
0.174095 -0.451704 0.522926 127 127 0
-0.283848 0.894365 0.052259 0 255 0
-0.450384 0.048831 0.334130 127 127 0
-0.087081 0.303281 0.550579 127 127 0
-0.304989 -0.897558 -0.291244 127 127 0
-0.359233 -0.581231 0.431195 127 127 0
-0.055768 0.209656 -0.528356 127 127 0
-0.057203 0.894365 -0.183039 0 255 0
-0.325054 0.094898 0.457421 127 127 0
-0.129356 0.718350 0.421297 127 127 0
-0.319121 -0.625523 0.461974 127 127 0
-0.532512 0.324133 -0.149893 127 127 0
-0.530697 0.642621 -0.011997 127 127 0
0.151012 0.334612 -0.506142 127 127 0
0.337738 0.757574 0.219190 127 127 0
0.523662 0.218097 -0.067744 127 127 0
-0.527536 -0.701237 0.188252 127 127 0
-0.556879 -0.589256 0.037186 127 127 0
-0.510322 -0.328745 -0.203465 127 127 0
-0.363234 0.146679 0.428124 127 127 0
0.424543 0.177277 0.334282 127 127 0
0.144751 0.894365 0.087450 0 255 0
0.500843 -0.613333 -0.164243 127 127 0
-0.007321 0.372413 -0.533275 127 127 0
0.307248 0.335170 0.451345 127 127 0
0.093850 0.188174 0.546301 127 127 0
-0.057855 -0.745372 0.554427 127 127 0
0.333084 -0.744245 0.431520 127 127 0
0.296785 -0.326309 0.459373 127 127 0
-0.445466 -0.713075 0.340540 127 127 0
-0.398532 0.247069 0.401039 127 127 0
0.459055 0.651035 0.191133 127 127 0
0.463517 -0.262658 -0.254356 127 127 0
0.300353 0.796571 0.269659 0 255 0
-0.127940 0.791830 -0.330219 0 255 0
0.454780 0.460902 -0.268531 127 127 0
0.325480 -0.791195 -0.388702 127 127 0
0.082364 -0.873661 -0.291422 127 127 0
-0.067516 -0.873661 0.337717 127 127 0
0.174157 -0.793497 0.501275 127 127 0
-0.234830 0.894365 -0.139809 0 255 0
-0.321058 0.709940 0.317059 127 127 0
0.514341 -0.254176 0.158001 127 127 0
-0.528953 0.084190 -0.158486 127 127 0
0.207892 0.791830 0.037320 0 255 0
0.056215 -0.873661 0.273695 127 127 0
0.525096 0.228780 0.083196 127 127 0
0.512094 -0.196015 -0.137080 127 127 0
0.517424 0.022469 -0.115125 127 127 0
0.435889 0.682883 0.101465 127 127 0
0.385377 -0.616089 -0.358979 127 127 0
-0.377966 0.791830 -0.034283 0 255 0
0.284113 -0.146527 -0.442751 127 127 0
-0.205857 0.016625 0.520425 127 127 0
0.261469 0.065861 0.486472 127 127 0
0.247602 0.334648 -0.466133 127 127 0
-0.102814 0.894365 -0.132040 0 255 0
0.511733 0.118896 -0.137951 127 127 0
0.138732 0.791830 -0.193167 0 255 0
-0.474065 -0.845522 0.117982 127 127 0
0.409306 0.394628 -0.327794 127 127 0
0.499687 0.199815 0.193379 127 127 0
-0.260541 0.616639 -0.459825 127 127 0
0.023603 0.619078 -0.517194 127 127 0
-0.545616 0.529318 -0.096389 127 127 0
-0.558962 0.135735 0.004988 127 127 0
-0.289059 -0.538598 0.485041 127 127 0
-0.074454 -0.873661 -0.078044 127 127 0
0.175166 0.791830 0.199883 0 255 0
-0.143211 -0.910140 0.381435 127 127 0
-0.557339 -0.225610 -0.007343 127 127 0
0.159567 0.833613 0.379717 0 255 0
-0.406631 0.027839 -0.364805 127 127 0
0.522578 -0.731763 -0.075977 127 127 0
0.285865 0.441872 -0.441406 127 127 0
0.527779 0.037984 -0.036470 127 127 0
-0.448002 -0.870276 -0.101579 127 127 0
0.153875 0.894365 -0.262296 0 255 0
0.358325 0.729498 -0.165254 127 127 0
-0.415041 0.889793 0.058313 0 255 0
0.361980 -0.307238 -0.383002 127 127 0
-0.085099 -0.239497 -0.524494 127 127 0
0.239013 0.791830 0.271075 0 255 0
0.188422 0.738968 -0.343963 127 127 0
0.495652 -0.528771 0.203119 127 127 0
0.272871 -0.679856 0.477723 127 127 0
-0.338381 -0.393290 -0.420849 127 127 0
-0.032667 0.791830 -0.123045 0 255 0
0.398695 -0.009302 0.367968 127 127 0
-0.496232 0.576563 0.263826 127 127 0
-0.358196 0.791830 -0.199899 0 255 0
0.502886 0.410635 0.185656 127 127 0
-0.002158 0.474132 -0.532595 127 127 0
-0.428839 0.137380 0.362209 127 127 0
-0.255582 -0.685658 0.499828 127 127 0
0.010341 -0.898633 0.372101 127 127 0
0.531040 -0.395654 -0.011698 127 127 0
-0.463412 0.559244 -0.290807 127 127 0
-0.114801 0.628736 -0.503836 127 127 0
-0.532135 0.567937 -0.150804 127 127 0
0.381644 0.763140 -0.074265 127 127 0
0.530940 0.250184 -0.012458 127 127 0
-0.498343 -0.534725 -0.232384 127 127 0
0.439968 -0.164396 -0.287834 127 127 0
-0.174065 -0.882297 -0.390329 127 127 0
-0.397427 0.707010 -0.187908 127 127 0
0.110950 0.041469 0.544050 127 127 0
-0.157945 -0.905709 -0.322848 127 127 0
-0.371349 -0.899895 0.231030 127 127 0
0.379510 0.302924 0.392970 127 127 0
0.266616 0.005673 0.482522 127 127 0
0.319876 -0.685337 -0.415309 127 127 0
-0.301216 0.766476 -0.271283 127 127 0
-0.434046 0.646594 0.303264 127 127 0
0.068639 0.791830 -0.008608 0 255 0
-0.544358 -0.731126 0.132285 127 127 0
-0.441890 0.108997 -0.318855 127 127 0
-0.337029 -0.207470 0.448233 127 127 0
-0.492954 0.271802 0.271740 127 127 0
0.040049 0.894365 0.157799 0 255 0
-0.323697 -0.902085 0.203293 127 127 0
-0.537010 -0.090719 0.165380 127 127 0
0.417174 -0.282807 -0.317540 127 127 0
0.380523 0.147434 0.391649 127 127 0
0.495886 -0.361388 -0.176210 127 127 0
-0.534617 -0.325235 0.171156 127 127 0
-0.110356 -0.836211 0.484649 127 127 0
-0.317394 0.849118 0.280976 0 255 0
0.352076 -0.909851 0.196088 127 127 0
-0.155988 0.791830 -0.009786 0 255 0
0.309301 0.517692 -0.423423 127 127 0
-0.264574 -0.826028 0.437992 127 127 0
-0.553465 -0.649846 -0.036771 127 127 0
0.089893 -0.286745 0.546822 127 127 0
0.358324 -0.308452 0.412153 127 127 0
0.534162 -0.300011 0.014332 127 127 0
-0.144383 -0.873661 -0.234753 127 127 0
-0.462211 0.688200 0.046320 127 127 0
-0.432236 0.586676 -0.331437 127 127 0
0.504878 0.105502 0.180846 127 127 0
0.530646 -0.585427 -0.014693 127 127 0
0.121796 0.272503 0.542622 127 127 0
-0.522569 -0.799691 -0.071335 127 127 0
0.066196 -0.039941 0.549942 127 127 0
0.039724 -0.873661 -0.170432 127 127 0
-0.449251 0.664493 -0.197933 127 127 0
-0.068102 -0.406352 -0.526732 127 127 0
-0.410267 0.795682 -0.068223 0 255 0
-0.216170 -0.887731 -0.271527 127 127 0
-0.490040 0.154244 -0.252431 127 127 0
-0.129418 -0.478489 0.545005 127 127 0
-0.346704 0.105870 -0.414463 127 127 0
0.161128 0.319037 0.528297 127 127 0
-0.423732 0.645589 -0.292830 127 127 0
0.293019 -0.873661 -0.022160 127 127 0
0.040507 -0.464246 -0.526978 127 127 0
