ply
format ascii 1.0
element vertex 1215
property float x
property float y
property float z
property uchar red
property uchar green
property uchar blue
end_header
0.238972 -0.734207 -0.051435 204 51 127
-0.135174 -0.780157 -0.002473 204 51 127
-0.225615 0.283520 0.065173 204 51 127
-0.113105 0.787062 -0.050939 204 51 127
0.019362 0.640581 -0.051047 204 51 127
0.205460 -0.457651 0.126160 204 51 127
-0.059127 -0.819564 -0.191466 204 51 127
-0.078987 -0.312041 0.220025 204 51 127
-0.004725 0.710363 -0.061025 204 51 127
0.221987 0.285204 0.094562 204 51 127
0.039599 -0.331277 -0.240334 204 51 127
-0.044381 0.820663 0.003307 0 0 255
0.153266 -0.832150 -0.050788 204 51 127
-0.184408 0.271586 0.142459 204 51 127
-0.065152 0.790060 0.097499 204 51 127
0.244580 0.398205 -0.008839 204 51 127
-0.074021 -0.585247 0.222082 204 51 127
-0.229589 -0.539291 -0.057799 204 51 127
-0.039807 0.261529 -0.239181 204 51 127
-0.216787 -0.151308 -0.094577 204 51 127
0.141325 0.573449 -0.195628 204 51 127
0.069418 -0.812015 0.088422 204 51 127
-0.013728 -0.440586 0.234522 204 51 127
0.198099 -0.536248 -0.143846 204 51 127
-0.002260 0.757448 0.044716 204 51 127
0.004680 0.323606 0.236839 204 51 127
0.237229 -0.175630 -0.064677 204 51 127
0.139387 -0.230784 0.193375 204 51 127
0.064267 -0.634932 0.228994 204 51 127
0.208614 0.518623 -0.130142 204 51 127
-0.178965 -0.688335 0.149552 204 51 127
-0.194392 -0.791343 -0.064824 204 51 127
-0.040365 0.666449 0.016747 204 51 127
0.137136 -0.791343 -0.174000 204 51 127
0.084399 -0.492492 0.221323 204 51 127
0.097978 -0.727043 0.215699 204 51 127
0.178848 0.415498 -0.168935 204 51 127
0.089939 0.647162 -0.204088 204 51 127
-0.235409 0.448208 0.005495 204 51 127
-0.231055 0.099501 -0.046660 204 51 127
0.207653 -0.669944 0.123302 204 51 127
0.168133 -0.114382 0.171318 204 51 127
0.039721 -0.629505 -0.240318 204 51 127
0.142801 0.157981 0.190755 204 51 127
0.044164 0.684777 0.024783 204 51 127
0.232437 0.178167 0.069333 204 51 127
-0.230660 0.434994 -0.049661 204 51 127
-0.233313 -0.333497 0.021418 204 51 127
-0.089120 -0.256993 -0.223920 204 51 127
0.207869 0.520397 0.123021 204 51 127
-0.123903 0.022290 0.198699 204 51 127
-0.150995 -0.811011 -0.095013 204 51 127
-0.105405 -0.620157 0.209083 204 51 127
0.020402 0.109800 -0.242861 204 51 127
0.244865 0.286753 -0.006677 204 51 127
-0.062236 0.497871 -0.235056 204 51 127
-0.105561 0.700857 -0.164538 204 51 127
0.214826 0.226412 0.111850 204 51 127
0.032024 -0.791343 -0.091104 204 51 127
0.040541 0.713784 0.179349 204 51 127
0.094296 0.387995 0.217224 204 51 127
-0.018134 -0.479045 0.233942 204 51 127
-0.024971 0.009219 0.233042 204 51 127
0.117290 0.428426 0.207700 204 51 127
0.071122 0.762248 0.132084 204 51 127
-0.173427 0.412610 -0.164862 204 51 127
0.075365 0.111284 -0.233158 204 51 127
0.149354 -0.285402 0.185727 204 51 127
0.145271 -0.023399 -0.196952 204 51 127
0.244757 -0.012944 -0.000597 204 51 127
-0.159828 -0.184009 -0.179225 204 51 127
0.186433 0.566619 -0.154941 204 51 127
-0.043319 -0.156970 0.230627 204 51 127
-0.041145 0.742061 0.014865 0 0 255
-0.220469 0.482363 -0.085687 204 51 127
0.212971 -0.297253 -0.124420 204 51 127
-0.218565 -0.383954 0.082192 204 51 127
0.100998 -0.853727 0.120096 204 51 127
-0.196389 -0.038649 -0.134937 204 51 127
0.086023 -0.300213 -0.228743 204 51 127
-0.038639 0.772699 -0.028938 0 0 255
-0.233974 -0.232622 -0.024494 204 51 127
0.013461 -0.850462 -0.173869 204 51 127
-0.223851 -0.361689 -0.077522 204 51 127
-0.231072 0.403747 0.038442 204 51 127
0.242802 -0.153884 0.014257 204 51 127
0.131513 0.753016 -0.099528 204 51 127
0.240869 0.189696 -0.037027 204 51 127
0.154594 -0.816463 0.094216 204 51 127
0.079900 -0.394238 -0.231279 204 51 127
0.106146 -0.485826 -0.220408 204 51 127
0.188519 -0.504036 0.148239 204 51 127
0.245020 -0.379886 -0.005497 204 51 127
0.196074 -0.316502 -0.146485 204 51 127
-0.209242 -0.637970 -0.112792 204 51 127
0.097849 0.138922 0.215752 204 51 127
0.096632 0.726092 0.150763 204 51 127
-0.212478 -0.388430 -0.104979 204 51 127
-0.220191 -0.510425 0.078265 204 51 127
-0.007953 -0.410230 -0.243375 204 51 127
0.228467 0.469594 -0.087009 204 51 127
0.091346 0.318513 -0.226538 204 51 127
0.123414 -0.460750 0.205163 204 51 127
0.099787 -0.162518 -0.223042 204 51 127
0.081218 -0.635783 -0.230733 204 51 127
-0.185960 -0.549076 0.140437 204 51 127
0.197238 0.205855 0.136875 204 51 127
-0.065769 -0.120068 -0.233593 204 51 127
-0.044409 0.953502 0.003093 0 0 255
0.123217 -0.388013 -0.213337 204 51 127
-0.017321 0.541168 0.025780 204 51 127
0.217100 -0.399145 -0.114453 204 51 127
0.188664 0.445785 -0.156142 204 51 127
-0.076729 -0.791343 0.183966 204 51 127
0.103475 0.177524 -0.221514 204 51 127
-0.158651 -0.357451 -0.180128 204 51 127
-0.015671 0.799931 0.040944 0 0 255
-0.230002 -0.284022 0.046571 204 51 127
0.165482 -0.694320 -0.181444 204 51 127
-0.020622 1.002700 -0.024804 255 0 0
0.244904 0.473144 -0.001713 204 51 127
-0.111174 0.434578 0.206693 204 51 127
0.081937 0.447286 -0.230436 204 51 127
0.214879 -0.301141 0.111721 204 51 127
-0.150569 -0.789339 0.103637 204 51 127
0.227161 0.196859 -0.090164 204 51 127
0.222572 0.594491 -0.082933 204 51 127
0.229531 -0.340596 0.076350 204 51 127
-0.131456 0.351938 -0.200996 204 51 127
0.126948 -0.791343 0.044095 204 51 127
0.159669 0.068321 0.177812 204 51 127
-0.076699 -0.206422 -0.229065 204 51 127
0.238204 -0.647353 0.049184 204 51 127
-0.214538 0.355715 -0.100006 204 51 127
0.144391 -0.791343 0.167319 204 51 127
0.151289 0.593238 0.175678 204 51 127
0.224290 0.478773 0.089002 204 51 127
-0.235400 -0.281040 -0.013657 204 51 127
0.232357 -0.745938 0.069525 204 51 127
-0.035985 -0.167546 -0.239685 204 51 127
-0.232050 0.314532 -0.039106 204 51 127
-0.210010 -0.206709 0.102846 204 51 127
-0.186097 0.216024 0.140257 204 51 127
0.076553 0.462958 0.224573 204 51 127
0.230751 -0.207760 -0.081495 204 51 127
-0.234956 -0.199677 0.008940 204 51 127
-0.021085 0.624387 -0.046600 204 51 127
-0.046645 -0.485999 0.230189 204 51 127
0.204109 0.325943 -0.136013 204 51 127
0.233517 -0.143273 0.066726 204 51 127
-0.236293 -0.119192 -0.001216 204 51 127
-0.204253 -0.777166 -0.006077 204 51 127
-0.189256 -0.690864 -0.144233 204 51 127
0.240858 -0.592699 0.029020 204 51 127
-0.154389 0.342062 -0.183399 204 51 127
-0.221439 -0.182037 0.075254 204 51 127
-0.082410 0.115627 0.218608 204 51 127
-0.233712 -0.393141 0.018389 204 51 127
-0.082727 0.432543 0.218476 204 51 127
-0.180097 -0.206281 -0.156170 204 51 127
0.106672 0.078497 -0.220190 204 51 127
-0.186128 -0.775963 -0.101013 204 51 127
-0.231727 0.468576 -0.041556 204 51 127
0.002139 -0.149283 0.236611 204 51 127
0.186928 -0.124546 0.150312 204 51 127
-0.205802 -0.223561 -0.121097 204 51 127
0.052517 0.839754 -0.014514 0 0 255
0.193341 0.375741 -0.150047 204 51 127
-0.078845 -0.364680 0.220084 204 51 127
0.106523 -0.723996 -0.220252 204 51 127
-0.124743 -0.791343 -0.171602 204 51 127
0.157139 -0.808740 -0.129148 204 51 127
0.206233 -0.814495 -0.065139 204 51 127
-0.231702 -0.441585 -0.041749 204 51 127
0.200848 0.202547 -0.140263 204 51 127
0.053960 0.681886 -0.203748 204 51 127
0.058970 -0.791343 0.192629 204 51 127
0.237706 -0.516981 0.052962 204 51 127
0.052542 0.421101 0.230538 204 51 127
0.141642 0.442892 -0.199737 204 51 127
0.202101 -0.075950 -0.138630 204 51 127
-0.205701 -0.475655 -0.121342 204 51 127
0.242589 -0.196226 -0.023964 204 51 127
0.186437 -0.679151 -0.159044 204 51 127
0.188275 -0.487247 -0.156648 204 51 127
0.039684 0.941842 -0.042538 0 0 255
-0.069819 -0.791343 0.121735 204 51 127
0.243846 0.553452 -0.005172 204 51 127
0.113281 -0.773903 -0.217452 204 51 127
0.164264 0.178310 0.174286 204 51 127
-0.012490 0.140582 0.234685 204 51 127
0.175465 -0.766409 -0.173343 204 51 127
-0.053476 -0.817033 -0.147893 204 51 127
-0.211982 -0.548491 0.098085 204 51 127
0.238794 -0.076256 -0.052795 204 51 127
-0.204479 0.453154 -0.124291 204 51 127
-0.217735 -0.757661 -0.092288 204 51 127
0.241700 -0.469843 -0.030715 204 51 127
0.240419 0.512044 -0.040449 204 51 127
-0.076358 -0.791343 -0.199257 204 51 127
-0.035086 0.669740 -0.033568 204 51 127
-0.045154 -0.779203 0.230385 204 51 127
0.040000 0.872932 -0.062099 0 0 255
0.036150 -0.791343 -0.033246 204 51 127
0.242722 -0.424365 -0.022955 204 51 127
0.190642 -0.791343 0.133878 204 51 127
-0.174362 0.370578 0.155552 204 51 127
-0.107860 -0.058782 -0.216158 204 51 127
-0.088669 -0.285375 -0.224107 204 51 127
-0.095898 -0.524490 -0.221113 204 51 127
0.067517 -0.791343 -0.143192 204 51 127
-0.128925 -0.379112 0.194845 204 51 127
-0.176132 0.288703 -0.161337 204 51 127
0.161916 0.205312 0.176088 204 51 127
0.145101 0.502232 -0.197083 204 51 127
0.220436 -0.159070 -0.106398 204 51 127
0.228744 0.089142 0.078248 204 51 127
0.032067 -0.458701 0.233233 204 51 127
-0.022186 -0.311881 -0.241501 204 51 127
-0.191108 0.102592 -0.141820 204 51 127
0.065744 -0.829863 0.135626 204 51 127
-0.074994 0.144940 0.221679 204 51 127
-0.021263 -0.791343 -0.028949 204 51 127
0.090340 0.638875 0.198693 204 51 127
-0.168943 -0.017693 0.162613 204 51 127
0.141841 0.215927 0.191492 204 51 127
-0.210288 -0.107787 0.102174 204 51 127
0.238898 0.006628 -0.052001 204 51 127
0.048013 0.640398 0.211849 204 51 127
0.198099 0.571136 0.130723 204 51 127
-0.229880 0.273124 -0.055587 204 51 127
-0.069175 -0.791343 0.053151 204 51 127
0.095608 0.333257 0.216680 204 51 127
0.123659 0.199700 0.205061 204 51 127
0.120649 -0.818201 -0.096789 204 51 127
0.199643 -0.106815 0.133742 204 51 127
0.238095 0.208042 0.050007 204 51 127
-0.205824 -0.415427 0.112952 204 51 127
-0.036094 0.453426 -0.239670 204 51 127
0.213631 0.079281 0.114735 204 51 127
-0.124976 0.682294 -0.161142 204 51 127
0.049263 0.297936 0.230969 204 51 127
0.132134 -0.229273 -0.207033 204 51 127
-0.133534 -0.662849 0.191309 204 51 127
0.216467 -0.616315 -0.115981 204 51 127
-0.107705 -0.342013 -0.216222 204 51 127
-0.123639 0.509561 0.198902 204 51 127
-0.165400 -0.769134 0.166858 204 51 127
-0.149288 0.758823 -0.019122 204 51 127
0.220234 -0.210970 -0.106885 204 51 127
0.212389 0.554704 -0.122350 204 51 127
0.187204 -0.791343 -0.003514 204 51 127
0.210816 -0.025045 0.119180 204 51 127
0.146049 -0.200843 0.188263 204 51 127
0.231295 -0.108758 -0.080184 204 51 127
-0.054412 0.661218 -0.209512 204 51 127
-0.166375 -0.791343 -0.112876 204 51 127
-0.109687 0.478339 0.207309 204 51 127
-0.038906 0.704992 -0.028363 204 51 127
0.100269 -0.791343 -0.108466 204 51 127
-0.141806 -0.540024 -0.193054 204 51 127
-0.078962 -0.614063 -0.228128 204 51 127
-0.187377 -0.558425 -0.146682 204 51 127
0.140318 -0.791343 -0.105698 204 51 127
-0.056305 0.984482 -0.008947 255 0 0
0.241671 -0.091640 -0.030936 204 51 127
-0.214805 0.112054 -0.099361 204 51 127
0.034017 0.973019 0.041332 255 0 0
0.211907 -0.488120 -0.125850 204 51 127
0.206484 0.488589 -0.132918 204 51 127
-0.079698 0.593905 -0.220346 204 51 127
-0.228533 -0.763885 0.057725 204 51 127
0.218609 -0.123116 -0.110810 204 51 127
-0.177684 0.070386 0.151221 204 51 127
-0.228878 0.037780 -0.063202 204 51 127
0.142507 0.412738 0.190981 204 51 127
-0.113304 0.054505 -0.213903 204 51 127
-0.179929 0.051882 -0.156388 204 51 127
0.098734 -0.229867 0.215385 204 51 127
-0.184290 -0.313872 -0.150705 204 51 127
0.023754 -0.164979 0.234327 204 51 127
0.225977 -0.328572 -0.093020 204 51 127
-0.085475 -0.724190 0.217338 204 51 127
-0.221778 -0.608977 0.074434 204 51 127
0.048570 -0.737901 0.231060 204 51 127
0.213871 -0.125566 0.114155 204 51 127
0.046498 0.719545 -0.029833 204 51 127
-0.151979 -0.106299 0.177156 204 51 127
0.080251 0.053046 0.223042 204 51 127
-0.137940 0.580945 -0.190072 204 51 127
-0.218581 0.145992 0.082154 204 51 127
-0.046669 -0.789249 0.145263 204 51 127
-0.062467 0.685670 -0.194671 204 51 127
0.035649 -0.791343 0.126511 204 51 127
0.055805 0.938857 0.007088 0 0 255
0.032128 0.998076 -0.052928 255 0 0
0.032153 0.267698 0.233222 204 51 127
-0.008833 -0.791343 -0.054419 204 51 127
-0.172438 -0.733247 0.158059 204 51 127
0.154867 0.087227 -0.189590 204 51 127
0.185001 0.478988 0.152822 204 51 127
-0.059006 0.827110 0.053742 0 0 255
-0.212941 -0.813849 -0.033216 204 51 127
-0.127434 0.134223 0.195989 204 51 127
-0.165034 -0.293331 -0.175230 204 51 127
-0.229239 0.065994 0.052367 204 51 127
0.097467 -0.055422 0.215911 204 51 127
0.162872 0.430328 0.175354 204 51 127
-0.145196 -0.791343 0.153266 204 51 127
-0.219129 -0.014230 -0.088923 204 51 127
0.098623 -0.311909 0.215432 204 51 127
-0.134761 -0.834544 0.136553 204 51 127
-0.002876 0.600608 0.227604 204 51 127
0.163259 0.726976 0.078363 204 51 127
0.203956 0.044165 -0.136213 204 51 127
0.155472 0.665001 0.145126 204 51 127
0.027635 0.205747 0.233817 204 51 127
0.209303 0.482967 0.121152 204 51 127
0.136040 0.288820 -0.204036 204 51 127
0.176754 0.165993 -0.171663 204 51 127
0.170259 -0.640487 -0.177779 204 51 127
0.183119 -0.803448 -0.030916 204 51 127
-0.113737 -0.089092 0.205632 204 51 127
0.095944 0.277039 -0.224634 204 51 127
-0.147376 0.633618 -0.167407 204 51 127
-0.173876 0.296222 0.156184 204 51 127
-0.232266 -0.265707 -0.037463 204 51 127
0.190821 0.682649 0.076417 204 51 127
-0.209271 0.223135 -0.112722 204 51 127
0.124982 0.173282 0.204429 204 51 127
-0.060881 0.869018 0.019211 0 0 255
0.241046 0.253006 -0.035685 204 51 127
0.075538 -0.246851 -0.233086 204 51 127
-0.023831 -0.143903 -0.241285 204 51 127
-0.107485 -0.413526 -0.216313 204 51 127
-0.191934 -0.631200 -0.140743 204 51 127
0.012504 0.567283 0.044492 204 51 127
-0.121725 -0.791343 0.189475 204 51 127
0.056701 0.867474 0.041963 0 0 255
0.242367 0.047278 0.017556 204 51 127
0.032194 0.233741 -0.241309 204 51 127
-0.044093 0.163704 -0.238617 204 51 127
-0.177019 -0.394043 -0.160180 204 51 127
-0.012423 -0.836243 -0.218125 204 51 127
0.240616 0.438177 -0.038952 204 51 127
-0.168587 -0.557001 -0.171169 204 51 127
0.115594 0.779390 -0.080368 204 51 127
0.200309 -0.715091 0.132874 204 51 127
-0.127475 -0.627600 -0.204051 204 51 127
-0.006652 0.467940 0.235454 204 51 127
0.101690 0.218538 0.214161 204 51 127
0.242571 0.263325 0.016007 204 51 127
-0.149948 0.053406 -0.186806 204 51 127
0.219844 -0.234680 0.099735 204 51 127
0.063252 -0.109129 -0.237220 204 51 127
-0.032188 -0.107004 0.232092 204 51 127
-0.150998 -0.112967 -0.186001 204 51 127
-0.204360 -0.791343 0.102324 204 51 127
-0.023114 0.541168 -0.009021 204 51 127
-0.231241 -0.158590 0.037160 204 51 127
0.201944 -0.586561 -0.138835 204 51 127
-0.000499 -0.498456 0.236264 204 51 127
-0.223409 -0.673510 0.070497 204 51 127
0.197159 -0.010098 0.136979 204 51 127
0.176374 0.319223 0.164066 204 51 127
0.237754 0.551624 -0.052823 204 51 127
0.182818 -0.442649 0.155668 204 51 127
-0.176247 0.247735 0.153094 204 51 127
0.241572 -0.116008 0.023596 204 51 127
0.164405 0.632729 0.152277 204 51 127
0.220467 0.650569 -0.020640 204 51 127
-0.000579 0.045574 0.236253 204 51 127
-0.169974 -0.791343 0.124102 204 51 127
0.136936 0.030571 0.195256 204 51 127
0.222618 0.031481 0.093040 204 51 127
-0.044570 0.561618 -0.009964 204 51 127
0.226238 0.445728 0.084298 204 51 127
0.054503 0.334041 0.230279 204 51 127
0.000283 0.223789 0.236367 204 51 127
-0.207220 -0.016881 0.109581 204 51 127
-0.218406 0.446592 0.082576 204 51 127
0.175087 -0.591259 0.165743 204 51 127
0.150417 -0.477049 -0.193004 204 51 127
0.222078 0.222292 -0.102435 204 51 127
0.059807 0.684856 0.191654 204 51 127
0.095596 0.587393 0.210399 204 51 127
-0.023296 0.534639 -0.241355 204 51 127
-0.204448 -0.122644 -0.124366 204 51 127
-0.078693 0.606855 0.209552 204 51 127
0.060247 0.245371 0.229523 204 51 127
0.095085 0.524370 -0.224989 204 51 127
-0.194835 0.690222 0.011375 204 51 127
-0.121127 -0.200377 -0.208922 204 51 127
-0.233632 0.254971 -0.027087 204 51 127
-0.225701 0.560203 -0.068168 204 51 127
-0.136260 -0.779877 -0.197310 204 51 127
-0.184573 -0.340036 -0.150336 204 51 127
-0.148468 0.503723 0.179850 204 51 127
0.166061 0.672395 -0.134539 204 51 127
0.140799 0.245037 0.192292 204 51 127
-0.125424 -0.256533 0.197532 204 51 127
0.171599 -0.586626 -0.176750 204 51 127
-0.210443 -0.247070 -0.109892 204 51 127
-0.229234 0.109989 0.052402 204 51 127
-0.115462 0.145105 -0.213009 204 51 127
-0.026335 0.564367 -0.042572 204 51 127
-0.102053 -0.586700 -0.218563 204 51 127
-0.223094 0.496002 0.071258 204 51 127
0.195619 0.622440 0.116709 204 51 127
-0.233418 -0.488140 -0.028717 204 51 127
0.196042 -0.784853 -0.146527 204 51 127
-0.205314 0.286281 -0.122275 204 51 127
-0.104882 0.798282 0.027852 204 51 127
0.167707 0.745846 -0.027282 204 51 127
-0.032349 0.291624 -0.240163 204 51 127
-0.124616 0.727081 -0.129040 204 51 127
-0.232249 0.521718 0.029499 204 51 127
0.240412 -0.066684 0.032408 204 51 127
-0.193006 0.052459 0.131254 204 51 127
-0.072674 -0.066945 -0.230732 204 51 127
0.223353 -0.104726 0.091263 204 51 127
-0.213648 0.615587 0.062960 204 51 127
0.140137 0.329334 0.192800 204 51 127
-0.172508 0.358700 -0.166060 204 51 127
0.183279 0.221264 0.155067 204 51 127
-0.105302 0.276953 0.209125 204 51 127
0.219662 -0.348553 -0.108268 204 51 127
0.107041 -0.668103 0.211945 204 51 127
0.180919 0.294598 -0.166235 204 51 127
0.087739 -0.791343 -0.191618 204 51 127
0.054757 -0.565730 0.230246 204 51 127
0.022986 0.822091 -0.049546 0 0 255
0.095665 0.369113 -0.224749 204 51 127
0.226304 -0.736159 -0.092233 204 51 127
0.040604 0.054072 0.232109 204 51 127
-0.192664 -0.613060 0.131699 204 51 127
-0.007815 0.170465 0.235301 204 51 127
-0.109469 0.760335 0.098970 204 51 127
-0.135850 0.066731 0.189532 204 51 127
-0.198173 0.576324 -0.126142 204 51 127
-0.063616 0.207924 -0.234484 204 51 127
0.237459 -0.129952 -0.062935 204 51 127
-0.132205 -0.816735 0.084106 204 51 127
0.239475 0.485202 0.039529 204 51 127
0.222666 -0.440463 0.092922 204 51 127
0.105886 -0.791343 0.186380 204 51 127
0.170896 0.630313 -0.153177 204 51 127
0.176587 -0.407358 0.163789 204 51 127
-0.046955 -0.522979 -0.238240 204 51 127
0.119480 -0.776214 -0.116718 204 51 127
0.242261 -0.436513 0.018366 204 51 127
0.163543 0.116899 0.174840 204 51 127
-0.039913 0.563832 0.228829 204 51 127
-0.111012 -0.548999 0.206760 204 51 127
0.240476 0.152689 0.031924 204 51 127
-0.192299 -0.747396 -0.140268 204 51 127
-0.017067 -0.791343 -0.141748 204 51 127
-0.015241 0.819287 -0.091298 0 0 255
0.220348 0.537176 0.098517 204 51 127
0.215402 -0.370797 0.110460 204 51 127
-0.228171 -0.329370 0.059000 204 51 127
-0.169718 0.146753 0.161603 204 51 127
0.071630 -0.791343 0.115985 204 51 127
0.102543 -0.774149 0.213808 204 51 127
-0.003961 0.566307 -0.241409 204 51 127
-0.158248 -0.838622 -0.038591 204 51 127
0.014174 -0.791343 0.019574 204 51 127
-0.086833 -0.050040 0.216776 204 51 127
-0.011685 -0.103258 -0.242884 204 51 127
0.233588 0.609876 -0.011741 204 51 127
-0.006964 -0.791343 -0.104123 204 51 127
-0.128830 -0.286467 -0.203011 204 51 127
-0.209754 -0.359052 0.103464 204 51 127
-0.152381 -0.574205 0.176847 204 51 127
0.081087 0.263047 0.222695 204 51 127
0.002102 -0.582111 -0.244699 204 51 127
0.240706 -0.552228 0.030172 204 51 127
0.244701 0.123328 -0.000171 204 51 127
-0.215412 0.533803 0.089803 204 51 127
0.119024 0.258372 0.206981 204 51 127
0.089175 -0.610199 -0.227437 204 51 127
0.205713 0.668148 -0.065178 204 51 127
-0.042587 0.862107 -0.058059 0 0 255
0.053844 0.636523 -0.004432 204 51 127
-0.048614 -0.524243 0.229930 204 51 127
0.179490 -0.320242 0.160005 204 51 127
0.100830 -0.194530 0.214517 204 51 127
-0.007166 -0.841230 -0.138629 204 51 127
0.029184 -0.791343 -0.223618 204 51 127
0.229025 0.517832 0.077570 204 51 127
-0.134105 -0.528090 0.190871 204 51 127
-0.117967 -0.282363 0.203254 204 51 127
-0.229207 -0.216587 0.052608 204 51 127
0.066404 0.654295 -0.211095 204 51 127
0.213229 -0.154820 0.115706 204 51 127
-0.008970 -0.711206 -0.243241 204 51 127
-0.190979 -0.172043 -0.141988 204 51 127
0.047717 -0.161775 -0.239265 204 51 127
-0.156224 -0.641463 -0.181991 204 51 127
0.206776 -0.750707 -0.132537 204 51 127
0.227832 0.340588 0.080449 204 51 127
-0.174168 0.150813 -0.163897 204 51 127
-0.049991 -0.252789 -0.237841 204 51 127
0.180618 0.677897 -0.111760 204 51 127
-0.089260 -0.791343 -0.130413 204 51 127
0.010453 -0.043454 -0.244171 204 51 127
0.239413 -0.518568 -0.048092 204 51 127
-0.012078 -0.357769 -0.242832 204 51 127
-0.130231 -0.062630 0.193844 204 51 127
0.011516 0.404413 0.235939 204 51 127
-0.099033 0.100903 -0.219814 204 51 127
0.212111 0.427544 -0.125585 204 51 127
0.230317 -0.010627 -0.082544 204 51 127
0.159835 0.754859 0.021228 204 51 127
-0.064113 -0.670449 0.226186 204 51 127
-0.207639 0.665597 -0.007307 204 51 127
-0.185170 0.623635 -0.126806 204 51 127
-0.175860 0.462482 0.153599 204 51 127
0.161596 0.458159 0.176334 204 51 127
-0.206143 -0.732203 -0.120275 204 51 127
-0.056301 -0.791343 -0.028139 204 51 127
-0.013413 -0.663520 0.234564 204 51 127
0.122084 0.362868 -0.213806 204 51 127
0.032748 0.167470 0.233144 204 51 127
0.062241 -0.762531 0.229261 204 51 127
0.033064 0.761335 -0.153682 204 51 127
-0.065702 0.097787 0.225528 204 51 127
-0.082173 0.400024 -0.226798 204 51 127
-0.131370 -0.791343 -0.056374 204 51 127
-0.112819 -0.341271 0.206012 204 51 127
0.004793 -0.627986 -0.244916 204 51 127
-0.007386 -0.443087 -0.243450 204 51 127
-0.150853 -0.678007 0.178020 204 51 127
-0.147134 -0.237415 -0.188966 204 51 127
0.133418 -0.791343 -0.066094 204 51 127
-0.000249 0.097410 0.236297 204 51 127
-0.142043 -0.763387 0.184780 204 51 127
-0.165383 -0.410431 0.166871 204 51 127
0.191967 -0.242822 0.143745 204 51 127
-0.216143 -0.151611 0.088038 204 51 127
-0.225930 -0.561740 0.064410 204 51 127
-0.235935 0.400512 0.001500 204 51 127
0.155396 0.596407 -0.179944 204 51 127
0.193543 0.293250 0.141691 204 51 127
-0.070569 -0.812445 0.168697 204 51 127
-0.068042 0.616927 -0.219417 204 51 127
-0.139817 0.441023 -0.194580 204 51 127
-0.105032 -0.474112 -0.217329 204 51 127
0.173107 -0.034072 -0.175593 204 51 127
0.233646 -0.607426 0.066415 204 51 127
0.023658 -0.035353 0.234340 204 51 127
0.027446 0.678738 -0.207827 204 51 127
-0.228724 -0.452576 -0.064371 204 51 127
0.043635 0.809064 -0.093530 0 0 255
0.121316 -0.791343 0.128330 204 51 127
-0.093895 -0.791343 -0.066444 204 51 127
-0.096470 -0.022679 -0.220876 204 51 127
0.064405 -0.716061 -0.237068 204 51 127
0.034759 -0.106969 0.232879 204 51 127
-0.235518 0.089207 0.004671 204 51 127
0.122117 -0.462994 -0.213792 204 51 127
-0.176421 -0.588050 0.152868 204 51 127
0.010709 0.953880 -0.054192 0 0 255
-0.174394 0.651296 -0.126464 204 51 127
-0.229354 -0.424526 0.051494 204 51 127
0.167246 0.322559 -0.180091 204 51 127
0.103513 0.134661 -0.221498 204 51 127
-0.214659 -0.612324 -0.099715 204 51 127
0.240760 0.278103 -0.037861 204 51 127
0.211214 -0.056081 0.118662 204 51 127
-0.231888 0.221022 -0.040335 204 51 127
-0.179352 0.604252 -0.142096 204 51 127
0.004633 -0.191318 -0.244937 204 51 127
-0.156790 0.102798 0.173464 204 51 127
0.141461 -0.736824 -0.199876 204 51 127
0.116947 0.549778 0.206926 204 51 127
0.145447 0.537744 0.188725 204 51 127
0.117749 -0.527031 0.207509 204 51 127
0.186807 0.702228 0.060642 204 51 127
0.219238 -0.531583 -0.109290 204 51 127
0.212098 0.250737 0.117510 204 51 127
-0.000960 0.657579 0.210855 204 51 127
-0.160646 -0.809341 0.001530 204 51 127
-0.194689 0.336372 -0.137153 204 51 127
-0.024990 0.844856 -0.043604 0 0 255
-0.070678 -0.503284 -0.231559 204 51 127
0.150728 -0.791343 0.088485 204 51 127
0.221709 -0.791343 0.094918 204 51 127
0.203644 0.450722 -0.136619 204 51 127
0.227651 0.607525 -0.061196 204 51 127
-0.045716 0.303576 0.230311 204 51 127
-0.133609 -0.005230 -0.199344 204 51 127
-0.065797 0.445280 -0.233581 204 51 127
-0.021070 0.975797 0.047661 255 0 0
-0.083452 0.728627 -0.159570 204 51 127
0.192424 0.179370 0.143149 204 51 127
0.240106 -0.771325 0.034732 204 51 127
0.027986 -0.066971 -0.241863 204 51 127
-0.039118 0.332804 0.231180 204 51 127
-0.202658 0.279160 0.118675 204 51 127
0.202273 -0.441741 -0.138406 204 51 127
0.181985 0.589340 0.146673 204 51 127
0.135812 -0.631226 0.196118 204 51 127
-0.135598 0.070712 -0.197818 204 51 127
0.041503 0.367314 0.231991 204 51 127
-0.163696 0.102274 -0.176257 204 51 127
0.081774 0.292867 0.222411 204 51 127
-0.093777 0.056726 0.213899 204 51 127
-0.205387 -0.592871 0.114006 204 51 127
0.068630 0.384865 0.227855 204 51 127
0.179817 0.617480 0.139274 204 51 127
-0.182284 -0.791343 -0.004327 204 51 127
0.175984 -0.791343 0.069883 204 51 127
0.230098 0.261014 -0.083071 204 51 127
-0.036270 0.800352 0.098524 204 51 127
-0.028536 0.433275 0.232573 204 51 127
-0.062231 0.040994 -0.235058 204 51 127
-0.037179 -0.791343 0.195114 204 51 127
0.149783 -0.791343 0.034023 204 51 127
-0.166974 0.526610 0.165180 204 51 127
-0.236136 0.425402 -0.008068 204 51 127
0.229667 -0.558784 0.076020 204 51 127
0.052780 0.966993 0.005080 255 0 0
-0.043512 -0.214333 0.230601 204 51 127
0.205257 0.684058 0.020340 204 51 127
-0.067163 -0.299312 -0.233015 204 51 127
-0.152638 -0.294092 0.176650 204 51 127
-0.139533 -0.735747 -0.194798 204 51 127
0.142422 0.295055 0.191046 204 51 127
-0.150180 -0.422666 -0.186628 204 51 127
-0.103034 -0.791343 0.097833 204 51 127
0.134699 -0.344708 0.196973 204 51 127
-0.229346 -0.533813 0.051549 204 51 127
0.213670 0.096769 -0.122734 204 51 127
-0.122681 0.768247 0.070092 204 51 127
-0.044137 0.867266 -0.013254 0 0 255
0.237765 -0.345194 -0.060606 204 51 127
0.074850 0.185891 0.225279 204 51 127
-0.016449 -0.681280 -0.242257 204 51 127
-0.068161 0.118167 -0.232602 204 51 127
0.222245 -0.305728 -0.102031 204 51 127
0.110355 -0.843092 0.088783 204 51 127
0.008002 -0.222577 0.236401 204 51 127
-0.228949 0.324728 -0.062662 204 51 127
0.101716 0.164089 0.214150 204 51 127
-0.081520 0.380163 0.218976 204 51 127
-0.229847 -0.662160 0.047747 204 51 127
0.200151 0.128468 0.133080 204 51 127
-0.212950 -0.533518 -0.103839 204 51 127
-0.059287 -0.417414 -0.236277 204 51 127
-0.177440 0.011514 -0.159632 204 51 127
-0.194350 -0.506664 -0.137594 204 51 127
0.244202 -0.581182 -0.011713 204 51 127
-0.229342 -0.749630 -0.059676 204 51 127
-0.005573 0.932486 -0.061376 0 0 255
0.136800 0.767435 0.059243 204 51 127
0.161366 -0.392278 -0.184603 204 51 127
-0.171057 0.469358 -0.167950 204 51 127
-0.102702 0.653943 -0.192674 204 51 127
-0.169818 -0.503717 0.161473 204 51 127
0.237941 0.004704 0.051178 204 51 127
0.168948 -0.524649 -0.178784 204 51 127
0.128629 0.638511 0.178288 204 51 127
-0.093226 -0.791343 0.047383 204 51 127
0.072447 0.811104 -0.070924 0 0 255
-0.137426 -0.153250 0.188322 204 51 127
-0.123360 0.206313 -0.207208 204 51 127
0.243977 0.373666 -0.013423 204 51 127
0.219655 -0.642885 0.100192 204 51 127
0.194690 -0.767847 0.140196 204 51 127
0.129180 -0.484397 0.201207 204 51 127
-0.130585 -0.201346 0.193572 204 51 127
0.213699 -0.595959 0.114571 204 51 127
-0.069691 0.779105 -0.117534 204 51 127
0.027970 0.703453 0.039389 204 51 127
0.036663 -0.017752 -0.240720 204 51 127
0.039658 -0.669370 -0.240326 204 51 127
-0.106857 -0.175618 0.208481 204 51 127
-0.043674 0.905196 0.008682 0 0 255
-0.008245 0.529247 0.235244 204 51 127
-0.082090 0.689570 0.176376 204 51 127
0.089681 0.707920 0.166262 204 51 127
0.092255 0.226821 -0.226162 204 51 127
-0.071656 0.839898 0.021306 0 0 255
0.231910 -0.197896 0.070605 204 51 127
-0.118539 -0.810481 -0.039751 204 51 127
0.029414 -0.835657 -0.194492 204 51 127
-0.044547 0.653005 -0.010137 204 51 127
0.101381 -0.555870 0.214289 204 51 127
-0.227912 -0.477922 0.059626 204 51 127
0.228071 -0.645611 -0.087967 204 51 127
-0.111876 0.606512 -0.203787 204 51 127
-0.230733 -0.145127 -0.049110 204 51 127
-0.040656 -0.574039 0.230977 204 51 127
-0.043991 -0.470701 -0.238631 204 51 127
-0.146358 -0.205120 -0.189561 204 51 127
0.141023 -0.119776 0.192120 204 51 127
-0.090499 -0.001503 0.215257 204 51 127
-0.075204 0.755752 0.132590 204 51 127
0.156269 0.747881 0.055899 204 51 127
-0.217881 0.613358 -0.059676 204 51 127
0.038072 1.002700 0.022611 255 0 0
-0.111975 0.246895 -0.214453 204 51 127
-0.226848 -0.227377 -0.070286 204 51 127
-0.236245 -0.602564 -0.007237 204 51 127
0.235169 -0.412281 0.062737 204 51 127
0.151921 -0.658176 -0.191850 204 51 127
-0.088290 0.781355 -0.100444 204 51 127
0.142497 0.198426 -0.199081 204 51 127
-0.040856 0.610119 -0.023655 204 51 127
-0.017799 -0.193999 0.233986 204 51 127
-0.039946 -0.803737 -0.222910 204 51 127
0.046440 -0.810547 -0.179216 204 51 127
-0.233569 -0.255718 0.019473 204 51 127
-0.133107 -0.006914 0.191637 204 51 127
0.195226 0.644973 0.105388 204 51 127
-0.130709 -0.137769 -0.201569 204 51 127
0.233215 0.093246 -0.075547 204 51 127
0.240414 0.134583 -0.040489 204 51 127
-0.186436 -0.113167 -0.147909 204 51 127
0.183848 -0.050717 0.154326 204 51 127
0.244758 -0.506163 -0.000604 204 51 127
0.010264 0.991486 -0.061382 255 0 0
0.088332 0.769081 -0.122343 204 51 127
0.238596 -0.441202 0.046202 204 51 127
-0.234956 -0.629697 -0.017031 204 51 127
-0.019463 0.082690 0.233767 204 51 127
0.170994 -0.193124 0.169122 204 51 127
-0.149207 0.219348 -0.187375 204 51 127
0.167504 -0.248270 0.171801 204 51 127
-0.233445 0.054741 -0.028510 204 51 127
-0.021630 0.779393 -0.136574 204 51 127
0.145426 -0.838778 0.140151 204 51 127
-0.110154 -0.700140 0.207116 204 51 127
-0.048052 -0.075031 0.230004 204 51 127
-0.231551 -0.022457 -0.042891 204 51 127
0.147369 -0.378346 0.187250 204 51 127
-0.118739 0.598492 0.192875 204 51 127
-0.072768 -0.559874 -0.230694 204 51 127
0.131401 -0.812916 -0.039731 204 51 127
0.057184 -0.571827 -0.238019 204 51 127
0.140493 0.000845 -0.200619 204 51 127
0.110758 0.599215 -0.209904 204 51 127
-0.003130 -0.704735 0.235918 204 51 127
0.241946 -0.498987 -0.028852 204 51 127
0.112298 -0.791343 -0.196954 204 51 127
0.053396 0.716810 -0.000256 204 51 127
-0.002380 0.681020 -0.060053 204 51 127
0.023479 -0.120864 -0.242456 204 51 127
-0.166925 0.694929 -0.104714 204 51 127
-0.151573 -0.330648 -0.185560 204 51 127
0.052303 0.555873 0.008047 204 51 127
-0.235008 0.134775 -0.016634 204 51 127
0.212345 0.174392 0.117188 204 51 127
-0.083385 0.191424 -0.226296 204 51 127
-0.023988 0.935712 0.041134 0 0 255
-0.235347 -0.714927 -0.014059 204 51 127
-0.200368 0.400944 -0.129752 204 51 127
-0.174724 0.321672 0.155080 204 51 127
-0.073929 0.513130 0.222121 204 51 127
0.185356 0.529691 -0.160453 204 51 127
-0.056924 -0.791343 0.075313 204 51 127
-0.041529 0.994706 0.033578 255 0 0
0.013589 0.827888 0.080501 0 0 255
0.048385 -0.470445 -0.239177 204 51 127
-0.000057 0.857790 -0.077060 0 0 255
0.231247 -0.157754 -0.080298 204 51 127
-0.185805 -0.264631 -0.148731 204 51 127
0.049940 0.762411 -0.022356 0 0 255
-0.236092 -0.652080 0.000308 204 51 127
-0.037995 0.672814 0.199806 204 51 127
0.107139 -0.616350 0.211904 204 51 127
0.093646 0.478478 0.217493 204 51 127
0.174513 -0.360124 0.166422 204 51 127
0.101243 -0.563258 -0.222439 204 51 127
-0.061808 0.555831 -0.233674 204 51 127
-0.183700 0.599083 0.130393 204 51 127
0.063203 -0.297946 -0.237226 204 51 127
-0.036183 0.894425 -0.050683 0 0 255
0.213842 -0.727732 0.114226 204 51 127
0.009921 0.684549 0.199161 204 51 127
-0.173570 -0.390224 0.156584 204 51 127
0.003472 0.807080 -0.105400 0 0 255
0.240689 -0.177018 -0.038398 204 51 127
-0.227745 0.145730 -0.068123 204 51 127
-0.183662 0.708571 -0.029449 204 51 127
-0.175609 0.179555 -0.162019 204 51 127
-0.205463 -0.791343 0.042232 204 51 127
0.127107 -0.836920 0.160387 204 51 127
0.219334 -0.071033 0.100967 204 51 127
0.053775 -0.791343 0.169117 204 51 127
0.032140 0.515218 0.233223 204 51 127
-0.189528 -0.229570 -0.143878 204 51 127
-0.097749 -0.772885 -0.220346 204 51 127
-0.110958 -0.298224 -0.214875 204 51 127
0.237353 -0.073524 0.055643 204 51 127
0.211763 -0.040140 -0.126039 204 51 127
0.156470 0.348262 0.180267 204 51 127
0.111613 0.629057 0.193273 204 51 127
-0.024691 -0.391022 -0.241171 204 51 127
-0.232665 -0.578080 0.026342 204 51 127
-0.150676 -0.470677 -0.186248 204 51 127
-0.158587 0.749031 0.003135 204 51 127
0.118104 0.373925 0.207362 204 51 127
0.074040 0.439092 0.225614 204 51 127
0.167228 -0.273893 0.172012 204 51 127
0.075810 -0.186093 0.224881 204 51 127
-0.196437 -0.398188 0.126782 204 51 127
0.119355 -0.666182 -0.214937 204 51 127
0.186397 0.721009 0.009138 204 51 127
0.098280 0.412567 0.215574 204 51 127
0.144252 0.644880 -0.171830 204 51 127
0.181650 0.058937 0.157191 204 51 127
-0.099143 -0.766823 0.211676 204 51 127
0.241733 -0.485309 0.022374 204 51 127
-0.183394 -0.080210 0.143780 204 51 127
-0.209628 -0.201778 -0.111860 204 51 127
-0.205943 -0.566527 0.112664 204 51 127
0.191727 0.705567 -0.046721 204 51 127
0.190856 -0.157776 0.145192 204 51 127
0.119675 0.343142 0.206712 204 51 127
-0.071363 0.147631 -0.231276 204 51 127
-0.085018 0.793852 0.073946 204 51 127
-0.117623 0.761635 -0.094650 204 51 127
-0.198160 -0.791343 0.078017 204 51 127
0.164528 -0.285889 -0.182176 204 51 127
-0.064415 0.289263 0.226061 204 51 127
-0.214343 0.503053 0.092383 204 51 127
0.074590 0.736400 -0.160852 204 51 127
0.052069 -0.075487 0.230600 204 51 127
0.050365 -0.269665 -0.238917 204 51 127
-0.235474 -0.470870 0.005008 204 51 127
-0.035252 0.185878 -0.239781 204 51 127
-0.231834 -0.767926 -0.040742 204 51 127
0.164027 -0.831650 -0.107753 204 51 127
0.227511 -0.699327 -0.089318 204 51 127
-0.230193 -0.182397 -0.053213 204 51 127
0.079365 0.520006 0.223409 204 51 127
0.195037 0.267256 0.139744 204 51 127
0.047819 0.734748 0.164657 204 51 127
0.234575 0.261792 0.064172 204 51 127
0.024251 -0.809929 -0.132374 204 51 127
-0.115774 -0.791343 -0.127702 204 51 127
-0.102068 0.522808 -0.218557 204 51 127
0.107255 -0.791343 0.108716 204 51 127
0.202959 -0.268715 -0.137512 204 51 127
-0.235699 0.307881 -0.011386 204 51 127
0.081194 0.824811 0.036033 0 0 255
-0.047587 0.534266 -0.238157 204 51 127
0.226250 -0.597518 -0.092363 204 51 127
0.105910 -0.791343 0.032394 204 51 127
-0.215228 0.643089 -0.013812 204 51 127
0.124066 0.319310 -0.212985 204 51 127
0.177883 0.661433 0.118273 204 51 127
-0.064989 0.232365 -0.233916 204 51 127
0.139742 -0.077690 0.193103 204 51 127
-0.230578 0.439768 0.042195 204 51 127
0.005009 -0.792529 -0.229906 204 51 127
0.003513 0.607212 0.045476 204 51 127
-0.209290 0.423814 0.104583 204 51 127
-0.230414 0.490117 -0.051529 204 51 127
-0.162817 0.395092 -0.176931 204 51 127
0.026105 -0.239903 -0.242110 204 51 127
0.235255 0.151430 -0.070623 204 51 127
-0.211963 0.638726 -0.049284 204 51 127
0.080592 0.570782 -0.227743 204 51 127
-0.017910 0.700279 -0.197277 204 51 127
-0.014058 0.696632 0.041612 204 51 127
-0.211791 -0.642983 0.098547 204 51 127
0.130112 -0.660512 0.200492 204 51 127
0.116424 0.723349 0.137921 204 51 127
-0.202852 0.099726 0.118422 204 51 127
-0.022872 0.080590 -0.241411 204 51 127
-0.042997 0.797823 -0.107424 204 51 127
0.197662 0.098293 0.136323 204 51 127
-0.234888 0.543416 0.007766 204 51 127
-0.216760 -0.793787 -0.075210 204 51 127
0.228691 -0.034796 0.078376 204 51 127
-0.218022 -0.501365 -0.091596 204 51 127
0.082157 -0.348476 -0.230345 204 51 127
0.018126 -0.791343 0.094392 204 51 127
0.186215 0.114130 -0.159334 204 51 127
0.029982 -0.367478 0.233508 204 51 127
0.064510 0.069002 -0.237054 204 51 127
0.103792 -0.433774 -0.221383 204 51 127
0.223662 0.433879 -0.098610 204 51 127
0.175899 -0.567463 0.164685 204 51 127
0.182655 -0.619975 -0.163973 204 51 127
0.117339 0.458610 0.207679 204 51 127
-0.144972 -0.827053 -0.077078 204 51 127
0.025557 1.002700 -0.024867 255 0 0
0.245187 -0.064271 -0.003864 204 51 127
0.168625 0.380141 0.170940 204 51 127
-0.164168 -0.038105 -0.175895 204 51 127
-0.151984 -0.362155 0.177152 204 51 127
0.240718 -0.670111 -0.038177 204 51 127
0.044250 -0.381180 -0.239722 204 51 127
-0.225445 0.247408 -0.073674 204 51 127
0.052984 0.685789 0.002875 204 51 127
0.129527 0.076274 0.200941 204 51 127
-0.235330 0.336943 0.006096 204 51 127
0.065617 0.001685 0.228816 204 51 127
-0.229825 -0.791343 0.015965 204 51 127
0.004554 -0.583881 0.236855 204 51 127
0.223454 0.188519 0.091020 204 51 127
-0.010863 0.642392 0.042935 204 51 127
-0.176939 0.673154 0.100632 204 51 127
0.239599 -0.030437 0.038584 204 51 127
-0.026203 0.896518 0.034581 0 0 255
0.092524 -0.441638 0.217958 204 51 127
-0.189784 0.323162 0.135453 204 51 127
0.057443 0.475676 0.229892 204 51 127
0.129520 -0.045598 0.200947 204 51 127
0.160208 -0.244169 -0.185491 204 51 127
0.223401 -0.692350 0.091149 204 51 127
-0.233793 0.194665 0.017772 204 51 127
0.127503 -0.096967 0.202494 204 51 127
-0.080163 -0.109929 0.219538 204 51 127
0.123980 -0.519265 -0.213021 204 51 127
0.200740 -0.699399 -0.140404 204 51 127
0.180635 -0.701858 0.158513 204 51 127
0.244985 -0.333657 -0.005765 204 51 127
0.209741 0.603430 0.100714 204 51 127
-0.137215 -0.791343 0.022335 204 51 127
0.025176 0.545703 0.040547 204 51 127
0.216556 -0.672960 -0.115765 204 51 127
0.142141 -0.791343 0.143935 204 51 127
0.212778 0.634716 0.071569 204 51 127
-0.026720 0.487189 0.232812 204 51 127
-0.175315 -0.734521 -0.162402 204 51 127
-0.056953 0.008724 -0.236924 204 51 127
-0.137666 0.315213 0.188138 204 51 127
0.161958 0.377658 -0.184149 204 51 127
-0.131165 -0.300947 0.193127 204 51 127
0.220241 0.560253 0.093876 204 51 127
0.022897 -0.697957 0.234440 204 51 127
-0.229166 -0.377512 -0.061014 204 51 127
0.180197 -0.022599 0.159084 204 51 127
-0.216297 0.195239 0.087666 204 51 127
-0.231962 -0.213211 -0.039776 204 51 127
-0.137793 -0.791343 0.054397 204 51 127
-0.024852 -0.489991 -0.241150 204 51 127
0.093444 -0.639496 0.217577 204 51 127
0.112270 0.120683 0.209779 204 51 127
0.226829 -0.572304 -0.090965 204 51 127
-0.159125 0.612913 -0.165012 204 51 127
-0.204953 -0.782659 -0.123147 204 51 127
-0.190740 -0.833881 -0.059789 204 51 127
-0.054853 -0.442853 0.229108 204 51 127
0.042379 0.367418 -0.239968 204 51 127
0.242155 0.184141 0.019171 204 51 127
-0.231187 -0.613314 0.037566 204 51 127
0.189406 -0.791343 -0.081716 204 51 127
-0.017587 0.862357 0.064059 0 0 255
0.004462 -0.249466 -0.244960 204 51 127
0.013965 -0.316273 -0.243709 204 51 127
0.197283 -0.505371 -0.144909 204 51 127
-0.027307 -0.552665 -0.240827 204 51 127
-0.106242 -0.650131 -0.216828 204 51 127
0.171479 0.693070 0.103325 204 51 127
0.134226 0.623843 -0.187906 204 51 127
-0.188685 0.694445 0.042181 204 51 127
-0.047462 -0.127047 0.230081 204 51 127
0.053041 0.759922 0.002441 204 51 127
-0.227917 -0.134819 0.059614 204 51 127
-0.178904 -0.790663 -0.157724 204 51 127
0.034521 0.862854 0.034756 0 0 255
0.088316 -0.791343 0.154960 204 51 127
0.042294 0.734604 -0.175599 204 51 127
0.002080 0.898989 0.045287 0 0 255
-0.062347 -0.813274 -0.169211 204 51 127
-0.209804 -0.065967 0.103342 204 51 127
-0.206302 -0.174924 -0.119890 204 51 127
0.054734 -0.123408 0.230249 204 51 127
-0.236111 -0.061384 -0.008259 204 51 127
0.180402 -0.371759 -0.166910 204 51 127
-0.217452 -0.411376 -0.092972 204 51 127
-0.226564 0.004878 0.062881 204 51 127
-0.049242 0.047704 0.229847 204 51 127
0.237140 0.556574 0.045665 204 51 127
-0.005324 0.344636 0.235629 204 51 127
0.078829 -0.826441 0.160755 204 51 127
-0.184833 -0.224178 0.141905 204 51 127
0.156567 -0.133930 0.180193 204 51 127
0.126470 -0.339523 -0.211379 204 51 127
0.238637 -0.052662 -0.053981 204 51 127
-0.086775 -0.108620 -0.224892 204 51 127
-0.230944 0.001729 -0.047505 204 51 127
-0.042805 0.571866 0.010857 204 51 127
-0.229639 -0.306071 -0.057419 204 51 127
0.010088 -0.791343 0.212755 204 51 127
0.069687 -0.791343 -0.231449 204 51 127
0.241278 -0.208687 0.025830 204 51 127
0.223038 0.636737 0.026843 204 51 127
-0.209623 0.650170 0.030981 204 51 127
-0.224353 0.436196 -0.076311 204 51 127
0.244450 0.429915 0.001737 204 51 127
0.172501 -0.165997 0.167966 204 51 127
-0.047528 -0.791343 -0.070353 204 51 127
0.194124 -0.275148 0.140933 204 51 127
-0.230403 0.518313 -0.051616 204 51 127
-0.193172 -0.518093 0.131037 204 51 127
0.043224 -0.408980 0.231764 204 51 127
-0.031222 0.617524 0.219741 204 51 127
0.236826 -0.777080 -0.066829 204 51 127
0.209901 0.664483 0.050377 204 51 127
-0.190649 -0.143134 -0.142418 204 51 127
0.243135 -0.148961 -0.019817 204 51 127
0.146146 -0.597502 0.188189 204 51 127
-0.209603 -0.270296 -0.111921 204 51 127
-0.207142 0.179471 0.109770 204 51 127
-0.225896 -0.306960 0.064492 204 51 127
0.227986 -0.060299 0.080080 204 51 127
-0.087010 -0.791343 0.004329 204 51 127
0.174465 0.735488 0.024188 204 51 127
0.084228 -0.791343 -0.162604 204 51 127
0.227713 0.139274 0.080737 204 51 127
0.204007 0.368079 0.128054 204 51 127
0.001416 0.732296 0.171756 204 51 127
0.123101 0.296358 0.205292 204 51 127
-0.195455 0.531509 0.128062 204 51 127
0.069179 0.866217 -0.030310 0 0 255
0.081519 -0.405071 0.222516 204 51 127
-0.168819 -0.657392 -0.170868 204 51 127
0.060493 -0.791343 0.136284 204 51 127
0.237400 -0.240659 0.055290 204 51 127
0.052017 0.279318 -0.238699 204 51 127
0.220981 -0.488190 0.096991 204 51 127
0.240862 -0.696775 0.028992 204 51 127
-0.160270 0.443144 -0.178886 204 51 127
0.190525 -0.794424 -0.125439 204 51 127
0.042334 0.452165 -0.239974 204 51 127
0.116086 0.269373 -0.216290 204 51 127
0.209264 -0.791343 0.037644 204 51 127
0.056467 -0.347344 -0.238113 204 51 127
0.214172 -0.430044 -0.121522 204 51 127
-0.234643 0.045437 0.011318 204 51 127
-0.069813 -0.772486 -0.231917 204 51 127
0.177498 -0.488236 0.162602 204 51 127
-0.234316 -0.307318 0.013800 204 51 127
0.220322 -0.508547 -0.106675 204 51 127
-0.035214 0.137938 0.231694 204 51 127
0.005212 0.157912 -0.244861 204 51 127
-0.209262 -0.445718 0.104650 204 51 127
-0.187613 0.554606 -0.144206 204 51 127
-0.195203 -0.036025 0.128391 204 51 127
0.049771 -0.205286 0.230902 204 51 127
-0.158019 0.289054 0.172521 204 51 127
0.229514 -0.034382 -0.084482 204 51 127
-0.116251 0.490052 -0.212663 204 51 127
-0.030037 0.753096 -0.039732 0 0 255
0.198629 -0.520011 0.135063 204 51 127
-0.054439 -0.409670 0.229163 204 51 127
0.145936 -0.379922 -0.196442 204 51 127
0.110127 -0.355624 0.210667 204 51 127
-0.082827 -0.637213 -0.226527 204 51 127
0.090801 0.665428 0.188057 204 51 127
0.202643 0.402629 0.129831 204 51 127
0.108146 0.794074 0.053671 204 51 127
0.243797 -0.675074 -0.014790 204 51 127
0.051035 -0.318230 0.230736 204 51 127
0.097119 -0.758952 -0.224147 204 51 127
0.196399 0.703544 -0.020396 204 51 127
0.176943 0.066045 -0.171417 204 51 127
-0.064713 -0.164027 0.225938 204 51 127
-0.195814 0.669571 0.058858 204 51 127
0.037704 -0.433620 -0.240583 204 51 127
0.165540 -0.007669 0.173307 204 51 127
-0.018217 -0.010506 -0.242024 204 51 127
-0.060582 0.162601 0.227649 204 51 127
0.118194 -0.250447 -0.215417 204 51 127
-0.020006 -0.791343 0.073803 204 51 127
0.240037 -0.019282 -0.043353 204 51 127
0.159976 -0.806894 0.148518 204 51 127
-0.022549 -0.688613 0.233361 204 51 127
-0.125376 0.229972 0.197569 204 51 127
0.065047 0.535214 -0.236984 204 51 127
0.242122 0.071149 0.019423 204 51 127
0.012671 0.696676 -0.052563 204 51 127
-0.076554 0.636469 -0.209787 204 51 127
0.004020 -0.084378 0.236859 204 51 127
0.146656 -0.791343 -0.153109 204 51 127
-0.194908 -0.744230 0.128775 204 51 127
-0.066482 0.865290 -0.002732 0 0 255
0.237193 -0.765978 0.056857 204 51 127
-0.200305 0.668178 -0.055072 204 51 127
-0.106464 0.798710 -0.025155 204 51 127
-0.083408 0.819068 0.013013 0 0 255
-0.031794 0.046681 -0.240236 204 51 127
0.166720 -0.637026 0.172402 204 51 127
-0.209243 0.595755 -0.093922 204 51 127
0.070088 0.807952 0.070663 204 51 127
0.013472 -0.791343 0.046457 204 51 127
0.059394 -0.791343 -0.046663 204 51 127
0.037847 -0.533445 -0.240564 204 51 127
-0.035414 -0.843916 -0.155118 204 51 127
0.137377 -0.767137 -0.203010 204 51 127
0.127201 -0.721175 -0.210818 204 51 127
-0.190919 0.448187 -0.142065 204 51 127
-0.113779 0.075228 0.205614 204 51 127
-0.002556 0.590731 -0.060126 204 51 127
0.168291 -0.530514 0.171196 204 51 127
0.145967 -0.702116 0.188326 204 51 127
-0.042413 0.689915 0.011804 204 51 127
0.153990 0.040659 0.182170 204 51 127
-0.233503 -0.688748 0.019975 204 51 127
-0.177005 0.420505 0.152106 204 51 127
0.015190 0.303334 0.235455 204 51 127
-0.059165 0.770337 0.125298 204 51 127
-0.099818 -0.022150 0.211397 204 51 127
-0.122652 0.784462 0.023838 204 51 127
0.132077 -0.270858 0.198984 204 51 127
0.043670 0.553615 -0.033518 204 51 127
-0.134339 0.183099 0.190691 204 51 127
0.179843 0.003585 -0.167637 204 51 127
0.155797 -0.783566 -0.188876 204 51 127
0.222095 -0.787667 -0.102392 204 51 127
0.198067 -0.791343 0.098252 204 51 127
0.228485 0.305404 0.078874 204 51 127
0.238320 -0.570354 -0.056392 204 51 127
-0.029561 -0.550492 0.232438 204 51 127
0.089410 0.826749 -0.012721 0 0 255
0.115011 0.697644 -0.165835 204 51 127
0.033207 0.131332 -0.241175 204 51 127
0.179542 0.542872 0.159662 204 51 127
0.148690 0.617941 0.170516 204 51 127
0.125909 -0.806830 -0.115844 204 51 127
0.009126 0.635860 0.218429 204 51 127
0.017114 0.541168 -0.025613 204 51 127
0.090849 -0.146573 0.218652 204 51 127
0.055997 -0.549063 -0.238175 204 51 127
-0.049800 -0.206596 -0.237866 204 51 127
-0.233739 -0.546249 0.018181 204 51 127
-0.179196 -0.791343 0.033097 204 51 127
-0.011270 -0.212809 -0.242938 204 51 127
0.048478 1.002700 -0.008792 255 0 0
0.042253 0.593716 0.027273 204 51 127
0.054354 -0.499733 -0.238391 204 51 127
0.032522 0.802063 -0.044382 0 0 255
0.058111 0.765460 -0.142613 204 51 127
0.085648 0.616554 -0.215762 204 51 127
0.087226 -0.533227 -0.228245 204 51 127
0.165947 0.288195 0.172995 204 51 127
-0.049942 -0.811745 0.146178 204 51 127
0.217779 0.270994 -0.112814 204 51 127
0.217459 -0.764464 0.105493 204 51 127
-0.208840 -0.592673 -0.113764 204 51 127
0.027269 -0.667386 0.233865 204 51 127
-0.215866 0.462315 -0.096800 204 51 127
-0.017932 0.559118 0.232190 204 51 127
-0.234086 -0.676808 -0.023643 204 51 127
0.235123 -0.364455 0.062849 204 51 127
0.181447 -0.282678 -0.165547 204 51 127
-0.122740 -0.791343 0.109144 204 51 127
0.237286 -0.436712 -0.064248 204 51 127
0.242081 0.329206 -0.027820 204 51 127
0.034316 -0.822525 -0.148925 204 51 127
0.006758 0.126091 0.236565 204 51 127
0.229307 -0.223060 0.076889 204 51 127
0.183292 -0.742100 -0.163143 204 51 127
-0.231960 -0.451287 0.031699 204 51 127
-0.049381 0.525408 0.229829 204 51 127
-0.234410 0.171239 0.013083 204 51 127
0.166432 -0.717653 0.172623 204 51 127
-0.061216 0.722402 -0.173335 204 51 127
-0.233161 -0.064925 -0.030664 204 51 127
-0.128334 -0.447384 -0.203392 204 51 127
0.003874 0.620483 -0.231732 204 51 127
-0.140530 -0.092871 -0.194033 204 51 127
0.167253 0.580263 0.166190 204 51 127
0.238485 -0.465395 -0.055135 204 51 127
0.138062 0.523543 -0.202484 204 51 127
-0.209718 0.139193 -0.111644 204 51 127
-0.164076 0.023181 0.167873 204 51 127
-0.230576 0.564824 -0.032491 204 51 127
-0.026234 0.639989 -0.221815 204 51 127
-0.232674 -0.178375 0.026271 204 51 127
-0.128314 -0.791343 -0.149264 204 51 127
-0.214555 -0.791343 -0.021080 204 51 127
0.050864 0.850045 0.055725 0 0 255
-0.070505 0.733660 0.153002 204 51 127
0.223827 0.222839 0.090119 204 51 127
-0.036480 0.486333 -0.239619 204 51 127
0.042879 0.869594 -0.034549 0 0 255
0.067910 0.885059 -0.012239 0 0 255
0.037326 0.802488 0.098298 204 51 127
-0.165171 0.735270 -0.039141 204 51 127
0.056182 0.558484 0.228342 204 51 127
-0.059034 -0.031876 -0.236383 204 51 127
0.237006 -0.606797 -0.066372 204 51 127
0.039454 0.668634 0.202433 204 51 127
0.216573 0.475508 -0.115725 204 51 127
-0.209137 -0.324407 0.104954 204 51 127
0.008549 0.666953 -0.215275 204 51 127
0.238098 -0.190907 0.049987 204 51 127
-0.206487 0.388039 0.111352 204 51 127
0.195851 0.398301 -0.146775 204 51 127
0.171448 -0.331451 -0.176867 204 51 127
0.139233 0.771774 -0.050195 204 51 127
0.219394 0.306192 -0.108913 204 51 127
-0.147091 -0.161916 -0.188998 204 51 127
-0.002003 0.732667 -0.059897 204 51 127
0.062937 0.152114 -0.237261 204 51 127
0.022799 -0.204371 -0.242546 204 51 127
0.151955 -0.558302 -0.191824 204 51 127
-0.230016 0.365882 0.046465 204 51 127
-0.219602 0.334153 0.079688 204 51 127
-0.230506 0.089520 0.042741 204 51 127
0.237849 0.428000 -0.059970 204 51 127
0.225579 0.028491 -0.093982 204 51 127
-0.048145 -0.394726 -0.238084 204 51 127
-0.019479 -0.164152 0.233765 204 51 127
-0.052021 -0.575610 -0.237573 204 51 127
0.042221 0.600056 0.223684 204 51 127
-0.023314 0.060575 0.233260 204 51 127
