ply
format ascii 1.0
element vertex 1275
property float x
property float y
property float z
property uchar red
property uchar green
property uchar blue
end_header
0.223638 -0.308310 -0.271812 127 127 0
-0.559949 0.110670 0.245043 0 127 127
-0.809665 -0.180056 0.452638 76 0 153
0.030212 0.184146 -0.073159 153 0 76
0.391573 -0.145473 0.158048 76 0 153
-0.799052 0.127642 -0.135908 255 0 0
-0.032509 0.129243 -0.111605 0 0 255
-0.827113 0.184146 -0.244122 153 0 76
-0.022956 0.109259 0.042454 0 0 255
-0.542715 -0.204205 -0.178626 0 127 127
-0.713227 0.135750 0.324155 127 0 127
-0.821441 0.169158 -0.149632 153 0 76
0.636537 0.169158 0.120297 153 0 76
0.241118 0.169158 -0.164248 153 0 76
0.703018 -0.019195 0.084249 0 255 0
-0.593710 0.169158 -0.178729 153 0 76
-0.394008 0.100900 -0.269111 204 51 127
-0.659802 0.135249 0.188617 127 127 0
-0.690999 0.169158 0.353155 153 0 76
-0.662496 0.169158 0.163779 153 0 76
0.157359 0.184146 0.161145 153 0 76
-0.783717 -0.379770 0.488303 76 0 153
-0.811911 0.184146 -0.051485 153 0 76
0.412678 0.169158 -0.219685 153 0 76
-0.403498 0.111235 0.120578 76 0 153
-0.799052 0.091620 0.094778 255 0 0
0.703571 -0.040457 0.138695 127 0 127
-0.593866 0.131752 0.303437 0 127 127
0.271360 0.101929 0.138895 127 0 127
-0.735940 0.184146 0.533678 153 0 76
0.275518 -0.204422 0.156674 127 0 127
-0.476810 0.080122 0.069777 204 51 127
-0.494296 0.134435 0.112749 0 0 255
-0.709290 0.184146 0.131487 153 0 76
-0.468935 0.071736 -0.121159 204 51 127
0.682988 -0.112182 0.084613 0 255 0
-0.593893 0.169158 -0.042464 153 0 76
0.457714 0.169158 0.064686 153 0 76
0.665490 0.130975 0.136361 127 0 127
0.599224 0.129779 -0.280875 204 51 127
0.662292 0.184146 -0.012141 153 0 76
-0.589740 0.169158 0.228656 153 0 76
-0.774014 0.184146 0.140125 153 0 76
0.485682 -0.225893 0.158048 76 0 153
0.355245 0.168432 -0.263062 204 51 127
-0.467970 0.116496 0.105590 76 0 153
0.679919 0.122114 0.124038 0 255 0
-0.799651 0.169158 -0.206356 153 0 76
-0.775887 0.184146 -0.272109 153 0 76
0.357205 0.079055 -0.259844 204 51 127
-0.478968 0.130148 0.349992 255 0 0
0.545403 0.184146 0.009709 153 0 76
-0.402670 0.184146 -0.279085 153 0 76
-0.113617 0.111330 -0.256620 204 51 127
0.175280 0.149424 0.132506 204 51 127
0.703018 0.014211 0.079608 0 255 0
0.420105 -0.296425 -0.250257 204 51 127
-0.271668 0.107142 -0.256620 204 51 127
-0.688721 0.184146 -0.150913 153 0 76
0.629325 -0.211557 0.174285 76 0 153
0.674544 0.184146 0.134256 153 0 76
-0.758381 -0.179247 0.478959 76 0 153
0.682989 0.145776 -0.181116 0 255 0
-0.498675 0.140678 0.515262 153 0 76
0.223357 -0.215980 0.020402 127 127 0
0.707236 0.184146 0.150263 153 0 76
-0.494296 0.124585 0.421008 255 0 0
-0.338322 0.169158 -0.002881 153 0 76
-0.318232 0.169158 0.069666 153 0 76
-0.482462 -0.139309 0.487799 153 0 76
0.703313 -0.263205 0.054537 0 255 0
-0.476810 0.130678 -0.130179 204 51 127
-0.821352 0.169158 0.525184 153 0 76
0.463490 -0.304361 -0.087371 153 76 0
-0.562533 0.169158 -0.060278 153 0 76
-0.504695 -0.006861 -0.208855 0 127 127
0.681131 -0.341154 0.057551 255 0 0
-0.413274 0.184146 -0.238310 153 0 76
0.685569 0.165030 -0.012009 0 255 0
0.429255 -0.303690 0.065668 153 76 0
-0.468903 0.089884 -0.256620 204 51 127
-0.464320 0.112417 -0.177185 204 51 127
0.362017 -0.381066 -0.280875 204 51 127
-0.826530 0.066219 0.492071 76 0 153
0.541981 -0.286312 0.158048 76 0 153
-0.588442 0.110670 0.243053 0 127 127
-0.799052 0.159806 0.397573 255 0 0
0.548601 -0.324712 0.102239 153 76 0
0.279900 0.169158 -0.098038 153 0 76
-0.836866 0.169158 -0.167666 153 0 76
-0.186691 0.117687 0.135906 204 51 127
-0.539293 0.169158 0.383361 153 0 76
-0.160013 0.169158 -0.131056 153 0 76
-0.632079 0.169158 -0.194549 153 0 76
0.325338 0.169158 -0.015091 153 0 76
0.166059 0.169158 -0.246060 153 0 76
0.133749 0.129243 -0.062387 0 0 255
-0.414420 0.095303 0.105590 76 0 153
0.418118 -0.324720 -0.041723 153 76 0
-0.491328 -0.116152 -0.165051 0 127 127
0.704017 0.079449 -0.219353 0 255 0
0.694961 -0.404878 0.124167 255 0 0
-0.095315 0.129243 0.055556 0 0 255
-0.197281 0.184146 -0.086810 153 0 76
-0.589479 0.184146 0.268927 153 0 76
-0.550640 -0.095661 0.488884 153 0 76
0.370847 -0.304690 -0.044061 153 76 0
0.518989 -0.064726 -0.260575 204 51 127
0.056975 0.129243 -0.014357 0 0 255
0.449567 -0.245817 0.158048 76 0 153
-0.524268 -0.323813 -0.169679 0 127 127
-0.763447 0.169158 0.291067 153 0 76
-0.304547 0.124170 0.012802 0 0 255
0.403203 -0.278396 -0.280875 204 51 127
-0.597998 0.169158 -0.151664 153 0 76
-0.476810 0.121563 -0.095443 204 51 127
0.694304 0.147579 -0.280387 204 51 127
0.704017 -0.252110 -0.055273 0 255 0
-0.805441 -0.221857 -0.171028 76 153 0
-0.826530 0.067844 0.447797 76 0 153
0.414819 -0.355775 -0.280875 204 51 127
0.459674 0.169835 0.149154 127 0 127
0.704017 -0.024904 -0.169164 0 255 0
0.357528 -0.291326 -0.280875 204 51 127
0.576732 -0.253042 -0.259844 204 51 127
-0.812868 -0.321543 0.484609 76 0 153
-0.711057 0.184146 0.451160 153 0 76
-0.532533 -0.001173 -0.209949 0 127 127
0.392790 0.022258 0.174285 76 0 153
-0.573347 0.144064 -0.211656 204 51 127
0.582422 -0.310190 -0.280875 204 51 127
-0.091813 0.109259 -0.064326 0 0 255
-0.824384 -0.119448 0.492333 76 0 153
-0.557065 0.110670 0.382858 0 127 127
0.334852 -0.044922 0.168331 76 0 153
-0.811532 0.121315 0.445318 76 0 153
-0.706730 0.121569 0.487784 153 76 0
-0.366317 0.169158 0.021175 153 0 76
0.334589 0.184146 -0.150243 153 0 76
0.554945 0.184146 -0.204607 153 0 76
0.478026 -0.079860 0.158048 76 0 153
0.243942 0.131550 0.109918 127 127 0
0.580024 0.169158 -0.136827 153 0 76
0.389227 -0.303692 0.134933 153 76 0
0.652690 0.027978 -0.280875 204 51 127
0.456709 -0.286791 0.174285 76 0 153
0.532548 -0.198960 0.174285 76 0 153
-0.814040 0.127654 0.153336 255 0 0
-0.799052 0.146065 -0.117227 255 0 0
-0.528833 -0.322719 0.462357 153 0 76
-0.208916 0.169158 -0.123475 153 0 76
-0.672388 0.114387 -0.211656 204 51 127
-0.542048 0.169158 0.104584 153 0 76
0.599391 0.184146 -0.137143 153 0 76
-0.551750 0.142761 -0.165212 0 127 127
0.595874 0.169158 0.154225 153 0 76
0.153356 0.169158 -0.176883 153 0 76
0.413343 -0.325718 0.109355 153 76 0
0.272465 0.112042 0.168735 76 0 153
-0.654681 0.184146 0.011790 153 0 76
-0.775714 0.169158 -0.021773 153 0 76
0.629474 0.169158 -0.116833 153 0 76
-0.846570 0.184146 0.296116 153 0 76
0.545036 0.184146 0.116908 153 0 76
-0.758438 0.032056 0.479716 76 0 153
0.125255 0.169158 -0.134206 153 0 76
-0.814040 0.152750 0.423662 255 0 0
-0.814040 0.122326 0.319285 255 0 0
0.475875 0.184146 0.093658 153 0 76
-0.693972 0.169158 0.323925 153 0 76
-0.522525 0.169158 0.528710 153 0 76
0.244398 -0.283466 -0.032351 127 127 0
0.050511 0.169158 0.143318 153 0 76
0.223357 -0.003206 0.081388 127 127 0
-0.550209 0.184146 0.046805 153 0 76
0.682988 -0.162695 -0.078228 0 255 0
0.598600 0.184146 -0.172335 153 0 76
-0.756586 0.106179 0.464066 76 0 153
0.623871 0.167812 -0.276751 204 51 127
0.454537 0.169158 -0.148794 153 0 76
-0.873608 0.171436 0.217115 153 0 76
-0.533134 0.160741 0.202862 127 127 0
0.232957 0.169158 0.133076 153 0 76
-0.750505 0.169158 -0.056424 153 0 76
-0.108549 0.099214 0.111123 76 0 153
0.226581 0.169158 0.091058 153 0 76
-0.577512 0.169158 0.179516 153 0 76
0.322557 0.011790 0.158048 76 0 153
0.548556 -0.242434 0.173555 76 0 153
-0.494036 0.169158 0.494627 153 0 76
-0.790014 0.169158 0.355720 153 0 76
-0.541658 0.169158 -0.198325 0 127 127
0.718049 0.169158 -0.015062 153 0 76
-0.498856 -0.208568 0.500174 153 0 76
-0.728802 0.124217 0.228677 127 0 127
0.278372 -0.183044 -0.280875 204 51 127
-0.259089 0.169158 -0.217106 153 0 76
0.450288 -0.324720 -0.050523 153 76 0
0.535745 -0.132357 0.174285 76 0 153
0.285228 0.184146 -0.069912 153 0 76
0.095003 0.169158 -0.116445 153 0 76
0.541004 0.184146 0.072159 153 0 76
-0.509284 0.151073 0.059696 0 0 255
0.229715 0.169158 -0.098697 153 0 76
0.683959 -0.188967 -0.280852 204 51 127
0.410861 -0.001232 0.174285 76 0 153
-0.799052 0.134214 0.388545 255 0 0
0.243385 -0.237697 -0.157090 127 127 0
0.243385 0.106445 0.061134 127 127 0
0.554949 -0.083027 -0.260096 204 51 127
0.426724 -0.324720 -0.014865 153 76 0
-0.548314 0.156365 0.445318 153 0 76
-0.814040 0.106529 0.049926 255 0 0
-0.719798 0.169158 -0.241634 153 0 76
-0.271609 0.114101 0.120578 0 0 255
0.242148 0.169158 -0.231655 153 0 76
-0.687076 0.169158 -0.093943 153 0 76
0.651604 -0.112459 0.174285 76 0 153
-0.579780 0.169158 -0.080737 153 0 76
-0.640368 0.184146 0.530808 153 0 76
-0.516116 0.184146 -0.000803 153 0 76
-0.814398 0.000757 -0.171974 76 153 0
0.583205 0.130910 0.138840 127 0 127
-0.680294 0.091818 0.487784 153 76 0
0.457714 -0.304513 -0.150187 153 76 0
0.653797 -0.133597 0.139975 127 0 127
-0.464320 0.117430 -0.229085 204 51 127
-0.378134 0.184146 -0.084714 153 0 76
-0.071698 0.169158 0.148042 153 0 76
0.275550 -0.287624 -0.280875 204 51 127
0.332841 0.184146 -0.197606 153 0 76
-0.703776 0.132543 0.300315 127 0 127
-0.489539 -0.097994 -0.210913 0 127 127
-0.465435 0.184146 -0.065119 153 0 76
0.430542 -0.355397 0.139939 127 127 0
0.136482 0.109259 -0.094728 0 0 255
-0.302858 0.169158 -0.278936 153 0 76
-0.546366 0.132723 0.366109 0 127 127
-0.462270 0.169158 0.364875 153 0 76
-0.799052 0.108104 -0.079092 255 0 0
-0.820221 0.184146 0.183522 153 0 76
-0.464320 0.114677 -0.038763 204 51 127
0.550310 0.016032 0.158048 76 0 153
0.084123 0.184146 0.015179 153 0 76
0.044174 0.075525 -0.256620 204 51 127
-0.156332 0.169158 -0.212959 153 0 76
-0.720049 0.122870 0.502772 153 76 0
-0.091223 0.184146 0.061604 153 0 76
-0.606589 0.132723 0.348747 0 127 127
-0.799052 0.093580 0.391597 255 0 0
0.269112 -0.168365 -0.259913 204 51 127
-0.830647 0.169158 0.027594 153 0 76
0.570296 -0.050735 -0.280875 204 51 127
-0.210583 0.109259 -0.036089 0 0 255
0.691138 -0.385027 -0.228607 0 255 0
-0.205756 0.169158 0.034413 153 0 76
0.602972 -0.303690 0.060765 153 76 0
-0.153029 0.161717 0.127379 204 51 127
0.523303 -0.324720 -0.125084 153 76 0
0.243385 0.126192 -0.003631 127 127 0
0.223357 -0.303481 -0.172428 127 127 0
0.014244 0.184146 -0.041197 153 0 76
0.704017 -0.244295 -0.115882 0 255 0
0.372827 -0.324720 -0.102491 153 76 0
-0.850492 0.169158 0.175686 153 0 76
-0.486318 -0.311103 0.469450 153 0 76
-0.050116 0.109259 0.034215 0 0 255
0.071381 0.184146 -0.255956 153 0 76
0.114316 0.169158 0.040677 153 0 76
0.223357 0.105640 -0.253556 127 127 0
0.338919 -0.304690 -0.124254 153 76 0
-0.801729 -0.389568 -0.192841 76 153 0
0.493723 -0.312419 0.158048 76 0 153
0.243572 -0.346896 -0.095331 0 255 0
-0.494296 0.112721 0.059024 0 0 255
0.576501 -0.038232 0.158048 76 0 153
-0.495646 -0.100787 0.452556 153 0 76
0.409536 0.169158 0.135505 153 0 76
-0.295018 0.148785 0.120578 204 51 127
-0.720206 0.184146 0.370292 153 0 76
-0.799052 0.104710 0.418383 255 0 0
0.068915 0.184146 -0.042223 153 0 76
-0.501741 0.169158 -0.109800 153 0 76
0.448642 0.169158 0.004647 153 0 76
0.271030 0.033504 0.163626 76 0 153
-0.161595 0.184146 -0.175671 153 0 76
0.536491 0.168927 -0.263788 204 51 127
-0.195179 0.169158 -0.019443 153 0 76
0.381033 -0.243309 0.169192 76 0 153
0.303959 -0.304690 -0.142614 153 76 0
-0.819368 -0.313856 0.468002 76 0 153
0.682988 0.083888 -0.029407 0 255 0
-0.814988 -0.298928 0.454797 76 0 153
-0.101543 0.087657 -0.256620 204 51 127
-0.693562 0.184146 0.153721 153 0 76
0.102714 0.129243 0.083593 0 0 255
-0.335205 0.184146 -0.220047 153 0 76
-0.187252 0.129243 0.026967 0 0 255
0.244386 -0.178417 0.054115 127 127 0
0.683035 -0.278029 -0.068587 0 255 0
-0.515056 0.169158 -0.186322 0 127 127
0.248614 0.054513 -0.247537 127 127 0
-0.494296 0.150034 0.143209 0 0 255
-0.699826 0.184146 0.089941 153 0 76
-0.807705 0.092861 -0.224147 76 153 0
0.407684 0.169158 0.067681 153 0 76
-0.230224 0.127444 -0.114234 0 0 255
0.308735 -0.340547 -0.255741 204 51 127
-0.160612 0.184146 -0.248198 153 0 76
0.277203 -0.314876 0.166492 76 0 153
-0.756586 0.168946 0.492623 153 76 0
-0.607072 0.075088 -0.211007 204 51 127
-0.498892 0.169158 0.329345 153 0 76
-0.807271 -0.180826 0.509218 76 0 153
0.224588 -0.398410 0.129686 127 0 127
-0.691126 0.184146 0.392043 153 0 76
-0.492862 -0.075043 -0.214872 0 127 127
0.345562 0.169158 0.003978 153 0 76
-0.021892 0.169158 -0.064615 153 0 76
-0.010264 0.105812 0.135906 204 51 127
0.223357 -0.314622 0.131308 127 127 0
0.100456 0.184146 -0.266758 153 0 76
0.223357 0.112184 -0.206564 127 127 0
-0.809769 -0.278340 0.470122 76 0 153
0.312669 0.184146 -0.214341 153 0 76
-0.505323 0.071736 0.223198 0 0 255
-0.078021 0.086412 -0.269111 204 51 127
0.689136 -0.255635 -0.280823 204 51 127
0.560668 0.169158 -0.058181 153 0 76
-0.063491 0.184146 0.113443 153 0 76
0.394436 0.184146 -0.129835 153 0 76
0.451180 0.184146 0.094683 153 0 76
-0.035116 0.184146 0.057018 153 0 76
-0.772066 -0.312224 0.505129 76 0 153
-0.186326 0.184146 -0.150034 153 0 76
-0.814040 0.103148 0.155138 255 0 0
-0.509538 0.184146 0.379407 153 0 76
-0.493645 0.078473 -0.256620 204 51 127
0.530749 0.184146 -0.055412 153 0 76
-0.433801 0.169158 0.021808 153 0 76
0.223357 -0.286060 0.059385 127 127 0
-0.665372 0.184146 -0.099760 153 0 76
-0.708935 0.162987 0.426112 0 255 0
0.402309 0.169158 -0.248809 153 0 76
-0.096312 0.184146 -0.132724 153 0 76
0.547070 -0.276566 0.174285 76 0 153
-0.220114 0.173147 -0.281601 153 0 76
0.383022 -0.326719 -0.234891 153 76 0
-0.515483 0.169158 0.450744 153 0 76
0.120842 0.169158 -0.268771 204 51 127
-0.277319 0.169158 -0.242879 153 0 76
-0.459539 0.184146 0.247196 153 0 76
-0.450021 0.184146 0.322114 153 0 76
-0.627580 0.089928 -0.211656 204 51 127
-0.200839 0.129243 0.096690 0 0 255
-0.482757 -0.125619 0.472604 153 0 76
0.208592 0.169158 -0.090942 153 0 76
0.326311 0.184146 -0.057080 153 0 76
0.662238 0.184146 -0.129118 153 0 76
-0.169635 0.184146 0.034344 153 0 76
0.430107 -0.202451 -0.259844 204 51 127
-0.515655 0.142938 0.188617 127 127 0
0.601440 0.184146 -0.014484 153 0 76
-0.704241 0.132707 0.254442 127 0 127
-0.814040 0.091925 0.018098 255 0 0
0.098640 0.109259 -0.015945 0 0 255
-0.773453 0.169158 0.313031 153 0 76
-0.137421 0.169158 -0.099862 153 0 76
0.185381 0.169158 0.116659 76 0 153
-0.840992 0.169158 -0.033324 153 0 76
0.704017 -0.203833 -0.234454 0 255 0
0.199013 0.184146 0.149548 153 0 76
0.488908 -0.078019 0.174285 76 0 153
-0.811811 -0.291655 -0.214213 76 153 0
0.089611 0.184146 0.083237 153 0 76
0.244386 -0.216687 0.096925 127 127 0
-0.021638 0.184146 0.160434 153 0 76
0.321279 0.169158 -0.205394 153 0 76
-0.508898 0.184146 -0.050838 153 0 76
-0.510879 0.019260 -0.164395 0 127 127
-0.663028 0.184146 0.536354 153 0 76
-0.117506 0.133981 0.120578 204 51 127
0.621360 0.169158 0.010345 153 0 76
-0.107686 0.129243 -0.089671 0 0 255
0.438138 0.184146 -0.107396 153 0 76
0.223357 -0.150265 -0.060187 127 127 0
-0.673538 0.169158 0.040016 153 0 76
-0.425467 0.071736 0.119365 76 0 153
0.223357 -0.163884 0.134638 127 127 0
0.490280 0.169158 0.155304 153 0 76
-0.570949 0.071736 -0.204521 204 51 127
-0.391947 0.169158 0.154748 153 0 76
-0.549225 0.007820 0.468010 153 0 76
0.378261 -0.091102 -0.280875 204 51 127
0.491333 -0.324720 0.044260 153 76 0
0.223357 -0.020110 0.100832 127 127 0
-0.811229 0.184146 -0.016483 153 0 76
0.485726 0.079682 0.158048 76 0 153
0.633014 0.169158 -0.069735 153 0 76
0.533886 0.184146 -0.082135 153 0 76
-0.559479 0.111030 0.425026 0 127 127
0.682988 -0.235505 0.017023 0 255 0
-0.515155 0.169158 -0.246069 153 0 76
0.679790 -0.214976 0.124312 0 255 0
0.670159 -0.260165 -0.280875 204 51 127
0.223357 0.038023 -0.180918 127 127 0
0.378677 -0.181919 0.158048 76 0 153
-0.069736 0.184146 -0.208733 153 0 76
-0.473295 0.184146 -0.255568 153 0 76
-0.761225 -0.060971 -0.206561 76 153 0
0.196370 0.170433 -0.281601 153 0 76
0.062440 0.169158 -0.133665 153 0 76
-0.616394 0.169158 0.151392 153 0 76
-0.266944 0.149612 0.120578 204 51 127
-0.553679 0.132849 0.427995 0 255 0
-0.530770 -0.278736 0.496066 153 0 76
-0.494296 0.113830 -0.026747 0 0 255
0.704017 0.035417 -0.164517 0 255 0
0.427264 0.184146 -0.232947 153 0 76
0.064379 0.184146 -0.210046 153 0 76
0.684054 0.161888 -0.209665 0 255 0
0.007542 0.109259 -0.072130 0 0 255
-0.478968 0.133328 0.411459 255 0 0
-0.557674 0.184146 0.276668 153 0 76
-0.815057 0.184146 0.250308 153 0 76
-0.843562 0.169158 0.535497 153 0 76
0.456995 -0.342790 -0.257117 204 51 127
-0.499499 0.164636 0.416514 255 0 0
0.621033 -0.059001 -0.280875 204 51 127
0.400918 0.132674 -0.280875 204 51 127
0.244798 0.184146 -0.104348 153 0 76
-0.699115 0.184146 0.253141 153 0 76
-0.799052 0.153897 -0.146042 255 0 0
-0.027940 0.169158 0.014002 153 0 76
-0.761333 0.009538 -0.206774 76 153 0
0.003777 0.125666 0.135906 204 51 127
0.541876 -0.081676 0.174285 76 0 153
-0.555982 0.184146 -0.110731 153 0 76
0.629840 -0.200645 0.158048 76 0 153
0.505231 -0.155159 -0.280875 204 51 127
-0.541066 -0.050918 0.505411 153 0 76
0.510678 0.169158 0.139453 153 0 76
-0.579753 0.095232 -0.196668 204 51 127
0.244313 0.151867 -0.187327 127 127 0
-0.080542 0.124969 -0.256620 204 51 127
0.704017 -0.112678 -0.101794 0 255 0
0.223357 -0.038913 -0.065300 127 127 0
-0.051718 0.169158 0.042639 153 0 76
-0.029560 0.161717 0.128067 204 51 127
0.223357 -0.206558 -0.243166 127 127 0
-0.535205 -0.163851 0.509437 153 0 76
-0.708184 0.169158 0.538917 153 0 76
-0.084855 0.184146 -0.087052 153 0 76
0.666779 0.169158 -0.042296 153 0 76
0.223377 -0.346129 -0.208799 0 255 0
-0.185525 0.109259 -0.015056 0 0 255
-0.093169 0.129243 0.093284 0 0 255
-0.453358 0.184146 0.173819 153 0 76
-0.009305 0.184146 -0.019497 153 0 76
0.457378 0.136541 0.138791 127 0 127
-0.487362 0.184146 0.219043 153 0 76
-0.172641 0.184146 -0.053776 153 0 76
-0.780168 0.078635 0.445318 76 0 153
0.672063 -0.095137 -0.280875 204 51 127
-0.241305 0.169158 0.010252 153 0 76
0.413197 0.184146 -0.172729 153 0 76
-0.583806 0.169158 -0.198535 204 51 127
-0.639384 0.169158 -0.140735 153 0 76
-0.814040 0.132406 -0.054260 255 0 0
0.682988 -0.176345 0.037104 0 255 0
0.251640 0.056715 -0.280875 204 51 127
-0.344695 0.169158 0.067222 153 0 76
-0.249036 0.169158 0.147127 153 0 76
0.319229 0.169158 -0.138912 153 0 76
0.181353 0.169158 -0.230614 153 0 76
0.476133 -0.400476 -0.261023 204 51 127
0.500508 -0.285085 -0.256976 204 51 127
-0.613055 0.169158 -0.088893 153 0 76
-0.755590 0.184146 0.087140 153 0 76
-0.786832 0.169158 0.208031 153 0 76
-0.526542 0.110670 0.270441 0 127 127
-0.102700 0.169158 -0.033732 153 0 76
-0.067635 0.169158 -0.031199 153 0 76
-0.700001 0.110670 0.330871 0 127 127
-0.325638 0.184146 -0.150492 153 0 76
-0.756586 0.160868 -0.205002 204 51 127
-0.802420 -0.349222 -0.198067 76 153 0
0.059901 0.169158 -0.252108 153 0 76
0.244386 -0.228866 0.059256 127 127 0
0.244844 -0.385911 0.119567 127 0 127
-0.737452 0.150523 0.487784 153 76 0
-0.509284 0.084352 0.296448 0 0 255
0.293900 0.141816 -0.280875 204 51 127
0.272807 0.184146 -0.041201 153 0 76
0.586576 0.169158 0.132173 153 0 76
-0.795411 -0.322651 -0.167916 76 153 0
0.105787 0.169158 -0.176244 153 0 76
0.423607 -0.325367 -0.280875 204 51 127
0.704018 0.006487 -0.236707 0 255 0
0.223357 -0.007414 -0.189012 127 127 0
-0.233450 0.087215 -0.269111 204 51 127
0.149787 0.144607 0.120578 204 51 127
0.465218 -0.270193 -0.259854 204 51 127
0.031337 0.103040 0.120578 204 51 127
0.244386 0.025080 -0.102058 127 127 0
0.514462 0.105769 0.158048 76 0 153
-0.582250 0.169158 -0.238691 153 0 76
-0.464320 0.166325 0.068919 204 51 127
-0.205956 0.184146 0.136709 153 0 76
-0.756586 0.164159 -0.175635 76 153 0
0.277303 -0.095821 0.172973 76 0 153
-0.378088 0.156477 -0.269111 204 51 127
0.498668 -0.043933 0.158048 76 0 153
-0.294288 0.184146 -0.083460 153 0 76
-0.844302 0.184146 0.326484 153 0 76
0.683707 -0.352773 0.077356 255 0 0
0.276088 -0.049830 0.154529 127 0 127
0.223451 -0.066623 -0.266660 127 127 0
0.223357 0.018982 -0.050754 127 127 0
-0.564064 0.169158 -0.127985 153 0 76
0.011658 0.184146 -0.101594 153 0 76
-0.213413 0.184146 0.157347 153 0 76
-0.768095 -0.005398 0.481124 76 0 153
0.591951 0.019395 0.158048 76 0 153
0.682988 -0.236637 -0.145497 0 255 0
0.034674 0.169158 -0.216200 153 0 76
0.244386 -0.047698 -0.173112 127 127 0
-0.494296 0.100272 0.444505 0 0 255
-0.221987 0.145223 0.135906 204 51 127
0.623564 -0.324720 -0.086957 153 76 0
0.626282 -0.040846 0.158048 76 0 153
-0.805879 0.042680 0.454395 76 0 153
0.506870 -0.310279 -0.280875 204 51 127
0.071223 0.184146 -0.095567 153 0 76
0.289421 0.169158 -0.255218 153 0 76
0.674435 -0.119879 0.159338 127 0 127
0.176355 0.169158 -0.171250 153 0 76
0.534291 -0.179163 -0.280875 204 51 127
-0.661592 0.121380 -0.196668 204 51 127
-0.524248 -0.283141 -0.210800 0 127 127
-0.637842 0.184146 0.485171 153 0 76
-0.799052 0.127692 0.074842 255 0 0
0.703452 -0.230086 0.021035 0 255 0
-0.847221 0.169158 0.374006 153 0 76
0.615907 0.017014 0.169442 76 0 153
-0.000868 0.169158 -0.073523 153 0 76
-0.024056 0.169158 0.094423 153 0 76
0.548523 -0.012611 0.158048 76 0 153
0.380752 -0.227460 -0.280875 204 51 127
0.672894 0.169158 0.116160 153 0 76
0.443848 -0.091583 0.174285 76 0 153
0.715556 0.182214 -0.245374 153 0 76
-0.862397 0.184146 0.158509 153 0 76
-0.479399 0.159166 0.201147 255 0 0
-0.785589 -0.125553 0.445839 76 0 153
-0.619638 0.184146 0.197519 153 0 76
0.527687 -0.312552 0.158048 76 0 153
0.676532 -0.404406 0.136107 255 0 0
-0.030844 0.169158 -0.007590 153 0 76
0.333248 0.184146 0.136886 153 0 76
0.126018 0.169158 0.154816 153 0 76
0.223357 -0.065901 -0.108954 127 127 0
-0.494296 0.117399 0.244512 255 0 0
-0.758296 -0.075750 0.490765 76 0 153
-0.766606 -0.039987 0.463888 76 0 153
0.263819 0.184146 -0.105948 153 0 76
-0.464320 0.106436 -0.131051 204 51 127
0.624020 0.184146 -0.211817 153 0 76
0.537100 -0.187401 0.158048 76 0 153
0.584432 -0.101234 -0.280875 204 51 127
0.244386 -0.003829 -0.145166 127 127 0
0.489475 -0.135653 -0.259844 204 51 127
0.530723 -0.303690 -0.169451 153 76 0
-0.149581 0.137573 -0.269111 204 51 127
0.628420 -0.303690 0.089516 153 76 0
-0.259249 0.184146 0.018033 153 0 76
0.428997 0.184146 -0.191263 153 0 76
0.198238 0.169158 0.039625 153 0 76
0.235606 -0.147409 0.159229 127 0 127
-0.204707 0.091321 0.120578 76 0 153
0.483303 0.169158 -0.272266 153 0 76
-0.814040 0.122222 0.352183 255 0 0
-0.804741 0.184146 0.296638 153 0 76
0.679330 -0.290958 0.059210 0 255 0
-0.543330 0.040253 -0.183665 0 127 127
-0.784604 0.029267 -0.223533 76 153 0
-0.686570 0.169158 0.454681 153 0 76
0.704017 0.031873 -0.123588 0 255 0
0.271030 -0.023398 0.161958 76 0 153
-0.476810 0.086806 0.037869 204 51 127
0.297613 -0.157806 0.174285 76 0 153
-0.075094 0.109259 0.033418 0 0 255
-0.653389 0.131720 0.487784 153 76 0
-0.082332 0.134802 0.135906 204 51 127
0.188428 0.103759 -0.256620 204 51 127
-0.814040 0.126789 0.100120 255 0 0
-0.523767 0.169158 -0.104158 153 0 76
0.244386 -0.131408 0.072095 127 127 0
-0.494296 0.124524 0.094480 0 0 255
0.244385 -0.146550 -0.034592 127 127 0
-0.781078 0.169158 -0.125128 153 0 76
-0.530643 0.165907 -0.154202 0 127 127
0.296833 -0.255075 0.174285 76 0 153
0.244072 0.103194 0.091506 127 127 0
0.611201 -0.327827 -0.239883 153 76 0
0.506861 0.125674 0.158048 76 0 153
-0.283325 0.169158 -0.000747 153 0 76
0.394757 0.064471 -0.259844 204 51 127
0.640608 -0.303690 0.056831 153 76 0
-0.192893 0.105191 -0.269111 204 51 127
-0.549592 0.169158 0.284875 153 0 76
-0.339399 0.169158 0.149218 153 0 76
0.438307 0.169158 0.061734 153 0 76
0.682988 -0.189045 -0.171656 0 255 0
0.425620 0.184146 -0.132922 153 0 76
0.459579 0.139343 -0.280875 204 51 127
-0.193912 0.121252 -0.114234 0 0 255
-0.826093 -0.075405 0.475285 76 0 153
0.158511 0.115602 0.135906 204 51 127
0.700020 0.184146 -0.083560 153 0 76
0.044194 0.184146 -0.159089 153 0 76
0.261172 0.169158 0.117094 153 0 76
-0.393700 0.184146 0.044911 153 0 76
0.378405 0.169158 0.060964 153 0 76
0.569452 -0.290624 0.174285 76 0 153
-0.476187 0.184146 0.395383 153 0 76
-0.817156 0.184146 -0.073218 153 0 76
-0.476810 0.130530 -0.251233 204 51 127
0.362649 0.169158 -0.145217 153 0 76
-0.756688 -0.154346 0.481009 76 0 153
0.027205 0.184146 -0.206400 153 0 76
-0.346108 0.184146 -0.088714 153 0 76
0.653396 0.169158 -0.172655 153 0 76
-0.844550 0.184146 0.407687 153 0 76
-0.451575 0.169158 0.053081 153 0 76
0.303964 0.038481 0.158048 76 0 153
-0.509284 0.109267 0.039793 0 0 255
0.491250 0.075860 -0.259844 204 51 127
-0.548264 -0.185696 0.485713 153 0 76
-0.494296 0.158465 0.272493 255 0 0
-0.484567 0.122190 -0.269111 204 51 127
-0.457776 0.169158 0.225479 153 0 76
0.667679 -0.301088 -0.042811 153 76 0
0.040640 0.184146 0.050658 153 0 76
0.643461 0.184146 -0.059760 153 0 76
0.683025 -0.025350 -0.231646 0 255 0
-0.726744 0.143497 0.191149 127 0 127
-0.778675 0.169158 0.168470 153 0 76
-0.763141 -0.123757 0.459955 76 0 153
0.373687 0.170280 0.151477 127 0 127
0.627857 -0.303690 -0.029758 153 76 0
-0.808709 -0.009826 0.495454 76 0 153
0.223357 0.124524 -0.238539 127 127 0
-0.765362 0.050235 0.497941 76 0 153
0.597867 0.108898 0.174285 76 0 153
-0.724786 0.169158 0.001516 153 0 76
-0.171267 0.158876 0.134547 204 51 127
-0.723662 0.184146 0.242570 153 0 76
0.634527 0.184146 0.139100 153 0 76
-0.128389 0.129243 -0.012339 0 0 255
0.223357 -0.306438 -0.030200 127 127 0
-0.369014 0.184146 0.121126 153 0 76
0.572463 0.169158 -0.208803 153 0 76
0.689820 0.025181 0.159606 127 0 127
-0.154498 0.184146 0.127171 153 0 76
-0.058783 0.161717 0.121536 204 51 127
-0.799052 0.147840 0.150493 255 0 0
0.366593 0.138314 0.159151 127 0 127
-0.682037 0.110730 0.424374 0 127 127
0.115721 0.109259 -0.081700 0 0 255
0.368919 0.184146 -0.053159 153 0 76
-0.101990 0.109259 0.002667 0 0 255
-0.550255 0.010455 -0.198868 0 127 127
0.318536 0.107736 0.174285 76 0 153
0.256599 0.184146 0.081528 153 0 76
0.400735 0.151246 0.159154 127 0 127
0.435202 -0.190887 0.158048 76 0 153
0.703018 0.052563 0.091587 0 255 0
-0.759787 -0.308185 0.491088 76 0 153
-0.494262 0.133186 0.226596 255 0 0
0.243385 -0.236457 -0.132133 127 127 0
-0.739684 0.087016 0.501273 153 76 0
-0.494860 -0.029003 0.474536 153 0 76
0.670507 0.008417 0.159818 127 0 127
0.234364 0.184146 -0.202642 153 0 76
0.300180 0.184146 -0.129613 153 0 76
0.247636 -0.085468 0.159820 127 0 127
-0.068344 0.184146 -0.055855 153 0 76
-0.153930 0.184146 0.053967 153 0 76
-0.164301 0.123540 0.120578 0 0 255
0.130848 0.148674 0.135906 204 51 127
0.008498 0.184146 -0.128667 153 0 76
-0.760844 0.184146 0.366435 153 0 76
-0.476810 0.072988 -0.022062 204 51 127
-0.494694 0.169158 -0.229943 153 0 76
-0.554568 0.169158 -0.144167 153 0 76
-0.542287 0.136365 0.445318 153 0 76
0.223357 0.108958 -0.129289 127 127 0
0.458697 0.169158 0.028657 153 0 76
0.249573 -0.335453 -0.041734 0 255 0
0.568968 0.026801 -0.280875 204 51 127
-0.509284 0.082865 0.427414 0 0 255
-0.444706 0.181531 0.416915 153 0 76
-0.798490 -0.138811 0.514657 76 0 153
0.243385 -0.198990 -0.098567 127 127 0
-0.597026 0.110670 0.420605 0 127 127
0.338658 0.169158 0.098806 153 0 76
0.682988 -0.177958 -0.220487 0 255 0
-0.430277 0.169158 -0.273128 153 0 76
0.509699 0.184146 0.109289 153 0 76
-0.550141 0.108664 -0.154202 0 127 127
0.487523 -0.141909 0.174285 76 0 153
-0.366760 0.169158 0.157272 153 0 76
-0.494296 0.099983 -0.083842 0 0 255
-0.733532 0.169158 0.452760 153 0 76
-0.301567 0.109259 0.067451 0 0 255
0.482137 0.038237 0.174285 76 0 153
-0.258121 0.109259 -0.072615 0 0 255
-0.826530 0.128237 -0.209822 76 153 0
-0.090185 0.109259 -0.113434 0 0 255
-0.738377 0.184146 -0.130449 153 0 76
0.600397 -0.324720 0.017363 153 76 0
0.224311 0.184146 -0.157822 153 0 76
-0.803438 0.071736 0.136136 255 0 0
-0.691775 0.169158 -0.033967 153 0 76
-0.453457 0.184146 0.135828 153 0 76
0.651974 -0.085750 0.158048 76 0 153
0.704017 0.005645 -0.171834 0 255 0
-0.809774 -0.290664 0.506164 76 0 153
0.640150 -0.128913 -0.280875 204 51 127
0.675524 0.169158 -0.173185 153 0 76
-0.528827 0.169158 0.018229 153 0 76
-0.488280 0.099214 0.210345 255 0 0
0.682988 -0.066231 -0.208561 0 255 0
-0.793456 -0.276867 0.480124 0 127 127
-0.607789 0.184146 0.000043 153 0 76
0.055805 0.170581 -0.281601 153 0 76
-0.489492 -0.137589 -0.167403 0 127 127
0.223357 -0.034948 -0.202276 127 127 0
-0.157027 0.102072 0.120578 204 51 127
-0.675485 0.110670 0.206934 0 127 127
-0.334658 0.184146 0.034939 153 0 76
0.373348 0.092037 0.174285 76 0 153
0.436438 0.015313 0.174285 76 0 153
0.704017 -0.159952 -0.230378 0 255 0
0.168829 0.184146 -0.001395 153 0 76
-0.684884 0.160290 0.427001 0 255 0
-0.801458 0.184146 -0.221702 153 0 76
-0.760643 -0.086677 0.464152 76 0 153
0.423725 0.027846 0.158048 76 0 153
0.243601 -0.138647 -0.089298 127 127 0
0.382864 0.184146 -0.224449 153 0 76
-0.553500 0.184146 0.223748 153 0 76
-0.102262 0.184146 0.029903 153 0 76
-0.512297 -0.323738 0.500764 153 0 76
-0.762911 0.169158 0.248357 153 0 76
0.553934 -0.324720 0.077765 153 76 0
-0.821602 0.025942 0.479781 76 0 153
-0.461864 0.138624 0.298404 0 127 127
-0.494263 0.135208 0.250435 255 0 0
0.373070 0.169158 -0.070378 153 0 76
-0.799052 0.115475 -0.029459 255 0 0
-0.413275 0.184146 0.053790 153 0 76
0.412879 -0.324720 0.012029 153 76 0
0.029326 0.081883 0.118720 76 0 153
-0.803120 0.137968 0.445318 76 0 153
-0.173105 0.169158 -0.026504 153 0 76
-0.381951 0.082153 0.105590 76 0 153
-0.814040 0.165173 -0.120028 255 0 0
0.681168 -0.193687 0.159794 127 0 127
0.082376 0.076399 -0.269111 204 51 127
-0.504702 0.184146 0.159665 153 0 76
-0.260437 0.184146 0.157912 153 0 76
0.244319 0.026984 -0.235527 127 127 0
-0.752554 0.184146 -0.240021 153 0 76
-0.807303 0.169158 -0.087869 153 0 76
0.304303 -0.232836 0.158048 76 0 153
-0.390961 0.184146 -0.003491 153 0 76
0.532328 -0.395330 -0.280798 204 51 127
0.007887 0.169158 0.064479 153 0 76
-0.777454 0.184146 0.112221 153 0 76
0.600162 -0.238590 -0.259844 204 51 127
-0.733411 0.169158 -0.040709 153 0 76
0.704017 -0.221544 -0.025084 0 255 0
-0.502761 0.184146 -0.139962 153 0 76
0.645223 0.184146 0.010921 153 0 76
0.355468 0.039226 0.158048 76 0 153
0.704017 -0.162132 -0.165467 0 255 0
-0.700837 0.184146 -0.122188 153 0 76
0.646274 0.169158 -0.153194 153 0 76
0.703680 -0.355455 0.086365 255 0 0
0.017616 0.118206 0.120578 0 0 255
-0.728037 0.169158 0.550619 153 0 76
0.583145 -0.324720 -0.093906 153 76 0
0.576205 -0.022771 0.174285 76 0 153
-0.501120 0.183483 -0.281601 153 0 76
-0.458576 0.169158 0.300612 153 0 76
0.539830 -0.099114 -0.259844 204 51 127
-0.611715 0.169158 0.383193 153 0 76
0.703484 -0.117906 0.129519 0 255 0
-0.481806 0.160650 -0.191723 0 127 127
0.673573 0.184146 0.051485 153 0 76
-0.434473 0.130474 -0.269111 204 51 127
0.497190 0.125097 0.139138 127 0 127
0.244348 -0.276299 0.008568 127 127 0
0.383950 -0.304279 0.030952 153 76 0
-0.582599 0.184146 0.245527 153 0 76
-0.732297 0.184146 -0.210614 153 0 76
-0.775536 -0.162973 0.449404 76 0 153
-0.780017 -0.149284 -0.156114 76 153 0
0.244359 0.083344 0.088997 127 127 0
0.361733 0.016233 0.158048 76 0 153
-0.857819 0.169158 0.413218 153 0 76
-0.144939 0.129243 0.021258 0 0 255
0.486441 -0.114646 0.158048 76 0 153
-0.542440 0.052954 0.453575 153 0 76
0.147715 0.184146 -0.205027 153 0 76
0.516891 0.097087 0.174285 76 0 153
-0.813305 0.169158 0.171273 153 0 76
-0.497840 -0.217529 -0.204007 0 127 127
-0.858123 0.169158 0.241184 153 0 76
0.634643 -0.238779 0.174285 76 0 153
0.458130 -0.105721 0.158048 76 0 153
0.610511 -0.400399 -0.280048 204 51 127
-0.763596 -0.111505 -0.168368 76 153 0
-0.045692 0.071918 -0.256620 204 51 127
0.427562 0.184146 0.065704 153 0 76
0.367610 0.184146 -0.198278 153 0 76
-0.343062 0.184146 -0.165604 153 0 76
0.634609 0.093171 0.174285 76 0 153
-0.018386 0.184146 -0.191296 153 0 76
-0.820232 0.041889 -0.193256 76 153 0
-0.494571 0.077728 0.392422 0 0 255
0.703453 -0.058444 0.134188 127 0 127
0.223357 -0.309469 -0.116731 0 255 0
-0.776857 0.169158 0.383022 153 0 76
0.235815 -0.173944 -0.280805 204 51 127
0.333094 -0.324720 -0.142548 153 76 0
-0.560022 0.132722 0.320386 0 127 127
-0.520841 0.084205 -0.154202 0 127 127
0.703677 0.028730 -0.273285 0 255 0
0.694893 0.112058 0.159071 127 0 127
0.093258 0.119128 -0.256620 204 51 127
-0.799052 0.119400 0.195405 255 0 0
0.003202 0.169158 0.151231 153 0 76
-0.325580 0.169158 -0.226987 153 0 76
-0.476714 0.184146 -0.133742 153 0 76
0.504872 -0.265056 -0.280875 204 51 127
0.650876 -0.158242 0.147618 127 0 127
-0.394817 0.184146 0.143659 153 0 76
0.606761 -0.303690 -0.028977 153 76 0
0.306912 -0.218316 0.174285 76 0 153
-0.305207 0.169158 -0.013071 153 0 76
-0.061798 0.129243 0.070179 0 0 255
-0.606120 0.184146 0.136777 153 0 76
-0.857948 0.184146 0.312693 153 0 76
0.052910 0.109259 -0.020889 0 0 255
-0.121680 0.184146 -0.181233 153 0 76
-0.838291 0.169158 0.357794 153 0 76
-0.494442 0.143903 -0.154202 0 127 127
-0.229049 0.129243 0.032684 0 0 255
-0.691019 0.144514 -0.196668 204 51 127
-0.553877 0.184146 0.105668 153 0 76
-0.541124 0.169158 -0.129612 153 0 76
0.244115 -0.353393 -0.069497 0 255 0
-0.083369 0.129243 -0.024694 0 0 255
0.614137 -0.216016 0.158048 76 0 153
0.223357 -0.111970 0.039469 127 127 0
0.704017 -0.262984 -0.143103 0 255 0
0.682988 -0.098617 0.101547 0 255 0
0.223357 -0.169413 -0.049644 127 127 0
0.223357 0.020799 -0.195026 127 127 0
-0.488591 0.032479 0.496838 153 0 76
-0.272900 0.149606 -0.256620 204 51 127
-0.519921 0.169158 0.038861 153 0 76
-0.093112 0.169158 -0.058567 153 0 76
0.244386 0.077533 -0.120899 127 127 0
0.395288 0.022133 -0.280875 204 51 127
0.383604 -0.086319 0.158048 76 0 153
-0.373418 0.169158 -0.254169 153 0 76
0.288414 0.184146 0.118774 153 0 76
-0.858600 0.184146 -0.262289 153 0 76
-0.640392 0.169158 -0.166189 153 0 76
0.247689 -0.182046 -0.245779 127 127 0
-0.764897 0.184146 0.054239 153 0 76
-0.267876 0.169158 -0.139387 153 0 76
0.224283 0.161882 -0.022438 127 127 0
0.243385 0.062831 -0.032649 127 127 0
0.243391 0.013460 -0.009138 127 127 0
-0.866538 0.169158 0.131998 153 0 76
-0.814040 0.157383 0.068624 255 0 0
-0.356429 0.169158 -0.022998 153 0 76
0.431211 -0.106904 0.174285 76 0 153
0.680969 0.184146 0.017391 153 0 76
0.063068 0.169158 -0.080185 153 0 76
-0.240110 0.184146 -0.078670 153 0 76
0.268663 0.169158 0.065216 153 0 76
-0.775537 -0.276664 -0.178076 76 153 0
0.688312 0.169158 0.055527 153 0 76
-0.220447 0.109259 -0.081990 0 0 255
0.467431 -0.178782 -0.280875 204 51 127
-0.064976 0.184146 -0.269335 153 0 76
0.527495 0.116405 0.174285 76 0 153
0.008353 0.165482 -0.256620 204 51 127
0.048835 0.184146 0.083967 153 0 76
-0.209584 0.169158 -0.053334 153 0 76
-0.661148 0.184146 -0.143857 153 0 76
0.704017 -0.309621 -0.248659 0 255 0
-0.259838 0.169158 -0.185332 153 0 76
-0.483626 0.163753 0.426803 255 0 0
0.442850 0.184146 -0.032106 153 0 76
0.447110 -0.013842 0.158048 76 0 153
0.092548 0.109259 0.101859 0 0 255
-0.206814 0.184146 0.073130 153 0 76
-0.142797 0.134746 0.120578 204 51 127
-0.474530 0.184146 -0.180100 153 0 76
0.631795 -0.211277 -0.259844 204 51 127
-0.782619 0.169158 -0.248525 153 0 76
0.540283 0.169158 -0.227452 153 0 76
-0.501155 -0.070701 0.448900 153 0 76
0.390946 0.124519 0.139274 127 0 127
0.577236 0.184146 -0.044560 153 0 76
-0.795287 0.000865 -0.217728 76 153 0
0.225128 0.081597 0.117887 76 0 153
-0.652663 0.169158 0.502674 153 76 0
-0.858310 0.184146 0.073354 153 0 76
-0.509284 0.087159 -0.067139 0 0 255
-0.527398 0.132139 0.224092 0 127 127
0.152142 0.106132 -0.269111 204 51 127
-0.444289 0.169158 0.539505 153 0 76
0.682988 0.114242 -0.224446 0 255 0
-0.509284 0.120927 -0.130969 0 0 255
-0.804473 -0.235494 0.495447 76 0 153
0.424139 -0.304690 -0.113846 153 76 0
-0.737467 0.184146 0.487688 153 0 76
-0.127817 0.146878 0.135906 204 51 127
0.264451 -0.137292 -0.258763 204 51 127
0.636615 -0.020237 0.174285 76 0 153
-0.811417 0.079605 0.445318 76 0 153
0.630159 -0.324720 0.051994 153 76 0
-0.470002 0.169158 -0.080719 204 51 127
-0.559282 0.152426 0.427995 0 255 0
-0.522715 0.169158 0.503802 153 0 76
0.647229 -0.182270 0.174285 76 0 153
0.366441 -0.303690 0.106497 153 76 0
0.125830 0.071736 0.110773 76 0 153
0.544803 0.125403 0.158684 127 0 127
-0.773723 0.184146 0.482584 153 0 76
-0.856932 0.169158 0.390730 153 0 76
-0.643428 0.169158 -0.226769 153 0 76
-0.795720 -0.245795 -0.171138 76 153 0
-0.005973 0.122788 0.120578 0 0 255
0.703018 -0.196515 0.031939 0 255 0
-0.085359 0.110227 0.120578 204 51 127
0.703018 0.127491 0.024836 0 255 0
-0.479374 0.169158 -0.107152 153 0 76
0.223357 -0.372046 -0.260375 127 127 0
-0.647075 0.158663 0.487784 153 76 0
-0.799052 0.081351 0.325172 255 0 0
0.640252 0.169158 -0.240470 153 0 76
0.006109 0.152535 0.120578 204 51 127
0.253007 -0.193505 -0.280875 204 51 127
0.510930 0.020456 0.158048 76 0 153
0.602606 -0.303690 0.014524 153 76 0
-0.377939 0.082292 -0.256620 204 51 127
-0.498677 -0.248387 0.481238 153 0 76
-0.856050 0.169158 -0.018814 153 0 76
0.523035 -0.303690 0.096193 153 76 0
0.344636 0.169158 -0.161418 153 0 76
-0.814040 0.152203 0.015103 255 0 0
0.610785 -0.137597 0.167066 76 0 153
0.253673 -0.297621 -0.185191 153 76 0
-0.487053 -0.288987 0.473644 153 0 76
-0.496201 0.075964 -0.128535 0 0 255
-0.509088 0.169158 -0.010482 153 0 76
0.559799 0.184146 -0.038834 153 0 76
-0.656239 0.169158 -0.209330 204 51 127
-0.029043 0.184146 -0.207841 153 0 76
0.223357 0.029185 -0.216255 127 127 0
0.472128 -0.339776 0.134259 127 127 0
-0.220641 0.184146 -0.117412 153 0 76
-0.741133 0.184146 0.233185 153 0 76
-0.024892 0.075198 0.119838 76 0 153
0.376646 -0.134689 0.158048 76 0 153
0.378297 0.184146 0.075982 153 0 76
-0.570163 0.184146 0.136662 153 0 76
-0.652133 0.169158 0.183694 153 0 76
-0.840388 0.184146 0.545854 153 0 76
-0.544551 0.131723 0.282810 0 127 127
-0.846091 0.184146 0.501512 153 0 76
0.240535 0.169158 -0.145916 153 0 76
0.363487 -0.024404 0.158048 76 0 153
0.052054 0.084278 0.120547 76 0 153
0.447356 0.041294 0.174285 76 0 153
0.220984 0.184146 0.016085 153 0 76
-0.871769 0.175981 0.424461 153 0 76
-0.464320 0.150772 -0.166402 204 51 127
-0.652367 0.169158 0.440421 153 0 76
0.342493 0.113655 -0.259844 204 51 127
0.704017 -0.221016 -0.174309 0 255 0
0.662840 0.041958 0.167860 76 0 153
0.683087 -0.350648 -0.198500 255 0 0
-0.607707 0.179728 -0.281601 153 0 76
-0.584198 0.169158 0.202309 153 0 76
0.570652 -0.271676 0.173551 76 0 153
0.516286 -0.303690 0.022034 153 76 0
-0.630456 0.169158 -0.075214 153 0 76
-0.515844 0.132675 0.384222 0 127 127
0.039700 0.150272 0.135906 204 51 127
0.636528 -0.188566 -0.259844 204 51 127
-0.083122 0.129243 -0.067891 0 0 255
0.336407 0.184146 -0.095415 153 0 76
-0.814040 0.152035 0.351609 255 0 0
-0.845789 0.184146 0.206936 153 0 76
-0.139355 0.169158 0.114522 153 0 76
0.223357 -0.135711 -0.230490 127 127 0
-0.517651 -0.285813 0.452887 153 0 76
0.630011 0.169158 -0.017945 153 0 76
0.246582 -0.289611 -0.169637 127 127 0
-0.807725 -0.143520 0.449387 76 0 153
-0.467629 0.169158 -0.233185 204 51 127
-0.781829 0.184146 0.045399 153 0 76
0.682988 -0.129006 0.020509 0 255 0
-0.306615 0.169158 -0.204134 153 0 76
0.717018 0.169158 -0.196868 153 0 76
0.285422 -0.177424 -0.260844 204 51 127
0.703018 0.094301 -0.008054 0 255 0
-0.773661 -0.198583 -0.165857 76 153 0
-0.802089 0.184146 0.223914 153 0 76
0.364169 0.169158 0.102367 153 0 76
-0.621143 0.184146 0.307087 153 0 76
0.015270 0.184146 0.019154 153 0 76
0.244386 0.013413 -0.139083 127 127 0
-0.077674 0.169158 -0.115800 153 0 76
0.628349 -0.134180 0.158048 76 0 153
0.437698 -0.085864 0.158048 76 0 153
-0.165709 0.071736 -0.260690 204 51 127
-0.497070 0.184146 0.054665 153 0 76
-0.609007 0.133716 0.209195 127 127 0
-0.627759 0.169158 0.391945 153 0 76
0.308411 0.169158 0.030412 153 0 76
-0.352810 0.137387 -0.269111 204 51 127
0.245488 -0.285782 0.031320 127 127 0
0.281929 0.184146 -0.204604 153 0 76
0.704073 0.169158 -0.110518 153 0 76
0.272072 0.118671 -0.259665 204 51 127
0.662032 -0.284252 0.158048 76 0 153
0.659142 0.169158 -0.279170 153 0 76
-0.025286 0.184146 0.134267 153 0 76
0.610837 0.169158 -0.035715 153 0 76
0.472731 -0.198198 0.158048 76 0 153
0.264347 -0.266372 0.159242 127 0 127
0.386691 0.004738 0.158048 76 0 153
-0.588642 0.122639 0.502772 153 76 0
-0.497323 -0.167822 0.452190 153 0 76
0.149463 0.184146 0.045284 153 0 76
0.708212 0.169158 -0.048043 153 0 76
-0.702333 0.121011 0.427961 0 255 0
-0.694372 0.169158 -0.005576 153 0 76
0.354452 0.184146 -0.176522 153 0 76
-0.521511 -0.382233 0.470286 153 0 76
-0.757313 0.029907 -0.193419 76 153 0
0.412022 0.118468 0.174285 76 0 153
0.500885 0.184146 0.031896 153 0 76
0.148645 0.169158 -0.059734 153 0 76
-0.209882 0.169158 -0.245987 153 0 76
-0.791906 0.169158 -0.042400 153 0 76
-0.530692 -0.100957 0.512301 153 0 76
0.322194 0.184146 0.097166 153 0 76
-0.652280 0.086865 -0.210438 204 51 127
-0.549959 -0.104449 -0.199873 0 127 127
-0.187292 0.169158 -0.247144 153 0 76
-0.546678 0.169158 0.169983 153 0 76
-0.816803 -0.198508 0.465117 76 0 153
0.169222 0.078801 0.120564 76 0 153
0.587979 0.026662 0.174285 76 0 153
-0.856719 0.184146 -0.098888 153 0 76
-0.462457 0.184146 0.043694 153 0 76
-0.814040 0.106713 0.362856 255 0 0
0.389200 -0.026736 0.158048 76 0 153
-0.290132 0.184146 0.044369 153 0 76
-0.618024 0.184146 0.247593 153 0 76
0.243384 -0.270919 -0.106977 127 127 0
0.616311 0.129768 0.163480 76 0 153
-0.538925 0.184146 -0.084481 153 0 76
0.424459 -0.324718 -0.215296 153 76 0
-0.799052 0.153189 0.340190 255 0 0
0.673405 0.169158 0.086815 153 0 76
-0.591999 0.169158 0.356534 153 0 76
-0.516413 0.184146 0.118375 153 0 76
0.639846 0.134766 0.158943 127 0 127
0.546610 0.063111 0.158048 76 0 153
0.515560 0.184146 0.069609 153 0 76
-0.325361 0.152279 0.131557 204 51 127
0.641519 0.112524 0.174285 76 0 153
0.258927 0.020633 0.135647 127 0 127
-0.390851 0.114172 -0.256620 204 51 127
-0.270054 0.169158 0.154214 153 0 76
-0.799052 0.097045 0.288881 255 0 0
-0.464320 0.093927 0.102885 204 51 127
-0.644396 0.184146 -0.273094 153 0 76
0.426655 0.184146 0.148526 153 0 76
-0.818773 0.169158 0.392038 153 0 76
-0.111637 0.184146 0.012687 153 0 76
0.552570 0.184146 -0.065018 153 0 76
-0.491850 0.169158 0.024980 153 0 76
-0.638184 0.184146 0.129404 153 0 76
-0.119823 0.159130 0.120578 204 51 127
0.150810 0.169158 -0.195247 153 0 76
-0.253582 0.084493 0.120573 76 0 153
-0.799052 0.080554 0.278860 255 0 0
-0.169873 0.095746 0.105590 76 0 153
-0.326330 0.163579 -0.256620 204 51 127
-0.807834 -0.195768 -0.163956 76 153 0
0.379950 0.057326 0.172387 76 0 153
-0.794438 0.009753 -0.154475 76 153 0
-0.509284 0.090765 0.272412 0 0 255
-0.506568 -0.318237 -0.212585 0 127 127
0.556460 0.169158 -0.012749 153 0 76
-0.799052 0.154920 0.233735 255 0 0
-0.799052 0.125671 0.253942 255 0 0
-0.575608 0.184146 -0.029595 153 0 76
-0.148500 0.110070 -0.256620 204 51 127
-0.799052 0.077507 0.063573 255 0 0
-0.826530 0.139324 0.499931 76 0 153
0.259780 -0.215031 0.135964 127 0 127
-0.127308 0.169158 0.137592 153 0 76
0.626988 0.184146 -0.240514 153 0 76
0.111134 0.184146 -0.196329 153 0 76
-0.771102 0.184146 -0.171224 153 0 76
-0.838317 0.184146 -0.214061 153 0 76
0.468260 -0.049184 0.174285 76 0 153
-0.044777 0.169158 -0.034804 153 0 76
0.414713 0.169158 0.154724 153 0 76
-0.220912 0.169158 -0.100058 153 0 76
0.250902 -0.069875 0.129621 127 0 127
0.689258 0.168300 0.033095 0 255 0
-0.289581 0.169158 0.156763 153 0 76
-0.305292 0.123040 -0.256620 204 51 127
-0.524956 -0.284865 -0.164511 0 127 127
0.271169 0.184146 0.133841 153 0 76
0.286644 -0.233728 0.174285 76 0 153
-0.655845 0.112127 0.487784 153 76 0
-0.417123 0.184146 -0.195856 153 0 76
0.276226 0.184146 -0.163056 153 0 76
0.294150 -0.324720 -0.064782 153 76 0
-0.794146 0.169158 -0.265042 153 0 76
-0.654937 0.184146 -0.245962 153 0 76
0.223357 -0.103651 0.079975 127 127 0
-0.319764 0.169158 -0.060776 153 0 76
-0.359799 0.100130 0.105590 76 0 153
0.088371 0.083724 0.120444 76 0 153
-0.418311 0.184146 -0.060704 153 0 76
-0.124275 0.169158 -0.112305 153 0 76
0.391738 -0.304690 -0.171165 153 76 0
0.682574 0.184146 -0.090388 153 0 76
-0.707291 0.071736 0.492836 153 76 0
-0.731085 0.169158 0.228979 153 0 76
-0.786995 0.169158 -0.145460 153 0 76
0.223357 -0.033527 -0.088665 127 127 0
0.493530 0.169158 0.074515 153 0 76
-0.030212 0.129243 0.036130 0 0 255
-0.689364 0.184146 0.415692 153 0 76
-0.679138 0.169158 0.496029 153 76 0
-0.780004 0.169158 -0.228680 153 0 76
0.223553 0.159477 0.147634 127 127 0
0.632436 -0.287840 0.174285 76 0 153
-0.030452 0.169158 -0.261348 204 51 127
0.448899 -0.068938 0.158048 76 0 153
0.223357 -0.046187 -0.032083 127 127 0
0.079815 0.169158 0.111391 153 0 76
0.423857 0.169158 -0.175152 153 0 76
0.054202 0.184146 0.015714 153 0 76
0.093770 0.169158 -0.234972 153 0 76
-0.476810 0.108848 -0.053323 204 51 127
0.551864 -0.121587 0.174285 76 0 153
0.445224 -0.265598 -0.280875 204 51 127
0.682988 -0.177791 -0.151699 0 255 0
-0.248900 0.184146 -0.251303 153 0 76
-0.737092 0.184146 0.076224 153 0 76
0.460305 -0.305560 0.174285 76 0 153
0.137038 0.169158 -0.079345 153 0 76
-0.154222 0.085781 -0.256620 204 51 127
-0.789642 -0.039916 0.509997 76 0 153
0.260053 -0.104639 -0.257679 204 51 127
-0.716117 0.160618 0.291632 127 0 127
0.682988 -0.235231 -0.118058 0 255 0
0.152243 0.169158 -0.158855 153 0 76
0.385914 -0.229969 0.158048 76 0 153
0.652686 -0.324705 -0.018292 153 76 0
0.244386 -0.136675 0.007158 127 127 0
0.682988 0.113164 -0.150235 0 255 0
-0.814040 0.108993 0.011080 255 0 0
-0.695827 0.155120 0.502772 153 76 0
0.084846 0.169158 0.074402 153 0 76
0.244138 -0.263366 -0.209069 127 127 0
0.705814 0.169158 -0.229433 153 0 76
-0.618211 0.138105 -0.211656 204 51 127
-0.787895 -0.183205 -0.221348 76 153 0
-0.388042 0.169158 -0.280938 153 0 76
-0.800035 0.071736 0.207699 255 0 0
-0.411927 0.169158 0.020307 153 0 76
0.294386 -0.194495 0.158048 76 0 153
0.590217 0.086485 0.158048 76 0 153
-0.305826 0.071736 -0.262031 204 51 127
-0.761060 -0.145889 0.463257 76 0 153
0.353406 -0.228739 0.174285 76 0 153
0.362790 0.184146 -0.254004 153 0 76
-0.799052 0.075629 0.417591 255 0 0
0.311167 -0.259678 0.158048 76 0 153
0.223357 0.118542 -0.060367 127 127 0
-0.725337 0.164843 0.210707 127 0 127
0.243727 -0.233884 -0.060232 127 127 0
-0.509284 0.093742 0.378429 0 0 255
0.431997 0.169158 0.089059 153 0 76
0.682988 0.111325 0.000148 0 255 0
0.506040 0.072975 -0.280875 204 51 127
-0.558176 0.169158 0.421159 153 0 76
-0.047198 0.082053 0.119066 76 0 153
-0.023521 0.126110 -0.256620 204 51 127
0.402938 -0.304690 -0.099878 153 76 0
-0.530709 -0.220248 -0.170538 0 127 127
0.148841 0.129243 0.054122 0 0 255
-0.726318 0.169158 0.082585 153 0 76
-0.482624 0.007220 -0.183092 0 127 127
0.020696 0.184146 0.164435 153 0 76
0.291993 0.179246 0.170699 153 0 76
-0.537901 0.169158 -0.025872 153 0 76
0.571521 0.169158 -0.236877 153 0 76
0.445267 0.082100 0.158048 76 0 153
0.659653 -0.302733 0.117299 153 76 0
0.223357 0.024658 0.002376 127 127 0
-0.497102 0.100946 -0.224147 0 127 127
-0.518567 -0.183180 0.447731 153 0 76
0.656022 0.184146 -0.081065 153 0 76
0.523630 0.016654 0.174285 76 0 153
-0.618248 0.184146 -0.169139 153 0 76
0.529001 0.184146 -0.198117 153 0 76
-0.103848 0.184146 -0.236303 153 0 76
0.244386 -0.199542 0.091518 127 127 0
-0.060679 0.169158 0.101372 153 0 76
-0.270655 0.169158 -0.035504 153 0 76
-0.739893 0.111288 -0.196668 204 51 127
-0.818643 0.184146 0.402244 153 0 76
0.458056 -0.229976 0.158048 76 0 153
-0.518148 -0.243805 -0.189294 0 127 127
0.611825 0.184146 0.136949 153 0 76
0.682988 -0.113730 -0.082868 0 255 0
0.370118 -0.093470 0.174285 76 0 153
0.462307 -0.189407 -0.259844 204 51 127
0.508467 -0.303690 -0.008534 153 76 0
-0.285921 0.169158 0.054761 153 0 76
-0.509284 0.142064 0.075663 0 0 255
-0.759592 0.184146 -0.221819 153 0 76
0.069381 0.129243 0.028723 0 0 255
0.408524 0.169158 0.034259 153 0 76
-0.492155 0.169158 0.464952 153 0 76
-0.052539 0.119135 -0.256620 204 51 127
-0.812622 0.184146 0.070283 153 0 76
0.324321 -0.324718 0.094240 153 76 0
-0.706869 0.184146 -0.062812 153 0 76
-0.702451 0.169158 -0.170450 153 0 76
0.409830 -0.028316 0.158048 76 0 153
-0.329893 0.087973 0.118897 76 0 153
0.549037 -0.291696 -0.253121 204 51 127
-0.556092 0.139223 0.204168 127 127 0
0.582783 -0.312441 0.158048 76 0 153
0.101545 0.089493 -0.269111 204 51 127
0.342732 -0.149928 0.158048 76 0 153
0.248393 -0.277426 -0.247403 127 127 0
-0.780587 0.169158 0.094877 153 0 76
-0.569154 0.169158 -0.110781 153 0 76
-0.187403 0.071736 -0.267616 204 51 127
0.655071 0.169158 -0.202707 153 0 76
-0.777060 -0.220192 0.462032 76 0 153
