ply
format ascii 1.0
element vertex 1257
property float x
property float y
property float z
property uchar red
property uchar green
property uchar blue
end_header
-0.542606 -0.486562 0.063110 0 127 127
-0.012321 0.754778 0.220897 76 153 0
-0.048391 0.703669 -0.037888 76 153 0
-0.061867 -0.487679 0.078383 153 76 0
0.069608 0.652087 -0.010236 76 153 0
0.004938 0.203090 -0.153287 76 153 0
0.005870 0.884558 0.354564 76 153 0
-0.052525 0.832348 0.397990 76 153 0
0.463347 -0.484701 -0.152841 127 127 0
-0.780097 -0.009527 -0.077991 127 127 0
-0.592571 0.071588 -0.137081 127 127 0
0.810271 0.101774 -0.092597 0 255 0
0.996199 0.048973 -0.128188 0 255 0
-0.669809 -0.359211 -0.078207 0 127 127
0.646830 -0.158262 -0.133390 127 0 127
-0.911483 0.100804 -0.076446 127 127 0
-0.019867 -0.410995 -0.190550 153 76 0
0.681571 -0.352715 -0.085864 127 127 0
0.553911 -0.415337 -0.001715 127 127 0
-0.651617 -0.011603 -0.059375 127 127 0
0.759460 0.058753 -0.032434 0 255 0
0.683187 -0.454236 -0.239323 127 127 0
0.061888 0.670687 0.525837 76 153 0
-0.054272 -0.301837 -0.113750 76 153 0
0.559553 -0.184581 -0.081203 127 127 0
-0.563751 -0.429973 0.031949 0 127 127
0.866596 0.064461 -0.140349 0 255 0
0.005143 0.305474 -0.020591 76 153 0
0.058301 0.712583 -0.036756 76 153 0
-0.002570 0.652090 0.501859 76 153 0
-0.049686 0.785126 0.340918 76 153 0
0.062851 0.044780 -0.053819 76 153 0
0.996199 0.041343 -0.047809 0 255 0
-0.026508 0.588291 0.551728 76 153 0
-0.046282 0.620502 -0.006684 76 153 0
-0.002365 0.692442 -0.082430 76 153 0
-0.646645 -0.244969 -0.121984 76 153 0
0.689907 -0.432827 0.019955 127 127 0
-0.915187 -0.006758 -0.109121 127 127 0
0.564408 0.042831 -0.062633 0 255 0
-0.125933 -0.430203 -0.079370 153 76 0
0.593350 -0.039891 -0.139509 127 127 0
0.070375 0.731789 0.497100 76 153 0
-0.558182 -0.124043 -0.052762 0 127 127
-0.655897 -0.148202 -0.067370 76 153 0
0.055621 -0.279445 -0.130920 76 153 0
0.652899 -0.366109 -0.027481 127 0 127
-0.047347 0.284965 -0.124115 76 153 0
-0.052517 0.723608 0.072646 76 153 0
-0.006493 -0.252978 -0.022906 76 153 0
0.805388 -0.007435 -0.106446 0 255 0
0.067026 -0.487780 -0.069795 153 76 0
0.059213 0.330024 -0.048373 76 153 0
0.059659 0.742999 0.435199 76 153 0
0.026906 0.886342 0.243524 76 153 0
-0.574729 -0.486562 -0.149659 0 127 127
0.042683 0.782928 0.542575 76 153 0
-0.549897 0.044126 -0.065292 127 127 0
-0.056113 0.158845 -0.066364 76 153 0
0.936250 0.097941 -0.109722 0 255 0
-0.041065 0.857963 0.176420 76 153 0
0.071060 -0.082894 -0.096867 76 153 0
0.030267 -0.487780 -0.148740 153 76 0
0.026720 0.637140 0.660683 76 153 0
0.081642 -0.452104 -0.247714 153 76 0
0.927093 -0.007086 -0.065718 0 255 0
0.109905 -0.431323 -0.171054 153 76 0
0.755318 -0.447962 -0.004511 127 127 0
-0.039291 0.411959 -0.038912 76 153 0
-0.706826 -0.006118 -0.110078 127 127 0
0.740303 0.001246 -0.121100 0 255 0
-0.039546 0.145733 -0.134836 76 153 0
0.027274 0.567945 0.684011 76 153 0
-0.158114 -0.487780 -0.156377 153 76 0
0.719652 -0.414584 -0.098566 127 127 0
0.607866 -0.276362 -0.031377 127 0 127
-0.599730 0.083998 -0.045130 127 127 0
0.014984 0.825772 0.496500 76 153 0
-0.029272 0.452134 0.696245 153 0 76
-0.856968 0.070174 -0.035893 127 127 0
0.069965 0.613634 0.584921 76 153 0
0.070142 0.283561 -0.101482 76 153 0
-0.715366 -0.421536 -0.088664 0 127 127
0.000308 -0.110211 -0.021553 76 153 0
-0.040284 0.344176 -0.039576 76 153 0
-0.661008 -0.485565 0.066895 0 127 127
0.069328 -0.169842 -0.068343 76 153 0
-0.646414 -0.328866 -0.125630 76 153 0
-0.550890 -0.300774 -0.110243 0 127 127
0.016447 0.736321 0.600241 76 153 0
0.622818 -0.353622 -0.152144 127 0 127
-0.790768 0.095379 -0.060363 127 127 0
0.095542 -0.487780 0.059696 153 76 0
-0.041133 0.050415 -0.133415 76 153 0
0.002547 0.722084 0.416153 76 153 0
0.549352 -0.372664 -0.054972 127 127 0
-0.617050 -0.411608 -0.187742 76 153 0
0.169592 -0.449933 -0.018384 153 76 0
-0.614877 -0.328567 -0.030439 0 127 127
-0.008298 0.886159 0.294995 76 153 0
0.047186 -0.351401 -0.027795 76 153 0
-0.546369 -0.486562 -0.060831 0 127 127
0.652061 -0.191011 -0.044023 127 0 127
-0.004465 0.788677 0.003915 76 153 0
0.051830 0.413673 -0.038724 76 153 0
-0.078282 -0.422575 -0.176029 153 76 0
0.698431 -0.431726 -0.185392 127 127 0
0.478574 -0.436032 -0.100640 127 127 0
0.069821 0.810468 0.421174 76 153 0
-0.507516 -0.408523 -0.114868 76 153 0
-0.010285 0.827724 0.056340 76 153 0
-0.115226 -0.436925 -0.013488 153 76 0
0.688479 0.099145 -0.105815 0 255 0
0.662753 -0.267355 -0.117066 127 0 127
0.132457 -0.428498 -0.059365 153 76 0
0.552658 -0.431812 -0.199017 127 127 0
0.046619 -0.401150 0.005354 153 76 0
-0.059845 -0.184448 -0.085124 76 153 0
0.551354 -0.443326 0.053379 127 127 0
0.876915 0.019084 -0.037447 0 255 0
-0.543945 -0.371180 -0.044917 76 153 0
-0.055843 0.438154 -0.108910 76 153 0
-0.615653 -0.486562 0.026587 0 127 127
-0.552479 -0.013506 -0.061298 127 127 0
-0.567412 -0.042202 -0.130745 0 127 127
0.562169 -0.014601 -0.068054 0 255 0
-0.744069 0.052988 -0.031287 127 127 0
-0.030126 0.697621 0.474769 76 153 0
0.767717 -0.486562 -0.127638 127 127 0
-0.024975 0.501143 -0.023582 76 153 0
0.667177 -0.486562 -0.065504 127 127 0
0.053158 0.544178 -0.123915 76 153 0
-0.003781 0.437889 0.644069 76 0 153
0.013033 0.738662 0.170327 76 153 0
-0.653912 -0.105606 -0.111109 0 127 127
-0.073181 -0.487780 0.015071 153 76 0
0.051778 -0.021019 -0.135229 76 153 0
-0.756560 -0.486562 -0.131816 0 127 127
-0.055228 0.229327 -0.061915 76 153 0
0.071633 0.812416 0.333026 76 153 0
-0.549773 -0.178477 -0.065914 0 127 127
0.023967 0.849798 0.104632 76 153 0
-0.727090 -0.441924 -0.004260 0 127 127
-0.648243 -0.485809 -0.243107 0 127 127
-0.655137 -0.046543 -0.109275 0 127 127
0.579203 -0.252887 -0.130056 127 127 0
-0.056660 0.734232 0.010949 76 153 0
-0.050329 -0.408777 0.001419 153 76 0
0.608607 0.070605 -0.036181 0 255 0
-0.449805 -0.448095 -0.024396 0 127 127
-0.612266 -0.109077 -0.031761 0 127 127
-0.006498 0.637382 0.037070 76 153 0
-0.026852 -0.487780 -0.230747 153 76 0
-0.020345 -0.097041 -0.147666 76 153 0
0.070810 0.765316 0.059548 76 153 0
0.071198 -0.272790 -0.077744 76 153 0
0.041710 -0.003464 -0.031962 76 153 0
0.703171 -0.009421 -0.077457 0 255 0
0.058585 -0.057807 -0.047434 76 153 0
0.029713 0.366510 -0.148944 76 153 0
0.035280 0.760950 0.320303 76 153 0
0.583774 0.075210 -0.133111 0 255 0
-0.812546 0.001585 -0.121606 127 127 0
-0.035826 -0.013349 -0.036596 76 153 0
0.670715 -0.089422 -0.096511 127 0 127
0.524629 -0.486562 -0.168087 127 127 0
0.769052 0.085454 -0.127816 0 255 0
-0.867273 0.016204 -0.039371 127 127 0
0.640994 -0.428337 -0.205034 127 127 0
0.070495 0.536555 0.614127 153 0 76
-0.686541 -0.486562 -0.159605 0 127 127
-0.054062 0.558341 0.649940 153 0 76
-0.644965 -0.377747 -0.025291 0 127 127
0.818635 0.000421 -0.054054 0 255 0
-0.926683 -0.000408 -0.055294 127 127 0
0.606836 -0.486562 0.020137 127 127 0
-0.006372 -0.312756 -0.022502 76 153 0
0.621051 -0.486562 -0.141169 127 127 0
0.066768 0.598854 -0.027759 76 153 0
0.071618 0.167279 -0.094065 76 153 0
0.874885 0.074266 -0.038627 0 255 0
-0.565817 -0.097812 -0.129679 76 153 0
0.888968 0.012726 -0.132223 0 255 0
0.928589 0.092930 -0.056698 0 255 0
-0.607791 -0.128559 -0.143048 76 153 0
0.460028 -0.447088 -0.047211 127 127 0
0.034486 0.464748 0.579721 153 0 76
-0.058076 0.330366 -0.097685 76 153 0
-0.088427 -0.487780 -0.170400 153 76 0
-0.054100 0.686113 0.594768 76 153 0
-0.940187 0.089320 -0.122623 127 127 0
0.042788 0.309935 -0.141237 76 153 0
0.620351 0.028397 -0.143100 0 255 0
-0.009204 0.537241 0.561810 76 153 0
0.148997 -0.439715 -0.134237 153 76 0
0.659518 -0.319889 -0.123705 127 127 0
0.139639 -0.487780 -0.091680 153 76 0
-0.519479 -0.447596 -0.225376 0 127 127
-0.649533 0.061187 -0.141000 127 127 0
-0.120199 -0.487780 -0.079182 153 76 0
0.074552 -0.386056 -0.142284 76 153 0
0.031364 0.761292 0.249962 76 153 0
-0.873014 0.014023 -0.133090 127 127 0
-0.873527 0.085162 -0.128011 127 127 0
0.632316 -0.231317 -0.140720 127 127 0
0.648497 -0.244724 -0.041641 127 127 0
0.615622 -0.486562 -0.215945 127 127 0
-0.950769 0.084414 -0.045408 127 127 0
-0.525950 -0.422837 -0.003475 76 153 0
0.710769 0.080124 -0.042541 0 255 0
-0.470397 -0.432616 -0.087129 0 127 127
0.051861 0.710620 0.086458 76 153 0
-0.030414 -0.207594 -0.032981 76 153 0
0.047294 0.568878 0.566943 76 153 0
0.094855 -0.426025 0.005135 153 76 0
-0.036156 0.755490 0.170618 76 153 0
0.052014 0.611410 -0.103920 76 153 0
0.023693 -0.487780 0.037642 153 76 0
0.072942 0.811678 0.184631 76 153 0
-0.047846 0.491207 0.600485 153 0 76
0.070553 -0.323023 -0.065652 76 153 0
0.624401 -0.107131 -0.031624 127 127 0
0.958637 0.005706 -0.127532 0 255 0
0.035619 -0.438070 -0.228862 153 76 0
-0.600671 -0.005224 -0.143661 127 127 0
-0.037240 0.391165 -0.136377 76 153 0
0.068742 0.481145 0.616471 153 0 76
-0.469056 -0.486562 -0.121304 0 127 127
-0.028093 0.647503 0.647263 76 153 0
0.561471 -0.486562 -0.069811 127 127 0
-0.028346 -0.487780 -0.050126 153 76 0
0.063420 0.454547 0.673415 153 0 76
-0.617239 -0.416021 0.017954 0 127 127
-0.044852 -0.106473 -0.046070 76 153 0
0.571662 -0.305660 -0.122142 127 0 127
0.741631 -0.432573 -0.056216 127 127 0
0.070241 0.115927 -0.100984 76 153 0
0.108365 -0.487780 0.006928 153 76 0
0.025424 -0.154235 -0.024121 76 153 0
0.098511 -0.487780 -0.178381 153 76 0
0.040873 0.842179 0.450385 76 153 0
-0.056313 0.511911 -0.100038 76 153 0
0.653873 -0.043593 -0.128684 127 0 127
-0.602720 -0.486562 -0.034462 0 127 127
-0.563534 -0.255468 -0.128154 76 153 0
0.615091 -0.439527 0.060118 127 127 0
0.021132 -0.487780 -0.041863 153 76 0
0.020963 0.089036 -0.023233 76 153 0
0.086794 -0.371209 -0.080554 76 153 0
0.533876 -0.486562 0.027006 127 127 0
-0.156791 -0.447316 -0.043971 153 76 0
0.526608 -0.397961 -0.096242 127 0 127
-0.045868 0.634106 0.547080 76 153 0
-0.501018 -0.434978 -0.177355 0 127 127
0.176691 -0.487780 -0.050275 153 76 0
-0.643527 -0.486562 -0.121917 0 127 127
0.621978 0.102607 -0.088409 0 255 0
0.022968 -0.124998 -0.150286 76 153 0
-0.050087 0.003333 -0.120014 76 153 0
0.046502 -0.487780 -0.257414 153 76 0
-0.522156 -0.486562 -0.170038 0 127 127
-0.687028 -0.426204 -0.170048 0 127 127
-0.034633 0.238223 -0.138119 76 153 0
0.798388 0.085825 -0.046350 0 255 0
0.027379 0.139287 -0.024510 76 153 0
0.559434 -0.327877 -0.072875 127 127 0
-0.090760 -0.398060 -0.094115 153 76 0
-0.032169 -0.487780 -0.125906 153 76 0
0.061889 0.535068 -0.042485 76 153 0
0.048209 0.431996 -0.137614 76 153 0
0.039961 0.653217 0.038902 76 153 0
0.590356 -0.384501 -0.013051 127 0 127
0.560068 -0.391268 -0.149504 127 0 127
0.606555 -0.486562 -0.033806 127 127 0
-0.759196 -0.448646 -0.040446 0 127 127
0.639285 -0.319768 -0.034299 127 0 127
0.069896 0.378555 -0.071198 76 153 0
-0.020699 0.554458 0.685132 153 0 76
-0.036657 0.054430 -0.037152 76 153 0
0.034105 0.483838 0.698279 153 0 76
-0.518624 -0.486562 0.021358 0 127 127
0.037668 -0.321958 -0.146565 76 153 0
-0.602812 -0.486562 -0.210174 0 127 127
-0.960232 0.006047 -0.127760 127 127 0
0.661847 0.004181 -0.048427 0 255 0
-0.077439 -0.487553 -0.241987 153 76 0
0.016703 -0.423247 0.035391 153 76 0
-0.561989 -0.384371 -0.152785 76 153 0
-0.022194 -0.487780 0.050905 153 76 0
0.774195 -0.473105 -0.042623 127 127 0
-0.694482 0.098996 -0.106563 127 127 0
0.726805 -0.486562 -0.155417 127 127 0
-0.820851 0.004019 -0.048670 127 127 0
0.840789 0.018101 -0.135814 0 255 0
0.623729 -0.154717 -0.031491 127 127 0
0.574598 -0.486562 -0.125675 127 127 0
-0.983378 0.053408 -0.090693 127 127 0
0.027259 0.061395 -0.149432 76 153 0
-0.681145 0.095268 -0.060198 127 127 0
-0.066562 -0.351892 -0.089425 76 153 0
-0.058692 0.728290 0.530540 76 153 0
-0.566250 -0.439695 -0.227234 0 127 127
0.588555 -0.089349 -0.136305 127 127 0
-0.056825 0.836081 0.221439 76 153 0
-0.050465 0.805942 0.082686 76 153 0
0.072330 0.664578 0.571549 76 153 0
0.033888 0.225987 -0.026735 76 153 0
-0.026416 -0.324106 -0.145858 76 153 0
0.564074 -0.228330 -0.063133 127 0 127
-0.058766 0.597961 -0.049671 76 153 0
-0.657777 -0.486562 -0.067084 0 127 127
-0.052084 0.853427 0.281683 76 153 0
0.673196 0.048963 -0.143432 0 255 0
0.015059 0.423830 0.592307 76 0 153
-0.120410 -0.444907 -0.189309 153 76 0
-0.576467 -0.205392 -0.037123 0 127 127
-0.039378 0.728377 0.439133 76 153 0
0.006943 0.508817 -0.147734 76 153 0
-0.049390 -0.368288 -0.029384 76 153 0
0.667388 -0.486562 0.034080 127 127 0
0.056657 -0.240811 -0.044549 76 153 0
-0.014848 0.583420 0.003888 76 153 0
-0.015087 -0.437663 -0.229338 153 76 0
-0.554549 -0.196647 -0.115719 0 127 127
0.655365 0.051609 -0.031013 0 255 0
0.071467 0.515440 -0.087766 76 153 0
-0.573329 -0.331499 -0.137198 0 127 127
0.006011 0.154225 -0.153500 76 153 0
-0.735891 -0.486562 -0.090105 0 127 127
0.067030 0.017357 -0.113846 76 153 0
0.496110 -0.437846 -0.012230 127 127 0
-0.041313 0.606778 -0.103693 76 153 0
-0.053469 -0.079094 -0.114953 76 153 0
0.152730 -0.450809 -0.181989 153 76 0
-0.164386 -0.450608 -0.121742 153 76 0
0.049211 0.259877 -0.136945 76 153 0
0.483756 -0.442628 -0.161319 127 127 0
-0.550062 0.063294 -0.109004 127 127 0
0.698094 -0.486562 -0.004661 127 127 0
0.007049 -0.444190 0.076537 153 76 0
0.069277 0.796857 0.095500 76 153 0
-0.059242 0.783835 0.450948 76 153 0
0.495811 -0.486562 -0.078170 127 127 0
-0.698590 0.042472 -0.030516 127 127 0
0.738320 -0.486562 -0.089647 127 127 0
-0.033979 0.864886 0.371169 76 153 0
0.660133 -0.404264 -0.002706 127 127 0
0.559581 -0.112199 -0.081065 127 0 127
-0.059338 0.588142 0.610574 76 153 0
0.967307 0.005918 -0.046244 0 255 0
-0.005349 0.881745 0.208337 76 153 0
0.006073 0.771518 0.570876 76 153 0
-0.488420 -0.486562 -0.079743 0 127 127
0.069670 0.230873 -0.070061 76 153 0
0.009198 -0.033704 -0.153025 76 153 0
-0.055758 0.823911 0.145808 76 153 0
0.630837 -0.027300 -0.033350 127 127 0
0.032483 0.722655 0.125718 76 153 0
0.066859 0.793498 0.234099 76 153 0
0.068164 0.776945 0.155836 76 153 0
-0.060082 0.657935 -0.028079 76 153 0
-0.603719 0.102769 -0.087597 127 127 0
0.672279 -0.167909 -0.088649 127 127 0
-0.125261 -0.487780 -0.125326 153 76 0
0.973647 0.080104 -0.042528 0 255 0
0.644018 -0.397842 -0.171926 127 127 0
-0.526384 -0.445995 0.052018 0 127 127
-0.047937 0.785160 0.506204 76 153 0
0.071482 0.468290 -0.093687 76 153 0
0.155410 -0.485069 0.005912 153 76 0
-0.656140 -0.286415 -0.105325 76 153 0
-0.671657 -0.486562 0.020243 0 127 127
-0.032798 0.422647 0.608682 76 0 153
0.072620 -0.127360 -0.084895 76 153 0
-0.012441 0.867307 0.143227 76 153 0
0.045161 0.188959 -0.139651 76 153 0
-0.031367 -0.065730 -0.033618 76 153 0
0.031151 0.487532 -0.021194 76 153 0
0.069747 0.840567 0.271834 76 153 0
0.005850 -0.487780 -0.200349 153 76 0
-0.458144 -0.483662 -0.166078 0 127 127
0.597348 -0.431454 -0.213180 127 127 0
-0.040084 -0.283688 -0.039442 76 153 0
0.647125 -0.480470 -0.248174 127 127 0
-0.072173 -0.436100 0.028732 153 76 0
0.056486 -0.191104 -0.129625 76 153 0
-0.121179 -0.487780 0.018784 153 76 0
-0.671141 -0.486562 -0.201149 0 127 127
0.629012 -0.486562 0.058732 127 127 0
0.611105 -0.134207 -0.143186 127 127 0
0.061443 0.388030 -0.122207 76 153 0
-0.826575 0.088427 -0.123960 127 127 0
-0.464575 -0.482219 0.002041 0 127 127
-0.640197 0.023425 -0.034547 127 127 0
0.029263 0.697616 0.628293 76 153 0
-0.621664 -0.205490 -0.033630 76 153 0
0.056634 -0.472248 0.081974 153 76 0
-0.590980 -0.172351 -0.141733 0 127 127
-0.637688 -0.255662 -0.042986 76 153 0
-0.690028 0.023794 -0.139618 127 127 0
0.658748 -0.088138 -0.050859 127 127 0
0.000992 0.460333 -0.152502 76 153 0
0.084128 -0.436957 -0.205855 153 76 0
0.061148 0.548712 0.661026 153 0 76
0.784755 0.021166 -0.036056 0 255 0
0.054798 -0.487780 -0.112764 153 76 0
-0.058998 0.815335 0.306369 76 153 0
-0.556393 -0.262891 -0.055440 76 153 0
-0.056781 0.533283 -0.060195 76 153 0
-0.770568 0.012555 -0.041810 127 127 0
0.821519 0.082455 -0.129820 0 255 0
-0.031932 0.757453 -0.016137 76 153 0
0.564075 -0.025792 -0.110787 0 255 0
-0.544136 -0.334635 -0.082105 0 127 127
-0.561867 -0.486562 -0.105602 0 127 127
0.562324 -0.220630 -0.106643 127 127 0
-0.703718 -0.446067 0.035683 0 127 127
0.029047 0.584250 -0.129833 76 153 0
-0.547147 -0.115145 -0.094803 76 153 0
-0.656104 -0.204603 -0.105508 0 127 127
0.040064 0.102317 -0.143057 76 153 0
0.670871 -0.250393 -0.078191 127 127 0
0.654474 -0.486562 -0.106666 127 127 0
0.961681 0.073603 -0.135734 0 255 0
-0.057288 0.249700 -0.101647 76 153 0
-0.056032 -0.259333 -0.107964 76 153 0
-0.028330 0.687357 0.069296 76 153 0
-0.750212 0.060683 -0.141100 127 127 0
-0.447761 -0.486562 -0.043869 0 127 127
0.843827 0.094804 -0.059503 0 255 0
0.689674 -0.486562 -0.211756 127 127 0
0.070564 0.627353 -0.059112 76 153 0
-0.619442 -0.020911 -0.033188 127 127 0
-0.041705 0.194677 -0.041360 76 153 0
-0.712371 -0.444281 -0.199298 0 127 127
-0.018144 0.657263 -0.100293 76 153 0
-0.661327 -0.412727 -0.002641 76 153 0
0.058305 0.853248 0.187519 76 153 0
-0.051584 -0.487780 -0.085507 153 76 0
0.521792 -0.486562 -0.212711 127 127 0
0.698992 -0.458753 0.054844 127 127 0
-0.007458 0.845810 0.464016 76 153 0
-0.038062 -0.385810 -0.162121 153 76 0
-0.526069 -0.381396 -0.081650 0 127 127
-0.057877 0.063393 -0.075230 76 153 0
-0.748720 -0.007471 -0.106263 127 127 0
0.576455 -0.300681 -0.045698 127 0 127
-0.527069 -0.408807 -0.152073 76 153 0
-0.790397 0.048640 -0.143496 127 127 0
-0.036625 0.537072 -0.127319 76 153 0
0.651133 -0.431776 0.036479 127 127 0
-0.614822 0.036325 -0.142179 127 127 0
0.035666 0.525077 0.690577 153 0 76
0.585142 -0.176167 -0.039894 127 0 127
-0.059763 0.764604 0.079879 76 153 0
-0.586576 -0.486562 0.060802 0 127 127
-0.048493 -0.165000 -0.122399 76 153 0
0.740550 0.020807 -0.036296 0 255 0
-0.092615 -0.413066 -0.133935 153 76 0
-0.012710 0.496872 0.572032 153 0 76
0.026508 -0.168715 -0.149582 76 153 0
-0.008274 0.617608 0.528268 76 153 0
-0.735878 0.096941 -0.111218 127 127 0
0.086447 -0.487780 -0.031851 153 76 0
0.667818 -0.128942 -0.109484 127 0 127
0.092610 -0.487780 -0.227123 153 76 0
0.561459 0.055260 -0.102298 0 255 0
-0.572311 -0.484923 -0.247012 0 127 127
0.589897 -0.020475 -0.036717 0 255 0
0.996199 0.032347 -0.088444 0 255 0
0.703707 0.019824 -0.136965 0 255 0
-0.045548 0.779112 0.225946 76 153 0
0.581421 -0.428211 0.029132 127 127 0
-0.609051 -0.286973 -0.031121 0 127 127
0.737142 -0.446412 -0.190810 127 127 0
0.760934 0.033305 -0.141579 0 255 0
0.585463 -0.340858 -0.139502 127 127 0
-0.027250 0.280970 -0.030867 76 153 0
-0.745955 -0.482242 -0.005666 0 127 127
-0.094131 -0.487780 0.052378 153 76 0
0.038543 -0.379864 -0.165897 153 76 0
0.030437 -0.250601 -0.148800 76 153 0
-0.038040 -0.453412 0.083122 153 76 0
0.057045 0.704434 0.598411 76 153 0
0.059623 0.630030 0.636617 76 153 0
0.044058 0.872151 0.344969 76 153 0
-0.745610 -0.471910 -0.168768 0 127 127
0.035361 0.741466 0.389941 76 153 0
-0.056726 -0.034258 -0.104475 76 153 0
0.895160 0.090841 -0.120347 0 255 0
-0.970106 0.005094 -0.047060 127 127 0
0.922062 -0.007424 -0.106501 0 255 0
0.571294 -0.085338 -0.052327 127 0 127
0.488756 -0.486562 -0.120667 127 127 0
-0.057977 0.794329 0.383589 76 153 0
0.629637 -0.011503 -0.141253 0 255 0
0.028574 0.869696 0.390025 76 153 0
-0.486969 -0.436524 -0.011735 0 127 127
0.708195 -0.421111 -0.147054 127 127 0
-0.635230 0.096089 -0.061426 127 127 0
-0.030490 0.436705 -0.140887 76 153 0
0.727596 0.090937 -0.120203 0 255 0
-0.036074 0.841671 0.435204 76 153 0
-0.643918 -0.447042 0.068131 0 127 127
-0.562495 -0.448513 0.070700 0 127 127
0.033523 0.800494 0.024683 76 153 0
0.127596 -0.436050 -0.016831 153 76 0
-0.119994 -0.487780 -0.033412 153 76 0
0.034565 -0.083582 -0.027187 76 153 0
-0.649084 -0.335685 -0.051143 0 127 127
-0.560964 -0.080724 -0.048599 0 127 127
-0.607358 -0.433801 -0.220902 0 127 127
-0.668447 -0.009452 -0.096303 127 127 0
0.730479 -0.446569 0.027458 127 127 0
-0.101455 -0.450720 -0.224619 153 76 0
-0.765032 -0.483007 -0.061014 0 127 127
0.063177 0.151998 -0.054306 76 153 0
-0.700309 -0.486562 -0.008238 0 127 127
-0.035952 0.454899 -0.036681 76 153 0
0.023102 0.719991 -0.060277 76 153 0
-0.547648 -0.031302 -0.097321 127 127 0
-0.896534 0.082225 -0.043945 127 127 0
-0.576844 -0.348404 -0.028070 76 153 0
-0.057845 -0.289898 -0.075071 76 153 0
-0.658707 -0.250228 -0.081496 76 153 0
0.595347 -0.481178 -0.250451 127 127 0
-0.577206 0.051491 -0.036630 127 127 0
0.070057 0.724708 0.003868 76 153 0
0.567136 -0.445680 -0.237705 127 127 0
-0.077891 -0.452312 0.067767 153 76 0
0.751890 -0.436629 -0.109900 127 127 0
0.055597 -0.106972 -0.130955 76 153 0
0.044857 0.569120 -0.012041 76 153 0
-0.058464 0.824449 0.357084 76 153 0
-0.723658 -0.431088 -0.046335 0 127 127
0.529242 -0.486562 -0.046043 127 127 0
-0.637114 -0.387033 -0.158830 76 153 0
0.034233 0.643471 0.516227 76 153 0
-0.629009 -0.203117 -0.136731 0 127 127
-0.037234 0.759136 0.368430 76 153 0
0.571171 0.080750 -0.052511 0 255 0
0.696366 -0.390129 -0.074401 127 127 0
-0.062927 -0.487780 -0.201185 153 76 0
0.046846 0.453027 -0.035393 76 153 0
-0.040341 0.488637 0.684971 153 0 76
0.048281 0.372387 -0.036352 76 153 0
-0.980235 0.088988 -0.123120 127 127 0
0.747923 -0.486562 0.001416 127 127 0
0.067431 0.766762 0.516053 76 153 0
0.493027 -0.486562 0.012256 127 127 0
0.069902 0.577526 0.601415 76 153 0
0.003646 -0.004920 -0.020889 76 153 0
0.020360 0.263102 -0.023113 76 153 0
0.072666 0.810317 0.377115 76 153 0
-0.055149 0.119523 -0.061516 76 153 0
0.015545 0.412723 -0.022156 76 153 0
-0.701409 -0.415968 -0.129446 76 153 0
-0.043220 0.763211 0.547052 76 153 0
0.670625 -0.027300 -0.094367 127 0 127
-0.038423 0.682307 -0.069713 76 153 0
-0.057431 0.420545 -0.072991 76 153 0
0.022863 0.657192 -0.102057 76 153 0
0.056892 0.694845 0.493791 76 153 0
-0.001362 -0.183096 -0.021885 76 153 0
-0.058929 0.468861 0.632972 153 0 76
0.454922 -0.459463 -0.121716 127 127 0
-0.047026 0.740876 0.109044 76 153 0
0.038739 0.859340 0.140010 76 153 0
0.026719 0.183182 -0.024378 76 153 0
0.131882 -0.487780 0.039899 153 76 0
0.098463 -0.446744 0.052373 153 76 0
0.068610 0.675143 -0.042231 76 153 0
-0.625711 -0.034993 -0.138935 0 127 127
-0.032386 -0.458570 -0.258165 153 76 0
0.071245 0.084294 -0.077982 76 153 0
-0.015169 0.303564 -0.149287 76 153 0
-0.057574 0.139458 -0.100209 76 153 0
-0.015957 -0.199330 -0.149130 76 153 0
-0.610985 -0.323942 -0.143815 0 127 127
0.070039 -0.303265 -0.102002 76 153 0
0.010005 0.575205 0.548084 76 153 0
0.650520 -0.198318 -0.130925 127 0 127
0.010756 -0.487780 -0.240830 153 76 0
-0.060110 0.691257 -0.002234 76 153 0
-0.887778 -0.006036 -0.063718 127 127 0
0.069098 -0.487780 -0.152700 153 76 0
-0.038417 0.106248 -0.135590 76 153 0
-0.033578 0.184723 -0.138824 76 153 0
-0.714882 -0.486562 -0.131191 0 127 127
0.548022 -0.484527 0.064336 127 127 0
-0.018069 0.587705 -0.128060 76 153 0
0.068338 -0.045806 -0.110554 76 153 0
0.145301 -0.435230 -0.095981 153 76 0
-0.019589 0.721490 -0.056588 76 153 0
0.029192 0.438205 0.666093 76 0 153
-0.022317 0.760122 0.330170 76 153 0
-0.045358 0.782414 0.290032 76 153 0
-0.639556 -0.448268 -0.245090 0 127 127
-0.515186 -0.485879 -0.223287 0 127 127
0.172594 -0.487780 -0.116664 153 76 0
-0.051806 0.616955 0.635033 76 153 0
0.489871 -0.486562 -0.186206 127 127 0
0.015063 0.604709 0.677849 76 153 0
0.072364 0.317580 -0.083608 76 153 0
-0.035269 0.144108 -0.036225 76 153 0
0.687852 -0.486562 -0.152637 127 127 0
0.027838 0.337107 -0.024601 76 153 0
-0.011812 -0.406976 0.015057 153 76 0
0.005368 0.666927 0.649342 76 153 0
0.040738 0.754665 0.571451 76 153 0
-0.689699 -0.396505 -0.075066 0 127 127
0.721356 -0.432333 -0.012830 127 127 0
-0.629452 -0.059068 -0.037483 76 153 0
-0.441139 -0.454437 -0.116878 0 127 127
0.067202 -0.487780 0.033998 153 76 0
0.017452 -0.417102 -0.200808 153 76 0
0.177060 -0.449501 -0.055827 153 76 0
0.995667 0.088030 -0.120118 0 255 0
0.760463 -0.471816 -0.165728 127 127 0
-0.690739 -0.465043 -0.225710 0 127 127
0.106574 -0.487780 -0.072898 153 76 0
0.570340 -0.169027 -0.120163 127 0 127
0.052951 0.845819 0.414555 76 153 0
0.044004 0.804229 0.508477 76 153 0
-0.558979 0.086727 -0.051570 127 127 0
-0.160971 -0.487780 -0.048617 153 76 0
0.531204 -0.448628 -0.226136 127 127 0
-0.631539 -0.142942 -0.038877 76 153 0
0.577402 -0.258692 -0.045065 127 0 127
-0.600293 -0.434228 0.048352 0 127 127
-0.024050 0.765691 0.255036 76 153 0
-0.764928 0.102707 -0.087907 127 127 0
-0.611701 -0.486562 -0.142178 0 127 127
0.044722 0.748788 -0.026372 76 153 0
0.670396 -0.355875 -0.124041 127 0 127
-0.057007 -0.016154 -0.070860 76 153 0
0.851688 0.096250 -0.112252 0 255 0
-0.022382 0.812644 0.506367 76 153 0
-0.058636 -0.223320 -0.094869 76 153 0
-0.821663 0.080480 -0.042779 127 127 0
0.042506 0.023425 -0.141425 76 153 0
0.996199 0.011770 -0.124509 0 255 0
-0.871148 0.050885 -0.143049 127 127 0
-0.162726 -0.487780 -0.118444 153 76 0
0.570514 -0.486562 0.034161 127 127 0
0.032158 0.228722 -0.148340 76 153 0
-0.053433 -0.339335 -0.121987 76 153 0
-0.660249 -0.320102 -0.089888 76 153 0
-0.666948 -0.363066 -0.115058 0 127 127
-0.005700 -0.237798 -0.151171 76 153 0
0.072094 0.776699 0.444361 76 153 0
0.127019 -0.487780 -0.152391 153 76 0
-0.034689 -0.256834 -0.138081 76 153 0
0.704551 -0.486562 -0.074539 127 127 0
-0.551398 -0.394924 -0.017569 0 127 127
-0.018115 0.723258 0.608213 76 153 0
-0.624290 -0.486562 0.071047 0 127 127
-0.676358 0.010551 -0.043149 127 127 0
-0.696787 -0.486562 -0.065168 0 127 127
0.714008 -0.453572 -0.218729 127 127 0
-0.618221 0.055005 -0.031689 127 127 0
0.042810 0.300924 -0.032696 76 153 0
-0.713059 0.075261 -0.039292 127 127 0
0.071765 0.705661 0.532186 76 153 0
0.523158 -0.486562 -0.009032 127 127 0
-0.816590 -0.010559 -0.083177 127 127 0
0.521768 -0.431611 -0.176462 127 127 0
-0.755443 0.084933 -0.045754 127 127 0
0.529755 -0.436813 0.022457 127 127 0
0.068240 0.439607 -0.062874 76 153 0
-0.041465 0.524881 0.677188 153 0 76
0.456700 -0.483572 -0.043544 127 127 0
0.046126 0.744729 0.151826 76 153 0
0.061397 0.630684 0.553460 76 153 0
0.065723 -0.207856 -0.058118 76 153 0
-0.754203 -0.444684 -0.120729 0 127 127
-0.011198 0.547228 -0.009769 76 153 0
0.013913 0.701538 0.102073 76 153 0
-0.808546 0.101813 -0.092401 127 127 0
-0.057087 0.706696 0.561056 76 153 0
-0.002913 0.703102 0.447087 76 153 0
-0.056300 -0.146266 -0.067302 76 153 0
-0.947406 0.052038 -0.142820 127 127 0
-0.058529 0.661841 0.567425 76 153 0
0.776710 -0.486562 -0.085273 127 127 0
0.616259 -0.486562 -0.177473 127 127 0
-0.521916 -0.486562 -0.017310 0 127 127
0.038477 0.874725 0.209546 76 153 0
-0.150920 -0.451041 -0.165835 153 76 0
-0.001319 0.474299 0.704313 153 0 76
-0.004538 0.378924 -0.151402 76 153 0
0.018915 -0.487780 -0.000766 153 76 0
0.038094 0.056170 -0.029546 76 153 0
-0.581175 -0.019209 -0.034136 127 127 0
-0.056617 0.710364 0.038486 76 153 0
0.557590 -0.486562 -0.205908 127 127 0
0.581466 -0.449701 0.072849 127 127 0
0.073003 0.689342 -0.004082 76 153 0
-0.491405 -0.486562 -0.150667 0 127 127
-0.025019 0.877636 0.327217 76 153 0
-0.047227 0.353687 -0.124294 76 153 0
-0.983378 0.077659 -0.059992 127 127 0
-0.051701 0.602981 0.573320 76 153 0
-0.614760 -0.252277 -0.141662 76 153 0
0.664908 -0.333494 -0.056003 127 0 127
0.072714 0.048981 -0.088553 76 153 0
-0.836242 0.033582 -0.032285 127 127 0
-0.022242 -0.004023 -0.146398 76 153 0
-0.024920 0.375358 -0.029310 76 153 0
0.053724 -0.227004 -0.133759 76 153 0
0.020523 0.751153 0.206015 76 153 0
-0.053434 0.706945 0.501731 76 153 0
-0.057757 0.195492 -0.074626 76 153 0
-0.904877 0.095633 -0.113175 127 127 0
-0.927450 0.019204 -0.136551 127 127 0
-0.472590 -0.435062 -0.049363 0 127 127
-0.644957 -0.182424 -0.049408 76 153 0
-0.010718 0.060710 -0.150173 76 153 0
-0.140221 -0.451366 0.008380 153 76 0
0.046059 0.682944 0.058712 76 153 0
-0.008293 0.339010 -0.023264 76 153 0
0.029475 -0.256394 -0.024927 76 153 0
0.769799 -0.009278 -0.097182 0 255 0
0.147758 -0.487780 -0.187145 153 76 0
-0.032578 0.429527 0.667094 76 0 153
-0.545778 0.009940 -0.087918 127 127 0
0.012896 0.326855 -0.152290 76 153 0
-0.129680 -0.487780 -0.178590 153 76 0
-0.724483 0.033965 -0.141710 127 127 0
0.540045 -0.402404 -0.032289 127 0 127
-0.468466 -0.452929 -0.181782 0 127 127
0.467037 -0.465539 -0.013463 127 127 0
0.017517 0.884973 0.320619 76 153 0
0.559452 -0.148080 -0.081710 127 0 127
-0.022371 0.804743 0.031647 76 153 0
0.038494 0.755270 0.355789 76 153 0
0.958012 0.101313 -0.079003 0 255 0
-0.023820 0.740385 0.395784 76 153 0
-0.057568 0.806950 0.422643 76 153 0
-0.051256 0.378483 -0.055654 76 153 0
0.672688 -0.317536 -0.090588 127 0 127
-0.054796 0.477095 -0.110935 76 153 0
0.066294 0.847665 0.331176 76 153 0
-0.004046 0.205975 -0.022419 76 153 0
0.053239 -0.355642 -0.144202 76 153 0
-0.546320 -0.271335 -0.090643 0 127 127
-0.583947 -0.402417 -0.178189 0 127 127
0.696433 -0.004731 -0.112154 0 255 0
-0.747029 -0.006768 -0.064813 127 127 0
-0.052370 -0.487780 -0.018994 153 76 0
0.696593 0.099749 -0.071143 0 255 0
-0.108389 -0.421801 -0.048590 153 76 0
0.566233 -0.050974 -0.059901 127 0 127
0.023595 0.759689 0.284544 76 153 0
-0.054058 0.460968 0.667534 153 0 76
-0.657195 -0.045311 -0.073894 0 127 127
0.996199 0.066583 -0.079237 0 255 0
-0.033643 0.652317 0.519233 76 153 0
0.108100 -0.405851 -0.071564 153 76 0
0.777210 0.099985 -0.072330 0 255 0
-0.634428 -0.296422 -0.133110 0 127 127
-0.658268 -0.171018 -0.094626 0 127 127
-0.082486 -0.420065 -0.008029 153 76 0
-0.020478 -0.487780 0.086207 153 76 0
-0.158128 -0.444634 -0.085756 153 76 0
0.618182 -0.359464 -0.018530 127 0 127
-0.983378 0.021184 -0.104977 127 127 0
0.773797 -0.452317 -0.133299 127 127 0
-0.059122 0.526852 0.623889 153 0 76
-0.656880 -0.113331 -0.072313 76 153 0
0.030188 0.668060 0.491329 76 153 0
-0.045006 -0.112952 -0.127618 76 153 0
-0.054956 -0.214162 -0.061191 76 153 0
0.632682 -0.486562 -0.059060 127 127 0
-0.576701 0.094944 -0.114207 127 127 0
-0.948560 0.029039 -0.033189 127 127 0
-0.540924 -0.470074 -0.242176 0 127 127
0.784873 0.010211 -0.130542 0 255 0
0.064270 0.008546 -0.055942 76 153 0
-0.570342 -0.156825 -0.041216 0 127 127
-0.871812 0.097486 -0.063516 127 127 0
-0.679422 -0.454727 0.059353 0 127 127
0.897314 0.048673 -0.030429 0 255 0
0.052260 0.872715 0.263424 76 153 0
0.033968 0.690099 -0.078314 76 153 0
0.448407 -0.450701 -0.088237 127 127 0
-0.655719 -0.421610 -0.184920 0 127 127
0.015609 0.802354 0.531992 76 153 0
-0.028149 0.857572 0.404837 76 153 0
-0.021912 -0.344029 -0.021890 76 153 0
-0.047317 0.454053 0.603594 153 0 76
0.677914 -0.369525 -0.051552 127 127 0
0.664671 -0.219684 -0.059724 127 0 127
0.019208 0.836198 0.072871 76 153 0
0.632543 -0.073093 -0.033244 127 0 127
0.055254 -0.151284 -0.042449 76 153 0
0.055259 0.619407 -0.000353 76 153 0
0.053789 0.828022 0.096630 76 153 0
0.966525 0.036285 -0.142171 0 255 0
0.000759 0.679923 0.475683 76 153 0
0.689895 -0.384575 -0.109870 127 127 0
-0.024374 0.021823 -0.028945 76 153 0
0.072833 -0.364467 -0.047260 76 153 0
0.643135 -0.123033 -0.135859 127 127 0
0.621633 -0.180312 -0.142845 127 127 0
0.058191 0.722199 0.462919 76 153 0
-0.054439 -0.427980 -0.200627 153 76 0
0.652903 0.099127 -0.105905 0 255 0
0.590130 0.039923 -0.036561 0 255 0
0.069858 -0.172497 -0.102910 76 153 0
0.022884 0.773393 -0.013032 76 153 0
-0.694752 -0.430220 -0.000214 0 127 127
-0.037399 0.641948 0.022138 76 153 0
0.069262 0.729537 0.063356 76 153 0
0.031508 0.715551 0.433820 76 153 0
0.892733 -0.005235 -0.062518 0 255 0
0.002856 -0.487780 -0.127749 153 76 0
0.046649 -0.453156 -0.257879 153 76 0
-0.004128 0.889524 0.260906 76 153 0
-0.056850 0.038449 -0.103848 76 153 0
0.049406 0.422165 0.594221 153 0 76
0.045887 0.592473 0.667691 76 153 0
0.573648 0.011547 -0.048804 0 255 0
-0.045360 0.665105 0.620600 76 153 0
-0.058813 0.747070 0.043768 76 153 0
0.693696 0.075186 -0.134677 0 255 0
0.650939 -0.443119 -0.234784 127 127 0
0.026129 0.885960 0.284222 76 153 0
-0.001000 -0.066530 -0.152106 76 153 0
-0.580883 -0.486562 -0.183473 0 127 127
-0.572686 0.043703 -0.134269 127 127 0
-0.637548 -0.486562 -0.208335 0 127 127
-0.616321 0.091394 -0.119520 127 127 0
-0.568230 -0.486562 0.031783 0 127 127
-0.003327 0.431716 0.686861 76 0 153
-0.672838 0.083358 -0.129216 127 127 0
0.610157 -0.259564 -0.142997 127 127 0
0.571887 -0.060766 -0.122479 127 0 127
-0.546263 -0.147391 -0.083560 0 127 127
-0.669540 -0.383755 -0.048222 76 153 0
0.834594 -0.011148 -0.086138 0 255 0
-0.573485 -0.406673 0.006209 0 127 127
-0.000605 0.237126 -0.152184 76 153 0
-0.553877 -0.048560 -0.059205 76 153 0
-0.085398 -0.487780 -0.082007 153 76 0
-0.630372 -0.104198 -0.135821 76 153 0
0.070962 0.427391 0.654261 153 0 76
-0.056834 0.787001 0.159738 76 153 0
0.079944 -0.411227 -0.166401 153 76 0
0.896217 0.048362 -0.143551 0 255 0
-0.945292 0.101415 -0.079517 127 127 0
0.590892 -0.376842 -0.157930 127 127 0
0.675327 -0.412333 -0.170050 127 127 0
0.059180 0.780657 0.333889 76 153 0
-0.655517 -0.140279 -0.108456 76 153 0
0.007874 -0.306006 -0.153289 76 153 0
0.563682 -0.095659 -0.110199 127 127 0
0.794258 0.053299 -0.031349 0 255 0
0.743823 0.085713 -0.046275 0 255 0
0.038993 0.516132 -0.137024 76 153 0
0.673660 -0.435350 -0.211118 127 127 0
0.058891 -0.382621 -0.019993 153 76 0
-0.045539 0.319077 -0.126820 76 153 0
0.855342 -0.001669 -0.057182 0 255 0
0.069788 0.748274 0.030571 76 153 0
-0.008597 0.128219 -0.023324 76 153 0
0.024910 -0.325028 -0.021988 76 153 0
0.834568 0.054159 -0.142398 0 255 0
0.655547 -0.486562 -0.214184 127 127 0
-0.097806 -0.487780 -0.007752 153 76 0
-0.037355 -0.244242 -0.037618 76 153 0
-0.579926 -0.486562 -0.059978 0 127 127
0.069246 0.286984 -0.067929 76 153 0
0.071716 0.755439 0.473328 76 153 0
0.071815 0.198122 -0.080844 76 153 0
0.626930 -0.389490 -0.006481 127 0 127
-0.616596 -0.360642 -0.020297 76 153 0
0.063460 0.670252 0.021709 76 153 0
-0.036033 0.521065 0.579273 153 0 76
0.968473 0.048054 -0.030306 0 255 0
-0.044935 0.256995 -0.046194 76 153 0
-0.068153 -0.367223 -0.059794 76 153 0
-0.779482 -0.001092 -0.117601 127 127 0
-0.055766 0.326728 -0.064619 76 153 0
0.072353 0.825234 0.301328 76 153 0
-0.000391 -0.220226 -0.021692 76 153 0
0.119974 -0.443044 -0.200573 153 76 0
0.917926 0.018035 -0.038148 0 255 0
0.072918 0.457968 0.640016 153 0 76
0.554855 -0.486562 -0.153754 127 127 0
0.176300 -0.458635 -0.132378 153 76 0
0.617268 -0.188376 -0.030205 127 0 127
-0.902393 0.015925 -0.039558 127 127 0
0.623844 0.092931 -0.056699 0 255 0
-0.133617 -0.436966 -0.111172 153 76 0
0.057909 0.574212 -0.110603 76 153 0
0.069554 0.778310 0.411314 76 153 0
-0.008216 0.073238 -0.023248 76 153 0
-0.008449 -0.145758 -0.023295 76 153 0
-0.049422 0.503186 -0.047075 76 153 0
-0.635309 -0.354333 -0.144102 0 127 127
-0.056111 -0.487780 -0.148827 153 76 0
-0.983378 0.023999 -0.071965 127 127 0
-0.037100 0.775993 0.012012 76 153 0
-0.596386 -0.486562 -0.001949 0 127 127
0.657217 -0.486562 -0.140119 127 127 0
-0.036760 -0.355525 -0.146587 76 153 0
0.646787 -0.277697 -0.040499 127 0 127
-0.553395 -0.213120 -0.059926 76 153 0
0.068519 -0.087389 -0.064277 76 153 0
-0.006264 -0.384184 -0.172065 153 76 0
0.680545 -0.486562 -0.035361 127 127 0
-0.054191 -0.487780 0.042025 153 76 0
0.624196 -0.051180 -0.142335 127 0 127
0.523528 -0.463413 0.049162 127 127 0
-0.658781 -0.078813 -0.092048 76 153 0
-0.608771 -0.486562 -0.243866 0 127 127
-0.058067 0.566138 -0.058583 76 153 0
0.558921 0.010093 -0.089538 0 255 0
-0.057975 -0.093405 -0.075725 76 153 0
0.083430 -0.372753 -0.113571 76 153 0
-0.039682 0.311328 -0.039173 76 153 0
-0.643272 -0.074588 -0.127032 76 153 0
0.706188 -0.486562 -0.180914 127 127 0
0.024987 0.544648 0.560671 76 153 0
-0.880994 0.047903 -0.030276 127 127 0
-0.059126 0.296518 -0.092409 76 153 0
0.920764 0.075255 -0.134630 0 255 0
0.733492 -0.010756 -0.089750 0 255 0
0.000282 -0.487780 -0.161865 153 76 0
0.681434 -0.486011 0.063633 127 127 0
0.057381 0.077071 -0.045632 76 153 0
-0.006704 0.844471 0.090967 76 153 0
0.066530 -0.425669 0.023491 153 76 0
0.588654 0.042904 -0.136372 0 255 0
0.611088 -0.467463 0.079664 127 127 0
0.058657 0.454107 0.601359 153 0 76
-0.767346 -0.483156 -0.101270 0 127 127
-0.875922 0.101135 -0.095811 127 127 0
0.727410 0.053084 -0.031307 0 255 0
-0.560400 0.015771 -0.049442 127 127 0
-0.718072 -0.009806 -0.079393 127 127 0
0.070082 0.738141 0.531314 76 153 0
-0.037128 0.867132 0.210631 76 153 0
-0.047878 0.082141 -0.050599 76 153 0
-0.050338 -0.180473 -0.054281 76 153 0
0.053599 0.493498 0.589089 153 0 76
0.174129 -0.487780 -0.082667 153 76 0
-0.017893 0.734785 0.153517 76 153 0
0.631987 -0.324107 -0.142204 127 127 0
-0.041890 0.569183 0.572978 76 153 0
0.850578 -0.003629 -0.113803 0 255 0
-0.847977 -0.000518 -0.118460 127 127 0
-0.580600 -0.070690 -0.139557 76 153 0
0.596571 0.098676 -0.108172 0 255 0
0.069459 -0.253957 -0.104916 76 153 0
0.567641 -0.410514 -0.176004 127 0 127
-0.035020 -0.291963 -0.137860 76 153 0
0.007448 0.541338 0.694327 153 0 76
0.726158 -0.000714 -0.055752 0 255 0
-0.488537 -0.483905 0.033890 0 127 127
-0.442784 -0.449050 -0.055959 0 127 127
-0.588883 -0.131398 -0.032602 76 153 0
0.617497 -0.241262 -0.030251 127 0 127
-0.014896 0.127542 -0.149341 76 153 0
0.504259 -0.420021 -0.088626 127 0 127
-0.938166 -0.011299 -0.086899 127 127 0
0.109287 -0.453246 -0.229274 153 76 0
-0.497722 -0.426393 -0.139888 0 127 127
0.536778 -0.397152 -0.127983 127 127 0
-0.513660 -0.437654 0.022399 0 127 127
0.910261 0.102273 -0.083832 0 255 0
0.054528 0.599111 0.558456 76 153 0
0.037143 0.666960 0.639874 76 153 0
0.058704 -0.074734 -0.126306 76 153 0
0.661301 -0.235247 -0.119238 127 0 127
-0.037084 0.677497 0.499467 76 153 0
-0.620634 -0.486562 -0.061472 0 127 127
0.600365 0.001824 -0.141050 0 255 0
-0.056373 0.807706 0.118045 76 153 0
0.071165 0.251847 -0.096338 76 153 0
-0.774815 0.062185 -0.033117 127 127 0
0.840299 0.020366 -0.036591 0 255 0
-0.054778 0.405426 -0.112994 76 153 0
-0.067975 -0.400088 -0.152517 153 76 0
-0.007905 0.875028 0.174047 76 153 0
-0.019909 0.612953 0.015370 76 153 0
-0.619569 -0.392999 -0.004254 0 127 127
-0.512479 -0.486562 -0.056339 0 127 127
-0.497363 -0.414292 -0.082704 76 153 0
-0.014970 0.419554 0.581915 76 0 153
0.015834 0.570911 0.001432 76 153 0
-0.056633 0.829537 0.179808 76 153 0
0.651622 -0.372931 -0.150489 127 0 127
-0.578374 -0.425938 -0.200117 0 127 127
0.952477 -0.009348 -0.096829 0 255 0
0.042970 0.822846 0.481341 76 153 0
-0.047207 -0.040231 -0.049594 76 153 0
-0.685625 -0.007821 -0.069412 127 127 0
0.497226 -0.486562 -0.151461 127 127 0
0.037321 -0.036080 -0.029029 76 153 0
0.107188 -0.417660 -0.142337 153 76 0
-0.057744 0.171352 -0.099358 76 153 0
-0.877509 -0.007060 -0.108333 127 127 0
-0.058439 0.627162 -0.036249 76 153 0
-0.680453 -0.486562 -0.037798 0 127 127
0.053426 -0.321117 -0.038016 76 153 0
0.019667 0.492558 0.571850 153 0 76
0.717482 -0.414269 -0.065940 127 0 127
-0.681934 -0.389609 -0.105144 76 153 0
0.047019 -0.487780 -0.176180 153 76 0
0.058573 0.780671 0.033493 76 153 0
0.593652 -0.098817 -0.034208 127 127 0
0.646242 -0.292283 -0.133783 127 0 127
0.672379 -0.058385 -0.088145 127 127 0
0.030537 -0.119224 -0.025138 76 153 0
-0.575367 -0.285466 -0.037858 76 153 0
0.682355 0.068500 -0.034775 0 255 0
0.082547 -0.487780 -0.097635 153 76 0
-0.492460 -0.448917 -0.209081 0 127 127
0.034083 -0.487780 -0.073727 153 76 0
0.070933 -0.056370 -0.076414 76 153 0
-0.025616 0.705786 0.094717 76 153 0
0.542393 -0.370359 -0.086094 127 127 0
-0.691572 -0.486562 0.045594 0 127 127
0.730846 -0.486562 -0.121021 127 127 0
-0.013086 0.425803 -0.024217 76 153 0
0.792179 -0.007743 -0.069021 0 255 0
0.591873 -0.486562 -0.061692 127 127 0
0.034917 0.397441 -0.146496 76 153 0
0.062277 -0.027070 -0.052960 76 153 0
-0.744537 -0.438758 -0.068545 0 127 127
0.065268 0.315358 -0.116482 76 153 0
0.484564 -0.434150 -0.063470 127 127 0
0.070442 0.695645 0.567466 76 153 0
-0.736803 0.022417 -0.035220 127 127 0
0.032047 0.458427 -0.148413 76 153 0
0.053305 -0.487780 -0.035438 153 76 0
-0.590504 -0.486562 -0.119098 0 127 127
0.659912 -0.160698 -0.052602 127 127 0
0.071439 0.605330 0.615748 76 153 0
-0.717939 -0.486562 -0.168848 0 127 127
-0.003713 0.631835 0.665763 76 153 0
-0.529077 -0.486562 -0.088190 0 127 127
0.570151 -0.358505 -0.036374 127 0 127
0.015690 -0.354310 -0.014316 76 153 0
-0.572021 -0.285399 -0.133825 76 153 0
0.053002 -0.182985 -0.039506 76 153 0
-0.014451 0.750678 0.584291 76 153 0
0.156965 -0.487780 -0.025200 153 76 0
0.559916 -0.329218 -0.104104 127 0 127
-0.579899 -0.101563 -0.034830 0 127 127
0.026287 -0.007780 -0.149626 76 153 0
-0.531267 -0.388837 -0.125059 0 127 127
-0.630791 -0.433498 0.041671 0 127 127
0.927721 0.010999 -0.131069 0 255 0
-0.001083 0.481712 -0.018477 76 153 0
0.068762 0.569043 -0.045914 76 153 0
0.763699 -0.444872 -0.034447 127 127 0
0.149828 -0.448437 0.006752 153 76 0
0.020311 0.821514 0.045057 76 153 0
-0.547598 -0.301605 -0.076849 76 153 0
0.072096 0.784944 0.125971 76 153 0
0.600560 -0.226811 -0.141088 127 0 127
0.531377 -0.486562 -0.077888 127 127 0
0.015725 0.122386 -0.151727 76 153 0
-0.044172 0.749849 0.138711 76 153 0
0.070189 -0.235191 -0.072672 76 153 0
0.136231 -0.487780 -0.122603 153 76 0
-0.046145 -0.487780 -0.255137 153 76 0
-0.055232 0.069357 -0.111983 76 153 0
0.071248 0.645212 0.595849 76 153 0
-0.021297 0.663187 0.051053 76 153 0
0.060777 0.549308 0.586984 153 0 76
0.593934 -0.164155 -0.139770 127 127 0
-0.555013 -0.228013 -0.116414 76 153 0
-0.056328 0.592063 -0.080847 76 153 0
0.859696 0.043841 -0.030244 0 255 0
-0.048221 0.592551 -0.021047 76 153 0
0.067669 0.834660 0.163481 76 153 0
0.037861 -0.446960 0.077612 153 76 0
-0.055747 0.660558 0.002459 76 153 0
-0.057536 0.807086 0.232242 76 153 0
0.065328 0.446636 -0.116393 76 153 0
0.022892 0.628995 0.030039 76 153 0
-0.011413 -0.486257 -0.262337 153 76 0
0.068985 0.602591 -0.077537 76 153 0
0.692991 0.004101 -0.048547 0 255 0
0.590978 -0.486562 -0.006358 127 127 0
0.915724 0.072457 -0.037418 0 255 0
-0.585171 -0.318989 -0.032408 76 153 0
0.108744 -0.417936 -0.033246 153 76 0
-0.573639 -0.127181 -0.134905 0 127 127
0.967175 0.098646 -0.108323 0 255 0
0.675952 -0.390837 -0.029086 127 127 0
0.072316 0.510053 0.629773 153 0 76
0.019143 0.432351 0.624222 76 0 153
-0.634841 -0.430090 -0.207469 0 127 127
0.014354 -0.283057 -0.021919 76 153 0
0.561920 -0.251525 -0.104613 127 127 0
-0.514605 -0.480785 0.051767 0 127 127
0.659451 -0.073093 -0.122006 127 127 0
-0.037962 0.850461 0.139970 76 153 0
-0.644119 -0.486562 0.038198 0 127 127
-0.060559 -0.319698 -0.082114 76 153 0
0.060658 0.819067 0.454761 76 153 0
0.064161 -0.294636 -0.055780 76 153 0
-0.494917 -0.486562 0.000054 0 127 127
-0.657134 -0.486562 -0.150750 0 127 127
-0.057688 0.837890 0.255826 76 153 0
-0.596670 -0.043988 -0.142865 76 153 0
0.564657 0.087158 -0.111659 0 255 0
-0.556792 -0.068431 -0.119076 76 153 0
0.009868 -0.097522 -0.152892 76 153 0
0.678480 -0.485319 -0.240134 127 127 0
0.890890 0.092939 -0.056712 0 255 0
0.017451 -0.392168 0.004781 153 76 0
-0.001448 0.578279 0.684235 153 0 76
0.062519 0.505144 -0.115059 76 153 0
0.671261 -0.285083 -0.093762 127 0 127
0.071026 0.814743 0.255710 76 153 0
-0.547721 0.072944 -0.076233 127 127 0
0.996199 0.005490 -0.055709 0 255 0
-0.568107 -0.234087 -0.042709 76 153 0
-0.021394 0.031672 -0.146965 76 153 0
0.584630 -0.486562 -0.219806 127 127 0
-0.047799 0.721894 0.470014 76 153 0
-0.004203 0.874984 0.381594 76 153 0
-0.009136 0.748779 0.191282 76 153 0
-0.569688 -0.011117 -0.132266 127 127 0
-0.055093 0.587496 0.641490 76 153 0
0.069622 0.546117 -0.093216 76 153 0
-0.034387 0.763092 0.201848 76 153 0
0.079533 -0.452832 0.075236 153 76 0
0.046564 0.513355 -0.027934 76 153 0
0.618218 0.060500 -0.141137 0 255 0
-0.100288 -0.437790 0.012839 153 76 0
0.524331 -0.426970 -0.011208 127 127 0
-0.733282 0.006618 -0.128142 127 127 0
-0.553103 -0.486562 -0.171498 0 127 127
-0.055398 0.755440 0.441257 76 153 0
0.568687 -0.198971 -0.056228 127 127 0
-0.036517 0.224142 -0.037058 76 153 0
-0.527311 -0.399087 -0.037689 76 153 0
0.477477 -0.439447 -0.131982 127 127 0
0.782196 0.099622 -0.103416 0 255 0
0.643937 -0.132815 -0.038595 127 127 0
-0.467809 -0.452647 0.006880 0 127 127
0.669224 -0.191731 -0.069913 127 127 0
0.559719 0.075803 -0.080371 0 255 0
-0.632606 -0.486562 -0.091820 0 127 127
0.540920 -0.413108 -0.160786 127 0 127
0.045076 0.339872 -0.139708 76 153 0
0.033645 -0.291674 -0.147346 76 153 0
0.687047 -0.417005 -0.006495 127 127 0
0.609498 -0.306330 -0.031052 127 0 127
0.589791 -0.280765 -0.137131 127 0 127
-0.020784 -0.037251 -0.026546 76 153 0
-0.552259 -0.330793 -0.115914 76 153 0
-0.551219 -0.343420 -0.053509 76 153 0
0.532130 -0.394599 -0.065880 127 0 127
-0.446976 -0.464245 -0.146226 0 127 127
-0.813423 0.027790 -0.140482 127 127 0
-0.547835 -0.486562 -0.132018 0 127 127
-0.049926 0.726328 -0.018424 76 153 0
-0.656352 0.032091 -0.141337 127 127 0
0.638773 -0.486562 0.025513 127 127 0
0.650062 0.027480 -0.140420 0 255 0
0.007262 0.753268 0.327108 76 153 0
-0.679750 -0.486562 -0.130339 0 127 127
-0.634677 -0.305682 -0.040975 0 127 127
-0.087969 -0.438939 -0.200803 153 76 0
-0.021334 0.267876 -0.147005 76 153 0
0.068182 -0.013966 -0.111336 76 153 0
-0.048187 -0.409348 -0.177302 153 76 0
-0.031237 0.828652 0.081931 76 153 0
0.754080 -0.486562 -0.059946 127 127 0
-0.484682 -0.428381 -0.113247 0 127 127
-0.059256 0.452065 -0.082164 76 153 0
-0.943268 0.058763 -0.032436 127 127 0
-0.032173 0.434860 0.636106 76 0 153
-0.617402 -0.156526 -0.141136 76 153 0
-0.022750 -0.487780 -0.097813 153 76 0
-0.059948 0.557586 0.620917 153 0 76
0.733029 0.023659 -0.139528 0 255 0
0.069485 0.348444 -0.069132 76 153 0
0.066470 0.187852 -0.114683 76 153 0
-0.004010 -0.487780 0.026113 153 76 0
0.078521 -0.487780 -0.200483 153 76 0
-0.033206 0.875813 0.277939 76 153 0
0.680272 -0.486562 -0.092328 127 127 0
0.603535 -0.486562 -0.116460 127 127 0
0.072146 0.768206 0.089063 76 153 0
-0.642358 -0.116473 -0.046107 0 127 127
-0.758007 -0.454655 -0.148224 0 127 127
0.695480 -0.486562 0.024713 127 127 0
0.886088 -0.006284 -0.109830 0 255 0
0.040404 0.026838 -0.031089 76 153 0
0.627466 0.039549 -0.031098 0 255 0
-0.005045 -0.487780 -0.028405 153 76 0
-0.102435 -0.487780 -0.144524 153 76 0
-0.055770 0.759955 0.519197 76 153 0
0.010307 0.656416 0.053249 76 153 0
-0.755660 -0.486562 -0.033096 0 127 127
-0.571264 -0.486562 -0.031884 0 127 127
0.618677 -0.383435 -0.164818 127 0 127
-0.058291 0.353082 -0.077314 76 153 0
0.750811 0.065973 -0.140048 0 255 0
-0.032854 -0.386878 -0.007320 153 76 0
0.583891 -0.408546 0.007498 127 127 0
-0.637898 -0.132106 -0.130792 0 127 127
-0.036976 0.813245 0.057669 76 153 0
0.075212 -0.487780 -0.250678 153 76 0
0.054954 0.431044 0.688625 76 0 153
0.070560 0.557991 0.634938 153 0 76
0.072171 0.017461 -0.082637 76 153 0
-0.054015 -0.196091 -0.114135 76 153 0
-0.057383 0.776508 0.479168 76 153 0
-0.000556 0.858330 0.118108 76 153 0
-0.034669 -0.073470 -0.138095 76 153 0
-0.844908 0.022878 -0.139006 127 127 0
-0.014988 -0.282810 -0.024595 76 153 0
0.072459 0.139591 -0.084084 76 153 0
0.047988 0.729882 0.587418 76 153 0
0.068361 0.406566 -0.063483 76 153 0
0.003561 0.758593 0.260816 76 153 0
-0.062120 -0.393360 -0.022026 153 76 0
0.599101 0.099603 -0.070409 0 255 0
-0.559994 -0.358191 -0.139178 0 127 127
-0.802711 0.075567 -0.134422 127 127 0
0.642527 -0.259409 -0.136266 127 0 127
0.564972 -0.385511 -0.027172 127 127 0
-0.528192 -0.435488 -0.200544 0 127 127
-0.109273 -0.420417 -0.111430 153 76 0
0.660279 -0.103386 -0.120767 127 0 127
0.074343 -0.404817 -0.009751 153 76 0
-0.091065 -0.487780 -0.214142 153 76 0
0.039331 0.752219 0.178917 76 153 0
0.623413 -0.486562 -0.007573 127 127 0
0.637153 -0.213722 -0.034161 127 127 0
-0.823115 0.098576 -0.065242 127 127 0
0.946481 0.071988 -0.037105 0 255 0
0.077182 -0.342775 -0.085625 76 153 0
0.000113 -0.081389 -0.021591 76 153 0
-0.023443 0.629909 -0.107870 76 153 0
-0.678349 0.001264 -0.121127 127 127 0
0.003224 0.735201 0.387407 76 153 0
0.593107 -0.486562 -0.148031 127 127 0
0.567808 -0.161267 -0.057544 127 127 0
0.996199 0.087686 -0.058680 0 255 0
0.064293 -0.439800 -0.227656 153 76 0
-0.660162 0.101323 -0.079056 127 127 0
0.670007 0.102107 -0.082994 0 255 0
0.842946 0.072654 -0.037550 0 255 0
0.034908 -0.487780 0.064091 153 76 0
-0.002139 -0.487780 -0.061888 153 76 0
-0.684290 0.075594 -0.039514 127 127 0
