ply
format ascii 1.0
element vertex 1258
property float x
property float y
property float z
property uchar red
property uchar green
property uchar blue
end_header
-0.444166 -0.378136 0.334025 153 0 76
0.466206 0.601665 -0.036685 0 127 127
-0.187649 -0.070021 0.322778 153 0 76
-0.339649 0.827540 0.283383 0 127 127
0.305720 -0.232310 0.322778 76 0 153
-0.043015 -0.746145 0.339964 76 0 153
-0.446485 -0.745819 -0.089909 0 127 127
0.468526 0.239501 0.351375 76 0 153
-0.446485 0.734444 -0.045537 0 127 127
0.460077 -0.819102 0.068133 0 127 127
-0.416023 -0.119330 -0.401583 0 127 127
0.466206 -0.197296 0.224156 0 127 127
0.470845 0.423603 0.062296 0 127 127
0.217869 0.781979 -0.397970 0 127 127
0.082067 0.585882 0.370814 76 0 153
-0.439262 -0.701397 0.322778 153 0 76
0.440432 -0.834284 -0.163197 0 127 127
-0.207711 -0.473658 0.322778 153 0 76
-0.294743 -0.498288 -0.396949 0 127 127
0.114841 -0.143907 0.322778 76 0 153
0.367967 -0.547691 0.322778 76 0 153
0.435309 -0.821301 0.289543 0 127 127
0.039918 0.374058 0.322778 76 0 153
0.466206 -0.389910 -0.143390 0 127 127
0.395645 0.677582 0.370814 76 0 153
-0.230048 0.021888 0.322778 153 0 76
0.075506 -0.518369 0.322778 76 0 153
0.177592 0.385773 0.322778 76 0 153
0.368911 0.800992 0.307257 0 127 127
0.071479 -0.198239 0.322778 76 0 153
0.137755 0.209262 -0.397376 0 127 127
0.470845 -0.459867 -0.009067 0 127 127
0.035229 0.755202 0.322778 76 0 153
0.405087 -0.343112 -0.396949 0 127 127
-0.178262 0.332389 0.322778 153 0 76
0.029639 -0.642267 0.322778 76 0 153
0.452872 -0.126579 0.370814 76 0 153
-0.360816 0.101640 -0.396949 0 127 127
0.260869 0.563992 0.322778 76 0 153
-0.412802 -0.331037 0.322778 153 0 76
-0.446485 -0.184729 -0.292541 0 127 127
-0.270043 -0.560662 0.322778 153 0 76
0.470845 0.725361 -0.042681 0 127 127
0.027391 0.125791 0.322778 76 0 153
0.215341 -0.418246 0.370814 76 0 153
-0.442846 0.453268 0.183855 0 127 127
-0.005919 0.281739 0.322778 76 0 153
0.402102 0.118185 -0.396949 0 127 127
0.341363 -0.829648 -0.316452 0 127 127
0.054187 0.827607 -0.314331 0 127 127
-0.087711 -0.255192 -0.397677 0 127 127
0.081073 0.623612 0.370814 76 0 153
-0.251582 0.329433 -0.401589 0 127 127
0.081857 -0.815412 -0.401507 0 127 127
-0.206876 -0.112235 0.322778 153 0 76
0.466206 -0.182690 -0.258016 0 127 127
0.067010 0.045112 0.370814 76 0 153
-0.441846 0.203495 -0.239504 0 127 127
-0.446485 0.060158 0.056328 0 127 127
0.387108 -0.178849 0.322778 76 0 153
-0.232605 -0.730524 0.370814 153 0 76
-0.156721 0.138249 0.370814 153 0 76
-0.330353 0.252434 0.322778 153 0 76
0.470845 -0.513239 -0.349966 0 127 127
0.325395 -0.567706 0.322778 76 0 153
-0.444166 -0.428181 0.333085 153 0 76
0.272293 0.603838 0.370814 76 0 153
-0.446485 0.400350 -0.060393 0 127 127
-0.130389 -0.013757 -0.396949 0 127 127
0.101217 0.310878 0.370814 76 0 153
-0.442846 0.178748 0.066299 0 127 127
-0.116188 0.245726 0.370814 153 0 76
-0.446485 0.739976 0.202361 0 127 127
0.237313 -0.216147 -0.401589 0 127 127
0.398360 -0.092625 -0.401589 0 127 127
0.470845 -0.782642 0.253772 0 127 127
0.466206 -0.061870 -0.323288 0 127 127
-0.158766 -0.834288 -0.019468 0 127 127
0.466206 -0.143010 -0.181042 0 127 127
0.151869 0.402231 0.370814 76 0 153
0.141021 0.777377 0.322778 76 0 153
0.087537 -0.025946 0.322778 76 0 153
0.080429 -0.240693 -0.396949 0 127 127
0.317844 -0.151224 0.370814 76 0 153
0.060680 0.252214 0.322778 76 0 153
-0.380142 -0.542131 0.322778 153 0 76
0.466206 -0.033250 -0.333050 0 127 127
0.417064 0.485242 0.370814 76 0 153
-0.110013 0.590814 0.370814 153 0 76
-0.322939 -0.362480 0.322778 153 0 76
-0.442234 0.486885 0.144372 0 127 127
-0.370040 0.822967 -0.332368 0 127 127
0.397800 -0.672301 0.322778 76 0 153
-0.129202 0.333511 0.322778 153 0 76
0.434444 -0.168332 0.322778 76 0 153
-0.043015 0.602771 0.342284 76 0 153
-0.444166 -0.749113 0.332468 153 0 76
0.466206 -0.215475 -0.171694 0 127 127
-0.167079 0.660780 -0.401589 0 127 127
0.466206 -0.577651 0.078958 0 127 127
-0.446462 -0.598203 0.276764 0 127 127
-0.442846 -0.104427 -0.192978 0 127 127
0.442467 0.320134 0.322778 76 0 153
-0.253928 0.005709 -0.396949 0 127 127
-0.446485 0.522890 -0.200534 0 127 127
0.470845 -0.463605 -0.112094 0 127 127
0.466206 0.496772 -0.059072 0 127 127
0.466206 0.476060 0.106704 0 127 127
-0.430235 0.826949 0.052802 0 127 127
0.470838 0.267253 0.267108 0 127 127
0.324201 0.301441 -0.401589 0 127 127
0.277859 0.228908 0.322778 76 0 153
-0.441846 0.573482 -0.159686 0 127 127
0.470189 0.177955 -0.140528 0 127 127
-0.446485 0.274064 0.053838 0 127 127
-0.310549 0.185136 0.322778 153 0 76
0.056525 0.474214 0.370814 76 0 153
0.311905 -0.642538 -0.396949 0 127 127
0.466206 0.119035 0.194711 0 127 127
0.172511 -0.050522 0.370814 76 0 153
0.344877 0.739181 -0.401589 0 127 127
0.350038 0.827526 0.285392 0 127 127
0.168441 -0.057027 -0.396949 0 127 127
0.466366 -0.792007 -0.375308 0 127 127
-0.446485 -0.293328 -0.112232 0 127 127
-0.260184 0.827607 -0.313531 0 127 127
-0.226890 0.825287 0.365701 153 0 76
0.466206 0.526808 0.222001 0 127 127
0.470845 0.102206 0.077817 0 127 127
0.070467 -0.834285 0.337763 0 127 127
0.282848 0.577301 0.370814 76 0 153
-0.259837 -0.379969 -0.396949 0 127 127
-0.441846 0.295028 -0.116765 0 127 127
-0.033958 -0.438012 -0.401589 0 127 127
-0.385197 0.412275 -0.396949 0 127 127
0.024806 0.073855 0.370814 76 0 153
-0.417282 -0.834284 -0.323924 0 127 127
0.425592 -0.458937 0.322778 76 0 153
-0.290051 0.811866 0.289977 0 127 127
0.164189 -0.834288 0.187754 0 127 127
0.122660 -0.436387 0.322778 76 0 153
-0.425200 0.800642 -0.401538 0 127 127
0.040194 -0.829648 -0.234170 0 127 127
-0.273683 0.048905 0.322778 153 0 76
0.325691 -0.829648 -0.298530 0 127 127
0.470419 0.009814 0.100440 0 127 127
-0.058780 -0.830648 0.108524 0 127 127
0.466206 0.142037 0.047602 0 127 127
-0.102550 -0.201496 0.322778 153 0 76
0.306280 -0.722328 0.322778 76 0 153
-0.029924 0.564307 0.370814 76 0 153
0.466206 0.214197 -0.359522 0 127 127
0.452355 0.806114 0.288633 0 127 127
-0.441846 -0.248143 0.247784 0 127 127
-0.314193 0.644265 0.322778 153 0 76
-0.023505 -0.268407 -0.397949 0 127 127
0.009463 -0.341897 0.370814 76 0 153
0.040796 -0.312184 0.322778 76 0 153
0.466206 -0.377721 0.029940 0 127 127
-0.333031 0.414047 -0.401589 0 127 127
0.466206 -0.330237 -0.239630 0 127 127
0.010659 0.309312 0.370814 76 0 153
0.192264 -0.829648 0.269937 0 127 127
0.298575 0.287447 -0.396949 0 127 127
0.003266 0.328719 -0.397452 0 127 127
-0.293065 -0.470482 -0.401589 0 127 127
0.466206 0.510602 -0.140847 0 127 127
0.470845 0.363475 0.074965 0 127 127
0.470487 0.279810 -0.157852 0 127 127
0.083513 0.024349 -0.401589 0 127 127
0.466206 -0.531765 -0.154980 0 127 127
0.430870 0.103314 0.370814 76 0 153
0.457087 -0.708435 -0.392483 0 127 127
0.017486 -0.696305 -0.401589 0 127 127
0.284718 -0.041230 0.370814 76 0 153
0.439091 -0.828377 -0.305118 0 127 127
0.091727 0.196945 0.370814 76 0 153
0.354255 0.827607 0.071046 0 127 127
0.332043 0.788672 0.322778 76 0 153
-0.440698 0.629040 0.280576 0 127 127
-0.446485 -0.698735 0.253845 0 127 127
0.412938 0.495517 0.322778 76 0 153
-0.161176 0.822967 -0.257428 0 127 127
-0.442846 -0.455992 -0.307901 0 127 127
-0.323162 0.186046 -0.401589 0 127 127
0.432751 0.252357 0.322778 76 0 153
0.060105 0.760750 0.322778 76 0 153
0.054826 -0.409002 -0.401589 0 127 127
-0.446485 -0.555450 0.141919 0 127 127
-0.362900 0.302729 0.322778 153 0 76
-0.001148 0.663836 0.322778 76 0 153
-0.227658 -0.356117 -0.396949 0 127 127
0.466206 -0.182216 -0.313278 0 127 127
-0.024511 -0.408602 0.370814 76 0 153
-0.446485 -0.319730 -0.043806 0 127 127
-0.152991 -0.405139 0.370814 153 0 76
-0.016864 0.822967 -0.334601 0 127 127
0.191440 0.036685 0.322778 76 0 153
0.116951 0.542411 0.370814 76 0 153
0.011529 0.822967 0.208273 0 127 127
-0.193757 -0.551896 -0.397949 0 127 127
-0.233040 -0.701326 0.370814 153 0 76
0.077724 0.154326 -0.397850 0 127 127
0.157903 0.797128 -0.401588 0 127 127
0.275621 -0.775125 0.366802 76 0 153
-0.093888 -0.834288 -0.030343 0 127 127
0.470845 0.557291 0.206775 0 127 127
0.174145 0.228342 -0.396949 0 127 127
-0.245774 0.041139 0.322778 153 0 76
-0.408612 -0.621788 -0.401588 0 127 127
0.027007 0.827607 -0.041473 0 127 127
-0.256340 -0.260617 0.322778 153 0 76
-0.444166 -0.537858 0.350615 153 0 76
0.470845 -0.495159 -0.148312 0 127 127
0.058286 0.110545 0.370814 76 0 153
-0.446485 0.002304 -0.312086 0 127 127
-0.261339 -0.248342 0.370814 153 0 76
0.033057 0.822425 -0.364453 0 127 127
0.310414 0.511221 0.322778 76 0 153
0.070569 0.822967 -0.274342 0 127 127
0.101352 -0.267689 0.322778 76 0 153
0.186777 0.068295 0.370814 76 0 153
0.104592 0.679622 0.370814 76 0 153
0.025136 0.398019 0.322778 76 0 153
-0.159775 0.056547 -0.401589 0 127 127
-0.087472 -0.260246 0.370814 153 0 76
0.466206 -0.080019 -0.269681 0 127 127
-0.042494 -0.834288 0.317395 0 127 127
0.342294 -0.585066 0.322778 76 0 153
-0.322154 -0.834288 0.268100 0 127 127
0.277839 0.702975 -0.401589 0 127 127
-0.023946 0.172436 -0.396954 0 127 127
-0.171243 0.827607 0.200448 0 127 127
-0.309495 0.403791 -0.396949 0 127 127
-0.446485 0.484619 -0.049089 0 127 127
-0.446485 -0.186627 0.004028 0 127 127
-0.234319 -0.834288 -0.042658 0 127 127
0.470845 0.523094 0.025931 0 127 127
0.248477 -0.674631 0.322778 76 0 153
-0.240264 -0.433136 0.322778 153 0 76
0.466206 0.290200 -0.009067 0 127 127
0.457829 0.195981 -0.401321 0 127 127
-0.441869 -0.277117 -0.163815 0 127 127
0.470845 -0.649247 -0.358845 0 127 127
0.197314 -0.834288 -0.095836 0 127 127
0.226168 0.297575 0.322778 76 0 153
0.439207 0.556287 0.370814 76 0 153
0.159091 -0.700879 0.370814 76 0 153
-0.027314 -0.741053 0.322778 76 0 153
-0.442846 -0.079755 -0.154317 0 127 127
0.222712 -0.118358 -0.401589 0 127 127
-0.375988 0.827201 0.256108 0 127 127
-0.132547 -0.829795 0.323198 0 127 127
-0.442846 0.092314 0.196127 0 127 127
-0.421968 -0.407732 0.322778 153 0 76
-0.446485 0.228166 0.048409 0 127 127
0.319089 0.827606 -0.005846 0 127 127
-0.368837 -0.834288 0.021791 0 127 127
-0.423749 -0.834282 -0.119410 0 127 127
0.268227 -0.337567 -0.396949 0 127 127
0.466206 0.077466 0.206893 0 127 127
0.409143 -0.829648 -0.244528 0 127 127
-0.169248 0.215007 0.370814 153 0 76
-0.099575 -0.357058 0.370814 153 0 76
-0.210437 -0.347326 0.370814 153 0 76
0.469891 0.608996 -0.395495 0 127 127
-0.340194 -0.834288 -0.082777 0 127 127
0.466206 0.674260 -0.234272 0 127 127
-0.444166 0.300071 0.339536 153 0 76
-0.217781 -0.269961 0.370814 153 0 76
0.470845 0.744596 -0.275584 0 127 127
-0.285138 0.417737 0.370814 153 0 76
0.102789 0.822967 -0.310788 0 127 127
-0.379654 0.764204 0.370814 153 0 76
-0.395001 -0.330831 0.370814 153 0 76
0.142973 -0.017916 0.322778 76 0 153
0.417289 0.621738 0.322778 76 0 153
0.095376 0.166805 0.370814 76 0 153
0.158274 -0.090789 0.370814 76 0 153
-0.446485 0.736675 -0.322384 0 127 127
0.064900 0.827585 -0.019265 0 127 127
0.012107 0.436979 -0.401589 0 127 127
-0.441846 -0.155578 -0.054834 0 127 127
0.470845 0.739916 -0.223792 0 127 127
0.102825 0.105870 0.370814 76 0 153
0.252651 0.822967 0.156734 0 127 127
0.469459 -0.237555 -0.398967 0 127 127
-0.137989 0.822967 0.132574 0 127 127
0.466369 -0.642544 0.264267 0 127 127
0.154539 0.056620 0.370814 76 0 153
0.329858 -0.202649 0.370814 76 0 153
0.470845 -0.330866 0.062733 0 127 127
-0.441846 -0.769955 -0.309092 0 127 127
-0.084747 0.570961 0.322778 153 0 76
-0.441846 -0.624865 0.025156 0 127 127
-0.371053 0.504559 -0.401589 0 127 127
0.145200 -0.096101 -0.396949 0 127 127
-0.204736 -0.829648 -0.236880 0 127 127
-0.164054 -0.829648 -0.265183 0 127 127
-0.441846 -0.040669 0.064527 0 127 127
-0.441846 -0.461515 0.208159 0 127 127
-0.444166 -0.551111 0.323380 153 0 76
0.466206 -0.776943 -0.298373 0 127 127
0.074017 0.434931 -0.397949 0 127 127
-0.121174 -0.830648 -0.020614 0 127 127
-0.357482 -0.499237 0.322778 153 0 76
0.470845 -0.521003 -0.320075 0 127 127
0.265852 -0.491801 0.370814 76 0 153
0.441940 -0.368814 0.322778 76 0 153
-0.441846 -0.718909 0.135838 0 127 127
0.340112 0.212708 0.370814 76 0 153
0.165597 -0.032653 -0.396949 0 127 127
-0.105857 -0.157448 -0.396949 0 127 127
0.358712 -0.811805 -0.393813 0 127 127
-0.263359 0.080646 -0.401589 0 127 127
-0.273012 0.535275 0.370814 153 0 76
0.146484 0.825287 0.342275 76 0 153
0.213321 0.616387 -0.401589 0 127 127
-0.446485 -0.666568 -0.111488 0 127 127
0.076040 0.802595 0.322778 76 0 153
0.134258 0.827607 -0.219106 0 127 127
-0.103095 -0.289947 0.322778 153 0 76
-0.441919 0.028674 -0.066030 0 127 127
-0.214347 -0.830648 0.064588 0 127 127
0.372874 -0.828790 -0.366418 0 127 127
0.292266 0.822978 0.257273 0 127 127
-0.193939 0.422028 0.370814 153 0 76
-0.338439 0.763993 0.370814 153 0 76
-0.008150 -0.773232 0.322778 76 0 153
0.160240 -0.408277 0.322778 76 0 153
-0.446485 -0.252776 -0.055106 0 127 127
0.466206 -0.340318 -0.302717 0 127 127
-0.443012 0.342625 0.275001 0 127 127
-0.299656 -0.028787 0.370814 153 0 76
-0.000415 0.827607 -0.201630 0 127 127
-0.442948 0.018815 0.268487 0 127 127
-0.226877 0.821927 -0.367618 0 127 127
-0.336317 -0.619237 0.322778 153 0 76
0.470845 -0.610547 -0.001954 0 127 127
-0.173539 0.456382 -0.401589 0 127 127
0.392701 -0.396773 -0.401589 0 127 127
-0.441846 -0.552138 -0.072707 0 127 127
-0.319910 -0.043583 0.322778 153 0 76
-0.332251 -0.252216 -0.401589 0 127 127
0.388916 -0.834288 -0.052152 0 127 127
0.245428 0.116172 0.322778 76 0 153
-0.441846 -0.656736 -0.197553 0 127 127
0.205474 -0.729350 0.322778 76 0 153
-0.445469 -0.826018 0.006997 0 127 127
-0.446485 0.617982 -0.077371 0 127 127
0.469846 -0.347445 0.215685 0 127 127
-0.167030 0.825287 0.350973 153 0 76
0.362453 -0.238164 -0.396949 0 127 127
0.437900 -0.576062 -0.396824 0 127 127
-0.441984 0.208866 -0.378702 0 127 127
0.097564 -0.286600 0.370814 76 0 153
0.291918 0.410235 -0.401589 0 127 127
-0.077058 0.467889 0.370814 153 0 76
0.185055 -0.535317 0.322778 76 0 153
-0.188928 -0.552976 0.370814 153 0 76
0.470478 0.626174 0.286407 0 127 127
0.140966 0.293360 0.370814 76 0 153
-0.058739 0.052213 0.322778 153 0 76
0.468526 -0.037364 0.323646 76 0 153
0.387440 -0.829648 -0.331824 0 127 127
0.470845 -0.688260 -0.117234 0 127 127
0.470845 -0.353614 -0.230708 0 127 127
-0.250965 -0.068349 -0.401589 0 127 127
0.047087 -0.753935 -0.401589 0 127 127
0.099500 0.678289 0.322778 76 0 153
-0.103825 0.827607 -0.278566 0 127 127
-0.198180 0.379147 0.370814 153 0 76
0.470533 -0.015091 -0.035528 0 127 127
-0.399275 -0.374032 -0.396949 0 127 127
0.470845 0.087902 0.229735 0 127 127
0.137218 -0.834288 -0.316135 0 127 127
0.287074 -0.681014 0.370814 76 0 153
-0.102635 0.343619 -0.396949 0 127 127
-0.199417 0.052581 0.370814 153 0 76
-0.056251 -0.379616 0.365909 153 0 76
0.391247 0.825287 0.347844 76 0 153
-0.444166 -0.140863 0.324814 153 0 76
-0.446485 -0.055872 -0.282253 0 127 127
-0.296515 0.823937 -0.398609 0 127 127
-0.442846 -0.041871 -0.237601 0 127 127
-0.441846 0.620025 0.065172 0 127 127
0.466206 0.769646 -0.169769 0 127 127
0.466206 0.208905 -0.002432 0 127 127
-0.354203 -0.526261 0.322778 153 0 76
-0.375606 -0.371445 0.370814 153 0 76
-0.446485 -0.509445 0.194981 0 127 127
-0.387941 -0.189044 -0.401589 0 127 127
0.116973 -0.834288 0.027949 0 127 127
-0.441846 0.500672 -0.153529 0 127 127
-0.177225 0.827604 -0.372538 0 127 127
-0.442846 -0.131149 -0.334666 0 127 127
-0.212968 0.038141 -0.396949 0 127 127
-0.177176 0.762361 0.370814 153 0 76
0.309183 0.364556 0.322778 76 0 153
-0.179644 0.507173 0.370814 153 0 76
-0.124056 -0.688065 0.370814 153 0 76
-0.168525 -0.830648 -0.084205 0 127 127
0.358243 -0.629922 0.322778 76 0 153
0.470845 0.714903 0.174676 0 127 127
0.188037 -0.300225 -0.396949 0 127 127
0.444381 -0.566048 0.322778 76 0 153
0.069585 0.662277 0.370814 76 0 153
0.430956 -0.278853 0.322778 76 0 153
-0.002873 0.594246 -0.401589 0 127 127
-0.306210 -0.364822 -0.401589 0 127 127
-0.356235 -0.649421 -0.401589 0 127 127
-0.069581 0.274242 0.370814 153 0 76
0.167564 -0.505502 0.322778 76 0 153
0.405781 0.826606 -0.150964 0 127 127
0.443534 -0.098748 0.319164 0 127 127
0.039059 0.827607 0.172165 0 127 127
-0.441846 -0.417498 -0.138214 0 127 127
-0.025746 0.825287 0.370486 76 0 153
0.250418 0.526298 -0.401589 0 127 127
-0.446485 0.683282 0.163086 0 127 127
-0.294388 0.116507 0.370814 153 0 76
-0.193398 0.023811 -0.396949 0 127 127
0.277071 -0.704298 0.370814 76 0 153
0.022093 -0.830133 0.063451 0 127 127
0.076876 0.822967 -0.323690 0 127 127
0.288132 -0.566068 0.322778 76 0 153
-0.127563 -0.158948 0.370814 153 0 76
0.189296 -0.229180 0.370814 76 0 153
0.406322 -0.097259 0.370814 76 0 153
-0.377050 -0.222039 0.322778 153 0 76
-0.441846 0.396211 -0.112333 0 127 127
-0.001940 0.801632 0.322778 76 0 153
0.417522 0.459485 -0.401589 0 127 127
-0.282646 0.822967 -0.234526 0 127 127
-0.132715 0.704490 0.322778 153 0 76
-0.387565 0.051601 -0.396949 0 127 127
-0.106090 -0.322607 0.370814 153 0 76
-0.177399 0.432691 0.322778 153 0 76
0.393847 0.546725 0.322778 76 0 153
-0.016247 -0.774796 0.370814 76 0 153
-0.376815 0.826606 0.049024 0 127 127
-0.446485 0.707638 0.100298 0 127 127
0.237335 0.653993 -0.401589 0 127 127
-0.420733 0.820760 -0.052275 0 127 127
-0.446485 0.284698 -0.261104 0 127 127
0.216035 0.404061 0.322778 76 0 153
0.466206 0.071413 0.019360 0 127 127
0.441687 0.520379 0.370814 76 0 153
0.355452 -0.766576 -0.396949 0 127 127
0.079172 0.151753 0.322778 76 0 153
-0.286372 -0.282268 -0.401589 0 127 127
0.141207 -0.231105 -0.396949 0 127 127
0.069532 0.827607 0.252267 0 127 127
0.211357 0.823464 0.322778 76 0 153
-0.395414 0.295611 -0.401589 0 127 127
0.129927 0.814231 0.286110 0 127 127
0.048968 -0.834288 -0.158736 0 127 127
0.272684 0.827607 0.085818 0 127 127
0.260802 -0.537141 0.322778 76 0 153
-0.305137 -0.591370 0.322778 153 0 76
0.466565 -0.211137 0.271621 0 127 127
0.009885 0.567173 0.370814 76 0 153
0.242772 0.790003 0.322778 76 0 153
0.006040 0.821336 -0.371541 0 127 127
-0.144487 -0.834288 0.166066 0 127 127
0.469846 0.051723 -0.333928 0 127 127
-0.399272 -0.834288 0.300893 0 127 127
0.230938 -0.814584 0.371369 0 127 127
-0.135486 -0.235249 0.322778 153 0 76
-0.427650 0.220569 0.322778 153 0 76
0.466206 0.446990 -0.084059 0 127 127
-0.365326 -0.830648 -0.201956 0 127 127
0.153296 0.071056 -0.396949 0 127 127
0.030317 -0.829982 0.148299 0 127 127
-0.227730 0.458868 0.322778 153 0 76
-0.197643 0.811836 0.290022 0 127 127
-0.335718 0.239761 0.370814 153 0 76
0.469846 0.223941 -0.250633 0 127 127
0.351118 -0.196453 0.322778 76 0 153
-0.435247 0.578868 0.322778 153 0 76
0.113326 0.730334 -0.397949 0 127 127
0.470845 -0.544224 -0.280458 0 127 127
0.470756 -0.043169 -0.041645 0 127 127
0.347148 0.319736 0.370814 76 0 153
-0.446485 0.110692 0.257690 0 127 127
0.227026 -0.829648 0.221289 0 127 127
0.466206 0.660079 0.052605 0 127 127
-0.209211 0.291399 0.322778 153 0 76
0.174226 -0.829894 -0.056139 0 127 127
0.200065 -0.399755 0.370814 76 0 153
-0.311876 0.355157 -0.396949 0 127 127
0.466206 -0.646891 -0.125493 0 127 127
-0.436093 0.487099 0.304904 0 127 127
-0.441846 -0.652331 -0.000183 0 127 127
0.291787 -0.353861 -0.401589 0 127 127
0.080817 -0.327774 0.322778 76 0 153
0.224168 0.826606 -0.083923 0 127 127
-0.441846 -0.690601 0.025499 0 127 127
-0.058317 -0.582410 0.348057 0 127 127
0.377303 0.581361 -0.396949 0 127 127
-0.446485 0.469248 -0.271696 0 127 127
0.313139 -0.645549 0.370814 76 0 153
0.096244 -0.345685 0.322778 76 0 153
0.158864 -0.829648 0.156611 0 127 127
-0.441846 0.034195 -0.114960 0 127 127
0.466206 -0.119393 -0.229492 0 127 127
0.365581 -0.641242 -0.401589 0 127 127
0.203634 -0.740972 0.370814 76 0 153
0.188451 0.827607 0.065747 0 127 127
0.465767 -0.832006 -0.338972 0 127 127
0.237606 -0.834288 -0.316730 0 127 127
0.236320 0.638343 0.322778 76 0 153
-0.401817 -0.834288 0.271513 0 127 127
0.432099 -0.493508 0.370814 76 0 153
-0.446485 -0.509823 -0.219548 0 127 127
-0.088640 0.379010 0.370814 153 0 76
-0.082994 0.033040 0.322778 153 0 76
-0.056251 -0.073487 0.366969 153 0 76
0.470845 0.034621 0.059967 0 127 127
0.343980 -0.830648 0.116824 0 127 127
-0.060835 -0.184453 -0.401589 0 127 127
-0.227206 -0.046613 0.370814 153 0 76
0.335257 -0.201670 -0.401589 0 127 127
0.397089 -0.820461 0.371084 0 127 127
-0.441846 0.372430 -0.311752 0 127 127
-0.442832 -0.241528 -0.197041 0 127 127
0.466206 -0.339555 -0.279742 0 127 127
0.055602 -0.701537 0.370814 76 0 153
-0.446485 0.145260 -0.042175 0 127 127
-0.338381 0.827607 -0.311524 0 127 127
-0.446485 -0.493079 -0.333190 0 127 127
0.466206 -0.248922 -0.217494 0 127 127
-0.243820 0.804056 0.302002 0 127 127
-0.441846 -0.691666 0.152374 0 127 127
-0.446485 -0.344613 -0.125137 0 127 127
0.359727 -0.387534 0.322778 76 0 153
-0.096826 -0.676034 0.322778 153 0 76
0.097867 0.822967 0.112754 0 127 127
-0.441846 0.534030 0.009672 0 127 127
-0.446485 -0.422670 -0.328297 0 127 127
-0.008458 -0.101847 -0.401589 0 127 127
0.334191 -0.666539 0.322778 76 0 153
0.466206 -0.333076 -0.012723 0 127 127
0.467289 -0.505850 0.322778 76 0 153
-0.267265 -0.205577 0.370814 153 0 76
0.114766 0.747126 0.370814 76 0 153
0.466322 0.793946 0.226302 0 127 127
-0.441846 -0.714107 -0.295048 0 127 127
-0.032022 0.641770 0.370814 76 0 153
-0.231662 0.048767 0.370814 153 0 76
-0.154976 0.536461 -0.396949 0 127 127
-0.446485 -0.776720 -0.058727 0 127 127
0.466206 0.753403 0.019679 0 127 127
-0.446485 -0.338380 0.017842 0 127 127
0.404145 -0.819649 -0.389297 0 127 127
0.465221 -0.176944 -0.400516 0 127 127
-0.353034 -0.830043 0.309301 0 127 127
-0.072498 -0.829648 -0.151953 0 127 127
0.407108 -0.714526 0.370814 76 0 153
0.459015 0.826414 -0.197987 0 127 127
-0.222875 -0.644505 0.322778 153 0 76
0.097616 0.575204 -0.397949 0 127 127
-0.129352 0.623914 0.370814 153 0 76
-0.009815 -0.607978 0.322778 76 0 153
-0.442846 0.015196 0.050352 0 127 127
0.214849 0.352121 0.370814 76 0 153
-0.043015 0.280842 0.341805 76 0 153
0.033226 0.083315 0.322778 76 0 153
-0.196386 0.235501 0.322778 153 0 76
-0.384622 0.816113 0.283152 0 127 127
0.006151 -0.653122 -0.401589 0 127 127
0.452175 -0.834219 0.168840 0 127 127
-0.442846 0.275159 0.213503 0 127 127
0.091985 -0.697382 0.322778 76 0 153
0.076837 -0.340259 -0.401589 0 127 127
-0.043015 0.117006 0.333705 76 0 153
-0.446485 -0.279675 0.101005 0 127 127
0.125376 -0.657175 -0.396949 0 127 127
0.389691 0.049556 0.370814 76 0 153
0.322011 -0.629560 0.322778 76 0 153
0.027834 0.822967 -0.187554 0 127 127
-0.054163 -0.151729 0.307739 0 127 127
-0.177311 0.555587 0.322778 153 0 76
-0.442223 -0.019151 0.157145 0 127 127
-0.052761 -0.834288 0.069298 0 127 127
-0.416212 0.826781 -0.006051 0 127 127
-0.190425 -0.834288 0.262270 0 127 127
0.245855 0.822967 0.202854 0 127 127
-0.267581 -0.058315 0.370814 153 0 76
-0.446485 -0.508402 0.045628 0 127 127
-0.091002 -0.603659 0.370814 153 0 76
0.465171 -0.810552 0.370393 0 127 127
0.088134 -0.151517 -0.396949 0 127 127
0.217426 -0.834288 -0.237375 0 127 127
-0.262952 0.698813 -0.396949 0 127 127
0.384351 -0.218482 0.370814 76 0 153
0.237068 -0.630777 0.370814 76 0 153
0.470842 -0.435911 -0.363746 0 127 127
0.048501 0.366897 0.370814 76 0 153
-0.446485 -0.774137 -0.187939 0 127 127
-0.056251 0.226632 0.344646 153 0 76
-0.446485 0.006940 -0.123047 0 127 127
-0.033881 0.827607 -0.206285 0 127 127
-0.172846 0.486245 0.322778 153 0 76
0.425134 0.761151 -0.397606 0 127 127
0.200056 0.457136 0.370814 76 0 153
-0.146300 0.422101 -0.396949 0 127 127
-0.013192 -0.834288 0.249483 0 127 127
-0.040596 -0.829648 -0.249110 0 127 127
0.137715 0.819974 -0.379663 0 127 127
0.470845 0.617639 -0.229727 0 127 127
-0.397149 0.724705 -0.401589 0 127 127
-0.223289 0.207048 -0.401589 0 127 127
0.087263 0.014288 0.370814 76 0 153
-0.109872 0.299538 -0.396949 0 127 127
-0.248576 0.729731 -0.401589 0 127 127
0.240084 0.546429 0.322778 76 0 153
0.466206 0.682713 0.056393 0 127 127
-0.039021 0.505749 0.370814 76 0 153
0.470845 -0.702327 -0.000867 0 127 127
-0.180595 -0.409446 0.322778 153 0 76
-0.333458 -0.004722 -0.401589 0 127 127
-0.310474 0.822967 -0.022205 0 127 127
0.097516 0.046511 -0.401589 0 127 127
-0.347031 -0.834288 0.066152 0 127 127
0.173814 -0.774518 0.370814 76 0 153
0.098609 -0.834288 0.058828 0 127 127
0.412848 -0.202098 0.322778 76 0 153
0.470831 -0.374280 -0.374084 0 127 127
-0.202191 0.724602 0.322778 153 0 76
0.442705 0.042860 0.310830 0 127 127
0.470845 0.490350 0.130961 0 127 127
0.009442 0.827607 -0.276259 0 127 127
-0.446485 0.188316 0.168495 0 127 127
0.086343 -0.829648 0.124203 0 127 127
0.099172 -0.325575 0.370814 76 0 153
0.470088 -0.093818 -0.395119 0 127 127
0.277363 0.487666 0.370814 76 0 153
-0.028310 -0.649840 -0.397949 0 127 127
0.416477 0.822970 0.211072 0 127 127
0.466206 -0.714930 0.040546 0 127 127
0.211812 -0.829648 0.238216 0 127 127
0.470845 0.768087 0.078838 0 127 127
0.355352 0.822967 -0.145975 0 127 127
0.308331 -0.455119 -0.401589 0 127 127
0.136136 -0.829648 0.086672 0 127 127
-0.218218 0.333718 0.370814 153 0 76
0.391183 -0.011149 -0.396949 0 127 127
-0.393030 -0.527409 0.370814 153 0 76
0.201672 -0.251396 0.322778 76 0 153
-0.441818 -0.278376 0.276316 0 127 127
-0.441212 0.154288 -0.380326 0 127 127
0.198441 0.827607 -0.326966 0 127 127
-0.442846 -0.346666 -0.326402 0 127 127
-0.446484 0.791702 0.056773 0 127 127
-0.237949 -0.224376 0.322778 153 0 76
-0.037389 0.827600 -0.068763 0 127 127
-0.441977 0.707102 -0.374602 0 127 127
0.470744 -0.810048 0.192942 0 127 127
-0.446485 0.316140 -0.297742 0 127 127
-0.442388 0.003423 -0.287616 0 127 127
0.306672 0.224020 0.370814 76 0 153
-0.356551 -0.035792 -0.396949 0 127 127
0.345338 -0.175530 0.370814 76 0 153
-0.441846 0.722129 0.128081 0 127 127
0.348750 0.328010 -0.401589 0 127 127
-0.403851 0.822980 0.082283 0 127 127
-0.153997 -0.770769 0.322778 153 0 76
0.376881 -0.834288 -0.288546 0 127 127
0.170065 -0.834288 -0.302387 0 127 127
-0.042569 0.822967 0.102624 0 127 127
0.466206 0.408825 -0.224165 0 127 127
0.056511 -0.119620 -0.401589 0 127 127
-0.442846 0.295663 0.133106 0 127 127
-0.251081 -0.775125 0.350960 153 0 76
0.244424 0.814618 -0.387523 0 127 127
-0.403253 -0.593658 0.370814 153 0 76
-0.441846 0.686526 0.059763 0 127 127
-0.072977 -0.230714 0.370814 153 0 76
0.035708 0.827607 -0.149535 0 127 127
-0.168307 0.094156 -0.401589 0 127 127
-0.033164 0.443279 -0.396949 0 127 127
0.428847 0.636994 -0.401589 0 127 127
0.118820 0.188216 0.322778 76 0 153
-0.438400 -0.812903 0.089964 0 127 127
-0.441986 0.481733 -0.375516 0 127 127
0.198963 -0.830630 0.028156 0 127 127
0.251834 0.827607 0.256042 0 127 127
-0.030331 0.800582 0.295660 0 127 127
-0.252937 -0.476833 -0.396949 0 127 127
-0.298067 0.503199 0.322778 153 0 76
0.470845 0.091616 0.129617 0 127 127
0.285598 0.814311 -0.387973 0 127 127
0.137834 -0.626714 0.370814 76 0 153
-0.446485 0.629306 -0.248191 0 127 127
-0.227205 -0.014352 0.370814 153 0 76
-0.015538 0.827607 -0.163411 0 127 127
-0.021356 -0.438509 0.322778 76 0 153
-0.028862 -0.109983 0.370814 76 0 153
0.371258 0.216163 0.370814 76 0 153
-0.365452 -0.394182 0.370814 153 0 76
0.263552 -0.427564 -0.396949 0 127 127
0.072421 -0.834288 -0.089443 0 127 127
0.086308 -0.834288 -0.323580 0 127 127
-0.422221 -0.663614 0.370814 153 0 76
0.143505 0.229456 0.370814 76 0 153
0.466206 0.097093 -0.120657 0 127 127
0.188240 -0.829648 0.099749 0 127 127
0.427433 -0.117895 0.322778 76 0 153
-0.397583 0.359504 0.322778 153 0 76
0.466206 0.179353 0.214784 0 127 127
0.126416 -0.097656 0.322778 76 0 153
0.446866 0.711278 0.299372 0 127 127
-0.441846 -0.714607 -0.098313 0 127 127
-0.441846 0.111562 -0.196906 0 127 127
0.052428 -0.495143 -0.401589 0 127 127
0.469794 -0.826236 -0.224848 0 127 127
0.469892 -0.373093 0.164585 0 127 127
-0.109281 -0.650672 0.322778 153 0 76
0.466206 -0.262456 0.016014 0 127 127
0.470845 0.037298 0.161599 0 127 127
0.056477 -0.834288 -0.281490 0 127 127
0.225437 0.384912 -0.401589 0 127 127
-0.003889 0.822967 -0.045121 0 127 127
0.466206 -0.606360 -0.136427 0 127 127
-0.159168 -0.834288 0.067819 0 127 127
0.385652 0.100606 0.322778 76 0 153
-0.441846 -0.125475 0.093649 0 127 127
0.051808 -0.577948 -0.396949 0 127 127
0.133426 -0.286926 0.370814 76 0 153
-0.066347 0.533880 -0.401589 0 127 127
-0.334868 0.296664 0.370814 153 0 76
0.087799 0.827603 0.269999 0 127 127
0.039270 0.827607 0.243301 0 127 127
0.443168 -0.235044 0.308021 0 127 127
-0.421382 0.827601 -0.090502 0 127 127
-0.441846 -0.488804 0.234470 0 127 127
0.466206 -0.151814 -0.283636 0 127 127
0.470763 -0.164522 0.009665 0 127 127
-0.395462 -0.805828 -0.396721 0 127 127
0.116651 0.527205 0.322778 76 0 153
0.438218 -0.223950 0.370814 76 0 153
-0.051301 0.066643 0.300743 0 127 127
0.468526 0.518902 0.327393 76 0 153
0.262334 0.025486 0.370814 76 0 153
-0.261656 0.607726 -0.401589 0 127 127
-0.355943 0.394179 0.322778 153 0 76
-0.442846 -0.143314 -0.307370 0 127 127
-0.442846 -0.189263 -0.202975 0 127 127
0.238290 0.480927 0.370814 76 0 153
-0.446485 0.251571 0.001189 0 127 127
-0.194785 0.583096 0.322778 153 0 76
-0.446485 0.432521 -0.127053 0 127 127
-0.291414 0.393467 0.322778 153 0 76
0.097581 0.827194 -0.392142 0 127 127
0.281984 0.192025 -0.401589 0 127 127
0.466697 0.028500 -0.377966 0 127 127
0.103179 0.348748 0.370814 76 0 153
-0.103318 0.562679 -0.401589 0 127 127
0.333244 0.242492 -0.401589 0 127 127
-0.404063 0.213321 -0.401589 0 127 127
0.453337 -0.823596 -0.205748 0 127 127
0.470845 -0.068589 -0.152866 0 127 127
0.377996 0.827607 0.034600 0 127 127
0.269413 0.827607 0.171064 0 127 127
-0.445912 -0.784836 0.361417 0 127 127
-0.073677 0.232066 0.322778 153 0 76
-0.441948 -0.368505 0.299952 0 127 127
0.469846 0.600709 -0.346191 0 127 127
-0.248273 -0.492245 0.370814 153 0 76
-0.169733 0.827607 -0.312479 0 127 127
-0.426369 0.641045 0.314453 0 127 127
-0.442846 -0.130168 -0.201805 0 127 127
0.466206 -0.606676 -0.308111 0 127 127
-0.421449 0.369884 0.322778 153 0 76
-0.446485 0.075824 -0.262894 0 127 127
-0.163484 0.827165 0.079271 0 127 127
-0.024096 0.340626 0.370814 76 0 153
-0.446455 0.125961 -0.380205 0 127 127
-0.348522 -0.349751 -0.396949 0 127 127
-0.197628 0.101230 -0.396949 0 127 127
-0.396269 -0.830508 -0.288875 0 127 127
-0.446485 0.307514 0.232078 0 127 127
-0.135031 -0.357855 0.370814 153 0 76
-0.442270 -0.374665 -0.229277 0 127 127
0.037724 0.822967 0.055668 0 127 127
-0.444166 0.792728 0.331207 153 0 76
0.344579 0.490200 0.370814 76 0 153
0.466206 -0.621819 -0.203949 0 127 127
0.470699 -0.812627 -0.292755 0 127 127
0.390186 0.821485 0.267950 0 127 127
0.470837 0.136283 0.267807 0 127 127
0.298296 0.674866 0.322778 76 0 153
-0.446485 0.766432 0.041608 0 127 127
0.468526 0.157763 0.334252 76 0 153
0.275298 -0.058423 -0.401589 0 127 127
0.416606 0.573293 -0.396949 0 127 127
-0.441846 0.142836 -0.089946 0 127 127
0.170856 0.410475 0.322778 76 0 153
0.470794 0.108829 0.277251 0 127 127
-0.446485 0.162206 0.040648 0 127 127
0.256494 -0.834288 0.091726 0 127 127
-0.043015 0.625580 0.338160 76 0 153
0.069379 0.307116 -0.397949 0 127 127
0.469846 0.201350 -0.233743 0 127 127
0.027504 0.555817 0.322778 76 0 153
0.466206 -0.482376 0.052065 0 127 127
-0.013548 -0.215522 0.322778 76 0 153
-0.353176 0.822967 -0.092422 0 127 127
0.139629 -0.219869 0.322778 76 0 153
-0.066882 -0.641208 0.322778 153 0 76
0.183289 0.491826 0.322778 76 0 153
-0.431208 0.330054 0.370814 153 0 76
0.390292 0.707611 -0.397710 0 127 127
-0.446485 0.282113 0.160708 0 127 127
0.466206 -0.033474 0.162934 0 127 127
0.127309 0.774915 -0.397949 0 127 127
0.385166 0.002800 0.370814 76 0 153
-0.226206 0.093932 0.370814 153 0 76
-0.062164 -0.599901 -0.401589 0 127 127
-0.441846 -0.624397 0.211831 0 127 127
-0.037629 -0.255376 0.322778 76 0 153
-0.095364 0.827602 0.272535 0 127 127
0.153627 -0.834288 -0.237757 0 127 127
0.284072 -0.637236 -0.401589 0 127 127
0.124530 -0.268247 0.322778 76 0 153
-0.083841 -0.538295 0.370814 153 0 76
-0.155012 -0.407285 -0.401589 0 127 127
-0.231801 0.827607 -0.341298 0 127 127
-0.047490 -0.422545 0.310355 0 127 127
0.100927 -0.771827 0.322778 76 0 153
0.092557 -0.034161 -0.401589 0 127 127
-0.038735 0.239886 0.370814 76 0 153
0.241142 0.807548 0.296468 0 127 127
-0.446485 -0.004231 0.090730 0 127 127
0.426287 0.262525 -0.401589 0 127 127
-0.446485 -0.135469 0.166255 0 127 127
0.197442 -0.690866 -0.401589 0 127 127
-0.441846 0.377809 0.048943 0 127 127
-0.441846 0.102110 -0.147379 0 127 127
0.470845 0.654140 -0.265515 0 127 127
-0.171976 -0.282543 -0.401589 0 127 127
-0.446485 0.063552 -0.026745 0 127 127
-0.403777 0.329748 0.322778 153 0 76
0.470845 0.641362 0.134641 0 127 127
-0.446485 0.471108 -0.121516 0 127 127
-0.193854 -0.597017 0.370814 153 0 76
0.173491 0.827606 -0.363166 0 127 127
0.461680 -0.160546 0.286616 0 127 127
-0.040871 0.437147 0.299240 0 127 127
0.430019 -0.011289 0.322778 76 0 153
0.232296 0.069570 -0.401589 0 127 127
0.241083 0.822967 -0.124211 0 127 127
-0.056251 0.672877 0.341439 153 0 76
-0.089965 -0.834286 -0.368699 0 127 127
0.444086 0.827603 0.021935 0 127 127
-0.120355 0.345786 0.370814 153 0 76
-0.249129 0.136721 -0.396949 0 127 127
0.469846 -0.117933 0.228231 0 127 127
0.271804 0.196340 0.370814 76 0 153
-0.446485 -0.294723 0.212518 0 127 127
0.466206 -0.087813 -0.330179 0 127 127
-0.265197 0.784301 -0.396996 0 127 127
0.074811 0.266857 -0.401589 0 127 127
0.227907 0.150777 0.370814 76 0 153
0.466206 -0.302677 0.246143 0 127 127
-0.278005 -0.675663 -0.397949 0 127 127
-0.367996 -0.674335 0.322778 153 0 76
-0.243002 0.193292 0.322778 153 0 76
-0.367121 -0.744896 0.322778 153 0 76
-0.441846 0.182743 -0.167554 0 127 127
0.094217 -0.482265 0.322778 76 0 153
-0.441846 -0.446300 -0.182402 0 127 127
0.470845 -0.328903 -0.062915 0 127 127
-0.446485 0.527599 -0.338258 0 127 127
0.466206 0.360675 -0.034414 0 127 127
0.339421 0.331384 0.322778 76 0 153
0.287365 -0.724549 0.370814 76 0 153
0.152400 0.369441 -0.401589 0 127 127
0.375164 -0.818830 0.360997 0 127 127
0.199145 0.423810 -0.401589 0 127 127
0.040432 -0.650724 -0.397098 0 127 127
0.470262 0.700767 -0.347206 0 127 127
0.183890 0.768845 -0.397949 0 127 127
0.159829 0.826737 -0.102118 0 127 127
-0.044565 0.163221 0.295218 0 127 127
0.414108 0.827607 0.153557 0 127 127
-0.325917 0.822967 -0.215134 0 127 127
0.326664 -0.372111 0.370814 76 0 153
0.466206 0.002759 -0.075109 0 127 127
-0.107773 -0.762359 0.370814 153 0 76
-0.065935 0.207716 -0.396949 0 127 127
-0.145391 -0.070150 -0.396949 0 127 127
-0.158233 0.502554 -0.401589 0 127 127
0.336946 0.555492 0.322778 76 0 153
0.466206 0.168761 -0.250524 0 127 127
0.427094 -0.621057 -0.401589 0 127 127
-0.441846 -0.214923 0.217103 0 127 127
0.438783 0.826602 -0.111638 0 127 127
0.031760 0.225139 0.322778 76 0 153
-0.155529 -0.517343 0.370814 153 0 76
0.405503 0.748431 0.322778 76 0 153
0.470845 0.201708 0.206179 0 127 127
0.031052 -0.834288 -0.182250 0 127 127
-0.121835 0.827607 -0.097673 0 127 127
-0.039345 -0.659998 0.322778 76 0 153
0.119312 -0.375909 0.370814 76 0 153
0.466206 -0.449395 -0.283689 0 127 127
-0.446485 -0.406408 0.028150 0 127 127
-0.177433 -0.209927 0.322778 153 0 76
-0.441846 -0.338561 0.231638 0 127 127
-0.242304 0.578803 0.370814 153 0 76
0.406813 0.732756 0.370814 76 0 153
0.466206 0.522902 0.103521 0 127 127
0.423762 -0.033791 0.322778 76 0 153
-0.439815 0.802718 0.200514 0 127 127
0.291265 0.827607 0.044607 0 127 127
0.265521 -0.799979 -0.397087 0 127 127
-0.063728 -0.259515 -0.401589 0 127 127
0.256739 -0.807745 0.365582 0 127 127
0.412948 0.827257 -0.034062 0 127 127
-0.333683 0.578426 0.322778 153 0 76
0.466206 0.245418 0.171030 0 127 127
0.002996 0.123677 0.322778 76 0 153
-0.392554 -0.830573 -0.266739 0 127 127
0.399017 -0.647948 0.370814 76 0 153
0.450342 0.113999 0.370814 76 0 153
0.182429 0.569047 -0.401589 0 127 127
-0.194918 -0.313425 0.370814 153 0 76
0.466206 0.741038 0.155263 0 127 127
-0.040973 0.623570 0.304170 0 127 127
-0.043015 -0.556487 0.370779 76 0 153
0.372453 0.450491 -0.396949 0 127 127
0.308399 -0.324319 0.322778 76 0 153
-0.297258 -0.141330 -0.401589 0 127 127
0.111358 0.754484 0.322778 76 0 153
0.178173 -0.449800 0.322778 76 0 153
0.024862 -0.472029 0.322778 76 0 153
0.466206 -0.636629 0.159140 0 127 127
-0.429481 -0.485876 0.322778 153 0 76
-0.332639 -0.392713 -0.401589 0 127 127
-0.428027 0.529073 0.322778 153 0 76
0.204507 0.467552 0.322778 76 0 153
0.332149 0.078060 -0.401589 0 127 127
0.081949 0.371073 0.370814 76 0 153
-0.090950 0.491395 0.322778 153 0 76
0.466206 -0.339744 -0.091226 0 127 127
-0.150407 0.827607 -0.107126 0 127 127
0.408099 -0.499428 0.370814 76 0 153
-0.441846 0.712220 -0.191463 0 127 127
-0.201585 -0.425829 0.370814 153 0 76
-0.027712 0.344205 0.322778 76 0 153
0.466206 0.577348 -0.127360 0 127 127
0.470845 0.364722 0.248598 0 127 127
-0.056251 0.566974 0.335251 153 0 76
0.138090 0.827607 -0.163182 0 127 127
-0.037320 -0.001829 0.322778 76 0 153
-0.275953 0.191629 0.370814 153 0 76
0.466206 -0.420054 0.009610 0 127 127
-0.446485 0.351820 -0.137326 0 127 127
0.077955 0.827607 -0.134740 0 127 127
-0.084126 -0.834288 -0.256888 0 127 127
-0.213641 0.826606 0.008132 0 127 127
-0.040910 0.583922 0.298743 0 127 127
0.313158 0.583500 -0.397900 0 127 127
0.440677 -0.332443 -0.401580 0 127 127
0.346253 -0.124188 0.370814 76 0 153
-0.446485 0.099521 -0.271435 0 127 127
-0.310028 0.564346 0.370814 153 0 76
0.469854 0.452676 -0.276980 0 127 127
-0.442846 0.162464 0.124197 0 127 127
-0.446485 -0.379815 0.020005 0 127 127
-0.162889 -0.574050 0.370814 153 0 76
0.439178 0.169531 0.370814 76 0 153
-0.446485 -0.061936 0.192652 0 127 127
-0.045575 0.373185 -0.401589 0 127 127
0.323175 0.046434 -0.401589 0 127 127
-0.441846 -0.674013 -0.085495 0 127 127
-0.442155 -0.461757 -0.259365 0 127 127
-0.124312 -0.178709 -0.401589 0 127 127
0.466206 0.411210 0.080020 0 127 127
-0.046793 0.759708 0.274545 0 127 127
0.466206 0.207301 -0.267384 0 127 127
0.310413 0.506178 0.370814 76 0 153
-0.446485 -0.700054 0.095055 0 127 127
-0.332481 0.144027 -0.396949 0 127 127
0.150809 0.305044 -0.397950 0 127 127
-0.058300 0.674227 0.310926 0 127 127
-0.441846 -0.412059 0.247925 0 127 127
0.366130 0.827604 0.267297 0 127 127
-0.444166 0.809665 0.353869 153 0 76
0.315695 -0.412222 -0.396949 0 127 127
0.300832 -0.185281 0.370814 76 0 153
-0.446485 -0.790594 0.230903 0 127 127
0.201727 0.186437 0.370814 76 0 153
0.466206 -0.557859 0.217403 0 127 127
0.157543 -0.200744 0.322778 76 0 153
0.470006 0.387680 -0.242793 0 127 127
0.205216 0.825287 0.343904 76 0 153
0.470845 0.522770 -0.028294 0 127 127
-0.441846 -0.617431 -0.129410 0 127 127
0.400666 -0.775125 0.351326 76 0 153
-0.441846 -0.399059 0.050169 0 127 127
0.073962 -0.687498 0.370814 76 0 153
0.383337 -0.011839 0.322778 76 0 153
-0.441846 0.543302 -0.354240 0 127 127
-0.446485 0.342639 -0.287500 0 127 127
-0.441846 -0.450485 0.061798 0 127 127
-0.372349 -0.446584 0.370814 153 0 76
-0.446485 -0.798579 -0.154390 0 127 127
-0.274648 0.822967 0.134422 0 127 127
-0.441846 -0.648290 -0.177099 0 127 127
-0.043015 0.097069 0.356091 76 0 153
0.061455 -0.615272 -0.396949 0 127 127
-0.012691 0.765636 0.322778 76 0 153
-0.441846 0.518250 0.131511 0 127 127
-0.194648 0.212549 0.370814 153 0 76
0.102891 -0.834288 -0.160533 0 127 127
-0.185311 -0.707609 0.322778 153 0 76
0.379706 -0.132771 0.370814 76 0 153
-0.163801 -0.355854 0.370814 153 0 76
-0.157186 -0.830648 0.095349 0 127 127
0.447420 -0.834282 0.228446 0 127 127
-0.441846 -0.663409 -0.266588 0 127 127
-0.446485 0.421066 -0.221450 0 127 127
0.466206 0.466914 -0.121813 0 127 127
-0.039772 -0.829648 -0.207820 0 127 127
0.443136 0.657564 0.308116 0 127 127
0.394682 -0.466244 -0.396949 0 127 127
0.055533 0.813878 0.286679 0 127 127
0.470804 -0.797732 0.318452 0 127 127
0.466206 0.563782 -0.212089 0 127 127
0.327749 -0.829657 -0.354139 0 127 127
0.411424 0.411518 0.322778 76 0 153
0.270506 0.495774 -0.397757 0 127 127
0.191020 0.802682 0.304275 0 127 127
0.326169 0.650888 0.370814 76 0 153
0.470845 0.169859 -0.051358 0 127 127
0.470845 0.446084 -0.158830 0 127 127
-0.445347 -0.060074 -0.397735 0 127 127
-0.442846 -0.094467 -0.314343 0 127 127
-0.441846 0.293106 -0.084702 0 127 127
-0.444166 0.744142 0.336061 153 0 76
0.151701 -0.818810 -0.401482 0 127 127
-0.439813 -0.104395 0.301682 0 127 127
-0.248612 0.822967 -0.240763 0 127 127
-0.339048 -0.086186 -0.401589 0 127 127
0.466206 0.174074 0.253369 0 127 127
-0.444166 -0.095929 0.369329 153 0 76
0.466206 0.412923 0.154348 0 127 127
-0.392622 0.825287 0.325700 153 0 76
0.392819 0.703539 0.370814 76 0 153
-0.361628 0.651396 0.322778 153 0 76
0.222843 -0.496979 0.322778 76 0 153
-0.133548 0.457780 0.322778 153 0 76
0.094146 -0.181985 -0.396949 0 127 127
-0.441846 -0.357720 -0.015905 0 127 127
-0.376031 0.245243 -0.401589 0 127 127
0.470845 -0.366139 -0.320533 0 127 127
-0.126713 -0.783599 -0.401589 0 127 127
0.466302 0.350343 0.276025 0 127 127
-0.139002 -0.834288 -0.243246 0 127 127
0.464448 -0.358870 0.280699 0 127 127
0.466206 -0.766490 -0.228049 0 127 127
0.389373 -0.829648 -0.182664 0 127 127
0.443272 -0.632946 0.322778 76 0 153
0.021363 -0.369210 0.370814 76 0 153
0.374405 0.556900 0.322778 76 0 153
-0.024299 -0.434509 0.370814 76 0 153
-0.032504 -0.728693 -0.401589 0 127 127
0.205572 0.209005 0.322778 76 0 153
0.361129 -0.834285 0.337904 0 127 127
0.209519 0.122056 -0.401589 0 127 127
0.278796 0.147385 0.322778 76 0 153
0.140235 0.805824 0.370814 76 0 153
0.440059 0.730494 0.322778 76 0 153
-0.441846 0.512284 0.047624 0 127 127
0.466206 -0.285310 -0.312614 0 127 127
0.326720 -0.156286 0.322778 76 0 153
-0.316852 0.160498 -0.401589 0 127 127
0.051296 -0.834288 0.226791 0 127 127
0.470845 -0.736912 -0.062308 0 127 127
0.297769 -0.776334 -0.396949 0 127 127
0.270209 0.605723 -0.397949 0 127 127
-0.384128 0.477281 0.370814 153 0 76
0.074236 0.411765 -0.401589 0 127 127
-0.215312 -0.016505 -0.401589 0 127 127
0.295160 -0.409274 0.370814 76 0 153
0.371552 -0.410833 -0.401589 0 127 127
0.470096 0.816492 -0.223774 0 127 127
0.453693 0.401405 0.322778 76 0 153
0.466206 0.378274 -0.003815 0 127 127
-0.124461 0.173270 0.322778 153 0 76
-0.442540 0.369845 0.370814 153 0 76
-0.444166 0.613017 0.352953 153 0 76
-0.237942 0.723311 0.322778 153 0 76
0.070422 -0.829736 -0.017400 0 127 127
0.370448 0.454263 0.370814 76 0 153
-0.149978 0.199718 0.370814 153 0 76
0.103714 0.715103 0.370814 76 0 153
-0.321383 0.827607 -0.106886 0 127 127
0.343979 -0.829648 -0.174186 0 127 127
0.154821 -0.337791 0.370814 76 0 153
0.358208 0.439433 0.322778 76 0 153
-0.076874 -0.393775 0.322778 153 0 76
0.401200 0.822967 0.023445 0 127 127
-0.441846 -0.647594 0.248931 0 127 127
-0.125950 -0.760288 -0.397949 0 127 127
-0.442231 0.679840 0.370814 153 0 76
0.110212 -0.417326 -0.396949 0 127 127
0.308484 -0.238561 -0.401589 0 127 127
-0.256721 -0.615104 0.370814 153 0 76
-0.066166 -0.066324 0.322778 153 0 76
0.004387 -0.411946 -0.397759 0 127 127
0.466206 0.481301 0.050576 0 127 127
-0.180253 0.178231 0.370814 153 0 76
-0.446485 0.222328 -0.001742 0 127 127
0.264343 0.529368 0.370814 76 0 153
0.187429 0.651039 0.322778 76 0 153
0.061940 -0.753104 0.322778 76 0 153
-0.053266 -0.834288 0.276109 0 127 127
0.168975 -0.061080 0.322778 76 0 153
-0.446485 0.758679 -0.098440 0 127 127
0.393254 0.273350 0.322778 76 0 153
-0.036289 -0.793946 -0.401589 0 127 127
0.188950 0.616881 -0.401589 0 127 127
0.444955 0.181981 0.319514 0 127 127
-0.358877 0.760450 0.322778 153 0 76
-0.274327 0.260557 0.322778 153 0 76
0.008887 0.302360 0.322778 76 0 153
-0.440650 0.286025 0.301004 0 127 127
-0.079993 0.822967 -0.123953 0 127 127
-0.441846 -0.102064 -0.059314 0 127 127
-0.432851 0.459889 0.308153 0 127 127
-0.211693 -0.400731 -0.401589 0 127 127
0.360680 -0.445753 0.370814 76 0 153
0.115210 -0.829648 0.169173 0 127 127
-0.446485 0.527830 -0.110704 0 127 127
0.294957 0.124738 -0.401589 0 127 127
0.340997 -0.829662 -0.068825 0 127 127
-0.006837 -0.353388 -0.401589 0 127 127
0.321823 0.639860 -0.397949 0 127 127
-0.438241 -0.813298 0.216261 0 127 127
-0.446485 -0.275113 0.021342 0 127 127
-0.446181 -0.727390 0.290900 0 127 127
-0.408394 0.694805 -0.401588 0 127 127
-0.327331 0.461213 -0.401589 0 127 127
-0.156648 -0.005317 0.322778 153 0 76
0.437050 -0.258905 -0.401583 0 127 127
0.196232 0.107523 0.370814 76 0 153
0.468526 -0.087977 0.361591 76 0 153
-0.262710 -0.830648 0.008498 0 127 127
-0.441846 0.632805 -0.038368 0 127 127
0.452005 -0.665893 0.295565 0 127 127
0.290815 0.038144 0.322778 76 0 153
0.293200 0.826606 -0.151724 0 127 127
-0.087766 -0.171725 -0.401589 0 127 127
0.253202 -0.102551 0.322778 76 0 153
0.299577 0.821795 -0.368683 0 127 127
0.022657 -0.350720 0.322778 76 0 153
-0.002949 -0.488611 0.370814 76 0 153
0.072409 -0.744192 0.370814 76 0 153
-0.077424 0.443433 0.322778 153 0 76
0.126676 0.046194 -0.401589 0 127 127
-0.036239 -0.344306 -0.397949 0 127 127
0.466206 0.652134 -0.175432 0 127 127
0.414667 0.825287 0.322788 76 0 153
0.466206 0.291636 -0.074909 0 127 127
-0.387227 0.718390 0.370814 153 0 76
0.466206 0.393339 0.097250 0 127 127
-0.017655 0.827607 0.142501 0 127 127
-0.040330 0.729118 0.322778 76 0 153
0.056317 -0.415584 0.370814 76 0 153
0.466206 -0.574975 -0.095658 0 127 127
0.421722 0.826606 -0.247819 0 127 127
-0.441846 -0.427493 -0.055808 0 127 127
0.310506 0.743749 0.370814 76 0 153
0.468526 0.364349 0.335344 76 0 153
-0.135424 0.825287 0.353657 153 0 76
-0.280072 0.826606 0.108906 0 127 127
0.390640 0.195501 0.370814 76 0 153
-0.144455 -0.742838 0.370814 153 0 76
-0.301660 0.822967 -0.069563 0 127 127
-0.434540 -0.202304 0.370814 153 0 76
0.456916 0.333736 0.370814 76 0 153
-0.417919 -0.153688 0.322778 153 0 76
0.007746 0.386133 0.370814 76 0 153
0.398985 -0.732838 0.322778 76 0 153
-0.061539 -0.288064 0.370814 153 0 76
0.061101 0.560852 0.370814 76 0 153
-0.442247 -0.017844 0.069897 0 127 127
0.096190 0.721712 0.322778 76 0 153
-0.179481 -0.278907 0.370814 153 0 76
-0.378309 0.826698 0.221270 0 127 127
-0.376653 -0.834288 -0.108883 0 127 127
0.248034 0.185353 0.322778 76 0 153
0.468526 0.489989 0.368307 76 0 153
0.153716 0.101331 0.370814 76 0 153
0.467685 -0.830988 0.021470 0 127 127
0.470845 -0.587540 -0.204290 0 127 127
-0.441846 0.060200 -0.222930 0 127 127
0.349021 0.162924 0.322778 76 0 153
-0.307598 0.498016 0.370814 153 0 76
-0.416769 -0.276358 0.370814 153 0 76
0.469846 0.083077 -0.264299 0 127 127
-0.446485 -0.586906 -0.168258 0 127 127
-0.224973 -0.834288 0.150168 0 127 127
-0.270856 0.827607 0.237302 0 127 127
-0.228770 0.352715 0.370814 153 0 76
-0.261555 0.816050 0.305908 0 127 127
-0.442846 -0.145338 -0.186251 0 127 127
-0.400580 -0.054512 -0.396949 0 127 127
-0.427194 -0.210410 0.322778 153 0 76
-0.338210 -0.098683 0.370814 153 0 76
0.145743 0.152775 0.370814 76 0 153
0.439866 0.819325 0.276746 0 127 127
0.470845 0.478468 0.161319 0 127 127
-0.043015 -0.534088 0.364052 76 0 153
-0.222344 -0.145834 0.370814 153 0 76
0.469846 0.336488 -0.270828 0 127 127
-0.060416 0.424940 0.322778 153 0 76
0.135027 -0.775125 0.344846 76 0 153
-0.160681 -0.623553 0.322778 153 0 76
-0.403721 -0.454245 -0.401589 0 127 127
0.124714 -0.834285 -0.372598 0 127 127
-0.056251 0.375565 0.357226 153 0 76
-0.444166 -0.286664 0.323373 153 0 76
0.178459 -0.632993 0.322778 76 0 153
-0.099651 -0.824431 -0.400792 0 127 127
0.085280 -0.443172 0.370814 76 0 153
0.261224 0.430920 0.370814 76 0 153
0.229077 -0.834284 -0.373832 0 127 127
0.031561 -0.829712 -0.043187 0 127 127
-0.441898 -0.791306 -0.098866 0 127 127
0.469840 -0.170422 0.264031 0 127 127
-0.051298 0.307698 -0.401589 0 127 127
0.002964 -0.834288 -0.080862 0 127 127
-0.410575 -0.829595 0.020709 0 127 127
-0.421153 -0.775125 0.351441 153 0 76
0.339205 0.827607 0.134827 0 127 127
0.468526 0.014090 0.368679 76 0 153
-0.147654 -0.834288 0.282726 0 127 127
0.187297 -0.160807 0.322778 76 0 153
-0.262291 -0.634806 0.322778 153 0 76
0.101257 -0.660651 0.322778 76 0 153
-0.441846 -0.435853 -0.097715 0 127 127
0.468526 -0.380207 0.352987 76 0 153
0.037632 0.260629 0.322778 76 0 153
-0.031970 0.398228 -0.396949 0 127 127
-0.051337 -0.829654 -0.349929 0 127 127
0.469908 0.164154 -0.157216 0 127 127
-0.083539 -0.002952 -0.401589 0 127 127
0.470845 -0.456258 -0.061760 0 127 127
-0.124264 -0.834288 -0.151960 0 127 127
0.470845 0.324900 -0.082665 0 127 127
-0.376974 0.027037 0.322778 153 0 76
-0.166244 0.454847 0.370814 153 0 76
0.078620 0.336319 -0.401589 0 127 127
