ply
format ascii 1.0
element vertex 1256
property float x
property float y
property float z
property uchar red
property uchar green
property uchar blue
end_header
-0.309914 -0.831968 0.151569 0 127 127
0.468526 -0.364222 -0.138361 0 127 127
0.071996 -0.831968 0.219618 0 127 127
-0.217801 -0.309744 0.370814 153 0 76
0.468526 0.047668 -0.152825 0 127 127
-0.298582 -0.831968 0.013588 0 127 127
-0.444166 -0.819000 -0.373991 0 127 127
-0.175793 -0.831968 -0.293014 0 127 127
-0.374223 0.169652 0.370814 153 0 76
0.130238 -0.037057 0.370814 76 0 153
0.030342 -0.831968 0.260660 0 127 127
-0.444166 -0.416771 0.346448 153 0 76
0.351087 0.052148 0.370814 76 0 153
0.468526 0.127945 -0.226690 0 127 127
-0.444166 -0.309121 0.166687 0 127 127
0.037928 0.049714 -0.399269 0 127 127
-0.297811 0.188627 -0.399269 0 127 127
0.048391 0.288363 -0.399269 0 127 127
-0.444166 0.050257 -0.172498 0 127 127
0.468526 -0.315898 0.141611 0 127 127
-0.387844 0.825287 -0.016316 0 127 127
0.468526 0.269339 -0.295554 0 127 127
-0.418732 0.825287 -0.345040 0 127 127
-0.315005 0.805619 0.297258 0 127 127
0.183566 0.825287 -0.330858 0 127 127
-0.283498 0.825287 -0.223623 0 127 127
0.468526 -0.603186 0.119181 0 127 127
-0.444166 -0.031208 -0.215063 0 127 127
0.219292 0.698759 0.370814 76 0 153
-0.444166 0.628311 -0.132303 0 127 127
-0.029424 0.825287 -0.120572 0 127 127
0.149323 -0.643604 0.370814 76 0 153
0.138907 -0.229252 -0.399269 0 127 127
-0.346051 0.758253 0.322778 153 0 76
-0.444166 0.500470 0.163734 0 127 127
-0.035430 -0.465246 0.322778 0 127 127
-0.444166 0.197617 0.346683 153 0 76
-0.444166 -0.228805 0.251578 0 127 127
0.014924 -0.651289 0.322778 76 0 153
-0.444166 -0.305178 -0.224568 0 127 127
0.468526 -0.567508 0.099663 0 127 127
-0.108353 0.227691 0.322778 153 0 76
0.287263 0.785598 0.322778 76 0 153
-0.444166 0.309761 -0.199871 0 127 127
0.413683 -0.831968 0.004069 0 127 127
-0.089424 -0.831968 -0.289440 0 127 127
0.468526 0.303308 -0.019784 0 127 127
-0.334516 0.087810 0.370814 153 0 76
-0.337323 -0.149073 0.322778 153 0 76
-0.420148 -0.206890 0.300640 0 127 127
-0.302978 -0.831968 -0.284925 0 127 127
-0.066197 0.798138 0.370814 153 0 76
-0.062196 0.485748 0.322778 153 0 76
0.211793 -0.676860 -0.399269 0 127 127
-0.056251 0.535168 0.284595 0 127 127
0.179382 0.009281 -0.399269 0 127 127
0.387363 -0.465094 -0.399269 0 127 127
0.277515 -0.831968 0.295628 0 127 127
-0.043015 -0.319845 0.335845 153 0 76
0.372396 0.184363 0.322778 76 0 153
0.033617 -0.831968 -0.394732 0 127 127
0.426706 -0.775125 0.349368 76 0 153
-0.097019 0.199293 0.322778 153 0 76
-0.444166 0.743782 0.162950 0 127 127
-0.200575 -0.798904 0.369313 0 127 127
-0.022976 -0.006618 0.322778 76 0 153
-0.348733 -0.325388 0.322778 153 0 76
0.020026 -0.788098 -0.399269 0 127 127
-0.444166 -0.537382 -0.260229 0 127 127
-0.101558 -0.146957 -0.399269 0 127 127
0.210584 0.142150 -0.399269 0 127 127
-0.056251 -0.337605 0.369604 153 0 76
-0.444166 -0.649645 0.094457 0 127 127
-0.043015 0.233568 0.370495 76 0 153
0.209463 -0.408029 -0.399269 0 127 127
0.337341 -0.831968 -0.111494 0 127 127
-0.283199 -0.105215 0.370814 153 0 76
-0.444166 0.062729 -0.202753 0 127 127
0.018970 -0.038335 0.322778 76 0 153
0.138661 0.619827 -0.399269 0 127 127
-0.444166 -0.814456 -0.081362 0 127 127
0.253534 0.067166 0.322778 76 0 153
0.061219 0.640809 0.322778 76 0 153
0.307149 -0.831968 0.021636 0 127 127
0.434412 0.445790 0.370814 76 0 153
-0.325508 -0.286379 0.322778 153 0 76
0.278517 0.821870 0.322778 76 0 153
-0.416200 0.076306 0.322778 0 127 127
0.468526 -0.607027 0.285379 0 127 127
-0.444166 0.101510 -0.105698 0 127 127
-0.238011 0.650103 -0.399269 0 127 127
-0.000078 0.351366 -0.399269 0 127 127
0.468526 0.516855 0.019516 0 127 127
-0.110022 -0.473065 -0.399269 0 127 127
0.040568 -0.039535 0.370814 76 0 153
0.292985 0.645764 -0.399269 0 127 127
-0.262701 -0.003076 0.370814 153 0 76
-0.031300 -0.831968 -0.263469 0 127 127
-0.216089 -0.668001 0.322778 153 0 76
0.349742 0.753708 0.322778 76 0 153
-0.218383 -0.004332 0.370814 153 0 76
-0.444166 0.016116 0.270468 0 127 127
-0.310296 0.570920 0.322778 153 0 76
0.268450 0.190827 0.322778 76 0 153
-0.113832 -0.575779 0.370814 153 0 76
-0.444166 0.749540 0.077070 0 127 127
0.230022 -0.575580 -0.399269 0 127 127
0.087805 -0.024149 0.322778 76 0 153
0.015999 -0.695562 -0.399269 0 127 127
-0.420148 -0.828892 0.302986 0 127 127
-0.444166 0.743552 -0.058057 0 127 127
0.081517 -0.524558 0.370814 76 0 153
0.310659 -0.831968 0.096079 0 127 127
0.355001 -0.051212 -0.399269 0 127 127
-0.064039 -0.502554 0.322778 153 0 76
-0.161167 0.548200 0.370814 153 0 76
-0.444166 0.300824 -0.059687 0 127 127
0.029941 -0.519889 0.370814 76 0 153
0.468526 -0.615632 -0.181151 0 127 127
-0.444166 -0.613030 0.204853 0 127 127
0.468526 -0.020520 0.063574 0 127 127
-0.232347 0.391531 0.370814 153 0 76
0.250462 0.441452 0.322778 76 0 153
-0.260753 -0.143919 -0.399269 0 127 127
0.357708 0.258417 -0.399269 0 127 127
0.130387 0.069867 0.370814 76 0 153
0.180593 -0.831968 -0.240886 0 127 127
0.074149 -0.151278 0.370814 76 0 153
-0.444166 0.425588 -0.256287 0 127 127
-0.444166 -0.779420 -0.222515 0 127 127
-0.422092 -0.117132 0.370814 153 0 76
0.273461 -0.446269 0.370814 76 0 153
0.468526 -0.545346 -0.191027 0 127 127
-0.276379 0.332947 0.370814 153 0 76
-0.444166 -0.721659 -0.187873 0 127 127
0.447282 -0.257332 0.370814 76 0 153
-0.444166 -0.029861 0.243450 0 127 127
-0.019810 0.375090 0.322778 76 0 153
0.444507 -0.470875 0.298949 0 127 127
-0.156357 0.574140 -0.399269 0 127 127
0.468526 0.778322 0.008767 0 127 127
-0.444166 -0.688836 0.006884 0 127 127
0.468526 0.299638 0.267050 0 127 127
-0.444166 -0.004065 0.124524 0 127 127
-0.021390 -0.361687 -0.399269 0 127 127
0.095189 -0.654405 0.370814 76 0 153
-0.238167 0.766570 0.370814 153 0 76
-0.444166 -0.023914 0.069127 0 127 127
0.468526 0.174419 -0.376450 0 127 127
0.021723 -0.429067 -0.399269 0 127 127
-0.444166 0.046875 -0.022124 0 127 127
0.140049 -0.090383 -0.399269 0 127 127
-0.419109 0.148328 0.322778 0 127 127
0.432398 0.489878 0.322778 76 0 153
0.022778 0.516477 -0.399269 0 127 127
0.095338 -0.253988 0.370814 76 0 153
0.142754 -0.379556 0.370814 76 0 153
0.468526 -0.209711 -0.171146 0 127 127
0.307337 0.147779 0.322778 76 0 153
0.087171 -0.360816 -0.399269 0 127 127
0.468526 0.518315 -0.148692 0 127 127
-0.177732 0.210215 0.322778 153 0 76
0.092740 0.825287 0.232557 0 127 127
0.288427 0.752496 -0.399269 0 127 127
-0.444166 -0.736463 0.086878 0 127 127
-0.105860 -0.821762 0.369313 0 127 127
0.468526 -0.376815 -0.374772 0 127 127
-0.307933 -0.831968 0.305415 0 127 127
0.141570 -0.429733 0.370814 76 0 153
-0.184769 -0.190438 0.322778 153 0 76
-0.138494 0.825287 -0.286381 0 127 127
0.468526 0.386785 0.284142 0 127 127
-0.056251 0.583419 0.310343 0 127 127
-0.423363 -0.831968 -0.190873 0 127 127
-0.296656 0.825287 -0.291167 0 127 127
-0.112798 -0.342277 -0.399269 0 127 127
-0.444166 0.498136 0.369151 153 0 76
-0.017775 -0.137655 0.370814 76 0 153
-0.404795 0.328127 -0.399269 0 127 127
0.465749 0.501089 0.297258 0 127 127
0.048828 0.825287 -0.035050 0 127 127
-0.147242 -0.069768 0.370814 153 0 76
0.397084 0.487796 0.370814 76 0 153
-0.420206 0.687457 0.297258 0 127 127
-0.167418 -0.588132 0.322778 153 0 76
0.182945 0.809597 0.322778 76 0 153
0.468526 -0.453342 -0.218378 0 127 127
0.295179 -0.240672 -0.399269 0 127 127
0.468526 -0.009009 0.232857 0 127 127
0.062992 -0.665420 -0.399269 0 127 127
0.468526 0.086823 0.200083 0 127 127
0.468526 0.480019 -0.344087 0 127 127
-0.444166 -0.662472 0.122882 0 127 127
0.133000 -0.831968 -0.089767 0 127 127
0.376982 0.668458 0.370814 76 0 153
-0.444166 -0.791875 0.354933 0 127 127
0.347990 0.510029 0.370814 76 0 153
-0.440164 -0.555829 -0.399269 0 127 127
0.150334 -0.556787 -0.399269 0 127 127
-0.444166 -0.255925 0.240887 0 127 127
-0.444166 0.793431 -0.280121 0 127 127
0.200576 -0.616321 0.322778 76 0 153
-0.210196 -0.625144 0.322778 153 0 76
-0.262711 -0.340864 -0.399269 0 127 127
0.468526 0.237357 -0.114548 0 127 127
-0.000160 0.825287 0.062474 0 127 127
-0.305067 0.022180 0.370814 153 0 76
0.399992 -0.576392 0.370814 76 0 153
0.410253 0.378313 0.370814 76 0 153
0.468526 -0.720590 0.069809 0 127 127
-0.368764 0.712659 -0.399269 0 127 127
-0.269840 -0.831968 -0.188248 0 127 127
-0.444166 -0.085990 0.015946 0 127 127
-0.122807 0.825287 0.212773 0 127 127
0.418885 0.343852 0.322778 76 0 153
0.468526 -0.469844 -0.379750 0 127 127
-0.444166 -0.458596 0.086762 0 127 127
-0.444166 0.071772 0.358644 153 0 76
-0.444166 0.014060 -0.064378 0 127 127
0.361519 -0.831968 -0.324401 0 127 127
0.468526 -0.499430 -0.157215 0 127 127
0.162895 0.260996 0.370814 76 0 153
-0.444166 0.693493 -0.224195 0 127 127
-0.004050 0.825287 -0.062140 0 127 127
-0.444166 0.071503 -0.235219 0 127 127
-0.343968 -0.258300 -0.399269 0 127 127
0.028820 0.608360 -0.399269 0 127 127
-0.331788 0.708738 -0.399269 0 127 127
0.468526 -0.618566 0.164167 0 127 127
0.468526 -0.076166 -0.141915 0 127 127
0.129915 -0.338390 0.370814 76 0 153
-0.313046 -0.209726 -0.399269 0 127 127
0.180660 0.132843 0.370814 76 0 153
-0.261994 -0.831968 0.271303 0 127 127
-0.444166 -0.237676 -0.394187 0 127 127
-0.221838 -0.567380 -0.399269 0 127 127
0.396472 -0.563582 0.322778 76 0 153
-0.007328 -0.831968 -0.130748 0 127 127
-0.226523 0.241476 -0.399269 0 127 127
0.468526 0.028246 0.099119 0 127 127
0.354638 -0.395464 0.370814 76 0 153
0.334696 -0.402317 -0.399269 0 127 127
0.468526 -0.068892 -0.337932 0 127 127
-0.444166 -0.232404 -0.262731 0 127 127
0.122808 -0.831968 0.231162 0 127 127
0.468526 0.241118 -0.248073 0 127 127
-0.444166 -0.742810 0.029901 0 127 127
-0.444166 -0.712393 -0.139417 0 127 127
0.459040 0.316957 0.322778 76 0 153
0.094040 0.357103 0.322778 76 0 153
0.468526 0.559597 -0.333392 0 127 127
-0.312116 -0.075247 0.322778 153 0 76
0.136345 -0.176559 -0.399269 0 127 127
0.349402 0.644871 -0.399269 0 127 127
-0.323144 0.322352 0.370814 153 0 76
0.359022 0.823888 -0.399269 0 127 127
0.236303 0.825287 -0.329555 0 127 127
-0.444166 -0.381071 -0.396755 0 127 127
-0.444166 -0.107817 -0.087086 0 127 127
0.141000 0.559695 -0.399269 0 127 127
0.468526 0.319328 -0.187308 0 127 127
-0.323277 0.341753 -0.399269 0 127 127
-0.444166 0.240360 -0.252631 0 127 127
0.468526 -0.049303 -0.236760 0 127 127
-0.244492 -0.442679 0.322778 153 0 76
0.002829 0.127956 0.322778 76 0 153
0.072318 0.469244 0.322778 76 0 153
-0.364443 0.268279 -0.399269 0 127 127
-0.272680 0.699272 0.370814 153 0 76
0.434894 -0.608104 0.322778 0 127 127
-0.090779 0.819424 -0.399269 0 127 127
0.281936 -0.651156 -0.399269 0 127 127
-0.423913 0.540637 -0.399269 0 127 127
-0.116381 -0.760167 -0.399269 0 127 127
-0.444166 -0.784704 0.193036 0 127 127
0.047753 0.825287 0.369100 76 0 153
0.382372 0.768797 -0.399269 0 127 127
0.086558 -0.176900 -0.399269 0 127 127
-0.444166 -0.417689 0.247222 0 127 127
-0.444166 -0.124679 0.346695 153 0 76
0.008667 -0.595056 0.322778 76 0 153
0.382604 -0.831968 -0.085216 0 127 127
-0.444166 0.820816 0.085848 0 127 127
0.417483 0.825287 0.262617 0 127 127
-0.290187 -0.420482 0.322778 153 0 76
-0.294539 0.779262 0.370814 153 0 76
-0.320149 0.015869 -0.399269 0 127 127
-0.220951 0.825287 -0.202162 0 127 127
0.393829 -0.196763 -0.399269 0 127 127
-0.206084 -0.110743 -0.399269 0 127 127
-0.056251 -0.520939 0.368190 153 0 76
0.226171 -0.181124 0.370814 76 0 153
0.226650 0.706055 -0.399269 0 127 127
-0.255197 0.558635 0.322778 153 0 76
-0.426991 -0.404899 0.322778 153 0 76
-0.444166 -0.793145 -0.128754 0 127 127
-0.431755 0.478494 0.322778 153 0 76
-0.444166 -0.054493 -0.119476 0 127 127
-0.319498 -0.831968 -0.120631 0 127 127
0.032497 -0.354931 0.322778 76 0 153
0.363675 -0.745399 0.370814 76 0 153
-0.128403 0.078974 -0.399269 0 127 127
0.468526 0.715056 0.026120 0 127 127
0.119622 0.315231 0.322778 76 0 153
0.234506 -0.272684 -0.399269 0 127 127
-0.444166 -0.618635 0.094330 0 127 127
0.468526 0.668931 -0.112879 0 127 127
-0.043015 0.157125 0.320997 76 0 153
0.468526 -0.155843 -0.371354 0 127 127
-0.163485 0.018882 0.370814 153 0 76
0.261218 -0.152010 -0.399269 0 127 127
0.021921 -0.775125 0.327747 76 0 153
0.424601 -0.033221 0.370814 76 0 153
-0.429935 -0.831968 0.016609 0 127 127
0.165832 0.208073 -0.399269 0 127 127
0.141980 -0.831968 -0.328664 0 127 127
0.053237 0.416433 0.322778 76 0 153
-0.170578 -0.775125 0.350275 153 0 76
0.029487 0.048908 0.322778 76 0 153
0.449213 0.770854 0.297258 76 0 153
0.395931 0.825287 0.159950 0 127 127
0.246914 -0.536377 -0.399269 0 127 127
-0.027395 0.825287 0.180175 0 127 127
-0.298217 -0.781519 -0.399269 0 127 127
-0.444166 -0.789242 0.038423 0 127 127
0.147406 -0.590151 0.370814 76 0 153
-0.416518 0.727769 -0.399269 0 127 127
0.387573 -0.415489 0.322778 76 0 153
-0.212164 -0.831968 0.041353 0 127 127
-0.214024 0.529114 0.322778 153 0 76
0.310957 -0.591958 0.370814 76 0 153
-0.021152 -0.811577 0.369313 0 127 127
-0.280958 0.825287 -0.324346 0 127 127
0.263533 0.531969 -0.399269 0 127 127
-0.222719 -0.461266 0.322778 153 0 76
-0.444166 -0.442316 -0.370288 0 127 127
-0.259959 -0.635730 0.322778 153 0 76
-0.406729 -0.052295 0.322778 153 0 76
0.461194 -0.191623 0.370814 76 0 153
-0.327571 0.764423 -0.399269 0 127 127
-0.444166 -0.089334 0.268057 0 127 127
-0.379304 0.812621 0.370814 153 0 76
0.155158 -0.831968 0.205157 0 127 127
-0.088678 0.825287 -0.029260 0 127 127
0.468526 -0.735558 -0.329035 0 127 127
0.468526 -0.622620 0.189800 0 127 127
0.397878 -0.775125 0.345561 76 0 153
0.105388 -0.438004 -0.399269 0 127 127
0.067452 0.825287 -0.152724 0 127 127
-0.444166 -0.229736 -0.033714 0 127 127
-0.444166 -0.352746 0.276918 0 127 127
-0.003944 0.825287 -0.208621 0 127 127
0.011253 0.660782 0.370814 76 0 153
-0.331105 0.122790 0.370814 153 0 76
0.468526 -0.577565 0.202925 0 127 127
0.035628 0.825287 0.113904 0 127 127
-0.047040 -0.831968 0.213654 0 127 127
-0.444166 0.782205 -0.042234 0 127 127
-0.444166 0.363353 -0.238079 0 127 127
0.315773 0.825287 0.019317 0 127 127
-0.183449 0.269143 -0.399269 0 127 127
-0.007178 0.825287 0.341429 76 0 153
0.285323 -0.527815 -0.399269 0 127 127
-0.195949 -0.623889 -0.399269 0 127 127
-0.444166 0.490092 0.107998 0 127 127
0.416711 -0.831968 -0.219867 0 127 127
-0.116649 -0.535052 0.322778 153 0 76
0.221662 0.084163 -0.399269 0 127 127
0.271727 -0.656603 0.322778 76 0 153
-0.301166 -0.696490 0.370814 153 0 76
0.138937 -0.532906 0.370814 76 0 153
0.468526 -0.502622 0.212722 0 127 127
-0.189807 -0.262068 0.322778 153 0 76
-0.444166 0.308104 0.133302 0 127 127
0.468526 -0.496864 -0.022986 0 127 127
-0.164252 -0.190805 0.370814 153 0 76
-0.444166 -0.120494 -0.049535 0 127 127
0.468526 0.334069 0.150269 0 127 127
0.261703 0.825287 0.202633 0 127 127
-0.223734 0.825287 0.217621 0 127 127
-0.444166 -0.579903 -0.111976 0 127 127
-0.433220 -0.722373 -0.399269 0 127 127
0.273379 -0.831968 0.118810 0 127 127
0.203355 -0.831968 0.194322 0 127 127
-0.340194 -0.112573 0.370814 153 0 76
0.038143 -0.831968 0.016370 0 127 127
0.180141 0.825287 -0.121103 0 127 127
0.236029 0.339717 -0.399269 0 127 127
-0.184698 0.379909 0.370814 153 0 76
-0.444166 -0.408981 0.188028 0 127 127
-0.382083 0.249662 0.370814 153 0 76
-0.223551 -0.831968 0.116773 0 127 127
0.468526 -0.771700 -0.345272 0 127 127
-0.444166 -0.350432 0.104554 0 127 127
-0.444166 -0.801922 -0.038106 0 127 127
-0.227533 -0.831968 -0.381071 0 127 127
-0.019310 -0.450346 0.370814 76 0 153
-0.444166 0.655300 0.177810 0 127 127
-0.174570 0.825287 0.223856 0 127 127
0.468526 0.679203 0.262097 0 127 127
-0.043015 0.742649 0.306917 0 127 127
0.257719 -0.575454 0.370814 76 0 153
-0.444166 -0.424676 -0.114749 0 127 127
0.468526 0.675224 0.159258 0 127 127
0.089022 -0.579048 0.322778 76 0 153
0.058726 0.358508 -0.399269 0 127 127
0.327891 -0.439689 -0.399269 0 127 127
0.460835 -0.045707 0.322778 76 0 153
-0.308962 -0.831968 0.250177 0 127 127
-0.307512 0.825287 -0.132423 0 127 127
0.048352 -0.745032 0.322778 76 0 153
-0.444166 0.650761 0.071977 0 127 127
0.052065 -0.310831 0.322778 76 0 153
0.468526 0.290188 0.130986 0 127 127
-0.255963 0.034484 0.370814 153 0 76
0.328702 0.349285 0.322778 76 0 153
0.376161 0.731857 0.370814 76 0 153
0.468526 -0.610908 0.064193 0 127 127
-0.352483 -0.831968 -0.071629 0 127 127
0.465696 -0.726120 0.297258 0 127 127
0.082096 0.431211 0.370814 76 0 153
0.213994 -0.831968 -0.187830 0 127 127
-0.444166 0.049977 0.170375 0 127 127
0.157656 -0.230185 0.370814 76 0 153
0.468526 0.209770 -0.223611 0 127 127
0.046456 0.825287 -0.199685 0 127 127
-0.211844 0.770960 0.322778 153 0 76
-0.056251 0.387642 0.356407 153 0 76
0.050767 0.104207 -0.399269 0 127 127
-0.444166 0.182359 0.030719 0 127 127
0.077244 -0.220886 0.370814 76 0 153
-0.444166 -0.798886 0.135388 0 127 127
-0.042130 -0.831968 -0.323748 0 127 127
0.468526 -0.140138 0.349912 76 0 153
-0.313784 -0.810858 0.369313 0 127 127
-0.024491 -0.277510 -0.399269 0 127 127
0.150524 0.478041 0.370814 76 0 153
-0.331581 0.205880 -0.399269 0 127 127
-0.071568 -0.744183 -0.399269 0 127 127
0.351431 -0.831968 0.157870 0 127 127
0.134601 -0.492701 0.322778 76 0 153
-0.068620 -0.616680 -0.399269 0 127 127
-0.416992 0.825287 -0.296009 0 127 127
0.468526 0.159016 -0.155316 0 127 127
0.068846 0.825287 -0.016441 0 127 127
0.027021 0.133545 -0.399269 0 127 127
-0.052476 -0.831968 -0.003276 0 127 127
0.296690 -0.257671 0.322778 76 0 153
-0.083864 -0.831968 0.178260 0 127 127
-0.444166 0.383539 -0.189353 0 127 127
0.332400 0.399569 0.322778 76 0 153
0.444507 0.416298 0.300840 0 127 127
0.468526 0.366133 -0.390616 0 127 127
-0.170524 -0.026132 -0.399269 0 127 127
0.468526 0.000778 -0.159938 0 127 127
0.468526 0.657785 -0.045759 0 127 127
0.468526 -0.706734 0.035925 0 127 127
-0.134542 -0.831968 -0.280718 0 127 127
-0.182516 0.825287 0.150725 0 127 127
-0.052396 0.106005 -0.399269 0 127 127
0.425676 -0.450700 0.322778 76 0 153
0.468526 -0.315339 0.207311 0 127 127
-0.441498 -0.468494 0.370814 153 0 76
0.390385 0.461598 0.370814 76 0 153
0.239627 0.825287 -0.271726 0 127 127
-0.389223 -0.831968 0.337635 0 127 127
0.468526 0.039708 -0.324249 0 127 127
0.468526 -0.111982 -0.341903 0 127 127
0.050265 0.232856 0.322778 76 0 153
0.468526 0.375446 -0.314252 0 127 127
-0.043015 -0.212406 0.370455 76 0 153
0.468526 -0.499966 -0.244926 0 127 127
0.468526 0.545286 0.366820 76 0 153
0.328259 -0.231214 0.370814 76 0 153
0.468526 0.552443 0.266108 0 127 127
0.468526 -0.781226 0.002667 0 127 127
-0.383853 0.825287 0.245099 0 127 127
-0.444166 -0.557293 -0.124066 0 127 127
0.141241 0.823398 0.297258 0 127 127
0.286113 0.377091 0.370814 76 0 153
0.468526 -0.426901 -0.021303 0 127 127
-0.066325 -0.451525 0.370814 153 0 76
-0.264230 -0.167711 0.370814 153 0 76
-0.444166 0.759733 -0.398142 0 127 127
0.431576 -0.831968 -0.133458 0 127 127
0.013973 -0.710123 0.370814 76 0 153
-0.444166 -0.079769 -0.381265 0 127 127
-0.011101 -0.042527 0.370814 76 0 153
-0.444166 0.477680 -0.010771 0 127 127
0.278305 0.143895 0.322778 76 0 153
0.468526 -0.774407 0.271611 0 127 127
0.468526 0.614341 -0.365688 0 127 127
-0.025983 -0.524157 -0.399269 0 127 127
-0.107816 -0.085608 0.322778 153 0 76
-0.227961 0.460902 -0.399269 0 127 127
0.168311 -0.221529 -0.399269 0 127 127
-0.444166 0.583474 0.288929 0 127 127
-0.283547 0.626804 0.370814 153 0 76
0.468526 -0.831803 0.169381 0 127 127
0.254817 0.167588 0.322778 76 0 153
-0.187318 -0.831968 -0.078710 0 127 127
-0.444166 -0.612044 0.350058 153 0 76
-0.444166 -0.473345 0.260468 0 127 127
-0.361763 -0.740805 0.322778 153 0 76
-0.248030 -0.131876 0.370814 153 0 76
0.445700 -0.288307 0.297258 0 127 127
-0.402772 -0.461323 -0.399269 0 127 127
-0.027261 -0.477940 -0.399269 0 127 127
0.468526 -0.806500 0.058173 0 127 127
0.261459 0.825287 0.242179 0 127 127
-0.444166 -0.729985 0.267543 0 127 127
-0.254091 0.648323 0.322778 153 0 76
-0.422350 0.250573 0.370814 153 0 76
0.468526 0.790446 0.144686 0 127 127
0.468526 0.211782 -0.013146 0 127 127
0.331182 0.006931 0.322778 76 0 153
0.398105 -0.263768 -0.399269 0 127 127
-0.225978 -0.772452 0.370814 153 0 76
0.236269 -0.831968 0.156368 0 127 127
0.468526 -0.181325 0.050586 0 127 127
-0.067834 0.825287 -0.347798 0 127 127
0.373995 -0.209010 0.370814 76 0 153
-0.093370 0.065083 0.322778 153 0 76
-0.444166 -0.169042 0.088179 0 127 127
0.247575 -0.402803 -0.399269 0 127 127
-0.037784 -0.603104 0.370814 76 0 153
0.468526 -0.665664 0.213779 0 127 127
0.180436 -0.653783 0.322778 76 0 153
0.340318 0.467620 0.370814 76 0 153
-0.287684 0.825287 0.127562 0 127 127
-0.237218 0.534837 -0.399269 0 127 127
-0.030847 0.481666 -0.399269 0 127 127
0.093079 -0.831968 0.173568 0 127 127
0.296506 -0.411086 0.322778 76 0 153
0.468526 -0.765256 0.107604 0 127 127
-0.353854 -0.831968 0.192256 0 127 127
-0.174935 -0.612534 0.322778 153 0 76
-0.444166 -0.657022 -0.237318 0 127 127
-0.362883 -0.679981 0.322778 153 0 76
0.100162 -0.012521 0.370814 76 0 153
0.356928 -0.774475 -0.399269 0 127 127
-0.124143 0.825287 -0.231122 0 127 127
-0.045472 -0.831968 -0.232051 0 127 127
0.256002 0.819918 0.297258 0 127 127
0.446319 0.164436 -0.399269 0 127 127
0.468526 0.073033 -0.296338 0 127 127
-0.063015 -0.234718 0.322778 153 0 76
0.468526 0.631519 0.100648 0 127 127
0.408805 -0.343631 0.370814 76 0 153
-0.376483 -0.073939 0.370814 153 0 76
0.196414 -0.831968 0.142227 0 127 127
-0.444166 -0.536787 -0.216357 0 127 127
-0.340353 -0.309893 -0.399269 0 127 127
0.468526 -0.212641 -0.084825 0 127 127
-0.108826 -0.831968 0.001512 0 127 127
0.174906 0.607344 -0.399269 0 127 127
0.299681 0.747205 0.322778 76 0 153
0.395194 0.430473 0.322778 76 0 153
0.468526 -0.731343 -0.053852 0 127 127
0.468526 0.722013 -0.231882 0 127 127
0.331074 0.553114 0.322778 76 0 153
0.171014 0.106784 0.370814 76 0 153
-0.228706 -0.382600 0.370814 153 0 76
-0.444166 -0.042148 -0.188107 0 127 127
-0.444166 0.266733 -0.271668 0 127 127
-0.340676 0.535590 0.322778 153 0 76
0.468526 -0.599166 0.147387 0 127 127
0.121568 -0.831968 0.041993 0 127 127
-0.364073 0.652456 0.322778 153 0 76
-0.444166 0.719306 0.124381 0 127 127
-0.378757 -0.764833 0.370814 153 0 76
-0.149085 -0.807447 0.369313 0 127 127
-0.426212 -0.526437 0.370814 153 0 76
-0.102166 -0.459249 0.322778 153 0 76
0.468526 -0.638168 -0.026041 0 127 127
-0.444166 -0.619587 0.255305 0 127 127
-0.444166 -0.698937 0.123964 0 127 127
-0.350937 0.262764 0.370814 153 0 76
-0.444166 -0.233585 -0.313875 0 127 127
0.449908 -0.346005 0.322778 76 0 153
0.468526 -0.389637 0.342080 76 0 153
0.142530 0.086458 0.322778 76 0 153
0.468526 -0.537920 -0.165244 0 127 127
-0.444166 -0.493297 -0.245501 0 127 127
-0.444166 -0.656359 0.323476 153 0 76
-0.444166 0.811109 -0.118094 0 127 127
-0.357077 -0.381227 0.322778 153 0 76
0.468526 -0.591004 -0.387480 0 127 127
-0.420148 -0.350718 0.319275 153 0 76
0.428398 -0.831968 0.114128 0 127 127
0.434444 0.691429 0.370814 76 0 153
-0.195370 0.825287 0.351725 153 0 76
0.468526 -0.033476 0.176277 0 127 127
-0.119552 0.243730 -0.399269 0 127 127
0.468526 0.763223 -0.375327 0 127 127
0.352124 -0.055840 0.322778 76 0 153
0.453042 -0.468602 0.322778 76 0 153
0.290671 -0.559951 -0.399269 0 127 127
0.424876 0.528968 -0.399269 0 127 127
-0.444166 -0.368512 0.328224 153 0 76
0.444507 0.299124 0.299516 0 127 127
-0.043015 0.018926 0.339541 0 127 127
0.468526 -0.820459 -0.237894 0 127 127
-0.404476 -0.488138 -0.399269 0 127 127
-0.328350 0.825287 -0.080800 0 127 127
0.000486 -0.518560 0.322778 76 0 153
-0.324842 0.551533 0.370814 153 0 76
0.381365 -0.831968 0.342918 0 127 127
0.279027 0.291610 0.322778 76 0 153
0.468526 -0.064798 -0.373947 0 127 127
0.065998 0.681440 0.322778 76 0 153
-0.429034 0.656414 0.322778 0 127 127
0.468526 -0.770864 0.040481 0 127 127
-0.420148 0.463715 0.302057 0 127 127
-0.223185 0.105565 -0.399269 0 127 127
0.208335 -0.443403 0.322778 76 0 153
0.468526 0.103235 -0.310857 0 127 127
0.279173 0.037534 0.370814 76 0 153
-0.444166 0.758200 0.049448 0 127 127
-0.444166 -0.644317 -0.276498 0 127 127
0.437191 -0.831968 0.244274 0 127 127
-0.066824 0.825287 0.016623 0 127 127
0.282244 0.524069 0.322778 76 0 153
-0.163390 0.318897 0.322778 153 0 76
0.425156 -0.831968 0.059913 0 127 127
-0.388914 -0.831968 -0.340034 0 127 127
0.468526 0.348523 0.258932 0 127 127
-0.133244 -0.448816 0.322778 153 0 76
0.172512 0.576075 0.322778 76 0 153
-0.444166 0.039246 0.077608 0 127 127
-0.376724 -0.831968 -0.044288 0 127 127
0.172786 0.394147 0.370814 76 0 153
0.097658 0.491154 -0.399269 0 127 127
0.444712 -0.831968 -0.016088 0 127 127
0.335693 0.760552 0.370814 76 0 153
0.040824 -0.575368 -0.399269 0 127 127
-0.090397 0.185736 0.370814 153 0 76
0.224787 -0.831968 -0.159399 0 127 127
0.332016 0.825287 0.233001 0 127 127
-0.252924 0.825287 -0.033814 0 127 127
-0.444166 -0.527555 0.046977 0 127 127
0.468526 -0.122439 -0.137751 0 127 127
-0.444166 0.265035 0.276284 0 127 127
0.468526 0.278230 -0.257772 0 127 127
-0.220822 0.723922 0.322778 153 0 76
-0.257620 0.067074 -0.399269 0 127 127
-0.444166 0.743115 -0.204708 0 127 127
0.209241 -0.097645 0.370814 76 0 153
0.468526 0.004712 -0.117095 0 127 127
-0.056251 0.181798 0.337483 0 127 127
0.468526 0.481404 -0.174024 0 127 127
0.373580 -0.347475 0.370814 76 0 153
0.424171 0.825287 0.235376 0 127 127
0.391490 0.483137 0.322778 76 0 153
-0.043015 -0.371578 0.343136 0 127 127
-0.168443 0.359738 0.322778 153 0 76
-0.375633 0.093597 0.370814 153 0 76
-0.387033 0.616609 0.322778 153 0 76
0.286878 0.471590 -0.399269 0 127 127
0.468526 0.459345 -0.121993 0 127 127
-0.152478 -0.626532 0.370814 153 0 76
0.002786 0.709109 -0.399269 0 127 127
-0.444166 0.256518 0.021329 0 127 127
0.026933 0.810698 0.297258 0 127 127
0.349960 -0.831968 0.016935 0 127 127
0.437098 -0.831968 -0.076724 0 127 127
-0.349504 -0.095223 -0.399269 0 127 127
0.121746 -0.187237 0.322778 76 0 153
0.272425 0.214268 -0.399269 0 127 127
-0.444166 0.153956 0.145102 0 127 127
0.468526 -0.801889 -0.257465 0 127 127
-0.444166 0.334642 0.058118 0 127 127
0.241777 0.782147 -0.399269 0 127 127
0.128725 0.268581 0.370814 76 0 153
0.207344 0.825287 0.031816 0 127 127
0.296169 -0.385828 -0.399269 0 127 127
-0.172355 -0.765247 -0.399269 0 127 127
0.178695 0.825287 -0.175009 0 127 127
-0.360171 -0.448778 0.370814 153 0 76
-0.000800 -0.465440 -0.399269 0 127 127
-0.444166 0.717870 -0.360250 0 127 127
-0.444166 0.682327 -0.316472 0 127 127
-0.444166 -0.482209 0.000542 0 127 127
0.329100 -0.226965 -0.399269 0 127 127
-0.043015 -0.134267 0.312610 0 127 127
-0.373513 0.777172 0.322778 153 0 76
0.209356 -0.147115 -0.399269 0 127 127
-0.430846 -0.284140 0.322778 153 0 76
-0.444166 -0.629222 -0.388787 0 127 127
-0.232011 -0.212544 0.322778 153 0 76
-0.444166 0.757871 -0.013655 0 127 127
-0.315932 -0.191723 0.322778 153 0 76
0.076859 0.336908 0.370814 76 0 153
-0.270385 -0.020146 -0.399269 0 127 127
0.468526 -0.234922 0.142016 0 127 127
0.191971 0.585506 -0.399269 0 127 127
-0.178295 0.720790 0.370814 153 0 76
-0.420148 0.053681 0.297955 0 127 127
-0.191114 0.532012 -0.399269 0 127 127
0.062894 -0.831968 0.355277 0 127 127
-0.374849 0.237943 0.322778 153 0 76
0.468526 0.800012 -0.237679 0 127 127
0.368997 -0.662724 0.370814 76 0 153
-0.389032 0.825287 -0.260380 0 127 127
-0.383993 -0.621028 -0.399269 0 127 127
0.230175 -0.516686 0.370814 76 0 153
0.334560 0.440601 -0.399269 0 127 127
-0.444166 -0.209917 0.273459 0 127 127
-0.228905 0.133071 0.322778 153 0 76
-0.420148 -0.178263 0.303458 0 127 127
-0.258975 0.762214 0.322778 153 0 76
-0.158440 -0.831968 -0.075127 0 127 127
-0.262664 -0.690147 -0.399269 0 127 127
-0.248816 -0.831968 0.142777 0 127 127
0.235310 -0.810023 0.369313 0 127 127
-0.079712 -0.200048 0.370814 153 0 76
-0.290354 -0.384457 -0.399269 0 127 127
-0.001171 0.203186 -0.399269 0 127 127
-0.444166 -0.176480 -0.169133 0 127 127
0.300964 0.825287 -0.195134 0 127 127
0.263678 0.415251 0.370814 76 0 153
-0.219209 -0.592894 0.322778 153 0 76
-0.396600 0.825287 0.133536 0 127 127
-0.125285 0.596648 0.322778 153 0 76
-0.444166 0.454439 -0.396137 0 127 127
-0.444166 -0.068791 0.034877 0 127 127
-0.097707 -0.630626 -0.399269 0 127 127
0.196609 -0.831968 0.004850 0 127 127
0.048217 0.126994 0.322778 76 0 153
0.261730 -0.215968 0.322778 76 0 153
-0.444166 0.317814 -0.284350 0 127 127
-0.338638 -0.709438 0.322778 153 0 76
-0.123748 -0.506683 -0.399269 0 127 127
-0.329184 -0.400251 0.370814 153 0 76
-0.444166 0.743569 0.348052 153 0 76
0.124279 -0.341509 0.322778 76 0 153
-0.019662 -0.094950 0.322778 76 0 153
-0.265996 0.090840 -0.399269 0 127 127
-0.090770 0.193406 -0.399269 0 127 127
0.408661 0.580256 -0.399269 0 127 127
-0.357326 0.734084 0.370814 153 0 76
-0.013736 -0.299684 0.370814 76 0 153
0.103179 0.162928 0.370814 76 0 153
0.006709 -0.831968 -0.075104 0 127 127
0.455098 0.825287 -0.162924 0 127 127
-0.444166 0.558235 -0.110784 0 127 127
0.290362 -0.084979 -0.399269 0 127 127
-0.224887 -0.255754 0.370814 153 0 76
0.465871 0.734600 0.297258 0 127 127
-0.069743 -0.028474 0.322778 153 0 76
0.046566 0.718511 0.322778 76 0 153
0.468526 -0.602682 -0.089695 0 127 127
-0.439498 0.782868 0.370814 153 0 76
0.468526 0.248552 0.226902 0 127 127
0.407270 -0.543226 0.370814 76 0 153
-0.444166 -0.534418 -0.340507 0 127 127
0.468526 0.231435 -0.286456 0 127 127
0.192274 0.433271 -0.399269 0 127 127
-0.283068 -0.831968 0.309071 0 127 127
-0.444166 0.766180 -0.098802 0 127 127
0.265526 -0.679869 -0.399269 0 127 127
-0.420411 -0.831968 -0.065759 0 127 127
0.286226 0.825287 -0.303030 0 127 127
-0.056251 -0.744964 0.367468 153 0 76
-0.411204 -0.357492 0.370814 153 0 76
0.103572 -0.525193 0.322778 76 0 153
0.468526 -0.734597 -0.174857 0 127 127
-0.175624 -0.663677 0.322778 153 0 76
0.444990 0.823383 0.322778 76 0 153
-0.099350 0.798163 0.322778 0 127 127
0.208192 0.394871 0.370814 76 0 153
0.336685 -0.831968 0.205339 0 127 127
0.468526 0.270481 -0.147278 0 127 127
0.468526 0.631507 -0.009175 0 127 127
0.224034 -0.732221 0.370814 76 0 153
-0.191548 0.258139 0.322778 153 0 76
0.105527 0.643566 0.322778 76 0 153
-0.157054 0.743024 0.322778 153 0 76
-0.444166 -0.354272 0.352341 153 0 76
0.348000 -0.625929 0.370814 76 0 153
-0.069649 -0.831968 -0.034539 0 127 127
-0.444166 -0.793672 0.104778 0 127 127
-0.121207 -0.831968 -0.245251 0 127 127
0.144093 0.825287 0.205830 0 127 127
0.445994 -0.507663 0.370814 76 0 153
-0.276503 0.286320 0.322778 153 0 76
-0.298558 0.344754 0.370814 153 0 76
-0.187920 0.790976 0.370814 153 0 76
0.348852 -0.539450 0.370814 76 0 153
0.039251 -0.285511 -0.399269 0 127 127
0.468526 0.795747 0.264649 0 127 127
-0.444166 -0.302140 -0.181061 0 127 127
-0.198293 -0.710980 -0.399269 0 127 127
-0.444166 0.639682 -0.194354 0 127 127
0.468526 0.661693 -0.320561 0 127 127
0.307718 0.433359 0.322778 76 0 153
0.468526 0.423274 -0.313884 0 127 127
-0.155410 -0.231238 0.322778 153 0 76
0.331849 -0.039426 0.322778 76 0 153
0.044651 0.082739 0.370814 76 0 153
0.416864 -0.747957 0.322778 76 0 153
-0.444166 0.393061 -0.035566 0 127 127
-0.275974 -0.189690 -0.399269 0 127 127
0.468526 0.203750 0.208370 0 127 127
0.008033 0.330704 0.322778 76 0 153
0.468526 0.308727 -0.077507 0 127 127
-0.306382 0.632988 0.322778 153 0 76
0.468526 -0.326392 -0.139284 0 127 127
0.374394 -0.416047 -0.399269 0 127 127
-0.043015 -0.088827 0.313253 0 127 127
0.468526 0.055884 -0.238382 0 127 127
-0.322766 -0.339661 0.322778 153 0 76
-0.309758 0.076764 -0.399269 0 127 127
0.459674 0.261300 0.322778 76 0 153
0.468526 -0.216196 -0.337699 0 127 127
-0.119836 -0.775125 0.354527 153 0 76
-0.124917 -0.255946 0.370814 153 0 76
0.468526 -0.102370 -0.042996 0 127 127
0.054299 -0.694666 0.370814 76 0 153
0.446376 -0.831968 -0.338533 0 127 127
0.118864 -0.181756 0.370814 76 0 153
0.468526 0.527044 -0.255381 0 127 127
0.285416 0.066793 0.322778 76 0 153
0.094358 -0.831968 -0.322960 0 127 127
0.294257 -0.334053 -0.399269 0 127 127
0.305178 -0.167650 -0.399269 0 127 127
0.353478 -0.831968 0.295816 0 127 127
0.264607 -0.711760 0.370814 76 0 153
-0.024103 0.157020 -0.399269 0 127 127
0.226193 -0.795232 -0.399269 0 127 127
0.086939 -0.730168 0.370814 76 0 153
-0.344556 -0.831968 0.085709 0 127 127
0.291837 -0.156365 0.370814 76 0 153
-0.246019 -0.592508 0.322778 153 0 76
0.018345 -0.571722 0.370814 76 0 153
0.054269 -0.087260 0.322778 76 0 153
0.468526 -0.491661 0.035601 0 127 127
-0.444166 -0.657466 -0.187205 0 127 127
0.285747 0.400842 -0.399269 0 127 127
-0.136096 -0.301370 0.370814 153 0 76
-0.319273 0.663302 -0.399269 0 127 127
0.468526 -0.456486 -0.270625 0 127 127
-0.444166 -0.262399 0.047768 0 127 127
-0.234349 0.529075 0.370814 153 0 76
0.468526 -0.396450 -0.313386 0 127 127
-0.234559 0.623584 0.322778 153 0 76
0.327711 0.825287 0.325577 76 0 153
-0.227475 -0.636219 0.370814 153 0 76
-0.090200 0.148203 0.322778 153 0 76
0.188840 -0.546982 -0.399269 0 127 127
-0.206513 -0.693347 0.370814 153 0 76
-0.115732 0.701849 0.370814 153 0 76
0.350776 0.825287 0.028186 0 127 127
0.468526 0.654375 -0.197225 0 127 127
0.468526 -0.185510 0.330360 76 0 153
-0.444166 -0.596911 0.230018 0 127 127
-0.276321 -0.362542 0.322778 153 0 76
0.176195 -0.567724 0.370814 76 0 153
0.161713 -0.831968 -0.369174 0 127 127
-0.417168 -0.101984 0.322778 153 0 76
0.179611 0.552055 0.322778 76 0 153
0.468526 0.284719 -0.317236 0 127 127
-0.313736 0.521594 0.370814 153 0 76
-0.444166 -0.298663 0.123759 0 127 127
0.468526 0.174476 -0.264886 0 127 127
0.456628 0.217005 0.297258 0 127 127
-0.206136 -0.513508 0.370814 153 0 76
-0.031551 0.602297 -0.399269 0 127 127
0.468072 0.601485 0.297258 0 127 127
0.170980 0.802441 0.370814 76 0 153
0.299628 0.316039 0.370814 76 0 153
-0.352140 0.805352 -0.399269 0 127 127
0.382031 -0.032308 0.370814 76 0 153
-0.271404 0.041760 -0.399269 0 127 127
0.090859 -0.455481 0.322778 76 0 153
0.468526 -0.555401 0.190984 0 127 127
-0.202533 -0.344387 -0.399269 0 127 127
0.389295 -0.058959 -0.399269 0 127 127
-0.070630 0.825287 -0.077065 0 127 127
-0.002959 0.246181 0.322778 76 0 153
-0.444166 0.590781 -0.207826 0 127 127
-0.444166 0.534007 -0.246026 0 127 127
0.468526 -0.301606 -0.157594 0 127 127
0.468526 -0.806078 -0.083972 0 127 127
0.334263 -0.532275 -0.399269 0 127 127
0.346553 -0.261042 -0.399269 0 127 127
-0.240823 0.269617 -0.399269 0 127 127
0.397595 0.720388 0.322778 76 0 153
-0.037225 0.438988 -0.399269 0 127 127
-0.153884 0.825287 -0.026004 0 127 127
-0.444166 0.015753 -0.319626 0 127 127
0.388104 0.825287 -0.328505 0 127 127
-0.077541 0.399243 0.370814 153 0 76
0.115077 -0.189464 -0.399269 0 127 127
-0.444166 0.824061 0.161061 0 127 127
-0.420148 -0.523282 0.301096 0 127 127
-0.444166 0.596896 -0.258855 0 127 127
-0.420148 0.111274 0.298496 0 127 127
0.102357 -0.242485 0.322778 76 0 153
0.468526 -0.689595 -0.336198 0 127 127
0.468526 -0.682325 0.293623 0 127 127
0.468526 0.618107 0.135877 0 127 127
-0.228037 0.428129 0.370814 153 0 76
0.468526 -0.816279 -0.288533 0 127 127
0.237364 -0.488616 -0.399269 0 127 127
-0.056251 0.707935 0.333659 153 0 76
0.371940 0.560755 0.370814 76 0 153
0.364811 0.777326 0.370814 76 0 153
0.468526 -0.648869 -0.397209 0 127 127
0.468526 -0.636726 -0.147502 0 127 127
0.409602 0.658711 0.370814 76 0 153
-0.411074 -0.831968 0.058335 0 127 127
-0.306218 -0.106785 -0.399269 0 127 127
0.440038 0.357623 0.322778 0 127 127
0.350918 -0.831968 0.363405 0 127 127
0.467927 0.461342 0.297258 0 127 127
0.468526 -0.617853 0.235725 0 127 127
-0.155640 0.417030 0.322778 153 0 76
-0.241797 0.803040 0.370814 153 0 76
0.389343 0.528239 0.322778 76 0 153
0.212003 0.798502 -0.399269 0 127 127
0.275127 -0.597005 0.322778 76 0 153
0.468526 0.623111 -0.118167 0 127 127
0.468526 0.061730 0.145172 0 127 127
0.468526 -0.683920 -0.036272 0 127 127
-0.444166 0.779431 -0.253922 0 127 127
0.262608 -0.326948 0.370814 76 0 153
-0.157917 0.249963 0.322778 153 0 76
0.260298 -0.427952 0.322778 76 0 153
0.300430 -0.503393 0.370814 76 0 153
0.468526 0.734476 0.089581 0 127 127
-0.444166 0.680119 -0.065287 0 127 127
-0.078431 -0.831968 -0.244873 0 127 127
0.287862 0.636515 0.370814 76 0 153
-0.259398 -0.600577 -0.399269 0 127 127
-0.439949 -0.831968 -0.233668 0 127 127
-0.255208 -0.205030 -0.399269 0 127 127
-0.444166 -0.179005 -0.388826 0 127 127
0.222032 -0.020250 -0.399269 0 127 127
0.409295 0.594106 0.370814 76 0 153
-0.090653 0.776449 -0.399269 0 127 127
-0.071909 0.427330 0.322778 153 0 76
0.109950 0.760598 0.370814 76 0 153
-0.311812 0.193378 0.370814 153 0 76
0.214972 0.825287 -0.208012 0 127 127
-0.444166 -0.612291 0.060922 0 127 127
-0.069156 0.825287 -0.317599 0 127 127
0.389193 0.825287 0.079219 0 127 127
0.168312 0.741666 -0.399269 0 127 127
0.251872 -0.831968 0.355973 0 127 127
0.308275 -0.072344 0.370814 76 0 153
0.019648 -0.220443 0.322778 76 0 153
0.284383 -0.502918 -0.399269 0 127 127
0.468526 0.635369 0.226845 0 127 127
-0.097184 0.825287 -0.000050 0 127 127
0.052741 -0.169270 0.370814 76 0 153
-0.444166 -0.157921 -0.372930 0 127 127
-0.108439 0.042724 0.322778 153 0 76
0.468526 0.608077 0.221302 0 127 127
0.000328 -0.406718 0.322778 76 0 153
-0.080267 -0.546068 0.322778 153 0 76
-0.025824 0.350689 -0.399269 0 127 127
-0.220571 -0.417279 -0.399269 0 127 127
0.186636 -0.249612 0.370814 76 0 153
-0.110941 -0.292892 0.322778 153 0 76
-0.347901 0.121000 -0.399269 0 127 127
0.070316 0.173734 0.322778 76 0 153
-0.073528 0.596418 -0.399269 0 127 127
-0.444166 0.439818 0.226423 0 127 127
-0.444166 0.107420 -0.200362 0 127 127
0.196119 -0.587913 0.322778 76 0 153
-0.185762 0.413199 0.370814 153 0 76
0.344615 0.825287 -0.025131 0 127 127
0.030794 0.825287 0.150851 0 127 127
0.468526 0.240008 -0.023255 0 127 127
-0.253115 0.825287 0.244372 0 127 127
-0.381626 -0.033534 -0.399269 0 127 127
-0.114534 0.142353 0.322778 153 0 76
0.096492 0.138947 0.322778 76 0 153
-0.040193 -0.831968 -0.171115 0 127 127
0.152723 0.025347 0.370814 76 0 153
0.209409 -0.459731 -0.399269 0 127 127
-0.425774 -0.449623 -0.399269 0 127 127
-0.444166 0.334660 0.168051 0 127 127
0.323986 0.825287 0.133239 0 127 127
-0.252928 -0.749858 0.322778 153 0 76
-0.015334 0.819839 0.370814 76 0 153
-0.177130 -0.831968 -0.221334 0 127 127
-0.384809 0.390531 0.370814 153 0 76
0.374166 -0.831968 0.236701 0 127 127
0.065513 -0.203594 -0.399269 0 127 127
0.253782 0.298243 0.370814 76 0 153
-0.417909 0.530195 0.370814 153 0 76
-0.193756 -0.300629 0.370814 153 0 76
-0.043015 -0.168899 0.362951 153 0 76
0.242350 0.700650 0.322778 76 0 153
-0.420148 -0.744556 0.318863 153 0 76
0.468526 0.232623 0.121454 0 127 127
0.146411 0.319960 0.370814 76 0 153
0.438785 0.382255 0.322778 76 0 153
-0.437585 -0.209078 0.322778 153 0 76
0.256266 -0.379721 0.322778 76 0 153
-0.043015 0.547499 0.328953 76 0 153
-0.439189 0.825287 -0.270551 0 127 127
-0.423261 0.825287 0.014686 0 127 127
-0.301903 0.446202 0.370814 153 0 76
0.468526 0.260745 0.359075 76 0 153
0.183288 0.709621 0.370814 76 0 153
0.444158 -0.108652 0.322778 0 127 127
-0.096430 0.300643 0.370814 153 0 76
-0.444166 0.221459 0.171434 0 127 127
-0.444166 0.219986 -0.125858 0 127 127
-0.444166 0.713362 -0.088491 0 127 127
0.025184 0.078635 -0.399269 0 127 127
-0.420148 0.785707 0.308592 153 0 76
-0.444166 0.067790 -0.309224 0 127 127
-0.319888 -0.581529 0.370814 153 0 76
-0.218939 0.751191 0.370814 153 0 76
-0.185754 -0.831968 -0.034029 0 127 127
0.043111 -0.314941 0.370814 76 0 153
0.352700 -0.831968 -0.374658 0 127 127
0.452311 -0.831968 -0.194655 0 127 127
-0.159624 -0.734788 -0.399269 0 127 127
-0.444166 -0.060120 0.144839 0 127 127
0.468526 -0.270989 0.052368 0 127 127
0.468526 0.118430 0.147087 0 127 127
-0.444166 -0.319825 -0.263866 0 127 127
-0.379210 -0.308130 -0.399269 0 127 127
0.409415 -0.326678 0.322778 76 0 153
-0.203279 0.622117 -0.399269 0 127 127
-0.066956 0.060912 0.322778 153 0 76
0.340988 -0.831968 -0.078414 0 127 127
-0.052061 0.825287 0.182256 0 127 127
0.468526 -0.585201 -0.008899 0 127 127
0.025520 0.604716 0.322778 76 0 153
0.468526 0.134113 -0.183210 0 127 127
-0.444166 -0.252593 -0.227289 0 127 127
0.468526 0.679625 0.204474 0 127 127
-0.032576 -0.676306 0.370814 76 0 153
-0.137382 0.698090 -0.399269 0 127 127
0.446834 -0.355567 -0.399269 0 127 127
-0.069933 -0.164717 0.322778 153 0 76
0.468526 -0.302667 -0.207354 0 127 127
-0.130702 -0.676739 0.322778 153 0 76
0.440355 -0.319552 0.370814 76 0 153
0.468526 0.161659 -0.085257 0 127 127
0.307971 -0.366547 0.322778 76 0 153
-0.444166 -0.689499 0.173317 0 127 127
-0.444166 0.324352 -0.342009 0 127 127
-0.316560 -0.050362 -0.399269 0 127 127
-0.122436 -0.831968 0.081239 0 127 127
-0.067146 -0.098063 0.322778 153 0 76
0.409041 -0.831968 0.236253 0 127 127
0.191167 -0.641652 -0.399269 0 127 127
0.367558 -0.807281 -0.399269 0 127 127
0.353065 0.825287 -0.298900 0 127 127
-0.444166 0.278938 0.335804 153 0 76
0.221601 0.825287 0.007900 0 127 127
-0.370713 -0.137076 0.322778 153 0 76
-0.444166 -0.199228 -0.345874 0 127 127
0.393764 0.620217 -0.399269 0 127 127
-0.192255 0.175930 0.322778 153 0 76
0.007703 0.134434 0.370814 76 0 153
-0.444166 0.336016 0.217122 0 127 127
0.212032 0.363692 0.370814 76 0 153
0.468526 0.425495 0.239121 0 127 127
0.347468 -0.091747 0.370814 76 0 153
0.468526 -0.590955 -0.035671 0 127 127
0.246803 0.534884 0.370814 76 0 153
0.261508 -0.038340 0.322778 76 0 153
0.468526 0.421077 0.049358 0 127 127
0.468526 -0.777365 0.297233 0 127 127
-0.411902 0.266530 -0.399269 0 127 127
0.326089 -0.442298 0.322778 76 0 153
0.071825 0.569638 0.322778 76 0 153
0.298117 0.825287 0.059692 0 127 127
-0.229093 -0.362734 0.322778 153 0 76
-0.352369 0.801269 0.298642 0 127 127
-0.444166 -0.290736 -0.374324 0 127 127
-0.444166 0.720028 0.024427 0 127 127
-0.444166 -0.151448 0.288807 0 127 127
-0.229360 -0.191762 -0.399269 0 127 127
-0.158475 0.312819 -0.399269 0 127 127
0.449645 -0.510019 -0.399269 0 127 127
-0.185953 -0.380184 0.322778 153 0 76
0.468526 -0.424284 0.189191 0 127 127
-0.333180 -0.489187 0.322778 153 0 76
-0.444166 -0.114208 -0.022367 0 127 127
0.445475 -0.711965 0.297258 0 127 127
-0.444166 -0.046897 0.294714 0 127 127
0.332051 -0.366046 0.370814 76 0 153
-0.212026 0.154365 -0.399269 0 127 127
-0.444166 0.419310 -0.021351 0 127 127
-0.272857 -0.543092 -0.399269 0 127 127
-0.444166 -0.076294 0.224642 0 127 127
-0.244967 0.719874 0.322778 153 0 76
0.451622 0.131377 0.297258 0 127 127
0.468526 -0.035772 -0.149572 0 127 127
-0.444166 -0.337655 -0.357200 0 127 127
0.073341 0.825287 -0.266869 0 127 127
-0.140244 -0.059993 -0.399269 0 127 127
-0.190663 0.460308 0.370814 153 0 76
-0.273970 -0.793794 0.369313 153 0 76
0.444507 0.548373 0.299069 0 127 127
0.401851 0.825287 -0.096422 0 127 127
0.105729 -0.089409 -0.399269 0 127 127
0.468526 0.162547 -0.033046 0 127 127
-0.443378 0.825287 -0.070801 0 127 127
0.134234 -0.726185 0.322778 76 0 153
0.160495 0.474142 -0.399269 0 127 127
-0.442270 -0.414545 0.297258 0 127 127
0.468526 -0.794037 0.079208 0 127 127
0.468526 0.277924 -0.193025 0 127 127
0.468526 -0.749250 -0.380033 0 127 127
0.396140 -0.592981 -0.399269 0 127 127
0.267873 -0.484886 -0.399269 0 127 127
0.213728 -0.064855 -0.399269 0 127 127
-0.444166 0.566821 0.238984 0 127 127
-0.444166 0.116204 -0.232647 0 127 127
-0.345320 0.609734 0.370814 153 0 76
-0.308639 -0.451714 0.322778 153 0 76
-0.444166 0.641014 -0.334791 0 127 127
0.251332 -0.775319 0.370814 76 0 153
0.458444 -0.107689 0.370814 76 0 153
-0.444166 0.522309 -0.041627 0 127 127
-0.444166 0.730816 -0.273129 0 127 127
0.468526 0.045689 -0.028176 0 127 127
0.128897 0.713923 0.370814 76 0 153
-0.247696 0.033905 0.322778 153 0 76
0.468526 0.776680 -0.114998 0 127 127
-0.444166 0.205311 0.293741 0 127 127
-0.165975 0.825287 -0.349819 0 127 127
-0.056251 0.669217 0.331841 153 0 76
0.468526 0.354791 0.082627 0 127 127
0.468526 0.305453 0.157804 0 127 127
-0.160606 0.694072 0.370814 153 0 76
0.078299 0.025849 0.322778 76 0 153
-0.348610 0.608004 0.322778 153 0 76
-0.444166 -0.686999 0.034000 0 127 127
0.323423 -0.572764 -0.399269 0 127 127
0.039005 0.611254 0.370814 76 0 153
-0.444166 -0.760529 -0.370119 0 127 127
-0.311072 -0.749540 0.370814 153 0 76
0.140191 0.110188 0.370814 76 0 153
-0.130637 0.806558 -0.399269 0 127 127
-0.056251 -0.211374 0.324905 153 0 76
0.322876 0.309613 0.322778 76 0 153
-0.254768 0.188685 0.370814 153 0 76
-0.444166 -0.643510 0.250538 0 127 127
0.175183 0.825287 0.121256 0 127 127
-0.347416 0.825287 -0.272923 0 127 127
0.249967 -0.436893 -0.399269 0 127 127
-0.302787 0.720011 0.370814 153 0 76
0.284671 0.644315 0.322778 76 0 153
-0.056251 0.187536 0.302781 0 127 127
-0.439867 -0.649664 0.370814 153 0 76
-0.419412 -0.831968 0.139027 0 127 127
-0.056251 0.357488 0.322701 76 0 153
0.468526 0.373652 0.227542 0 127 127
-0.370229 0.825287 -0.368980 0 127 127
0.145584 0.505170 0.322778 76 0 153
0.126133 -0.360859 -0.399269 0 127 127
-0.444166 0.293967 -0.014209 0 127 127
0.440723 -0.831968 -0.282693 0 127 127
-0.115447 0.442061 -0.399269 0 127 127
-0.043014 0.825287 -0.092340 0 127 127
-0.306565 -0.686788 0.322778 153 0 76
-0.056251 0.559238 0.307479 0 127 127
0.031891 0.008537 0.370814 76 0 153
-0.444166 0.145848 -0.326413 0 127 127
0.468526 0.119319 0.216997 0 127 127
-0.346126 -0.428918 0.322778 153 0 76
0.087757 -0.590152 -0.399269 0 127 127
-0.332638 0.825287 -0.321167 0 127 127
-0.128384 -0.085525 0.370814 153 0 76
-0.444166 0.617832 0.246320 0 127 127
0.317013 -0.563796 0.322778 76 0 153
0.468526 -0.547324 0.113269 0 127 127
0.047449 0.825287 0.325092 76 0 153
0.468526 -0.511768 0.021883 0 127 127
-0.391160 0.806371 0.322778 153 0 76
-0.177837 -0.378535 0.370814 153 0 76
0.205716 0.673464 -0.399269 0 127 127
-0.174962 0.825287 -0.155331 0 127 127
0.468526 0.459153 -0.085231 0 127 127
-0.158757 -0.494048 0.370814 153 0 76
-0.444166 0.376412 0.348495 153 0 76
0.005448 0.384620 0.322778 76 0 153
-0.043015 0.067809 0.319184 0 127 127
0.007309 -0.671402 0.370814 76 0 153
0.202099 0.285398 0.370814 76 0 153
-0.068951 0.173781 0.370814 153 0 76
0.244946 0.264532 0.322778 76 0 153
-0.020460 -0.831968 0.000631 0 127 127
-0.444166 0.542594 -0.133159 0 127 127
0.343122 -0.680310 0.370814 76 0 153
-0.075234 0.825287 0.240806 0 127 127
-0.444166 0.203989 0.251372 0 127 127
0.468526 -0.770894 -0.234185 0 127 127
-0.444166 -0.120757 -0.384077 0 127 127
-0.156503 0.825287 0.162144 0 127 127
0.029642 0.825287 -0.052402 0 127 127
0.468526 0.041992 0.225656 0 127 127
-0.444166 0.373275 -0.269955 0 127 127
-0.444166 0.109736 0.082103 0 127 127
0.468526 -0.254471 0.016046 0 127 127
0.468526 -0.245103 -0.286711 0 127 127
0.265518 0.825287 0.013494 0 127 127
-0.253941 -0.775125 0.325633 153 0 76
0.445108 -0.154034 0.370814 76 0 153
-0.156670 0.825287 -0.266434 0 127 127
-0.444166 0.530380 -0.282794 0 127 127
-0.444166 -0.054922 0.195759 0 127 127
0.449254 -0.588514 0.322778 76 0 153
0.270312 -0.831968 0.190295 0 127 127
0.468526 0.018298 0.240823 0 127 127
-0.034798 -0.454408 -0.399269 0 127 127
-0.205353 -0.157911 0.370814 153 0 76
-0.444166 -0.388516 -0.351602 0 127 127
0.018929 -0.488830 0.370814 76 0 153
0.107743 -0.556242 -0.399269 0 127 127
0.280640 -0.310616 -0.399269 0 127 127
0.006481 -0.592893 0.370814 76 0 153
0.242038 -0.473341 0.322778 76 0 153
-0.345174 -0.771239 0.370814 153 0 76
0.411840 -0.099834 -0.399269 0 127 127
0.468526 -0.218849 0.253470 0 127 127
0.314222 -0.831968 -0.338689 0 127 127
0.448425 0.551967 -0.399269 0 127 127
-0.444166 -0.796304 -0.258721 0 127 127
0.468526 -0.474428 -0.083424 0 127 127
-0.444166 -0.497842 -0.333465 0 127 127
-0.438323 -0.643032 0.297258 0 127 127
-0.418510 -0.724205 0.370814 153 0 76
-0.424841 -0.794561 0.369313 0 127 127
0.424176 -0.215735 0.322778 76 0 153
-0.444166 0.617163 -0.345435 0 127 127
0.011788 0.825287 -0.308967 0 127 127
0.128826 -0.126486 0.322778 76 0 153
-0.024161 0.346125 0.322778 76 0 153
0.101929 0.751677 -0.399269 0 127 127
0.468526 0.568509 0.356577 76 0 153
-0.408745 -0.160789 -0.399269 0 127 127
-0.404249 -0.538362 -0.399269 0 127 127
-0.087849 0.209824 0.370814 153 0 76
-0.293834 -0.724705 -0.399269 0 127 127
-0.217745 0.825287 -0.381288 0 127 127
0.166872 -0.831968 -0.173722 0 127 127
-0.286917 0.825287 -0.042692 0 127 127
0.105807 0.737443 0.322778 76 0 153
0.342817 0.825287 0.350885 76 0 153
-0.274960 -0.146710 0.322778 153 0 76
-0.421856 -0.084742 0.370814 153 0 76
0.468526 -0.099057 0.323992 0 127 127
-0.162136 -0.831968 0.053747 0 127 127
0.109253 0.801269 0.302897 0 127 127
