ply
format ascii 1.0
element vertex 1262
property float x
property float y
property float z
property uchar red
property uchar green
property uchar blue
end_header
0.111160 0.575032 0.237017 153 76 0
0.333188 -0.414412 -0.301861 0 0 255
-0.084764 0.527641 -0.150869 204 51 127
-0.392744 0.285875 -0.282320 76 0 153
0.419096 0.026420 -0.238512 127 127 0
-0.747819 -0.392838 0.238671 153 76 0
0.761881 0.235350 -0.132916 153 0 76
0.764878 0.045350 0.273250 0 127 127
0.097633 -0.052723 -0.306475 255 0 0
0.532562 0.026420 0.230211 127 127 0
0.373499 -0.511033 0.001542 153 0 76
-0.657458 -0.559344 0.243565 153 76 0
0.434579 0.441347 -0.306475 0 255 0
-0.808207 -0.220118 -0.193966 76 0 153
-0.784052 0.472455 0.172278 76 0 153
0.225396 0.227387 0.309483 0 127 127
0.589246 0.026420 -0.046163 127 127 0
0.475150 0.440641 0.290823 0 127 127
0.393353 0.527641 0.128031 204 51 127
-0.784052 0.532289 -0.025477 76 0 153
-0.712543 0.026420 0.091006 127 127 0
0.481037 0.511699 0.309446 0 127 127
-0.304050 0.575260 -0.282320 0 255 0
0.732470 -0.472196 0.273213 0 127 127
-0.636817 0.011376 -0.306475 255 0 0
-0.311539 0.486232 -0.264203 76 0 153
-0.054584 0.224981 0.309483 0 127 127
0.030092 -0.511033 -0.146140 153 0 76
-0.265691 0.061798 0.237017 153 76 0
0.563634 -0.009813 -0.089128 127 127 0
0.737725 -0.171558 0.219378 153 0 76
-0.077701 -0.306856 0.297700 0 127 127
-0.275566 0.551796 0.099986 204 51 127
0.737725 -0.111016 -0.109248 153 0 76
0.161272 0.237906 0.309483 0 127 127
0.195888 0.551796 -0.119175 204 51 127
-0.808207 0.407127 0.088729 76 0 153
-0.808207 -0.416034 -0.259858 76 0 153
0.004706 0.397425 -0.264203 76 0 153
0.612513 -0.481577 0.273213 0 127 127
-0.477863 -0.034616 0.273250 153 76 0
0.000343 0.026420 -0.221412 127 127 0
-0.674604 -0.009813 -0.093480 127 127 0
0.399108 0.026420 0.179011 127 127 0
0.267104 0.426591 -0.264203 76 0 153
-0.187669 -0.057631 -0.264203 76 0 153
0.528358 -0.255006 0.309483 0 127 127
0.523198 0.551796 -0.230008 204 51 127
-0.115074 0.026420 0.139110 127 127 0
-0.164513 0.532773 0.273250 153 76 0
-0.366204 -0.460549 0.237017 153 76 0
0.056364 0.026420 0.069132 127 127 0
0.193671 -0.009813 0.099138 127 127 0
0.732646 -0.323988 0.273250 153 76 0
0.718611 -0.009813 0.097794 153 0 76
-0.499456 0.508408 -0.306475 0 255 0
-0.549011 -0.479230 0.237017 153 76 0
0.399538 0.026420 0.130447 127 127 0
-0.384476 0.559079 -0.282320 0 255 0
0.540407 -0.535188 -0.267271 153 0 76
-0.064345 0.148946 0.307363 0 127 127
-0.784052 0.168543 -0.146236 76 0 153
0.137996 0.026420 0.056100 127 127 0
0.372668 0.527641 -0.111284 204 51 127
-0.439143 0.272704 -0.282320 76 0 153
0.517994 -0.067775 0.309483 0 127 127
0.761881 0.119373 -0.199213 153 0 76
0.528979 -0.402808 0.279132 0 127 127
-0.416633 0.575951 0.244005 153 76 0
0.228871 0.535148 -0.306475 0 255 0
0.758584 0.432085 -0.306475 153 0 76
-0.088268 -0.257692 -0.282320 76 0 153
-0.404215 -0.009813 -0.191987 127 127 0
-0.784052 -0.413953 0.108809 76 0 153
-0.660193 0.551796 -0.136994 204 51 127
-0.740688 -0.511033 0.202743 153 0 76
0.006136 -0.517217 0.273250 0 127 127
-0.524945 -0.009813 -0.169822 127 127 0
0.737725 -0.032885 -0.201748 153 0 76
-0.808207 0.122960 -0.077244 76 0 153
0.207087 -0.166161 0.309483 0 127 127
-0.684246 0.551796 0.201410 204 51 127
-0.147369 0.199142 0.309446 0 127 127
0.667946 -0.341442 0.307129 0 127 127
0.392079 -0.129047 -0.264203 76 0 153
0.737725 -0.192313 -0.231763 153 0 76
0.376588 0.026420 -0.185814 127 127 0
0.626609 0.026420 0.109755 127 127 0
0.545270 -0.480743 -0.306475 0 0 255
-0.286944 -0.455100 -0.306475 0 0 255
-0.040502 -0.535188 -0.268880 153 0 76
0.279432 -0.383129 0.307362 0 127 127
-0.450621 -0.340063 0.273250 153 76 0
0.737725 -0.389139 -0.101352 153 0 76
0.031096 0.026420 0.138933 127 127 0
-0.407348 0.026420 0.014651 127 127 0
-0.470329 0.470063 0.273250 153 76 0
0.427130 0.023898 0.237017 127 127 0
0.004167 0.180674 -0.282320 76 0 153
-0.379235 0.365334 0.273250 153 76 0
0.610508 -0.511033 0.122275 153 0 76
0.761881 -0.068165 0.026542 153 0 76
-0.440606 0.527641 -0.015737 204 51 127
-0.506328 -0.370644 0.237017 153 76 0
0.732144 -0.204589 0.273250 0 127 127
0.309153 -0.086590 0.279132 0 127 127
-0.076061 0.527641 0.116562 204 51 127
-0.364686 0.235353 0.237017 153 76 0
0.667887 0.216458 0.273213 0 127 127
0.761881 -0.319723 -0.145828 153 0 76
-0.340401 -0.009813 0.062646 127 127 0
-0.697403 -0.464225 -0.264203 76 0 153
-0.729872 0.026420 0.174811 127 127 0
0.331170 -0.065427 -0.264203 76 0 153
-0.448209 0.040833 0.273250 153 76 0
0.451509 0.530446 -0.282320 204 51 127
-0.415170 0.370780 -0.282320 76 0 153
-0.171474 -0.361962 0.309446 0 127 127
-0.808207 0.014660 -0.204052 76 0 153
0.333300 0.048869 0.279132 0 127 127
-0.318552 0.078177 0.273250 153 76 0
0.255722 -0.059317 -0.306475 255 0 0
-0.263048 0.026420 -0.137326 127 127 0
-0.765405 -0.511033 -0.203166 153 0 76
0.737725 0.316199 0.102032 153 0 76
0.028526 0.555176 -0.306475 0 255 0
0.475021 -0.222713 0.309483 0 127 127
-0.531308 0.080769 -0.305891 255 0 0
0.658787 0.074723 0.273213 0 127 127
-0.773319 0.026420 0.011020 76 0 153
0.761881 0.403056 0.003285 153 0 76
-0.065164 -0.535188 0.218601 153 0 76
-0.324584 0.399379 -0.282320 76 0 153
-0.091569 0.304541 -0.282320 76 0 153
-0.744347 0.423175 -0.264203 76 0 153
-0.736760 -0.139417 -0.282320 76 0 153
0.414681 0.080769 -0.303862 255 0 0
0.532207 0.026420 0.099790 127 127 0
0.194784 0.026420 0.050882 127 127 0
-0.545186 0.575951 -0.293344 0 255 0
0.748177 0.386507 0.237017 153 76 0
-0.181807 -0.503892 -0.264203 76 0 153
0.092474 -0.535188 -0.179451 153 0 76
0.642126 0.551796 0.149593 204 51 127
-0.507272 -0.009813 0.112787 127 127 0
-0.384112 0.462994 0.237017 153 76 0
0.761881 0.567394 -0.115113 153 0 76
0.191163 0.544806 0.237017 153 76 0
-0.480427 0.026420 -0.008526 127 127 0
-0.420324 -0.535188 0.138819 153 0 76
-0.120798 -0.048955 0.279132 0 127 127
-0.414101 -0.009813 0.169913 127 127 0
0.106438 -0.009813 -0.232245 127 127 0
0.259038 -0.529386 0.309446 0 127 127
-0.535949 -0.009813 -0.091074 127 127 0
0.437865 -0.009813 -0.220864 127 127 0
0.470172 -0.535188 -0.138642 153 0 76
0.760113 -0.544508 0.301715 0 127 127
-0.585664 0.026420 0.161979 127 127 0
-0.773673 -0.353077 0.273250 153 76 0
-0.554524 0.445772 -0.306475 0 255 0
0.761881 -0.195728 0.054645 153 0 76
0.773958 -0.148559 0.266556 153 76 0
0.386529 0.125828 0.279132 0 127 127
0.761881 -0.001526 0.073309 153 0 76
-0.207404 0.345402 0.237017 153 76 0
0.309200 -0.484010 -0.306475 0 0 255
0.025378 0.026420 0.203917 127 127 0
0.445455 -0.363507 -0.282320 76 0 153
0.230964 -0.009813 -0.134686 127 127 0
0.400524 -0.026655 0.279132 0 127 127
-0.784052 0.481408 -0.160717 76 0 153
0.737725 -0.307792 0.085886 153 0 76
0.423897 0.191711 0.279132 0 127 127
-0.279592 -0.103682 0.237017 153 76 0
0.284327 0.133674 0.279132 0 127 127
-0.078814 0.527641 -0.094485 204 51 127
-0.808207 0.499066 -0.234199 76 0 153
0.052356 0.527641 0.175324 204 51 127
-0.116513 0.492923 -0.306475 0 255 0
0.438988 0.361806 0.279132 0 127 127
0.066003 0.060223 0.279132 0 127 127
-0.554897 0.336877 -0.282320 76 0 153
0.603191 -0.009813 0.038209 127 127 0
-0.052761 0.527641 0.041076 204 51 127
-0.820285 -0.524053 0.263867 153 76 0
0.574669 -0.130978 -0.282320 76 0 153
0.710767 -0.511033 0.051077 153 0 76
0.606723 0.486411 0.273213 0 127 127
-0.650613 0.314268 -0.264203 76 0 153
-0.709842 -0.321725 -0.264203 76 0 153
0.109950 -0.535188 -0.103401 153 0 76
-0.170179 -0.320993 0.237017 153 76 0
0.737725 -0.075138 -0.273892 153 0 76
0.207399 -0.073357 0.309483 0 127 127
-0.391396 -0.535188 -0.029065 153 0 76
0.628673 0.566897 0.291523 0 127 127
-0.361795 -0.535188 -0.125694 153 0 76
0.222259 0.029307 0.279132 0 127 127
0.317877 -0.024440 -0.306475 255 0 0
-0.756538 -0.511383 0.273250 153 76 0
-0.129367 -0.006034 0.273213 0 127 127
0.691216 -0.201985 -0.264203 76 0 153
0.439515 -0.511033 0.025186 153 0 76
0.303405 -0.009813 -0.190305 127 127 0
0.163017 -0.009813 0.229935 127 127 0
-0.593958 0.474290 -0.264203 76 0 153
-0.228062 0.334824 -0.264203 76 0 153
0.027416 -0.398722 0.279132 0 127 127
-0.317637 0.450366 -0.306475 0 255 0
-0.784052 -0.240230 0.234987 153 76 0
0.722402 0.026420 0.053709 127 127 0
-0.808207 0.376700 -0.000058 76 0 153
-0.261114 0.221640 0.237017 153 76 0
0.514859 -0.535188 0.156251 153 0 76
-0.121086 0.551796 -0.079361 204 51 127
0.701493 -0.409434 0.240749 153 76 0
-0.654983 0.527641 -0.217827 204 51 127
0.720657 0.026420 -0.228371 127 127 0
-0.581542 0.511704 -0.306475 0 255 0
-0.463180 0.103670 0.237017 153 76 0
-0.412010 0.551796 -0.090899 204 51 127
0.014342 -0.009813 -0.158601 127 127 0
-0.276498 0.551796 0.174954 204 51 127
-0.732987 0.551796 -0.227978 204 51 127
-0.808207 -0.269388 -0.226342 76 0 153
-0.458420 0.113017 -0.282320 76 0 153
-0.478173 -0.511033 -0.085291 153 0 76
0.651469 -0.009813 0.112234 127 127 0
-0.808207 0.085078 0.138093 76 0 153
0.726468 0.388794 0.309446 0 127 127
0.228037 0.074501 -0.306475 255 0 0
0.270289 0.551796 0.218066 204 51 127
-0.033493 -0.181789 0.279132 0 127 127
0.261661 -0.009813 0.110220 127 127 0
-0.404097 -0.511033 -0.266559 153 0 76
-0.567888 -0.535188 -0.166061 153 0 76
-0.726605 -0.465945 -0.306475 0 0 255
0.565736 -0.009813 -0.185955 127 127 0
-0.808207 0.168423 0.231456 76 0 153
-0.513354 0.551796 0.011182 204 51 127
0.737725 -0.342017 0.037852 153 0 76
-0.325978 -0.009813 -0.222184 127 127 0
-0.784052 -0.423097 0.195625 76 0 153
0.716819 -0.030048 0.273213 0 127 127
-0.252900 0.486285 -0.306475 0 255 0
-0.141738 -0.110069 0.273213 0 127 127
0.720894 0.223534 0.273213 153 76 0
0.458750 -0.013343 0.279132 0 127 127
-0.550453 0.419812 0.237017 153 76 0
0.108600 -0.242364 0.279132 0 127 127
0.761881 0.067903 -0.140643 153 0 76
-0.808207 -0.516891 -0.266507 76 0 153
-0.327711 -0.535188 -0.209024 153 0 76
-0.276096 0.314263 0.273250 153 76 0
0.496409 -0.009813 -0.005153 127 127 0
0.017431 -0.068061 -0.264203 76 0 153
-0.316966 -0.426833 -0.264203 76 0 153
-0.384202 -0.190664 0.273250 153 76 0
0.199948 0.091049 0.279132 0 127 127
0.551130 -0.028647 -0.264203 76 0 153
-0.784052 -0.034787 0.165056 76 0 153
0.495192 -0.322186 -0.282320 76 0 153
-0.466819 0.551796 -0.190282 204 51 127
-0.770258 -0.009813 -0.081759 127 127 0
0.015255 -0.535188 -0.021691 153 0 76
-0.808207 -0.315535 0.037720 76 0 153
0.006754 -0.065995 0.309483 0 127 127
0.090762 0.082458 -0.264203 76 0 153
-0.750967 -0.018279 -0.282320 255 0 0
0.383319 0.415168 0.297370 0 127 127
0.458644 0.064959 -0.264203 76 0 153
0.636147 -0.535188 -0.008395 153 0 76
0.026756 0.428960 0.293402 0 127 127
-0.319938 0.551796 -0.202813 204 51 127
-0.508025 -0.511033 0.076503 153 0 76
0.031675 0.575951 0.247294 153 76 0
0.378985 -0.338044 -0.282320 76 0 153
-0.121422 -0.535188 -0.249170 153 0 76
-0.674380 -0.009813 -0.154882 127 127 0
0.638896 0.486254 -0.264203 76 0 153
0.328050 0.015103 -0.264203 255 0 0
0.075831 -0.111269 -0.264203 76 0 153
0.452781 -0.075819 0.279132 0 127 127
0.679314 0.272059 -0.282320 76 0 153
-0.491238 -0.559344 -0.297228 0 0 255
0.737725 0.553514 -0.194789 153 0 76
-0.808207 0.534029 0.096964 76 0 153
-0.690610 0.009710 0.237017 127 127 0
-0.336646 0.178671 0.237017 153 76 0
0.121261 0.432174 -0.306475 0 255 0
0.256363 0.311566 0.279132 0 127 127
0.622180 0.551796 -0.051387 204 51 127
0.761881 0.076974 -0.091286 153 0 76
0.132885 -0.009813 0.013276 127 127 0
0.196306 0.345433 0.309483 0 127 127
-0.503556 -0.535188 -0.139150 153 0 76
-0.784052 0.492923 -0.102190 76 0 153
-0.491927 -0.487364 -0.264203 76 0 153
0.074360 0.148247 0.279132 0 127 127
0.390450 0.019915 0.279132 0 127 127
-0.261473 0.026420 -0.188252 127 127 0
-0.174917 0.013854 -0.306475 255 0 0
-0.808207 0.181690 -0.034357 76 0 153
0.740090 0.174432 0.273213 153 76 0
-0.477056 -0.528093 0.273250 153 76 0
0.175480 -0.128235 0.279132 0 127 127
-0.250396 -0.128485 0.273250 153 76 0
0.402344 -0.399606 -0.264203 76 0 153
0.642406 0.551796 0.000059 204 51 127
-0.552751 0.551796 0.142014 204 51 127
-0.328557 -0.157770 0.237017 153 76 0
-0.320159 0.527641 0.230929 153 76 0
-0.046936 0.033072 -0.306475 255 0 0
0.259162 0.235658 0.279132 0 127 127
-0.334205 -0.045187 -0.264203 76 0 153
-0.732094 -0.009813 0.052320 127 127 0
0.395625 -0.009813 0.013314 127 127 0
0.456807 -0.499102 0.309446 0 127 127
0.761881 -0.265697 0.024262 153 0 76
0.773958 -0.011418 0.248694 153 76 0
-0.460138 -0.009813 -0.035289 127 127 0
0.598970 0.228274 0.279132 0 127 127
0.255493 0.086314 0.309483 0 127 127
0.397837 -0.511033 -0.036753 153 0 76
-0.049019 -0.009813 -0.103617 127 127 0
0.761881 -0.372172 0.151803 153 0 76
0.737725 0.120049 -0.267035 76 0 153
-0.784052 0.311069 -0.267606 76 0 153
-0.574112 0.527641 -0.225692 204 51 127
0.451819 0.551796 0.188429 204 51 127
-0.135194 -0.535188 0.141384 153 0 76
0.724608 0.323263 -0.282320 76 0 153
0.716220 0.016818 0.237017 153 76 0
-0.416448 -0.086582 -0.264203 76 0 153
-0.390596 -0.055779 0.273250 153 76 0
-0.186835 -0.535188 0.054094 153 0 76
0.675267 -0.120842 0.273213 0 127 127
0.491529 -0.039307 -0.306475 255 0 0
-0.784052 -0.265959 0.173065 76 0 153
-0.096305 0.032362 -0.264203 76 0 153
0.761881 -0.049168 -0.044739 153 0 76
0.195783 -0.034210 -0.264203 76 0 153
0.113361 0.278305 0.309483 0 127 127
0.697934 0.531674 -0.306475 0 255 0
-0.426942 0.447471 0.273250 153 76 0
-0.808207 -0.516008 -0.002614 76 0 153
-0.221750 0.039460 -0.264203 255 0 0
-0.168568 0.450772 -0.306475 0 255 0
0.710385 0.026420 0.141712 127 127 0
-0.235328 0.464389 -0.264203 0 255 0
0.561006 -0.559344 0.249089 153 76 0
0.761881 0.469278 0.233644 153 0 76
-0.281428 -0.535188 -0.147603 153 0 76
0.092820 -0.535188 0.070408 153 0 76
-0.752829 -0.460871 0.273250 153 76 0
0.482748 0.527641 -0.112173 204 51 127
0.312164 0.412297 -0.264203 76 0 153
0.737725 0.541701 0.234137 153 76 0
0.074087 0.240166 0.279132 0 127 127
0.761881 -0.078747 -0.125060 153 0 76
-0.195211 0.294249 0.273213 0 127 127
0.609158 0.285053 0.279132 0 127 127
-0.313385 0.354105 0.237017 153 76 0
-0.139454 0.257133 0.309446 0 127 127
0.229454 -0.190585 0.279132 0 127 127
0.171950 0.026420 -0.239538 127 127 0
0.238738 0.527641 0.065797 204 51 127
0.722412 -0.009813 -0.047242 153 0 76
0.602070 0.026420 0.163257 127 127 0
-0.554578 -0.319009 0.237614 153 76 0
0.625503 -0.528191 -0.282320 0 0 255
0.362537 -0.251245 -0.282320 76 0 153
0.737725 -0.350454 -0.076132 153 0 76
0.175519 -0.272477 0.309483 0 127 127
-0.128270 -0.306101 0.273213 0 127 127
0.143293 0.372851 0.309483 0 127 127
0.305165 -0.231200 0.309483 0 127 127
-0.084333 0.091744 0.296646 0 127 127
-0.038245 0.008486 0.237017 127 127 0
-0.774541 -0.009813 0.231139 127 127 0
-0.365180 0.026420 0.110990 127 127 0
0.304171 -0.511033 -0.189696 153 0 76
-0.195090 -0.535188 -0.043465 153 0 76
0.660513 0.527641 0.085995 204 51 127
-0.242828 0.544913 0.273250 153 76 0
0.761881 -0.454022 0.212971 153 0 76
0.667541 -0.063195 0.273213 0 127 127
-0.538854 0.365050 0.237017 153 76 0
0.692851 0.575951 0.244460 153 76 0
0.634916 0.026420 -0.071986 127 127 0
0.737725 -0.462436 -0.142765 153 0 76
0.558826 -0.064162 -0.294139 255 0 0
0.737725 0.098204 -0.015179 153 0 76
0.355922 0.026420 -0.055188 127 127 0
-0.731621 0.493789 -0.264203 76 0 153
0.471440 0.191777 0.309483 0 127 127
0.474269 0.082037 0.279132 0 127 127
0.668845 -0.412364 -0.264203 76 0 153
-0.763011 0.030019 0.273250 153 76 0
0.737725 0.232235 -0.229518 153 0 76
0.494850 0.272090 0.279132 0 127 127
0.008575 -0.336211 0.279132 0 127 127
0.598212 -0.211428 0.303130 0 127 127
-0.149674 -0.261347 -0.282320 76 0 153
0.385944 0.509955 0.237017 204 51 127
-0.324852 -0.009813 0.183697 127 127 0
-0.725906 -0.090268 -0.282320 76 0 153
-0.784052 0.403180 0.169516 76 0 153
0.751559 -0.421099 0.309422 0 127 127
-0.041952 -0.517801 0.273213 0 127 127
0.164519 -0.511033 0.028203 153 0 76
0.075825 0.551796 -0.035722 204 51 127
0.520827 0.527641 0.151321 204 51 127
0.761881 -0.352955 0.215084 153 0 76
-0.235495 -0.414412 -0.305723 0 0 255
-0.121357 -0.003536 -0.264203 255 0 0
0.618474 -0.511033 -0.084093 153 0 76
0.721130 -0.151052 -0.282320 76 0 153
0.391864 0.345623 -0.282320 76 0 153
-0.239880 -0.511033 0.011785 153 0 76
-0.560147 0.026420 0.043515 127 127 0
-0.212060 -0.138196 -0.282320 76 0 153
-0.201807 0.481526 -0.306475 0 255 0
-0.063405 0.226323 -0.264203 76 0 153
0.724424 -0.009813 -0.128199 127 127 0
-0.484061 0.026420 -0.184059 127 127 0
0.148922 -0.535188 0.100350 153 0 76
0.672771 0.526326 0.237017 153 76 0
0.392224 0.488627 0.309446 0 127 127
-0.534770 0.139800 -0.264203 76 0 153
0.534563 0.051228 0.279132 0 127 127
-0.675003 -0.535188 0.120387 153 0 76
-0.029318 -0.009813 0.120397 127 127 0
0.397548 -0.055608 -0.264203 76 0 153
0.591568 0.026420 0.071201 127 127 0
-0.808207 -0.494736 0.079741 76 0 153
-0.363725 0.033844 -0.282320 255 0 0
-0.627919 -0.509395 -0.306475 0 0 255
-0.144836 0.322686 0.273213 0 127 127
0.683197 -0.511033 0.140051 153 0 76
-0.252705 -0.535188 -0.264141 153 0 76
-0.480160 -0.424580 0.273250 153 76 0
-0.255325 -0.276988 -0.264203 76 0 153
0.345821 -0.375961 0.309483 0 127 127
-0.192450 -0.155297 0.237017 153 76 0
0.341247 0.230337 0.309483 0 127 127
-0.101982 -0.552431 0.273250 0 127 127
0.030704 -0.559344 0.265997 153 76 0
0.470818 -0.009813 -0.137915 127 127 0
0.198114 0.192466 0.279132 0 127 127
0.153849 -0.054893 -0.264203 76 0 153
0.153321 -0.118286 -0.264203 76 0 153
-0.784052 0.163898 0.148465 76 0 153
0.298217 0.026635 0.309483 0 127 127
0.456013 0.522284 0.273250 0 127 127
0.245671 -0.009813 -0.065082 127 127 0
0.761881 0.518408 -0.304406 153 0 76
-0.082160 -0.227670 0.296991 0 127 127
0.669010 -0.243809 0.273213 0 127 127
-0.509922 0.527641 -0.070166 204 51 127
0.004970 0.386005 0.309483 0 127 127
0.027889 -0.009813 0.020286 127 127 0
0.661324 0.042144 -0.306475 255 0 0
0.493964 -0.009813 0.150165 127 127 0
0.737725 -0.087480 -0.038498 153 0 76
0.686384 -0.197560 0.273213 0 127 127
0.308950 0.026420 -0.227751 127 127 0
-0.503654 -0.535188 0.190927 153 0 76
0.598668 -0.471399 -0.306475 0 0 255
0.361289 -0.535188 0.176842 153 0 76
0.720805 0.527641 0.122516 153 0 76
0.498381 -0.009813 -0.087779 127 127 0
0.559849 -0.156971 0.309483 0 127 127
-0.808207 0.064575 0.037066 76 0 153
-0.808207 0.530906 0.232150 76 0 153
0.691366 -0.020925 -0.306475 255 0 0
0.100275 -0.440987 -0.264203 76 0 153
0.059819 -0.499053 -0.264203 76 0 153
0.272537 -0.020104 -0.282320 255 0 0
0.718893 -0.316759 0.364700 76 153 0
-0.387113 -0.535188 0.206393 153 0 76
0.310203 -0.535188 0.206281 153 0 76
0.737725 0.445476 0.192729 153 0 76
0.310796 -0.304844 0.279132 0 127 127
-0.528257 0.574276 0.273250 153 76 0
0.645856 -0.187228 -0.264203 76 0 153
-0.405156 0.199470 -0.282320 76 0 153
-0.164227 0.539435 -0.306475 0 255 0
-0.784052 0.101461 -0.021226 76 0 153
-0.766599 -0.497271 -0.264203 76 0 153
0.131343 0.026420 0.113964 127 127 0
-0.083931 -0.511033 -0.079121 153 0 76
-0.535517 -0.511033 -0.050160 153 0 76
-0.643383 0.551796 -0.030877 204 51 127
0.133801 -0.422999 -0.306475 0 0 255
-0.488844 0.026420 0.090426 127 127 0
-0.820285 -0.001162 0.256537 153 76 0
0.423539 0.026420 -0.176790 127 127 0
0.737725 -0.525740 -0.083697 153 0 76
0.100805 -0.487450 -0.264203 0 0 255
-0.784052 -0.172730 -0.112514 76 0 153
0.253189 -0.511033 -0.098353 153 0 76
0.129844 0.074609 -0.306475 255 0 0
0.619657 -0.005326 -0.264203 127 127 0
-0.276615 0.447355 -0.264203 76 0 153
-0.233259 0.419119 0.237017 153 76 0
0.735422 -0.368764 -0.264203 153 0 76
0.172099 0.421386 -0.264203 76 0 153
-0.176997 0.560127 0.303173 0 127 127
-0.493600 -0.226748 -0.282320 76 0 153
-0.134689 -0.332032 0.309446 0 127 127
-0.456719 0.044258 -0.306475 76 0 153
-0.518760 0.349486 0.273250 153 76 0
0.742481 0.491221 0.309446 0 127 127
0.175287 -0.009813 -0.067787 127 127 0
0.230636 -0.446787 0.273213 0 127 127
-0.151552 -0.535188 -0.066158 153 0 76
-0.456545 -0.255932 0.237017 153 76 0
-0.322766 -0.535188 -0.253345 153 0 76
0.145328 -0.205861 0.279132 0 127 127
0.174830 -0.511033 0.176805 153 0 76
-0.230623 0.388717 0.274857 0 127 127
0.613897 -0.459728 0.309446 0 127 127
-0.784052 0.479174 -0.044004 76 0 153
0.225470 0.181659 -0.264203 76 0 153
-0.602373 -0.009813 -0.213802 127 127 0
0.457030 0.016590 -0.264203 127 127 0
-0.326058 -0.486878 0.240023 153 76 0
0.466795 -0.009813 0.189526 127 127 0
0.143925 -0.511033 -0.225755 153 0 76
0.424187 0.503771 -0.264203 76 0 153
-0.496733 0.151066 -0.282320 76 0 153
-0.357968 0.479834 -0.282320 76 0 153
0.729977 -0.115748 0.273250 0 127 127
-0.820285 0.413319 0.239446 76 0 153
0.226015 -0.511033 0.067802 153 0 76
-0.365727 -0.122196 0.237017 153 76 0
-0.808207 0.049122 -0.302555 76 0 153
-0.232227 -0.375592 -0.264203 76 0 153
0.086578 -0.511033 -0.025650 153 0 76
0.464928 0.136701 -0.282320 76 0 153
-0.654576 -0.511033 0.090269 153 0 76
0.724904 0.554520 0.308927 0 127 127
-0.140698 0.026420 0.030996 127 127 0
-0.246339 0.184911 0.273250 153 76 0
0.283388 -0.511033 -0.019585 153 0 76
-0.446232 -0.535188 -0.007688 153 0 76
-0.030127 0.527641 0.181497 204 51 127
-0.207050 -0.511033 -0.167545 153 0 76
-0.808207 0.376220 -0.170949 76 0 153
0.761881 -0.138735 -0.150575 153 0 76
0.488983 0.038770 -0.282320 255 0 0
0.077946 0.413548 -0.264203 76 0 153
-0.044417 -0.279917 0.309483 0 127 127
-0.595535 0.023082 -0.306475 255 0 0
-0.377134 0.527641 -0.183437 204 51 127
0.448584 -0.312553 0.279132 0 127 127
-0.204565 0.148008 0.273250 0 127 127
0.227401 0.434713 0.291005 0 127 127
-0.546449 -0.511033 -0.214708 153 0 76
-0.784052 0.107831 -0.200491 76 0 153
0.634964 0.551796 -0.137934 204 51 127
-0.695488 -0.064162 -0.305742 255 0 0
-0.681721 0.026420 0.053644 127 127 0
0.188711 0.527641 -0.277105 204 51 127
-0.015344 0.535342 0.237017 204 51 127
0.517757 -0.025702 0.309483 0 127 127
-0.342363 -0.271887 0.237017 153 76 0
0.332914 -0.511033 0.053573 153 0 76
-0.014077 0.026420 0.160314 127 127 0
-0.784052 -0.381735 0.000329 76 0 153
-0.717557 0.551796 -0.154317 204 51 127
-0.784052 -0.264703 -0.033510 76 0 153
-0.444191 -0.079801 0.237017 153 76 0
-0.577018 0.295545 -0.282320 76 0 153
0.737725 0.501387 -0.084320 153 0 76
0.045755 -0.009813 0.189806 127 127 0
-0.152511 -0.056620 -0.306475 255 0 0
0.737725 0.170854 0.167356 153 0 76
0.361323 -0.511033 -0.177578 153 0 76
0.200831 0.485903 0.309446 0 127 127
-0.304526 -0.103341 0.273250 153 76 0
-0.808207 -0.264959 -0.268113 76 0 153
-0.109055 -0.009813 0.091545 127 127 0
-0.563293 -0.535188 0.200974 153 0 76
-0.165221 -0.203038 -0.282320 76 0 153
0.646930 -0.009813 -0.228838 127 127 0
-0.137475 0.551796 -0.218540 204 51 127
-0.150502 0.527641 0.166616 204 51 127
-0.073077 0.026420 -0.042373 127 127 0
-0.519496 -0.254356 -0.264203 76 0 153
0.257548 -0.012392 0.279132 0 127 127
0.106296 -0.071515 0.309483 0 127 127
-0.316911 -0.535188 0.187797 153 0 76
0.516328 0.503485 0.245706 153 76 0
0.677504 0.257277 0.273213 0 127 127
-0.572403 0.026420 -0.211309 127 127 0
0.701493 0.141442 0.254497 153 76 0
-0.035253 -0.559344 -0.302739 0 0 255
0.333632 0.158939 0.279132 0 127 127
-0.442789 -0.535188 0.103440 153 0 76
-0.172236 0.399246 -0.282320 76 0 153
0.157679 -0.009813 0.125070 127 127 0
-0.442400 0.272801 0.273250 153 76 0
-0.213242 -0.009813 -0.192054 127 127 0
-0.651166 0.026420 0.093321 127 127 0
0.402147 -0.515413 -0.306475 0 0 255
-0.713692 -0.535188 0.019046 153 0 76
-0.440999 -0.535188 0.187726 153 0 76
-0.322415 0.026420 0.040701 127 127 0
0.090288 0.313678 -0.282320 76 0 153
-0.765543 0.401805 0.273250 153 76 0
-0.798951 -0.559344 0.173793 76 0 153
0.761881 -0.117216 -0.258343 153 0 76
-0.265052 -0.466447 0.237017 153 76 0
0.046284 0.291568 0.279132 0 127 127
-0.808207 -0.342972 -0.160980 76 0 153
-0.140668 0.026420 -0.103649 127 127 0
0.305724 -0.520500 -0.282320 0 0 255
0.270737 0.026420 -0.151309 127 127 0
0.093900 -0.326751 -0.264203 76 0 153
-0.641239 0.026420 -0.039845 127 127 0
-0.267508 -0.188054 -0.282320 76 0 153
-0.174435 0.275211 -0.282320 76 0 153
0.327286 -0.009813 0.007838 127 127 0
-0.770958 0.026420 -0.230724 127 127 0
0.761881 -0.103117 -0.069266 153 0 76
-0.201972 0.313903 0.309446 0 127 127
-0.408456 0.026420 -0.212319 127 127 0
0.171412 -0.309708 -0.282320 76 0 153
-0.808207 -0.123124 -0.272371 76 0 153
0.542460 -0.511033 0.227707 153 76 0
-0.757797 -0.310972 -0.282320 76 0 153
-0.508188 0.179246 0.237017 153 76 0
0.664343 0.026420 0.009892 127 127 0
-0.278531 0.342552 -0.282320 76 0 153
0.737725 0.407044 -0.114838 153 0 76
0.021625 0.528705 0.273213 153 76 0
-0.792994 -0.197408 0.273250 153 76 0
-0.183524 0.551796 0.156507 204 51 127
-0.808207 -0.064518 0.113755 76 0 153
-0.808207 0.351513 0.066106 76 0 153
-0.654404 0.026420 -0.159711 127 127 0
0.330874 0.026420 0.094789 127 127 0
-0.428687 0.520210 0.237017 153 76 0
0.303068 0.402667 0.279132 0 127 127
0.545489 -0.332656 0.279132 0 127 127
-0.352593 0.457866 0.273250 153 76 0
0.544371 -0.457016 0.309446 0 127 127
-0.784052 0.098966 0.068877 76 0 153
-0.808207 -0.300070 -0.156672 76 0 153
0.395147 -0.009813 -0.096085 127 127 0
0.281134 -0.536412 0.237017 153 76 0
-0.373457 -0.050622 -0.306475 255 0 0
0.761881 -0.323215 -0.096247 153 0 76
-0.119180 0.080769 -0.304407 255 0 0
0.740901 -0.398278 -0.306475 153 0 76
-0.319965 -0.456698 0.273250 153 76 0
0.090547 -0.364287 0.279132 0 127 127
-0.200538 0.075739 0.273250 0 127 127
-0.120669 -0.491913 0.309446 0 127 127
0.657314 0.067795 -0.264203 76 0 153
-0.530215 -0.471265 -0.264203 76 0 153
0.086928 0.037659 -0.282320 255 0 0
-0.597218 -0.559344 0.240735 153 76 0
0.322703 0.026420 0.194616 127 127 0
-0.303918 -0.535188 0.045657 153 0 76
-0.454632 0.551796 0.181322 204 51 127
0.649645 -0.460134 -0.282320 0 0 255
-0.527279 -0.001379 0.273250 153 76 0
-0.808207 0.218365 0.206798 76 0 153
-0.029275 -0.511033 -0.237120 153 0 76
-0.433260 -0.055762 0.273250 153 76 0
0.210021 -0.383281 0.306445 0 127 127
-0.168095 -0.019897 0.268160 153 76 0
-0.006542 0.512845 0.309446 0 127 127
0.385791 0.221449 -0.282320 76 0 153
0.533615 -0.535188 0.001648 153 0 76
0.185132 -0.530442 0.273250 0 127 127
-0.808207 0.536788 0.149521 76 0 153
-0.417510 -0.009813 0.037058 127 127 0
-0.808207 -0.449784 0.050726 76 0 153
-0.069979 -0.009813 0.013060 127 127 0
-0.308813 0.551796 -0.151607 204 51 127
0.737725 -0.185489 -0.103497 153 0 76
0.249434 0.022976 -0.306475 255 0 0
-0.119937 0.026420 0.214265 127 127 0
-0.808207 -0.118988 -0.108138 76 0 153
-0.560940 -0.524111 0.273250 153 76 0
0.262973 -0.009813 0.162793 127 127 0
-0.784052 0.230445 -0.095764 76 0 153
-0.603968 -0.151575 -0.264203 76 0 153
0.543087 -0.009813 -0.000312 127 127 0
-0.820285 -0.039579 0.241176 153 76 0
0.115176 0.026420 -0.027187 127 127 0
0.737725 0.167841 0.071389 153 0 76
0.491229 -0.520530 0.273213 0 127 127
0.294586 0.527641 -0.083764 204 51 127
-0.014085 -0.228486 -0.264203 76 0 153
0.335671 0.527641 -0.150116 204 51 127
-0.218629 -0.009813 0.119680 127 127 0
0.370896 -0.117754 0.279132 0 127 127
-0.190305 -0.220745 0.237017 153 76 0
0.355823 0.464536 0.303498 0 127 127
-0.003348 0.527641 0.148823 204 51 127
0.761881 0.552152 0.116566 153 0 76
-0.280600 -0.511033 -0.024168 153 0 76
0.692160 0.007676 0.273213 0 127 127
-0.706182 -0.511033 -0.046337 153 0 76
0.634303 0.326985 -0.282320 76 0 153
-0.607914 -0.269815 -0.282320 76 0 153
0.445082 0.572022 0.273250 153 76 0
-0.808207 -0.230081 -0.108458 76 0 153
-0.808207 -0.330499 -0.264186 76 0 153
0.568526 0.560437 0.302966 0 127 127
0.259787 -0.233969 0.309483 0 127 127
0.155834 -0.009813 0.072354 127 127 0
0.762759 0.090555 0.298713 0 127 127
0.152354 0.070137 0.279132 0 127 127
0.035093 -0.517520 0.237017 153 0 76
0.697167 -0.511033 -0.185819 153 0 76
0.345651 0.527641 -0.030623 204 51 127
0.103330 0.436585 0.290936 0 127 127
0.472529 -0.009813 0.065029 127 127 0
-0.606988 0.059274 -0.264203 76 0 153
-0.361144 0.527641 -0.113939 204 51 127
0.424154 -0.511033 0.207750 153 0 76
-0.105973 -0.486878 0.241839 153 76 0
0.002508 -0.535188 0.108358 153 0 76
-0.615780 -0.535188 -0.047395 153 0 76
-0.808207 0.207164 -0.168099 76 0 153
0.761881 0.245852 0.069352 153 0 76
0.031100 0.026420 -0.136968 127 127 0
-0.067750 0.026420 0.210183 127 127 0
-0.623957 0.513027 0.237017 153 76 0
0.662607 -0.522031 0.273250 0 127 127
0.270979 -0.428931 0.290686 0 127 127
-0.127205 0.490228 0.273213 0 127 127
-0.378190 0.000035 0.273250 153 76 0
-0.173047 0.031423 0.309446 0 127 127
-0.784052 -0.005546 0.065990 127 127 0
0.737725 0.484513 -0.133343 153 0 76
-0.763803 0.527641 -0.271117 204 51 127
-0.037141 -0.354906 0.279132 0 127 127
-0.452487 0.026420 -0.219365 127 127 0
0.707229 0.026420 -0.163904 127 127 0
0.353574 -0.125277 -0.282320 76 0 153
-0.129159 0.527641 0.115223 204 51 127
0.716151 -0.231495 0.356104 76 153 0
-0.808207 0.007546 0.173642 76 0 153
0.737725 0.375415 0.051878 153 0 76
-0.117906 0.439499 -0.264203 76 0 153
-0.058510 -0.174219 -0.282320 76 0 153
-0.097834 0.536381 0.237017 153 76 0
0.293365 0.502462 -0.264203 76 0 153
0.205198 -0.535188 0.129270 153 0 76
0.773958 0.192692 0.250643 153 76 0
0.762329 -0.018658 0.299200 0 127 127
0.326350 -0.511033 -0.126590 153 0 76
0.737725 -0.250114 -0.096895 153 0 76
-0.243316 0.042163 0.273250 153 76 0
0.589707 0.475043 0.309446 0 127 127
-0.808207 -0.238075 0.155112 76 0 153
-0.390867 -0.317859 -0.264203 76 0 153
-0.298331 -0.030405 -0.306475 255 0 0
-0.211712 -0.009813 -0.004387 127 127 0
0.199748 -0.009813 -0.196629 127 127 0
0.718825 -0.338977 0.309446 0 127 127
0.216586 -0.099651 -0.282320 76 0 153
-0.808207 -0.359792 0.133386 76 0 153
-0.128365 0.160577 0.273213 0 127 127
-0.178664 0.545617 0.237017 153 76 0
0.166079 -0.040065 0.309483 0 127 127
-0.461635 0.575951 0.268124 153 76 0
0.737725 0.130141 -0.062200 153 0 76
0.626446 0.530342 0.273213 153 76 0
0.072108 -0.535188 -0.244121 153 0 76
0.115378 -0.559344 0.252577 153 76 0
0.465630 0.440104 -0.264203 76 0 153
0.131326 -0.287755 0.309483 0 127 127
0.493175 0.040138 0.279132 0 127 127
0.737725 0.338180 -0.225663 153 0 76
-0.357923 0.380184 0.237017 153 76 0
-0.455718 0.000777 -0.264203 127 127 0
0.344601 0.026420 0.050126 127 127 0
0.633490 -0.374652 -0.282320 76 0 153
-0.268375 -0.272657 0.273250 153 76 0
-0.523774 -0.251155 0.273250 153 76 0
0.623872 -0.009813 -0.116503 127 127 0
0.141104 0.023028 -0.306475 255 0 0
0.750448 -0.136870 0.309446 0 127 127
0.761881 0.173750 -0.005633 153 0 76
0.440445 0.268524 0.309483 0 127 127
0.687658 0.404586 0.273213 0 127 127
-0.448142 0.026420 0.095097 127 127 0
0.761881 0.356914 -0.154240 153 0 76
-0.808207 -0.295449 -0.063435 76 0 153
-0.067591 0.071033 -0.264203 76 0 153
0.140159 -0.154804 0.279132 0 127 127
0.480106 -0.511033 -0.049159 153 0 76
0.513685 -0.009813 0.235069 127 127 0
-0.179857 0.516848 0.309446 0 127 127
0.144646 0.542839 0.237017 153 76 0
0.067309 0.551796 0.050900 204 51 127
0.016791 0.054088 0.309483 0 127 127
-0.365245 0.276165 0.237017 153 76 0
-0.019990 -0.483163 0.273213 153 76 0
-0.141829 -0.535188 0.023012 153 0 76
0.399134 -0.511033 0.033286 153 0 76
-0.549866 0.224017 0.237017 153 76 0
0.555099 0.527641 0.028888 204 51 127
-0.784052 -0.197643 -0.038597 76 0 153
0.096466 -0.518913 0.273250 153 76 0
-0.056037 0.053256 0.309483 0 127 127
-0.039166 -0.494980 0.309446 0 127 127
-0.293937 -0.009813 -0.155967 127 127 0
0.688225 -0.430175 0.273213 0 127 127
-0.311996 -0.518602 0.273250 153 76 0
-0.430552 -0.535188 -0.090032 153 0 76
0.654446 0.527641 0.197439 204 51 127
0.466242 -0.535188 -0.217444 153 0 76
-0.135348 -0.449796 0.309446 0 127 127
-0.562900 -0.537774 -0.282320 0 0 255
0.280644 -0.057532 0.279132 0 127 127
0.551040 0.326554 0.309483 0 127 127
-0.657733 -0.535188 0.053439 153 0 76
0.362154 0.026420 -0.103033 127 127 0
-0.078929 -0.515464 -0.306475 0 0 255
0.255118 0.092442 -0.264203 76 0 153
0.449459 -0.107836 -0.264203 76 0 153
0.761881 -0.257913 0.189172 153 0 76
0.033266 -0.511033 0.154110 153 0 76
-0.076402 -0.055465 0.297906 0 127 127
-0.615975 -0.535188 -0.209756 153 0 76
-0.784052 -0.122406 0.063419 76 0 153
-0.715895 -0.511033 0.164837 153 0 76
-0.803322 -0.559344 0.084719 76 0 153
-0.353545 0.527641 0.151082 204 51 127
0.075174 -0.510827 0.237017 153 76 0
0.149683 0.551796 0.039154 204 51 127
0.571491 0.346761 0.279132 0 127 127
-0.311464 -0.532752 -0.306475 0 0 255
0.290794 -0.009813 0.214172 127 127 0
-0.718438 0.484225 -0.306475 0 255 0
-0.808207 -0.504281 0.165360 76 0 153
-0.699565 0.026420 -0.101276 127 127 0
-0.572972 -0.321607 -0.282320 76 0 153
0.095811 0.472507 0.273213 0 127 127
0.431435 -0.535188 -0.272825 0 0 255
0.359964 0.121191 0.309483 0 127 127
0.054902 -0.012283 0.279132 0 127 127
-0.820285 0.079720 0.239410 153 76 0
-0.437833 -0.378592 0.273250 153 76 0
-0.168095 0.090531 0.242959 153 76 0
-0.141727 -0.162732 0.273213 0 127 127
-0.786204 0.542628 -0.306475 76 0 153
0.632095 0.026420 0.190554 127 127 0
-0.528496 0.026550 0.237017 153 76 0
0.728088 0.479909 0.273250 153 76 0
0.117358 0.184915 0.309483 0 127 127
0.394663 -0.009813 0.053862 127 127 0
0.420397 -0.552547 0.273250 0 127 127
0.285536 -0.146392 0.309483 0 127 127
-0.754841 0.026420 0.111880 127 127 0
0.564260 -0.206071 -0.282320 76 0 153
0.737725 0.279463 -0.120047 153 0 76
-0.194707 0.465096 0.273250 0 127 127
-0.784052 0.178575 -0.195923 76 0 153
-0.630644 -0.488000 0.237017 153 76 0
0.210359 -0.467278 -0.306475 0 0 255
0.737725 -0.415182 0.022397 153 0 76
0.657700 -0.511033 -0.113880 153 0 76
0.346128 -0.064162 -0.305211 255 0 0
-0.641715 0.367750 -0.282320 76 0 153
-0.287951 -0.009813 -0.202713 127 127 0
-0.705879 0.059345 -0.264203 76 0 153
-0.012398 -0.553196 0.273250 0 127 127
0.260200 0.526994 0.309446 0 127 127
-0.317573 0.537116 -0.282320 76 0 153
0.737725 0.434219 -0.146956 153 0 76
0.449188 0.026420 -0.050977 127 127 0
-0.374059 -0.511033 0.025399 153 0 76
-0.536103 -0.058591 0.237017 153 76 0
0.647946 -0.009813 -0.034753 127 127 0
0.252249 -0.009813 -0.005549 127 127 0
0.443529 -0.415130 0.292245 0 127 127
0.482954 0.026420 0.113232 127 127 0
0.013416 0.184680 0.279132 0 127 127
-0.537007 0.463213 0.237017 153 76 0
0.045217 -0.195612 0.309483 0 127 127
-0.463412 -0.352644 0.237017 153 76 0
0.182232 -0.511033 -0.156781 153 0 76
-0.134379 -0.208898 0.273213 0 127 127
-0.784052 -0.289190 0.206120 76 0 153
0.453698 0.065076 0.309483 0 127 127
-0.645746 0.026420 0.194372 127 127 0
-0.507267 -0.411102 0.237017 153 76 0
0.055588 -0.043002 -0.306475 255 0 0
-0.371290 0.521517 0.273250 153 76 0
0.687653 0.527641 -0.263463 204 51 127
0.761881 -0.424789 0.171702 153 0 76
0.324722 -0.213171 0.279132 0 127 127
-0.063191 0.333772 0.308994 0 127 127
-0.771896 0.026420 0.184846 127 127 0
-0.550822 0.527641 -0.012430 204 51 127
0.127425 -0.050902 0.279132 0 127 127
-0.372089 0.441210 -0.264203 76 0 153
0.068521 -0.414985 -0.264203 76 0 153
-0.808207 0.131948 0.049024 76 0 153
-0.784052 -0.358532 -0.191068 76 0 153
0.602306 0.147020 0.279132 0 127 127
0.737725 0.123529 0.029993 153 0 76
0.354469 -0.511033 0.144671 153 0 76
0.159232 0.469940 0.309112 0 127 127
-0.164677 -0.009813 -0.078110 127 127 0
-0.297660 0.271924 0.273250 153 76 0
-0.076722 0.026420 -0.161043 127 127 0
-0.081522 0.527641 0.158797 204 51 127
0.761881 0.471811 0.154520 153 0 76
0.441912 -0.511033 -0.034470 153 0 76
-0.457906 -0.511033 -0.274104 153 0 76
0.737725 0.389815 -0.178376 153 0 76
0.132199 -0.535188 0.028049 153 0 76
-0.046592 -0.113689 0.279132 0 127 127
0.138395 -0.504386 -0.282320 0 0 255
-0.492048 -0.299276 0.273250 153 76 0
-0.771102 -0.535188 -0.134896 153 0 76
-0.230506 0.026420 0.191334 127 127 0
0.139305 0.280434 -0.282320 76 0 153
-0.109108 0.551796 0.052951 204 51 127
0.182564 0.026420 -0.191557 127 127 0
0.409838 -0.305186 0.309483 0 127 127
0.761881 0.123338 0.229083 153 76 0
0.166691 0.462347 -0.264203 76 0 153
0.260968 -0.009813 -0.217910 127 127 0
-0.269960 0.001551 -0.306475 255 0 0
0.284094 -0.054156 -0.264203 76 0 153
-0.053624 0.026420 -0.007132 127 127 0
-0.784052 0.046908 -0.194688 127 127 0
-0.165068 -0.237544 0.273213 0 127 127
0.507208 -0.536810 -0.306475 0 0 255
-0.391829 -0.545541 0.273250 153 76 0
-0.784052 -0.133963 -0.184554 76 0 153
-0.674019 0.042788 -0.282320 76 0 153
-0.204249 0.120658 -0.282320 76 0 153
-0.808207 0.104207 -0.248945 76 0 153
0.584858 0.432747 -0.306475 0 255 0
0.737725 -0.047308 -0.118446 153 0 76
-0.568243 -0.535188 -0.238313 153 0 76
0.202810 0.136328 0.279132 0 127 127
0.272349 0.026420 -0.008182 127 127 0
-0.395061 -0.472212 0.273250 153 76 0
0.470293 -0.226123 -0.264203 76 0 153
-0.117253 0.491873 -0.264203 76 0 153
0.145490 -0.559344 -0.290248 0 0 255
0.485367 0.562719 0.301014 0 127 127
0.761881 -0.132587 0.090694 153 0 76
0.455547 0.026420 0.055441 127 127 0
0.529016 0.440135 -0.306475 0 255 0
0.305935 -0.344691 0.279132 0 127 127
0.529858 0.200504 0.309483 0 127 127
-0.784052 -0.536919 0.232491 153 76 0
-0.499944 -0.486878 0.245999 153 76 0
-0.019603 -0.009813 0.025914 127 127 0
0.149879 -0.491337 0.237017 153 76 0
-0.573820 0.516385 -0.264203 76 0 153
0.085155 0.538772 0.273213 0 127 127
-0.215078 -0.448126 0.273250 153 76 0
0.022234 0.026420 0.046194 127 127 0
0.352269 0.294712 0.279132 0 127 127
0.491076 -0.288644 0.309483 0 127 127
0.034848 -0.064371 0.279132 0 127 127
-0.756239 0.096415 -0.264203 76 0 153
0.524058 -0.538315 0.307788 0 127 127
-0.183863 -0.535188 -0.239267 153 0 76
0.161689 0.551796 0.111780 204 51 127
0.772170 -0.519029 0.273250 0 127 127
-0.301775 0.026737 -0.264203 127 127 0
-0.057516 0.316335 -0.264203 76 0 153
-0.030153 0.250661 0.279132 0 127 127
0.599704 0.026420 -0.147974 127 127 0
-0.604629 -0.009813 0.008779 127 127 0
0.622740 0.430138 -0.282320 0 255 0
-0.808207 0.205655 0.086623 76 0 153
-0.778042 -0.053731 0.273250 153 76 0
0.185954 -0.412555 -0.264203 76 0 153
-0.657509 0.527641 0.003049 204 51 127
-0.565534 -0.511033 -0.100066 153 0 76
0.162049 0.026420 -0.050806 127 127 0
0.619298 -0.535188 -0.208050 153 0 76
-0.808207 -0.344761 0.069827 76 0 153
0.022251 -0.515045 -0.282320 153 0 76
-0.324233 -0.314500 0.237017 153 76 0
0.482159 0.394843 0.309483 0 127 127
0.295175 -0.189002 0.309483 0 127 127
0.459237 0.551796 -0.203510 204 51 127
-0.407208 0.026420 0.096571 127 127 0
-0.437922 0.393554 0.273250 153 76 0
-0.019961 0.527641 -0.132626 204 51 127
0.517302 0.102991 0.309483 0 127 127
0.716299 -0.486514 0.309446 0 127 127
0.516537 0.076182 -0.306475 255 0 0
-0.262920 0.106413 0.237017 153 76 0
-0.029263 0.551796 0.072606 204 51 127
0.263478 0.210044 0.309483 0 127 127
-0.595019 -0.069524 -0.264203 76 0 153
0.404263 0.071935 -0.264203 76 0 153
0.140581 0.467134 -0.306475 0 255 0
-0.665551 -0.105214 -0.264203 76 0 153
-0.243967 0.527641 0.002780 204 51 127
-0.067703 -0.511033 -0.140751 153 0 76
0.286968 0.318091 0.309483 0 127 127
-0.356328 0.551796 0.227894 153 76 0
-0.784052 0.215857 0.034933 76 0 153
0.260966 -0.392378 -0.264203 76 0 153
0.400687 0.294256 0.309483 0 127 127
0.761881 0.298149 -0.194062 153 0 76
0.436263 -0.511033 -0.172439 153 0 76
-0.027484 0.551796 -0.080215 204 51 127
-0.178094 -0.482565 0.273250 0 127 127
-0.548497 0.026420 -0.105502 127 127 0
0.459905 -0.318081 -0.264203 76 0 153
-0.188528 0.551796 -0.121781 204 51 127
-0.046657 -0.535188 -0.059731 153 0 76
-0.146397 -0.490345 -0.282320 76 0 153
-0.498081 -0.456339 -0.306475 76 0 153
-0.777554 0.431020 -0.292208 76 0 153
-0.381130 0.068494 0.273250 153 76 0
-0.769851 0.476729 -0.306475 0 255 0
-0.305763 0.527641 0.079606 204 51 127
0.737725 0.491609 -0.190586 153 0 76
-0.454230 0.026420 0.175548 127 127 0
-0.709333 0.551796 0.080565 204 51 127
-0.708688 0.551394 -0.282320 0 255 0
-0.177511 -0.459474 0.237017 153 76 0
-0.433058 -0.009813 -0.119195 127 127 0
-0.320039 0.245855 -0.264203 76 0 153
0.495105 0.026420 0.199101 127 127 0
-0.148349 0.411751 0.273213 0 127 127
0.010113 -0.535188 -0.173395 153 0 76
0.420627 -0.470208 0.309446 0 127 127
-0.139305 0.551796 0.236909 204 51 127
0.639796 -0.007965 0.237017 127 127 0
-0.020642 -0.009813 -0.228733 127 127 0
-0.267209 -0.314960 -0.264203 76 0 153
-0.564610 0.211062 -0.282320 76 0 153
-0.572649 -0.009813 0.140644 127 127 0
-0.449081 -0.138281 0.273250 153 76 0
-0.448117 0.509170 0.273250 153 76 0
-0.183108 -0.009813 0.190311 127 127 0
-0.494865 -0.511033 -0.048998 153 0 76
0.581686 0.551796 -0.247905 204 51 127
0.522930 0.551796 -0.121608 204 51 127
0.761881 -0.109574 -0.195475 153 0 76
-0.021729 0.335128 -0.264203 76 0 153
0.353785 -0.258092 0.279132 0 127 127
-0.504954 0.551796 -0.136182 204 51 127
0.597483 -0.047744 0.307885 0 127 127
0.761881 0.278891 0.045146 153 0 76
0.184750 -0.424662 0.290805 0 127 127
-0.600625 0.026420 0.039863 127 127 0
0.742344 0.251564 0.309446 0 127 127
-0.784052 -0.221656 -0.268384 76 0 153
-0.784052 -0.172309 0.233118 76 0 153
-0.370207 -0.386435 0.273250 153 76 0
-0.784052 0.153805 -0.060445 76 0 153
0.681438 0.026420 -0.216175 127 127 0
-0.547785 -0.535188 0.064277 153 0 76
0.761881 0.413925 -0.044468 153 0 76
0.489967 0.026420 -0.033512 127 127 0
-0.068286 -0.511033 0.040790 153 0 76
0.030636 -0.346900 -0.264203 76 0 153
0.584932 -0.279120 -0.264203 76 0 153
-0.324890 0.216551 0.237017 153 76 0
-0.460428 0.553082 -0.282320 0 255 0
-0.531280 0.308951 0.273250 153 76 0
-0.401204 -0.001651 -0.282320 255 0 0
0.746182 -0.529052 0.237017 153 0 76
0.256610 -0.069165 0.309483 0 127 127
0.564843 0.022604 -0.306475 255 0 0
0.752173 -0.230873 0.237017 153 76 0
0.452154 -0.009813 0.116031 127 127 0
-0.157308 0.551796 0.093912 204 51 127
-0.820285 0.254564 0.240033 153 76 0
0.306135 0.536324 0.237017 153 76 0
0.761881 -0.253709 -0.139110 153 0 76
-0.613506 0.527641 0.167358 204 51 127
0.263922 0.527641 0.127210 204 51 127
-0.168444 -0.535188 0.089145 153 0 76
0.563696 0.416870 -0.264203 76 0 153
0.125542 -0.511033 -0.032611 153 0 76
0.334776 -0.535188 -0.253255 153 0 76
-0.808207 -0.418113 -0.141047 76 0 153
-0.308753 0.527641 0.165130 204 51 127
-0.249223 0.026420 0.065662 127 127 0
-0.177820 0.359901 -0.282320 76 0 153
-0.760403 0.575950 0.264208 153 76 0
-0.375901 0.026420 -0.118701 127 127 0
0.014041 -0.535188 -0.216636 153 0 76
0.063646 0.502515 0.309446 0 127 127
-0.269067 -0.511033 0.151193 153 0 76
-0.125124 0.081903 0.274138 0 127 127
-0.502734 -0.076572 -0.264203 76 0 153
0.215165 0.551796 -0.209405 204 51 127
-0.231500 0.495637 0.290678 0 127 127
0.051221 -0.535188 -0.005331 153 0 76
-0.138919 -0.432075 -0.306475 0 0 255
0.740634 -0.068935 0.273213 153 76 0
0.737725 -0.196028 0.167760 153 0 76
0.063267 0.026420 0.219066 127 127 0
-0.170893 0.197910 0.237017 153 76 0
0.246922 -0.511033 0.034304 153 0 76
-0.676079 0.109528 -0.282320 76 0 153
-0.243812 0.366173 -0.282320 76 0 153
-0.124010 -0.427193 0.279132 0 127 127
0.737725 -0.344811 -0.164395 153 0 76
-0.784052 -0.263279 0.078944 76 0 153
-0.808207 -0.154948 0.133590 76 0 153
0.208675 0.256390 -0.282320 76 0 153
0.313462 0.026420 -0.025357 127 127 0
0.680025 -0.325329 0.273213 0 127 127
-0.723913 0.527641 0.139771 204 51 127
0.075400 -0.009813 0.075488 127 127 0
0.489731 -0.511033 0.071180 153 0 76
0.360933 -0.486878 0.248989 153 76 0
0.773958 0.556819 0.257369 153 76 0
-0.290502 0.299381 -0.264203 76 0 153
-0.391414 0.093238 0.237017 153 76 0
-0.100293 0.026420 -0.096392 127 127 0
0.398320 0.551796 -0.093588 204 51 127
-0.784052 0.538398 -0.120920 204 51 127
-0.575722 -0.472884 -0.306475 0 0 255
0.737725 -0.322341 0.222923 153 0 76
0.532262 -0.535188 -0.085426 153 0 76
0.061627 -0.258240 -0.264203 76 0 153
-0.525141 0.551796 -0.101052 204 51 127
-0.302285 -0.535188 -0.092011 153 0 76
-0.432388 -0.511033 -0.130174 153 0 76
-0.588386 -0.009813 -0.153069 127 127 0
-0.021486 0.251626 -0.282320 76 0 153
-0.101353 0.026420 0.030727 127 127 0
0.112940 -0.195166 -0.264203 76 0 153
-0.592750 0.551796 0.039268 204 51 127
-0.100302 0.328001 0.290961 0 127 127
0.393202 -0.143201 0.309483 0 127 127
-0.505709 -0.009813 -0.119779 127 127 0
-0.075908 -0.009813 -0.191547 127 127 0
0.557830 0.026420 -0.022080 127 127 0
-0.797865 0.339345 0.273250 153 76 0
-0.731744 0.529067 0.273250 153 76 0
0.166507 0.016481 0.309483 0 127 127
0.094981 0.026420 0.050559 127 127 0
-0.174777 -0.009813 0.146395 127 127 0
-0.393706 -0.009813 -0.020423 127 127 0
0.627163 -0.511033 -0.246996 153 0 76
-0.297829 -0.240920 -0.282320 76 0 153
0.290882 0.551796 0.076204 204 51 127
-0.039603 -0.009813 -0.065464 127 127 0
0.319976 -0.535188 -0.024351 153 0 76
0.561549 -0.535188 -0.211817 153 0 76
-0.598646 -0.009813 0.209317 127 127 0
0.134930 0.092121 0.309483 0 127 127
-0.387223 -0.535188 -0.069162 153 0 76
-0.643032 0.575951 0.273058 153 76 0
0.570876 0.102568 0.309483 0 127 127
-0.325038 -0.031040 0.237017 153 76 0
0.250167 0.527641 -0.270423 76 0 153
-0.784052 -0.361887 -0.106985 76 0 153
0.710772 -0.535188 0.099508 153 0 76
0.720392 0.469322 -0.264203 153 0 76
-0.808207 0.429330 -0.063190 76 0 153
-0.112254 0.575951 -0.283866 0 255 0
0.696079 0.365133 0.273213 0 127 127
0.563096 0.339199 -0.282320 76 0 153
0.246258 0.527641 -0.092631 204 51 127
-0.136633 0.049022 -0.264203 76 0 153
-0.804754 -0.416708 0.237017 153 76 0
-0.473904 0.257334 0.237017 153 76 0
-0.127033 -0.143918 -0.282320 76 0 153
-0.187710 -0.119088 0.273213 0 127 127
0.185074 0.480534 0.273213 0 127 127
0.202208 0.555791 0.273250 0 127 127
0.761881 -0.488754 0.158042 153 0 76
-0.499742 0.273095 -0.264203 76 0 153
0.540038 -0.036508 0.279132 0 127 127
-0.017043 0.316405 0.309483 0 127 127
0.390776 -0.009813 -0.239903 127 127 0
-0.259964 -0.511033 -0.113834 153 0 76
-0.554578 -0.186867 0.267849 153 76 0
0.124801 -0.535188 -0.201541 153 0 76
0.723047 -0.511033 0.187055 153 0 76
-0.538414 -0.009813 -0.226971 127 127 0
-0.816617 0.339017 0.237017 76 0 153
-0.224576 -0.315037 0.273250 0 127 127
-0.751149 -0.517980 -0.306475 0 0 255
-0.212455 -0.479576 -0.264203 76 0 153
-0.633189 0.527641 0.111508 204 51 127
0.114586 -0.524736 0.309446 0 127 127
-0.808207 0.026009 -0.088936 76 0 153
0.079843 -0.535188 0.191781 153 0 76
-0.747819 0.106894 0.237842 153 76 0
-0.047325 0.561981 0.237017 153 76 0
-0.320655 -0.009813 -0.122128 127 127 0
-0.248281 0.551796 0.147911 204 51 127
-0.784052 -0.187633 -0.304737 76 0 153
-0.207902 -0.559344 0.264612 153 76 0
-0.190642 -0.214737 0.309446 0 127 127
-0.458603 0.527641 -0.112890 204 51 127
-0.365719 -0.009813 -0.198568 127 127 0
0.570073 0.069619 -0.264203 76 0 153
0.737725 -0.095551 0.220177 153 76 0
0.532551 0.444768 0.279132 0 127 127
-0.747432 -0.009813 -0.116903 127 127 0
0.115452 0.527641 -0.100854 204 51 127
0.537444 0.478836 -0.264203 76 0 153
-0.784052 -0.297138 -0.097653 76 0 153
-0.784052 0.241275 -0.149714 76 0 153
0.704505 0.551796 0.164572 204 51 127
-0.258891 -0.346046 0.237017 153 76 0
0.107744 0.047422 0.279132 0 127 127
0.615545 0.547773 0.237017 204 51 127
0.588922 -0.511033 -0.041060 153 0 76
0.438509 -0.053496 -0.264203 76 0 153
0.474794 -0.367916 0.309483 0 127 127
0.403090 -0.511033 -0.225118 153 0 76
0.172794 0.527641 0.200208 204 51 127
0.578894 -0.535188 0.147849 153 0 76
-0.519199 -0.535188 -0.279078 0 0 255
-0.642110 0.026420 -0.207417 127 127 0
0.761881 0.161783 -0.280531 153 0 76
0.276846 -0.009813 0.074302 127 127 0
-0.642574 -0.064162 -0.302401 255 0 0
-0.481913 0.431020 -0.292101 0 255 0
-0.057609 0.551796 -0.164985 204 51 127
0.094045 -0.559344 -0.290807 0 0 255
0.737725 -0.421771 0.233357 153 76 0
-0.684897 -0.009813 0.002464 127 127 0
0.085589 -0.001894 -0.264203 127 127 0
-0.085720 -0.396772 -0.264203 76 0 153
0.737725 0.110233 -0.229339 153 0 76
-0.447065 -0.009813 -0.170787 127 127 0
0.737725 0.474739 -0.033051 153 0 76
0.045782 0.551796 -0.246193 204 51 127
-0.698629 -0.009813 0.118615 127 127 0
0.232738 -0.157102 -0.282320 76 0 153
0.480494 0.324155 0.279132 0 127 127
0.722576 -0.009813 0.004425 127 127 0
-0.330133 -0.511033 0.068367 153 0 76
0.533368 0.527641 0.096447 204 51 127
0.737725 0.221193 -0.054912 153 0 76
0.737725 0.050647 -0.168232 153 0 76
-0.371556 0.176512 0.273250 153 76 0
0.602081 -0.160418 0.299307 0 127 127
0.024565 0.466787 0.273213 0 127 127
-0.662426 0.551796 -0.188293 204 51 127
0.286766 0.106459 -0.282320 76 0 153
0.268721 -0.531800 -0.306475 0 0 255
-0.717193 -0.009813 0.216454 127 127 0
0.218702 -0.009813 0.019325 127 127 0
-0.757865 -0.535188 -0.030148 153 0 76
-0.218861 0.249206 0.273213 0 127 127
