ply
format ascii 1.0
element vertex 1277
property float x
property float y
property float z
property uchar red
property uchar green
property uchar blue
end_header
0.282573 0.318553 0.172479 76 0 153
-0.389282 0.037600 0.170620 153 0 76
0.199423 -0.761360 0.156610 153 76 0
0.449467 0.721246 -0.036610 255 0 0
-0.010886 -0.264460 0.176844 153 0 76
-0.087417 0.239480 0.153649 127 0 127
-0.358611 0.226026 -0.150459 0 255 0
-0.024854 0.294878 -0.150459 0 255 0
0.409807 0.253532 -0.061473 127 0 127
0.449467 0.476539 -0.130804 255 0 0
0.364645 0.764297 0.181712 153 76 0
0.298325 0.220924 -0.150459 0 255 0
0.493275 0.110257 -0.141872 255 0 0
0.009427 0.837637 0.254473 127 0 127
-0.352564 0.238929 0.048653 127 0 127
0.493275 0.253592 -0.191872 255 0 0
0.526131 -0.791910 -0.128857 127 127 0
-0.448600 -0.141906 -0.120931 0 0 255
0.429524 0.787608 -0.172363 0 255 0
-0.448600 -0.042623 -0.075635 0 0 255
-0.071467 -0.525358 0.204055 153 0 76
0.493275 0.628491 0.057281 255 0 0
0.493275 -0.721033 0.104726 255 0 0
-0.300487 0.311854 0.163046 76 0 153
0.264526 0.049960 -0.172363 0 255 0
-0.206991 -0.635200 -0.172363 0 255 0
-0.492408 0.170292 0.145324 153 0 76
0.393921 0.612305 -0.172363 0 255 0
0.174006 0.776561 0.158816 153 76 0
0.493275 -0.672738 0.089144 255 0 0
0.022942 0.400519 -0.150459 0 255 0
-0.244116 0.253532 0.048168 127 0 127
0.042177 -0.179403 -0.150459 0 255 0
-0.430334 -0.516154 0.130239 153 0 76
0.043234 -0.394017 0.173560 153 76 0
0.449467 0.189470 -0.113075 255 0 0
-0.121089 0.691624 0.164600 153 0 76
-0.461809 0.366711 -0.150459 0 0 255
-0.385929 -0.382508 0.135173 153 0 76
0.240402 -0.629935 -0.066347 204 51 127
0.202577 -0.031444 -0.150459 0 255 0
-0.492408 0.615750 -0.152969 0 0 255
-0.317589 -0.812469 0.187317 127 127 0
-0.030564 0.695182 0.174658 153 0 76
0.078406 0.837637 0.034734 127 0 127
0.009205 0.769598 -0.150459 0 255 0
0.155249 0.253532 0.145006 127 0 127
0.350242 0.238929 0.117708 127 0 127
-0.491069 -0.297515 0.167569 153 0 76
0.421759 0.520238 0.175366 153 76 0
0.297013 -0.629935 -0.010898 204 51 127
-0.179240 -0.091413 -0.150459 0 255 0
-0.397091 0.837637 -0.173229 127 0 127
0.335214 -0.576024 -0.150459 0 255 0
-0.001424 0.424657 0.214628 153 0 76
0.380240 -0.399705 -0.172363 0 255 0
-0.208727 0.837637 -0.186279 127 0 127
-0.316815 -0.812469 -0.078558 127 127 0
0.478306 0.837637 -0.138819 127 0 127
-0.100742 0.837637 -0.147717 127 0 127
0.449467 0.521384 -0.078965 255 0 0
-0.288212 -0.670093 0.075698 204 51 127
-0.186577 -0.184553 -0.063951 127 127 0
-0.087315 -0.812469 0.071260 127 127 0
-0.196038 -0.672884 0.156272 153 0 76
-0.481235 0.815733 -0.088961 127 0 127
-0.492408 0.549484 -0.011743 0 0 255
-0.204597 0.253532 -0.038627 127 0 127
0.148489 -0.245335 -0.172363 0 255 0
0.472154 0.837637 -0.048215 127 0 127
0.449467 0.550517 0.093544 255 0 0
-0.463183 0.215227 -0.172254 0 0 255
-0.421057 0.367047 0.175348 153 0 76
0.493275 -0.350444 0.163000 153 76 0
0.493275 -0.211700 -0.026812 255 0 0
-0.304674 -0.759065 0.144201 153 0 76
-0.472381 0.438115 -0.194267 0 0 255
-0.492408 0.041533 -0.009073 0 0 255
-0.270703 0.158158 0.173701 76 0 153
-0.028483 0.534027 0.211621 153 0 76
0.198070 0.254954 0.181868 76 0 153
-0.129109 0.667135 -0.194267 0 255 0
0.449467 0.686195 -0.144777 255 0 0
-0.248576 0.099131 -0.150459 0 255 0
0.449467 0.415083 -0.097952 255 0 0
-0.359959 0.786528 0.181950 153 0 76
-0.194076 -0.629935 -0.058775 204 51 127
0.493275 0.223618 -0.132689 255 0 0
-0.492408 0.323034 0.023798 0 0 255
0.394455 -0.655490 0.152428 153 76 0
0.493275 -0.297866 -0.027622 255 0 0
-0.359323 -0.478901 -0.150459 0 255 0
-0.403076 -0.761360 0.117027 127 127 0
0.493275 0.579181 0.050919 255 0 0
0.376224 -0.199155 0.059913 127 127 0
0.109224 0.563002 -0.150459 0 255 0
-0.448600 -0.508219 -0.042791 0 0 255
0.493275 -0.447800 -0.020582 255 0 0
-0.492408 0.393075 -0.011413 0 0 255
-0.425436 -0.616611 -0.172363 0 255 0
-0.258580 -0.237280 0.175048 76 0 153
0.448061 -0.266163 0.172444 153 76 0
-0.389155 0.639365 0.169474 153 0 76
-0.076453 0.591141 -0.194267 0 255 0
0.052493 0.744125 -0.194267 0 255 0
-0.492408 0.629253 0.027318 0 0 255
0.309216 0.645007 0.169519 76 0 153
-0.330455 -0.184553 -0.025441 127 127 0
0.317195 0.674154 -0.194267 0 255 0
-0.492408 -0.279328 -0.051486 0 0 255
-0.494897 0.837637 0.176306 127 0 127
0.132528 -0.761360 0.044627 127 127 0
-0.173590 -0.812469 0.145873 127 127 0
-0.337127 0.797374 -0.150459 127 0 127
-0.492408 -0.011924 -0.129957 0 0 255
0.412175 -0.333456 0.132353 153 76 0
0.342955 0.347958 0.165770 76 0 153
0.464050 -0.654538 -0.192680 255 0 0
-0.048832 -0.670093 0.114104 204 51 127
0.141332 -0.658110 -0.172363 0 255 0
0.313219 -0.438694 -0.150459 0 255 0
0.252551 -0.761360 0.055949 127 127 0
0.152619 -0.812469 -0.136199 127 127 0
-0.318865 0.757740 0.142624 153 0 76
0.148613 0.178032 0.187363 76 0 153
-0.032241 0.281815 0.211203 153 0 76
-0.492408 -0.235859 0.119268 0 0 255
-0.449625 0.652908 0.172174 153 0 76
0.029796 0.786528 -0.048601 127 0 127
0.493275 -0.234093 -0.119544 255 0 0
0.182468 -0.134142 -0.172363 0 255 0
-0.153458 -0.199155 -0.120303 127 127 0
0.439415 -0.359404 0.173405 153 76 0
-0.254261 -0.199155 0.004427 127 127 0
-0.105442 -0.586140 -0.150459 0 255 0
0.449467 0.638927 0.006540 255 0 0
-0.121086 -0.523919 -0.172363 0 255 0
0.096162 -0.629935 0.081759 204 51 127
0.044851 0.662673 0.188110 153 76 0
-0.010335 -0.184553 -0.132862 127 127 0
0.449467 -0.597905 -0.029046 255 0 0
0.493275 -0.082980 -0.049300 255 0 0
-0.447345 -0.670093 -0.068499 204 51 127
-0.448600 0.422046 -0.150342 0 0 255
-0.108122 0.632879 0.184420 76 0 153
0.449467 0.607825 -0.137815 255 0 0
-0.492408 0.732868 -0.148443 0 0 255
0.463183 -0.364596 0.126686 255 0 0
0.283551 0.837637 0.068462 127 0 127
0.507054 0.837637 0.073490 127 0 127
-0.217901 -0.670093 -0.102406 204 51 127
0.244038 0.699452 0.195113 153 76 0
0.493275 0.185734 -0.191058 255 0 0
-0.414808 -0.235473 0.176042 153 0 76
-0.454951 0.718554 0.127504 0 0 255
-0.344739 -0.629935 0.070361 204 51 127
0.472266 -0.812469 -0.048459 127 127 0
0.493275 -0.388336 0.024072 255 0 0
-0.268691 -0.184553 -0.122718 127 127 0
0.261993 0.716668 -0.172363 0 255 0
-0.492408 -0.178629 -0.033205 0 0 255
-0.009338 0.786528 0.198737 127 0 127
0.449467 0.231648 0.070743 255 0 0
0.272252 -0.648287 0.191978 153 76 0
-0.300010 0.083080 -0.150459 0 255 0
0.336991 -0.184553 -0.011214 127 127 0
-0.409149 -0.375216 -0.150459 0 255 0
-0.503810 -0.765461 0.133657 127 127 0
0.309009 -0.636814 -0.150459 204 51 127
-0.220944 0.462593 -0.172363 0 255 0
0.398045 0.228319 -0.172363 0 255 0
-0.487823 -0.812469 -0.083034 127 127 0
-0.485282 -0.761360 -0.144875 0 0 255
-0.295021 -0.400572 -0.150459 0 255 0
-0.492408 -0.737411 0.045242 0 0 255
-0.448600 -0.659143 0.051273 0 0 255
-0.166956 0.837637 0.082873 127 0 127
0.043253 -0.758989 0.188037 153 76 0
-0.302824 -0.199155 -0.073402 127 127 0
0.353748 0.692694 0.138845 153 76 0
-0.238673 -0.812469 -0.136476 127 127 0
-0.445870 -0.629935 0.106613 204 51 127
-0.419790 -0.812469 0.150186 127 127 0
0.136772 0.737036 0.162953 153 76 0
-0.492408 0.552101 0.047999 0 0 255
0.235695 -0.630091 -0.172363 0 255 0
0.332111 0.781828 -0.194267 0 255 0
-0.205404 -0.761360 -0.032172 127 127 0
0.493275 0.748563 -0.003133 255 0 0
-0.238547 0.755969 0.151549 153 0 76
0.149974 -0.761360 -0.091148 127 127 0
-0.060902 -0.461757 0.208019 153 0 76
-0.043768 0.165212 0.186170 153 0 76
0.260509 -0.184553 0.125967 127 127 0
-0.448600 0.095699 -0.128150 0 0 255
0.370824 -0.761360 -0.088299 127 127 0
-0.329437 -0.670093 -0.083196 204 51 127
0.031829 -0.199155 -0.054108 127 127 0
0.250404 0.207002 0.168707 76 0 153
0.449467 0.761814 -0.072326 255 0 0
-0.342627 0.163484 0.158364 76 0 153
-0.525264 -0.794981 -0.006499 127 127 0
0.193565 -0.683816 0.200721 153 76 0
0.010058 0.786528 -0.105107 127 0 127
0.353291 0.309925 -0.150459 0 255 0
-0.258746 -0.112799 0.175030 76 0 153
0.000434 0.225153 0.212254 153 76 0
-0.388802 -0.670093 -0.041805 204 51 127
-0.445718 -0.459876 -0.150459 0 255 0
0.098894 -0.301521 -0.172363 0 255 0
-0.224756 -0.335033 -0.150459 0 255 0
-0.431532 -0.761360 0.043976 127 127 0
0.181421 -0.602345 0.183718 76 0 153
0.454044 -0.560871 0.127701 153 76 0
-0.448600 -0.201080 -0.140941 0 0 255
0.084311 -0.812469 0.071412 127 127 0
0.353142 -0.199155 -0.114759 127 127 0
0.409735 -0.761360 -0.127765 127 127 0
0.142604 -0.764416 0.234586 127 127 0
0.449467 -0.043940 -0.061810 255 0 0
0.016900 0.140724 0.176272 153 76 0
-0.448600 -0.633142 0.009603 204 51 127
-0.135415 -0.423625 -0.150459 0 255 0
0.418802 -0.812469 0.097047 127 127 0
-0.414999 0.711549 -0.194267 0 255 0
-0.446157 0.507240 -0.172363 0 255 0
-0.299670 -0.482671 0.170483 76 0 153
0.449467 -0.627812 0.082025 255 0 0
-0.171825 0.786528 -0.066078 127 0 127
-0.010291 0.068660 -0.150459 0 255 0
0.054589 -0.567377 -0.150459 0 255 0
0.451223 0.147916 0.128015 255 0 0
-0.307746 0.342869 -0.172363 0 255 0
-0.033820 -0.453602 -0.172363 0 255 0
0.212541 0.270115 -0.172363 0 255 0
-0.448600 -0.255622 -0.051905 0 0 255
-0.105173 0.071906 0.192094 76 0 153
0.449467 -0.471275 0.019224 255 0 0
0.112679 -0.646561 0.209708 153 76 0
-0.131204 0.800621 -0.150459 127 0 127
0.035432 -0.670093 0.113801 204 51 127
0.449467 -0.224032 0.079133 255 0 0
-0.448600 -0.474333 -0.104809 0 0 255
-0.131344 -0.020601 -0.150459 0 255 0
0.396470 0.699177 -0.194267 0 255 0
0.424169 0.786528 -0.007172 127 0 127
-0.240589 -0.670093 0.052839 204 51 127
-0.060182 -0.761360 -0.000502 127 127 0
0.107073 0.091049 0.191979 76 0 153
0.466834 0.815733 0.041240 255 0 0
-0.492408 -0.114117 -0.173164 0 0 255
-0.443780 0.273555 -0.150459 0 255 0
0.319731 0.139621 0.168350 76 0 153
0.128116 -0.060791 -0.150459 0 255 0
0.480106 -0.767032 -0.061312 255 0 0
0.449467 -0.284720 0.071107 255 0 0
-0.405949 0.731875 0.132948 153 0 76
0.493275 0.626652 -0.158344 255 0 0
0.493275 0.520808 0.029700 255 0 0
-0.227320 0.243355 0.138104 127 0 127
-0.372870 0.837637 0.029518 127 0 127
-0.448600 -0.527236 0.035314 0 0 255
0.066687 -0.461211 0.189121 153 76 0
0.022537 -0.629935 0.160162 204 51 127
0.276725 0.362680 -0.172363 0 255 0
-0.331613 -0.629935 0.006698 204 51 127
-0.095729 -0.670093 0.032671 204 51 127
0.449467 0.252469 -0.015582 127 0 127
0.221294 0.559459 -0.150459 0 255 0
-0.077142 -0.198348 0.195208 76 0 153
-0.439068 -0.019728 0.129269 153 0 76
0.138089 0.801130 -0.190000 127 0 127
-0.492408 -0.183327 0.089926 0 0 255
0.103681 0.748569 -0.150459 0 255 0
-0.448600 -0.578763 0.031491 0 0 255
-0.270412 0.633682 -0.150459 0 255 0
-0.267660 -0.812469 -0.051368 127 127 0
0.462413 -0.534998 -0.150459 0 255 0
-0.211526 0.367614 -0.150459 0 255 0
-0.492408 -0.230094 -0.096244 0 0 255
-0.492408 0.727301 0.164344 153 0 76
0.387297 -0.048408 0.144946 153 76 0
0.389223 -0.183656 0.162275 153 76 0
-0.437287 0.156764 -0.172363 0 255 0
0.426789 0.736097 0.160114 153 76 0
0.277403 -0.775962 -0.187507 127 127 0
-0.064609 -0.199155 0.109271 127 127 0
-0.055714 0.801130 -0.175511 127 0 127
0.390330 -0.507814 0.172238 153 76 0
-0.380147 -0.812469 0.046413 127 127 0
-0.359261 -0.629935 -0.123763 204 51 127
0.493275 -0.555078 -0.099382 255 0 0
0.362045 0.837637 0.194965 127 0 127
-0.195095 -0.527843 -0.172363 0 255 0
-0.448600 -0.595603 -0.052924 0 0 255
-0.048268 0.683673 -0.150459 0 255 0
-0.093656 -0.812469 0.258208 127 127 0
0.301449 0.446922 -0.150459 0 255 0
0.084604 0.253532 -0.028672 127 0 127
0.329104 0.350662 -0.150459 0 255 0
-0.335813 -0.646852 0.140742 204 51 127
0.217090 0.253532 -0.112765 127 0 127
0.493275 0.345046 0.131054 153 76 0
0.036485 -0.761360 0.035871 127 127 0
-0.189878 -0.812469 0.089884 127 127 0
0.066019 -0.702583 -0.150459 0 255 0
0.141583 0.238929 -0.061766 127 0 127
0.347693 -0.268996 0.157897 76 0 153
-0.284983 -0.629935 -0.071464 204 51 127
0.160012 0.689725 -0.194267 0 255 0
-0.444071 0.315565 0.172791 153 0 76
-0.398104 -0.165267 -0.172363 0 255 0
-0.454745 0.065382 0.127527 153 0 76
0.353201 -0.629935 -0.115834 204 51 127
0.261390 -0.629935 0.039582 204 51 127
-0.243977 0.789636 0.223279 127 0 127
0.326360 -0.095081 -0.150459 0 255 0
-0.241072 0.837637 0.189532 127 0 127
-0.218829 0.516222 -0.150459 0 255 0
-0.226500 0.192883 -0.150459 0 255 0
-0.441517 0.009487 0.173075 153 0 76
-0.492408 -0.066608 -0.088114 0 0 255
0.459777 -0.812469 0.192800 127 127 0
-0.448600 0.617230 0.068968 0 0 255
-0.086717 -0.629935 0.064814 204 51 127
-0.174501 0.161431 -0.172363 0 255 0
0.157455 -0.670093 -0.054212 204 51 127
0.030720 -0.651922 -0.172363 0 255 0
0.218568 -0.629935 -0.121801 204 51 127
-0.190698 0.023972 -0.172363 0 255 0
-0.448600 -0.153307 0.074575 0 0 255
-0.486123 0.516127 0.124040 153 0 76
0.325329 -0.812469 0.064348 127 127 0
-0.463618 -0.734335 -0.194267 0 0 255
-0.125222 0.075202 -0.150459 0 255 0
-0.492408 0.244904 0.118946 0 0 255
0.409701 -0.629935 -0.111751 204 51 127
0.311489 -0.761360 -0.051407 127 127 0
0.086579 -0.184553 -0.082685 127 127 0
-0.388812 0.463480 0.153232 76 0 153
-0.311762 -0.199155 0.067413 127 127 0
-0.492408 0.105788 -0.150743 0 0 255
0.081743 0.464941 -0.150459 0 255 0
0.166982 -0.451537 0.185322 76 0 153
-0.224859 -0.629935 0.139353 204 51 127
-0.026896 -0.761360 0.182881 127 127 0
-0.148523 0.253532 -0.135518 127 0 127
0.449467 -0.644635 -0.024177 255 0 0
-0.448600 -0.730042 -0.014143 0 0 255
-0.393174 0.282017 0.134368 153 0 76
-0.448600 -0.311759 -0.005158 0 0 255
-0.270510 0.757281 -0.194267 0 255 0
0.305429 -0.761360 0.007030 127 127 0
-0.448600 0.039525 -0.081374 0 0 255
-0.283499 -0.775962 -0.151697 0 255 0
0.369016 -0.703671 0.137148 153 76 0
0.218498 -0.670093 0.004834 204 51 127
-0.398772 0.831880 0.228664 127 0 127
-0.448600 -0.456115 0.106290 0 0 255
0.435048 -0.114293 0.173890 153 76 0
-0.130520 0.786528 0.065855 127 0 127
0.048064 0.295924 0.172810 153 76 0
-0.310186 0.688104 0.187667 153 0 76
0.151509 0.786528 0.198599 127 0 127
0.324120 -0.695317 -0.172363 0 255 0
-0.052425 0.551660 -0.150459 0 255 0
0.159864 0.744961 -0.194267 0 255 0
-0.254720 -0.184553 0.121432 127 127 0
-0.334261 0.589391 -0.190501 0 255 0
-0.022874 -0.073858 0.212244 153 0 76
0.286441 0.786528 -0.010470 127 0 127
-0.379557 0.239445 0.154260 76 0 153
-0.255867 0.837637 -0.029709 127 0 127
-0.019995 -0.355119 0.212564 153 0 76
0.341278 -0.812469 -0.066671 127 127 0
0.489304 0.231124 0.123783 255 0 0
-0.140967 0.731714 -0.150459 0 255 0
-0.492408 -0.678118 -0.189043 0 0 255
-0.364008 0.444262 -0.150459 0 255 0
0.148098 -0.576975 -0.172363 0 255 0
0.439781 -0.482073 0.173364 153 76 0
-0.011972 -0.812469 -0.102211 127 127 0
-0.015523 -0.670093 -0.038221 204 51 127
0.449568 -0.528058 0.172277 153 76 0
-0.482247 -0.469828 0.168549 153 0 76
-0.110157 -0.775962 -0.186636 127 127 0
0.493275 -0.123545 -0.095888 255 0 0
0.050504 -0.761360 -0.090165 127 127 0
0.367176 0.116264 -0.150459 0 255 0
-0.179677 0.239633 0.143398 127 0 127
0.030368 -0.629935 -0.077003 204 51 127
-0.340363 -0.201103 0.165961 76 0 153
0.301005 0.413929 0.170431 76 0 153
0.493275 0.381845 -0.097341 255 0 0
0.411397 0.253532 0.055571 127 0 127
0.235406 0.801130 -0.164383 0 255 0
-0.021238 -0.067360 -0.172363 0 255 0
-0.030420 -0.400325 -0.150459 0 255 0
0.320367 0.837637 -0.143059 127 0 127
-0.051099 0.634044 0.209108 153 0 76
-0.077316 -0.629935 -0.088151 204 51 127
-0.059309 0.837637 0.008997 127 0 127
-0.282917 0.544214 -0.150459 0 255 0
0.215124 -0.434421 -0.172363 0 255 0
0.133033 0.015829 -0.150459 0 255 0
0.261683 0.735622 0.149074 153 76 0
-0.492408 -0.651837 -0.047948 0 0 255
0.425414 -0.812469 -0.072957 127 127 0
-0.278682 0.241342 0.165469 76 0 153
-0.286211 0.432783 0.164632 76 0 153
0.043492 0.590918 0.175874 153 76 0
-0.071048 0.441046 0.200284 153 0 76
-0.200662 -0.625044 0.181484 76 0 153
0.493275 0.690984 0.037127 255 0 0
-0.464750 0.287161 -0.194267 0 0 255
-0.448600 -0.140507 -0.074721 0 0 255
-0.467806 0.590262 0.170154 153 0 76
0.493275 0.745541 0.113459 255 0 0
-0.021345 -0.417091 0.212414 153 0 76
0.233509 -0.199155 -0.136244 127 127 0
0.449467 -0.430264 -0.103053 255 0 0
-0.422720 0.666141 -0.194267 0 255 0
-0.477567 -0.543656 0.124991 0 0 255
-0.279972 0.737098 0.191024 153 0 76
0.493275 0.347257 -0.034516 255 0 0
0.286418 0.837637 0.140137 127 0 127
-0.302843 -0.639885 -0.172363 0 255 0
-0.395467 0.786528 0.035625 127 0 127
-0.104082 -0.199155 -0.004857 127 127 0
-0.276469 0.091490 0.165715 76 0 153
0.055291 -0.812469 0.151138 127 127 0
-0.004032 0.474757 0.214338 153 0 76
-0.448600 0.588989 -0.106014 0 0 255
0.256194 0.640454 -0.150459 0 255 0
0.371723 -0.431328 0.162573 76 0 153
-0.448600 0.378963 0.089825 0 0 255
-0.049429 -0.692721 0.172562 153 0 76
0.247996 0.786528 0.215488 127 0 127
-0.380710 0.583030 -0.150459 0 255 0
0.178630 -0.761360 -0.055304 127 127 0
-0.243106 0.004389 -0.172363 0 255 0
-0.448600 0.065308 -0.023408 0 0 255
0.493275 0.712040 -0.087087 255 0 0
-0.404704 -0.751471 0.177165 153 0 76
0.034248 0.786528 0.055389 127 0 127
-0.492408 -0.195906 0.031906 0 0 255
0.020997 0.286941 -0.172363 0 255 0
0.493275 0.411758 -0.004404 255 0 0
-0.247417 0.786528 0.010966 127 0 127
0.017214 -0.812469 0.002807 127 127 0
0.217953 -0.374785 0.172313 76 0 153
0.378352 -0.480370 -0.150459 0 255 0
0.087395 -0.494678 -0.150459 0 255 0
-0.095719 -0.194930 0.152726 127 127 0
-0.448600 0.540938 -0.085449 0 0 255
0.493275 0.075805 -0.046894 255 0 0
-0.132703 -0.629935 0.157710 204 51 127
0.233472 0.688409 -0.194267 0 255 0
0.338257 0.786528 0.057800 127 0 127
-0.492408 0.003259 0.069216 0 0 255
-0.109908 0.737041 0.209920 153 0 76
-0.096161 0.786528 0.134273 127 0 127
-0.492408 -0.549365 0.014191 0 0 255
0.128752 -0.194284 0.182224 76 0 153
0.449467 0.536677 -0.017321 255 0 0
-0.045600 0.205002 0.209719 153 0 76
0.372780 0.651106 -0.150459 0 255 0
-0.008556 0.566814 0.177103 153 0 76
0.489542 -0.812469 0.096372 127 127 0
-0.288940 0.589391 -0.184466 0 255 0
0.386968 -0.775962 -0.166906 0 255 0
0.243727 0.053491 0.169449 76 0 153
0.314581 -0.629935 0.125182 204 51 127
-0.219088 0.273393 -0.150459 0 255 0
-0.098441 0.837637 0.101583 127 0 127
0.066600 0.684364 -0.150459 0 255 0
0.493275 0.561564 0.138614 153 76 0
0.214877 0.837637 0.169263 127 0 127
0.249321 -0.105776 -0.150459 0 255 0
-0.432541 -0.414133 0.129994 153 0 76
0.136654 0.075294 -0.150459 0 255 0
-0.169913 -0.065901 0.177554 76 0 153
-0.448600 0.727285 0.004830 0 0 255
0.294801 -0.558039 0.171120 76 0 153
-0.410757 -0.177611 0.132481 153 0 76
-0.335695 -0.715332 0.140754 153 0 76
0.394446 0.477664 -0.172363 0 255 0
0.449467 -0.021887 -0.116017 255 0 0
-0.448600 -0.331094 0.086395 0 0 255
-0.160423 -0.614413 -0.150459 0 255 0
0.449467 0.006030 -0.027817 255 0 0
0.449467 0.747661 -0.115486 255 0 0
-0.492408 0.016973 -0.090361 0 0 255
0.493275 0.038013 0.012655 255 0 0
-0.431879 0.253532 0.015365 127 0 127
0.312810 -0.164560 -0.172363 0 255 0
-0.492408 0.312116 0.098066 0 0 255
-0.152802 -0.487001 -0.172363 0 255 0
0.055217 0.837637 0.210544 127 0 127
-0.202203 0.595783 0.181313 76 0 153
-0.137732 0.674916 -0.150459 0 255 0
-0.432438 -0.812469 -0.158922 127 127 0
0.493275 0.503853 -0.060486 255 0 0
0.354475 -0.140914 0.157143 76 0 153
0.062152 -0.629935 0.027975 204 51 127
-0.007886 0.537721 -0.150459 0 255 0
-0.136558 -0.670093 -0.001183 204 51 127
0.065131 -0.225190 -0.150459 0 255 0
-0.492408 0.499965 -0.115298 0 0 255
0.349053 -0.334018 -0.150459 0 255 0
-0.314301 0.702394 -0.194267 0 255 0
0.223323 -0.245907 0.179062 76 0 153
0.333466 -0.774093 -0.172363 0 255 0
-0.407612 -0.629935 -0.116576 204 51 127
-0.068314 -0.812469 -0.114591 127 127 0
0.036851 0.640756 -0.150459 0 255 0
0.449467 -0.707313 -0.130910 255 0 0
-0.057961 -0.812469 -0.029763 127 127 0
-0.099433 -0.721013 0.211084 153 0 76
-0.126619 -0.761360 0.232530 127 127 0
0.453302 0.837637 0.118901 127 0 127
0.490809 0.430201 0.167694 153 76 0
0.449467 0.322354 0.094313 255 0 0
0.449124 0.349881 -0.172363 0 255 0
-0.492408 0.132511 -0.034464 0 0 255
0.126049 0.692461 0.208223 153 76 0
-0.492408 0.705473 0.020451 0 0 255
0.075364 -0.812469 0.015543 127 127 0
0.066142 -0.761360 0.130480 127 127 0
0.335349 0.251873 0.159269 76 0 153
-0.388242 -0.531560 0.134916 153 0 76
-0.389326 -0.591563 0.171012 153 0 76
0.523646 0.809597 0.172492 127 0 127
0.493275 0.642363 -0.003285 255 0 0
-0.199787 -0.761360 -0.076834 127 127 0
0.214130 0.786528 -0.073777 127 0 127
0.493275 0.016903 -0.074633 255 0 0
-0.289107 -0.071234 -0.150459 0 255 0
0.429454 -0.184553 -0.022801 127 127 0
0.148724 0.511890 0.187351 76 0 153
-0.492408 0.434820 0.068679 0 0 255
-0.489945 0.837637 -0.158353 127 0 127
0.328026 -0.761360 0.099965 127 127 0
-0.018642 -0.184553 0.032498 127 127 0
-0.388677 0.079223 -0.150459 0 255 0
-0.052288 0.786528 0.120037 127 0 127
-0.492408 0.241032 -0.097874 0 0 255
0.442563 -0.184553 -0.113358 127 127 0
-0.259830 0.292950 -0.150459 0 255 0
-0.029633 0.705995 -0.194267 0 255 0
0.449467 -0.140822 -0.087213 255 0 0
-0.054824 -0.670093 -0.002277 204 51 127
0.229445 -0.668807 -0.150459 204 51 127
0.449467 0.040611 0.056464 255 0 0
-0.492408 0.005086 0.159845 153 0 76
0.449467 -0.712745 -0.074221 255 0 0
-0.047162 -0.812469 0.190100 127 127 0
0.269272 -0.160967 -0.150459 0 255 0
0.068952 0.743316 0.214567 153 76 0
-0.137935 0.837637 -0.016640 127 0 127
0.007960 -0.122645 0.177266 153 76 0
0.095491 0.661528 0.193266 76 0 153
0.449467 -0.364595 -0.020945 255 0 0
0.192202 0.253532 -0.015309 127 0 127
0.401587 0.400177 0.177608 153 76 0
-0.163997 0.786528 0.202879 153 0 76
0.023735 -0.462515 0.175513 153 76 0
0.449467 -0.039065 0.048223 255 0 0
-0.108590 -0.812469 0.119258 127 127 0
-0.492408 -0.399141 0.079901 0 0 255
-0.448600 -0.693666 -0.106611 0 0 255
0.240404 -0.277823 -0.150459 0 255 0
-0.294318 -0.556754 -0.172363 0 255 0
-0.387671 -0.078216 -0.150459 0 255 0
0.313393 -0.670093 -0.078638 204 51 127
0.125036 0.287674 -0.172363 0 255 0
0.008077 -0.581442 0.177253 153 76 0
0.178683 0.219764 -0.150459 0 255 0
-0.420931 -0.469158 0.175362 153 0 76
0.493275 0.633500 0.101791 255 0 0
0.493275 -0.337294 -0.150610 255 0 0
-0.000628 -0.206913 0.177984 153 0 76
0.034508 0.537403 -0.172363 0 255 0
-0.060166 0.797621 0.251736 127 0 127
0.143402 -0.297832 0.180597 76 0 153
0.160382 0.837637 0.093716 127 0 127
0.493275 -0.279816 -0.193678 255 0 0
0.053603 -0.316163 0.208926 153 76 0
-0.422984 0.646003 -0.150459 0 255 0
0.449467 -0.444181 -0.060534 255 0 0
-0.448600 0.136062 -0.101970 0 0 255
0.046907 -0.812469 0.228828 127 127 0
0.412222 -0.603127 -0.172363 0 255 0
-0.492408 0.212118 0.000266 0 0 255
-0.471675 0.273249 0.169724 153 0 76
-0.183058 0.111989 0.183440 76 0 153
0.360619 -0.200826 -0.172363 0 255 0
0.218272 0.786528 0.001160 127 0 127
0.057949 -0.143259 0.190091 76 0 153
0.449467 0.186672 0.068892 255 0 0
-0.416904 -0.762342 -0.150459 0 255 0
-0.352067 0.543390 -0.172363 0 255 0
-0.025729 -0.670093 0.040556 204 51 127
0.493275 0.468949 0.088047 255 0 0
-0.101393 -0.264173 0.185168 76 0 153
-0.142122 0.280426 0.187988 76 0 153
0.152232 0.581537 0.186961 76 0 153
-0.235207 -0.629935 -0.075931 204 51 127
-0.448600 -0.047238 0.045829 0 0 255
0.391573 -0.781360 0.223972 127 127 0
-0.250033 -0.740487 -0.172363 0 255 0
-0.492408 -0.031013 -0.004490 0 0 255
-0.056193 0.641841 -0.172363 0 255 0
-0.246765 -0.526021 0.169015 76 0 153
-0.331044 0.792362 -0.194267 0 255 0
-0.487291 0.641472 0.123911 153 0 76
-0.463874 -0.812469 0.052158 127 127 0
-0.056701 -0.159163 0.190134 76 0 153
0.449467 -0.663431 0.031689 255 0 0
-0.001440 0.253532 0.148971 127 0 127
-0.130132 -0.016705 0.189320 76 0 153
0.411647 0.350040 0.132686 153 76 0
-0.441843 -0.332658 0.173039 153 0 76
0.386623 0.744367 -0.150459 0 255 0
-0.448600 -0.606415 -0.100096 0 0 255
-0.510754 0.797573 0.165774 127 0 127
0.449467 -0.364732 -0.097964 255 0 0
0.081434 0.238929 0.061686 127 0 127
-0.468475 0.797387 0.206134 127 0 127
0.056099 0.151957 -0.172363 0 255 0
0.068860 0.484008 0.172789 153 76 0
0.493275 -0.698740 0.046399 255 0 0
-0.100079 -0.670093 -0.114481 204 51 127
0.088862 0.786528 -0.122679 127 0 127
0.337162 0.621750 -0.194267 0 255 0
0.026561 0.750128 0.189892 153 76 0
-0.163017 -0.677217 -0.172363 0 255 0
-0.302526 0.394959 -0.150459 0 255 0
0.172545 0.655354 -0.150459 0 255 0
0.411653 0.837637 0.172155 127 0 127
0.493275 0.088385 0.072025 255 0 0
0.208346 -0.670093 0.131792 204 51 127
0.320931 0.560806 0.168217 76 0 153
-0.448600 -0.490780 -0.002174 0 0 255
0.086475 -0.184553 0.078378 127 127 0
0.449467 -0.247476 -0.060187 255 0 0
-0.448600 -0.231631 0.061798 0 0 255
0.458762 0.837637 0.219845 127 0 127
0.147100 -0.812469 0.082624 127 127 0
-0.359745 0.706291 -0.150459 0 255 0
0.505801 -0.766585 -0.098971 127 127 0
0.493275 -0.396729 -0.103727 255 0 0
0.493275 -0.660358 -0.114974 255 0 0
0.045261 -0.342348 0.173121 153 76 0
0.493275 -0.155307 0.003416 255 0 0
-0.448600 0.059380 0.038150 0 0 255
-0.525264 0.832114 0.062848 127 0 127
-0.387857 0.253532 -0.040177 127 0 127
-0.448600 0.366277 -0.060820 0 0 255
0.368044 -0.635326 0.181335 153 76 0
0.316630 0.495636 0.168695 76 0 153
0.256155 0.402640 -0.172363 0 255 0
0.401709 -0.412901 0.133516 153 76 0
0.044416 0.189964 0.184195 153 76 0
-0.121680 0.404114 0.190260 76 0 153
0.119836 -0.812469 0.206737 127 127 0
-0.417851 0.786528 -0.041631 127 0 127
-0.492408 0.061705 -0.189475 0 0 255
-0.448600 0.477215 -0.044210 0 0 255
-0.011933 -0.629935 0.029047 204 51 127
-0.397846 0.681651 0.177927 153 0 76
-0.209995 0.107691 -0.172363 0 255 0
-0.448600 -0.409346 -0.081113 0 0 255
-0.492408 -0.109917 0.049268 0 0 255
0.196655 -0.184553 -0.074328 127 127 0
0.464050 -0.023618 -0.179032 255 0 0
0.478689 0.500908 -0.194267 255 0 0
0.270520 -0.629935 0.125403 204 51 127
-0.403589 0.238929 0.046006 127 0 127
0.493275 0.211439 0.017499 255 0 0
0.105798 -0.380666 -0.172363 0 255 0
-0.000980 -0.765824 -0.150459 0 255 0
0.493275 0.131282 -0.020082 255 0 0
-0.116675 0.684309 0.208801 153 0 76
0.055513 0.373084 0.171982 153 76 0
0.124602 0.153714 -0.150459 0 255 0
-0.185162 -0.691436 0.201558 153 0 76
0.095769 0.713507 0.167509 153 76 0
0.415563 -0.309379 -0.150459 0 255 0
0.071740 -0.539410 0.198696 153 76 0
-0.466954 -0.142910 -0.194267 0 0 255
-0.069197 0.728273 -0.172363 0 255 0
-0.122873 0.786528 -0.074936 127 0 127
-0.491154 0.674481 -0.194267 0 0 255
0.395544 -0.670093 0.035406 204 51 127
0.180485 -0.184553 0.133594 127 127 0
-0.127315 -0.812469 -0.049181 127 127 0
-0.134867 0.786528 0.109399 127 0 127
0.206043 0.042286 -0.150459 0 255 0
0.490467 -0.453569 0.167732 153 76 0
-0.448600 -0.740089 0.100769 0 0 255
0.451618 0.455409 0.172049 153 76 0
0.021246 -0.162091 0.212522 153 76 0
0.175067 -0.199155 -0.021008 127 127 0
-0.077906 0.065985 -0.172363 0 255 0
-0.477997 -0.159494 0.124943 0 0 255
-0.059828 0.324754 -0.172363 0 255 0
-0.329627 -0.218445 -0.150459 0 255 0
-0.266306 0.837637 -0.099879 127 0 127
0.449467 0.092896 -0.133039 255 0 0
0.409634 -0.028627 -0.150459 0 255 0
-0.400656 -0.322032 0.159249 153 0 76
0.187924 0.159250 0.175650 76 0 153
0.141502 -0.152573 0.180808 76 0 153
0.493275 -0.338044 0.000906 255 0 0
-0.160069 0.743164 0.204347 153 0 76
-0.384687 -0.795830 0.230229 127 127 0
-0.446633 -0.248552 -0.172363 0 255 0
0.092630 -0.184553 0.153050 127 127 0
-0.332838 -0.812469 0.016363 127 127 0
0.274836 0.561243 -0.172363 0 255 0
-0.155469 0.837637 0.179787 127 0 127
-0.317493 -0.812469 -0.154212 127 127 0
0.448685 0.417799 -0.172363 0 255 0
0.161480 0.595107 -0.194267 0 255 0
0.387135 -0.097756 0.143490 153 76 0
-0.480566 0.541902 -0.194267 0 0 255
-0.387230 0.132039 0.135028 153 0 76
-0.128737 0.769041 -0.194267 0 255 0
0.138588 -0.629935 -0.000034 204 51 127
0.043400 -0.081275 0.175048 153 76 0
-0.492408 -0.186600 -0.102337 0 0 255
-0.410861 -0.270325 0.133413 153 0 76
0.493275 -0.663772 0.017160 255 0 0
0.107193 -0.761360 0.209654 153 76 0
-0.082197 0.342340 0.187301 76 0 153
0.468255 0.793266 0.202107 127 0 127
-0.004540 0.238929 -0.042606 127 0 127
-0.215811 -0.775962 -0.176436 127 127 0
0.452394 0.403484 0.127884 153 76 0
0.407495 -0.027198 0.176951 153 76 0
0.493275 -0.394718 0.142031 153 76 0
-0.129752 -0.761360 0.084377 127 127 0
0.407716 0.118733 0.132848 153 76 0
0.017322 -0.010184 0.176226 153 76 0
-0.232630 -0.629935 -0.121986 204 51 127
0.151430 -0.629935 0.077944 204 51 127
-0.162894 -0.184553 0.130467 127 127 0
0.329801 0.115104 -0.172363 0 255 0
-0.492408 0.172379 0.094746 0 0 255
-0.038143 -0.668545 -0.172363 0 255 0
-0.463183 -0.312864 -0.192360 0 0 255
0.449467 0.057103 -0.055516 255 0 0
-0.525264 0.836881 -0.001016 127 0 127
-0.355897 -0.595584 -0.150459 0 255 0
0.454552 0.255310 -0.172363 0 255 0
0.240976 0.406250 0.169755 76 0 153
0.239549 -0.812469 0.104671 127 127 0
-0.206448 -0.715411 -0.172363 0 255 0
-0.243590 0.837637 0.120966 127 0 127
0.171783 -0.423575 -0.172363 0 255 0
-0.195990 0.801130 -0.162537 127 0 127
-0.448600 -0.613428 0.062476 0 0 255
0.246571 -0.717072 -0.150459 0 255 0
-0.454608 0.322501 -0.150459 0 255 0
0.239273 -0.762051 0.221466 127 127 0
0.216950 0.514427 -0.150459 0 255 0
0.138473 -0.609825 0.188490 76 0 153
0.109626 -0.670093 -0.066047 204 51 127
-0.287488 0.786528 0.035350 127 0 127
0.174561 0.356182 0.184480 76 0 153
-0.046728 -0.317166 -0.172363 0 255 0
0.449467 -0.287635 -0.022327 255 0 0
0.493275 -0.598599 -0.050333 255 0 0
-0.116754 0.274470 -0.172363 0 255 0
-0.324405 0.356498 0.160388 76 0 153
-0.304518 0.837637 -0.126112 127 0 127
-0.150631 -0.775962 -0.157762 127 127 0
0.314174 0.764596 0.187320 153 76 0
-0.067284 -0.610329 0.188958 153 0 76
-0.169546 -0.629935 0.026759 204 51 127
-0.020535 0.323268 0.212504 153 0 76
0.387401 0.228223 0.145878 153 76 0
-0.018725 0.637152 0.175973 153 0 76
-0.143512 0.194120 0.180488 76 0 153
-0.492408 0.562859 -0.053300 0 0 255
-0.150189 -0.731596 0.161366 153 0 76
-0.154607 0.514826 -0.150459 0 255 0
-0.492408 -0.411151 0.037474 0 0 255
-0.448600 0.568567 -0.001187 0 0 255
-0.054928 -0.119322 -0.150459 0 255 0
0.447928 0.165881 0.172459 153 76 0
0.287715 0.694846 0.171908 76 0 153
-0.363126 0.161952 -0.172363 0 255 0
-0.420637 -0.812469 -0.070289 127 127 0
0.303748 0.799376 0.226533 127 0 127
0.418219 0.441103 0.131681 153 76 0
-0.492408 -0.584780 -0.174018 0 0 255
0.135336 -0.295159 -0.150459 0 255 0
-0.331342 -0.775962 -0.174300 127 127 0
-0.312810 -0.286567 0.169023 76 0 153
-0.241098 -0.184553 -0.086218 127 127 0
0.069688 0.218684 -0.172363 0 255 0
-0.448600 -0.289760 0.074723 0 0 255
0.004891 -0.304638 0.177607 153 76 0
0.230244 0.238929 0.023597 127 0 127
0.407125 -0.580505 0.132914 153 76 0
-0.306238 -0.481539 -0.172363 0 255 0
0.295470 0.268989 -0.150459 0 255 0
-0.333152 -0.761360 0.057455 127 127 0
-0.335909 0.837637 0.057210 127 0 127
0.215617 -0.199155 0.067209 127 127 0
-0.224722 0.710570 0.153085 153 0 76
-0.071399 0.238929 0.079794 127 0 127
-0.492408 -0.324265 0.041160 0 0 255
-0.066127 -0.629935 0.102328 204 51 127
-0.078145 -0.199155 -0.081822 127 127 0
-0.219630 0.820318 0.248568 127 0 127
0.493275 0.467723 -0.008218 255 0 0
0.286836 -0.670093 -0.129028 204 51 127
0.204226 0.427098 -0.172363 0 255 0
-0.357618 0.806520 0.227640 127 0 127
-0.448600 -0.016128 0.087788 0 0 255
0.449467 0.756005 0.049709 255 0 0
-0.429198 0.546833 -0.172363 0 255 0
-0.492408 0.165554 -0.121425 0 0 255
-0.377664 0.562678 0.154470 76 0 153
-0.421511 0.180091 0.131219 153 0 76
0.428061 0.311904 0.174666 153 76 0
-0.488909 -0.665021 0.123731 153 0 76
0.059840 -0.812469 -0.143233 127 127 0
-0.362216 0.382184 0.163533 76 0 153
0.493275 0.313904 -0.134752 255 0 0
-0.191730 -0.225899 -0.150459 0 255 0
0.459443 0.585714 0.127101 153 76 0
-0.260116 -0.670093 -0.041695 204 51 127
0.011937 0.253532 -0.101079 127 0 127
0.236246 -0.705332 0.151901 153 76 0
-0.214630 -0.761360 0.117156 127 127 0
-0.283782 -0.761360 -0.013820 127 127 0
-0.014440 -0.584757 0.213181 153 0 76
-0.208669 -0.761360 0.013022 127 127 0
-0.492408 0.695069 -0.064495 0 0 255
-0.471253 -0.190306 0.169771 153 0 76
0.072481 -0.670093 -0.095985 204 51 127
0.025005 0.837637 0.158773 127 0 127
-0.327192 0.615026 -0.150459 0 255 0
0.119759 -0.629935 -0.090782 204 51 127
0.266077 0.608058 -0.194267 0 255 0
0.261828 0.253532 0.094989 127 0 127
0.204202 0.337030 -0.172363 0 255 0
-0.062907 -0.761360 0.092634 127 127 0
0.346727 0.238929 -0.125709 127 0 127
0.156756 0.753503 -0.150459 0 255 0
-0.040712 -0.537428 -0.150459 0 255 0
-0.056315 -0.000230 0.171797 153 0 76
0.411309 0.786528 0.137900 153 76 0
-0.055131 -0.634608 -0.150459 0 255 0
-0.256391 -0.656305 0.149566 204 51 127
-0.492408 -0.062814 0.098680 0 0 255
-0.316793 -0.670093 0.034737 204 51 127
0.449467 0.494767 0.088076 255 0 0
0.084387 0.393728 -0.150459 0 255 0
0.458837 -0.617080 0.171246 153 76 0
0.493275 0.274273 0.076675 255 0 0
0.493275 -0.050112 -0.146760 255 0 0
-0.301114 0.245981 0.129904 127 0 127
0.493275 -0.249324 -0.004882 255 0 0
-0.488091 -0.281471 0.123822 153 0 76
0.328204 0.238929 -0.078089 127 0 127
0.488457 0.181659 0.123877 255 0 0
-0.056185 -0.653750 0.190191 153 0 76
0.176646 -0.558481 0.176903 76 0 153
-0.121781 0.375292 -0.150459 0 255 0
-0.036943 -0.716127 0.218027 153 0 76
0.230650 0.740540 0.196601 153 76 0
-0.244310 -0.578423 -0.172363 0 255 0
0.493275 0.494179 0.130010 153 76 0
0.186676 -0.812469 -0.109474 127 127 0
0.493275 0.473571 -0.143507 255 0 0
0.012337 -0.533601 0.176779 153 76 0
-0.014209 0.468703 -0.172363 0 255 0
0.493275 0.184701 -0.078666 255 0 0
0.491408 -0.812469 -0.141226 127 127 0
-0.400385 0.620238 0.133567 153 0 76
-0.001374 -0.670093 0.093153 204 51 127
-0.186958 0.786528 -0.021219 127 0 127
0.113030 -0.761360 0.007210 127 127 0
0.069188 -0.029660 0.175740 153 76 0
-0.468288 0.015186 0.126022 153 0 76
0.223028 0.770024 0.153369 153 76 0
-0.224567 -0.315163 0.171482 76 0 153
0.329762 0.837637 0.229442 127 0 127
0.149867 0.253532 0.103194 127 0 127
-0.448600 0.736383 -0.077974 0 0 255
-0.088934 -0.670093 0.156232 204 51 127
-0.157422 0.126354 -0.150459 0 255 0
0.449467 -0.624010 -0.099111 255 0 0
0.231142 -0.415102 0.170847 76 0 153
-0.391240 0.238929 -0.127168 127 0 127
0.003692 0.672527 -0.172363 0 255 0
-0.132080 0.614492 -0.150459 0 255 0
0.243794 -0.812469 -0.004502 127 127 0
0.382238 0.837637 -0.178703 127 0 127
-0.448600 -0.152970 0.018557 0 0 255
-0.025505 0.583080 0.211952 153 0 76
0.113303 -0.670093 -0.008169 204 51 127
-0.448600 -0.432760 0.037828 0 0 255
0.493275 -0.309680 0.089154 255 0 0
-0.463202 -0.013461 -0.162150 0 255 0
0.256116 0.486087 0.168072 76 0 153
-0.417147 0.006873 -0.150459 0 255 0
-0.132882 -0.199155 0.052799 127 127 0
0.175797 -0.812469 0.034950 127 127 0
0.449467 0.326561 -0.079320 255 0 0
-0.330074 -0.812469 0.105179 127 127 0
0.474157 -0.761360 0.134014 127 127 0
-0.247195 0.542389 -0.172363 0 255 0
0.167481 0.708698 0.159541 153 76 0
-0.219237 -0.129723 0.179420 76 0 153
0.148148 -0.670093 0.114305 204 51 127
-0.448600 -0.331578 -0.083832 0 0 255
-0.009345 0.002234 0.213747 153 0 76
0.026068 0.253532 -0.004315 127 0 127
0.454736 0.541535 -0.150459 0 255 0
0.227757 0.837637 0.047984 127 0 127
-0.165029 0.406736 -0.172363 0 255 0
0.493275 -0.560723 -0.009365 255 0 0
0.005532 -0.629935 -0.110705 204 51 127
-0.058622 0.101464 0.208272 153 0 76
0.042760 -0.022541 -0.150459 0 255 0
0.082426 -0.629935 -0.033481 204 51 127
-0.405390 0.322972 0.158723 153 0 76
-0.216661 0.645408 -0.150459 0 255 0
-0.022652 -0.812469 0.122542 127 127 0
-0.296327 0.569415 0.170854 76 0 153
0.449467 -0.508518 -0.081532 255 0 0
-0.385766 0.512358 0.138971 153 0 76
-0.492408 -0.248122 -0.005473 0 0 255
0.119100 -0.761360 0.133984 127 127 0
0.211955 -0.670093 0.083880 204 51 127
-0.363534 -0.761360 0.007264 127 127 0
0.347126 -0.751030 0.183659 153 76 0
-0.171819 0.042223 0.177343 76 0 153
-0.396221 -0.761360 -0.066922 127 127 0
-0.492408 0.234493 0.057708 0 0 255
0.237649 -0.585794 -0.172363 0 255 0
-0.410805 0.430115 0.132914 153 0 76
-0.270928 -0.761360 0.193270 127 127 0
0.334681 0.837637 -0.060648 127 0 127
0.027362 0.779761 0.219188 153 76 0
-0.487789 -0.761360 -0.047706 127 127 0
0.227169 -0.775962 -0.165822 127 127 0
-0.135810 0.253532 0.134425 127 0 127
-0.060274 -0.565911 0.208089 153 0 76
0.445223 -0.199155 0.013047 127 127 0
0.378908 0.324078 0.161775 76 0 153
0.004623 -0.199155 -0.087705 127 127 0
0.310486 -0.761360 0.160520 127 127 0
-0.442222 0.764736 -0.194267 0 255 0
-0.074581 -0.750363 0.169767 153 0 76
-0.434971 0.241783 0.173802 153 0 76
0.173925 -0.761360 0.040605 127 127 0
0.493275 -0.727924 -0.108376 255 0 0
-0.504841 0.791659 -0.064623 127 0 127
-0.314038 -0.424071 0.168886 76 0 153
0.449467 0.105490 0.020469 255 0 0
-0.117934 -0.204823 -0.172363 0 255 0
-0.456695 0.812549 0.041935 0 0 255
-0.109299 -0.691831 -0.172363 0 255 0
-0.448600 0.490695 0.098118 0 0 255
-0.208812 -0.473561 0.173232 76 0 153
-0.028022 -0.629935 0.074188 204 51 127
-0.162117 0.687396 0.160041 153 0 76
0.251728 0.837637 -0.091069 127 0 127
0.420706 0.837637 -0.038279 127 0 127
0.459522 -0.127853 -0.172363 0 255 0
-0.396154 0.286287 -0.172363 0 255 0
-0.011583 0.393535 -0.172363 0 255 0
-0.411373 -0.658897 -0.172363 0 255 0
0.449467 0.425352 0.028431 255 0 0
-0.264073 0.786528 0.167556 153 0 76
0.103851 -0.676847 0.166611 153 76 0
-0.306428 0.468620 0.169732 76 0 153
-0.448847 0.589391 -0.190122 0 255 0
-0.258407 -0.258409 -0.172363 0 255 0
0.380418 -0.812469 0.012102 127 127 0
-0.492408 0.698418 0.105272 0 0 255
0.089487 -0.775962 -0.153716 127 127 0
0.181042 -0.643428 0.158035 204 51 127
0.493275 -0.167440 0.140633 153 76 0
0.450978 -0.326300 -0.172363 0 255 0
-0.130804 0.837637 0.227484 127 0 127
-0.448600 -0.230729 -0.086282 0 0 255
-0.003408 -0.608456 -0.172363 0 255 0
0.275609 -0.670093 0.086398 204 51 127
0.403772 -0.501763 0.133287 153 76 0
-0.492408 -0.560991 -0.082967 0 0 255
0.429009 -0.812469 0.139140 127 127 0
0.429906 -0.401663 -0.172363 0 255 0
-0.492408 -0.123051 -0.003390 0 0 255
0.185925 -0.323035 0.175872 76 0 153
-0.025843 0.689144 0.219260 153 0 76
-0.273461 -0.729744 0.147669 153 0 76
0.291436 -0.000695 -0.172363 0 255 0
-0.050501 0.414374 -0.172363 0 255 0
-0.314717 -0.670093 -0.132828 204 51 127
0.328572 -0.670093 0.026010 204 51 127
-0.455993 0.815733 -0.150341 0 0 255
0.025183 0.055967 0.175352 153 76 0
-0.492408 -0.705157 -0.121581 0 0 255
0.467312 0.837637 -0.089373 127 0 127
-0.237085 0.528145 0.170091 76 0 153
-0.448600 0.416187 -0.074987 0 0 255
-0.079481 -0.479732 -0.172363 0 255 0
-0.492408 -0.636316 -0.100087 0 0 255
0.131757 -0.670093 0.042463 204 51 127
0.268365 0.115004 -0.150459 0 255 0
0.493275 0.313867 0.029197 255 0 0
-0.421881 0.496732 0.175257 153 0 76
-0.492408 0.537921 0.089714 0 0 255
0.318754 -0.184553 0.077610 127 127 0
0.208370 -0.812469 -0.169602 127 127 0
-0.492408 -0.335175 -0.058408 0 0 255
-0.487769 0.353672 -0.194267 0 0 255
-0.426227 -0.344893 -0.172363 0 255 0
0.254966 -0.026905 -0.172363 0 255 0
0.449467 -0.113001 -0.024786 255 0 0
0.006202 0.238929 0.101491 127 0 127
0.449467 0.424356 -0.057951 255 0 0
-0.492408 -0.477197 -0.097020 0 0 255
0.199751 -0.090672 0.174335 76 0 153
-0.015970 -0.158799 0.176279 153 0 76
-0.463125 0.786760 -0.020857 0 0 255
-0.491018 0.124478 -0.194267 0 0 255
-0.221871 -0.047749 0.171781 76 0 153
0.295538 -0.076373 -0.172363 0 255 0
-0.062676 -0.199155 0.016485 127 127 0
0.493275 -0.175521 0.059099 255 0 0
0.485980 0.109760 0.168231 153 76 0
-0.438489 0.748100 0.158718 153 0 76
-0.245862 -0.151119 -0.172363 0 255 0
0.259601 -0.199155 -0.057181 127 127 0
-0.122248 -0.105478 0.182851 76 0 153
-0.408982 -0.184553 -0.006015 127 127 0
-0.359364 -0.190647 0.123432 127 127 0
-0.496535 -0.812469 0.089563 127 127 0
-0.337828 -0.554869 -0.150459 0 255 0
0.084179 0.238929 0.142526 127 0 127
0.449467 -0.499483 0.077273 255 0 0
-0.042770 0.485773 0.177189 153 0 76
-0.042996 -0.292082 0.179221 153 0 76
0.375147 0.545737 -0.172363 0 255 0
0.306135 0.206663 0.162515 76 0 153
0.442997 -0.571825 0.173007 153 76 0
0.260665 0.621068 0.167567 76 0 153
-0.492408 -0.618914 0.055563 0 0 255
0.464050 -0.375348 -0.190853 255 0 0
-0.269471 -0.812469 0.116632 127 127 0
0.441347 0.073152 0.129112 153 76 0
0.493275 -0.415729 -0.153418 255 0 0
-0.448600 -0.277763 0.017495 0 0 255
0.025091 -0.693347 0.175362 153 76 0
-0.042605 0.306330 0.175696 153 0 76
-0.428634 -0.134810 -0.172363 0 255 0
0.305365 -0.593185 -0.172363 0 255 0
0.410353 0.324139 -0.172363 0 255 0
-0.053969 -0.167137 -0.150459 0 255 0
0.462315 0.095245 -0.172363 0 255 0
0.493275 -0.486454 -0.047307 255 0 0
0.372925 0.003654 0.155093 76 0 153
0.209213 0.008058 -0.172363 0 255 0
-0.171443 0.238929 -0.000724 127 0 127
-0.362656 -0.685464 0.181837 153 0 76
-0.436105 0.837637 -0.054070 127 0 127
0.493275 -0.191640 -0.072399 255 0 0
-0.166890 -0.761360 -0.101100 127 127 0
0.002635 -0.265380 -0.172363 0 255 0
-0.375229 -0.533302 -0.172363 0 255 0
-0.099818 0.444420 -0.150459 0 255 0
-0.423783 0.550209 0.175045 153 0 76
0.493275 0.604022 0.158015 153 76 0
0.462208 0.793917 0.075343 255 0 0
-0.451649 0.786528 0.112494 0 0 255
-0.384890 0.801130 -0.151859 127 0 127
0.128170 0.456772 -0.172363 0 255 0
-0.084998 0.592051 0.186990 76 0 153
-0.468006 -0.779787 0.213801 127 127 0
0.389819 -0.747087 0.134837 153 76 0
-0.160320 -0.812469 0.036382 127 127 0
0.095734 0.435760 0.193239 76 0 153
-0.188963 0.256727 -0.172363 0 255 0
-0.492408 -0.527696 -0.144281 0 0 255
-0.088372 0.148616 -0.172363 0 255 0
0.179759 -0.222877 -0.150459 0 255 0
-0.525264 -0.793405 0.166251 127 127 0
0.088918 0.344086 0.186650 76 0 153
-0.113084 0.191545 -0.150459 0 255 0
0.493275 -0.001378 0.022251 255 0 0
0.335883 -0.629935 -0.022851 204 51 127
-0.304891 0.163441 -0.150459 0 255 0
-0.338245 0.786528 -0.022551 127 0 127
-0.256421 -0.394851 -0.172363 0 255 0
-0.277016 0.238929 -0.067724 127 0 127
-0.228104 0.158054 0.171089 76 0 153
-0.275987 0.044413 -0.172363 0 255 0
0.069707 -0.253924 0.180403 153 76 0
0.357081 0.150116 0.156854 76 0 153
0.097786 -0.629935 0.008812 204 51 127
-0.250693 -0.348375 0.168579 76 0 153
-0.492408 0.243530 -0.054202 0 0 255
-0.372350 -0.184553 -0.023140 127 127 0
0.031082 -0.281369 0.211429 153 76 0
0.167678 0.786528 -0.117011 127 0 127
-0.281900 -0.761360 0.104755 127 127 0
-0.031980 0.837637 -0.134999 127 0 127
0.285972 -0.199155 -0.111831 127 127 0
-0.153466 0.253532 0.073801 127 0 127
0.449467 0.351150 0.066024 255 0 0
-0.492408 0.472320 -0.078779 0 0 255
0.493275 0.077659 0.002912 255 0 0
0.042292 0.031190 -0.172363 0 255 0
0.298199 -0.768923 -0.150459 0 255 0
-0.213973 0.715021 -0.150459 0 255 0
-0.299016 0.786528 -0.140980 127 0 127
-0.063847 -0.629935 -0.049249 204 51 127
0.147847 -0.670093 -0.133978 204 51 127
-0.463202 0.766076 -0.152697 0 255 0
0.456977 -0.662219 0.127375 255 0 0
-0.463202 -0.410361 -0.165480 0 255 0
-0.213367 0.238929 0.070409 127 0 127
0.101928 -0.670093 0.076761 204 51 127
-0.379641 -0.670093 -0.145740 204 51 127
0.399815 0.799801 0.216288 127 0 127
-0.117836 -0.670093 0.066330 204 51 127
-0.196433 0.688894 0.181954 153 0 76
0.493275 0.383703 -0.141751 255 0 0
-0.066720 -0.761360 -0.099803 127 127 0
-0.463183 -0.283105 -0.157359 0 0 255
-0.149651 0.051881 -0.172363 0 255 0
0.145879 0.545339 -0.172363 0 255 0
-0.448600 0.687386 0.057997 0 0 255
0.129864 0.837637 -0.175206 127 0 127
0.041257 0.590055 -0.194267 0 255 0
0.185672 0.102266 -0.172363 0 255 0
-0.014243 0.801130 -0.159071 0 255 0
-0.390787 -0.140912 0.134633 153 0 76
0.450176 0.775192 0.157516 153 76 0
-0.453459 0.461916 -0.150459 0 255 0
-0.355207 -0.007662 -0.172363 0 255 0
-0.210269 0.751322 -0.172363 0 255 0
-0.017894 0.109468 0.176066 153 0 76
0.299629 -0.661539 0.144858 153 76 0
0.493275 -0.085231 -0.009256 255 0 0
0.021360 -0.514651 -0.150459 0 255 0
-0.431196 -0.517074 -0.172363 0 255 0
0.127607 0.667345 -0.172363 0 255 0
-0.223989 -0.383570 0.171546 76 0 153
-0.492408 0.305632 -0.033819 0 0 255
0.430402 -0.761360 0.185056 127 127 0
0.238059 0.484683 -0.172363 0 255 0
-0.448600 0.250417 0.096247 0 0 255
0.493275 -0.254650 -0.161682 255 0 0
-0.065080 -0.230669 0.170823 153 0 76
-0.097117 0.705992 -0.194267 0 255 0
0.317086 0.151529 -0.150459 0 255 0
0.412524 0.643463 0.140585 153 76 0
-0.477544 0.203210 0.124994 153 0 76
0.451455 0.279518 0.172067 153 76 0
-0.114051 0.800835 0.248983 127 0 127
0.493275 0.359229 0.093631 255 0 0
0.493275 0.162195 0.029652 255 0 0
-0.448600 0.502619 0.014166 0 0 255
-0.187589 -0.670093 -0.000785 204 51 127
0.357900 0.837637 0.018509 127 0 127
0.447530 0.238929 0.110011 127 0 127
0.096823 -0.572119 0.185772 76 0 153
-0.001135 0.837637 0.071748 127 0 127
0.365283 0.066308 0.163289 76 0 153
-0.002208 -0.645313 0.192501 153 0 76
0.381593 -0.812469 -0.151629 127 127 0
0.241259 0.786528 0.106979 127 0 127
-0.102621 -0.097906 -0.172363 0 255 0
-0.483290 -0.782941 -0.194267 127 127 0
0.029024 -0.725394 -0.150459 0 255 0
-0.277120 -0.761360 -0.104854 127 127 0
0.359365 -0.670093 -0.056191 204 51 127
-0.087448 -0.727945 -0.150459 0 255 0
0.276955 -0.618555 0.165757 76 0 153
-0.220666 -0.199155 -0.049195 127 127 0
-0.180867 0.436267 0.176337 76 0 153
-0.260025 0.156644 -0.172363 0 255 0
0.449467 0.559973 0.015075 255 0 0
-0.448600 0.158454 0.000870 0 0 255
0.004926 -0.759508 0.206988 153 76 0
-0.311458 0.607756 0.161827 76 0 153
0.493275 0.600746 -0.035653 255 0 0
0.262678 -0.812469 0.205823 127 127 0
-0.492408 -0.200305 0.137212 153 0 76
-0.390437 0.837637 0.169261 127 0 127
0.213134 -0.761360 0.062806 127 127 0
0.449467 0.475431 0.053267 255 0 0
0.449467 -0.094186 -0.136112 255 0 0
-0.102244 0.640833 -0.172363 0 255 0
0.493275 0.153106 -0.161902 255 0 0
0.419023 -0.168285 -0.172363 0 255 0
0.248794 0.823672 -0.194267 127 0 127
-0.413603 0.794780 -0.194267 0 255 0
0.019187 0.693617 0.190711 153 76 0
0.358639 0.571213 0.156681 76 0 153
0.422518 0.023001 -0.172363 0 255 0
0.295976 0.238929 0.075155 127 0 127
-0.172473 0.517962 0.184616 76 0 153
-0.492408 0.067547 -0.068725 0 0 255
-0.405211 -0.068823 0.177109 153 0 76
0.449467 -0.575428 0.014040 255 0 0
-0.209600 0.387405 0.180491 76 0 153
0.286272 0.837637 0.004937 127 0 127
-0.062636 0.513552 -0.172363 0 255 0
0.046852 -0.222369 0.172944 153 76 0
-0.275572 -0.812469 -0.165038 127 127 0
0.369794 -0.255665 -0.172363 0 255 0
0.138473 0.837637 0.207819 127 0 127
-0.034686 -0.097007 0.174200 153 0 76
0.033049 0.786528 0.150500 127 0 127
0.151640 -0.408324 0.187027 76 0 153
0.493275 -0.258787 0.131619 153 76 0
0.032025 -0.503775 0.211324 153 76 0
-0.309843 -0.629935 -0.037048 204 51 127
-0.422366 0.253532 -0.078487 127 0 127
0.449467 -0.666002 0.071214 204 51 127
-0.448600 0.425211 0.039817 0 0 255
-0.347991 -0.704582 -0.150459 0 255 0
-0.463183 -0.616756 -0.158755 0 0 255
0.448460 -0.455129 0.128321 153 76 0
-0.042367 0.386659 0.173554 153 0 76
0.156506 -0.248426 0.179140 76 0 153
0.493275 -0.083469 0.070806 255 0 0
0.449467 0.485650 -0.034057 255 0 0
-0.400452 0.750170 -0.172363 0 255 0
-0.447282 0.786528 0.174573 127 0 127
-0.105412 -0.678728 0.210419 153 0 76
0.511557 -0.772340 0.009725 127 127 0
-0.275362 0.010784 -0.150459 0 255 0
-0.101552 -0.761360 0.023727 127 127 0
0.459891 -0.790565 -0.097666 255 0 0
-0.411572 0.363792 -0.150459 0 255 0
-0.070147 0.258935 0.206992 153 0 76
-0.024025 0.045282 0.212116 153 0 76
-0.307754 0.213709 -0.150459 0 255 0
0.002592 -0.036672 0.214594 153 76 0
-0.102628 0.253532 0.060619 127 0 127
-0.492408 0.321575 -0.069892 0 0 255
-0.517404 -0.779054 -0.071604 127 127 0
-0.234636 0.786528 -0.092975 127 0 127
-0.050099 0.786528 0.204300 153 0 76
-0.343209 0.108172 0.165645 76 0 153
0.363182 -0.761360 0.065795 127 127 0
0.084125 0.267953 -0.172363 0 255 0
-0.458872 -0.690307 0.127068 153 0 76
-0.492408 0.752571 0.094891 0 0 255
0.493275 0.276304 -0.049746 255 0 0
0.372628 -0.356747 -0.172363 0 255 0
-0.093521 0.253532 -0.005861 127 0 127
-0.492408 0.376748 -0.068529 0 0 255
0.392488 -0.546030 -0.172363 0 255 0
0.433807 -0.629935 0.011283 204 51 127
0.142268 0.218929 0.188068 76 0 153
-0.226274 0.628125 0.178638 76 0 153
0.245152 -0.238757 -0.150459 0 255 0
-0.492408 -0.301867 -0.014928 0 0 255
-0.006905 0.837637 -0.006635 127 0 127
-0.142184 0.308381 -0.150459 0 255 0
0.239733 -0.016296 0.169893 76 0 153
0.168526 -0.629935 -0.113448 204 51 127
-0.434297 -0.625803 0.173877 153 0 76
-0.421487 0.149662 0.175300 153 0 76
