ply
format ascii 1.0
element vertex 1285
property float x
property float y
property float z
property uchar red
property uchar green
property uchar blue
end_header
0.049032 0.643316 -0.359304 127 0 127
0.096941 -0.352816 0.583028 153 0 76
0.000499 0.388085 0.601083 153 0 76
-0.064138 0.232006 -0.523960 0 255 0
-0.207629 -0.195059 0.023367 0 0 255
-0.054015 0.127672 0.536053 0 127 127
0.190824 -0.266779 0.329848 255 0 0
0.167386 0.245009 -0.252788 255 0 0
-0.012563 0.698419 -0.523960 204 51 127
-0.184190 0.493235 0.153201 0 0 255
0.190824 -0.638061 -0.119844 0 127 127
-0.184190 -0.497650 0.078910 127 127 0
-0.078347 0.214485 0.601083 153 0 76
0.002430 0.666755 -0.008407 127 0 127
-0.184190 0.475454 0.086034 0 0 255
-0.184190 0.500747 -0.548032 0 0 255
-0.207629 0.046424 -0.295414 0 0 255
0.167386 0.272600 -0.304775 255 0 0
0.190824 0.071788 -0.432955 255 0 0
-0.113875 0.088866 0.516200 127 127 0
0.190824 0.664630 -0.118168 255 0 0
0.190824 -0.636334 -0.429853 0 127 127
0.084364 0.095517 -0.506381 0 255 0
-0.184190 0.450433 0.100552 0 0 255
0.140784 0.666755 0.155827 127 0 127
-0.114968 0.221425 0.001043 153 76 0
-0.184190 0.429683 -0.448838 0 0 255
0.167386 -0.276308 0.426471 255 0 0
-0.184190 -0.286556 -0.350624 0 0 255
0.022981 0.666755 -0.377657 127 0 127
-0.184190 0.684119 -0.539206 0 255 0
-0.115133 0.238019 -0.383329 255 0 0
-0.184190 -0.243924 -0.447725 0 0 255
-0.207629 -0.619175 -0.340598 127 127 0
0.189243 0.122068 -0.559117 255 0 0
0.167386 -0.144211 0.232953 255 0 0
0.091887 0.213741 0.601083 153 0 76
0.190824 0.308640 0.280290 255 0 0
0.129604 0.524217 0.565926 153 0 76
-0.207629 0.180267 -0.219986 0 0 255
0.190824 0.378023 -0.345700 255 0 0
-0.084993 0.643316 -0.180837 127 0 127
0.047659 0.211214 -0.506381 0 255 0
-0.016380 -0.242362 -0.465364 0 255 0
-0.184190 -0.087918 -0.202680 0 0 255
0.014915 -0.270781 -0.388783 127 0 127
-0.184190 -0.118897 -0.205002 0 0 255
0.190824 -0.292177 0.506148 255 0 0
-0.081312 0.666755 -0.124453 127 0 127
-0.127450 0.666755 -0.155868 127 0 127
0.167386 -0.507425 -0.167345 0 127 127
0.190824 -0.537111 0.072754 0 127 127
-0.048149 0.596683 0.601083 153 0 76
0.190824 -0.149903 -0.124615 255 0 0
0.190824 -0.274607 -0.384720 255 0 0
-0.207629 -0.759453 0.039780 127 127 0
0.190824 -0.422309 0.174742 0 127 127
0.167386 -0.580390 -0.254918 0 127 127
0.190824 0.286290 -0.086070 255 0 0
-0.184190 -0.423417 -0.258523 127 127 0
-0.184190 0.523682 0.373975 0 0 255
-0.207629 -0.543957 -0.145108 127 127 0
0.167386 -0.386250 0.253342 255 0 0
0.190824 -0.464355 -0.047113 0 127 127
-0.184190 -0.366809 -0.172897 0 0 255
-0.207629 -0.055736 0.169597 0 0 255
-0.207629 -0.384715 -0.297438 0 0 255
-0.137314 0.333252 -0.406161 255 0 0
0.120509 0.193317 -0.155003 76 0 153
-0.184190 -0.280724 0.253790 0 0 255
0.074434 0.643316 0.295907 127 0 127
0.164502 -0.487110 -0.559117 0 127 127
-0.184190 0.455127 -0.490934 0 0 255
-0.207629 -0.676711 0.223215 127 127 0
0.074791 0.329794 -0.465364 0 255 0
-0.093719 0.643316 -0.256372 127 0 127
-0.184190 0.513784 0.122235 0 0 255
0.020545 0.321413 0.542487 153 0 76
-0.078380 0.187651 -0.506381 0 255 0
-0.137314 0.018863 -0.409785 255 0 0
0.190824 0.696972 0.234155 255 0 0
-0.037429 0.521085 0.601083 153 0 76
0.190824 0.542240 0.301546 255 0 0
-0.184190 0.691939 -0.012669 0 0 255
0.000151 0.498354 0.565926 153 0 76
-0.184190 0.019225 0.325807 0 0 255
-0.207629 -0.145153 0.209802 0 0 255
-0.207629 -0.368886 -0.330196 0 0 255
-0.144522 0.595228 -0.523960 0 255 0
0.195646 -0.208097 0.530768 153 0 76
0.167386 0.045037 -0.300000 255 0 0
-0.137314 0.289614 -0.386274 255 0 0
-0.185829 0.701912 -0.194672 0 0 255
0.190824 0.100909 -0.424020 255 0 0
0.167386 -0.176303 -0.452143 255 0 0
0.167386 0.400381 -0.279241 255 0 0
-0.184190 -0.638832 -0.118614 127 127 0
-0.012256 0.127672 -0.388877 0 127 127
0.071982 0.643316 0.335660 127 0 127
-0.162490 0.180612 -0.506381 0 255 0
0.167386 0.581898 -0.227940 255 0 0
-0.184190 -0.385859 0.039950 0 0 255
0.190824 0.164120 0.208293 255 0 0
0.190824 -0.663520 -0.238190 0 127 127
0.021936 -0.270781 0.169762 127 0 127
0.097070 0.545841 -0.109805 76 0 153
-0.184190 -0.355269 0.369663 127 127 0
0.167386 0.088112 0.455177 255 0 0
0.167386 0.245679 0.403621 255 0 0
0.190824 0.091657 -0.030646 255 0 0
-0.207629 -0.757391 -0.445340 127 127 0
-0.058815 -0.714991 -0.559117 0 255 0
0.004078 -0.247343 -0.404602 127 0 127
0.021118 -0.247343 -0.335636 127 0 127
-0.207629 0.105698 -0.264726 0 0 255
0.167386 -0.475807 0.075770 0 127 127
0.047640 0.667953 -0.506381 0 255 0
-0.137314 0.156536 0.109931 153 76 0
-0.207629 -0.437168 -0.062812 127 127 0
0.167386 0.087876 0.240728 255 0 0
0.106869 -0.341096 -0.409084 127 127 0
0.120509 0.199345 -0.027894 76 0 153
0.013033 -0.259452 -0.523960 0 255 0
0.120509 0.143855 -0.276256 76 0 153
0.167386 -0.119807 -0.130712 255 0 0
0.095992 -0.208844 -0.441925 0 0 255
0.167386 0.592246 -0.450741 255 0 0
0.190824 0.304404 -0.241712 255 0 0
0.190824 0.296036 -0.451322 255 0 0
-0.136235 0.214250 -0.506381 0 255 0
-0.184190 -0.592505 -0.456752 127 127 0
0.190824 0.424889 0.360906 255 0 0
0.137382 -0.060875 0.601083 153 0 76
0.115330 -0.200466 -0.065085 76 153 0
-0.207629 -0.544405 0.100487 127 127 0
-0.207629 0.590037 -0.137046 0 0 255
-0.060639 0.031177 0.565926 153 0 76
0.028551 -0.341096 0.056668 127 127 0
-0.207629 -0.623499 -0.137800 127 127 0
0.095112 0.461136 0.601083 153 0 76
-0.207629 -0.359427 -0.195751 0 0 255
-0.137314 0.130145 0.474544 153 76 0
-0.184190 0.506555 -0.326491 0 0 255
0.097070 0.350241 0.502537 0 255 0
-0.184190 -0.761659 -0.333988 127 127 0
0.190824 0.486702 0.490199 255 0 0
-0.046262 0.643316 -0.055399 127 0 127
-0.207629 -0.142986 -0.353965 0 0 255
-0.207629 0.021960 -0.250260 0 0 255
-0.184190 0.489064 -0.189453 0 0 255
-0.207629 0.303537 -0.526577 0 0 255
-0.184190 0.060962 -0.236705 0 0 255
-0.207629 -0.108305 -0.411643 0 0 255
0.015659 0.259414 -0.523960 0 255 0
0.189913 -0.371855 0.565926 153 0 76
-0.113875 -0.195565 -0.384119 153 0 76
0.150766 0.117855 0.593577 153 0 76
0.024843 -0.514908 0.284665 127 0 127
-0.041651 0.290441 0.601083 153 0 76
0.190824 -0.038302 0.076397 255 0 0
-0.184190 0.608908 -0.185024 0 0 255
-0.207629 -0.178035 0.101489 0 0 255
0.190824 0.203959 0.066550 255 0 0
-0.184190 0.095124 0.444126 0 0 255
0.167386 0.551173 -0.272290 255 0 0
0.190824 0.226055 -0.413164 255 0 0
0.167386 -0.288016 0.484540 255 0 0
0.167386 -0.245315 0.297345 255 0 0
0.190824 -0.654263 -0.183998 0 127 127
-0.184190 -0.444140 -0.048465 127 127 0
-0.137314 0.138181 0.378979 153 76 0
-0.176785 0.489031 0.530768 153 0 76
0.167386 0.376467 -0.002786 255 0 0
-0.137314 -0.219269 -0.065409 153 0 76
-0.137314 -0.221830 0.096556 153 0 76
-0.042864 0.127672 -0.360962 0 127 127
-0.184190 0.130165 0.295654 0 0 255
-0.163808 0.643316 0.091111 127 0 127
-0.025845 0.601372 -0.523960 0 255 0
-0.184190 -0.151579 0.260466 0 0 255
0.160903 0.614730 -0.559117 255 0 0
0.167386 0.194340 0.313594 255 0 0
0.167386 0.178556 -0.296770 255 0 0
-0.184190 0.405721 -0.378955 0 0 255
0.167386 -0.751438 -0.452915 0 127 127
-0.207629 0.117414 0.475645 0 0 255
0.097070 -0.256334 -0.233052 76 153 0
-0.207629 -0.112265 0.176658 0 0 255
-0.207629 0.653478 0.302101 0 0 255
-0.039532 0.315433 0.542487 153 0 76
0.120509 0.555272 0.100788 76 0 153
-0.207629 -0.813606 0.211922 127 127 0
0.167386 -0.018599 -0.276237 255 0 0
-0.075476 -0.269057 -0.506381 0 255 0
-0.184190 0.063867 0.037082 0 0 255
-0.109354 0.145250 -0.225105 153 76 0
-0.184190 0.461532 -0.113037 0 0 255
-0.184190 0.338288 0.412089 0 0 255
0.190824 0.683839 0.373250 255 0 0
0.167386 0.263953 0.481914 255 0 0
-0.207629 -0.445410 0.273254 127 127 0
-0.064886 0.260004 -0.506381 0 255 0
-0.207629 -0.223372 0.275995 0 0 255
-0.184190 -0.697652 -0.273253 127 127 0
0.167386 0.561988 -0.494993 255 0 0
-0.207629 -0.451028 0.244507 127 127 0
0.167386 0.322130 0.150777 255 0 0
0.097070 0.560055 0.086719 76 0 153
0.167386 -0.735031 0.102358 0 127 127
-0.184190 0.192824 0.380750 0 0 255
-0.078773 0.145250 -0.192750 0 127 127
-0.184190 0.683651 0.241428 0 0 255
-0.207629 0.338484 0.044955 0 0 255
-0.207629 0.359117 0.221829 0 0 255
0.168450 0.701912 0.151164 255 0 0
-0.219348 -0.028055 0.564945 153 0 76
0.190824 0.531668 0.006357 255 0 0
0.190824 0.506954 0.184736 255 0 0
0.076547 0.666755 0.054453 127 0 127
0.190824 -0.025248 0.243258 255 0 0
-0.184190 -0.300640 -0.164872 0 0 255
0.190824 0.334810 0.046416 255 0 0
-0.050698 0.666755 0.500267 127 0 127
-0.207629 0.474642 0.212645 0 0 255
0.190824 0.038813 0.246713 255 0 0
0.097070 0.193074 -0.123328 76 0 153
-0.137314 0.553803 -0.160660 153 0 76
0.141570 0.422791 0.530768 153 0 76
-0.028994 0.127672 0.055150 0 127 127
0.167386 0.103081 -0.325020 255 0 0
0.190824 0.622658 -0.088929 255 0 0
-0.137314 0.076516 -0.396886 255 0 0
0.032556 0.278513 -0.441925 0 255 0
-0.207629 -0.279204 -0.530395 0 0 255
-0.184190 0.315678 -0.547577 0 0 255
-0.184190 -0.651973 0.002011 127 127 0
-0.108767 0.145250 -0.087021 0 127 127
-0.207044 -0.399692 -0.214353 127 127 0
-0.184190 -0.797997 -0.409418 127 127 0
0.190824 -0.484962 -0.227781 0 127 127
0.074149 -0.270781 -0.002712 127 0 127
0.042895 0.666755 0.269803 127 0 127
-0.184190 -0.760143 0.183437 127 127 0
-0.137314 0.371057 -0.405024 255 0 0
0.100496 0.666755 -0.421173 127 0 127
0.002972 0.001201 -0.465364 0 255 0
0.135821 0.666755 -0.139197 127 0 127
-0.207629 0.073661 0.501903 0 0 255
-0.184190 -0.044815 -0.111452 0 0 255
0.167386 -0.330550 -0.088285 255 0 0
-0.150880 0.666755 0.148957 127 0 127
-0.184190 -0.096655 0.394135 0 0 255
-0.207629 -0.046015 -0.318418 0 0 255
0.167386 0.003011 -0.335828 255 0 0
0.190824 -0.478960 -0.502898 0 127 127
0.190824 -0.604144 -0.254532 0 127 127
0.190824 0.367080 0.176058 255 0 0
-0.184190 0.617651 -0.386437 0 0 255
-0.179889 0.643316 -0.438889 127 0 127
-0.133881 0.221425 -0.203040 153 76 0
0.190824 -0.067708 0.313350 255 0 0
0.190824 -0.125303 0.502693 255 0 0
0.190824 0.639516 -0.485924 255 0 0
-0.095310 -0.247343 -0.368188 127 0 127
0.167386 -0.096056 -0.517913 255 0 0
0.190824 0.025156 0.167927 255 0 0
0.167386 0.701648 -0.500434 0 255 0
-0.207629 0.068979 -0.371697 0 0 255
0.003772 0.256920 -0.465364 0 255 0
-0.207629 -0.194319 0.355819 0 0 255
0.190824 0.081076 0.376860 255 0 0
-0.207629 0.431745 -0.230777 0 0 255
-0.165621 -0.702962 -0.559117 127 127 0
-0.184190 -0.820079 -0.317825 127 127 0
-0.107768 -0.456914 0.284665 127 0 127
0.167386 0.645117 0.378471 127 0 127
0.097534 0.526124 0.348264 76 0 153
-0.161492 0.643316 0.416897 127 0 127
0.190824 0.684826 -0.085349 255 0 0
0.190824 -0.410060 -0.338738 0 127 127
0.021785 0.643316 0.359851 127 0 127
-0.207629 -0.285238 0.268339 0 0 255
0.167386 -0.548919 -0.045289 0 127 127
-0.130520 0.592907 -0.559117 204 51 127
-0.132538 0.643316 -0.043404 127 0 127
-0.184190 -0.492524 -0.254767 127 127 0
0.190824 0.624245 0.109646 255 0 0
0.120509 0.206114 -0.080123 76 0 153
-0.207629 -0.265914 -0.387651 0 0 255
-0.184190 0.582658 -0.500635 0 255 0
0.097070 -0.215435 0.414431 76 153 0
0.153037 -0.337374 0.591178 153 0 76
0.167386 0.122937 0.099957 255 0 0
0.167386 -0.451825 0.186179 0 127 127
0.167386 0.599474 0.342876 255 0 0
-0.184190 0.137715 0.184963 0 0 255
0.129363 0.653679 0.589097 153 0 76
0.087264 0.145250 0.270416 0 127 127
0.167386 0.125391 0.360069 255 0 0
0.097070 -0.231214 -0.172756 76 153 0
-0.087886 -0.263121 0.565926 153 0 76
-0.207629 0.217536 0.279200 0 0 255
-0.184190 0.384047 -0.293117 0 0 255
0.190824 0.122055 -0.478440 255 0 0
0.124715 -0.368724 -0.506381 0 255 0
0.007212 0.429019 -0.523960 0 255 0
0.107572 -0.580820 -0.559117 0 255 0
-0.207629 -0.475082 0.103845 127 127 0
0.037730 0.151018 0.565926 153 0 76
0.190824 -0.113620 0.415161 255 0 0
0.190824 -0.733955 -0.398591 0 127 127
-0.184190 -0.369627 0.448837 0 0 255
-0.137314 -0.253288 0.375878 153 0 76
-0.120056 0.235379 -0.465364 255 0 0
0.167386 0.682810 0.412229 255 0 0
-0.184190 -0.184470 0.281956 0 0 255
-0.184190 0.181266 -0.417104 0 0 255
-0.113875 -0.251678 -0.284386 153 0 76
-0.135631 0.531791 0.483891 127 127 0
-0.207629 -0.218615 0.225449 0 0 255
-0.132994 -0.341096 0.051028 127 127 0
0.167386 0.509680 -0.344973 255 0 0
-0.184190 0.333638 0.440342 0 0 255
-0.116310 0.074853 0.601083 153 0 76
0.190824 -0.668841 -0.113429 0 127 127
0.190824 0.014782 -0.353139 255 0 0
-0.207629 -0.460895 -0.341834 127 127 0
-0.030972 -0.341096 -0.331214 127 127 0
0.190824 0.402151 -0.556869 255 0 0
-0.062320 0.643316 0.038848 127 0 127
-0.118117 0.306817 0.483891 127 127 0
-0.140382 -0.787291 -0.559117 0 255 0
-0.184190 0.647653 0.071422 0 0 255
-0.184190 0.609286 -0.466460 0 0 255
0.190824 -0.187099 0.100178 255 0 0
0.190824 -0.579190 0.220484 0 127 127
-0.134122 0.295945 -0.506381 0 255 0
-0.137314 -0.210336 -0.448113 255 0 0
-0.079947 0.631597 0.558471 153 0 76
0.167386 -0.322497 -0.528752 0 255 0
0.167386 -0.401137 0.059452 0 127 127
0.132228 0.587166 0.531402 153 0 76
-0.207629 -0.132642 -0.491052 0 0 255
0.062931 0.145250 0.178890 0 127 127
-0.207629 0.113901 0.306183 0 0 255
0.120509 -0.236897 0.243393 76 153 0
0.167386 0.034882 0.186131 255 0 0
-0.028689 0.266467 0.542487 153 0 76
-0.139120 0.643316 0.244721 127 0 127
-0.207629 0.677816 -0.057697 0 0 255
-0.048965 0.547622 -0.441925 0 255 0
0.020695 -0.126996 0.542487 153 0 76
0.081581 0.084032 -0.441925 0 255 0
-0.207629 -0.276792 0.497720 0 0 255
0.190824 0.637260 -0.059008 255 0 0
0.190824 0.334839 0.093057 255 0 0
-0.184190 0.457256 -0.413502 0 0 255
-0.184190 -0.811842 -0.013371 127 127 0
-0.207629 0.008964 -0.313728 0 0 255
0.074599 0.273341 0.542487 153 0 76
0.120509 0.163059 -0.210428 76 0 153
-0.039374 0.580344 0.542487 153 0 76
-0.207629 0.159947 -0.336979 0 0 255
-0.184190 0.647179 0.467135 0 0 255
0.160575 -0.278736 -0.506381 0 255 0
-0.034611 -0.341096 -0.160530 127 127 0
-0.184190 -0.525736 0.182569 127 127 0
0.120509 0.186957 0.504616 0 255 0
0.190824 -0.426421 0.099291 0 127 127
0.167386 -0.027756 0.344419 255 0 0
0.097070 0.160261 0.324012 76 0 153
0.022143 0.643316 0.178942 127 0 127
0.086020 0.666755 -0.486044 127 0 127
-0.008798 -0.247343 0.384134 127 0 127
-0.023993 -0.620073 0.284665 127 0 127
-0.135466 0.666755 -0.275328 127 0 127
-0.184190 0.302768 -0.461850 0 0 255
-0.113875 0.549441 0.304867 153 0 76
0.190824 -0.722601 0.172151 0 127 127
-0.047775 0.643316 -0.108668 127 0 127
-0.207629 -0.097211 -0.027076 0 0 255
0.097070 0.292879 -0.440494 0 255 0
-0.079073 0.525934 -0.441925 0 255 0
0.031135 0.643316 -0.495855 0 255 0
-0.081934 0.454686 -0.441925 0 255 0
-0.113272 -0.341096 -0.203818 127 127 0
0.190824 0.609384 -0.161774 255 0 0
0.167386 -0.635500 -0.010932 0 127 127
-0.141330 -0.123365 0.565926 153 0 76
0.190824 0.641025 -0.254407 255 0 0
-0.207629 -0.474569 0.150431 127 127 0
0.120509 0.600606 -0.039740 76 0 153
0.132228 -0.052423 0.563110 153 0 76
0.190824 -0.726816 0.071779 0 127 127
0.174988 -0.254891 0.565926 153 0 76
-0.207629 0.611842 0.335787 0 0 255
-0.207629 0.293737 0.265628 0 0 255
0.190824 -0.618413 -0.049504 0 127 127
-0.207629 0.643403 -0.235321 0 0 255
-0.152404 0.455863 0.565926 153 0 76
0.190824 0.531046 0.145194 255 0 0
0.057991 0.519006 -0.506381 0 255 0
-0.087508 -0.270781 0.302523 127 0 127
-0.074870 -0.270781 -0.194846 127 0 127
-0.127159 -0.496698 0.284665 127 0 127
-0.207629 0.027070 -0.179047 0 0 255
-0.065907 -0.270781 -0.222092 127 0 127
0.190824 -0.701503 -0.113314 0 127 127
-0.184190 -0.031665 0.313414 0 0 255
-0.207629 0.201115 0.154815 0 0 255
-0.154042 -0.751643 -0.559117 0 255 0
-0.072133 0.227376 0.542487 153 0 76
0.119806 0.608159 0.373667 76 0 153
-0.184190 0.151589 -0.206959 0 0 255
-0.147749 0.615745 0.565926 127 127 0
-0.207629 -0.058710 0.467499 0 0 255
0.097070 -0.205743 0.270118 76 153 0
-0.007897 0.563169 -0.441925 0 255 0
0.024470 -0.639833 -0.559117 0 255 0
-0.070862 -0.247343 0.452386 127 0 127
0.167386 0.494684 0.018004 255 0 0
-0.184190 0.268486 0.297649 0 0 255
0.167386 -0.636946 -0.220019 0 127 127
-0.207629 -0.613028 0.228474 127 127 0
-0.207629 0.307663 -0.046740 0 0 255
0.190824 -0.281081 -0.448248 255 0 0
0.120509 0.450447 -0.442003 0 0 255
0.076061 -0.488525 0.284665 127 0 127
-0.184190 0.575913 0.151332 0 0 255
0.099969 -0.741764 -0.559117 0 255 0
-0.184190 -0.463804 0.166738 127 127 0
0.120509 -0.266118 0.310047 76 153 0
0.167386 0.555627 -0.332624 255 0 0
-0.184190 -0.271460 0.465981 0 0 255
0.012495 0.533853 -0.523960 0 255 0
0.120509 0.394573 -0.404232 0 0 255
0.167386 0.641486 -0.104135 255 0 0
0.017405 -0.270781 0.133937 127 0 127
-0.137314 0.219212 0.428049 153 76 0
-0.207629 0.488680 0.402171 0 0 255
-0.137314 0.544955 0.188081 153 0 76
-0.102337 -0.393263 -0.506381 0 255 0
0.097070 -0.222490 0.225156 76 153 0
0.093979 0.127672 0.158460 0 127 127
0.047559 0.127672 -0.431631 0 127 127
-0.024199 0.403261 -0.441925 0 255 0
0.116021 0.460695 -0.383329 0 0 255
0.143298 0.643316 -0.003497 127 0 127
0.097070 0.526302 0.314649 76 0 153
-0.025577 -0.341096 -0.363981 127 127 0
-0.207629 -0.299884 0.171037 0 0 255
-0.184190 -0.163600 0.078616 0 0 255
-0.184190 -0.525594 0.082751 127 127 0
0.132382 -0.452504 -0.559117 0 255 0
0.190824 -0.689008 -0.355590 0 127 127
0.167386 -0.156949 0.461797 255 0 0
0.190824 0.411651 -0.163325 255 0 0
-0.207629 -0.527291 -0.203639 127 127 0
-0.184190 -0.056130 -0.533254 0 0 255
0.190824 0.560478 0.415263 255 0 0
-0.131695 -0.166143 -0.523960 0 255 0
0.167386 0.637963 0.423399 255 0 0
-0.184190 -0.548933 -0.115364 127 127 0
0.120509 0.188295 -0.237241 76 0 153
0.035966 0.145250 -0.367515 0 127 127
0.097070 0.361744 -0.405322 0 0 255
0.167386 -0.429791 -0.091894 0 127 127
0.120509 -0.254939 0.073166 76 153 0
0.120509 -0.267433 -0.074576 76 153 0
0.167386 -0.611118 -0.388477 0 127 127
-0.207629 -0.737922 -0.374418 127 127 0
0.167386 -0.660060 -0.324047 0 127 127
-0.109981 0.127672 0.033996 0 127 127
0.167386 0.030307 0.424646 255 0 0
-0.184190 -0.658679 -0.059925 127 127 0
-0.137314 0.432999 -0.397824 255 0 0
-0.184190 -0.189823 0.142440 0 0 255
-0.105452 0.127672 -0.173608 0 127 127
-0.207629 0.386779 -0.269269 0 0 255
0.069330 0.666755 -0.247358 127 0 127
-0.207629 0.277607 -0.142921 0 0 255
0.167386 0.697273 -0.298197 255 0 0
0.167386 -0.089547 0.090872 255 0 0
0.190824 0.654716 -0.434511 255 0 0
-0.184190 0.067153 -0.456167 0 0 255
-0.137314 0.555897 0.017914 153 0 76
0.167386 -0.228831 -0.065366 255 0 0
0.097070 -0.280516 0.202231 127 0 127
-0.184190 0.282603 -0.288240 0 0 255
0.094408 -0.086924 0.565926 0 255 0
0.026845 0.127672 0.456546 0 127 127
-0.099575 0.224684 0.542487 153 0 76
0.031372 0.403837 -0.506381 0 255 0
0.167386 0.196058 -0.023918 255 0 0
0.167386 -0.372008 -0.112237 255 0 0
0.120509 -0.257717 0.204051 76 153 0
0.044497 0.666755 -0.422174 127 0 127
0.167386 -0.081346 -0.325330 255 0 0
-0.184190 0.013841 0.158373 0 0 255
-0.207629 0.350825 0.248240 0 0 255
-0.137314 0.389058 0.486657 127 127 0
-0.137314 -0.094238 -0.433659 255 0 0
-0.137314 0.174324 -0.333277 153 76 0
0.119203 0.016225 -0.523960 0 255 0
-0.207629 0.250268 0.193409 0 0 255
-0.207629 -0.029851 0.415176 0 0 255
0.120333 0.526124 0.146381 76 0 153
-0.137314 0.607627 -0.177907 153 0 76
0.141439 0.523283 -0.523960 0 255 0
0.065727 0.495794 0.565926 153 0 76
-0.020570 0.643316 0.239088 127 0 127
-0.184190 -0.003899 -0.531165 0 0 255
-0.184190 0.264199 -0.358237 0 0 255
-0.207629 0.033719 -0.079423 0 0 255
0.167386 -0.155494 -0.485417 255 0 0
-0.184190 -0.456899 -0.476881 127 127 0
0.167386 0.293528 0.221183 255 0 0
0.190824 -0.797378 0.092316 0 127 127
-0.116061 0.643316 0.499996 127 0 127
0.119859 -0.200466 0.452782 76 153 0
-0.032113 0.643316 0.090157 127 0 127
0.167386 0.204765 0.225685 255 0 0
0.167386 -0.282461 -0.317377 255 0 0
0.089575 -0.035979 0.601083 153 0 76
-0.184190 -0.647946 -0.390739 127 127 0
0.190824 0.077605 0.273373 255 0 0
-0.207629 0.648805 -0.477972 0 0 255
-0.160266 0.666755 0.077736 127 0 127
-0.207629 -0.333035 0.299001 0 0 255
-0.184190 -0.286583 -0.033867 0 0 255
0.167386 0.618873 0.133428 255 0 0
0.190824 -0.691470 0.082931 0 127 127
0.056979 -0.341096 -0.296773 127 127 0
-0.105215 -0.131056 0.542487 153 0 76
-0.184190 -0.804929 -0.505489 127 127 0
0.163107 -0.341096 -0.167404 255 0 0
0.190824 0.224706 -0.108499 255 0 0
0.190824 0.381014 -0.086794 255 0 0
-0.099676 -0.270781 0.146663 127 0 127
0.167386 0.658833 0.044428 127 0 127
0.190824 -0.388900 -0.361310 255 0 0
-0.207629 -0.248022 0.108587 0 0 255
-0.113875 0.470013 0.533745 127 127 0
0.190824 -0.632732 0.217669 0 127 127
0.167386 -0.463402 -0.123998 0 127 127
-0.083515 0.656649 -0.523960 0 255 0
0.167386 -0.820257 -0.058768 0 127 127
-0.113875 0.602443 0.341583 153 0 76
0.078594 0.058193 0.542487 153 0 76
0.167386 0.000823 0.374922 255 0 0
0.190824 -0.774560 -0.207484 0 127 127
0.190824 -0.049308 -0.076194 255 0 0
0.190824 0.568211 0.475645 255 0 0
0.167386 0.664705 -0.183124 255 0 0
-0.184190 -0.276162 0.393827 0 0 255
-0.113875 0.534352 -0.006223 153 0 76
-0.207629 0.441392 -0.289228 0 0 255
-0.207629 0.125569 0.254789 0 0 255
0.167386 0.624385 -0.462171 255 0 0
0.190824 0.499165 0.100020 255 0 0
-0.184190 0.340353 0.475442 0 0 255
0.190824 0.346954 0.016931 255 0 0
-0.207629 0.514832 0.143044 0 0 255
-0.122880 0.283076 0.565926 127 127 0
0.167386 -0.068000 0.167957 255 0 0
0.190824 -0.364922 0.373865 255 0 0
-0.180798 -0.484969 0.284665 127 127 0
0.190824 0.217199 0.333690 255 0 0
-0.207629 0.567870 -0.158911 0 0 255
0.167386 -0.165481 -0.076256 255 0 0
0.190824 -0.264414 -0.327373 255 0 0
-0.098110 0.145250 0.446847 153 76 0
0.167386 -0.215064 -0.398471 255 0 0
-0.113875 0.217962 0.047437 153 76 0
0.031955 0.539888 -0.465364 0 255 0
0.001665 -0.781563 0.284665 127 0 127
-0.184190 -0.517753 0.248973 127 127 0
0.190824 0.232581 0.306152 255 0 0
0.167386 0.259753 -0.081913 255 0 0
-0.207629 0.442167 -0.407072 0 0 255
-0.083250 -0.376720 -0.523960 0 255 0
-0.184190 0.466781 0.273904 0 0 255
-0.137314 0.194903 0.186488 153 76 0
-0.184190 0.667926 0.386717 127 0 127
-0.207629 0.259401 -0.226975 0 0 255
-0.047339 0.227404 -0.441925 0 255 0
0.190824 0.411667 0.407065 255 0 0
-0.207629 0.396225 -0.094491 0 0 255
0.165810 0.079878 -0.506381 0 255 0
-0.184190 0.162341 -0.461838 0 0 255
-0.207629 -0.818797 -0.205072 127 127 0
0.010202 0.145250 0.354459 0 127 127
-0.050222 0.197657 -0.441925 0 255 0
-0.115155 -0.651670 -0.559117 0 255 0
-0.207629 0.389784 0.295011 0 0 255
0.190824 -0.131767 0.075931 255 0 0
0.190824 -0.200051 -0.297049 255 0 0
-0.137314 -0.158074 -0.453156 255 0 0
-0.080799 0.649816 0.593812 153 0 76
-0.207629 0.448077 0.504734 0 0 255
0.140625 0.608163 -0.523960 0 255 0
0.167386 0.306727 -0.362370 255 0 0
0.190824 -0.015748 -0.511138 255 0 0
-0.003537 -0.270781 0.200659 127 0 127
-0.028441 0.130183 -0.465364 0 255 0
-0.207629 -0.082873 0.330506 0 0 255
0.126074 -0.634879 -0.559117 0 255 0
-0.119008 -0.341096 -0.090757 127 127 0
0.167386 -0.316102 0.352564 255 0 0
-0.184190 0.444252 -0.555401 0 0 255
-0.207629 -0.188598 -0.298914 0 0 255
-0.037558 0.546360 0.565926 153 0 76
0.190824 -0.169676 -0.515089 255 0 0
0.190824 -0.523444 -0.231393 0 127 127
-0.002612 0.313231 -0.506381 0 255 0
0.000908 -0.348328 0.593248 153 0 76
-0.184190 0.348959 -0.546051 0 0 255
-0.207629 0.465228 -0.012911 0 0 255
-0.160842 0.344456 -0.506381 0 255 0
0.071934 0.127672 -0.336837 0 127 127
-0.008418 -0.341096 -0.125387 127 127 0
0.097070 0.158725 0.236112 76 0 153
-0.207629 0.120274 -0.528491 0 0 255
0.167386 0.175543 -0.542408 255 0 0
0.167386 0.399090 -0.508475 255 0 0
0.167386 0.290791 0.351997 255 0 0
-0.184190 -0.373654 -0.370573 0 0 255
0.190824 -0.230659 -0.297021 255 0 0
0.115408 -0.341096 -0.351720 127 127 0
-0.207629 -0.352606 -0.163357 0 0 255
0.190824 0.536761 -0.438122 255 0 0
-0.184190 -0.773145 0.097741 127 127 0
0.167386 -0.376479 -0.367092 255 0 0
0.167386 -0.536902 -0.362108 0 127 127
-0.207629 -0.270107 -0.275162 0 0 255
0.043592 -0.270781 -0.324020 127 0 127
-0.087260 -0.085409 -0.506381 0 255 0
0.167386 -0.447434 -0.244524 0 127 127
0.167386 -0.630204 -0.308625 0 127 127
-0.184190 0.147132 0.210341 0 0 255
-0.012883 -0.029608 0.542487 153 0 76
-0.113875 0.384815 -0.402970 255 0 0
0.167386 0.402289 -0.071802 255 0 0
-0.206769 0.366795 -0.559117 0 0 255
0.190824 0.509739 -0.163613 255 0 0
-0.184190 -0.473516 -0.092512 127 127 0
0.167386 -0.349847 -0.361911 127 127 0
0.040441 -0.252866 0.565926 153 0 76
-0.207629 0.056593 -0.053381 0 0 255
0.167386 -0.196568 0.477110 255 0 0
0.097070 -0.224457 -0.068879 76 153 0
0.167386 0.580602 0.174858 255 0 0
-0.207629 -0.612830 0.169114 127 127 0
0.190824 0.568824 0.104860 255 0 0
0.190824 -0.376049 -0.021359 255 0 0
-0.207629 0.189011 -0.534031 0 0 255
-0.184190 -0.387110 -0.432789 0 0 255
-0.137314 0.574916 -0.272843 153 0 76
-0.184190 -0.343199 -0.205388 127 127 0
-0.137314 -0.220295 0.260065 153 0 76
-0.057928 0.666755 -0.261548 127 0 127
0.167386 0.040178 -0.374265 255 0 0
-0.058790 0.666755 -0.150603 127 0 127
0.158680 0.290411 0.530768 255 0 0
-0.207629 0.159821 -0.016942 0 0 255
0.013598 0.643316 0.318218 127 0 127
-0.207629 -0.644586 -0.456707 127 127 0
0.190824 0.424003 -0.065181 255 0 0
0.167386 -0.716335 0.274045 127 0 127
-0.184190 -0.048648 0.197914 0 0 255
-0.207629 0.481613 -0.036705 0 0 255
-0.207629 -0.375002 -0.087874 0 0 255
-0.113875 0.010233 0.552275 127 127 0
0.190824 -0.307632 -0.040736 255 0 0
0.167386 0.547050 0.070778 255 0 0
-0.184190 0.682832 -0.241027 0 0 255
-0.188488 -0.343928 0.565926 153 0 76
0.120509 -0.263792 -0.439473 0 0 255
-0.075637 0.666755 -0.096721 127 0 127
-0.184190 -0.745265 0.269270 127 127 0
0.167386 -0.543410 -0.533832 0 127 127
0.097070 0.165396 0.441066 76 0 153
-0.137020 0.486527 -0.506381 0 255 0
-0.044568 0.379156 -0.465364 0 255 0
-0.207629 -0.013907 -0.362046 0 0 255
0.190824 0.305351 -0.014586 255 0 0
-0.113875 -0.267870 0.534812 127 127 0
-0.137314 -0.216537 0.383827 153 0 76
0.190824 0.479721 0.375701 255 0 0
0.190824 -0.089331 -0.300268 255 0 0
0.190824 -0.440280 -0.286604 0 127 127
0.120509 0.526789 -0.346364 76 0 153
0.190824 0.322356 -0.181258 255 0 0
-0.207629 0.185625 -0.086059 0 0 255
-0.207629 0.372198 0.078644 0 0 255
-0.207629 -0.071038 0.087733 0 0 255
-0.137314 0.269487 0.540034 153 0 76
-0.077896 -0.270781 -0.317844 127 0 127
0.190824 0.118275 0.000122 255 0 0
-0.113875 0.344964 0.501399 127 127 0
-0.184190 -0.118145 -0.453096 0 0 255
0.025807 0.145250 -0.318982 0 127 127
-0.036576 -0.270781 0.342032 127 0 127
0.167386 -0.754786 -0.216794 0 127 127
-0.207629 -0.456667 -0.372231 127 127 0
0.034114 0.111375 0.601083 153 0 76
0.167386 0.433938 -0.314019 255 0 0
0.190824 0.620727 0.067846 255 0 0
0.167386 0.568968 0.001675 255 0 0
0.190824 0.118696 -0.061057 255 0 0
-0.180702 0.643316 0.164666 0 0 255
0.068693 0.021933 0.601083 153 0 76
-0.207629 0.317108 0.176816 0 0 255
-0.077633 0.145250 -0.008282 0 127 127
-0.207629 0.238795 -0.388760 0 0 255
0.165208 0.349900 0.565926 153 0 76
-0.091412 0.317317 0.542487 153 0 76
-0.061205 -0.321472 0.565926 153 0 76
-0.136938 0.343592 -0.465364 255 0 0
0.190824 0.612799 0.510350 255 0 0
-0.207629 0.608103 -0.064258 0 0 255
-0.207629 0.335172 0.127771 0 0 255
-0.089784 0.100068 0.565926 153 0 76
-0.207629 0.394831 0.037263 0 0 255
-0.137314 -0.136081 -0.412688 255 0 0
-0.095013 0.127672 0.175950 0 127 127
0.097070 0.596319 0.208487 76 0 153
0.051430 0.081654 -0.523960 0 255 0
-0.081077 0.666755 0.065203 127 0 127
0.097070 0.207448 0.364929 76 0 153
-0.219348 0.329567 0.531238 153 0 76
0.202543 0.498397 0.565268 153 0 76
0.190824 -0.698462 0.024715 0 127 127
0.043265 0.375281 0.542487 153 0 76
-0.143648 0.124185 -0.506381 0 255 0
0.092052 0.595839 -0.441925 0 255 0
-0.207629 0.570501 -0.471588 0 0 255
-0.032992 -0.247343 0.064080 127 0 127
0.190824 0.442286 -0.500789 255 0 0
-0.168018 0.643316 -0.007318 127 0 127
0.115317 -0.282500 -0.385060 76 153 0
-0.207629 0.162295 -0.303342 0 0 255
-0.123527 0.363914 -0.506381 0 255 0
0.167386 0.175705 -0.457800 255 0 0
-0.045741 0.395347 0.542487 153 0 76
0.097070 0.439132 -0.432879 0 0 255
-0.184190 0.613419 -0.150761 0 0 255
0.149877 0.666755 0.227539 127 0 127
-0.137314 0.313900 -0.462614 255 0 0
0.167386 0.378840 -0.228389 255 0 0
0.190824 -0.397879 -0.541419 0 127 127
-0.113875 0.081306 -0.411845 255 0 0
0.167386 0.280819 0.460198 255 0 0
0.120509 0.331946 -0.410984 0 0 255
-0.033177 -0.252325 -0.523960 0 255 0
0.167386 0.500323 -0.076331 255 0 0
-0.061786 -0.270781 -0.345652 127 0 127
-0.137314 -0.257523 0.316565 153 0 76
0.113464 -0.282500 0.471810 76 153 0
0.168394 -0.821583 0.242886 0 127 127
-0.154299 0.666755 -0.153789 127 0 127
0.167386 0.276091 0.403525 255 0 0
-0.102954 -0.258528 -0.441925 127 0 127
0.190824 0.304058 -0.500493 255 0 0
-0.207629 0.200699 -0.130936 0 0 255
-0.184190 0.419331 -0.314766 0 0 255
0.190824 -0.288485 0.405464 255 0 0
-0.113875 -0.265346 -0.254762 127 0 127
0.115091 -0.794427 -0.559117 0 255 0
-0.207629 0.434333 -0.511885 0 0 255
-0.073929 -0.341096 0.275843 127 127 0
0.167386 0.605988 -0.423409 255 0 0
0.167386 -0.801194 -0.091255 0 127 127
-0.137314 0.552328 -0.089525 153 0 76
-0.184190 0.096222 0.508673 0 0 255
-0.113875 -0.083546 -0.447127 0 255 0
0.082684 -0.122879 -0.465364 0 255 0
-0.207629 0.693664 -0.462925 0 0 255
0.167386 -0.563380 -0.113375 0 127 127
0.120509 0.151108 0.304410 76 0 153
0.167386 0.104956 0.170428 255 0 0
-0.137314 0.427580 0.501267 127 127 0
0.167386 -0.117229 0.017245 255 0 0
0.059638 0.393507 0.565926 153 0 76
-0.207629 0.140650 0.309033 0 0 255
0.072046 0.666755 -0.412254 127 0 127
-0.106489 -0.243716 -0.506381 0 255 0
-0.084683 0.385695 0.542487 153 0 76
0.190824 0.049818 -0.077895 255 0 0
0.086864 0.643316 0.043831 127 0 127
0.190824 -0.304658 -0.393665 255 0 0
0.167386 -0.246455 0.403330 255 0 0
0.190824 -0.417564 -0.054147 0 127 127
-0.088000 0.666755 0.365726 127 0 127
-0.207629 0.256123 0.336630 0 0 255
-0.207629 -0.240043 0.365950 0 0 255
0.190824 -0.112948 -0.336629 255 0 0
0.190824 -0.231884 -0.437741 255 0 0
0.046074 0.572760 -0.441925 0 255 0
-0.184190 -0.143404 -0.405220 0 0 255
0.005621 0.442055 -0.465364 0 255 0
0.085641 0.666755 -0.145363 127 0 127
0.019647 0.643316 0.252673 127 0 127
0.167386 -0.674585 -0.512328 0 127 127
0.037657 -0.270781 0.025515 127 0 127
-0.207629 -0.043839 0.216611 0 0 255
0.202543 0.368354 0.551441 153 0 76
-0.070192 -0.050444 0.601083 153 0 76
-0.184190 -0.262487 -0.373797 0 0 255
-0.113875 0.112730 0.529681 127 127 0
-0.175018 -0.341096 0.422840 127 127 0
-0.184190 0.547036 -0.271086 0 0 255
-0.018966 0.643316 -0.253669 127 0 127
0.097070 0.260165 -0.442792 0 255 0
0.190824 -0.721164 -0.529370 0 127 127
0.190824 -0.400874 -0.175641 0 127 127
-0.184190 0.619475 -0.496453 0 255 0
-0.184190 -0.071159 0.024984 0 0 255
-0.184190 -0.265110 -0.315678 0 0 255
-0.207139 -0.399692 -0.264445 127 127 0
-0.141277 -0.179234 0.565926 153 0 76
-0.207629 0.519750 -0.119983 0 0 255
0.190824 0.343537 0.290718 255 0 0
-0.184190 -0.281196 -0.196490 0 0 255
-0.079658 0.127672 -0.376729 0 127 127
-0.033425 -0.247343 -0.071182 127 0 127
0.190824 -0.046214 -0.238128 255 0 0
0.049661 -0.247343 -0.040148 127 0 127
0.167386 0.283524 -0.491003 255 0 0
0.190824 0.466783 -0.197292 255 0 0
-0.113875 -0.256087 0.202523 153 0 76
-0.207629 0.419010 -0.010800 0 0 255
0.190824 -0.616578 -0.544022 0 127 127
0.042859 -0.196270 0.565926 153 0 76
-0.051989 -0.018473 0.565926 153 0 76
-0.207629 0.617995 -0.297449 0 0 255
-0.207629 0.299769 0.316532 0 0 255
0.097070 -0.231550 -0.273467 76 153 0
0.132649 0.001802 0.565926 153 0 76
0.109792 0.666755 0.089043 127 0 127
0.120509 0.540828 0.042018 76 0 153
-0.055353 -0.247343 -0.005467 127 0 127
0.009043 0.053543 0.565926 153 0 76
0.063951 0.219498 0.565926 153 0 76
0.037038 -0.069803 0.542487 153 0 76
0.120509 -0.226899 -0.186692 76 153 0
0.178846 -0.041466 0.565926 153 0 76
-0.184190 0.636302 0.030076 0 0 255
0.167386 -0.299853 -0.463791 255 0 0
-0.184190 -0.106215 0.220403 0 0 255
-0.207629 -0.539440 0.204891 127 127 0
0.072072 -0.185996 0.542487 153 0 76
-0.184190 0.457869 0.058214 0 0 255
0.145631 0.643316 -0.230907 127 0 127
0.120509 -0.204903 -0.031077 76 153 0
0.190824 0.580603 0.055604 255 0 0
-0.207629 -0.172260 0.500816 0 0 255
-0.027221 0.127672 -0.172699 0 127 127
-0.096256 -0.180899 -0.465364 255 0 0
0.135584 0.643316 -0.161960 127 0 127
0.167386 0.288927 -0.171216 255 0 0
0.190824 -0.498423 -0.375257 0 127 127
-0.137314 -0.202696 0.283006 153 0 76
-0.184190 0.365919 0.250590 0 0 255
0.167386 0.227372 0.357617 255 0 0
-0.086215 0.127672 0.476491 0 127 127
0.097631 0.302528 -0.383329 0 0 255
0.144119 0.137656 -0.506381 0 255 0
-0.033244 0.306257 -0.465364 0 255 0
0.166142 -0.315345 0.530768 153 0 76
-0.207629 -0.211709 -0.197711 0 0 255
0.167386 0.465020 -0.500147 255 0 0
-0.184190 0.160202 -0.120070 0 0 255
-0.169692 0.666755 -0.101958 127 0 127
0.130260 0.079085 0.565926 153 0 76
-0.205850 0.027656 -0.559117 0 0 255
0.167386 0.232563 -0.479217 255 0 0
0.041256 0.127672 -0.204442 0 127 127
0.167386 -0.601524 -0.445691 0 127 127
-0.207629 -0.172213 0.306832 0 0 255
-0.184190 0.196988 0.350253 0 0 255
-0.125705 0.549339 0.601083 153 0 76
-0.061783 -0.341096 0.089761 127 127 0
0.074889 -0.247343 0.082764 127 0 127
0.167386 0.025386 -0.257856 255 0 0
-0.036822 -0.297767 -0.523960 0 255 0
0.097070 0.508364 -0.384238 0 0 255
0.016294 -0.247343 -0.192449 127 0 127
-0.207629 0.222858 0.349841 0 0 255
-0.184190 0.190300 0.250252 0 0 255
0.008139 -0.002471 -0.523960 0 255 0
0.167386 -0.082025 -0.000495 255 0 0
0.142285 -0.750936 -0.559117 0 255 0
0.167386 -0.626004 -0.036765 0 127 127
-0.041089 0.531247 0.542487 153 0 76
-0.184190 -0.796380 -0.330482 127 127 0
-0.207629 0.521228 -0.205142 0 0 255
-0.022985 0.465374 -0.523960 0 255 0
-0.113875 0.591925 0.092083 153 0 76
0.167386 0.073038 -0.107815 255 0 0
-0.022940 -0.270781 -0.258776 127 0 127
0.167386 0.618455 0.380425 255 0 0
0.190824 0.244845 0.035626 255 0 0
-0.028489 0.376631 -0.441925 0 255 0
0.000150 0.127672 0.162279 0 127 127
-0.184190 -0.362963 -0.080629 0 0 255
0.167386 -0.569686 -0.009796 0 127 127
-0.184190 -0.545912 -0.315038 127 127 0
-0.113875 0.532363 -0.153277 153 0 76
0.112115 -0.341096 0.053882 127 127 0
-0.137314 -0.211544 0.526992 153 0 76
-0.137314 0.260851 -0.423439 255 0 0
-0.207629 0.372623 -0.328482 0 0 255
0.167386 -0.542395 0.027620 0 127 127
-0.184190 0.322270 -0.480858 0 0 255
0.190824 0.690049 0.159687 255 0 0
-0.196765 0.701912 -0.141357 0 0 255
-0.219348 -0.383997 0.537948 153 0 76
-0.207629 0.632921 -0.100954 0 0 255
0.081716 0.619848 0.565926 153 0 76
0.167386 -0.193950 0.244438 255 0 0
-0.207629 0.472698 -0.323674 0 0 255
-0.016271 0.218951 -0.506381 0 255 0
-0.057213 -0.788787 0.284665 127 0 127
0.104938 0.127672 0.053466 76 0 153
0.088393 0.548519 -0.465364 0 255 0
-0.053690 -0.247343 0.210747 127 0 127
0.190824 -0.262714 0.180067 255 0 0
-0.207629 0.163724 0.083500 0 0 255
-0.049226 0.370105 0.565926 153 0 76
-0.026202 -0.100715 -0.465364 0 255 0
0.056110 -0.005310 -0.523960 0 255 0
-0.051208 0.127672 -0.187134 0 127 127
0.019917 0.457192 0.542487 153 0 76
0.121486 0.643316 -0.283916 127 0 127
-0.207629 0.317631 -0.013534 0 0 255
-0.207629 -0.336272 -0.225789 0 0 255
-0.184190 0.504881 -0.409335 0 0 255
-0.219056 -0.243815 0.565926 153 0 76
0.190824 -0.485759 0.189984 0 127 127
0.190824 -0.128971 -0.522240 255 0 0
-0.113875 0.174460 -0.377153 153 76 0
0.190824 0.236990 -0.264329 255 0 0
-0.018611 0.569518 0.601083 153 0 76
0.019402 -0.105400 -0.506381 0 255 0
0.151066 -0.341096 0.007625 127 127 0
-0.078482 0.127672 0.257689 0 127 127
0.120509 0.591836 0.401783 76 0 153
-0.137314 -0.045649 -0.411751 255 0 0
-0.207629 -0.466072 0.004088 127 127 0
0.190824 0.593398 -0.332875 255 0 0
0.027637 0.248474 0.565926 153 0 76
0.167386 0.282193 0.030674 255 0 0
0.030627 0.414934 0.601083 153 0 76
-0.207629 0.415021 0.337245 0 0 255
0.167386 0.449519 0.077758 255 0 0
0.167386 0.620919 0.230636 255 0 0
0.120509 0.173774 -0.094286 76 0 153
-0.184190 0.580479 0.194227 0 0 255
0.190824 -0.234094 0.020653 255 0 0
0.143945 -0.282244 0.599503 153 0 76
-0.134188 0.027218 -0.465364 255 0 0
-0.193529 0.589225 -0.559117 0 0 255
-0.167691 -0.612643 0.284665 127 0 127
-0.184190 -0.611794 -0.017129 127 127 0
0.167386 0.606634 -0.337566 255 0 0
0.120509 0.459886 0.491756 0 255 0
-0.159999 -0.663093 0.284665 127 0 127
-0.207629 -0.748610 -0.089586 127 127 0
0.057831 0.129980 0.542487 0 127 127
-0.207629 -0.657488 -0.507539 127 127 0
-0.067291 0.245338 -0.465364 0 255 0
-0.060093 0.666755 0.354916 127 0 127
-0.130715 0.643316 0.036617 127 0 127
-0.207629 -0.069089 -0.409606 0 0 255
-0.184190 0.577521 -0.035449 0 0 255
-0.158917 -0.215301 -0.506381 0 255 0
-0.137314 0.606643 0.264306 153 0 76
0.190824 0.350323 -0.212039 255 0 0
-0.211652 0.639629 0.530768 0 0 255
0.167386 0.176584 0.095743 255 0 0
-0.024813 0.666755 -0.055900 127 0 127
0.088979 -0.341096 0.226717 127 127 0
0.167386 0.026719 0.398228 255 0 0
-0.129373 0.127672 0.195424 153 76 0
0.190824 0.367367 0.505384 255 0 0
0.167386 -0.730705 -0.113987 0 127 127
-0.067701 0.323622 -0.441925 0 255 0
0.190824 0.264197 -0.069690 255 0 0
0.190824 -0.038126 0.446591 255 0 0
-0.137314 -0.216130 0.042916 153 0 76
-0.184190 0.059696 0.404204 0 0 255
0.167386 -0.048826 0.466334 255 0 0
0.190824 0.094006 0.427570 255 0 0
0.140719 0.510743 0.530768 153 0 76
0.167386 0.375021 0.443051 255 0 0
-0.184190 -0.123239 -0.019332 0 0 255
-0.121949 0.324194 0.565926 153 0 76
0.137830 0.643316 0.282396 127 0 127
0.167386 0.116220 0.507719 255 0 0
-0.184190 0.137635 -0.400736 0 0 255
0.190824 -0.173204 -0.061372 255 0 0
-0.184190 0.270028 -0.257360 0 0 255
0.080331 0.666755 -0.108257 127 0 127
0.097070 0.254914 0.492071 0 255 0
0.190824 0.243316 0.436821 255 0 0
-0.207629 0.694817 0.098178 0 0 255
-0.156871 0.666755 -0.465806 127 0 127
-0.137314 0.557988 -0.372368 153 0 76
-0.184190 -0.502618 -0.373218 127 127 0
0.043654 0.643316 -0.019541 127 0 127
-0.015595 0.218844 -0.465364 0 255 0
-0.082204 0.643316 -0.391341 127 0 127
-0.207629 -0.186399 0.158122 0 0 255
0.085829 -0.179850 -0.523960 0 255 0
-0.010385 0.614705 -0.506381 0 255 0
-0.093703 -0.270781 0.012628 127 0 127
0.072368 -0.270781 0.479417 127 0 127
0.075027 -0.045745 -0.465364 0 255 0
-0.184190 -0.425113 0.168670 127 127 0
-0.184190 0.122745 -0.024976 0 0 255
-0.193300 0.084507 0.530768 153 0 76
0.190824 -0.372833 0.301554 255 0 0
-0.171228 0.128002 0.530768 153 0 76
0.048669 -0.247343 0.440040 127 0 127
-0.191944 0.698441 0.565926 153 0 76
0.190824 0.251785 -0.288054 255 0 0
-0.012496 0.145250 0.145699 0 127 127
-0.207629 -0.172435 -0.209166 0 0 255
0.006692 -0.190623 -0.441925 0 255 0
-0.107874 0.643316 -0.342973 127 0 127
0.068522 0.179943 -0.506381 0 255 0
0.120509 0.544817 0.374871 76 0 153
-0.184190 -0.182376 0.227472 0 0 255
0.167386 -0.026637 -0.213433 255 0 0
-0.207629 0.507497 0.094121 0 0 255
-0.207629 -0.234913 0.083464 0 0 255
-0.056700 -0.771804 -0.559117 0 255 0
0.167386 0.076244 -0.151180 255 0 0
0.122006 0.097546 -0.523960 0 255 0
0.120509 0.102898 -0.386047 0 0 255
-0.113875 0.430066 0.533654 127 127 0
-0.113875 0.172100 0.002505 153 76 0
-0.207629 0.097615 -0.043289 0 0 255
0.167386 -0.388039 -0.215429 255 0 0
0.190824 0.621745 -0.313405 255 0 0
-0.207629 -0.586031 -0.327193 127 127 0
0.190824 0.091852 -0.076387 255 0 0
0.167386 0.672318 -0.084252 255 0 0
-0.020838 -0.270781 -0.074649 127 0 127
0.190824 -0.234521 -0.046869 255 0 0
-0.207629 -0.426928 -0.426027 127 127 0
0.097070 -0.279729 0.434062 76 153 0
0.097070 -0.217646 0.328549 76 153 0
-0.011151 -0.174506 -0.465364 0 255 0
-0.184190 0.235154 0.087579 0 0 255
0.190824 0.341932 -0.018202 255 0 0
-0.207629 -0.073625 -0.078139 0 0 255
-0.020513 0.188740 0.565926 153 0 76
-0.048757 0.593349 -0.506381 0 255 0
0.167386 -0.217045 0.109735 255 0 0
-0.113875 0.041673 -0.440145 255 0 0
-0.128661 0.127672 -0.210804 153 76 0
-0.207629 0.506948 -0.051570 0 0 255
-0.207629 -0.216353 0.338662 0 0 255
0.152784 -0.171888 0.530768 153 0 76
-0.184190 -0.436906 0.070144 127 127 0
-0.208547 -0.090682 0.565926 153 0 76
0.190824 0.162838 0.063000 255 0 0
-0.184190 -0.200271 -0.014404 0 0 255
0.167386 -0.719954 -0.008550 0 127 127
0.190824 0.175156 0.006663 255 0 0
-0.184190 0.346466 0.181784 0 0 255
-0.000770 -0.152274 -0.523960 0 255 0
-0.184190 0.626028 -0.119581 0 0 255
0.097070 -0.280547 -0.114100 76 153 0
-0.184190 -0.523185 -0.061727 127 127 0
0.097070 0.219344 -0.066221 76 0 153
-0.029781 -0.247343 -0.016212 127 0 127
0.088523 0.145250 0.205762 0 127 127
0.167386 0.101359 0.347818 255 0 0
-0.184190 0.410703 0.377868 0 0 255
0.097070 0.556006 -0.190617 76 0 153
0.167386 -0.145139 0.166754 255 0 0
0.091945 0.132114 -0.441925 0 255 0
-0.207629 -0.790096 0.255257 127 127 0
-0.207629 -0.052515 0.369009 0 0 255
-0.137314 0.144572 0.544265 127 127 0
-0.184190 -0.079367 0.316281 0 0 255
0.167386 0.251607 -0.111994 255 0 0
-0.207629 -0.219173 -0.345363 0 0 255
0.097070 0.559809 0.475009 76 0 153
-0.063036 0.039996 -0.523960 0 255 0
0.080983 0.666755 0.401815 127 0 127
-0.184190 0.327316 -0.165135 0 0 255
0.101594 -0.282500 0.241504 127 0 127
-0.184190 0.288544 -0.043395 0 0 255
0.097801 -0.341096 0.306519 127 127 0
0.167386 0.005708 -0.171743 255 0 0
-0.085559 0.006561 0.542487 153 0 76
0.167386 -0.788499 0.040884 0 127 127
0.167386 -0.150897 -0.110986 255 0 0
-0.184190 0.316256 0.037846 0 0 255
-0.104055 -0.744469 -0.559117 0 255 0
0.190824 -0.729708 -0.312679 0 127 127
0.190824 -0.196717 -0.101287 255 0 0
-0.184190 0.263183 0.443235 0 0 255
0.167386 0.471928 0.107217 255 0 0
0.167386 -0.121797 0.281460 255 0 0
-0.137314 -0.174285 -0.388390 255 0 0
0.190824 -0.375557 -0.167747 255 0 0
-0.184190 0.203530 -0.169377 0 0 255
0.190824 0.085971 -0.351864 255 0 0
0.190824 -0.156595 0.509288 255 0 0
-0.137314 0.496851 -0.431792 255 0 0
-0.207629 0.689339 -0.285524 0 0 255
-0.184190 -0.237962 0.501960 0 0 255
-0.184190 0.537439 -0.008568 0 0 255
-0.207629 -0.124764 0.064892 0 0 255
0.026308 0.223184 -0.441925 0 255 0
-0.207629 0.297010 -0.352715 0 0 255
0.190824 -0.410609 -0.487762 0 127 127
-0.182249 -0.755790 -0.559117 127 127 0
0.096705 0.127672 -0.168438 76 0 153
0.167386 -0.655909 -0.397349 0 127 127
-0.015014 -0.341096 0.092568 127 127 0
-0.126477 -0.341096 -0.167254 127 127 0
0.073362 0.643316 0.246373 127 0 127
-0.207629 0.054460 -0.259651 0 0 255
-0.107610 -0.341096 0.503163 127 127 0
0.021410 0.643316 -0.397244 127 0 127
-0.184190 0.137217 0.353302 0 0 255
-0.156709 -0.048229 -0.506381 0 255 0
0.097070 -0.228744 0.051689 76 153 0
-0.005310 -0.247343 -0.346796 127 0 127
-0.184190 -0.651712 -0.424236 127 127 0
-0.113875 0.279608 -0.410194 255 0 0
0.058271 -0.246036 -0.506381 0 255 0
-0.207629 0.378965 -0.199931 0 0 255
0.167386 0.538540 -0.412348 255 0 0
-0.023037 0.297352 -0.441925 0 255 0
-0.032700 -0.270781 0.124489 127 0 127
-0.184190 0.410090 0.153387 0 0 255
-0.184190 0.471868 -0.363062 0 0 255
0.190824 -0.108096 0.135922 255 0 0
-0.063720 0.643316 -0.471910 127 0 127
-0.184190 -0.444313 -0.351153 127 127 0
0.164319 -0.171942 -0.506381 255 0 0
-0.207629 0.460870 0.137084 0 0 255
-0.087962 0.588753 0.565926 153 0 76
0.167386 0.514394 0.137308 255 0 0
-0.207629 -0.008989 -0.286987 0 0 255
-0.044222 0.643316 0.516324 153 0 76
-0.184190 0.322052 0.134344 0 0 255
-0.016644 0.666755 -0.275731 127 0 127
-0.078697 0.485401 0.565926 153 0 76
-0.113875 -0.269528 -0.042367 127 0 127
0.105905 0.608159 -0.169739 76 0 153
-0.184190 -0.479898 -0.502182 127 127 0
-0.184190 0.368787 0.367603 0 0 255
-0.207629 0.385689 0.000571 0 0 255
0.167386 0.597483 0.069448 255 0 0
0.190824 -0.204990 -0.148026 255 0 0
-0.184190 0.184607 0.450675 0 0 255
0.121632 0.666755 0.036445 127 0 127
-0.207629 0.093853 0.141189 0 0 255
-0.184190 0.199935 -0.314350 0 0 255
-0.133352 0.127672 -0.335636 153 76 0
0.044016 0.434768 -0.441925 0 255 0
-0.158396 -0.191214 0.601083 153 0 76
-0.207629 0.677153 0.505193 0 0 255
0.190824 0.515854 -0.400725 255 0 0
0.190824 0.592727 -0.271249 255 0 0
0.097782 -0.092389 -0.506381 0 255 0
0.167386 -0.690930 -0.028190 0 127 127
0.027211 0.433697 0.565926 153 0 76
-0.207629 -0.363620 -0.545131 0 0 255
-0.159001 0.014315 -0.506381 0 255 0
-0.184190 -0.566263 0.016202 127 127 0
-0.184190 0.667324 0.331077 0 0 255
-0.150029 -0.078276 0.565926 153 0 76
0.056819 0.253594 -0.506381 0 255 0
-0.207629 -0.530355 0.052500 127 127 0
-0.113875 0.194927 -0.067926 153 76 0
-0.207629 0.423414 0.436288 0 0 255
-0.137314 -0.219164 0.498625 127 127 0
0.097070 -0.042792 0.503236 0 255 0
0.044357 -0.523710 -0.559117 0 255 0
-0.184190 -0.631026 -0.263723 127 127 0
0.167386 -0.554993 0.263372 0 127 127
0.190824 0.537296 -0.228537 255 0 0
0.010958 -0.270781 0.249978 127 0 127
-0.069456 0.334921 -0.523960 0 255 0
-0.207629 0.405882 -0.158314 0 0 255
-0.207629 0.569558 0.061123 0 0 255
0.190824 0.142686 0.278996 255 0 0
0.114442 0.643316 0.058439 127 0 127
0.190824 0.201060 0.503415 255 0 0
0.190824 0.141457 0.368125 255 0 0
-0.034003 0.063201 -0.465364 0 255 0
0.120509 0.142466 -0.084795 76 0 153
-0.020054 -0.247586 0.542487 127 0 127
0.097070 -0.238201 0.366699 76 153 0
-0.113875 0.491615 -0.413050 255 0 0
0.190824 0.280402 0.503401 255 0 0
-0.102812 0.643316 0.470136 127 0 127
-0.020681 0.643316 0.489564 127 0 127
0.190824 -0.605664 -0.224516 0 127 127
0.175887 -0.199688 0.565926 153 0 76
-0.052030 0.666755 0.313260 127 0 127
-0.207629 0.448089 0.387045 0 0 255
0.190824 -0.730745 -0.281385 0 127 127
0.057179 -0.094299 -0.441925 0 255 0
0.011243 0.643316 -0.148577 127 0 127
0.097070 -0.226676 0.524918 127 0 127
-0.137314 0.132967 0.148131 153 76 0
-0.207629 -0.325362 -0.090347 0 0 255
-0.072606 0.101053 -0.523960 0 255 0
0.190824 -0.093225 -0.235755 255 0 0
0.190824 0.268342 0.355623 255 0 0
-0.137314 0.206127 -0.161415 153 76 0
0.167386 0.655990 0.303755 127 0 127
0.190824 0.227356 0.154892 255 0 0
0.190824 -0.362462 0.229178 255 0 0
0.097070 -0.077667 0.521372 0 255 0
0.190824 -0.280490 0.307141 255 0 0
-0.033134 0.643316 -0.296144 127 0 127
0.097070 0.092672 -0.422215 0 0 255
-0.110290 0.427944 -0.441925 255 0 0
-0.082989 0.603455 0.621006 76 0 153
-0.134734 0.666755 0.064024 127 0 127
0.190824 0.474878 -0.486409 255 0 0
0.167386 0.491642 -0.443138 255 0 0
0.004669 0.127672 0.021857 0 127 127
-0.184190 -0.789679 -0.057260 127 127 0
-0.022645 -0.059427 -0.441925 0 255 0
0.019146 0.385216 0.565926 153 0 76
0.022181 0.643316 -0.327424 127 0 127
0.167386 0.326264 -0.090754 255 0 0
0.190824 -0.149581 -0.469307 255 0 0
-0.091682 -0.270781 0.509854 127 0 127
-0.022868 -0.130942 0.601083 153 0 76
0.175397 -0.399692 0.135187 255 0 0
0.167386 0.114412 0.218990 255 0 0
-0.129203 -0.085585 0.601083 153 0 76
-0.181649 -0.020820 -0.506381 0 255 0
-0.113875 0.543237 0.226085 153 0 76
-0.029422 0.127672 -0.268281 0 127 127
0.167386 0.679261 -0.342623 255 0 0
-0.055764 0.467563 -0.441925 0 255 0
-0.090067 0.014242 -0.441925 0 255 0
0.167386 -0.785755 0.002050 0 127 127
0.120509 0.181891 0.143928 76 0 153
-0.207629 -0.646153 0.080532 127 127 0
-0.207629 0.331196 0.222091 0 0 255
-0.207629 -0.371993 0.022265 0 0 255
0.190824 0.350518 -0.361628 255 0 0
-0.008085 -0.309214 0.565926 153 0 76
-0.184190 -0.080110 -0.037028 0 0 255
0.190824 0.529036 0.328965 255 0 0
0.190824 -0.226427 0.425040 255 0 0
0.167386 0.176130 0.384243 255 0 0
-0.113875 0.530327 0.250184 153 0 76
-0.207629 0.057768 0.091791 0 0 255
0.190824 -0.485257 -0.337733 0 127 127
0.055977 -0.270781 0.248931 127 0 127
0.016296 -0.247343 -0.293890 127 0 127
0.167386 0.038092 -0.530698 0 255 0
0.190824 0.602162 -0.525798 255 0 0
-0.107583 -0.787986 -0.559117 0 255 0
0.190824 -0.583797 -0.464557 0 127 127
0.042390 -0.310549 -0.523960 0 255 0
-0.046867 0.643316 -0.397389 127 0 127
-0.207629 0.542543 -0.430261 0 0 255
0.190824 -0.147598 -0.417576 255 0 0
0.080309 0.643316 -0.396352 127 0 127
-0.207629 -0.403956 0.158370 127 127 0
0.190824 -0.063878 0.030822 255 0 0
0.058661 0.430191 -0.465364 0 255 0
-0.207629 -0.320073 0.499866 0 0 255
-0.017238 0.701912 -0.553659 204 51 127
0.190824 -0.442795 -0.182699 0 127 127
-0.207629 -0.182041 -0.539482 0 0 255
-0.153930 0.055179 0.565926 153 0 76
-0.024052 0.440097 0.565926 153 0 76
