ply
format ascii 1.0
element vertex 1281
property float x
property float y
property float z
property uchar red
property uchar green
property uchar blue
end_header
-0.072369 0.210775 -0.152915 127 0 127
0.236477 0.043014 -0.052815 76 0 153
0.584535 0.254739 0.026194 0 0 255
-0.220714 -0.312993 -0.104681 153 76 0
0.193936 0.066988 0.142511 153 0 76
-0.207245 -0.334710 -0.131840 153 0 76
-0.195985 0.254739 0.061496 0 0 255
0.202283 0.105253 -0.056983 153 0 76
0.202283 0.096589 0.027704 153 0 76
0.023577 -0.143729 0.258373 0 127 127
0.202283 -0.175189 0.227801 76 153 0
-0.738386 0.225429 -0.078352 0 0 255
-0.894220 -0.361976 0.122623 76 0 153
0.212053 -0.003488 0.224609 204 51 127
-0.220714 0.036009 -0.129374 153 76 0
0.212053 -0.264529 0.145017 76 153 0
0.265670 0.225429 0.133112 0 0 255
0.236477 -0.109689 0.117374 76 0 153
-0.220598 0.210775 0.028368 76 0 153
-0.187449 -0.289855 -0.032276 76 0 153
0.221822 0.139375 -0.014455 76 0 153
0.525167 0.236295 0.154570 0 0 255
-0.641975 0.225429 -0.044958 0 0 255
-0.213101 -0.347322 -0.093140 153 0 76
0.176119 -0.015577 0.225400 204 51 127
0.221822 0.104771 0.123856 76 0 153
0.236477 0.076918 0.121420 76 0 153
-0.927878 -0.187347 -0.180044 76 0 153
-0.201812 0.210775 0.046780 76 0 153
-0.035089 -0.012248 -0.175159 127 0 127
0.067161 -0.334710 0.074606 153 0 76
-0.934515 0.153092 0.043429 76 0 153
0.209805 0.066988 0.058179 153 0 76
-0.045296 -0.101921 0.152912 127 127 0
-0.888516 -0.246245 -0.180044 76 0 153
0.221822 -0.048062 0.051213 76 0 153
0.236477 -0.211435 -0.118853 76 0 153
0.039372 -0.298704 0.248604 0 127 127
-0.875043 -0.085089 -0.117367 76 0 153
0.871473 0.139351 0.066895 153 0 76
-0.094400 -0.267059 -0.180044 127 0 127
-0.934515 0.129252 0.137431 76 0 153
-0.011835 0.254739 0.019262 0 0 255
-0.188094 -0.063931 -0.175159 127 0 127
0.012477 -0.329486 0.254941 0 127 127
-0.239935 0.236060 -0.180044 0 0 255
-0.458582 0.225429 -0.072333 0 0 255
-0.068237 0.210775 0.057282 0 0 255
0.126935 0.254739 0.044562 0 0 255
-0.934515 0.099812 -0.090621 76 0 153
0.140009 -0.083866 -0.075019 0 255 0
-0.746497 0.254739 0.142078 0 0 255
-0.096322 -0.334710 -0.061709 153 0 76
0.896081 0.254739 0.076294 0 0 255
0.502517 0.225429 0.059495 0 0 255
0.080281 0.077979 -0.116364 76 0 153
-0.235368 0.077478 -0.137635 153 76 0
0.053537 -0.159316 -0.180044 127 0 127
0.201478 -0.228457 -0.175159 127 0 127
-0.181265 -0.083635 -0.175159 127 0 127
-0.084085 0.203764 0.162043 76 153 0
0.871473 -0.092892 0.072298 153 0 76
-0.875043 -0.021361 0.120853 76 0 153
0.236477 -0.312219 -0.113618 76 0 153
0.581674 0.225429 -0.072398 0 0 255
-0.209267 -0.097075 0.091253 0 0 255
-0.185203 -0.347322 -0.178310 153 0 76
-0.199498 -0.017144 0.079568 0 0 255
0.180746 0.195065 -0.138184 153 76 0
0.930945 -0.180156 -0.104432 153 0 76
-0.001035 0.210775 -0.083815 0 0 255
-0.220071 0.210775 -0.122498 153 76 0
0.095180 -0.329486 0.190388 153 76 0
-0.138399 -0.334710 -0.148819 153 0 76
0.067203 -0.334710 0.113076 153 76 0
-0.649491 0.254739 0.011129 0 0 255
-0.024386 0.254739 0.055643 0 0 255
-0.220714 -0.108158 -0.038980 153 76 0
0.662662 0.225429 -0.060756 0 0 255
0.202283 -0.270925 0.098960 76 153 0
0.026971 0.066988 -0.103874 76 0 153
0.758706 0.254739 0.058396 0 0 255
0.221822 0.022422 0.039763 76 0 153
0.341535 0.225429 -0.074903 0 0 255
0.020608 -0.090930 -0.058272 127 127 0
-0.024089 -0.083667 -0.065249 0 255 0
0.147977 0.066988 -0.108380 76 0 153
-0.017941 0.077979 0.008501 76 0 153
0.221822 -0.151502 -0.019839 76 153 0
0.173008 0.066988 0.138117 153 0 76
-0.875043 0.217988 -0.166349 76 0 153
0.212053 -0.286809 0.044228 76 0 153
0.009563 0.066988 0.004416 76 0 153
0.088371 0.066988 -0.136889 153 76 0
-0.220714 -0.127297 -0.105145 153 76 0
-0.316861 0.254739 -0.065058 0 0 255
-0.220714 0.036727 0.088175 153 76 0
-0.067729 -0.150840 -0.042046 76 0 153
0.930945 -0.278995 -0.052558 153 0 76
0.887037 0.225429 -0.074616 153 0 76
-0.309222 0.225429 -0.089469 0 0 255
0.205172 -0.147653 0.258373 0 127 127
-0.189806 -0.334710 -0.073812 153 0 76
-0.904802 -0.361976 -0.052494 76 0 153
0.159161 -0.334710 0.059752 153 76 0
0.006004 -0.318495 0.205892 153 76 0
-0.235368 -0.204792 -0.175867 153 76 0
0.612520 0.254739 -0.066846 0 0 255
-0.235368 0.152750 0.018820 153 76 0
0.202283 0.197896 0.099617 153 0 76
-0.097329 0.006017 0.225400 204 51 127
-0.014804 0.095895 0.162235 76 153 0
0.207100 -0.101921 -0.040858 255 0 0
0.221822 -0.102200 -0.163738 76 0 153
-0.036838 -0.334710 0.095362 153 76 0
-0.820647 0.254739 -0.009220 0 0 255
-0.192632 -0.334710 -0.145951 153 0 76
0.202283 0.148658 -0.119170 153 76 0
-0.359571 0.225429 0.118584 0 0 255
-0.097257 0.254739 -0.124762 0 0 255
-0.776033 0.254739 0.106705 0 0 255
0.106231 -0.347322 -0.032851 153 0 76
0.077374 -0.036682 -0.075019 0 255 0
-0.934515 -0.070971 -0.084945 76 0 153
-0.070981 0.210775 0.139304 0 0 255
0.930945 0.035292 -0.064260 153 0 76
-0.033318 -0.090930 -0.016708 127 127 0
0.295619 0.254739 0.022951 0 0 255
0.202589 -0.129206 -0.019972 76 153 0
-0.433445 0.225429 -0.028743 0 0 255
0.094986 0.155386 -0.128415 153 76 0
0.156911 -0.329486 0.196607 153 76 0
0.236477 -0.308600 -0.046694 76 0 153
-0.934515 0.000435 -0.134815 76 0 153
-0.124678 -0.329486 0.026756 153 0 76
-0.199025 -0.224017 -0.180044 127 0 127
0.011184 0.140489 -0.175159 127 0 127
-0.220714 0.105006 -0.040222 153 76 0
-0.126929 -0.293049 -0.175159 127 0 127
-0.875043 -0.007343 0.014103 76 0 153
0.871473 -0.335027 -0.033336 153 0 76
-0.129339 -0.347322 -0.016601 153 0 76
0.930945 0.061699 -0.118058 153 0 76
-0.823242 0.225429 0.028395 0 0 255
-0.124070 -0.334710 0.090956 153 0 76
0.398697 0.225429 -0.098895 0 0 255
-0.038779 0.254739 -0.169578 0 0 255
0.155937 0.158574 0.152465 76 153 0
0.151747 -0.329486 0.134525 153 0 76
-0.098539 0.077979 -0.069122 76 0 153
-0.235368 -0.051049 -0.160485 153 76 0
-0.153687 0.147760 -0.175159 127 0 127
-0.199498 -0.228471 0.181283 153 0 76
-0.158462 0.210775 0.054335 0 0 255
0.197609 -0.347322 0.056588 153 0 76
-0.875043 -0.310385 -0.162059 76 0 153
0.207547 0.210775 0.074206 0 0 255
-0.235368 0.178283 -0.158997 153 76 0
0.221822 0.148860 -0.085478 153 0 76
0.034549 0.254739 -0.092752 0 0 255
-0.788680 0.225429 -0.102975 0 0 255
-0.199498 -0.151803 0.154534 153 0 76
0.742551 0.225429 0.023963 0 0 255
0.871473 -0.316138 0.019205 153 0 76
0.683716 0.225429 0.033237 0 0 255
-0.467271 0.225429 0.093475 0 0 255
-0.875043 -0.001625 -0.008848 76 0 153
0.588916 0.254739 -0.054440 0 0 255
-0.085985 0.098050 -0.128415 153 76 0
0.236477 -0.205832 0.075190 76 0 153
-0.871647 0.225429 0.025132 76 0 153
0.133556 -0.179016 -0.042046 76 0 153
0.103628 -0.318495 0.027916 153 76 0
0.202283 0.139890 0.024560 153 0 76
-0.012022 -0.167058 -0.042046 76 0 153
0.221822 0.051905 0.088227 76 0 153
-0.060896 -0.098578 -0.180044 127 0 127
0.269971 0.234558 -0.180044 0 0 255
-0.038583 -0.135156 -0.042046 76 0 153
-0.623859 0.225429 -0.144108 0 0 255
0.028636 -0.268478 0.248604 0 127 127
-0.823996 0.225429 0.121969 0 0 255
-0.220714 0.097806 -0.168590 127 0 127
-0.934325 -0.309308 -0.180044 76 0 153
0.221822 0.144464 0.114129 76 0 153
0.009153 0.109445 -0.175159 127 0 127
0.236477 0.117076 -0.075134 76 0 153
0.087692 -0.220246 -0.032276 76 0 153
0.930945 -0.308276 0.081149 153 0 76
0.212053 -0.060312 0.214135 255 0 0
-0.235368 -0.249843 0.117667 153 76 0
0.871473 -0.242603 0.121367 153 0 76
0.236477 -0.288317 0.010906 76 0 153
0.236477 0.089889 0.059655 76 0 153
-0.220714 -0.190278 -0.144867 153 76 0
0.221822 -0.090305 -0.004530 255 0 0
-0.082783 0.254739 -0.087018 0 0 255
-0.113106 0.090231 0.152465 76 153 0
0.871473 -0.192612 0.065560 153 0 76
-0.235368 -0.156372 -0.161806 153 76 0
-0.473984 0.254739 -0.084356 0 0 255
0.156741 0.101801 -0.175159 127 0 127
-0.875043 0.073260 -0.151042 76 0 153
0.151235 0.066988 -0.013999 76 0 153
0.202283 -0.198971 0.061103 76 153 0
0.004633 -0.264858 -0.175159 127 0 127
-0.840180 0.225429 0.140046 0 0 255
-0.174189 -0.329486 0.089314 153 76 0
-0.149196 0.254739 -0.062904 0 0 255
0.008133 0.077979 0.081120 76 0 153
-0.220714 0.050339 -0.083509 153 76 0
-0.801157 0.254739 -0.128685 0 0 255
-0.399076 0.254739 -0.161678 0 0 255
-0.235368 0.128680 -0.100645 153 76 0
-0.138773 -0.090930 0.177557 127 127 0
0.871473 0.017674 0.125635 153 0 76
0.629249 0.225429 -0.057238 0 0 255
0.454213 0.243676 -0.180044 0 0 255
0.871473 -0.005263 0.042413 153 0 76
-0.005290 0.066988 -0.111991 76 0 153
-0.096554 -0.172452 -0.042046 76 0 153
-0.220714 -0.071565 -0.115839 153 76 0
-0.934515 -0.226746 -0.050803 76 0 153
0.236477 0.187305 -0.086497 0 0 255
0.212053 -0.153453 0.096327 76 153 0
-0.235368 -0.025569 -0.178251 153 76 0
0.424417 0.225429 -0.088614 0 0 255
-0.934515 -0.277537 0.039512 76 0 153
0.476203 0.225429 0.031527 0 0 255
-0.052302 0.016849 -0.175159 127 0 127
-0.199498 0.145335 0.083912 76 0 153
-0.180491 0.162113 -0.180044 127 0 127
0.871473 -0.309413 0.093647 153 0 76
0.930945 0.023569 -0.123626 153 0 76
-0.934515 -0.157885 -0.037544 76 0 153
-0.026675 -0.305905 -0.042046 76 0 153
-0.934515 -0.287752 -0.160246 76 0 153
-0.055591 -0.090930 0.064965 127 127 0
0.058348 -0.329486 0.189153 153 76 0
0.122148 -0.217399 0.258373 0 127 127
0.163881 0.066988 -0.051171 76 0 153
0.610901 0.225429 0.134499 0 0 255
0.036360 0.210775 -0.132261 0 0 255
-0.235368 0.004832 0.080979 153 76 0
-0.915119 -0.350856 -0.180044 76 0 153
0.607997 0.225429 0.084013 0 0 255
-0.024616 0.034855 -0.074202 0 255 0
-0.220714 0.155723 -0.166850 127 0 127
-0.066730 -0.231971 0.248604 0 127 127
0.104033 0.235531 -0.180044 0 0 255
-0.199498 -0.294296 0.236588 0 127 127
-0.220714 0.140497 -0.055664 153 76 0
-0.909472 -0.361976 0.082024 76 0 153
-0.012096 -0.334710 0.090563 153 0 76
0.202283 0.171519 0.098047 153 0 76
-0.053917 0.141023 0.162235 76 153 0
0.182435 0.077979 -0.096967 76 0 153
0.133217 0.001690 -0.175159 127 0 127
-0.220714 0.014148 -0.166255 153 76 0
0.236252 -0.247391 -0.180044 127 0 127
-0.875043 -0.338454 -0.035050 76 0 153
0.001261 0.254739 0.078543 0 0 255
-0.934515 -0.307724 -0.054274 76 0 153
0.393180 0.254739 0.106550 0 0 255
0.221822 -0.113422 0.031582 76 0 153
-0.875043 0.109524 -0.064181 76 0 153
0.031688 0.254739 0.095777 0 0 255
-0.188138 0.066988 -0.066753 76 0 153
0.212053 -0.172877 0.180739 76 153 0
-0.079768 -0.334710 -0.007525 153 0 76
-0.490668 0.225429 -0.074110 0 0 255
0.016883 0.210775 0.056031 0 0 255
-0.934515 0.159818 0.122501 76 0 153
0.202283 -0.259013 0.188476 76 153 0
0.202283 -0.258281 0.065987 76 153 0
-0.220714 0.195227 -0.094879 153 76 0
-0.175869 -0.101921 0.070666 127 127 0
0.015134 0.228149 0.154570 0 0 255
0.236477 -0.177759 -0.173977 76 0 153
0.221822 -0.084802 0.121287 76 0 153
-0.887719 0.009549 0.139915 76 0 153
-0.609538 0.225429 -0.160558 0 0 255
0.893199 0.078294 0.139915 153 0 76
-0.056455 -0.329486 0.237445 153 76 0
0.047517 -0.233358 -0.032276 76 0 153
-0.037011 -0.334710 0.032090 153 76 0
0.193567 -0.090930 0.119365 255 0 0
-0.090713 -0.014819 0.215631 204 51 127
-0.190244 -0.329486 0.026115 153 76 0
-0.031999 -0.243406 -0.042046 76 0 153
-0.235368 0.116923 -0.071158 153 76 0
0.212592 0.254739 -0.061141 0 0 255
0.221822 -0.107237 0.064479 76 0 153
0.105113 -0.101921 0.202997 127 127 0
-0.934515 -0.030288 0.095092 76 0 153
0.186270 0.210775 0.114961 0 0 255
0.333742 0.225429 0.117551 0 0 255
-0.629369 0.249625 0.154570 0 0 255
-0.934515 -0.076495 0.096040 76 0 153
0.871473 -0.275992 0.137110 153 0 76
0.121444 -0.237810 -0.175159 127 0 127
-0.128402 -0.265015 0.248604 0 127 127
0.137876 -0.334710 -0.047547 153 0 76
0.155122 -0.329486 0.154997 153 76 0
-0.934515 -0.281073 0.118921 76 0 153
0.165935 0.210775 -0.060386 0 0 255
0.202283 -0.272736 0.170011 76 153 0
-0.875043 -0.228578 0.085849 76 0 153
-0.934515 -0.091070 -0.135420 76 0 153
0.212053 -0.057094 0.005887 76 0 153
-0.799485 0.225429 0.016340 0 0 255
-0.010616 0.150604 -0.128415 153 76 0
0.871473 -0.090524 0.111785 153 0 76
-0.199498 -0.140627 0.097299 153 0 76
-0.199498 -0.148071 0.217731 153 0 76
0.930945 0.173262 0.066816 153 0 76
-0.235368 -0.089245 0.090978 153 76 0
-0.172518 -0.318495 -0.023446 76 0 153
0.777699 0.254739 -0.085448 0 0 255
0.113630 0.196859 -0.175159 0 0 255
-0.074409 0.124495 -0.128415 153 76 0
-0.106278 -0.303259 -0.175159 127 0 127
0.323477 0.254739 0.032638 0 0 255
-0.116441 0.254739 0.016305 0 0 255
0.236477 -0.068990 0.058556 76 0 153
-0.128398 -0.327645 -0.042046 76 0 153
0.080320 -0.329486 -0.004521 153 76 0
-0.220714 -0.218335 -0.044796 153 76 0
-0.235368 0.103347 -0.116097 153 76 0
0.039508 -0.334710 0.010802 153 76 0
-0.286530 0.254739 -0.095736 0 0 255
0.110569 -0.153410 -0.042046 76 0 153
0.195207 -0.069228 -0.180044 127 0 127
0.460016 0.254739 -0.000689 0 0 255
0.100131 -0.101750 -0.175159 127 0 127
-0.220714 -0.199360 0.009083 153 76 0
0.178013 -0.012942 -0.075019 0 255 0
-0.137073 -0.005738 -0.180044 127 0 127
-0.875043 0.135627 -0.159888 76 0 153
0.529918 0.226262 -0.180044 0 0 255
0.013821 -0.334710 -0.069258 153 0 76
0.106206 -0.064339 0.215631 204 51 127
-0.162982 -0.090930 0.112507 127 127 0
0.236477 0.205331 -0.103588 0 0 255
0.086538 -0.090930 -0.036907 127 127 0
-0.199498 -0.180711 0.078952 153 0 76
-0.209267 -0.070496 -0.003856 0 0 255
0.276837 0.254739 0.128058 0 0 255
-0.934515 -0.227416 -0.020597 76 0 153
-0.778998 0.225429 -0.074326 0 0 255
-0.100539 0.210775 0.001698 0 0 255
-0.108280 0.066988 -0.028962 76 0 153
-0.910251 0.078611 0.139915 76 0 153
-0.220714 0.164078 -0.047574 153 76 0
0.221822 -0.271297 0.036138 76 0 153
-0.149149 -0.208970 -0.042046 76 0 153
-0.934515 0.065934 -0.160931 76 0 153
0.871473 0.075530 -0.093023 153 0 76
0.187161 -0.203485 0.248604 0 127 127
-0.555205 0.254739 0.091169 0 0 255
-0.235368 -0.005691 0.020936 153 76 0
0.221822 -0.242560 -0.027078 76 0 153
-0.934515 0.223566 -0.079227 0 0 255
-0.615925 0.225429 -0.001226 0 0 255
0.032581 -0.347322 0.066429 153 0 76
-0.209139 0.121216 0.162235 76 153 0
-0.110860 -0.065987 0.215631 204 51 127
0.158799 0.026279 0.225400 204 51 127
0.930945 0.008362 -0.136644 153 0 76
-0.076227 -0.131773 -0.032276 76 0 153
-0.265850 0.225429 -0.177742 0 0 255
-0.308998 0.254739 -0.140952 0 0 255
0.876124 0.225429 0.070091 153 0 76
0.863282 0.254739 0.010592 0 0 255
-0.776836 0.254739 -0.008512 0 0 255
-0.646151 0.254739 0.127322 0 0 255
0.189139 0.110286 0.162235 76 153 0
0.159664 0.254739 0.094841 0 0 255
-0.220714 0.036722 0.024216 0 0 255
0.411382 0.225429 -0.153258 0 0 255
0.202283 -0.156172 0.060869 76 153 0
0.105837 -0.334710 -0.103249 153 0 76
-0.893582 -0.250697 0.139915 76 0 153
0.236477 -0.170109 -0.047490 76 0 153
0.144833 0.077979 0.096421 76 0 153
0.411244 0.254739 -0.132203 0 0 255
0.191707 0.085600 -0.180044 127 0 127
-0.169030 -0.251112 0.258373 0 127 127
0.046250 0.210775 0.018075 0 0 255
-0.235368 -0.293643 -0.081288 153 76 0
0.061021 -0.329486 0.050127 153 0 76
0.465551 0.225429 -0.094103 0 0 255
0.189217 0.254739 -0.109540 0 0 255
-0.934515 -0.258582 -0.108819 76 0 153
-0.449522 0.225429 -0.043315 0 0 255
-0.459627 0.254739 -0.015141 0 0 255
-0.033744 0.225429 0.151874 0 0 255
-0.875043 0.024366 -0.033940 76 0 153
-0.201491 0.034855 0.125447 0 0 255
-0.101820 0.141154 -0.180044 127 0 127
-0.220714 -0.008450 0.121457 153 76 0
-0.698162 0.242992 0.154570 0 0 255
0.020917 -0.136700 -0.032276 76 0 153
-0.235368 -0.169331 0.011932 153 76 0
0.036869 0.051490 -0.180044 127 0 127
-0.583197 0.254739 -0.137554 0 0 255
-0.220714 -0.309487 -0.127572 153 76 0
0.056869 -0.267442 0.258373 0 127 127
-0.875043 0.164474 0.139909 76 0 153
0.290956 0.225429 0.048766 0 0 255
-0.085845 -0.045073 -0.075019 0 255 0
-0.102714 -0.063606 -0.180044 127 0 127
0.461205 0.225429 0.047737 0 0 255
0.123213 -0.101921 -0.000304 127 127 0
0.106175 -0.329486 0.221249 153 76 0
0.871473 0.183750 -0.105170 153 0 76
0.292747 0.254739 -0.102160 0 0 255
0.024464 -0.268037 -0.032276 76 0 153
0.102348 -0.267861 0.258373 0 127 127
0.131095 0.086799 -0.138184 153 76 0
-0.701736 0.254739 0.046829 0 0 255
-0.126749 0.155575 -0.138184 153 76 0
-0.220714 -0.044979 -0.021724 153 76 0
0.143194 -0.329486 -0.023265 153 0 76
0.087290 -0.070920 -0.180044 127 0 127
0.930945 -0.105772 -0.133208 153 0 76
0.347150 0.225429 0.041723 0 0 255
-0.874039 0.225429 -0.042695 76 0 153
0.871473 -0.094124 -0.133280 153 0 76
0.236477 -0.017153 -0.001074 76 0 153
0.930945 0.173429 -0.066652 153 0 76
-0.116093 -0.076553 -0.065249 0 255 0
0.452067 0.225429 0.103834 0 0 255
0.207670 -0.347322 -0.084868 153 0 76
-0.934515 -0.269582 -0.068297 76 0 153
0.221822 -0.049933 0.023073 255 0 0
0.010164 -0.057031 0.215631 204 51 127
0.171480 -0.347322 -0.092591 153 0 76
-0.235368 -0.013192 0.100973 153 76 0
0.871473 -0.245202 -0.053159 153 0 76
-0.080448 -0.072541 0.215631 204 51 127
0.863495 0.225429 -0.140197 153 0 76
0.287395 0.225429 0.013064 0 0 255
-0.140055 -0.057404 0.215631 204 51 127
-0.220714 -0.349174 -0.035135 153 0 76
-0.191949 0.158098 0.152465 76 153 0
0.053371 -0.347322 -0.134749 153 0 76
-0.720076 0.254739 0.130915 0 0 255
-0.402504 0.254739 0.064548 0 0 255
0.186703 0.210775 0.068479 0 0 255
0.373062 0.254739 -0.090038 0 0 255
-0.235368 -0.273222 -0.010529 153 76 0
-0.187652 0.029721 -0.065249 0 255 0
-0.371811 0.225429 0.038237 0 0 255
0.169065 0.123762 0.162235 76 153 0
0.871473 -0.006756 -0.127733 153 0 76
0.916600 0.223714 0.139915 0 0 255
0.197047 0.210775 0.039139 153 0 76
-0.875043 0.160528 -0.126127 76 0 153
-0.094799 -0.083760 0.225400 204 51 127
0.912905 -0.361976 0.086175 153 0 76
0.918363 0.225429 0.082001 153 0 76
0.202283 0.148460 -0.026783 153 0 76
-0.875585 -0.209480 -0.180044 76 0 153
0.149337 0.210775 -0.093065 0 0 255
-0.046503 0.077979 -0.046739 76 0 153
-0.199498 -0.090796 0.152327 127 127 0
-0.934515 0.137538 -0.160076 76 0 153
0.236477 0.178462 0.112848 76 0 153
-0.270096 0.254739 0.150570 0 0 255
-0.220714 -0.168801 0.125505 153 76 0
0.111834 -0.318495 0.126030 153 76 0
0.443336 0.254739 -0.042555 0 0 255
-0.601531 0.244501 -0.180044 0 0 255
0.086783 -0.332000 -0.180044 127 0 127
-0.031748 -0.300539 -0.180044 127 0 127
0.149278 0.066988 0.021024 76 0 153
0.062873 -0.285539 -0.032276 76 0 153
-0.485239 0.228035 0.154570 0 0 255
0.487386 0.254739 -0.150823 0 0 255
-0.199498 -0.047242 0.026280 0 0 255
-0.730460 0.225429 0.107797 0 0 255
0.221822 -0.226333 0.048348 76 0 153
-0.098814 -0.090930 0.126704 127 127 0
-0.111123 -0.334710 0.012307 153 76 0
-0.151684 -0.253190 -0.042046 76 0 153
0.028830 -0.347322 -0.107025 153 0 76
-0.852020 0.225429 0.026916 0 0 255
-0.515374 0.254739 0.081161 0 0 255
0.930945 0.201286 -0.097662 0 0 255
-0.934515 -0.113781 -0.082892 76 0 153
-0.875043 0.090232 -0.018125 76 0 153
0.507688 0.254739 0.023854 0 0 255
-0.111878 -0.334710 -0.161472 153 0 76
0.166099 -0.291694 0.258373 0 127 127
-0.220714 0.130964 -0.134168 76 0 153
0.098317 -0.090930 0.071244 127 127 0
0.871473 -0.185388 0.017610 153 0 76
0.019106 0.001771 -0.180044 127 0 127
-0.220714 -0.169389 -0.096757 153 76 0
0.221822 -0.293042 -0.011640 76 153 0
-0.114551 0.254739 -0.158486 0 0 255
-0.098351 0.112275 -0.180044 127 0 127
-0.714783 0.254739 -0.129113 0 0 255
-0.533896 0.225429 0.110154 0 0 255
0.081259 0.066988 -0.095059 76 0 153
0.871473 -0.169298 0.083623 153 0 76
-0.759478 0.225429 0.134995 0 0 255
0.871473 0.192133 0.043413 153 0 76
0.911845 0.254739 0.107952 0 0 255
0.077370 -0.295099 -0.180044 127 0 127
0.017097 -0.013351 0.215631 204 51 127
-0.028181 -0.347322 -0.020401 153 0 76
-0.704315 0.225429 -0.096772 0 0 255
-0.220714 0.154393 0.134852 153 76 0
0.236477 0.172599 -0.121598 76 0 153
-0.934515 -0.083810 -0.177292 76 0 153
0.138955 -0.009458 0.225400 204 51 127
0.930945 -0.134395 -0.170628 153 0 76
-0.469277 0.254739 0.089170 0 0 255
0.096542 -0.334710 0.058973 153 0 76
-0.226384 -0.290473 -0.180044 127 0 127
0.508859 0.225429 -0.042417 0 0 255
0.177389 -0.057158 0.225400 204 51 127
0.069705 0.077979 0.018254 76 0 153
0.206883 0.034855 0.036239 255 0 0
-0.125204 -0.318495 0.202318 153 76 0
0.184214 -0.318495 0.129237 153 76 0
0.221822 -0.278410 -0.167142 127 0 127
0.399780 0.225429 -0.034776 0 0 255
-0.199498 -0.047732 0.104333 0 0 255
0.056945 -0.264956 -0.175159 127 0 127
-0.212276 0.000340 -0.180044 127 0 127
-0.076762 -0.170065 0.258373 0 127 127
-0.199032 -0.101921 0.012318 127 127 0
-0.203429 -0.005253 -0.075019 0 255 0
-0.167407 -0.329486 0.156218 153 76 0
0.479303 0.225429 -0.150448 0 0 255
-0.052256 -0.098571 0.225400 204 51 127
0.070834 -0.110292 -0.180044 127 0 127
-0.116864 -0.186312 -0.032276 76 0 153
0.930945 0.030555 0.124790 153 0 76
0.058664 0.225429 0.143092 0 0 255
-0.875043 -0.122574 -0.062997 76 0 153
-0.042045 -0.329486 0.010155 153 76 0
0.221822 -0.359176 0.081011 76 0 153
0.687349 0.225429 0.069111 0 0 255
0.103886 0.203764 0.159347 76 153 0
-0.391729 0.225429 -0.141480 0 0 255
-0.075458 0.210775 -0.123558 0 0 255
0.202283 -0.145829 0.019894 76 153 0
0.005688 -0.060065 -0.075019 0 255 0
0.930945 0.194049 -0.053986 153 0 76
-0.228785 0.190495 0.139915 153 76 0
-0.771304 0.254739 -0.152298 0 0 255
0.409885 0.245765 0.154570 0 0 255
-0.139510 0.254739 0.123909 0 0 255
0.871473 -0.211659 -0.136766 153 0 76
0.185298 0.234436 -0.180044 0 0 255
0.687962 0.254739 -0.085455 0 0 255
-0.199498 -0.280382 0.197851 153 0 76
-0.121808 0.020588 0.225400 204 51 127
-0.891140 -0.361976 -0.006019 76 0 153
0.112088 0.093655 0.152465 76 153 0
-0.066284 -0.334710 -0.054562 153 0 76
-0.245469 0.225429 0.131591 0 0 255
0.594285 0.254739 0.064844 0 0 255
-0.193954 0.016828 0.225400 204 51 127
-0.101022 -0.255390 -0.042046 76 0 153
-0.206566 -0.288062 -0.042046 153 0 76
0.930945 0.117680 0.135168 153 0 76
0.047334 -0.329486 0.160022 153 76 0
-0.197645 -0.101921 0.135613 127 127 0
0.202283 -0.141551 0.232494 76 153 0
0.182931 -0.207785 -0.032276 76 0 153
-0.875043 -0.313446 -0.120029 76 0 153
-0.209267 -0.246804 0.087814 153 0 76
-0.199498 -0.029914 -0.040884 0 0 255
0.136329 -0.170647 -0.175159 127 0 127
-0.235368 -0.201364 -0.138071 153 76 0
0.930945 0.126978 0.022661 153 0 76
-0.235368 -0.064664 -0.079665 153 76 0
-0.235368 0.022292 -0.177196 153 76 0
-0.909524 0.233833 0.154570 0 0 255
0.125233 -0.334710 0.028786 153 0 76
0.006220 -0.318495 0.185585 153 76 0
-0.135366 0.210775 0.061847 0 0 255
0.195089 -0.230403 -0.032276 76 0 153
-0.060621 -0.329486 0.160132 153 76 0
0.236477 -0.350301 0.050383 76 0 153
-0.699092 0.225429 0.133796 0 0 255
-0.815342 0.225429 -0.159850 0 0 255
-0.235368 -0.141406 -0.060627 153 76 0
-0.235368 -0.066135 -0.147644 153 76 0
0.076994 0.210775 -0.035911 0 0 255
-0.199498 0.154605 -0.116574 153 76 0
-0.637354 0.225429 0.150483 0 0 255
-0.134559 0.014102 -0.075019 0 255 0
0.236477 -0.100680 0.051944 76 0 153
-0.772994 0.254739 0.081455 0 0 255
0.734472 0.225429 0.043799 0 0 255
-0.934515 -0.010401 0.002647 76 0 153
0.430946 0.243969 0.154570 0 0 255
-0.432415 0.225429 0.052842 0 0 255
-0.057873 -0.329486 0.098720 153 0 76
-0.932846 0.254739 -0.023912 0 0 255
0.212053 0.096525 -0.100094 76 0 153
-0.035644 -0.329486 0.073731 153 76 0
0.871473 0.152366 0.023816 153 0 76
0.930945 0.178037 -0.027136 153 0 76
0.871473 -0.187434 -0.123169 153 0 76
-0.875043 -0.090714 0.089387 76 0 153
0.062181 -0.334710 -0.162737 127 0 127
0.930945 -0.342633 -0.052563 153 0 76
0.221822 -0.077482 0.099960 76 0 153
0.930945 -0.236867 -0.029026 153 0 76
0.002288 -0.289965 -0.042046 76 0 153
-0.110354 0.254739 0.098990 0 0 255
-0.235368 -0.011236 -0.069266 153 76 0
-0.660154 0.254739 0.090101 0 0 255
-0.116762 -0.151838 0.248604 0 127 127
-0.199498 0.103032 0.098767 76 0 153
0.240118 0.225429 -0.041699 0 0 255
-0.099273 -0.347322 -0.078869 153 0 76
-0.199498 -0.311098 0.180271 153 0 76
-0.808019 0.225429 0.083919 0 0 255
0.548488 0.254739 -0.065950 0 0 255
-0.220951 0.254739 0.097021 0 0 255
-0.387007 0.254739 -0.087906 0 0 255
0.212053 -0.227996 0.207058 76 153 0
-0.199498 -0.237548 0.070346 153 0 76
0.143346 -0.022261 -0.075019 0 255 0
0.202283 0.012752 -0.057453 255 0 0
0.432529 0.254739 -0.105470 0 0 255
0.167622 -0.031206 -0.175159 127 0 127
0.174062 0.066988 -0.009833 153 0 76
-0.934515 0.012053 -0.155302 76 0 153
0.853630 0.254739 -0.079937 0 0 255
-0.199498 0.198240 -0.034364 76 0 153
-0.235368 0.085537 0.053796 153 76 0
-0.934515 -0.253638 0.025977 76 0 153
0.131230 -0.334710 -0.077925 153 0 76
-0.060994 0.066988 0.140775 76 0 153
-0.934515 -0.057156 -0.138281 76 0 153
-0.235368 0.208381 -0.065919 0 0 255
-0.875043 0.145107 0.011212 76 0 153
0.536935 0.254739 -0.008305 0 0 255
0.236477 -0.063316 -0.084912 76 0 153
-0.887546 0.106559 -0.180044 76 0 153
-0.875043 -0.269252 -0.146496 76 0 153
0.745846 0.243262 -0.180044 0 0 255
-0.103152 -0.090930 0.038019 127 127 0
-0.064823 0.254739 0.090771 0 0 255
0.509795 0.254739 -0.096106 0 0 255
-0.164647 0.119555 0.162235 76 153 0
-0.081418 -0.101921 -0.075004 127 127 0
0.871473 -0.043863 0.126563 153 0 76
-0.934515 -0.287725 0.001782 76 0 153
0.662749 0.225429 0.137665 0 0 255
-0.100421 -0.334710 0.081914 153 76 0
-0.934515 -0.317441 0.048527 76 0 153
0.195778 -0.329486 0.158667 153 76 0
0.871473 -0.076431 -0.043582 153 0 76
-0.793531 0.225429 -0.131801 0 0 255
0.116880 -0.329486 0.164348 153 76 0
-0.934515 -0.298445 -0.126854 76 0 153
0.088381 -0.329486 0.022825 153 0 76
0.871473 0.173016 -0.072253 153 0 76
0.345928 0.225429 -0.140352 0 0 255
0.202283 0.144938 -0.048838 153 0 76
-0.199498 0.013823 -0.021672 0 0 255
0.114960 0.066862 -0.180044 127 0 127
0.249854 0.254739 0.006254 0 0 255
-0.160642 -0.347322 -0.112034 153 0 76
-0.199498 0.167655 0.034374 76 0 153
-0.235368 -0.280628 -0.031699 153 76 0
0.212053 0.018423 -0.039759 76 0 153
-0.235368 0.050313 0.027557 153 76 0
-0.802757 0.254739 -0.165059 0 0 255
0.652214 0.254739 0.145667 0 0 255
-0.916800 0.254739 0.003936 0 0 255
-0.875043 -0.183101 -0.106756 76 0 153
0.002102 -0.271087 0.258373 0 127 127
0.221822 0.016542 -0.090644 76 0 153
0.869716 0.254739 -0.008060 0 0 255
-0.209267 0.016842 0.185861 0 0 255
-0.529134 0.254739 0.103199 0 0 255
-0.525340 0.254739 0.003049 0 0 255
-0.087016 -0.334710 -0.132186 153 0 76
0.091485 -0.139197 -0.175159 127 0 127
-0.220714 0.195212 0.106092 76 0 153
-0.934515 -0.125542 -0.163569 76 0 153
-0.220714 0.064986 -0.140294 153 76 0
0.871473 -0.147832 -0.133419 153 0 76
-0.235368 0.214565 -0.150718 0 0 255
-0.117324 -0.329486 0.172512 153 76 0
0.078422 -0.101921 0.085622 127 127 0
0.231230 -0.361976 -0.116770 76 0 153
0.128811 -0.323832 -0.180044 127 0 127
-0.188267 0.077979 -0.030692 76 0 153
0.914220 -0.342852 0.139915 153 0 76
-0.220714 -0.054910 -0.105273 153 76 0
0.156768 -0.347322 -0.058534 153 0 76
0.930945 -0.119448 0.043792 153 0 76
-0.166737 -0.185856 -0.180044 127 0 127
-0.894348 -0.361976 -0.143925 76 0 153
-0.081049 0.151922 -0.175159 127 0 127
-0.220714 -0.360814 -0.052551 153 0 76
-0.062585 -0.189922 0.258373 0 127 127
0.076322 0.254739 -0.069903 0 0 255
0.098058 0.254739 -0.026892 0 0 255
-0.532963 0.225429 -0.085496 0 0 255
-0.933500 0.235977 0.154570 0 0 255
-0.029269 0.066988 0.160401 76 153 0
-0.220714 -0.046875 0.068134 153 76 0
0.930945 -0.246275 -0.151086 153 0 76
-0.886453 -0.020120 -0.180044 76 0 153
-0.304075 0.254739 0.104952 0 0 255
-0.522511 0.246269 0.154570 0 0 255
0.221822 0.192968 -0.158209 76 0 153
0.212053 -0.310289 -0.030345 76 0 153
-0.456563 0.254739 0.108788 0 0 255
-0.140068 -0.334710 -0.077541 153 0 76
0.053870 0.066988 -0.120211 76 0 153
0.221822 -0.191612 0.064137 76 0 153
0.236477 0.029099 -0.152502 76 0 153
0.212053 0.157688 -0.011406 76 0 153
0.911836 -0.361976 0.033585 153 0 76
0.023487 -0.228235 -0.175159 127 0 127
-0.934515 0.044353 -0.126302 76 0 153
0.805147 0.254739 0.000053 0 0 255
-0.178650 -0.329486 0.123993 153 76 0
-0.199498 -0.026811 0.185587 0 0 255
0.496241 0.225429 0.145825 0 0 255
0.166142 0.024187 -0.175159 127 0 127
0.057999 0.077979 -0.044377 76 0 153
-0.934515 -0.346707 0.024492 76 0 153
-0.079347 -0.347322 -0.102918 153 0 76
0.830789 0.254739 -0.063171 0 0 255
-0.112836 -0.090930 0.096493 127 127 0
0.699222 0.225429 0.151512 0 0 255
-0.220714 0.028040 0.055187 153 76 0
-0.150660 0.077979 -0.072589 76 0 153
0.164107 0.254739 0.136962 0 0 255
0.930945 -0.096216 -0.095240 153 0 76
0.647189 0.254739 -0.017330 0 0 255
0.844927 0.254739 -0.120645 0 0 255
0.056812 -0.101921 0.049734 127 127 0
-0.156900 -0.219846 0.258373 0 127 127
0.221822 -0.220978 -0.012356 76 153 0
-0.058008 0.209804 -0.180044 0 0 255
-0.199498 0.113270 -0.014806 76 0 153
-0.875043 -0.273014 0.071411 76 0 153
0.194043 -0.289809 -0.042046 76 0 153
-0.131151 0.237424 -0.180044 0 0 255
0.170002 0.210775 0.001948 0 0 255
0.196800 0.210775 0.008814 0 0 255
-0.003739 0.077979 -0.059704 76 0 153
0.930945 0.108383 -0.017035 153 0 76
0.506244 0.254739 0.047178 0 0 255
-0.199498 -0.213747 0.153194 153 0 76
-0.035793 -0.165288 0.248604 0 127 127
0.221822 -0.257654 0.126666 76 0 153
0.236477 -0.128435 -0.100583 76 0 153
-0.097696 -0.096894 -0.175159 127 0 127
0.236477 0.088005 0.010481 76 0 153
0.183225 -0.212934 -0.175159 127 0 127
0.236477 0.200992 0.090460 76 0 153
0.890136 -0.033830 0.139915 153 0 76
-0.337054 0.254739 0.103551 0 0 255
-0.875043 0.005064 -0.140010 76 0 153
0.352418 0.254739 -0.156355 0 0 255
-0.177261 0.210775 -0.049792 0 0 255
-0.067747 -0.015694 -0.075019 0 255 0
-0.122112 -0.101921 -0.015654 127 127 0
0.212053 -0.190198 0.167172 76 153 0
-0.098171 0.066988 0.104999 76 0 153
0.221822 0.020215 0.104376 76 0 153
-0.199498 -0.243749 -0.026118 153 0 76
0.424785 0.239219 -0.180044 0 0 255
0.086206 0.094481 -0.175159 127 0 127
-0.875043 0.071943 0.003862 76 0 153
-0.140450 0.254739 -0.102998 0 0 255
0.874788 -0.361976 -0.047285 153 0 76
0.930945 0.187787 -0.156191 153 0 76
-0.934515 -0.325719 0.003474 76 0 153
-0.060378 -0.026716 -0.180044 127 0 127
-0.636403 0.254739 -0.121265 0 0 255
-0.604649 0.225429 -0.037526 0 0 255
0.221822 0.026042 -0.012727 76 0 153
0.628847 0.246365 -0.180044 0 0 255
0.029373 -0.189954 -0.175159 127 0 127
0.039938 -0.051189 -0.065249 0 255 0
0.180296 0.152012 0.152465 76 153 0
-0.439940 0.254739 -0.139498 0 0 255
0.752701 0.254739 0.128669 0 0 255
0.217153 0.210775 -0.127547 153 76 0
0.221822 -0.060631 -0.107962 76 0 153
0.221822 0.153003 0.035442 76 0 153
0.016790 0.210775 0.133724 0 0 255
0.236477 -0.130297 -0.027654 76 0 153
0.236477 0.155903 -0.033515 76 0 153
-0.145901 0.110351 -0.128415 153 76 0
0.236477 -0.313749 0.069594 76 0 153
0.871473 -0.216803 0.073997 153 0 76
0.221822 0.166414 0.104870 76 0 153
0.871473 0.058932 -0.025259 153 0 76
0.221822 0.083514 0.104148 76 0 153
-0.301747 0.254739 -0.080494 0 0 255
0.656071 0.254739 0.068493 0 0 255
-0.080796 0.031290 -0.180044 127 0 127
-0.161342 -0.041829 0.215631 204 51 127
0.412142 0.225429 0.053712 0 0 255
0.221822 -0.129693 -0.068898 76 0 153
0.236477 0.054334 -0.137121 76 0 153
-0.453378 0.254739 0.069124 0 0 255
-0.887662 -0.272578 -0.180044 76 0 153
-0.892761 -0.140544 0.139915 76 0 153
-0.105792 -0.316026 0.248604 0 127 127
0.186244 -0.347322 -0.118016 153 0 76
-0.100368 0.102942 0.162235 76 153 0
-0.087885 -0.284384 -0.042046 76 0 153
-0.199498 0.085511 0.044961 76 0 153
-0.199498 -0.062493 -0.036794 0 0 255
0.871473 0.022669 -0.016742 153 0 76
-0.235368 -0.167954 0.088647 153 76 0
-0.060942 -0.334710 0.061695 153 0 76
-0.315144 0.254739 -0.000670 0 0 255
0.202283 0.115801 0.004537 153 0 76
0.130026 -0.334710 0.001169 153 0 76
-0.199951 -0.347322 -0.017004 153 0 76
0.236477 -0.188317 -0.115810 76 0 153
0.901699 0.225429 -0.116045 153 0 76
-0.572815 0.254739 -0.088267 0 0 255
-0.934515 -0.342842 -0.080570 76 0 153
-0.949170 0.225508 0.104285 0 0 255
0.871473 -0.119673 0.011075 153 0 76
-0.617850 0.254739 0.001623 0 0 255
0.901453 0.225429 0.044359 153 0 76
0.173375 -0.318495 0.196265 153 76 0
0.871473 -0.045575 0.061458 153 0 76
-0.739023 0.254739 0.063006 0 0 255
0.236477 -0.139117 0.056612 76 0 153
0.268534 0.225429 0.103512 0 0 255
-0.220714 -0.131373 0.062468 153 76 0
-0.058866 -0.281043 0.258373 0 127 127
0.474160 0.225429 0.153108 0 0 255
0.236477 -0.293921 -0.107145 76 0 153
0.871473 -0.345283 0.136763 153 0 76
-0.051966 -0.128675 -0.180044 127 0 127
0.059096 0.028620 -0.175159 127 0 127
0.037840 0.014391 0.225400 204 51 127
0.236477 -0.266922 -0.092500 76 0 153
0.734023 0.225429 -0.119503 0 0 255
0.086189 -0.203969 0.248604 0 127 127
-0.091614 -0.101921 -0.023499 127 127 0
-0.135474 0.077979 -0.033264 76 0 153
-0.934515 -0.311826 -0.143093 76 0 153
-0.934515 -0.061806 0.053967 76 0 153
-0.086045 0.117584 0.152465 76 153 0
0.462758 0.254739 -0.036537 0 0 255
-0.944486 0.254739 0.097296 0 0 255
-0.235368 0.119858 0.053639 153 76 0
0.750725 0.225429 -0.144580 0 0 255
0.221822 -0.036748 -0.103434 76 0 153
-0.934515 0.108594 0.076637 76 0 153
0.024826 0.200031 0.162235 76 153 0
0.202283 -0.142713 0.082296 76 153 0
0.930945 0.132239 -0.079596 153 0 76
0.212053 0.160048 0.131767 153 0 76
0.930945 -0.201114 -0.028370 153 0 76
0.125287 -0.310070 -0.032276 76 0 153
-0.067203 -0.294846 -0.180044 127 0 127
-0.209267 -0.275980 0.099735 153 0 76
0.236477 -0.233522 -0.052426 76 0 153
-0.362375 0.225429 -0.106991 0 0 255
-0.235368 -0.125853 0.087233 153 76 0
0.027641 -0.347322 -0.036959 153 0 76
-0.204724 0.254739 0.111730 0 0 255
-0.169972 -0.045688 -0.175159 127 0 127
-0.934515 0.168933 -0.171911 76 0 153
0.094645 -0.334710 -0.044950 153 0 76
-0.439647 0.225429 0.014270 0 0 255
-0.128774 0.141552 -0.180044 127 0 127
-0.875043 -0.300311 0.016932 76 0 153
-0.929391 0.254739 -0.097428 0 0 255
-0.890619 -0.344556 -0.180044 76 0 153
0.221822 -0.158461 -0.163250 76 0 153
-0.235368 -0.070762 0.067494 153 76 0
-0.597577 0.254739 0.103345 0 0 255
-0.101459 -0.101921 0.193836 127 127 0
0.054154 -0.038542 -0.175159 127 0 127
-0.086803 -0.329486 0.258335 153 76 0
-0.235368 -0.159460 0.059279 153 76 0
0.208350 0.097537 -0.138184 153 0 76
-0.039863 -0.186950 -0.180044 127 0 127
-0.169864 -0.294430 0.248604 0 127 127
-0.292658 0.225429 -0.063317 0 0 255
0.220220 -0.334710 -0.165610 127 0 127
-0.875043 0.035831 -0.150800 76 0 153
0.093709 -0.347322 0.076808 153 0 76
-0.169033 0.077979 -0.060885 76 0 153
-0.042278 0.066988 -0.092982 76 0 153
-0.029431 -0.278887 0.258373 0 127 127
0.202283 -0.303391 0.053786 76 153 0
0.022265 0.226763 -0.180044 0 0 255
0.662863 0.254739 -0.046033 0 0 255
0.212053 -0.062869 0.148669 255 0 0
0.236477 -0.099483 -0.109644 76 0 153
0.102785 -0.090930 0.031207 127 127 0
-0.233410 0.254739 0.112468 0 0 255
0.221822 0.102863 -0.115701 76 0 153
-0.220714 0.015103 0.019127 0 0 255
0.036079 0.066988 -0.072771 76 0 153
0.836148 0.254739 -0.102257 0 0 255
-0.655127 0.254739 0.051322 0 0 255
-0.218559 -0.347322 -0.140650 153 0 76
-0.235368 -0.039761 0.010782 153 76 0
0.569486 0.225429 0.010335 0 0 255
0.206085 -0.329486 0.093030 153 0 76
0.930945 -0.181990 0.060967 153 0 76
0.114328 -0.192486 -0.180044 127 0 127
-0.875043 -0.258523 -0.008763 76 0 153
0.781405 0.254739 0.091384 0 0 255
0.202283 -0.224865 0.152043 76 153 0
0.844560 0.225429 -0.018498 153 0 76
-0.028056 0.066988 -0.137678 153 76 0
0.147432 -0.334710 0.075142 153 76 0
-0.934515 -0.025544 -0.061972 76 0 153
-0.934515 -0.183757 -0.089472 76 0 153
0.221822 -0.155009 -0.093106 76 0 153
-0.934515 -0.188380 -0.115350 76 0 153
0.249376 0.254739 0.032763 0 0 255
-0.235368 -0.233120 0.039401 153 76 0
-0.780283 0.225429 0.135785 0 0 255
0.236477 0.030939 -0.084057 76 0 153
0.021420 -0.090930 0.149073 127 127 0
0.212053 -0.180102 0.024105 76 0 153
0.202283 -0.283361 0.207677 76 153 0
0.911041 -0.361976 -0.170445 153 0 76
0.708521 0.225429 -0.063834 0 0 255
0.236477 -0.267946 -0.044285 76 0 153
-0.522020 0.254739 -0.034907 0 0 255
0.236477 -0.337481 0.017825 76 0 153
0.070526 -0.318495 0.209823 153 76 0
-0.043705 0.210775 0.061062 0 0 255
-0.136120 -0.241224 -0.032276 76 0 153
0.297430 0.225429 -0.161408 0 0 255
0.157662 -0.347322 0.109998 153 0 76
-0.220149 0.221570 0.139915 0 0 255
0.871473 -0.331512 0.057720 153 0 76
0.495193 0.225429 -0.091881 0 0 255
-0.179814 -0.311392 0.258373 0 127 127
-0.482363 0.254739 -0.008296 0 0 255
0.455672 0.254739 -0.122729 0 0 255
-0.933989 -0.361976 -0.020957 76 0 153
0.932388 0.254739 0.142948 0 0 255
0.225233 -0.281677 0.139915 76 153 0
0.777082 0.254739 -0.025102 0 0 255
-0.934515 -0.020883 -0.043014 76 0 153
-0.235368 0.169075 -0.001410 153 76 0
0.930945 0.158645 0.138944 153 0 76
0.889194 -0.361976 0.115306 153 0 76
-0.875043 -0.309008 0.073198 76 0 153
0.045979 0.192228 -0.175159 0 0 255
0.691214 0.225429 -0.029067 0 0 255
0.930945 0.208993 -0.162117 153 0 76
-0.096367 0.210775 -0.023396 0 0 255
-0.014598 -0.318495 -0.029311 76 0 153
-0.173920 0.210775 0.122322 0 0 255
-0.060181 0.066988 0.071368 76 0 153
0.212053 -0.020361 -0.030352 76 0 153
0.366925 0.225429 -0.066231 0 0 255
0.930945 -0.137759 0.135951 153 0 76
-0.235368 0.139609 -0.028617 153 76 0
-0.235368 -0.308485 -0.053779 153 76 0
0.367721 0.225429 0.049034 0 0 255
0.871473 0.094845 0.028810 153 0 76
-0.875043 -0.095305 0.121273 76 0 153
0.206043 0.254739 0.092523 0 0 255
0.613544 0.252176 0.154570 0 0 255
0.507884 0.225429 -0.063715 0 0 255
0.041344 -0.318495 0.000356 153 76 0
-0.220714 0.094972 0.078917 153 76 0
-0.606952 0.254739 0.126456 0 0 255
0.236477 -0.276678 -0.115796 76 0 153
-0.603421 0.225429 0.131713 0 0 255
0.080661 0.077979 0.116305 76 0 153
0.707728 0.225429 0.074538 0 0 255
-0.883646 0.254739 -0.159989 0 0 255
-0.948855 0.254739 -0.056432 0 0 255
0.871473 -0.319660 -0.174024 153 0 76
0.236477 -0.222302 0.004790 76 0 153
0.189156 -0.327714 -0.180044 127 0 127
-0.220714 0.067847 0.001304 153 76 0
-0.043562 -0.334710 -0.132444 153 0 76
0.123060 0.066988 0.049949 76 0 153
-0.017340 0.077979 0.028554 76 0 153
-0.021585 0.228651 -0.180044 0 0 255
-0.126858 0.210775 0.036235 0 0 255
0.175646 -0.334710 0.029611 153 76 0
0.221822 -0.274349 -0.144649 76 0 153
0.105215 0.254739 -0.129067 0 0 255
0.077440 -0.034184 -0.175159 127 0 127
0.134630 -0.101921 0.158380 127 127 0
-0.235368 0.104026 -0.052245 153 76 0
-0.647202 0.254739 -0.096788 0 0 255
0.221822 -0.260676 -0.106197 76 0 153
0.221822 -0.045608 0.087234 76 0 153
0.930945 0.070438 -0.081611 153 0 76
-0.141832 0.210775 -0.091965 0 0 255
-0.220714 -0.266688 -0.109703 153 76 0
0.221822 -0.296071 0.029753 76 0 153
0.930945 0.002045 -0.049242 153 0 76
-0.181796 0.176565 -0.128415 153 76 0
0.122263 -0.334710 -0.058798 76 0 153
-0.027448 -0.090930 0.083118 127 127 0
0.196654 -0.101921 0.205218 127 127 0
-0.000096 -0.189213 -0.180044 127 0 127
0.105350 0.161941 -0.175159 127 0 127
-0.427902 0.254739 -0.010947 0 0 255
0.930945 0.043603 -0.137042 153 0 76
0.221822 0.011379 -0.115861 76 0 153
-0.199498 -0.297922 0.120666 153 0 76
0.116814 0.066988 -0.117139 76 0 153
-0.220714 -0.354008 0.060016 153 0 76
0.930945 -0.163804 -0.078595 153 0 76
0.476977 0.225429 -0.059664 0 0 255
-0.832793 0.240115 -0.180044 0 0 255
-0.002205 0.210775 0.137826 0 0 255
-0.235368 0.010180 -0.014651 153 76 0
0.711036 0.254739 0.028855 0 0 255
-0.792919 0.225429 0.051313 0 0 255
0.871473 -0.036884 -0.058943 153 0 76
0.193341 0.254739 0.010631 0 0 255
0.169182 -0.148142 -0.042046 76 0 153
0.930945 -0.208196 -0.152969 153 0 76
0.930945 0.159849 -0.035407 153 0 76
0.691072 0.254739 0.004931 0 0 255
0.766770 0.254739 -0.157167 0 0 255
0.039721 0.254739 0.059416 0 0 255
-0.199498 -0.050442 0.165327 0 0 255
0.871473 0.152677 -0.106270 153 0 76
0.871473 0.210351 0.005453 153 0 76
-0.199498 0.181063 0.089772 76 0 153
0.255245 0.254739 -0.103086 0 0 255
0.181553 0.064551 -0.180044 127 0 127
0.698677 0.225429 -0.168789 0 0 255
0.003951 -0.347322 0.016025 153 0 76
0.522644 0.225429 -0.161963 0 0 255
0.871473 -0.269892 0.103232 153 0 76
-0.085769 0.077979 0.085295 76 0 153
-0.748578 0.225429 0.014750 0 0 255
0.212053 0.128414 0.140878 153 0 76
0.221822 0.146765 -0.142299 76 0 153
-0.187853 -0.129231 -0.042046 153 0 76
0.333851 0.225429 0.059281 0 0 255
-0.127715 -0.334710 -0.093052 153 0 76
-0.192313 -0.347322 0.032088 153 0 76
-0.220714 -0.329304 0.134679 153 76 0
-0.002797 -0.334710 0.133125 153 0 76
0.149838 0.122870 0.152465 76 153 0
0.041710 -0.073913 0.215631 204 51 127
-0.209267 -0.306806 0.091914 153 76 0
-0.196705 -0.106106 -0.180044 127 0 127
-0.875043 -0.011508 -0.090501 76 0 153
0.236477 0.019952 -0.026187 76 0 153
0.135145 -0.318495 0.083220 153 76 0
-0.364323 0.225429 -0.051761 0 0 255
0.871473 -0.234498 -0.179708 153 0 76
0.152381 -0.255953 0.258373 0 127 127
-0.269271 0.254739 -0.133946 0 0 255
0.175146 -0.101921 -0.071731 0 255 0
-0.051733 -0.206054 -0.175159 127 0 127
-0.949170 0.253945 0.024372 0 0 255
-0.199498 0.172528 -0.077074 76 0 153
-0.372904 0.254739 -0.032546 0 0 255
-0.875043 -0.165287 -0.096540 76 0 153
-0.256571 0.254739 0.097892 0 0 255
-0.007310 -0.068884 0.215631 204 51 127
0.902109 0.254739 0.021327 0 0 255
-0.235368 -0.346603 -0.107965 153 76 0
0.212053 -0.284409 0.242021 76 153 0
0.419072 0.254739 -0.015242 0 0 255
-0.209267 -0.255027 0.239489 153 0 76
0.030889 -0.101921 0.178199 127 127 0
0.871473 0.202337 -0.153958 153 0 76
-0.175378 -0.269971 -0.032276 76 0 153
-0.875043 -0.070182 -0.129317 76 0 153
0.053754 0.210775 0.038577 0 0 255
0.478610 0.254739 -0.090479 0 0 255
-0.287991 0.227132 -0.180044 0 0 255
0.930945 -0.343393 0.007119 153 0 76
-0.875043 -0.329977 -0.017966 76 0 153
-0.256561 0.225429 -0.019329 0 0 255
0.172417 0.103951 -0.138184 153 76 0
0.131032 0.254739 -0.138775 0 0 255
0.003644 -0.318495 0.157724 153 76 0
0.006165 0.066988 0.149375 76 0 153
0.871473 0.180659 -0.169183 153 0 76
0.336839 0.254739 -0.036510 0 0 255
0.202283 0.086301 0.098331 153 0 76
0.057926 -0.335745 0.139915 153 0 76
-0.106495 -0.334710 -0.110114 153 0 76
-0.932898 0.254739 0.134067 0 0 255
0.202283 0.032284 -0.030150 255 0 0
-0.235368 -0.226765 0.007630 153 76 0
0.221295 -0.187210 -0.180044 127 0 127
-0.103889 0.077979 0.047817 76 0 153
-0.875043 0.183975 0.032209 76 0 153
0.200880 -0.329486 0.030036 153 76 0
0.864015 0.254739 -0.120591 0 0 255
0.033867 0.237356 0.154570 0 0 255
-0.063997 0.089807 -0.128415 153 76 0
0.211311 0.197805 -0.180044 0 0 255
-0.395143 0.254739 0.130300 0 0 255
0.050876 0.085536 0.152465 76 153 0
0.170444 -0.329486 -0.001774 153 0 76
0.930945 0.165050 -0.097568 153 0 76
-0.199498 0.164362 0.066800 76 0 153
0.930945 -0.305249 -0.141979 153 0 76
0.191266 -0.177052 -0.032276 76 0 153
-0.040842 -0.329486 0.132088 153 0 76
-0.677793 0.225429 -0.005871 0 0 255
-0.237416 0.254739 0.139208 0 0 255
0.871473 0.129955 0.000567 153 0 76
-0.110588 -0.347322 -0.022776 153 0 76
0.213489 0.141775 -0.175159 127 0 127
0.150899 -0.347322 -0.038275 153 0 76
0.076590 -0.329486 0.143323 153 0 76
0.206731 0.254739 -0.030642 0 0 255
-0.764671 0.225429 -0.097963 0 0 255
-0.060827 -0.007992 0.225400 204 51 127
-0.071683 -0.318495 0.173118 153 76 0
0.006139 -0.318495 -0.025926 76 0 153
0.236477 -0.001194 -0.081582 76 0 153
0.930945 -0.169847 -0.162359 153 0 76
-0.548398 0.225429 -0.031288 0 0 255
0.221822 -0.244214 0.078729 76 0 153
0.405511 0.225429 -0.053649 0 0 255
-0.073640 0.157788 -0.138184 153 76 0
0.762303 0.225429 0.017465 0 0 255
0.018373 -0.101921 0.105002 127 127 0
0.930945 -0.325585 -0.080498 153 0 76
-0.875043 -0.227659 -0.077383 76 0 153
0.356440 0.225429 -0.102920 0 0 255
-0.934515 0.047257 -0.053674 76 0 153
0.129986 0.210775 0.083815 0 0 255
0.838783 0.254739 0.135686 0 0 255
0.020740 0.066988 -0.085371 76 0 153
0.268897 0.254739 0.092617 0 0 255
-0.692917 0.225429 0.107502 0 0 255
0.711097 0.225429 -0.146927 0 0 255
0.221822 -0.251635 -0.140675 76 0 153
0.190927 -0.129206 0.254337 0 127 127
0.134370 -0.251648 -0.032276 76 0 153
-0.875043 -0.304462 0.137699 76 0 153
0.848135 0.225429 0.082852 153 0 76
-0.176059 -0.005096 -0.175159 127 0 127
-0.220714 0.018749 0.082706 153 76 0
-0.875043 0.164371 -0.017346 76 0 153
-0.238468 0.254739 -0.013975 0 0 255
0.930945 0.196178 -0.033528 153 0 76
0.052042 -0.101921 -0.029292 127 127 0
0.236477 -0.120559 -0.002698 76 0 153
-0.157423 -0.334710 0.101907 153 76 0
0.187014 -0.242319 0.248604 0 127 127
-0.030359 -0.285143 -0.042046 76 0 153
0.099663 0.129465 -0.175159 127 0 127
0.221822 -0.142080 0.022478 76 0 153
-0.227574 -0.361976 -0.159808 153 0 76
-0.235368 -0.227691 0.069032 153 76 0
0.871473 0.142361 -0.017815 153 0 76
0.184768 0.184275 0.152465 76 153 0
-0.910625 0.174460 0.139915 76 0 153
0.507308 0.254739 -0.051316 0 0 255
0.871473 -0.142684 -0.028141 153 0 76
-0.201106 0.034855 0.092170 0 0 255
0.221822 0.182587 -0.128581 153 0 76
0.221822 0.051787 -0.160846 76 0 153
-0.875043 0.161071 -0.157877 76 0 153
-0.156454 0.254739 0.082076 0 0 255
0.773742 0.225429 -0.105195 0 0 255
-0.235368 -0.245327 0.002498 153 76 0
-0.046224 0.210775 0.137406 0 0 255
0.190282 0.254739 0.076153 0 0 255
-0.082293 -0.347322 -0.172589 153 0 76
-0.133905 0.077979 0.006619 76 0 153
-0.041609 0.254739 -0.140809 0 0 255
-0.235368 0.066916 0.111037 153 76 0
-0.220714 0.203616 -0.055228 76 0 153
-0.220714 0.135435 0.004019 153 76 0
-0.875043 -0.123076 -0.101374 76 0 153
0.031385 -0.334710 -0.022005 153 0 76
0.055959 -0.083659 -0.180044 127 0 127
-0.199498 -0.209281 0.205356 153 0 76
-0.048227 -0.090930 0.188964 127 127 0
-0.199498 -0.012175 -0.048181 0 0 255
0.012078 -0.329486 0.117159 153 0 76
0.067884 -0.009369 0.215631 204 51 127
0.919614 0.225429 0.039727 153 0 76
-0.819318 0.225429 -0.132928 0 0 255
0.813310 0.225429 -0.036772 0 0 255
0.167053 0.081736 -0.128415 153 76 0
0.106676 -0.347322 0.121656 153 0 76
-0.235368 0.105076 0.085141 153 76 0
0.060352 0.146562 0.162235 76 153 0
0.871473 0.127777 -0.148836 153 0 76
0.055391 0.254739 -0.149958 0 0 255
-0.220714 -0.222749 -0.004624 153 0 76
0.345889 0.225429 0.135520 0 0 255
0.920499 0.225429 0.014130 153 0 76
0.871473 -0.120397 -0.092702 153 0 76
-0.209267 -0.317051 0.073850 153 0 76
0.208131 0.254739 0.045592 0 0 255
0.051062 -0.303821 -0.175159 127 0 127
0.202283 -0.204872 -0.009778 76 153 0
-0.083867 0.019038 0.225400 204 51 127
-0.220714 -0.011037 0.069343 153 76 0
-0.209267 -0.199142 0.107768 153 0 76
-0.001093 -0.169287 -0.180044 127 0 127
0.930945 0.214952 -0.134965 0 0 255
-0.092748 0.190075 0.152465 76 153 0
0.930945 -0.233139 -0.131226 153 0 76
0.871473 -0.165217 -0.057568 153 0 76
0.232099 0.254739 -0.017499 0 0 255
0.213434 -0.347322 0.066583 153 0 76
-0.184103 0.070697 0.162235 76 153 0
0.236477 0.125038 -0.161424 76 0 153
-0.220714 0.190633 -0.131750 153 76 0
0.072909 -0.318495 0.018953 153 76 0
-0.220714 -0.156679 -0.020315 153 76 0
0.019483 0.028700 -0.180044 127 0 127
-0.008853 0.025598 -0.180044 127 0 127
0.221822 -0.281685 -0.048339 76 0 153
0.044661 -0.002837 -0.065249 0 255 0
-0.002884 -0.347322 -0.131127 153 0 76
0.221822 0.188215 -0.057689 153 0 76
0.099625 0.077979 0.057362 76 0 153
-0.169156 0.191177 -0.175159 127 0 127
-0.235368 0.217298 -0.039468 153 76 0
-0.053724 0.015864 -0.075019 0 255 0
0.186076 0.239330 0.154570 0 0 255
0.873892 0.254739 0.079558 0 0 255
-0.242706 0.225429 0.038194 0 0 255
-0.199498 -0.090252 0.181789 127 127 0
-0.109815 0.210775 -0.118349 0 0 255
0.645067 0.254739 0.051289 0 0 255
0.161397 -0.090930 0.138672 127 127 0
-0.756388 0.225429 -0.126474 0 0 255
-0.156962 -0.100978 -0.175159 127 0 127
-0.171125 -0.346657 0.139915 153 0 76
0.219050 0.011954 -0.175159 127 0 127
-0.220714 -0.040974 0.095366 153 76 0
-0.928065 -0.361976 -0.139093 76 0 153
-0.095199 -0.347322 0.114969 153 0 76
-0.209267 0.183666 -0.002379 153 76 0
-0.744311 0.254739 -0.037294 0 0 255
0.221822 0.066441 0.115068 76 0 153
0.303132 0.254739 0.144561 0 0 255
-0.875043 -0.169455 -0.167910 76 0 153
-0.127253 -0.347322 0.139884 153 0 76
0.131020 0.181161 0.152465 76 153 0
0.871473 0.041549 0.121493 153 0 76
-0.235368 0.012529 -0.150531 153 76 0
0.061220 -0.101921 0.165400 127 127 0
0.487475 0.225429 -0.130809 0 0 255
0.203870 -0.347322 0.018196 153 0 76
-0.025742 0.066988 0.131759 76 0 153
-0.145231 0.183291 -0.138184 153 76 0
0.248495 0.225429 0.057208 0 0 255
-0.161298 -0.086274 -0.065249 0 255 0
-0.102868 0.221702 0.139915 0 0 255
-0.918703 -0.116688 -0.180044 76 0 153
0.295614 0.254739 0.003679 0 0 255
0.930945 -0.273519 0.092665 153 0 76
-0.512228 0.225429 0.113494 0 0 255
0.202283 -0.222789 0.058998 76 153 0
-0.199498 0.130763 -0.100811 76 0 153
-0.235368 -0.281631 0.062533 153 76 0
-0.949170 0.241544 0.138189 0 0 255
