ply
format ascii 1.0
element vertex 1294
property float x
property float y
property float z
property uchar red
property uchar green
property uchar blue
end_header
-0.068737 -0.085255 -0.274079 255 0 0
-0.004081 0.806559 0.037393 255 0 0
0.343611 -0.563602 -0.301641 153 0 76
-0.049408 0.495243 0.810617 255 0 0
-0.102122 0.640554 -0.074312 255 0 0
-0.074257 0.806027 0.022756 255 0 0
-0.000645 0.865105 0.196765 255 0 0
-0.067762 0.880323 0.267729 255 0 0
0.343611 -0.457685 -0.147446 153 0 76
-0.105141 0.396361 -0.204429 255 0 0
0.317133 -0.513814 -0.325505 153 0 76
-0.047614 0.718980 0.514867 255 0 0
-0.101422 0.162174 -0.238411 255 0 0
-0.028413 0.498287 0.681331 255 0 0
-0.110368 -0.169257 -0.155054 76 153 0
-0.046617 -0.053911 -0.154723 255 0 0
-0.064602 0.563532 0.670930 255 0 0
0.007090 -0.802609 -0.318295 76 153 0
-0.034473 0.755552 -0.081805 255 0 0
-0.013247 0.711219 0.043077 255 0 0
-0.004994 -0.116589 -0.166586 255 0 0
0.069880 -0.715614 -0.222363 76 153 0
0.014264 0.337395 0.814072 255 0 0
-0.050481 0.700213 -0.115421 255 0 0
0.068019 -0.671702 -0.239583 76 153 0
-0.095580 0.378500 -0.206360 255 0 0
-0.100777 0.302591 0.813149 255 0 0
0.009197 0.360478 -0.230506 255 0 0
-0.104447 0.789951 0.476902 255 0 0
0.058462 -0.859305 -0.325647 0 127 127
0.020873 0.447271 -0.189340 255 0 0
-0.087062 0.754765 0.591438 255 0 0
-0.081109 0.825341 0.119118 255 0 0
-0.004163 0.849209 0.358259 255 0 0
-0.004155 -0.815085 -0.076544 0 127 127
-0.083474 -0.853955 -0.318125 0 127 127
-0.141355 -0.815085 -0.300355 0 127 127
0.121044 -0.542911 -0.316088 153 0 76
0.069037 -0.803377 -0.197820 76 153 0
-0.132622 -0.412879 -0.151056 76 153 0
0.011264 0.072153 -0.250908 255 0 0
-0.002170 -0.635440 -0.322799 76 153 0
-0.058087 0.725026 0.502719 255 0 0
-0.102597 0.101839 -0.234630 255 0 0
-0.083098 0.673261 -0.129087 255 0 0
-0.054647 0.680886 0.711414 255 0 0
-0.095423 0.345083 -0.219506 255 0 0
-0.011885 0.450291 0.806088 255 0 0
0.013449 -0.672975 -0.315187 76 153 0
-0.105234 0.400859 0.775690 255 0 0
-0.149123 -0.855451 -0.113113 0 127 127
-0.038564 0.266323 0.730018 255 0 0
-0.034440 -0.415380 -0.330243 76 153 0
-0.049754 0.637092 0.595221 255 0 0
-0.016850 -0.815085 -0.293448 0 127 127
0.009625 0.814696 0.403271 255 0 0
0.057997 -0.801752 -0.270454 76 153 0
-0.071309 0.244719 0.837142 255 0 0
-0.089203 0.636950 -0.149380 255 0 0
0.000448 0.276231 0.838930 255 0 0
0.006867 0.278387 0.802815 255 0 0
-0.154469 -0.340142 -0.212833 76 153 0
0.004587 0.027116 -0.259607 255 0 0
-0.072026 0.508725 -0.128949 255 0 0
-0.105126 0.622710 0.676940 255 0 0
-0.001167 0.651621 0.586731 255 0 0
-0.023269 0.731625 0.109013 255 0 0
-0.010381 0.296852 -0.163153 255 0 0
-0.025231 0.820046 0.028222 255 0 0
-0.092435 0.366703 0.800216 255 0 0
-0.016650 0.771721 0.598814 255 0 0
0.015049 0.384802 0.806110 255 0 0
0.019848 0.803557 0.427903 255 0 0
-0.113629 -0.427613 -0.131555 76 153 0
-0.068335 0.448719 -0.243202 255 0 0
-0.103660 -0.167934 -0.203040 255 0 0
-0.000390 0.533397 -0.226273 255 0 0
0.252532 -0.390309 -0.264902 153 0 76
-0.077845 0.475524 0.699987 255 0 0
-0.017947 0.419676 -0.249519 255 0 0
-0.063192 0.652097 0.730811 255 0 0
0.097162 -0.521366 -0.109883 153 0 76
-0.009828 0.596210 -0.076954 255 0 0
0.253900 -0.352294 -0.220301 153 0 76
-0.094343 0.579100 -0.158828 255 0 0
0.028986 -0.536791 -0.319404 153 0 76
-0.033705 0.423659 -0.253508 255 0 0
-0.087088 0.366409 0.752416 255 0 0
-0.055275 -0.666117 -0.106825 76 153 0
-0.015138 -0.536789 -0.327192 76 153 0
-0.066327 0.333806 -0.159104 255 0 0
0.011101 0.769033 0.052766 255 0 0
0.343611 -0.536808 -0.168095 153 0 76
0.070969 -0.204972 -0.214998 76 153 0
-0.147596 -0.363272 -0.178809 76 153 0
-0.089776 0.741043 0.479915 255 0 0
0.010740 0.458618 -0.202921 255 0 0
-0.095253 0.775239 0.067158 255 0 0
-0.027823 0.771798 0.241362 255 0 0
-0.153197 -0.513336 -0.230790 76 153 0
-0.099623 0.816054 0.126858 255 0 0
-0.079255 0.707051 0.666124 255 0 0
0.016560 0.362824 0.757766 255 0 0
0.004977 0.695643 -0.021475 255 0 0
-0.046874 0.414671 -0.265947 255 0 0
0.020253 0.436771 0.756057 255 0 0
0.010964 0.774891 0.456483 255 0 0
-0.095127 0.698022 0.618553 255 0 0
-0.078082 0.532423 0.692746 255 0 0
-0.063377 0.373646 -0.270224 255 0 0
-0.057261 0.694609 0.532230 255 0 0
-0.004166 0.562449 0.669729 255 0 0
0.059824 -0.321773 -0.265520 76 153 0
0.093989 -0.408929 -0.295870 153 0 76
-0.034563 0.660209 0.714298 255 0 0
-0.002367 -0.693331 -0.323057 76 153 0
-0.104118 0.236374 0.790840 255 0 0
-0.105767 -0.169257 -0.141210 76 153 0
0.010799 0.786992 0.490293 255 0 0
-0.100559 0.240596 -0.241410 255 0 0
0.005070 0.607468 0.728203 255 0 0
-0.102389 -0.820394 -0.289635 0 127 127
-0.013101 -0.280273 -0.325903 76 153 0
0.108025 -0.826227 -0.218975 0 127 127
-0.096357 -0.129270 -0.249872 255 0 0
0.182227 -0.496554 -0.328547 153 0 76
-0.103246 0.665135 0.622501 255 0 0
-0.074098 0.833901 0.095384 255 0 0
0.069522 -0.626749 -0.211960 76 153 0
-0.151898 -0.567038 -0.239522 76 153 0
0.069875 -0.856990 -0.196245 0 127 127
0.009997 0.403047 0.740663 255 0 0
-0.102589 0.805018 0.322003 255 0 0
0.007308 0.511615 0.780510 255 0 0
-0.150163 -0.213737 -0.241797 76 153 0
0.014463 0.850245 0.309582 255 0 0
-0.103714 0.591165 -0.121801 255 0 0
0.004566 0.674164 0.664849 255 0 0
-0.008691 0.726748 0.649756 255 0 0
-0.082876 0.687257 -0.018807 255 0 0
-0.012059 0.684778 0.544264 255 0 0
-0.040766 0.291017 -0.154054 255 0 0
0.259601 -0.496999 -0.329312 153 0 76
-0.073445 0.811893 0.036437 255 0 0
-0.052028 0.885533 0.200052 255 0 0
-0.078594 0.617253 -0.052487 255 0 0
0.076089 -0.469382 -0.107801 153 0 76
-0.098550 0.727925 0.615676 255 0 0
-0.061893 0.851404 0.127296 255 0 0
0.018445 0.604957 0.719834 255 0 0
0.018727 0.439286 0.780708 255 0 0
-0.076587 0.381768 -0.260997 255 0 0
0.006830 0.797632 0.320169 255 0 0
-0.042450 0.889848 0.307212 255 0 0
0.217961 -0.508372 -0.328141 153 0 76
-0.104721 -0.466014 -0.125066 76 153 0
-0.153318 -0.746920 -0.235249 76 153 0
-0.059374 0.853595 0.156780 255 0 0
-0.152847 -0.517182 -0.197905 76 153 0
0.254057 -0.211057 -0.214026 153 0 76
0.004314 0.274280 0.772176 255 0 0
0.006430 0.748510 0.126580 255 0 0
-0.092453 0.679901 -0.111733 255 0 0
-0.087825 0.770071 0.350718 255 0 0
0.014026 0.740846 0.522433 255 0 0
-0.100557 0.016056 -0.239963 255 0 0
-0.103887 0.841678 0.227263 255 0 0
-0.102397 0.832901 0.343095 255 0 0
-0.045077 -0.469718 -0.104938 76 153 0
-0.087641 0.355893 -0.170208 255 0 0
-0.030994 0.683008 -0.150783 255 0 0
-0.080765 0.627374 0.741496 255 0 0
-0.066406 0.293518 0.848818 255 0 0
-0.149362 -0.270609 -0.182969 76 153 0
0.018876 0.767993 0.462025 255 0 0
-0.052252 0.370690 0.718593 255 0 0
-0.059329 0.472329 0.816023 255 0 0
0.293156 -0.185824 -0.219421 153 0 76
-0.132833 -0.810673 -0.282107 76 153 0
-0.083806 0.773291 0.597451 255 0 0
-0.064365 0.721642 0.078570 255 0 0
-0.089362 0.564245 -0.103406 255 0 0
-0.045991 -0.228980 -0.105136 76 153 0
0.009203 0.228385 -0.180244 255 0 0
-0.042224 0.364405 0.845558 255 0 0
-0.154231 -0.577063 -0.226196 76 153 0
-0.081514 0.847786 0.179321 255 0 0
-0.017100 0.788627 0.258338 255 0 0
0.235458 -0.498802 -0.105713 153 0 76
-0.089959 -0.098682 -0.257434 255 0 0
-0.043036 -0.815085 -0.200901 0 127 127
-0.088850 -0.151269 -0.258580 255 0 0
-0.037855 0.280820 0.741388 255 0 0
-0.039392 0.467665 0.810637 255 0 0
-0.081711 0.832100 0.418847 255 0 0
-0.064270 -0.815085 -0.340268 0 127 127
-0.016494 -0.815085 -0.181306 0 127 127
-0.006578 0.389228 0.737450 255 0 0
0.261840 -0.213558 -0.201255 153 0 76
-0.015891 -0.260121 -0.326483 76 153 0
-0.102051 0.789673 0.074401 255 0 0
-0.008949 0.726942 -0.094821 255 0 0
0.280205 -0.250105 -0.236131 153 0 76
-0.002064 0.688685 -0.015268 255 0 0
-0.054783 -0.330336 -0.107040 76 153 0
0.343611 -0.469486 -0.139911 153 0 76
-0.075552 0.878842 0.297370 255 0 0
-0.087325 0.086221 -0.260946 255 0 0
-0.153283 -0.551689 -0.231137 76 153 0
-0.067639 0.267007 0.749837 255 0 0
0.239414 -0.392998 -0.164121 153 0 76
-0.023141 0.590925 0.628851 255 0 0
-0.103330 0.425376 0.781363 255 0 0
-0.089517 -0.079292 -0.257993 255 0 0
-0.003263 0.400924 0.726224 255 0 0
0.056589 -0.666429 -0.272312 76 153 0
-0.067418 0.840697 0.428287 255 0 0
0.008234 -0.614309 -0.318612 76 153 0
0.006497 -0.859987 -0.098848 0 127 127
-0.101440 0.433925 -0.177293 255 0 0
-0.093950 0.793773 0.168656 255 0 0
0.008159 0.263402 0.795410 255 0 0
-0.008897 0.630715 -0.037798 255 0 0
-0.087189 0.413136 -0.158253 255 0 0
-0.050813 0.833955 0.099508 255 0 0
0.007452 0.423919 0.748352 255 0 0
0.115127 -0.418559 -0.130626 153 0 76
-0.035753 0.646130 0.584755 255 0 0
-0.035585 0.597610 -0.192563 255 0 0
-0.046297 -0.291138 -0.329748 76 153 0
-0.095644 0.822836 0.299086 255 0 0
-0.000756 0.556525 -0.216600 255 0 0
-0.025046 0.739450 -0.101120 255 0 0
0.019149 0.474348 0.736462 255 0 0
-0.025905 0.709665 -0.124593 255 0 0
-0.038966 0.577297 0.774598 255 0 0
0.343611 -0.466796 -0.292526 153 0 76
-0.043426 -0.204248 -0.104581 76 153 0
-0.152482 -0.640973 -0.194793 76 153 0
0.217552 -0.588610 -0.167111 153 0 76
0.012341 0.596735 -0.127970 255 0 0
-0.080342 0.198201 -0.267107 255 0 0
-0.015589 0.244966 0.753021 255 0 0
0.008909 0.751586 0.074225 255 0 0
0.002877 0.535918 0.779089 255 0 0
-0.058662 0.718481 0.655862 255 0 0
-0.034978 0.626721 -0.195449 255 0 0
0.070053 -0.341727 -0.233193 76 153 0
0.008786 0.602071 0.674688 255 0 0
0.004559 0.873191 0.277745 255 0 0
-0.017376 -0.582255 -0.107577 76 153 0
0.011269 0.738651 0.017913 255 0 0
-0.055721 0.341178 0.845792 255 0 0
-0.009365 -0.654789 -0.325350 76 153 0
-0.026357 0.007642 -0.156906 255 0 0
0.020868 0.760213 0.536698 255 0 0
0.152651 -0.424681 -0.127272 153 0 76
0.313541 -0.597021 -0.187446 153 0 76
-0.137395 -0.841744 -0.103078 0 127 127
-0.089192 0.175221 -0.259017 255 0 0
-0.081146 0.782899 0.207728 255 0 0
0.225442 -0.380822 -0.242994 153 0 76
-0.081221 0.798263 0.558084 255 0 0
-0.089607 0.557070 0.752408 255 0 0
0.020341 0.619106 -0.120817 255 0 0
-0.103377 0.405633 -0.217280 255 0 0
-0.037554 -0.815085 -0.113785 0 127 127
-0.058738 0.508267 0.689024 255 0 0
-0.030018 -0.141454 -0.279107 255 0 0
0.063968 -0.348813 -0.252409 76 153 0
-0.087152 0.204255 -0.172837 255 0 0
-0.001974 0.434479 -0.234906 255 0 0
0.005480 0.699373 0.001378 255 0 0
0.020724 0.333240 0.775355 255 0 0
-0.036764 0.847480 0.423066 255 0 0
0.109943 -0.396175 -0.279888 153 0 76
-0.058789 -0.180754 -0.327510 76 153 0
-0.020808 0.726326 0.092478 255 0 0
0.003103 0.510373 -0.138827 255 0 0
-0.086625 -0.558134 -0.320084 76 153 0
-0.103010 0.378243 -0.196645 255 0 0
-0.008575 0.771963 0.605992 255 0 0
-0.088361 0.809114 0.476213 255 0 0
-0.078888 0.773148 0.355805 255 0 0
-0.011914 -0.822595 -0.312936 0 127 127
0.285114 -0.281222 -0.201179 153 0 76
-0.151815 -0.297548 -0.193398 76 153 0
-0.046994 0.309458 -0.154918 255 0 0
0.006156 0.659110 0.676078 255 0 0
0.009268 0.376195 0.762697 255 0 0
-0.065261 0.535326 0.793520 255 0 0
-0.001149 0.862469 0.222809 255 0 0
-0.059747 0.091063 -0.277952 255 0 0
0.009999 0.791843 0.293986 255 0 0
-0.138269 -0.652656 -0.275288 76 153 0
-0.018517 0.564502 -0.094312 255 0 0
0.343611 -0.418437 -0.303483 153 0 76
0.021390 0.225516 -0.213827 255 0 0
-0.002629 -0.815085 -0.328992 0 127 127
-0.092892 0.382041 -0.191331 255 0 0
0.010722 -0.095359 -0.182423 255 0 0
-0.081381 0.429845 0.729349 255 0 0
-0.153881 -0.612467 -0.217555 76 153 0
-0.030485 -0.013655 -0.279137 255 0 0
-0.013645 0.251816 -0.273365 255 0 0
-0.039822 0.796761 -0.033730 255 0 0
-0.009745 0.860909 0.325806 255 0 0
-0.009641 0.741007 0.113621 255 0 0
-0.002311 0.467905 -0.155588 255 0 0
-0.027981 0.815509 0.055422 255 0 0
-0.102415 0.815553 0.237034 255 0 0
0.002153 0.628658 0.734737 255 0 0
0.332390 -0.440990 -0.117387 153 0 76
-0.054507 -0.612236 -0.328551 76 153 0
-0.083788 0.280484 0.764461 255 0 0
-0.031397 0.784766 0.593201 255 0 0
-0.009537 -0.169257 -0.132469 76 153 0
-0.094898 0.548962 0.721206 255 0 0
-0.012175 0.795557 -0.005847 255 0 0
-0.095382 0.745288 0.021344 255 0 0
0.015524 0.777108 0.391206 255 0 0
0.000513 0.681914 -0.121097 255 0 0
-0.078276 0.742507 0.632903 255 0 0
-0.155133 -0.815085 -0.254087 0 127 127
0.019226 0.831524 0.200123 255 0 0
0.004607 0.563049 0.679117 255 0 0
-0.083793 -0.015238 -0.170003 255 0 0
-0.095027 0.403340 0.769672 255 0 0
0.293287 -0.375437 -0.219545 153 0 76
-0.043264 0.868681 0.140264 255 0 0
-0.101743 0.252484 -0.237662 255 0 0
-0.083982 0.547767 0.763440 255 0 0
-0.141719 -0.815085 -0.160398 0 127 127
-0.088366 0.746060 0.517330 255 0 0
0.343611 -0.560135 -0.256087 153 0 76
-0.007248 0.658651 0.573646 255 0 0
-0.003727 0.577330 0.655815 255 0 0
-0.078594 0.485283 -0.227935 255 0 0
-0.102514 -0.583475 -0.311434 76 153 0
-0.048449 0.464037 -0.257583 255 0 0
-0.084848 0.472102 -0.237625 255 0 0
-0.093645 0.536983 -0.192725 255 0 0
0.020313 0.131494 -0.207798 255 0 0
0.061995 -0.619025 -0.258523 76 153 0
-0.101256 0.621790 -0.082854 255 0 0
0.000553 0.786026 -0.008078 255 0 0
0.032479 -0.469650 -0.326645 153 0 76
-0.104239 0.717830 0.601076 255 0 0
-0.022783 0.880531 0.228306 255 0 0
-0.102467 0.746228 0.054831 255 0 0
-0.080490 0.113220 -0.267197 255 0 0
-0.023100 0.518032 0.790857 255 0 0
-0.064291 -0.302455 -0.109099 76 153 0
-0.088283 0.826114 0.146895 255 0 0
-0.056884 0.514571 0.802886 255 0 0
0.006359 0.654586 -0.055635 255 0 0
0.143531 -0.386058 -0.258493 153 0 76
0.038024 -0.832644 -0.292680 0 127 127
-0.030539 0.347321 -0.164432 255 0 0
0.018669 0.804000 0.120143 255 0 0
-0.002541 0.740669 0.097189 255 0 0
-0.016710 0.705252 0.535279 255 0 0
0.011891 0.553412 -0.165074 255 0 0
0.007943 0.084545 -0.178646 255 0 0
-0.091327 -0.169257 -0.153705 76 153 0
-0.007490 0.801790 0.047975 255 0 0
0.343611 -0.592090 -0.205318 153 0 76
-0.068009 0.756965 0.349055 255 0 0
-0.054233 0.019640 -0.278947 255 0 0
0.039507 -0.221453 -0.294882 76 153 0
-0.091624 0.529380 0.773809 255 0 0
-0.033827 0.442598 -0.260812 255 0 0
-0.052643 0.596716 0.767413 255 0 0
-0.021445 0.671547 -0.147963 255 0 0
0.066409 -0.638702 -0.187569 76 153 0
-0.099101 0.825216 0.147273 255 0 0
-0.104164 0.479676 -0.182792 255 0 0
0.003270 0.453055 -0.150260 255 0 0
0.343611 -0.408570 -0.181432 153 0 76
-0.014894 0.463339 0.707811 255 0 0
0.019134 0.543018 0.744450 255 0 0
-0.047372 0.078538 -0.154930 255 0 0
-0.153203 -0.737419 -0.207705 76 153 0
-0.081617 0.702899 0.651352 255 0 0
-0.098430 0.632666 -0.136344 255 0 0
-0.016053 0.413580 0.820999 255 0 0
-0.070769 0.822701 0.534875 255 0 0
-0.078749 0.781785 -0.000492 255 0 0
-0.094467 0.501358 0.778473 255 0 0
-0.110162 -0.815085 -0.112517 0 127 127
-0.000425 0.752655 0.457645 255 0 0
0.009195 -0.815085 -0.148240 0 127 127
-0.129458 -0.815085 -0.199381 0 127 127
-0.014496 0.768341 0.305124 255 0 0
-0.049872 0.872274 0.322896 255 0 0
-0.012838 -0.169257 -0.319797 76 153 0
-0.085359 -0.380864 -0.113349 76 153 0
-0.098148 0.243227 -0.188375 255 0 0
0.290898 -0.317552 -0.208010 153 0 76
0.017680 0.501700 0.766004 255 0 0
-0.104721 -0.061032 -0.217526 255 0 0
0.019239 0.485148 -0.171552 255 0 0
0.003504 0.238682 0.753900 255 0 0
0.013416 -0.822595 -0.140011 0 127 127
-0.028317 0.691494 0.682460 255 0 0
-0.091155 -0.338605 -0.116170 76 153 0
0.070680 -0.432764 -0.314029 153 0 76
-0.041345 0.038646 -0.153916 255 0 0
0.001530 0.650757 -0.032423 255 0 0
0.343611 -0.560620 -0.152536 153 0 76
-0.025217 0.802878 -0.016675 255 0 0
0.326475 -0.378021 -0.228847 153 0 76
0.005297 0.620601 -0.059933 255 0 0
-0.085507 0.709365 -0.082224 255 0 0
-0.092152 0.475554 0.714310 255 0 0
-0.085475 -0.366926 -0.113396 76 153 0
0.011163 0.652112 -0.095408 255 0 0
-0.095841 0.645758 0.654522 255 0 0
-0.003733 0.764006 0.349554 255 0 0
0.011799 0.758797 0.552537 255 0 0
-0.084837 0.542781 0.778337 255 0 0
-0.062998 0.304988 0.848415 255 0 0
0.213327 -0.382051 -0.245715 153 0 76
-0.055137 -0.048353 -0.278854 255 0 0
-0.047312 0.544212 0.798759 255 0 0
-0.083480 0.801025 0.028650 255 0 0
0.009598 0.608444 -0.100432 255 0 0
0.012235 0.474428 0.751131 255 0 0
-0.009759 0.398718 0.820281 255 0 0
-0.154299 -0.423619 -0.214603 76 153 0
-0.040043 0.664951 -0.175242 255 0 0
-0.091862 0.687784 0.643529 255 0 0
-0.091415 0.723912 0.530432 255 0 0
-0.004806 0.590279 0.642193 255 0 0
0.012224 0.689088 -0.060695 255 0 0
-0.021931 0.844544 0.460270 255 0 0
0.343611 -0.478336 -0.127319 153 0 76
-0.061349 0.737639 0.454300 255 0 0
0.018039 -0.009137 -0.198228 255 0 0
-0.040196 0.659509 0.734794 255 0 0
-0.086226 -0.613899 -0.113500 76 153 0
-0.077291 0.772405 0.217517 255 0 0
-0.144126 -0.829072 -0.326782 0 127 127
-0.094267 0.787060 0.146577 255 0 0
-0.002691 0.750058 0.409059 255 0 0
-0.008082 0.369159 0.834322 255 0 0
0.169564 -0.400128 -0.152724 153 0 76
0.057926 -0.483850 -0.105448 153 0 76
-0.063830 0.684815 -0.002850 255 0 0
-0.072384 0.762440 0.171046 255 0 0
-0.092133 0.496664 0.765419 255 0 0
-0.041038 0.864662 0.453559 255 0 0
-0.152934 -0.615719 -0.197684 76 153 0
-0.070801 0.827486 0.515502 255 0 0
-0.007216 0.888713 0.250106 255 0 0
-0.143312 -0.596274 -0.168769 76 153 0
0.020447 0.788918 0.407038 255 0 0
-0.104382 0.462443 -0.187352 255 0 0
-0.009019 -0.737534 -0.110399 76 153 0
-0.040343 0.521733 -0.235454 255 0 0
-0.104410 0.804750 0.142101 255 0 0
0.058997 -0.405947 -0.292407 153 0 76
0.012516 -0.092908 -0.249815 255 0 0
-0.067809 0.530262 -0.122517 255 0 0
0.054000 -0.410552 -0.137644 153 0 76
-0.046624 0.756864 0.338550 255 0 0
-0.063224 0.737781 0.122848 255 0 0
0.098537 -0.377994 -0.231874 153 0 76
0.100016 -0.829696 -0.265364 0 127 127
-0.101376 0.383875 0.757312 255 0 0
0.010503 0.757552 0.519285 255 0 0
-0.097680 0.845311 0.190155 255 0 0
0.021630 0.691786 -0.056614 255 0 0
-0.085906 0.745057 0.602900 255 0 0
-0.030903 0.200553 -0.279018 255 0 0
-0.097617 -0.111475 -0.187152 255 0 0
-0.126868 -0.723397 -0.289307 76 153 0
-0.058749 0.467596 -0.243104 255 0 0
-0.038971 0.355502 0.719097 255 0 0
0.079921 -0.858927 -0.261459 0 127 127
-0.104046 0.610614 -0.109289 255 0 0
0.084025 -0.552340 -0.310081 153 0 76
-0.095632 0.444325 -0.201398 255 0 0
-0.037023 0.508283 0.809862 255 0 0
-0.012844 0.430349 0.824545 255 0 0
-0.133547 -0.801115 -0.235873 0 127 127
-0.129558 -0.439267 -0.286789 76 153 0
-0.041186 0.690381 0.034146 255 0 0
-0.055932 0.767602 0.609918 255 0 0
0.012114 0.748398 0.480687 255 0 0
-0.146918 -0.584681 -0.255712 76 153 0
-0.030041 -0.666636 -0.104884 76 153 0
0.050363 -0.809188 -0.235051 0 127 127
-0.069844 0.466251 0.708769 255 0 0
-0.069905 0.652747 -0.018718 255 0 0
0.055353 -0.674500 -0.159798 76 153 0
0.338965 -0.378632 -0.233900 153 0 76
-0.027126 0.367299 0.729051 255 0 0
-0.146991 -0.547407 -0.178086 76 153 0
0.061732 -0.583924 -0.278800 153 0 76
0.015928 0.121181 -0.192741 255 0 0
-0.022822 0.550391 0.789752 255 0 0
0.335165 -0.600178 -0.205485 153 0 76
-0.016843 0.826604 0.526405 255 0 0
-0.086439 0.826564 0.475179 255 0 0
-0.100425 0.199932 -0.193634 255 0 0
0.003814 0.797261 0.522589 255 0 0
-0.053777 0.246838 0.733772 255 0 0
-0.086248 -0.089238 -0.261742 255 0 0
-0.130970 -0.276409 -0.148830 76 153 0
-0.091459 0.784878 0.379584 255 0 0
-0.001054 0.603557 0.650439 255 0 0
-0.057841 0.692195 0.023614 255 0 0
0.011406 0.660486 0.597308 255 0 0
-0.151537 -0.324948 -0.236270 76 153 0
-0.153092 -0.788603 -0.208565 76 153 0
-0.073631 0.760853 0.391522 255 0 0
0.013765 0.721061 0.543077 255 0 0
-0.021424 0.872912 0.176986 255 0 0
0.016407 -0.500089 -0.329086 153 0 76
-0.039477 0.754020 0.187206 255 0 0
0.070720 -0.259397 -0.222514 76 153 0
-0.045943 0.798673 0.005517 255 0 0
-0.038365 0.871555 0.327088 255 0 0
0.101081 -0.815085 -0.186760 0 127 127
-0.124966 -0.481577 -0.141503 76 153 0
0.021963 -0.433503 -0.120091 153 0 76
0.010277 0.528031 0.747141 255 0 0
0.055598 -0.853745 -0.106331 0 127 127
0.000797 0.775532 0.316859 255 0 0
-0.101561 0.691869 0.640138 255 0 0
-0.094673 0.721069 -0.025351 255 0 0
-0.094066 0.817054 0.391565 255 0 0
-0.038957 -0.681775 -0.104399 76 153 0
-0.077632 0.507938 0.689210 255 0 0
0.000296 -0.456559 -0.109870 153 0 76
-0.080335 0.698753 0.554484 255 0 0
-0.005783 0.734903 0.639272 255 0 0
-0.015319 0.854138 0.141872 255 0 0
-0.053286 0.875461 0.345081 255 0 0
-0.024747 0.420721 -0.150680 255 0 0
0.003197 -0.650731 -0.114133 76 153 0
0.006060 0.856490 0.236974 255 0 0
0.013244 0.620068 -0.073257 255 0 0
-0.090762 0.757626 0.146482 255 0 0
-0.152135 -0.859275 -0.217502 0 127 127
-0.003322 -0.482010 -0.329338 153 0 76
-0.049763 0.649776 -0.025005 255 0 0
-0.033815 0.784670 -0.028319 255 0 0
-0.079942 0.365109 0.820425 255 0 0
-0.087908 0.853336 0.361039 255 0 0
-0.154420 -0.815085 -0.191350 0 127 127
-0.005434 0.771846 -0.055876 255 0 0
-0.061514 0.809223 0.564864 255 0 0
-0.079393 0.481995 0.710187 255 0 0
0.270232 -0.427766 -0.123982 153 0 76
0.018752 0.230152 -0.233506 255 0 0
0.024777 -0.344789 -0.307533 76 153 0
-0.060836 0.813598 0.053674 255 0 0
-0.097198 0.645987 -0.129570 255 0 0
-0.105209 0.574380 -0.148302 255 0 0
-0.005983 0.700032 0.029797 255 0 0
0.315836 -0.555262 -0.128368 153 0 76
-0.055824 0.769996 0.282632 255 0 0
-0.029299 -0.793106 -0.105042 76 153 0
0.343611 -0.501054 -0.239002 153 0 76
0.004578 0.506673 -0.210533 255 0 0
0.019980 0.599743 0.682562 255 0 0
-0.072596 0.630072 -0.171071 255 0 0
0.271227 -0.393677 -0.160877 153 0 76
0.069881 -0.350635 -0.216111 76 153 0
-0.005570 0.753855 0.384927 255 0 0
-0.147910 -0.633266 -0.252408 76 153 0
-0.043796 0.554804 -0.226003 255 0 0
-0.105130 0.465992 0.753753 255 0 0
-0.061489 0.803049 0.026771 255 0 0
-0.078077 0.609936 0.638219 255 0 0
0.047967 -0.815085 -0.264033 0 127 127
-0.035353 0.415622 0.707618 255 0 0
-0.015415 0.557494 0.676688 255 0 0
-0.052513 0.369442 0.842815 255 0 0
-0.063331 0.875863 0.332169 255 0 0
-0.068065 0.765000 0.185454 255 0 0
0.009853 0.639959 0.641772 255 0 0
-0.004253 0.665797 -0.015697 255 0 0
0.081703 -0.599671 -0.195697 153 0 76
0.011061 0.361955 0.772745 255 0 0
-0.005494 0.346356 -0.255665 255 0 0
-0.069867 0.615922 -0.170607 255 0 0
-0.102133 0.416940 -0.221989 255 0 0
-0.037876 0.498221 -0.239612 255 0 0
-0.008295 0.725325 0.069804 255 0 0
-0.103305 0.153011 -0.201337 255 0 0
-0.063896 0.409301 -0.154365 255 0 0
-0.002599 0.807632 0.073279 255 0 0
0.009312 0.774487 0.041542 255 0 0
-0.055534 -0.815085 -0.113126 0 127 127
0.012100 0.661042 0.638646 255 0 0
0.082594 -0.516515 -0.108964 153 0 76
0.046385 -0.802711 -0.285341 76 153 0
-0.060828 -0.820366 -0.070621 0 127 127
-0.090625 0.336777 -0.256204 255 0 0
-0.095157 0.826127 0.198233 255 0 0
0.245479 -0.589664 -0.266006 153 0 76
-0.143164 -0.839182 -0.260361 0 127 127
0.014911 0.512983 -0.210012 255 0 0
-0.091026 0.719636 -0.084116 255 0 0
0.042034 -0.815085 -0.219459 0 127 127
0.028681 -0.385544 -0.130085 76 153 0
-0.110967 -0.848628 -0.319242 0 127 127
-0.027179 0.616580 0.754499 255 0 0
-0.067020 0.593906 0.629115 255 0 0
0.009178 0.811707 0.087977 255 0 0
0.009748 0.629479 0.719688 255 0 0
-0.060201 0.731182 0.479489 255 0 0
-0.123697 -0.780185 -0.140721 76 153 0
0.021614 0.488021 0.748836 255 0 0
-0.125263 -0.769760 -0.290995 76 153 0
-0.089746 0.668475 -0.105720 255 0 0
-0.013600 -0.085640 -0.273316 255 0 0
0.006260 0.102575 -0.257868 255 0 0
-0.054760 0.742864 0.651367 255 0 0
0.009509 -0.401526 -0.317989 76 153 0
-0.010658 -0.241380 -0.325105 76 153 0
-0.099332 0.252120 0.771226 255 0 0
0.049248 -0.546891 -0.120788 153 0 76
-0.104743 0.664257 -0.085223 255 0 0
-0.016602 0.610557 0.613455 255 0 0
0.255263 -0.554749 -0.126833 153 0 76
-0.012789 -0.770432 -0.109516 76 153 0
0.006740 0.518388 0.714113 255 0 0
-0.089799 0.469354 -0.151171 255 0 0
0.170078 -0.566044 -0.298927 153 0 76
0.049953 -0.647657 -0.281229 76 153 0
-0.020086 0.343579 -0.167984 255 0 0
-0.002926 0.736427 0.087468 255 0 0
0.173698 -0.477624 -0.106907 153 0 76
-0.090974 0.387406 -0.229951 255 0 0
0.019322 0.622906 0.656889 255 0 0
-0.101945 0.816984 0.260054 255 0 0
0.012216 0.632572 0.667419 255 0 0
-0.093151 0.802956 0.326599 255 0 0
-0.086173 0.685631 0.557736 255 0 0
-0.028704 0.547805 -0.102000 255 0 0
-0.076582 0.530399 -0.129506 255 0 0
-0.102701 0.795561 0.362549 255 0 0
0.010850 0.689540 0.597326 255 0 0
-0.041134 0.318917 0.723209 255 0 0
-0.091636 0.619212 -0.136988 255 0 0
-0.058770 -0.169257 -0.311566 76 153 0
-0.060900 0.750896 0.636661 255 0 0
0.069888 -0.610862 -0.222615 76 153 0
-0.031999 -0.815085 -0.304780 0 127 127
-0.093256 0.800237 0.546943 255 0 0
0.305157 -0.467765 -0.109057 153 0 76
-0.102642 0.637500 0.688919 255 0 0
0.091244 -0.860143 -0.213508 0 127 127
-0.025987 -0.828995 -0.364749 0 127 127
-0.001545 0.088103 -0.169079 255 0 0
-0.029596 0.241907 0.858989 255 0 0
-0.030516 0.741871 0.660127 255 0 0
-0.058445 -0.171517 -0.107833 76 153 0
-0.003813 0.252275 0.762709 255 0 0
0.017203 0.523022 0.713749 255 0 0
0.000833 0.799548 0.275001 255 0 0
0.234610 -0.596941 -0.184361 153 0 76
-0.048028 0.447318 0.698064 255 0 0
-0.102994 0.435720 -0.214209 255 0 0
-0.054457 -0.553367 -0.106726 76 153 0
-0.063369 0.809449 0.578779 255 0 0
0.053818 -0.830168 -0.103747 0 127 127
0.281029 -0.602230 -0.216933 153 0 76
-0.076380 0.500853 0.786387 255 0 0
-0.006755 0.583992 0.758706 255 0 0
-0.008715 0.314658 -0.270156 255 0 0
0.016318 0.804755 0.230152 255 0 0
0.014229 0.343977 -0.188580 255 0 0
0.343611 -0.454665 -0.201292 153 0 76
-0.152626 -0.222275 -0.227680 76 153 0
0.059050 -0.364298 -0.267837 76 153 0
0.343611 -0.499258 -0.214494 153 0 76
-0.040146 0.662122 0.001635 255 0 0
-0.050134 -0.815085 -0.294096 0 127 127
0.172997 -0.382711 -0.247176 153 0 76
0.085028 -0.857431 -0.238069 0 127 127
-0.047170 0.680652 0.542438 255 0 0
-0.088347 0.353192 0.740330 255 0 0
-0.122389 -0.369967 -0.138021 76 153 0
0.031809 -0.851969 -0.322001 0 127 127
-0.070187 0.366169 0.735601 255 0 0
-0.015938 -0.646066 -0.107941 76 153 0
0.161749 -0.509713 -0.325698 153 0 76
-0.102262 0.723424 -0.056095 255 0 0
0.011807 -0.822595 -0.295965 0 127 127
-0.081667 0.553011 0.689414 255 0 0
-0.079721 0.339704 0.835195 255 0 0
0.010352 0.370449 -0.222378 255 0 0
-0.103024 0.491454 0.733812 255 0 0
-0.096054 0.703157 -0.011282 255 0 0
0.276757 -0.383384 -0.185212 153 0 76
0.000534 0.785634 0.329592 255 0 0
-0.153726 -0.541864 -0.228348 76 153 0
-0.137642 -0.554279 -0.157818 76 153 0
-0.140767 -0.412884 -0.162891 76 153 0
-0.058740 0.603327 -0.198017 255 0 0
-0.154053 -0.511584 -0.214475 76 153 0
0.016774 0.794668 0.200629 255 0 0
0.046215 -0.311546 -0.147359 76 153 0
-0.095392 0.432521 -0.194701 255 0 0
-0.063100 0.702029 0.029494 255 0 0
-0.092641 0.802289 0.209612 255 0 0
-0.061757 0.855323 0.137404 255 0 0
-0.025125 0.764557 0.303321 255 0 0
-0.046649 0.741608 -0.084816 255 0 0
0.021534 0.829242 0.232980 255 0 0
-0.067306 0.036332 -0.274954 255 0 0
-0.035478 0.821655 0.004459 255 0 0
0.013880 0.717891 0.019451 255 0 0
-0.095501 0.832608 0.256594 255 0 0
-0.095724 0.817231 0.204767 255 0 0
0.011014 0.841371 0.266152 255 0 0
-0.078573 0.797515 0.040317 255 0 0
0.017853 0.548984 -0.140262 255 0 0
0.110090 -0.512790 -0.325507 153 0 76
0.016733 0.765139 -0.002657 255 0 0
-0.094171 0.390923 0.768018 255 0 0
-0.100432 0.524456 -0.204368 255 0 0
-0.096454 0.827834 0.418468 255 0 0
0.007608 0.795273 0.244750 255 0 0
-0.007740 0.659619 -0.144568 255 0 0
-0.011213 0.389294 -0.261918 255 0 0
0.009449 0.810449 0.294993 255 0 0
-0.033274 0.725545 0.679564 255 0 0
-0.044667 -0.506914 -0.330087 76 153 0
-0.053582 0.811392 0.041386 255 0 0
-0.055625 -0.278482 -0.107222 76 153 0
-0.033341 0.672947 -0.135272 255 0 0
-0.105188 0.563837 0.725865 255 0 0
-0.103251 0.472405 0.741306 255 0 0
0.017462 0.817701 0.421281 255 0 0
-0.085933 0.583966 -0.083500 255 0 0
-0.010444 0.580459 -0.088247 255 0 0
-0.089580 -0.815085 -0.303663 0 127 127
0.263437 -0.575543 -0.144850 153 0 76
0.272387 -0.506687 -0.327499 153 0 76
0.337865 -0.400696 -0.284555 153 0 76
0.112276 -0.477354 -0.106687 153 0 76
-0.016404 -0.726752 -0.108255 76 153 0
0.333367 -0.377873 -0.208435 153 0 76
-0.075626 0.715932 0.645736 255 0 0
0.008748 0.799240 0.484238 255 0 0
-0.000266 0.835314 0.119466 255 0 0
-0.075397 0.762374 0.601130 255 0 0
-0.035021 0.288872 0.840597 255 0 0
0.057865 -0.169257 -0.242869 76 153 0
0.012326 0.807045 0.497132 255 0 0
0.009495 -0.264170 -0.317433 76 153 0
0.002215 0.291106 0.754692 255 0 0
-0.000323 0.362237 0.747477 255 0 0
0.008787 0.313716 0.755718 255 0 0
-0.058701 0.887088 0.217239 255 0 0
0.007318 0.331644 0.764163 255 0 0
0.070814 -0.594039 -0.176506 153 0 76
-0.054547 -0.860143 -0.347444 0 127 127
-0.152383 -0.612528 -0.237707 76 153 0
-0.082632 0.460568 0.721271 255 0 0
-0.051408 0.863996 0.132708 255 0 0
-0.077930 0.744718 0.114764 255 0 0
-0.046287 0.432589 -0.263930 255 0 0
-0.045163 0.203919 -0.280388 255 0 0
0.079439 -0.843407 -0.303451 0 127 127
0.049203 -0.523152 -0.323921 153 0 76
0.015127 0.294212 0.787891 255 0 0
0.002749 0.847786 0.200501 255 0 0
-0.002811 0.264081 0.743786 255 0 0
-0.049570 0.596757 -0.064909 255 0 0
0.019386 0.141217 -0.231227 255 0 0
-0.096162 0.360978 -0.182389 255 0 0
0.343611 -0.558321 -0.191150 153 0 76
0.178056 -0.572320 -0.142477 153 0 76
-0.040624 0.489163 -0.133696 255 0 0
-0.065500 0.742610 0.131428 255 0 0
-0.034846 0.295261 0.732541 255 0 0
0.034783 -0.815085 -0.291770 0 127 127
0.052757 -0.216052 -0.156267 76 153 0
-0.086965 0.790267 0.247006 255 0 0
-0.014083 0.784708 -0.008500 255 0 0
-0.078302 0.497190 0.704452 255 0 0
-0.066189 0.637775 -0.168410 255 0 0
0.007708 0.641370 0.609091 255 0 0
0.072267 -0.815085 -0.270774 0 127 127
0.223640 -0.469376 -0.327927 153 0 76
-0.112000 -0.394024 -0.304950 76 153 0
-0.058958 0.755525 0.343474 255 0 0
-0.006772 0.772478 0.589218 255 0 0
0.009961 0.782577 0.525859 255 0 0
-0.094942 0.802478 0.263573 255 0 0
-0.104395 0.629584 -0.097250 255 0 0
-0.025931 0.664547 -0.139860 255 0 0
0.038716 -0.434015 -0.119896 153 0 76
0.051462 -0.169257 -0.216101 76 153 0
0.010107 0.662060 -0.036516 255 0 0
-0.103450 0.796849 0.173319 255 0 0
-0.018056 0.383902 -0.267549 255 0 0
-0.091769 0.575369 -0.099536 255 0 0
-0.048883 0.310644 -0.279722 255 0 0
-0.019471 0.678365 0.559736 255 0 0
-0.024917 0.747145 0.413273 255 0 0
0.309729 -0.411675 -0.136728 153 0 76
0.020243 0.798906 0.438320 255 0 0
0.011548 0.793111 0.401962 255 0 0
0.012027 0.721107 -0.031126 255 0 0
0.046625 -0.736627 -0.285431 76 153 0
0.019526 0.368890 0.767844 255 0 0
0.025553 -0.649479 -0.127183 76 153 0
-0.000075 0.731447 0.619194 255 0 0
-0.044426 -0.156756 -0.280576 255 0 0
-0.093759 0.757487 0.076410 255 0 0
-0.029096 0.176217 -0.156542 255 0 0
-0.034582 0.570773 0.791332 255 0 0
-0.101408 0.408239 -0.182188 255 0 0
-0.047835 -0.263420 -0.105536 76 153 0
0.083512 -0.416543 -0.302575 153 0 76
-0.102853 -0.003779 -0.233207 255 0 0
-0.103825 0.301445 0.778471 255 0 0
-0.039293 0.890398 0.251720 255 0 0
-0.043910 0.425200 0.713296 255 0 0
-0.080398 0.732844 0.108427 255 0 0
0.011046 0.834690 0.292453 255 0 0
0.173445 -0.594451 -0.257116 153 0 76
-0.063727 0.730591 0.103133 255 0 0
0.005761 0.728401 0.521541 255 0 0
-0.063763 0.477721 -0.130775 255 0 0
0.007591 0.633438 0.616539 255 0 0
-0.176472 -0.821291 -0.152092 0 127 127
0.020533 -0.598868 -0.310723 76 153 0
-0.047211 0.456881 0.823432 255 0 0
-0.057674 0.493525 0.693646 255 0 0
-0.017697 0.693618 0.003499 255 0 0
-0.116560 -0.567179 -0.133275 76 153 0
0.336062 -0.517218 -0.110193 153 0 76
-0.098231 0.035571 -0.188568 255 0 0
0.009316 0.807121 0.307091 255 0 0
-0.080778 0.839696 0.155504 255 0 0
-0.018991 0.802077 0.028202 255 0 0
0.006341 0.793404 0.332285 255 0 0
0.059159 -0.567917 -0.136697 153 0 76
-0.052480 0.407815 -0.142373 255 0 0
0.164762 -0.510186 -0.108425 153 0 76
-0.021826 0.782163 0.239730 255 0 0
-0.031626 0.732695 0.430973 255 0 0
-0.028903 0.661955 -0.007904 255 0 0
0.137809 -0.589057 -0.165283 153 0 76
-0.001905 -0.822595 -0.310262 0 127 127
-0.003133 0.712005 0.024291 255 0 0
-0.073093 -0.815085 -0.309521 0 127 127
-0.058090 0.640371 0.744913 255 0 0
-0.077694 0.597338 -0.066765 255 0 0
-0.102259 0.386476 -0.226489 255 0 0
-0.127809 -0.815085 -0.297377 0 127 127
-0.031738 -0.786677 -0.124927 0 127 127
-0.148778 -0.854459 -0.177126 0 127 127
0.032783 -0.261508 -0.301720 76 153 0
-0.046136 0.295853 -0.280214 255 0 0
0.003233 -0.169257 -0.154269 76 153 0
-0.103272 0.225564 -0.229206 255 0 0
0.050575 -0.253931 -0.280081 76 153 0
-0.020108 0.872876 0.304941 255 0 0
-0.037545 0.759339 0.317100 255 0 0
0.011165 0.724205 -0.017613 255 0 0
-0.043674 -0.860143 -0.104172 0 127 127
0.021148 0.618029 0.677815 255 0 0
-0.089415 0.448394 0.736101 255 0 0
-0.095613 0.401921 -0.209563 255 0 0
-0.102497 0.613103 0.667374 255 0 0
-0.152833 -0.758468 -0.198503 76 153 0
-0.065860 -0.107452 -0.158524 255 0 0
0.332896 -0.407518 -0.141524 153 0 76
-0.077976 0.461454 0.809879 255 0 0
-0.051674 0.873267 0.354748 255 0 0
-0.094861 0.489433 0.714085 255 0 0
-0.072995 -0.477460 -0.325263 76 153 0
-0.066638 0.586034 -0.195180 255 0 0
-0.154395 -0.391564 -0.214824 76 153 0
0.216060 -0.433291 -0.314906 153 0 76
-0.001755 0.589925 -0.177557 255 0 0
-0.064897 0.703538 -0.107498 255 0 0
0.018850 0.379081 0.763770 255 0 0
0.020380 -0.204388 -0.124473 76 153 0
-0.084655 0.130979 -0.264143 255 0 0
-0.104908 0.774423 0.524553 255 0 0
-0.016292 0.575387 -0.214949 255 0 0
0.102099 -0.379977 -0.197143 153 0 76
0.017699 0.854435 0.267935 255 0 0
0.000350 0.837395 0.381799 255 0 0
-0.104681 0.554080 -0.155988 255 0 0
-0.102346 0.766674 0.471677 255 0 0
0.004327 -0.690488 -0.114529 76 153 0
0.296752 -0.574835 -0.144438 153 0 76
0.006015 0.741376 0.476540 255 0 0
0.069371 -0.760227 -0.207560 76 153 0
-0.002011 0.790009 0.224429 255 0 0
-0.012361 0.817787 0.506858 255 0 0
-0.060178 0.504460 0.794997 255 0 0
-0.063811 0.392274 -0.266530 255 0 0
-0.007263 0.847531 0.138955 255 0 0
0.016258 0.064063 -0.241809 255 0 0
-0.021272 0.859875 0.360521 255 0 0
-0.073330 0.809261 0.539159 255 0 0
-0.086393 0.782163 0.184095 255 0 0
-0.084925 0.428695 0.800021 255 0 0
-0.083325 0.597476 -0.185975 255 0 0
0.000920 0.335290 -0.264103 255 0 0
-0.085794 0.746895 0.436834 255 0 0
0.020588 0.687200 0.604837 255 0 0
-0.105250 0.411438 -0.202036 255 0 0
-0.081267 0.475368 -0.227036 255 0 0
-0.053299 0.422274 -0.139827 255 0 0
0.019750 0.336652 -0.208329 255 0 0
-0.068088 0.381365 -0.162672 255 0 0
0.007329 0.466540 0.795258 255 0 0
0.307697 -0.443355 -0.116159 153 0 76
-0.063620 -0.841875 -0.324938 0 127 127
0.242316 -0.535753 -0.115708 153 0 76
-0.154376 -0.482682 -0.221645 76 153 0
-0.093993 0.399092 -0.193834 255 0 0
0.033023 -0.598343 -0.301492 76 153 0
0.020042 0.719590 -0.047038 255 0 0
-0.018596 0.658640 -0.154271 255 0 0
-0.062291 0.767899 0.203346 255 0 0
-0.065466 0.597303 0.639097 255 0 0
0.059957 -0.171816 -0.265479 76 153 0
-0.028930 0.773666 0.300328 255 0 0
-0.086906 0.715793 0.052184 255 0 0
0.022787 -0.169257 -0.189570 76 153 0
0.019250 0.816122 0.239858 255 0 0
-0.075247 -0.169257 -0.285343 76 153 0
-0.027069 0.224980 0.738415 0 255 0
0.020114 0.618120 -0.097033 255 0 0
-0.009606 0.707643 0.654365 255 0 0
-0.009364 0.675516 -0.133903 255 0 0
0.230786 -0.544533 -0.119441 153 0 76
0.003843 0.803471 0.238653 255 0 0
-0.069755 0.573934 0.778857 255 0 0
0.014076 -0.077028 -0.187929 255 0 0
-0.095498 0.751648 0.472234 255 0 0
-0.074255 0.691869 0.012139 255 0 0
-0.095442 0.755504 0.019650 255 0 0
0.006515 0.722781 -0.061956 255 0 0
0.019281 0.804999 0.131486 255 0 0
0.047929 -0.800608 -0.193397 0 127 127
-0.091510 0.627043 0.646635 255 0 0
-0.100893 0.655353 0.677695 255 0 0
-0.077641 0.451772 0.800422 255 0 0
-0.151493 -0.484007 -0.240038 76 153 0
-0.132761 -0.815085 -0.254598 0 127 127
0.047726 -0.681607 -0.284274 76 153 0
0.015339 -0.158927 -0.191213 255 0 0
-0.043514 0.718486 0.484711 255 0 0
-0.075075 0.785869 -0.028321 255 0 0
-0.095690 0.413737 0.769914 255 0 0
-0.081655 0.773151 0.366728 255 0 0
-0.048733 0.146301 -0.155289 255 0 0
-0.103287 0.435005 0.778724 255 0 0
0.063802 -0.849139 -0.261200 0 127 127
0.041780 -0.270802 -0.141425 76 153 0
-0.094477 0.784029 0.431073 255 0 0
-0.043133 0.361460 -0.276759 255 0 0
0.020572 0.790894 0.153755 255 0 0
-0.093792 0.692000 0.660550 255 0 0
-0.090277 0.775745 -0.018853 255 0 0
-0.088338 0.791263 0.268300 255 0 0
-0.092427 0.665947 -0.052763 255 0 0
-0.092766 0.691019 -0.035675 255 0 0
0.287840 -0.169997 -0.231175 153 0 76
0.343611 -0.521760 -0.277659 153 0 76
-0.013564 0.532366 -0.224369 255 0 0
0.053733 -0.611922 -0.276088 76 153 0
0.012550 0.575652 0.681289 255 0 0
-0.074341 0.388746 0.724950 255 0 0
0.044161 -0.724765 -0.145115 76 153 0
0.209358 -0.377432 -0.213247 153 0 76
-0.006428 0.654487 0.717500 255 0 0
0.017577 0.798774 0.495273 255 0 0
0.017028 0.667685 0.605765 255 0 0
-0.103972 0.447340 0.753500 255 0 0
0.253073 -0.451776 -0.112747 153 0 76
0.030631 -0.822595 -0.137766 0 127 127
0.021942 -0.819887 -0.351758 0 127 127
-0.089467 0.640560 -0.066344 255 0 0
-0.103988 0.776513 0.546136 255 0 0
0.021381 0.278146 0.789795 255 0 0
0.000790 0.358043 -0.260069 255 0 0
-0.024117 0.827024 0.551683 255 0 0
-0.138517 -0.777992 -0.159049 76 153 0
-0.104733 -0.146498 -0.222802 255 0 0
0.017488 0.072248 -0.197297 255 0 0
-0.144942 -0.822595 -0.211578 0 127 127
-0.014220 0.348840 -0.271904 255 0 0
-0.063566 0.622968 0.745417 255 0 0
-0.032651 0.812445 0.561368 255 0 0
0.006575 0.332589 0.809128 255 0 0
-0.055524 -0.475134 -0.107073 76 153 0
-0.010108 0.627724 0.746645 255 0 0
-0.092075 0.513860 0.718879 255 0 0
0.274442 -0.600925 -0.209256 153 0 76
0.011527 0.755538 0.056444 255 0 0
-0.003980 0.874118 0.300465 255 0 0
-0.011973 -0.365465 -0.108928 76 153 0
-0.095805 0.479070 0.754689 255 0 0
0.018641 0.756667 0.571938 255 0 0
-0.108861 -0.558299 -0.127781 76 153 0
0.009787 0.828350 0.344716 255 0 0
-0.090333 0.807399 0.108097 255 0 0
-0.022427 0.810066 0.009754 255 0 0
-0.094350 0.650870 0.607067 255 0 0
-0.071665 0.494997 0.803465 255 0 0
0.011755 0.459013 -0.161275 255 0 0
-0.102213 0.751717 -0.023835 255 0 0
-0.080162 0.785433 0.266304 255 0 0
-0.091787 0.834889 0.141370 255 0 0
-0.018012 0.670766 -0.002498 255 0 0
0.015896 0.626184 0.641950 255 0 0
-0.073168 -0.576477 -0.110526 76 153 0
-0.066321 0.524251 -0.112638 255 0 0
-0.095108 0.567531 0.716273 255 0 0
-0.136048 -0.791451 -0.218278 0 127 127
-0.021435 -0.199512 -0.107252 76 153 0
-0.068430 -0.067983 -0.160086 255 0 0
-0.053922 0.606596 -0.185433 255 0 0
0.029008 -0.787111 -0.130425 76 153 0
0.015042 0.491790 -0.159599 255 0 0
-0.095343 -0.122192 -0.183529 255 0 0
0.285529 -0.588545 -0.166240 153 0 76
0.019019 0.749257 -0.018152 255 0 0
-0.094979 0.587845 -0.147799 255 0 0
0.047832 -0.255288 -0.149593 76 153 0
-0.059317 0.677713 0.550565 255 0 0
0.069976 -0.418244 -0.304026 153 0 76
-0.032884 0.446896 -0.143070 255 0 0
-0.135703 -0.802475 -0.211251 0 127 127
-0.085433 0.662625 -0.117561 255 0 0
0.050538 -0.195821 -0.280048 76 153 0
-0.087369 0.648670 0.594667 255 0 0
0.013847 0.347460 -0.244304 255 0 0
-0.095473 0.811100 0.382134 255 0 0
0.011457 0.763416 0.078607 255 0 0
0.020588 -0.069289 -0.227560 255 0 0
0.009698 0.472517 -0.205739 255 0 0
-0.057062 -0.169257 -0.130848 76 153 0
0.270418 -0.467959 -0.108234 153 0 76
0.281892 -0.380733 -0.243497 153 0 76
0.069598 -0.595350 -0.255678 153 0 76
-0.009258 0.773529 0.294211 255 0 0
-0.146921 -0.701584 -0.254643 76 153 0
-0.157746 -0.848628 -0.238031 0 127 127
0.009829 0.464942 0.770293 255 0 0
-0.101209 0.747419 -0.041275 255 0 0
-0.029811 0.256103 0.745980 255 0 0
-0.005599 0.767031 0.173414 255 0 0
0.018318 0.828965 0.357687 255 0 0
-0.087810 0.768158 0.424688 255 0 0
-0.103702 0.258402 -0.204272 255 0 0
-0.067574 0.885589 0.286077 255 0 0
-0.097149 0.163394 -0.186068 255 0 0
-0.087160 0.352215 0.753887 255 0 0
-0.086589 0.762699 -0.025169 255 0 0
0.025161 -0.280102 -0.127603 76 153 0
-0.154039 -0.288961 -0.206734 76 153 0
-0.060811 -0.169257 -0.291016 76 153 0
0.011336 0.773937 0.472475 255 0 0
0.014820 0.142527 -0.189864 255 0 0
0.070189 -0.282383 -0.209716 76 153 0
-0.040198 0.777073 0.280930 255 0 0
-0.084664 0.370890 0.813902 255 0 0
-0.027685 0.675403 0.720538 255 0 0
-0.024403 0.471690 0.806315 255 0 0
0.009690 0.680835 -0.083273 255 0 0
0.165618 -0.405307 -0.291707 153 0 76
-0.013308 0.275844 0.848897 255 0 0
0.012708 0.671906 -0.108925 255 0 0
0.036027 -0.392187 -0.299197 76 153 0
-0.022029 0.771339 -0.057100 255 0 0
-0.051094 -0.815085 -0.354834 0 127 127
-0.079325 -0.476257 -0.111954 76 153 0
-0.069255 0.674534 -0.014982 255 0 0
-0.093332 0.430237 0.751520 255 0 0
0.208643 -0.447808 -0.320574 153 0 76
-0.143845 -0.565730 -0.170000 76 153 0
-0.050846 0.695742 0.524389 255 0 0
0.100871 -0.848436 -0.262922 0 127 127
-0.077381 0.558318 -0.109116 255 0 0
-0.074504 0.740816 0.431469 255 0 0
0.021611 -0.243460 -0.309351 76 153 0
-0.095166 0.434837 0.760105 255 0 0
-0.086338 0.416555 -0.232580 255 0 0
0.077731 -0.578558 -0.148853 153 0 76
-0.092049 0.762558 0.595567 255 0 0
-0.054770 0.730443 0.115469 255 0 0
0.086458 -0.405178 -0.143412 153 0 76
-0.077252 0.848136 0.370201 255 0 0
-0.089945 -0.606872 -0.318251 76 153 0
0.019829 -0.815085 -0.167510 0 127 127
0.112146 -0.491973 -0.329641 153 0 76
-0.098007 0.036929 -0.246672 255 0 0
-0.046230 0.882605 0.225297 255 0 0
0.024995 -0.407233 -0.307309 76 153 0
-0.044555 -0.815085 -0.268154 0 127 127
-0.083500 0.458518 0.709461 255 0 0
-0.070181 0.298757 0.838855 255 0 0
-0.091310 0.636179 -0.052858 255 0 0
-0.002714 0.825135 0.118616 255 0 0
-0.005680 0.838293 0.449624 255 0 0
0.012338 0.382464 -0.178064 255 0 0
0.009948 0.765859 0.028028 255 0 0
-0.080872 0.687497 -0.001401 255 0 0
0.103704 -0.837269 -0.244597 0 127 127
0.018578 0.775784 0.427541 255 0 0
-0.071800 0.351824 -0.170975 255 0 0
-0.063467 0.693283 0.005948 255 0 0
0.008966 0.758592 0.092178 255 0 0
0.260953 -0.445842 -0.320237 153 0 76
0.006784 0.238456 0.808979 255 0 0
-0.095889 0.309207 0.807672 255 0 0
0.255198 -0.157209 -0.210846 153 0 76
-0.005857 0.322179 0.746543 255 0 0
-0.128928 -0.712451 -0.147014 76 153 0
-0.010199 0.325888 0.841081 255 0 0
0.020814 -0.090339 -0.226580 255 0 0
-0.104913 0.371657 0.786592 255 0 0
0.021232 0.753925 0.042483 255 0 0
-0.089304 0.589516 0.758008 255 0 0
0.082989 -0.860143 -0.163863 0 127 127
-0.001217 -0.370612 -0.112191 76 153 0
-0.051820 0.237123 -0.155963 255 0 0
-0.104025 0.753914 0.000590 255 0 0
-0.089002 0.297033 0.747858 255 0 0
-0.026482 0.629240 0.603353 255 0 0
-0.009177 0.778015 -0.017265 255 0 0
0.224160 -0.386844 -0.256331 153 0 76
0.009121 0.191353 -0.180134 255 0 0
-0.050185 0.347630 -0.277783 255 0 0
-0.104009 0.176270 -0.225699 255 0 0
0.004475 -0.802005 -0.136057 0 127 127
-0.008788 0.598036 -0.191816 255 0 0
-0.119494 -0.540413 -0.298476 76 153 0
-0.052775 0.638112 -0.161861 255 0 0
-0.097243 0.216507 -0.186285 255 0 0
0.265684 -0.438393 -0.117898 153 0 76
-0.117510 -0.219986 -0.300992 76 153 0
0.020256 0.777398 0.447337 255 0 0
-0.093438 0.649054 0.634112 255 0 0
-0.135350 -0.748434 -0.279423 76 153 0
0.009486 0.303045 0.763480 255 0 0
0.021668 0.537133 0.732435 255 0 0
0.025086 -0.189216 -0.306724 76 153 0
-0.068349 0.353045 0.735945 255 0 0
-0.075015 0.583797 0.772674 255 0 0
-0.100075 0.340775 -0.241815 255 0 0
-0.098575 0.327617 0.806127 255 0 0
0.012950 0.779593 0.359183 255 0 0
-0.012965 0.747908 0.138525 255 0 0
-0.103930 0.820137 0.371880 255 0 0
0.007204 0.423431 0.809595 255 0 0
0.030533 -0.169257 -0.219489 76 153 0
-0.074059 -0.107617 -0.271221 255 0 0
-0.153514 -0.748560 -0.217747 76 153 0
-0.020368 0.696223 0.013209 255 0 0
-0.101106 0.777275 0.559236 255 0 0
-0.062647 0.767976 0.223103 255 0 0
-0.064383 0.686773 0.696680 255 0 0
-0.084687 0.344798 -0.184539 255 0 0
-0.033757 0.762703 0.213644 255 0 0
0.208665 -0.601072 -0.209516 153 0 76
-0.071917 0.495418 -0.131832 255 0 0
0.068052 -0.301493 -0.239593 76 153 0
-0.101528 0.776819 0.413421 255 0 0
-0.029376 0.862384 0.127721 255 0 0
0.188739 -0.410627 -0.137781 153 0 76
0.119660 -0.380976 -0.192903 153 0 76
-0.153526 -0.595740 -0.205745 76 153 0
-0.012070 -0.800828 -0.128917 0 127 127
-0.093285 0.406372 0.738807 255 0 0
-0.079937 0.853610 0.385847 255 0 0
0.007739 0.588840 -0.180824 255 0 0
0.079492 -0.601986 -0.214497 153 0 76
0.271672 -0.477721 -0.328806 153 0 76
0.341654 -0.541834 -0.119787 153 0 76
-0.070965 -0.205040 -0.325328 76 153 0
0.005232 0.827653 0.391157 255 0 0
0.259723 -0.586978 -0.271202 153 0 76
0.058078 -0.265062 -0.165371 76 153 0
-0.085277 0.769020 0.405653 255 0 0
0.343611 -0.530417 -0.286659 153 0 76
0.017974 0.586384 -0.112457 255 0 0
-0.029444 0.733744 0.461273 255 0 0
-0.078757 -0.854321 -0.341646 0 127 127
0.009147 0.493649 0.783464 255 0 0
-0.181314 -0.815085 -0.231674 0 127 127
-0.104988 0.293756 0.795434 255 0 0
0.020605 0.142249 -0.208942 255 0 0
0.000769 0.773728 -0.001529 255 0 0
-0.043065 0.896941 0.234171 255 0 0
-0.131565 -0.387227 -0.283489 76 153 0
0.343611 -0.473321 -0.106652 153 0 76
0.011912 0.631865 -0.097228 255 0 0
-0.087124 0.631137 0.633559 255 0 0
0.339017 -0.449029 -0.115212 153 0 76
-0.049359 0.544302 0.785030 255 0 0
-0.044398 -0.810090 -0.311660 0 127 127
-0.007116 0.617615 0.753720 255 0 0
0.289931 -0.597712 -0.190757 153 0 76
-0.104047 0.691271 0.603008 255 0 0
0.020030 0.568822 0.731057 255 0 0
0.021682 0.625546 -0.107042 255 0 0
0.000301 0.585145 -0.080712 255 0 0
0.001683 0.702262 -0.104820 255 0 0
0.157483 -0.448986 -0.112440 153 0 76
-0.012499 0.804406 0.578189 255 0 0
-0.015726 0.735248 0.136806 255 0 0
-0.001638 0.629393 -0.045565 255 0 0
-0.008192 0.630556 0.615367 255 0 0
-0.041076 0.114767 -0.280831 255 0 0
0.010207 0.623622 0.694472 255 0 0
0.343611 -0.394049 -0.237913 153 0 76
-0.019778 0.482127 0.699581 255 0 0
0.343611 -0.422246 -0.178436 153 0 76
0.291740 -0.207280 -0.209914 153 0 76
0.046747 -0.815085 -0.323219 0 127 127
0.051686 -0.299994 -0.278656 76 153 0
-0.091106 0.853185 0.275716 255 0 0
-0.010075 0.760396 0.390709 255 0 0
-0.087559 -0.399820 -0.319794 76 153 0
-0.094875 0.832631 0.314720 255 0 0
0.001277 0.691390 -0.095424 255 0 0
-0.027792 0.309070 -0.278451 255 0 0
0.008346 0.714898 0.564229 255 0 0
-0.180449 -0.860143 -0.199853 0 127 127
0.006751 -0.527271 -0.111498 153 0 76
-0.125005 -0.849704 -0.146124 0 127 127
-0.141722 -0.532637 -0.269413 76 153 0
0.010057 0.742462 -0.031667 255 0 0
-0.096971 0.383772 0.811160 255 0 0
-0.061321 -0.162310 -0.277910 255 0 0
-0.049482 0.338734 0.837971 255 0 0
-0.099541 0.699478 -0.082564 255 0 0
-0.102665 0.774037 0.448695 255 0 0
0.225427 -0.497816 -0.105871 153 0 76
-0.058834 0.833739 0.470176 255 0 0
0.031688 -0.796064 -0.274698 0 127 127
-0.045265 0.570245 -0.223512 255 0 0
-0.061799 0.478966 -0.239884 255 0 0
-0.070140 -0.815085 -0.115051 0 127 127
-0.103562 0.535249 -0.162951 255 0 0
-0.077364 -0.834971 -0.362973 0 127 127
-0.005578 0.742035 0.432632 255 0 0
0.036670 -0.520217 -0.109291 153 0 76
-0.100683 0.787296 0.058827 255 0 0
-0.102861 0.291813 0.806635 255 0 0
-0.093507 -0.370810 -0.316412 76 153 0
0.021294 0.050034 -0.221123 255 0 0
-0.016798 0.529064 -0.109861 255 0 0
0.092115 -0.591731 -0.264012 153 0 76
0.272570 -0.162157 -0.197732 153 0 76
-0.013282 0.739230 0.466373 255 0 0
-0.092282 0.243772 -0.254182 255 0 0
0.265885 -0.410302 -0.138809 153 0 76
-0.087980 -0.591193 -0.319319 76 153 0
-0.067540 0.412189 0.713656 255 0 0
-0.008600 0.225831 0.745351 0 255 0
0.343611 -0.537122 -0.206336 153 0 76
-0.079821 0.849616 0.402330 255 0 0
-0.076082 0.686141 0.674029 255 0 0
0.016234 0.150289 -0.242437 255 0 0
0.188144 -0.462921 -0.324247 153 0 76
-0.000834 0.758125 0.595012 255 0 0
0.001562 0.804697 0.250049 255 0 0
-0.065943 0.568288 -0.208891 255 0 0
0.008847 0.497687 0.726851 255 0 0
-0.036062 0.882768 0.190346 255 0 0
0.014469 0.382204 -0.236488 255 0 0
-0.120512 -0.295854 -0.136847 76 153 0
-0.062638 0.760721 0.325328 255 0 0
-0.062013 0.665798 0.560538 255 0 0
-0.090515 -0.792405 -0.116435 76 153 0
-0.051096 0.541100 -0.230771 255 0 0
0.069437 -0.251190 -0.198735 76 153 0
-0.103339 0.119531 -0.230484 255 0 0
-0.015838 0.692435 -0.126389 255 0 0
0.024742 -0.774467 -0.307595 76 153 0
-0.146982 -0.469917 -0.256569 76 153 0
-0.071090 -0.724521 -0.109869 76 153 0
-0.017779 0.213410 -0.158907 255 0 0
-0.140099 -0.815085 -0.241455 0 127 127
