ply
format ascii 1.0
element vertex 1263
property float x
property float y
property float z
property uchar red
property uchar green
property uchar blue
end_header
-0.609879 -0.163361 0.120178 127 0 127
-0.182143 0.149531 -0.250472 127 127 0
-0.286735 0.141832 -0.581878 127 127 0
-0.693341 -0.001379 0.386497 153 0 76
0.200129 -0.454763 -0.625556 153 76 0
-0.693341 0.040040 0.132319 153 0 76
-0.618611 -0.124862 0.384982 127 0 127
-0.544163 -0.163361 0.473417 127 0 127
-0.548412 0.141832 0.537430 127 127 0
-0.717592 -0.430059 -0.107611 76 0 153
-0.592491 -0.114700 0.536339 76 0 153
0.051530 0.149531 0.523035 127 127 0
-0.496306 -0.447145 -0.625556 153 76 0
-0.019520 0.149531 -0.570660 127 127 0
0.594710 -0.124862 0.505414 153 76 0
-0.618546 0.149531 0.175288 127 127 0
-0.586308 -0.160735 0.529280 127 0 127
-0.731835 0.027678 0.331227 153 0 76
-0.649003 0.284425 -0.529541 127 127 0
0.609693 -0.124866 0.356597 0 127 127
-0.731835 -0.064519 0.254797 153 0 76
-0.731835 -0.446135 0.325104 76 0 153
0.538485 0.050099 0.204910 0 127 127
-0.539363 -0.086140 0.291647 0 127 127
-0.300176 0.141832 0.130629 127 127 0
0.378674 0.141832 0.216911 127 127 0
0.608792 0.042046 -0.305310 255 0 0
-0.652166 -0.124866 0.318406 127 0 127
-0.731835 0.108758 -0.253299 153 0 76
-0.731835 0.129403 -0.021652 0 0 255
-0.178515 0.114352 -0.625556 76 153 0
0.706529 -0.163361 0.105856 0 127 127
-0.130528 -0.448351 -0.548567 153 76 0
-0.364204 0.141832 0.360754 127 127 0
-0.599265 -0.124866 0.168089 76 0 153
0.106144 -0.457916 -0.625556 153 76 0
0.394385 0.127519 -0.625556 76 153 0
0.283281 0.149531 -0.106643 127 127 0
-0.617083 0.103337 0.198090 0 0 255
0.590884 -0.163361 0.087789 0 127 127
-0.185427 0.149531 -0.624024 127 127 0
-0.186297 0.149531 -0.371984 127 127 0
-0.604680 0.149531 0.133267 127 127 0
-0.141171 -0.430059 -0.611348 153 76 0
-0.671512 -0.004448 0.046880 0 0 255
-0.500868 -0.099680 -0.050942 76 153 0
0.769452 0.065016 -0.254833 127 0 127
0.703168 0.284425 -0.595486 255 0 0
-0.566300 -0.163361 -0.001434 127 0 127
0.761733 0.261056 -0.476647 255 0 0
-0.661782 -0.468554 0.032394 76 0 153
0.694663 -0.047787 -0.163622 0 0 255
0.769452 0.049823 0.342316 127 0 127
0.647545 -0.163361 0.396650 0 127 127
0.538485 -0.140286 0.165630 0 127 127
-0.720555 0.103337 0.372741 153 0 76
-0.525488 0.149531 -0.252376 127 127 0
0.769452 0.126748 -0.097103 0 127 127
0.609504 0.141832 -0.603304 127 127 0
-0.731835 -0.160938 0.325694 127 0 127
0.576979 -0.109266 -0.031687 0 127 127
0.687932 -0.045410 -0.117435 0 0 255
0.671488 -0.124866 0.314787 153 76 0
-0.539363 -0.059445 0.234846 0 127 127
0.714471 -0.430059 -0.541385 76 0 153
-0.245815 0.149531 0.547948 127 127 0
-0.065566 0.141832 -0.245441 127 127 0
0.399340 -0.451901 -0.548567 153 76 0
-0.522586 0.103337 0.108658 76 0 153
0.769452 -0.011905 -0.181008 127 0 127
-0.618671 0.261056 -0.547297 127 127 0
0.398393 0.149531 -0.523659 127 127 0
-0.693341 0.039923 -0.101386 153 0 76
0.696123 0.064843 -0.031456 153 0 76
0.397140 0.149531 -0.235042 127 127 0
0.707345 -0.004448 -0.104083 0 0 255
0.729363 0.064843 0.345120 255 0 0
0.162629 0.149531 0.210502 127 127 0
0.765526 0.103337 -0.332473 0 127 127
-0.693341 -0.122761 0.347891 76 0 153
-0.731835 -0.057483 0.335709 153 0 76
0.273705 -0.468554 -0.604416 153 76 0
0.745040 0.141832 0.150840 127 127 0
-0.515876 0.103337 0.195313 76 0 153
-0.591905 0.064843 0.072002 76 0 153
0.641108 -0.065794 -0.112193 0 127 127
-0.716682 -0.430059 -0.590110 76 0 153
0.742684 0.103337 -0.543857 0 127 127
-0.619618 -0.054704 -0.105495 0 0 255
-0.677414 -0.430059 0.486992 76 0 153
0.630815 -0.045410 0.352276 0 0 255
0.104220 0.141832 0.283711 127 127 0
-0.631472 -0.163361 -0.021356 127 0 127
-0.051712 -0.430059 -0.588950 153 76 0
-0.539363 -0.067741 0.259582 0 127 127
0.692463 0.120980 -0.124131 153 0 76
-0.505822 0.103337 -0.623166 76 153 0
-0.500868 0.074619 0.055427 76 153 0
-0.580223 -0.019593 -0.269723 0 255 0
0.769452 -0.447756 -0.249161 76 0 153
0.576979 -0.056833 0.512711 76 153 0
-0.500868 -0.007715 -0.222340 76 153 0
-0.712838 -0.336209 -0.086925 76 153 0
-0.667389 -0.045410 0.147643 0 0 255
-0.451113 0.103337 -0.550168 76 153 0
0.717303 -0.468554 0.070686 76 0 153
0.225129 0.141832 0.008496 127 127 0
0.006775 0.141832 -0.257464 127 127 0
-0.648372 -0.014610 0.342867 0 0 255
-0.582396 0.103337 0.146436 76 0 153
0.329021 0.149531 0.371355 127 127 0
0.721732 -0.442638 -0.625556 153 76 0
-0.515441 0.149531 0.226164 127 127 0
-0.731835 -0.036793 -0.111446 153 0 76
-0.718234 -0.163361 0.187082 153 0 76
-0.021502 0.141832 -0.273012 127 127 0
0.538485 -0.143861 0.202289 0 127 127
-0.661482 -0.114700 0.217584 127 0 127
-0.637366 -0.124862 0.515380 76 0 153
0.310022 0.141832 0.259043 127 127 0
-0.739534 -0.422912 0.359565 76 0 153
0.769452 -0.025359 -0.029177 127 0 127
0.496868 -0.446164 -0.548567 153 76 0
-0.500868 -0.141677 0.301135 76 153 0
0.745878 0.261056 -0.459950 255 0 0
0.502566 0.141832 0.106884 127 127 0
0.772234 -0.207965 -0.176364 153 0 76
0.769452 -0.148647 0.495658 127 0 127
0.185903 -0.455425 -0.548567 153 76 0
-0.470228 0.149531 -0.336161 127 127 0
-0.055997 -0.430059 -0.564352 153 76 0
-0.245589 0.141832 -0.423418 127 127 0
0.596245 0.103337 -0.063331 153 0 76
0.579580 -0.124866 0.245919 153 76 0
0.746156 -0.163361 0.528737 0 127 127
-0.641506 -0.123131 -0.163622 127 0 127
0.603831 0.103337 0.095680 153 0 76
0.707109 0.103337 -0.389171 0 127 127
0.656707 0.261056 -0.572086 255 0 0
0.692463 -0.431085 0.440582 76 0 153
0.600489 0.149531 0.133912 127 127 0
0.657490 -0.124866 0.449880 153 76 0
0.584678 -0.045493 0.094241 76 153 0
-0.654846 -0.449469 -0.534033 76 0 153
0.576979 -0.071127 0.355441 76 153 0
0.636897 -0.045410 0.179887 0 0 255
0.609040 0.141832 0.297229 127 127 0
0.275980 0.141832 0.076676 127 127 0
-0.719894 -0.163361 0.425531 127 0 127
0.755334 0.141832 -0.203417 0 127 127
-0.077098 0.141832 -0.282773 127 127 0
0.609296 -0.004448 0.235626 127 127 0
0.607475 -0.045410 0.329449 0 0 255
-0.219977 0.141832 -0.049242 127 127 0
-0.059887 -0.468554 -0.573090 153 76 0
-0.281272 0.149531 0.038209 127 127 0
0.769452 -0.057763 -0.187485 127 0 127
-0.145575 0.149531 0.401201 127 127 0
0.692463 -0.452316 -0.164855 76 0 153
0.580195 0.149531 -0.017594 127 127 0
-0.731835 -0.054751 0.299670 153 0 76
-0.474927 0.149531 0.250211 127 127 0
0.102086 0.149531 -0.192214 127 127 0
-0.500868 -0.113650 0.060123 76 153 0
-0.739222 -0.205127 -0.147207 76 153 0
-0.693341 -0.110546 0.235400 76 153 0
-0.549546 0.064843 0.276307 76 153 0
0.702574 0.149531 0.016149 127 127 0
-0.422993 0.141832 0.090184 127 127 0
-0.547062 -0.100024 0.162761 0 127 127
0.631315 -0.114700 0.486724 153 76 0
-0.563098 -0.163361 -0.157433 127 0 127
0.667981 -0.114700 0.514845 153 76 0
-0.636077 0.284425 -0.467859 127 127 0
0.723474 0.141832 -0.460780 0 127 127
-0.547483 -0.088280 0.579708 0 127 127
0.719383 -0.451431 0.529280 76 0 153
-0.587153 0.149531 -0.286161 127 127 0
-0.335673 0.149531 0.013916 127 127 0
0.380242 -0.468554 -0.578366 153 76 0
0.737625 0.149531 0.031643 127 127 0
-0.549190 -0.045410 0.573132 0 127 127
0.769452 0.000874 -0.256760 153 0 76
-0.137126 0.149531 -0.253566 127 127 0
-0.592889 -0.014610 0.027205 0 0 255
0.269177 -0.430059 -0.568619 153 76 0
0.179506 0.141832 0.152242 127 127 0
0.769452 -0.444429 0.281483 76 0 153
-0.353371 0.141832 -0.333836 127 127 0
-0.624215 0.007344 -0.163622 204 51 127
-0.552117 0.149531 -0.490630 127 127 0
0.478852 0.149531 -0.378019 127 127 0
0.128770 0.141832 0.170516 127 127 0
-0.693341 -0.092069 0.056047 76 153 0
0.707304 0.064843 0.506285 153 0 76
0.706617 -0.114700 0.374400 0 127 127
-0.716804 -0.468554 0.434241 76 0 153
0.755276 -0.430059 0.066267 76 0 153
0.599985 -0.045410 0.265147 0 0 255
-0.220497 0.149531 -0.521154 127 127 0
-0.500868 0.064804 0.337936 76 153 0
-0.721377 0.103337 -0.286169 153 0 76
-0.208032 0.149531 0.292607 127 127 0
-0.067020 0.106355 -0.625556 76 153 0
-0.269683 0.149531 -0.103051 127 127 0
-0.731835 0.129221 -0.528664 0 0 255
0.769452 0.108768 -0.050636 0 127 127
0.768580 0.149531 0.568367 127 127 0
0.719978 0.064843 0.380047 255 0 0
0.670456 0.064843 -0.027104 153 0 76
0.721489 -0.468554 -0.605135 153 76 0
0.642115 0.141832 0.553341 127 127 0
-0.593164 -0.124866 -0.003496 127 0 127
0.774349 0.149531 -0.153316 153 0 76
0.713531 0.141832 0.559574 127 127 0
-0.610369 -0.163361 -0.095652 127 0 127
-0.032093 0.149531 0.334251 127 127 0
-0.547062 -0.090482 0.547653 0 127 127
-0.031992 0.141832 0.509742 127 127 0
-0.641509 0.103337 0.485199 0 0 255
0.769452 0.007112 -0.024846 127 0 127
0.066681 -0.468554 -0.605233 153 76 0
-0.532855 -0.465049 -0.625556 153 76 0
0.730957 -0.001332 0.318819 255 0 0
0.538485 0.094848 0.473623 0 127 127
-0.554869 0.109100 -0.625556 76 153 0
-0.539363 -0.012873 0.554968 153 76 0
0.634599 0.064843 0.318179 153 0 76
0.711390 0.064843 -0.143412 0 255 0
0.569983 0.146061 -0.625556 127 127 0
0.067598 0.141832 -0.155336 127 127 0
-0.614420 -0.045410 0.169646 204 51 127
-0.500868 -0.160973 -0.182550 76 153 0
0.532566 0.141832 -0.386425 127 127 0
-0.639429 0.149531 -0.569854 127 127 0
0.634318 0.103337 0.266583 153 0 76
0.574859 0.149531 -0.210921 127 127 0
-0.500868 -0.138053 0.431605 127 0 127
0.538485 -0.107212 0.368590 0 127 127
0.730957 -0.046246 0.355638 153 0 76
0.490247 0.141832 -0.398993 127 127 0
-0.615438 0.141832 0.583435 127 127 0
0.769452 -0.452602 -0.189578 76 0 153
-0.589418 -0.124866 0.356526 76 0 153
-0.739534 -0.231024 -0.160724 76 153 0
0.677454 -0.447557 -0.548567 153 76 0
-0.674119 0.067039 0.529280 153 0 76
-0.604644 -0.014610 0.484390 153 76 0
-0.672345 0.103337 0.269240 153 0 76
0.187298 0.141832 -0.539053 127 127 0
0.664870 0.103337 0.284211 153 0 76
-0.731835 0.267207 -0.439762 127 127 0
-0.547062 -0.000868 0.532691 76 153 0
0.686323 0.141832 -0.355716 127 127 0
-0.630698 -0.163361 0.506871 127 0 127
-0.667073 0.103337 -0.045133 0 0 255
0.646080 -0.114700 0.153527 153 76 0
-0.571963 -0.045410 0.456166 0 0 255
0.701108 -0.004448 0.306467 127 127 0
0.777151 -0.446351 0.508837 76 0 153
0.578412 -0.014614 0.048304 127 127 0
0.750363 0.149531 0.435942 127 127 0
0.753804 0.141832 -0.376915 127 127 0
0.669493 -0.163361 0.028128 0 127 127
-0.685036 0.141832 0.471682 0 0 255
0.645070 -0.114700 0.003337 153 76 0
0.709734 -0.101909 -0.237596 153 0 76
-0.664324 -0.274310 -0.122662 76 153 0
-0.414141 0.149531 0.342879 127 127 0
0.181383 0.141832 -0.420610 127 127 0
0.698199 0.230061 -0.415267 255 0 0
-0.685642 0.043825 0.159824 153 0 76
0.576979 0.021525 -0.127364 0 0 255
0.576979 -0.061151 -0.030557 0 127 127
0.550050 0.149531 0.398221 127 127 0
-0.592628 -0.014614 0.356229 204 51 127
0.538485 -0.129736 -0.169263 0 127 127
-0.731835 0.061768 0.441783 153 0 76
0.716033 0.103337 -0.415681 153 0 76
0.753269 -0.430059 -0.137286 76 0 153
-0.590369 -0.014610 -0.125567 153 76 0
-0.500868 0.026885 -0.099063 76 153 0
-0.713995 -0.163361 0.485207 127 0 127
0.772629 -0.299801 -0.092547 153 0 76
-0.731835 -0.142829 0.288562 153 0 76
-0.589189 -0.163361 -0.017180 127 0 127
-0.693341 -0.080556 0.201308 76 153 0
-0.217819 0.141832 0.246379 127 127 0
0.632900 -0.045410 -0.065817 0 0 255
-0.555407 0.141832 -0.620348 127 127 0
-0.719519 0.149531 0.172508 127 127 0
0.538485 -0.036957 0.326613 0 127 127
0.671136 -0.045410 0.342959 0 0 255
-0.151263 0.149531 0.154413 127 127 0
-0.719226 0.051055 0.529280 153 0 76
-0.602083 -0.163361 0.437850 127 0 127
0.648381 -0.114700 0.304431 153 76 0
-0.515723 0.141832 0.073385 127 127 0
0.631391 -0.045410 0.032207 0 0 255
0.584678 -0.063822 0.145196 76 153 0
-0.685791 -0.468554 -0.252721 76 0 153
-0.562364 -0.124862 0.007253 76 0 153
-0.108672 0.141832 -0.433612 127 127 0
0.091818 0.149531 -0.610004 127 127 0
-0.434683 0.141832 0.453479 127 127 0
-0.673872 -0.163361 0.514515 127 0 127
0.668522 0.196988 -0.395868 255 0 0
-0.484744 0.141832 -0.005080 127 127 0
0.195443 0.141832 0.013927 127 127 0
0.337357 0.149531 -0.483644 127 127 0
0.692463 0.119444 0.088579 153 0 76
0.162684 0.104690 -0.625556 76 153 0
-0.580030 0.141832 -0.360689 127 127 0
0.538485 -0.063262 0.049252 0 127 127
0.303903 0.141832 0.523832 127 127 0
-0.330564 0.141832 -0.516604 127 127 0
0.459015 0.149531 -0.288045 127 127 0
-0.417695 0.149531 -0.117160 127 127 0
-0.557857 -0.014610 0.339566 153 76 0
0.230032 -0.468554 -0.550591 153 76 0
0.620788 0.141832 -0.288761 127 127 0
-0.554296 0.261056 -0.544657 127 127 0
0.676833 -0.014610 0.103440 127 127 0
0.544822 0.103337 -0.602799 76 153 0
0.727577 0.119132 0.529280 153 0 76
-0.526883 0.141832 0.527440 127 127 0
0.667684 0.254317 -0.429494 255 0 0
-0.685642 0.006974 0.254383 153 0 76
0.623149 0.103337 -0.254929 153 0 76
0.279797 0.149531 -0.616001 127 127 0
0.573993 -0.163361 0.222371 0 127 127
0.715416 0.103337 -0.612169 76 153 0
0.692835 -0.430059 0.470911 76 0 153
-0.590297 -0.124866 -0.160419 204 51 127
0.568385 -0.113753 -0.215360 0 127 127
0.600477 0.054899 0.558536 204 51 127
-0.410035 0.141832 0.423830 127 127 0
0.769452 -0.013177 0.103765 127 0 127
-0.639272 0.012781 -0.137138 76 0 153
-0.731835 -0.016810 -0.202507 153 0 76
-0.311211 0.141832 0.492389 127 127 0
-0.731835 -0.026090 0.062125 153 0 76
-0.398446 0.149531 -0.256888 127 127 0
-0.356312 0.141832 -0.497754 127 127 0
0.769452 -0.101575 0.478362 127 0 127
-0.639409 -0.014614 -0.160595 204 51 127
-0.571943 -0.014614 0.493735 204 51 127
0.328413 0.149531 -0.570936 127 127 0
0.743717 -0.313936 -0.115182 153 0 76
0.730957 0.044347 -0.009528 255 0 0
-0.547062 0.040231 0.347556 76 153 0
-0.566792 -0.163361 0.045897 127 0 127
0.771720 -0.422360 0.104796 76 0 153
0.432807 0.149531 0.334110 127 127 0
0.668313 -0.114700 0.013023 153 76 0
-0.731835 -0.014009 0.113659 153 0 76
0.769452 -0.174841 -0.035261 127 0 127
0.777151 -0.434871 -0.413235 76 0 153
-0.527517 0.149531 -0.164810 127 127 0
-0.537840 0.141832 0.264716 127 127 0
0.623913 -0.045410 -0.139938 0 0 255
-0.667014 -0.045410 0.419436 0 0 255
0.492424 0.141832 -0.147451 127 127 0
0.025036 0.141832 -0.369757 127 127 0
0.738138 0.076802 0.529280 127 0 127
0.002268 0.141832 0.499921 127 127 0
0.723333 0.141832 -0.174000 153 0 76
-0.556134 0.141832 -0.058022 127 127 0
0.552729 0.103337 -0.199146 0 127 127
-0.093017 -0.430059 -0.559918 153 76 0
0.582344 -0.124866 0.341197 153 76 0
-0.731835 0.108995 0.451594 0 0 255
0.685723 -0.124866 -0.068928 0 127 127
-0.665492 0.141832 -0.588358 127 127 0
-0.739534 0.136563 0.083697 153 0 76
0.467244 0.149531 -0.340386 127 127 0
-0.620077 0.103337 0.082385 153 0 76
-0.693341 -0.070803 -0.025317 76 153 0
-0.556227 -0.045410 0.196567 0 0 255
-0.731835 0.037969 0.188060 153 0 76
0.588726 -0.124866 0.064901 76 153 0
-0.557503 -0.014614 0.381784 153 76 0
-0.707308 0.141832 0.516237 127 127 0
0.614098 0.254272 -0.429467 255 0 0
0.769452 -0.452275 -0.113768 76 0 153
0.677193 -0.014614 0.364338 127 127 0
-0.573378 0.039489 0.555764 0 127 127
0.289413 0.141832 -0.554258 127 127 0
-0.697863 -0.011617 0.529280 153 0 76
-0.685642 -0.065129 0.331319 153 0 76
0.637138 -0.004448 0.185461 127 127 0
-0.002689 0.141832 0.372640 127 127 0
-0.592882 0.103337 0.364728 76 0 153
0.585325 0.145399 0.583480 127 127 0
-0.629441 0.149531 -0.609089 127 127 0
-0.552723 -0.124862 0.175334 76 0 153
-0.539363 -0.110706 0.435532 0 127 127
-0.598065 0.141832 -0.030724 127 127 0
0.542895 0.103337 -0.131860 153 0 76
-0.711419 -0.468554 -0.609435 153 76 0
0.111371 0.141832 0.444322 127 127 0
0.777151 -0.425486 0.310201 76 0 153
-0.718002 -0.430059 0.241064 76 0 153
0.618265 -0.045410 0.130688 0 0 255
0.471628 0.149531 0.260705 127 127 0
0.757211 -0.430059 -0.054043 153 0 76
0.304672 0.149531 -0.238917 127 127 0
-0.703809 -0.430059 -0.237616 76 0 153
-0.654846 -0.446671 0.379310 76 0 153
0.538485 0.054955 0.137030 0 127 127
0.653984 0.128632 -0.625556 127 127 0
-0.561441 0.284425 -0.453986 127 127 0
-0.634106 -0.163361 0.212790 127 0 127
0.503477 0.149531 -0.219380 127 127 0
0.293712 0.141832 0.240948 127 127 0
-0.248542 0.149531 0.223128 127 127 0
0.723258 -0.093645 0.340599 127 0 127
-0.500868 -0.025238 0.429065 76 153 0
0.692463 0.050963 -0.316022 153 0 76
-0.539363 -0.004376 -0.032482 76 153 0
0.385366 0.141832 -0.404041 127 127 0
0.216285 0.141832 -0.068288 127 127 0
-0.692143 -0.163361 0.393788 127 0 127
-0.718014 -0.163361 -0.111695 127 0 127
0.701859 -0.468554 -0.555406 153 76 0
-0.067609 0.141832 0.165346 127 127 0
0.717267 -0.468554 -0.231482 76 0 153
-0.650371 0.149531 -0.099567 127 127 0
-0.500868 -0.137605 0.065988 76 153 0
0.688159 -0.163361 -0.143858 0 127 127
0.582980 0.103337 0.405927 153 0 76
0.666984 -0.014610 0.141914 127 127 0
-0.500868 -0.066035 0.402001 76 153 0
-0.683031 0.018205 -0.291546 76 153 0
0.622115 0.183140 -0.387746 255 0 0
-0.105731 -0.446467 -0.625556 153 76 0
0.769452 -0.123677 0.029251 127 0 127
-0.693341 0.051325 0.476274 153 0 76
0.683461 0.029920 -0.298309 255 0 0
0.596403 -0.163361 -0.182476 255 0 0
-0.601407 -0.163361 -0.127396 127 0 127
0.555459 0.149531 0.099634 127 127 0
-0.342521 0.149531 -0.203316 127 127 0
-0.500868 -0.009027 0.391892 76 153 0
-0.739534 0.104146 0.059440 0 0 255
-0.654846 0.126584 0.413540 0 0 255
0.151942 0.141832 -0.358992 127 127 0
0.756256 -0.035384 -0.276004 153 0 76
-0.676216 0.213729 -0.405688 153 0 76
0.769452 -0.062620 0.131177 127 0 127
0.720300 -0.430059 -0.264355 76 0 153
0.647940 -0.124866 -0.055708 0 127 127
-0.696648 0.141832 0.285709 127 127 0
-0.500868 -0.153242 0.264162 76 153 0
0.176550 0.141832 0.238846 127 127 0
0.200331 0.141832 -0.485620 127 127 0
-0.615659 0.149531 0.034299 127 127 0
-0.643186 0.141832 -0.003480 127 127 0
0.769452 -0.447456 0.012520 76 0 153
0.652231 -0.114700 0.562176 153 76 0
-0.674252 -0.163361 0.484769 127 0 127
0.734500 -0.430059 -0.175236 76 0 153
0.662443 0.064843 0.480884 153 0 76
0.172630 0.141832 0.264532 127 127 0
-0.654846 0.132562 0.069310 153 0 76
-0.584122 -0.045410 0.304149 204 51 127
0.538485 -0.160627 -0.033948 0 127 127
0.769452 -0.054925 0.077670 127 0 127
0.662703 0.141832 -0.132134 127 127 0
-0.283044 -0.464297 -0.625556 153 76 0
0.199593 0.149531 -0.107198 127 127 0
-0.693341 -0.090770 0.251627 76 153 0
0.723258 0.059924 0.453839 255 0 0
0.586335 -0.163361 -0.120226 0 127 127
-0.731835 0.041494 0.454758 153 0 76
-0.654846 -0.448179 -0.328900 76 0 153
0.137955 0.149531 -0.168234 127 127 0
-0.138253 0.149531 0.438944 127 127 0
-0.598564 -0.114700 0.487320 76 0 153
-0.703388 0.235367 -0.432322 127 127 0
-0.542087 -0.014614 0.081421 153 76 0
-0.722872 0.103337 -0.315887 153 0 76
0.494495 0.103337 -0.608068 76 153 0
-0.103300 0.149531 -0.245323 127 127 0
0.655896 0.141832 0.073586 127 127 0
-0.005733 0.141832 0.344698 127 127 0
-0.238619 0.141832 -0.280582 127 127 0
-0.244163 0.141832 -0.383654 127 127 0
0.633659 -0.015143 -0.272292 255 0 0
0.051112 0.149531 -0.013413 127 127 0
0.559852 -0.163361 0.489779 0 127 127
-0.731835 0.122513 0.110201 0 0 255
-0.530331 0.149531 -0.037558 127 127 0
-0.539363 0.012716 -0.057334 76 153 0
-0.707561 -0.430059 0.308837 76 0 153
0.372008 0.141832 -0.157487 127 127 0
-0.693341 -0.010574 -0.056847 153 0 76
-0.302750 0.103337 -0.614613 76 153 0
-0.539363 0.037222 0.387618 76 153 0
-0.500868 -0.027984 0.014741 76 153 0
0.671358 -0.004448 -0.109055 127 127 0
-0.674416 0.103337 -0.595475 76 153 0
0.714961 0.103337 0.081164 0 127 127
0.618704 -0.114700 0.505950 153 76 0
0.679925 -0.014610 -0.042692 127 127 0
0.769452 -0.019564 0.333206 127 0 127
-0.586280 0.284425 -0.543465 127 127 0
0.686969 0.103337 -0.321491 0 127 127
-0.547062 0.046487 -0.022344 76 153 0
0.565955 0.103337 0.185720 153 0 76
0.538485 -0.107378 0.139402 0 127 127
0.654409 0.103337 0.082857 153 0 76
-0.562495 0.103337 0.185363 76 0 153
0.769452 -0.103174 0.226046 127 0 127
-0.696489 -0.453567 -0.625556 153 76 0
-0.218508 0.149531 -0.497520 127 127 0
0.359896 0.141832 0.418447 127 127 0
-0.693341 -0.086894 0.412337 76 153 0
-0.731835 0.010845 0.227357 153 0 76
0.441515 0.141832 -0.085576 127 127 0
0.400536 0.141832 -0.364639 127 127 0
-0.444339 0.141832 -0.088065 127 127 0
-0.562079 -0.163361 0.069875 127 0 127
0.663536 0.149531 -0.052366 127 127 0
-0.674414 0.103337 0.146062 0 0 255
-0.567899 -0.045410 0.009661 204 51 127
-0.539363 0.254912 -0.443411 127 127 0
0.712158 -0.014614 0.183911 127 127 0
-0.500868 0.065318 0.436274 76 153 0
0.656371 -0.163361 0.241602 0 127 127
0.708564 0.103337 -0.572476 76 153 0
-0.739534 0.145164 0.424440 127 127 0
0.769452 -0.446013 -0.561592 76 0 153
0.730072 -0.045410 0.525073 127 0 127
0.271513 0.149531 0.162505 127 127 0
0.704443 -0.139809 0.529280 0 127 127
-0.649799 0.103337 -0.090032 153 0 76
0.613741 -0.014614 0.137637 127 127 0
0.664491 -0.124866 0.355720 0 127 127
0.679331 -0.090120 -0.104494 0 127 127
0.730957 -0.084580 -0.153803 127 0 127
0.151179 0.141832 -0.335845 127 127 0
-0.539363 0.036977 0.242200 76 153 0
-0.150643 0.149531 0.009094 127 127 0
0.576979 0.265908 -0.591224 255 0 0
-0.647695 0.149531 0.188050 127 127 0
0.596373 -0.014614 0.185232 0 0 255
-0.672994 -0.124862 0.241099 76 153 0
0.742260 0.284425 -0.452606 255 0 0
0.705888 0.103337 -0.200178 153 0 76
0.723258 -0.093595 -0.027949 153 0 76
0.697095 -0.014610 0.454454 127 127 0
-0.081445 0.149531 -0.152866 127 127 0
-0.729170 -0.163361 0.523494 153 0 76
0.661345 -0.163361 0.372901 0 127 127
0.752355 -0.468554 0.260701 76 0 153
0.633550 -0.124866 0.200690 153 76 0
-0.609631 0.149531 -0.001371 127 127 0
0.714608 0.141832 -0.596059 127 127 0
0.295113 0.149531 0.345155 127 127 0
-0.474131 0.141832 -0.077936 127 127 0
-0.587028 0.064843 0.180557 76 0 153
0.565325 -0.430059 -0.596409 153 76 0
0.576979 0.063729 -0.123662 0 0 255
0.632628 0.064843 -0.020047 153 0 76
0.727784 -0.124866 0.237608 153 76 0
-0.553868 0.078888 0.529280 76 0 153
0.086122 0.141832 -0.005451 127 127 0
-0.147680 0.141832 -0.134901 127 127 0
-0.641373 -0.004448 0.121610 153 76 0
0.460761 0.141832 0.300823 127 127 0
-0.628503 0.045613 -0.137138 76 0 153
-0.625241 -0.163361 0.458457 127 0 127
-0.654846 0.124781 0.467317 0 0 255
0.487491 0.149531 -0.325509 127 127 0
0.584678 -0.057543 0.555705 76 153 0
-0.468837 -0.468554 -0.576605 153 76 0
-0.013964 0.141832 -0.404836 127 127 0
-0.703082 -0.163361 -0.027062 127 0 127
0.482395 -0.468554 -0.608238 153 76 0
0.713318 0.044920 -0.126667 255 0 0
-0.712339 -0.430059 -0.530385 76 0 153
-0.734179 -0.468554 -0.057816 76 0 153
0.717948 0.015935 -0.305633 153 0 76
-0.693341 0.027793 0.362764 153 0 76
-0.404787 0.149531 0.553668 127 127 0
0.730957 0.043147 0.105859 127 0 127
0.757522 -0.430059 0.458899 76 0 153
-0.076558 0.149531 0.288750 127 127 0
0.769452 0.084255 0.289866 0 127 127
-0.654846 -0.451699 0.206674 76 0 153
0.483069 0.141832 -0.185808 127 127 0
-0.731835 -0.012970 -0.227667 153 0 76
-0.731835 -0.130439 -0.018870 153 0 76
-0.650962 -0.114700 0.040903 127 0 127
0.572949 -0.163361 0.169563 0 127 127
0.608787 -0.004448 0.094014 0 0 255
-0.539363 0.037664 0.303870 76 153 0
0.615511 0.064843 0.470093 153 0 76
-0.635031 -0.124866 0.224804 127 0 127
-0.666591 0.149531 0.274729 127 127 0
-0.027915 -0.468554 -0.571854 153 76 0
-0.704245 -0.162002 -0.202901 76 153 0
-0.500868 0.061970 0.297430 76 153 0
0.589141 0.141832 0.339230 127 127 0
0.577344 0.103337 -0.125933 153 0 76
-0.562912 0.064843 0.486733 76 153 0
-0.516693 0.141832 0.313828 127 127 0
-0.670280 -0.163361 0.375541 127 0 127
-0.522008 0.141832 -0.475242 127 127 0
-0.595260 0.141832 0.437239 127 127 0
-0.655428 -0.468554 -0.383736 76 0 153
-0.739534 -0.457871 -0.517361 76 0 153
0.562484 -0.163361 0.410052 0 127 127
-0.739031 -0.468554 0.067717 76 0 153
0.255158 -0.468554 -0.552949 153 76 0
-0.665356 -0.114700 0.364372 76 153 0
-0.635356 -0.163361 0.415452 127 0 127
-0.573110 -0.124862 0.275625 76 0 153
0.730957 -0.120577 -0.062544 153 76 0
-0.514381 0.149531 -0.328527 127 127 0
-0.634699 -0.014610 0.257752 0 0 255
-0.364534 0.141832 -0.140258 127 127 0
-0.567608 -0.114700 0.201702 127 0 127
0.730957 -0.050397 0.183665 153 0 76
0.357452 0.141832 -0.401302 127 127 0
-0.587763 0.103337 0.311045 76 0 153
-0.735006 0.149531 -0.106031 127 127 0
-0.731835 0.055729 0.316423 153 0 76
0.777151 0.142666 0.190775 127 127 0
0.669732 0.141832 0.136407 127 127 0
-0.342473 0.149531 0.519051 127 127 0
-0.589986 0.141832 -0.079683 127 127 0
0.723713 0.103337 0.490873 127 127 0
0.692463 -0.450339 -0.490215 76 0 153
0.102297 0.141832 -0.374939 127 127 0
0.309767 -0.430059 -0.597269 153 76 0
-0.697825 -0.468554 -0.088927 76 0 153
-0.731835 0.118207 -0.579678 153 0 76
0.576979 -0.066346 -0.053197 76 153 0
-0.731835 -0.458205 0.186683 76 0 153
0.769452 0.068480 0.116764 127 0 127
-0.256488 0.141832 0.333144 127 127 0
-0.600832 0.020016 -0.292592 0 255 0
0.422817 0.149531 -0.428271 127 127 0
-0.590428 0.103337 0.047601 76 0 153
0.645869 -0.163361 0.283446 0 127 127
-0.682478 -0.045410 0.400053 0 0 255
0.777151 -0.450961 -0.517985 76 0 153
-0.677527 -0.430059 -0.394386 76 0 153
0.769452 -0.446543 0.407866 76 0 153
-0.388478 0.141832 0.060800 127 127 0
0.737795 -0.468554 -0.140312 76 0 153
0.538485 0.070798 0.107418 0 127 127
0.219472 0.149531 -0.228941 127 127 0
-0.707448 -0.468554 -0.147847 76 0 153
-0.693341 -0.104837 -0.037087 153 0 76
-0.713280 -0.430059 0.049408 76 0 153
0.512598 0.141832 -0.541275 127 127 0
0.692463 0.125254 -0.231576 153 0 76
0.756068 0.141832 -0.113664 127 127 0
0.777151 -0.465823 -0.132132 76 0 153
-0.500868 -0.053164 -0.061324 76 153 0
0.730957 -0.103614 0.568765 76 0 153
0.674562 0.039848 0.550837 204 51 127
-0.679623 0.261056 -0.521369 127 127 0
0.638657 0.103337 -0.050299 153 0 76
-0.656146 -0.430059 0.116500 76 0 153
0.616498 -0.004448 0.044793 127 127 0
0.438383 0.149531 0.288772 127 127 0
0.730957 0.045289 -0.077989 255 0 0
0.131877 0.149531 0.105315 127 127 0
0.710148 -0.004448 0.139910 127 127 0
0.089145 0.149531 -0.159509 127 127 0
0.614731 0.064843 0.292474 153 0 76
-0.585973 0.099678 -0.338584 76 0 153
-0.731835 0.074638 -0.158046 153 0 76
0.686142 0.141832 0.236706 127 127 0
0.538485 -0.088474 0.439651 0 127 127
0.769452 0.051582 0.317971 127 0 127
0.643549 0.055650 0.550837 204 51 127
-0.500868 -0.104915 0.166534 76 153 0
-0.231068 0.149531 0.489176 127 127 0
-0.725490 -0.163361 -0.045534 153 0 76
0.661212 -0.045410 0.380876 0 0 255
0.630270 0.141832 -0.572177 127 127 0
0.503177 0.149531 0.487500 127 127 0
0.640649 -0.144609 -0.197545 255 0 0
-0.611964 -0.154767 -0.191680 0 255 0
0.538485 0.055178 0.274950 0 127 127
-0.731835 0.126690 0.026274 153 0 76
0.769452 0.046405 0.057529 127 0 127
0.292584 0.141832 -0.269263 127 127 0
0.568514 -0.163361 0.106129 0 127 127
0.643417 -0.114700 0.342975 0 127 127
-0.348767 0.149531 0.128025 127 127 0
-0.125336 0.149531 -0.574172 127 127 0
-0.684429 0.103337 0.044786 0 0 255
-0.731835 -0.008853 0.017958 153 0 76
0.055409 0.149531 0.224296 127 127 0
0.606006 0.103337 0.359508 153 0 76
-0.682602 -0.468554 -0.178404 76 0 153
0.538485 0.091107 -0.105507 153 0 76
0.769452 -0.122124 0.312512 127 0 127
0.557706 0.141832 0.018418 127 127 0
-0.599771 0.103337 -0.306722 76 0 153
-0.664302 -0.163361 0.108013 127 0 127
-0.731835 0.083090 -0.042858 0 0 255
-0.612643 0.141832 0.061632 127 127 0
0.070577 0.141832 0.360925 127 127 0
0.681011 -0.045410 0.174336 0 0 255
0.334740 0.149531 0.227381 127 127 0
-0.619002 -0.007154 -0.276905 0 255 0
0.665833 0.103337 -0.134212 153 0 76
-0.731835 0.026631 0.379118 153 0 76
0.558652 0.103337 -0.020813 153 0 76
0.327993 0.141832 -0.607138 127 127 0
-0.561819 -0.114700 0.493123 76 0 153
-0.731835 0.080591 0.217676 153 0 76
0.777151 -0.451547 -0.374591 76 0 153
-0.726473 -0.468554 0.141315 76 0 153
-0.593134 0.149531 -0.427194 127 127 0
0.723258 0.006266 -0.010353 255 0 0
-0.049488 0.149531 -0.103697 127 127 0
0.655213 -0.014610 0.039616 127 127 0
0.609597 0.103337 0.050155 153 0 76
-0.731835 -0.127896 0.214100 153 0 76
-0.609166 -0.132784 0.529280 76 0 153
-0.554859 -0.045410 0.077644 204 51 127
0.096784 0.149531 0.553344 127 127 0
0.262977 0.149531 -0.130897 127 127 0
-0.162102 0.149531 -0.277486 127 127 0
-0.716048 0.149531 0.492798 127 127 0
0.576979 -0.064927 -0.099346 76 153 0
-0.558941 0.064843 -0.153371 76 153 0
0.769452 0.008822 0.307251 127 0 127
-0.617701 -0.124862 0.324057 76 0 153
0.018712 0.149531 0.145385 127 127 0
-0.547763 -0.124862 0.526151 127 0 127
0.271115 -0.430059 -0.596962 153 76 0
0.714899 -0.014614 0.112717 127 127 0
0.698043 0.064843 -0.075615 153 0 76
-0.625676 0.261056 -0.500914 127 127 0
-0.572165 0.149531 0.282801 127 127 0
0.135519 0.149531 -0.617586 127 127 0
-0.731835 -0.069287 0.492901 153 0 76
0.370611 0.149531 0.100774 127 127 0
0.755813 -0.163361 0.337762 0 127 127
-0.739534 -0.434205 -0.157901 76 0 153
0.568460 0.103337 0.060742 153 0 76
0.071752 0.149531 -0.311683 127 127 0
0.769452 0.010635 0.501289 127 0 127
-0.539363 -0.087370 -0.110059 153 0 76
-0.227895 0.149531 0.127346 127 127 0
-0.693341 0.016081 -0.112075 153 0 76
-0.546406 -0.037168 -0.259576 0 255 0
-0.248924 0.149531 0.425662 127 127 0
-0.205098 0.149531 -0.457671 127 127 0
0.711609 -0.375366 -0.064318 153 0 76
-0.731835 -0.034322 0.467239 153 0 76
-0.503850 0.149531 -0.549029 127 127 0
-0.519745 0.141832 0.029103 127 127 0
-0.539363 -0.005319 0.459112 153 76 0
0.692463 0.129098 0.490543 127 127 0
0.730957 -0.045550 0.554783 153 0 76
-0.599689 0.103337 -0.161363 76 0 153
0.348766 -0.468554 -0.591057 153 76 0
0.643507 -0.105902 -0.104494 0 127 127
0.681514 -0.163361 0.316875 0 127 127
-0.709986 -0.163361 0.448540 127 0 127
0.777026 0.141832 -0.406877 0 127 127
-0.601308 0.081067 0.529280 76 0 153
-0.278202 0.103337 -0.603730 76 153 0
0.716724 0.141832 -0.294358 153 0 76
-0.329189 0.141832 0.573721 127 127 0
-0.067890 0.149531 0.563625 127 127 0
-0.665936 -0.430059 0.313581 76 0 153
-0.547062 0.021468 0.428947 76 153 0
-0.537995 0.149531 -0.298457 127 127 0
0.679224 0.103337 0.150780 153 0 76
-0.693341 0.002239 -0.010134 153 0 76
0.744455 0.103337 -0.003306 153 0 76
0.769452 0.052150 0.514060 127 0 127
-0.589726 -0.014614 0.419882 153 76 0
0.721774 0.103337 -0.009678 127 127 0
0.588746 -0.124866 0.183503 76 153 0
-0.573720 -0.163361 0.470859 127 0 127
0.618562 0.141832 0.343956 127 127 0
0.615751 0.064843 0.435172 153 0 76
0.703392 -0.430059 0.232609 76 0 153
-0.739534 0.147048 0.046787 127 127 0
-0.667358 0.064843 0.028787 76 0 153
-0.543999 0.141832 0.483117 127 127 0
0.702480 0.064843 0.483495 153 0 76
0.397245 0.149531 -0.610837 127 127 0
0.584678 0.046017 0.344542 0 127 127
-0.719517 0.103337 -0.143490 153 0 76
0.766584 0.016890 0.529280 127 0 127
-0.685642 0.041313 0.400005 153 0 76
0.654959 0.149531 0.573573 127 127 0
-0.500868 -0.029506 0.102348 76 153 0
0.599653 0.149531 -0.405856 127 127 0
0.104003 0.141832 -0.573538 127 127 0
0.097372 0.149531 0.206295 127 127 0
-0.257541 0.141832 -0.066529 127 127 0
-0.675860 0.115409 0.529280 0 0 255
0.761069 0.103337 0.172757 153 0 76
-0.696148 -0.163361 0.306689 127 0 127
-0.201175 0.124578 -0.625556 76 153 0
-0.418458 0.141832 0.196428 127 127 0
-0.616391 -0.045410 -0.019004 0 0 255
-0.680805 -0.430059 -0.182082 76 0 153
0.515022 0.149531 -0.354373 127 127 0
-0.500868 -0.101623 0.102974 76 153 0
-0.500868 -0.030083 -0.009697 76 153 0
0.257573 0.141832 0.002206 127 127 0
0.777151 0.146923 0.045286 153 0 76
-0.699481 0.125985 0.529280 0 0 255
0.753555 0.284425 -0.494485 255 0 0
0.621045 0.093941 -0.335272 255 0 0
-0.661694 0.103337 0.188809 153 0 76
-0.672045 -0.004448 0.098193 153 76 0
-0.584012 0.103337 0.094786 76 0 153
0.711602 -0.176680 -0.038127 0 127 127
-0.390544 0.149531 -0.466303 127 127 0
0.684808 0.064843 0.469898 153 0 76
-0.539363 -0.053611 0.521391 76 153 0
-0.539363 0.049878 0.407277 76 153 0
0.581787 -0.124866 -0.103184 76 153 0
0.343695 0.141832 0.045487 127 127 0
0.604115 -0.124866 -0.071063 153 76 0
0.538485 0.016555 -0.145923 0 127 127
0.538485 -0.015631 0.206924 0 127 127
-0.359040 0.149531 0.496162 127 127 0
-0.495339 0.149531 -0.507688 127 127 0
0.609688 -0.163361 -0.013891 0 127 127
0.777151 0.109899 0.131800 153 0 76
0.480041 -0.431355 -0.625556 153 76 0
-0.564650 -0.163361 -0.024173 127 0 127
0.396319 0.149531 0.066078 127 127 0
0.744154 -0.163361 0.392788 0 127 127
-0.672484 -0.045410 0.326982 204 51 127
-0.548419 0.103337 -0.280141 76 0 153
-0.724120 -0.414709 -0.041603 76 153 0
0.701690 -0.125632 -0.223899 153 0 76
0.769452 -0.114124 0.009510 127 0 127
-0.679551 -0.217990 -0.155179 76 153 0
-0.712559 0.141832 -0.522675 127 127 0
0.769452 0.090924 -0.244610 127 0 127
0.575697 -0.163361 -0.077125 0 127 127
0.212985 0.149531 0.241442 127 127 0
0.588656 -0.124862 0.104552 0 127 127
0.538485 0.044924 0.320153 0 127 127
-0.633735 -0.124862 0.558338 76 0 153
0.700735 0.141832 0.044668 127 127 0
-0.731835 -0.081397 0.296439 153 0 76
-0.500868 -0.125628 -0.149004 76 153 0
-0.562608 -0.014610 0.420489 153 76 0
0.529616 0.149531 -0.082609 127 127 0
0.143464 0.141832 -0.203626 127 127 0
0.584678 -0.047168 0.037545 76 153 0
-0.685642 0.020496 -0.037927 153 0 76
-0.731835 -0.115235 0.166681 153 0 76
-0.117798 0.141832 0.157559 127 127 0
0.703439 -0.430059 -0.582869 153 76 0
0.689924 0.149531 -0.096998 127 127 0
-0.739534 0.116634 -0.479983 0 0 255
-0.665143 -0.163361 0.338007 127 0 127
0.661183 0.103337 -0.577448 76 153 0
0.014142 -0.468554 -0.557829 153 76 0
0.620607 0.064843 0.412240 153 0 76
0.777151 -0.180853 -0.181051 153 0 76
-0.681796 0.103337 -0.212340 0 0 255
-0.018794 0.149531 -0.203854 127 127 0
0.558125 0.103337 -0.318325 153 0 76
0.769452 -0.128071 -0.017948 127 0 127
0.362932 0.141832 -0.253085 127 127 0
0.538485 0.028402 0.207827 0 127 127
-0.500868 0.089456 0.514455 76 0 153
-0.704337 0.149531 -0.207264 127 127 0
-0.552732 -0.045410 0.292370 0 127 127
-0.691302 0.141832 -0.015931 127 127 0
-0.180709 0.141832 0.429633 127 127 0
-0.693341 0.005428 0.022971 153 0 76
-0.581589 -0.014614 0.455400 153 76 0
0.538485 0.085637 0.008626 0 127 127
-0.047933 0.149531 0.104732 127 127 0
0.769010 -0.468554 0.110299 76 0 153
0.769452 -0.131139 0.270411 127 0 127
-0.643172 -0.140725 0.529280 127 0 127
-0.739534 -0.430325 -0.540991 76 0 153
-0.642297 -0.468554 -0.551493 153 76 0
0.143127 0.141832 -0.304182 127 127 0
-0.731835 0.008623 0.127789 153 0 76
-0.691098 0.149531 0.368505 127 127 0
0.538485 0.078481 0.301909 0 127 127
0.743111 0.103337 0.249389 127 0 127
-0.539303 0.149531 -0.193732 127 127 0
-0.626031 -0.045410 0.496034 204 51 127
-0.547062 0.009951 0.487313 76 153 0
-0.539363 -0.116325 0.076388 0 127 127
0.461484 0.149531 0.342061 127 127 0
-0.731835 0.027005 -0.122436 153 0 76
0.576979 -0.122889 -0.157448 0 127 127
-0.731835 -0.047805 -0.147307 153 0 76
-0.723512 -0.468554 0.224313 76 0 153
-0.624203 0.141832 -0.129652 127 127 0
-0.675122 -0.124866 0.484575 76 0 153
-0.569622 0.261056 -0.476844 127 127 0
-0.557737 -0.014610 -0.038375 153 76 0
0.506084 0.149531 -0.603420 127 127 0
0.640969 -0.028100 0.529280 127 127 0
-0.600397 0.141832 -0.539934 127 127 0
0.576979 0.007683 0.003995 0 0 255
-0.344651 0.103337 -0.622815 76 153 0
0.358776 0.141832 0.073671 127 127 0
0.576979 0.020179 0.311504 0 0 255
0.714916 -0.020982 -0.284319 153 0 76
0.576979 -0.121111 -0.076089 76 153 0
-0.500868 -0.016200 -0.103120 76 153 0
-0.654846 0.111727 0.347308 153 0 76
-0.540577 -0.163361 0.393238 127 0 127
-0.002034 0.149531 -0.153156 127 127 0
0.725074 0.064843 0.432592 255 0 0
0.538485 0.089736 0.089539 0 127 127
0.161036 0.149531 0.437223 127 127 0
-0.441144 -0.468554 -0.572878 153 76 0
0.419788 -0.468554 -0.575511 153 76 0
0.506356 0.149531 0.412428 127 127 0
-0.570204 -0.124866 -0.124367 153 0 76
0.438734 -0.468554 -0.554277 153 76 0
-0.675292 -0.014614 0.482133 153 76 0
0.692463 -0.444522 0.167249 76 0 153
0.562809 0.103337 0.508590 153 0 76
0.485527 0.141832 -0.232951 127 127 0
-0.503538 0.149531 -0.226209 127 127 0
-0.654846 0.014442 -0.300918 76 153 0
0.661234 0.149531 0.367843 127 127 0
-0.356093 -0.430059 -0.605978 153 76 0
-0.639772 0.064843 0.197437 76 0 153
-0.675113 -0.468554 -0.568306 153 76 0
-0.177304 0.149531 0.400373 127 127 0
0.723258 0.015966 0.442302 255 0 0
0.730957 -0.115336 0.404452 153 0 76
0.769452 -0.450834 0.038870 76 0 153
-0.675880 -0.468554 -0.131638 76 0 153
0.723258 -0.070217 0.096063 153 0 76
-0.462817 0.149531 0.460721 127 127 0
0.686073 -0.124866 0.391133 153 76 0
0.362820 0.141832 -0.591963 127 127 0
-0.227018 0.149531 -0.614061 76 153 0
-0.132256 0.149531 -0.120656 127 127 0
0.417675 0.149531 -0.161056 127 127 0
-0.570761 -0.014614 0.236688 204 51 127
-0.731835 0.121532 -0.355666 0 0 255
0.328404 0.141832 -0.198736 127 127 0
-0.500868 0.084666 -0.055336 76 153 0
0.488429 0.144821 0.583480 127 127 0
-0.731835 -0.445766 0.367067 76 0 153
0.692463 0.122726 -0.206874 153 0 76
0.139063 0.103337 -0.554959 76 153 0
0.252628 0.141832 0.232168 127 127 0
-0.550907 -0.004448 0.034027 153 76 0
-0.367748 0.141832 0.387901 127 127 0
-0.468753 0.141832 0.363729 127 127 0
0.576979 -0.107911 0.297327 76 153 0
0.538485 -0.157660 0.308090 0 127 127
-0.693341 -0.006561 0.213367 153 0 76
0.340308 0.149531 0.118425 127 127 0
0.538485 -0.097622 0.310941 0 127 127
0.539651 0.141832 -0.292678 127 127 0
0.665355 -0.108689 -0.104494 153 76 0
-0.695047 -0.377552 -0.063055 76 153 0
0.052494 0.149531 -0.270421 127 127 0
-0.207703 0.149531 0.527245 127 127 0
0.692463 0.120291 -0.062915 0 127 127
0.761325 0.030250 -0.313898 153 0 76
-0.583661 0.064843 0.352733 76 0 153
-0.555440 -0.045410 -0.099123 0 127 127
0.648261 -0.163361 0.449638 0 127 127
0.092702 0.141832 0.092118 127 127 0
0.655350 -0.163361 0.163418 0 127 127
-0.674833 -0.430059 -0.257304 76 0 153
0.777151 0.135766 -0.278336 127 127 0
-0.420299 -0.430059 -0.605459 153 76 0
0.692463 0.126344 -0.536712 153 0 76
0.690449 0.103337 0.287400 153 0 76
0.718407 -0.468554 0.230930 76 0 153
-0.508438 0.149531 0.463610 127 127 0
0.769452 -0.146247 0.204781 127 0 127
0.538485 -0.127506 0.123151 0 127 127
-0.667839 0.103337 -0.466853 153 0 76
0.000497 0.149531 0.397657 127 127 0
0.728810 0.103337 -0.091109 127 127 0
-0.648663 0.064843 -0.020833 76 0 153
-0.013311 -0.430059 -0.557845 153 76 0
0.769452 -0.444627 -0.031472 76 0 153
0.660234 0.103337 -0.290555 0 127 127
-0.519047 0.123525 -0.625556 76 153 0
0.558483 0.149531 0.517973 127 127 0
0.478726 0.141832 0.036752 127 127 0
0.642909 -0.124866 0.407804 153 76 0
0.769452 0.051539 0.187884 127 0 127
-0.397737 0.106104 -0.625556 76 153 0
-0.539363 0.062703 0.550633 76 153 0
0.151561 0.149531 -0.259555 127 127 0
-0.731835 -0.138694 0.505505 153 0 76
0.191534 0.141832 -0.444414 127 127 0
0.627935 0.141832 0.096959 127 127 0
-0.575897 -0.004448 0.108103 153 76 0
0.694309 -0.323689 -0.109551 153 0 76
0.596910 -0.163361 0.529115 0 127 127
-0.654846 -0.447626 0.516276 76 0 153
0.259212 0.103337 -0.607073 76 153 0
0.720258 0.103337 -0.294081 0 127 127
0.694889 0.149531 0.569001 127 127 0
-0.631464 0.149531 -0.407519 127 127 0
0.714070 -0.430059 -0.141728 76 0 153
0.589782 0.200410 -0.397876 255 0 0
0.769452 -0.447084 0.343807 76 0 153
-0.071493 -0.468554 -0.609556 153 76 0
-0.685642 -0.077040 0.020041 76 153 0
-0.739534 0.114839 0.344697 0 0 255
0.055388 0.141832 0.107280 127 127 0
-0.203130 0.141832 0.222255 127 127 0
0.443108 0.149531 0.209125 127 127 0
0.313891 0.141832 0.061333 127 127 0
-0.547062 -0.081100 0.322816 76 153 0
-0.141313 0.141832 -0.044676 127 127 0
-0.621925 -0.045410 -0.081028 0 0 255
0.740963 0.103337 0.138321 153 0 76
0.597268 -0.430059 -0.622790 153 76 0
-0.565216 -0.163361 0.193382 127 0 127
-0.146878 0.149531 0.375886 127 127 0
0.660175 -0.014610 0.319042 127 127 0
-0.695256 -0.430059 0.354482 76 0 153
0.064816 0.149531 -0.591253 127 127 0
0.627839 -0.114700 0.046999 0 127 127
-0.615797 0.149531 -0.185898 127 127 0
0.538485 -0.048811 0.308052 0 127 127
-0.560779 0.141832 0.461661 127 127 0
0.594011 0.141832 -0.318711 127 127 0
0.714689 -0.468554 -0.049064 76 0 153
-0.577790 -0.045410 0.419632 204 51 127
0.632524 0.149531 -0.338460 127 127 0
0.647245 0.284425 -0.546547 255 0 0
-0.128602 0.103337 -0.581530 76 153 0
-0.654846 0.132226 -0.071044 153 0 76
-0.654846 -0.447458 0.047573 76 0 153
0.718843 -0.320405 -0.096049 153 0 76
-0.739534 0.110694 0.494302 0 0 255
-0.666621 -0.430059 -0.201728 76 0 153
-0.565350 -0.014614 -0.154976 204 51 127
0.633287 0.064843 -0.053076 153 0 76
0.692463 0.130138 0.293397 0 127 127
-0.627053 0.141832 -0.458739 127 127 0
-0.568455 -0.069097 0.572009 0 127 127
0.370835 0.141832 -0.451737 127 127 0
0.777151 -0.338846 -0.096295 153 0 76
0.692463 0.121798 0.032322 0 127 127
0.615419 -0.124866 0.161594 0 127 127
0.576979 -0.088487 0.082537 0 127 127
0.688947 -0.163361 0.458405 0 127 127
0.072791 0.141832 -0.353258 127 127 0
0.315306 0.141832 -0.086029 127 127 0
-0.739534 0.146162 0.363282 153 0 76
0.712613 -0.163361 -0.106154 0 127 127
-0.693341 0.050865 -0.140499 76 0 153
0.692463 -0.450503 -0.257258 76 0 153
0.360793 0.149531 -0.612402 127 127 0
0.282878 -0.439366 -0.625556 153 76 0
0.455538 0.103337 -0.608906 76 153 0
-0.500868 -0.163291 -0.106251 127 0 127
0.584678 -0.081207 0.520407 0 127 127
0.538485 -0.108316 -0.123264 0 127 127
-0.052171 0.149531 0.445335 127 127 0
0.730957 0.042228 0.209664 255 0 0
0.640867 -0.014610 -0.006352 0 0 255
0.538485 -0.149876 0.354475 0 127 127
0.754674 0.284425 -0.538873 255 0 0
-0.731835 -0.030517 0.238809 153 0 76
0.590581 -0.124862 0.467886 153 76 0
-0.654846 0.113837 0.217090 0 0 255
-0.621816 -0.124862 0.049401 127 0 127
0.456552 -0.430059 -0.549822 153 76 0
0.182486 0.141832 -0.326567 127 127 0
-0.404689 0.141832 -0.610969 127 127 0
0.705000 0.103337 0.419073 153 0 76
-0.621305 -0.124866 0.127790 76 0 153
0.684261 -0.045410 -0.045551 0 0 255
0.258614 0.149531 -0.445299 127 127 0
-0.693341 0.013435 0.123901 153 0 76
0.692463 0.124203 -0.304467 0 127 127
0.538485 -0.123246 0.459272 0 127 127
0.617514 0.149531 -0.128182 127 127 0
0.769452 -0.024550 0.250874 127 0 127
-0.184950 0.149531 -0.051584 127 127 0
-0.272687 0.149531 0.518079 127 127 0
-0.654846 -0.440132 0.186591 76 0 153
0.249465 0.149531 -0.625474 127 127 0
-0.614638 0.103337 -0.605798 76 153 0
-0.686359 -0.468554 0.250723 76 0 153
0.373515 0.141832 0.249468 127 127 0
-0.731835 -0.050030 0.091251 153 0 76
0.378835 0.141832 0.031817 127 127 0
-0.731835 0.126278 -0.434546 153 0 76
-0.500868 0.023445 0.440285 76 153 0
-0.731835 -0.078892 0.064890 153 0 76
0.538485 -0.004691 0.078794 0 127 127
0.669497 0.213057 -0.419441 255 0 0
-0.555941 -0.124866 0.475010 76 0 153
-0.271444 0.141832 0.491183 127 127 0
0.687809 0.103337 0.121081 153 0 76
-0.672819 0.019344 0.555764 0 127 127
0.678993 -0.114700 0.133222 153 76 0
-0.739534 -0.449322 -0.343131 76 0 153
0.643092 0.103337 -0.336699 153 0 76
0.656408 0.149531 0.479983 127 127 0
-0.722846 0.004957 -0.299295 76 153 0
0.012919 0.141832 0.570213 127 127 0
-0.654846 -0.462958 -0.256876 76 0 153
0.576979 -0.068560 0.120936 0 127 127
0.758374 -0.163361 0.172160 0 127 127
-0.539363 -0.111542 0.114984 76 153 0
0.173945 0.141832 -0.595635 127 127 0
0.371425 0.141832 0.367097 127 127 0
0.769452 -0.167611 -0.109366 0 127 127
-0.576186 -0.124866 0.457640 76 0 153
0.707708 -0.045410 0.439993 153 0 76
0.743192 -0.112809 0.529280 153 0 76
0.591851 -0.072977 0.580709 76 0 153
0.755301 0.141832 -0.316640 127 127 0
-0.720463 0.149531 -0.452243 127 127 0
-0.693341 -0.097309 -0.057290 76 153 0
0.669202 -0.163361 -0.021888 0 127 127
0.756081 0.141832 -0.181270 127 127 0
-0.508036 0.149531 -0.272014 127 127 0
0.730957 -0.100406 -0.103528 127 0 127
-0.703876 -0.011360 -0.274476 76 153 0
0.484200 0.149531 0.216191 127 127 0
-0.624053 -0.163361 0.342498 127 0 127
0.634732 0.149531 0.029551 127 127 0
0.538485 -0.020945 0.483454 0 127 127
-0.097508 0.149531 -0.044896 127 127 0
0.647265 0.103337 0.507642 153 0 76
-0.607223 -0.124866 0.079827 76 0 153
-0.696210 0.149531 0.556890 127 127 0
0.117044 0.149531 -0.496325 127 127 0
-0.375459 0.141832 0.036087 127 127 0
-0.278818 0.141832 -0.135084 127 127 0
0.769452 0.104783 0.099849 153 0 76
0.719668 -0.045410 0.007447 153 0 76
-0.731835 0.111648 0.010708 153 0 76
-0.534205 -0.468554 -0.564963 153 76 0
0.692463 0.128019 -0.430607 153 0 76
-0.101009 -0.468554 -0.601893 153 76 0
-0.580245 -0.045410 0.245774 204 51 127
-0.554258 0.141832 0.072716 127 127 0
0.777151 -0.437821 -0.597084 76 0 153
0.251058 0.141832 -0.320743 127 127 0
0.727027 -0.231493 -0.147383 153 0 76
0.587992 0.103337 -0.598265 76 153 0
0.769452 0.126186 -0.199099 0 127 127
0.769452 -0.467696 -0.487421 76 0 153
0.685387 0.149531 0.436196 127 127 0
-0.480273 0.141832 -0.470481 127 127 0
0.748470 -0.252781 -0.135092 153 0 76
-0.244443 0.149531 -0.524640 127 127 0
0.392367 0.141832 -0.549912 127 127 0
-0.218592 0.149531 -0.586470 127 127 0
0.769452 -0.056497 0.389770 127 0 127
0.026122 0.141832 0.420296 127 127 0
-0.456683 0.149531 -0.387175 127 127 0
0.675854 0.084733 -0.329956 255 0 0
0.462367 -0.468554 -0.621111 153 76 0
0.650775 0.103337 0.011491 153 0 76
-0.161670 0.141832 -0.369013 127 127 0
0.265936 0.141832 0.116939 127 127 0
-0.690533 0.149531 -0.133162 0 0 255
0.066909 0.149531 -0.505357 127 127 0
0.657882 -0.163361 0.325218 0 127 127
0.708605 -0.004448 0.089970 255 0 0
-0.737395 0.095638 -0.463891 153 0 76
-0.367723 0.149531 0.321449 127 127 0
0.586543 0.149531 0.297310 127 127 0
0.050131 0.141832 0.398681 127 127 0
0.769452 -0.117560 -0.135171 127 0 127
0.769452 -0.056764 0.277716 127 0 127
-0.688403 -0.430059 0.206881 76 0 153
-0.707881 -0.468554 -0.425234 76 0 153
-0.700718 -0.468554 0.160709 76 0 153
0.777151 -0.450526 0.457268 76 0 153
0.721806 -0.468554 -0.015116 76 0 153
0.584678 0.041779 0.237080 0 0 255
-0.695040 -0.256053 -0.148601 76 153 0
-0.599239 -0.163361 0.281752 127 0 127
0.538485 0.055308 0.461385 0 127 127
-0.654846 0.115101 0.082589 153 0 76
-0.046869 0.149531 -0.029587 127 127 0
-0.599266 -0.455262 -0.548567 153 76 0
-0.423063 0.141832 -0.322045 127 127 0
-0.726973 0.103337 -0.555636 0 0 255
0.769452 -0.007105 0.412935 127 0 127
-0.654846 -0.432590 -0.412674 76 0 153
-0.731835 0.058855 -0.111635 153 0 76
-0.608594 -0.045410 0.219044 0 0 255
0.769452 -0.040721 0.207581 127 0 127
0.732433 0.141832 0.172870 0 127 127
0.655995 0.064843 0.146759 153 0 76
0.495938 0.141832 -0.297805 127 127 0
0.569420 -0.021402 0.529280 0 0 255
-0.528501 0.149531 -0.520833 127 127 0
-0.514570 -0.163361 0.085097 127 0 127
-0.731835 -0.037116 0.424101 153 0 76
-0.678457 -0.163361 0.023896 127 0 127
-0.731835 -0.013327 -0.119423 153 0 76
-0.196240 0.141832 0.164225 127 127 0
0.716676 -0.035992 -0.260255 153 0 76
-0.441999 0.141832 -0.455279 127 127 0
0.581646 0.149531 -0.084594 127 127 0
-0.615924 0.143066 -0.364241 127 127 0
0.451075 0.149531 0.229312 127 127 0
-0.542799 0.064843 0.230724 76 153 0
-0.550818 0.103337 -0.580119 76 153 0
-0.493726 0.149531 0.124103 127 127 0
0.715348 -0.163361 0.277490 0 127 127
0.723258 0.032891 0.290792 127 0 127
-0.580780 0.149531 0.562688 127 127 0
-0.719655 0.261056 -0.597889 127 127 0
-0.500868 -0.007821 0.021979 76 153 0
-0.046182 0.141832 -0.386785 127 127 0
-0.539363 -0.077178 -0.085139 0 127 127
-0.731835 0.086067 -0.017561 153 0 76
-0.739534 -0.449216 -0.494570 76 0 153
0.769452 -0.160274 0.232838 0 127 127
0.633060 0.103337 0.356794 153 0 76
0.750553 0.103337 -0.565560 0 127 127
0.764059 0.103337 0.463684 127 0 127
0.629772 0.118736 -0.625556 76 153 0
0.712491 -0.198646 -0.166347 153 0 76
0.606707 0.010242 -0.163622 0 127 127
0.732663 0.228659 -0.414444 255 0 0
-0.539363 0.271986 -0.597044 127 127 0
0.769452 0.090048 0.424338 0 127 127
0.402977 0.149531 0.582572 127 127 0
0.538485 -0.070177 0.346403 0 127 127
-0.014747 0.149531 -0.613903 127 127 0
-0.731835 -0.450970 -0.399921 76 0 153
0.418150 0.141832 -0.037335 127 127 0
0.692463 0.119856 0.198009 0 127 127
-0.546449 -0.045410 0.329491 0 127 127
-0.175797 0.141832 0.042020 127 127 0
-0.366866 0.141832 -0.045057 127 127 0
0.734204 0.149531 -0.245634 127 127 0
0.612820 -0.468554 -0.548645 153 76 0
-0.547062 -0.107586 0.367270 0 127 127
-0.594692 -0.163361 -0.148380 127 0 127
0.059929 0.141832 0.324048 127 127 0
-0.591433 0.064843 0.134143 76 0 153
0.035557 -0.452903 -0.625556 153 76 0
0.759453 0.103337 -0.302825 0 127 127
0.705983 -0.045410 -0.097599 0 127 127
0.222450 -0.430059 -0.592119 153 76 0
