ply
format ascii 1.0
element vertex 1265
property float x
property float y
property float z
property uchar red
property uchar green
property uchar blue
end_header
-0.029564 -0.722465 0.041617 76 0 153
0.175432 -0.722465 -0.057472 76 0 153
0.125753 -0.871723 0.249140 153 0 76
0.251256 0.442371 0.196983 127 127 0
0.073625 -0.900619 -0.235484 153 76 0
0.139331 -0.486829 0.241725 153 0 76
-0.002127 0.582072 -0.118688 255 0 0
0.251256 -0.831470 0.170925 127 127 0
-0.134458 -0.583501 -0.214470 127 0 127
0.016858 0.232172 0.249140 0 0 255
0.231628 -0.701452 -0.029289 76 0 153
0.072318 0.251601 -0.161175 0 0 255
0.251256 0.390620 0.001860 127 127 0
0.076694 -0.120897 0.026759 204 51 127
0.129384 0.041987 0.249140 0 127 127
-0.237308 0.329410 0.089842 0 255 0
-0.155339 -0.465815 -0.102251 153 0 76
0.076186 -0.701452 -0.076657 76 0 153
-0.253068 0.792777 0.002266 0 255 0
0.181041 0.543400 0.249140 0 127 127
0.118488 -0.486829 0.112264 153 0 76
0.251256 0.158237 0.141910 127 127 0
-0.228768 -0.170079 -0.219724 127 0 127
0.047229 0.933557 -0.049560 76 153 0
-0.253068 0.796065 -0.103451 0 255 0
0.108778 0.209306 -0.214470 127 0 127
0.186737 0.582072 0.220598 255 0 0
0.061364 -0.951535 0.028883 0 127 127
-0.127226 -0.951535 0.021709 0 127 127
0.223485 -0.701452 -0.094750 76 0 153
-0.242858 0.954571 -0.176287 0 255 0
0.060615 -0.120897 -0.096532 204 51 127
-0.190384 0.251601 0.047397 0 0 255
-0.237308 0.403804 0.149789 0 255 0
-0.237308 0.139097 -0.099569 0 255 0
0.251256 0.447266 0.161153 127 127 0
-0.036359 -0.118469 0.242573 0 127 127
-0.203438 -0.083888 0.264900 0 127 127
0.072799 -0.951535 0.106727 0 127 127
0.186200 0.316530 -0.214470 127 0 127
0.251256 -0.188710 -0.101342 127 127 0
0.048601 -0.486829 0.099536 153 0 76
0.069479 -0.465815 0.179275 153 0 76
0.235496 0.847554 -0.058830 127 127 0
0.147495 0.251601 -0.154149 0 0 255
0.215843 0.230588 0.166030 0 0 255
-0.078996 -0.722465 -0.177629 76 0 153
0.032490 0.709699 0.264900 0 127 127
0.221261 0.835245 -0.235484 153 0 76
-0.229148 0.336729 -0.219724 0 255 0
0.251256 0.054100 -0.149280 127 127 0
-0.153383 -0.465815 0.128853 153 0 76
-0.016772 0.603086 0.093592 255 0 0
0.039397 0.603086 -0.037031 255 0 0
0.207699 0.251601 -0.085216 0 0 255
0.191887 -0.120897 0.027356 204 51 127
-0.039340 0.725187 0.264900 0 127 127
0.195470 0.933557 0.173042 76 153 0
-0.159082 0.482454 0.264900 0 127 127
-0.071358 0.933557 -0.111304 76 153 0
-0.237308 0.318694 -0.176714 0 255 0
-0.253068 0.401592 0.213606 0 255 0
-0.066772 -0.486829 0.238621 153 0 76
0.251256 -0.069373 0.209368 127 127 0
0.152953 -0.310758 -0.214470 127 0 127
-0.253068 0.408765 -0.120753 0 255 0
-0.124884 0.783699 0.249140 0 127 127
-0.036993 -0.465815 0.198332 153 0 76
0.097441 -0.722465 0.111466 76 0 153
0.137448 -0.722465 0.138207 76 0 153
0.235496 0.632360 0.061449 127 127 0
0.202114 -0.335953 0.249140 0 127 127
0.028277 0.647303 0.249140 0 127 127
0.251256 -0.054696 0.165847 127 127 0
0.145570 -0.894342 -0.235484 153 76 0
-0.138688 0.608937 0.249140 0 127 127
-0.120821 -0.660790 0.264900 153 0 76
0.009543 -0.486829 0.213334 153 0 76
0.085139 0.954571 -0.200877 76 153 0
0.251256 0.572356 -0.231618 127 127 0
0.071285 -0.701452 0.186807 76 0 153
0.170049 0.500709 0.249140 0 127 127
0.248083 0.954571 -0.192181 127 127 0
-0.037893 -0.701452 -0.048353 76 0 153
-0.253068 -0.672329 -0.224305 0 255 0
0.025032 -0.120897 -0.165839 204 51 127
0.108770 0.492115 0.264900 0 127 127
-0.084934 0.155774 -0.219724 127 0 127
0.080432 0.223729 -0.219724 127 0 127
0.251256 -0.708014 -0.177230 127 127 0
0.206593 -0.704917 -0.219724 76 0 153
-0.253068 -0.605021 -0.035027 0 255 0
-0.100111 -0.930522 0.166593 0 127 127
0.020179 0.933557 -0.215588 76 153 0
-0.151362 0.856308 0.264900 0 127 127
-0.190758 -0.701452 -0.026165 76 0 153
0.235496 0.152786 0.234563 127 127 0
-0.253068 -0.525006 0.088931 0 255 0
0.081171 0.274404 0.249140 0 127 127
0.153526 -0.099884 0.143510 204 51 127
-0.237308 0.043035 -0.111573 0 255 0
0.221448 -0.670395 0.249140 153 0 76
-0.079947 -0.120897 0.085941 204 51 127
0.079410 0.954571 -0.162206 76 153 0
0.235496 0.494664 0.053599 127 127 0
-0.163321 0.251601 0.218372 0 0 255
-0.204875 -0.722465 0.029628 76 0 153
-0.237308 -0.735347 0.193373 0 255 0
0.057020 -0.486829 0.238048 153 0 76
-0.079130 0.933557 -0.065662 76 153 0
-0.253068 0.569449 -0.162010 0 255 0
0.068920 -0.251991 -0.219724 127 0 127
0.235496 -0.118655 -0.140214 204 51 127
0.089360 -0.019646 -0.219724 127 0 127
-0.253068 0.742915 0.149751 0 255 0
-0.253068 0.722818 -0.193478 0 255 0
-0.160936 -0.120897 0.153281 204 51 127
-0.253068 0.926415 -0.169005 0 255 0
-0.044848 0.954571 0.179596 76 153 0
0.137187 -0.722218 0.264900 153 0 76
-0.253068 -0.486312 0.237127 0 255 0
0.235496 0.274368 0.172168 127 127 0
0.192580 -0.120897 -0.091848 204 51 127
-0.068309 -0.700993 -0.219724 127 0 127
0.004446 0.066910 0.249140 0 127 127
0.230453 -0.899416 0.249140 127 127 0
0.227924 0.269448 0.249140 0 127 127
0.251256 -0.350933 -0.039653 127 127 0
0.144343 -0.930522 -0.050594 0 127 127
-0.237308 0.375371 0.110895 0 255 0
-0.253068 -0.405856 0.130178 0 255 0
-0.173941 -0.951535 0.147046 0 127 127
-0.146172 0.409832 -0.214470 127 0 127
-0.004327 0.933557 -0.191441 76 153 0
0.222941 -0.099884 -0.173689 204 51 127
-0.183630 0.019670 -0.214470 127 0 127
-0.237308 -0.233944 0.221001 0 255 0
0.139963 -0.465815 -0.197217 153 0 76
0.183007 0.251601 -0.107495 0 0 255
-0.223956 -0.930522 0.152084 0 127 127
-0.109578 0.009573 -0.235484 76 0 153
0.251256 -0.467767 -0.201762 153 0 76
-0.037106 0.722487 -0.219724 127 0 127
-0.067412 -0.516147 0.264900 153 0 76
-0.073824 -0.866856 0.264900 153 0 76
0.220493 -0.521666 -0.219724 127 0 127
0.251256 0.629600 0.017739 127 127 0
-0.110121 0.648010 0.264900 0 127 127
-0.195442 0.230588 0.123153 0 0 255
0.233509 0.327675 -0.214470 127 0 127
0.192611 -0.339638 -0.219724 127 0 127
-0.237308 -0.658668 0.225217 0 255 0
-0.090304 -0.440749 -0.219724 127 0 127
-0.237437 0.363238 0.264900 0 127 127
0.117629 -0.951535 0.093665 0 127 127
0.074320 0.615131 -0.219724 127 0 127
0.235496 0.238955 -0.083048 0 0 255
0.135139 0.889648 0.249140 0 127 127
-0.000239 0.582072 0.004835 255 0 0
-0.069980 -0.722465 -0.035543 76 0 153
0.093250 -0.486829 0.059865 153 0 76
0.194612 -0.465815 0.174187 153 0 76
0.049868 -0.120897 0.196184 204 51 127
0.226966 -0.851663 0.264900 153 0 76
0.227371 0.111657 0.264900 0 127 127
0.008184 -0.132692 -0.214470 204 51 127
0.145654 0.424911 0.249140 0 127 127
0.251256 -0.606435 -0.184094 127 127 0
-0.009023 0.251601 0.153738 0 0 255
-0.037122 0.603086 -0.082090 255 0 0
0.235496 -0.323665 0.223769 127 127 0
0.168629 -0.486829 0.165063 153 0 76
-0.122472 -0.701452 0.065542 76 0 153
0.251256 -0.681633 0.206276 127 127 0
0.152111 0.954571 0.253798 0 127 127
0.211896 -0.253061 -0.214470 127 0 127
0.048978 0.603086 -0.135345 255 0 0
0.078621 0.044714 0.249140 0 127 127
-0.253068 -0.097759 -0.022056 0 255 0
0.206413 0.946128 0.264900 0 127 127
-0.131289 0.933557 0.194739 76 153 0
-0.039713 -0.486829 -0.207817 153 0 76
0.146708 0.130335 -0.214470 127 0 127
0.235496 0.151861 0.090998 127 127 0
0.123034 0.307564 0.264900 0 127 127
0.249943 0.192419 0.259518 0 127 127
-0.233142 0.954571 0.158868 0 255 0
-0.237308 0.676185 -0.148531 0 255 0
0.235496 -0.149809 0.156418 127 127 0
0.251256 0.733941 -0.101839 127 127 0
-0.253068 -0.839707 -0.000547 0 255 0
0.091014 0.440603 0.264900 0 127 127
-0.253068 0.757300 0.122883 0 255 0
-0.013665 0.954571 0.136656 76 153 0
-0.098987 0.837749 -0.235484 153 0 76
0.235496 0.634376 -0.176940 127 127 0
0.235496 0.362039 0.184929 127 127 0
-0.237308 -0.241231 0.076895 0 255 0
-0.056411 0.582072 0.011367 255 0 0
0.235496 -0.948854 -0.204471 0 127 127
0.026785 -0.686327 -0.214470 127 0 127
0.141152 0.581865 0.249140 0 127 127
-0.043997 -0.722465 0.144177 76 0 153
0.251256 -0.212921 0.136793 127 127 0
-0.057559 0.528758 -0.214470 127 0 127
0.029537 -0.921264 -0.235484 153 76 0
0.225519 -0.486829 0.133263 153 0 76
-0.100219 -0.823271 0.249140 153 0 76
0.232780 -0.930522 0.217161 127 127 0
-0.175790 0.354352 -0.214470 127 0 127
0.078302 0.785924 0.249140 0 127 127
0.093338 -0.465815 0.106632 153 0 76
0.085257 0.251601 0.192778 0 0 255
-0.237308 0.679259 0.191328 0 255 0
0.235496 -0.827100 0.055627 127 127 0
-0.134356 0.208413 0.264900 0 127 127
-0.237308 0.446434 -0.072976 0 255 0
-0.253068 -0.278430 -0.219186 0 255 0
-0.237308 -0.195119 -0.097530 0 255 0
0.035863 -0.096974 0.249140 0 127 127
-0.237308 0.565446 -0.117472 0 255 0
0.101080 0.933557 0.152332 76 153 0
0.185355 -0.413616 0.264900 0 127 127
0.251256 0.108306 0.193300 127 127 0
-0.079157 0.437419 -0.214470 127 0 127
-0.142782 -0.027098 0.249140 0 127 127
-0.253068 -0.201035 -0.208395 0 255 0
0.133436 0.603086 -0.035596 255 0 0
-0.010775 -0.722465 -0.147546 76 0 153
0.087625 -0.099884 -0.072698 204 51 127
-0.253068 -0.004389 0.084264 0 255 0
0.249943 0.587269 0.257514 0 127 127
-0.186838 -0.486829 0.126841 153 0 76
-0.154606 -0.701452 0.092267 76 0 153
0.235496 -0.602389 -0.074525 127 127 0
0.224968 -0.457465 0.249140 0 127 127
-0.176547 0.582072 -0.045882 255 0 0
0.250334 0.954571 0.196690 127 127 0
0.179682 -0.049390 -0.235484 76 0 153
-0.129731 0.251601 -0.033411 0 0 255
-0.237308 0.192772 -0.043897 0 255 0
-0.253068 -0.658470 0.048431 0 255 0
-0.180156 0.835702 -0.235484 153 0 76
0.228936 0.954571 0.127110 127 127 0
0.251256 -0.922393 0.191798 127 127 0
-0.178770 -0.256734 0.249140 0 127 127
-0.237308 -0.214863 -0.160999 0 255 0
-0.253068 -0.307699 0.028733 0 255 0
-0.237308 0.923612 0.101981 0 255 0
0.238169 0.153043 -0.235484 127 127 0
-0.066246 0.954571 -0.008387 76 153 0
-0.253068 0.814888 0.148647 0 255 0
0.251256 -0.152332 0.002324 127 127 0
0.030992 0.582072 0.091684 255 0 0
0.024931 0.800976 -0.214470 127 0 127
0.172180 -0.099884 -0.048589 204 51 127
-0.253068 -0.617769 0.050376 0 255 0
-0.221033 -0.625878 0.264900 153 0 76
0.011241 0.514890 0.249140 0 127 127
-0.098658 0.859711 0.249140 0 127 127
-0.253068 0.734423 0.047276 0 255 0
-0.210807 -0.099884 0.221031 204 51 127
0.247346 0.748801 -0.235484 127 127 0
-0.237308 0.863546 0.098335 0 255 0
0.037819 -0.465815 0.118329 153 0 76
0.251256 -0.477782 -0.101617 127 127 0
-0.099847 -0.258191 0.264900 0 127 127
-0.237308 -0.616312 0.098443 0 255 0
-0.152472 -0.120897 0.122102 204 51 127
0.033089 -0.930522 0.022261 0 127 127
-0.237308 0.465316 -0.024458 0 255 0
-0.218987 0.933557 0.194422 76 153 0
-0.237308 0.408753 0.236006 0 255 0
-0.083882 0.603086 0.201776 255 0 0
0.114654 -0.120897 -0.066635 204 51 127
-0.024845 0.331094 0.264900 0 127 127
-0.106480 0.933557 0.126704 76 153 0
0.251256 0.711058 0.031330 127 127 0
-0.047154 0.954571 0.213623 76 153 0
-0.237308 -0.554758 -0.063098 0 255 0
0.251256 0.001349 -0.180452 127 127 0
0.206632 0.933557 0.102485 76 153 0
0.051338 -0.486829 -0.000498 153 0 76
-0.253068 -0.713948 -0.076248 0 255 0
-0.156017 0.603086 0.149949 255 0 0
-0.068320 -0.862777 -0.235484 153 76 0
0.235496 -0.538645 0.131756 127 127 0
-0.126497 0.933557 -0.162842 76 153 0
-0.173849 0.582072 -0.081014 255 0 0
-0.232788 -0.465815 -0.163440 153 0 76
0.183181 0.393706 -0.214470 127 0 127
-0.040747 -0.352201 -0.214470 127 0 127
0.078590 -0.465815 -0.138265 153 0 76
0.088107 0.954571 0.000531 76 153 0
-0.253068 0.729145 -0.141146 0 255 0
-0.107333 -0.808961 -0.214470 127 0 127
0.096381 -0.392546 -0.214470 127 0 127
-0.062622 0.251601 -0.167659 0 0 255
-0.031663 0.758677 -0.214470 127 0 127
-0.049749 -0.011320 0.264900 0 127 127
-0.193130 -0.099884 0.144428 204 51 127
0.149554 -0.701452 -0.097236 76 0 153
0.155066 0.603086 0.219492 255 0 0
0.119689 -0.424788 0.249140 0 127 127
-0.041874 -0.486829 -0.098425 153 0 76
-0.237308 -0.215188 0.028722 0 255 0
0.251256 0.209048 0.098787 127 127 0
-0.153575 0.440997 -0.219724 127 0 127
-0.098391 0.230588 -0.174421 0 0 255
0.220294 -0.930522 0.039834 127 127 0
-0.182400 -0.812971 -0.214470 127 0 127
0.212914 -0.701452 0.208377 76 0 153
-0.189202 0.603086 -0.101377 255 0 0
-0.112074 0.933557 0.091090 76 153 0
-0.253068 0.284291 0.113706 0 255 0
-0.226111 0.781043 -0.219724 127 0 127
-0.253068 -0.778257 0.113251 0 255 0
0.251256 0.508026 0.032903 127 127 0
-0.174410 0.952141 -0.235484 76 153 0
-0.178580 -0.486829 0.075430 153 0 76
0.251256 0.285855 -0.174797 127 127 0
0.152105 0.374158 0.264900 0 127 127
-0.072662 -0.701452 -0.093841 76 0 153
0.236493 -0.951535 0.068042 127 127 0
-0.019221 -0.701452 0.104867 76 0 153
-0.161154 0.069600 0.249140 0 127 127
-0.181694 0.582072 0.041966 255 0 0
0.223679 0.797857 -0.214470 127 127 0
-0.154180 -0.930522 0.076371 0 127 127
-0.189430 0.885846 -0.214470 153 0 76
-0.253068 0.471596 0.079608 0 255 0
-0.183124 -0.942905 0.264900 153 0 76
0.089635 -0.537567 -0.214470 127 0 127
-0.099210 0.738749 0.264900 0 127 127
0.251256 0.063278 -0.058178 127 127 0
0.036547 0.933557 0.069888 76 153 0
-0.253068 0.451243 0.204942 0 255 0
0.187175 -0.722465 0.202482 76 0 153
0.235496 0.176264 -0.061306 127 127 0
0.235496 0.492735 0.158735 127 127 0
-0.253068 -0.505670 -0.130588 0 255 0
0.194809 0.230588 0.195458 0 0 255
-0.103290 0.392009 0.249140 0 127 127
-0.131903 -0.486829 0.184212 153 0 76
0.251256 -0.653200 -0.100362 127 127 0
0.046417 -0.884057 -0.235484 153 76 0
0.145123 0.136455 0.249140 0 127 127
-0.037699 -0.465815 -0.185766 153 0 76
0.192184 -0.500279 0.264900 153 0 76
-0.086674 -0.099884 -0.156323 204 51 127
-0.086785 0.251601 0.238389 0 0 255
0.017917 -0.465815 0.050347 153 0 76
0.031019 0.058233 0.249140 0 127 127
0.214579 -0.930522 -0.113452 0 127 127
-0.247512 -0.668533 0.264900 153 0 76
0.128232 -0.486829 -0.177528 153 0 76
0.251256 0.638093 0.137020 127 127 0
0.235496 0.371096 0.069381 127 127 0
-0.216279 -0.930522 -0.228954 0 127 127
0.049574 -0.023660 -0.214470 127 0 127
0.131517 0.251601 -0.191286 0 0 255
0.076204 0.179619 0.249140 0 127 127
0.061919 -0.099884 0.151507 204 51 127
-0.237308 0.327444 0.133269 0 255 0
-0.139213 0.603086 -0.121287 255 0 0
0.152217 -0.099884 -0.087206 204 51 127
0.173713 -0.722465 -0.028637 76 0 153
0.251256 0.047107 -0.103803 127 127 0
-0.253068 -0.342320 0.242512 0 255 0
0.153737 -0.120897 -0.034724 204 51 127
-0.072561 -0.951535 -0.129014 0 127 127
0.235496 -0.027822 -0.204528 127 127 0
-0.233731 0.582072 -0.078781 0 255 0
0.113964 -0.099884 -0.190463 204 51 127
0.163234 0.049590 0.264900 0 127 127
0.169148 -0.049667 0.249140 0 127 127
0.006169 -0.951535 0.218130 0 127 127
-0.140307 0.584158 -0.219724 127 0 127
0.037456 -0.099884 0.219497 204 51 127
-0.253068 -0.044066 -0.087485 0 255 0
0.251256 0.395124 0.043392 127 127 0
-0.109371 -0.930522 0.027571 0 127 127
0.056146 -0.120897 0.056052 204 51 127
0.251256 0.929706 -0.027332 127 127 0
-0.146628 0.396179 0.264900 0 127 127
0.144433 0.582072 -0.072561 255 0 0
-0.090264 -0.156420 0.264900 0 127 127
0.025504 -0.722465 -0.203174 127 0 127
-0.020166 0.933557 -0.097322 76 153 0
0.191027 0.251601 -0.050125 0 0 255
0.014514 0.460004 -0.214470 127 0 127
-0.215323 0.603086 0.034534 255 0 0
-0.202041 0.461483 0.249140 0 127 127
-0.202025 0.954571 0.241132 0 127 127
0.066911 0.311945 0.249140 0 127 127
0.235496 -0.283881 -0.082032 127 127 0
-0.096703 -0.120897 -0.132954 204 51 127
0.235496 -0.360942 0.009583 127 127 0
0.018830 0.874061 0.264900 0 127 127
-0.137040 0.933557 -0.058748 76 153 0
-0.118663 -0.106679 0.242573 204 51 127
0.173137 0.251601 0.085732 0 0 255
0.236750 0.497608 0.247827 0 127 127
-0.071873 0.230588 0.221722 0 0 255
0.235496 0.195244 -0.022081 127 127 0
0.235496 -0.495144 0.192264 127 127 0
-0.049226 -0.111344 -0.214470 127 0 127
0.103031 -0.930522 -0.117300 0 127 127
-0.216246 -0.434501 -0.214470 127 0 127
0.251256 -0.184319 0.203816 127 127 0
0.235496 -0.863914 0.035034 127 127 0
0.213754 -0.544918 0.249140 153 0 76
-0.253068 -0.784321 0.067575 0 255 0
-0.202851 -0.722465 -0.189418 76 0 153
0.035862 0.230588 -0.090029 0 0 255
-0.050345 -0.158758 0.249140 0 127 127
-0.050153 -0.120897 0.150611 204 51 127
0.151542 0.582072 0.161109 255 0 0
-0.253068 -0.571980 -0.204750 0 255 0
-0.237308 0.447050 0.237077 0 255 0
-0.129091 0.477063 0.264900 0 127 127
0.075278 0.582072 0.242087 255 0 0
0.209233 -0.930522 0.125968 0 127 127
-0.085443 0.350273 0.264900 0 127 127
0.126939 -0.465815 0.197980 153 0 76
-0.178956 -0.099884 -0.075329 204 51 127
-0.253068 -0.475722 -0.205760 0 255 0
-0.253068 -0.062605 -0.171285 0 255 0
0.235496 -0.572321 0.202889 127 127 0
-0.012629 -0.486829 0.007022 153 0 76
0.076873 0.933557 -0.094069 76 153 0
-0.237308 -0.663666 -0.023942 0 255 0
0.048707 -0.881591 0.249140 153 0 76
-0.075302 0.484744 -0.214470 127 0 127
0.050507 0.603086 -0.008682 255 0 0
0.216655 0.251601 -0.121837 0 0 255
0.119229 -0.105811 0.242573 204 51 127
-0.214716 -0.951535 0.089984 0 127 127
0.061353 -0.722465 0.229481 76 0 153
0.218524 -0.701452 0.083801 127 127 0
0.214015 0.582072 -0.028510 255 0 0
0.172311 -0.638395 -0.219724 127 0 127
-0.253068 0.119708 -0.152683 0 255 0
-0.237308 -0.723745 0.006204 0 255 0
0.154141 0.933557 0.052870 76 153 0
0.235496 -0.090228 0.157761 127 127 0
0.235496 0.723567 -0.003690 127 127 0
-0.253068 -0.513754 0.241098 0 255 0
-0.126767 0.582072 0.122045 255 0 0
-0.237308 0.253568 -0.091137 0 255 0
0.251256 0.876156 0.157582 127 127 0
0.104690 -0.253995 0.249140 0 127 127
-0.175677 0.603086 -0.191207 255 0 0
-0.253068 -0.066717 -0.001508 0 255 0
-0.253068 0.254055 0.199552 0 255 0
-0.206132 -0.358159 -0.219724 127 0 127
0.235496 -0.720098 0.008206 127 127 0
0.199415 0.230588 0.073772 0 0 255
-0.237308 -0.371903 -0.205166 0 255 0
-0.220114 -0.099884 0.044594 204 51 127
-0.219891 -0.465815 0.145013 153 0 76
0.244903 0.045932 0.249140 127 127 0
0.235496 -0.756586 -0.153984 127 127 0
0.009801 0.251601 0.090057 0 0 255
-0.127075 0.147548 0.264900 0 127 127
-0.017903 0.701282 -0.219724 127 0 127
0.122011 -0.930522 -0.096771 0 127 127
-0.253068 0.342979 0.031251 0 255 0
-0.066982 0.933557 -0.168584 76 153 0
-0.253068 -0.598433 0.211875 0 255 0
-0.237308 0.046199 0.217854 0 255 0
-0.025315 -0.120897 -0.193679 204 51 127
0.193840 -0.951535 0.078903 0 127 127
0.053084 -0.440659 -0.219724 127 0 127
-0.086406 -0.070168 0.264900 0 127 127
0.189048 0.656065 -0.214470 127 0 127
-0.206169 -0.181643 0.264900 0 127 127
0.251256 -0.270005 0.233170 127 127 0
0.185807 -0.465815 0.061860 153 0 76
0.102542 -0.216747 -0.214470 127 0 127
0.221595 0.463434 0.249140 0 127 127
-0.147907 -0.930522 0.154217 0 127 127
0.235496 0.436377 -0.176523 127 127 0
0.226948 0.030791 -0.214470 127 0 127
0.251256 0.623915 0.082551 127 127 0
0.083907 -0.722465 0.076349 76 0 153
-0.237308 -0.311081 0.168206 0 255 0
0.182901 0.900432 -0.214470 127 0 127
0.251256 -0.612423 0.238473 127 127 0
-0.131421 0.642307 -0.214470 127 0 127
-0.147711 -0.099884 0.045778 204 51 127
0.251256 0.756400 -0.034085 127 127 0
-0.253068 -0.117467 0.238804 0 127 127
-0.110479 0.251601 -0.113728 0 0 255
0.251256 0.538656 0.234669 127 127 0
-0.034673 -0.465815 -0.047525 153 0 76
0.051327 0.251601 -0.143201 0 0 255
-0.174042 0.715179 -0.214470 127 0 127
0.146205 -0.794096 -0.214470 127 0 127
0.187131 -0.099884 0.192488 204 51 127
-0.237308 0.626464 0.121499 0 255 0
0.169097 -0.096318 -0.214470 127 0 127
0.140778 -0.228988 0.249140 0 127 127
0.138577 0.933557 0.124940 76 153 0
-0.191839 -0.023170 -0.235484 76 0 153
0.146074 0.727313 -0.219724 127 0 127
-0.237308 -0.926707 -0.086672 0 127 127
0.211330 -0.930522 -0.169997 0 127 127
0.003497 -0.701452 -0.100138 76 0 153
-0.086999 -0.262682 -0.219724 127 0 127
0.087965 0.689131 0.249140 0 127 127
0.202868 0.921945 -0.214470 127 0 127
-0.237308 -0.392842 0.076600 0 255 0
-0.128212 -0.099884 -0.090686 204 51 127
-0.127886 0.857650 -0.214470 127 0 127
0.047105 -0.701452 -0.144496 76 0 153
0.235496 0.144418 -0.145006 127 127 0
0.251256 0.257629 -0.034283 127 127 0
0.251256 -0.884027 0.213955 127 127 0
0.072234 0.921599 -0.235484 153 0 76
-0.131372 -0.494356 0.264900 153 0 76
0.010082 -0.930522 0.046289 0 127 127
0.235496 0.198148 0.179658 127 127 0
-0.159266 0.548288 0.249140 0 127 127
0.235496 0.875536 0.027942 127 127 0
0.179808 -0.930522 -0.092203 0 127 127
-0.006027 0.436988 0.249140 0 127 127
0.045717 -0.357825 -0.219724 127 0 127
0.025110 -0.099884 0.099199 204 51 127
0.251256 0.727772 0.079054 127 127 0
0.235496 -0.211828 0.028149 127 127 0
0.121854 -0.701452 -0.133084 76 0 153
0.251256 -0.620668 0.107704 127 127 0
-0.156429 -0.160706 0.249140 0 127 127
-0.065963 -0.301534 0.249140 0 127 127
0.174617 -0.432318 -0.214470 127 0 127
-0.035980 -0.099884 0.178755 204 51 127
0.118901 -0.721034 0.242573 153 0 76
-0.253068 0.692056 0.050923 0 255 0
-0.237308 -0.414779 -0.085064 0 255 0
0.114752 -0.268868 -0.214470 127 0 127
-0.011345 -0.203184 -0.214470 127 0 127
-0.047937 0.582072 0.055798 255 0 0
0.228178 -0.065164 -0.219724 127 0 127
0.230232 -0.486829 -0.138983 153 0 76
-0.184058 -0.951535 -0.194239 0 127 127
-0.189610 -0.930522 -0.078811 0 127 127
-0.168891 -0.951535 0.238630 0 127 127
-0.207306 -0.676227 0.293347 76 0 153
0.235496 -0.900691 0.050020 127 127 0
0.154806 0.251493 0.264900 0 127 127
-0.079915 -0.726574 -0.214470 127 0 127
0.118112 -0.896491 -0.235484 153 76 0
0.091881 -0.486829 -0.020617 153 0 76
-0.110091 -0.120897 0.011422 204 51 127
-0.253068 0.010153 -0.156657 0 255 0
-0.253068 -0.030381 -0.020533 0 255 0
-0.237308 0.122733 0.029369 0 255 0
0.116144 0.954571 -0.216453 76 153 0
0.113426 -0.930522 0.148102 0 127 127
0.222729 -0.099884 0.056007 204 51 127
-0.132097 -0.722465 -0.092181 76 0 153
0.121746 0.781379 0.264900 0 127 127
-0.051442 -0.611842 -0.219724 127 0 127
-0.107980 -0.465815 -0.166973 153 0 76
-0.031359 0.230588 0.156623 0 0 255
0.251256 0.852507 -0.210272 127 127 0
-0.013354 0.884908 -0.235484 127 0 127
0.235496 0.433798 -0.073602 127 127 0
-0.237308 0.436244 0.120299 0 255 0
-0.251755 0.112999 0.255833 0 127 127
-0.252909 -0.951535 0.019275 0 255 0
-0.053569 0.395754 0.264900 0 127 127
0.183330 -0.701452 -0.131664 76 0 153
0.235496 0.614811 -0.135255 127 127 0
0.251256 0.316175 -0.048178 127 127 0
0.104851 -0.120897 -0.172507 204 51 127
-0.253068 -0.697648 0.218739 0 255 0
0.196279 0.582072 0.028327 255 0 0
-0.218949 -0.486829 0.180574 153 0 76
-0.136664 -0.120897 -0.018052 204 51 127
-0.025964 0.603086 -0.040026 255 0 0
-0.061065 -0.835458 -0.235484 153 76 0
0.251256 -0.043058 0.075179 127 127 0
-0.185312 0.933557 -0.132332 76 153 0
0.032315 -0.951535 0.195955 0 127 127
-0.064957 0.952472 0.247827 0 127 127
-0.237308 -0.340627 -0.100639 0 255 0
0.116265 0.217407 0.249140 0 127 127
0.098111 0.922272 0.264900 0 127 127
-0.111788 0.933557 -0.217976 127 0 127
0.097616 -0.135840 0.249140 0 127 127
-0.025968 0.579145 0.264900 0 127 127
0.251256 -0.883469 -0.106969 127 127 0
-0.253068 0.561604 -0.188403 0 255 0
-0.086497 0.310207 0.264900 0 127 127
-0.237308 -0.579907 -0.074009 0 255 0
0.017395 0.954571 -0.074678 76 153 0
-0.202559 -0.051016 -0.234140 76 0 153
-0.034447 -0.099884 -0.073944 204 51 127
-0.237308 0.286696 0.159047 0 255 0
-0.253068 -0.792282 0.197211 0 255 0
0.052724 -0.465815 -0.158529 153 0 76
-0.208430 0.230588 -0.157425 0 0 255
0.209314 0.804716 0.264900 0 127 127
-0.110662 -0.532843 -0.219724 127 0 127
-0.161480 -0.465815 -0.190331 153 0 76
0.110616 -0.099884 0.007756 204 51 127
0.082977 -0.486829 -0.087739 153 0 76
-0.237308 -0.074753 0.161918 0 255 0
0.038013 -0.564190 0.264900 153 0 76
-0.035294 0.954571 -0.001645 76 153 0
-0.087153 0.582072 -0.099887 255 0 0
0.235496 -0.527056 -0.129682 127 127 0
-0.218646 0.954571 0.015095 76 153 0
-0.253068 -0.895603 0.244531 0 255 0
0.251256 -0.636116 -0.016200 127 127 0
-0.101312 -0.909552 0.249140 153 0 76
-0.118889 -0.120897 -0.049290 204 51 127
-0.092815 -0.224393 0.264900 0 127 127
-0.217000 -0.722465 0.180326 76 0 153
-0.002298 0.742658 0.249140 0 127 127
-0.237308 0.237920 0.146157 0 0 255
0.006174 -0.930522 -0.098655 0 127 127
-0.237308 -0.410028 -0.035523 0 255 0
-0.169104 0.743841 0.264900 0 127 127
0.001526 -0.701452 -0.053823 76 0 153
-0.002271 -0.393668 -0.214470 127 0 127
0.089235 0.230588 0.059635 0 0 255
-0.063716 -0.722465 0.096456 76 0 153
0.129898 -0.441183 -0.214470 127 0 127
-0.061200 0.933557 0.148276 76 153 0
0.251256 -0.409624 0.224136 127 127 0
-0.182548 -0.103550 0.242573 0 127 127
0.119744 0.933557 0.199039 76 153 0
-0.089505 0.954571 0.130874 76 153 0
0.052439 0.880797 0.264900 0 127 127
-0.177867 0.230588 0.002363 0 0 255
0.001211 -0.233488 0.249140 0 127 127
0.251256 -0.861701 0.122545 127 127 0
-0.122290 0.669392 0.249140 0 127 127
0.235496 0.594881 0.123091 255 0 0
-0.237308 0.026763 -0.036050 0 255 0
0.226877 0.582072 0.045337 255 0 0
-0.187652 -0.219374 0.249140 0 127 127
0.072734 0.463279 0.264900 0 127 127
-0.052872 0.029309 -0.219724 127 0 127
-0.237308 0.296204 0.132960 0 255 0
-0.237308 0.809835 0.180895 0 255 0
0.122905 0.603086 -0.190392 255 0 0
-0.253068 -0.250367 0.105276 0 255 0
-0.165841 -0.940909 -0.235484 0 127 127
0.057142 -0.099884 -0.029215 204 51 127
-0.102394 -0.951535 0.127643 0 127 127
-0.237308 -0.685168 -0.178275 0 255 0
-0.131215 -0.450989 0.249140 0 127 127
0.051649 -0.722465 -0.065774 76 0 153
-0.034400 0.123234 -0.219724 127 0 127
0.010408 -0.312868 0.249140 0 127 127
-0.253068 -0.009280 0.238601 0 255 0
0.149282 -0.640492 0.264900 153 0 76
-0.253068 -0.292386 -0.106751 0 255 0
0.116118 -0.701452 0.153205 76 0 153
0.000348 0.603086 -0.049007 255 0 0
0.208630 -0.465815 -0.051080 153 0 76
-0.237308 -0.169984 0.191694 0 255 0
-0.087988 -0.465815 -0.095130 153 0 76
-0.147021 -0.218937 0.249140 0 127 127
0.235496 0.320943 -0.095529 127 127 0
0.199910 -0.099884 0.075262 204 51 127
-0.075376 0.206899 0.249140 0 127 127
0.088775 0.134583 0.264900 0 127 127
0.251256 0.796897 0.116022 127 127 0
0.186825 -0.896252 -0.235484 153 76 0
-0.163098 -0.486829 0.043803 153 0 76
-0.144500 0.736974 -0.214470 127 0 127
0.251256 0.012592 0.114564 127 127 0
-0.237308 0.034129 -0.084382 0 255 0
0.131155 0.914376 0.264900 0 127 127
0.180149 0.243466 -0.214470 127 0 127
0.092453 -0.099884 0.079641 204 51 127
-0.237308 -0.137341 -0.082019 0 255 0
-0.237308 0.474785 -0.109577 0 255 0
0.251256 -0.073744 -0.028744 127 127 0
0.235496 -0.591342 0.159935 127 127 0
0.096123 -0.300333 -0.214470 127 0 127
-0.123049 0.582072 -0.166080 255 0 0
0.235496 -0.809181 0.244910 153 0 76
0.060694 0.230588 -0.116978 0 0 255
-0.158238 -0.722465 -0.192767 76 0 153
-0.237308 0.378693 -0.087571 0 255 0
-0.253068 0.182428 -0.131920 0 255 0
-0.253068 -0.463513 0.195869 0 255 0
-0.086715 -0.486829 -0.006438 153 0 76
-0.065982 -0.951535 -0.022618 0 127 127
-0.231776 -0.102058 0.264900 0 127 127
0.005490 0.251601 0.199869 0 0 255
-0.251755 0.019825 0.263970 0 127 127
-0.215806 0.603086 -0.193212 255 0 0
-0.226469 0.144565 0.264900 0 127 127
-0.211715 0.058175 0.285604 76 153 0
-0.156720 -0.326621 0.249140 0 127 127
-0.087002 -0.486829 -0.198922 153 0 76
-0.253068 -0.439032 0.219873 0 255 0
0.180063 -0.951535 0.240088 0 127 127
-0.234424 0.954571 0.117176 76 153 0
0.251256 0.351171 -0.037230 127 127 0
-0.186045 -0.930522 0.065073 0 127 127
0.187226 0.339962 0.264900 0 127 127
0.207979 -0.722465 -0.147579 76 0 153
-0.253068 0.484983 0.111124 0 255 0
-0.082844 0.037050 -0.214470 127 0 127
-0.066599 -0.046554 -0.235484 76 0 153
0.075064 0.933557 0.168537 76 153 0
0.043391 0.142170 0.249140 0 127 127
0.211259 -0.597350 0.249140 153 0 76
-0.122591 -0.465815 0.128036 153 0 76
-0.127805 -0.948908 0.256841 153 0 76
0.251256 0.395911 -0.039299 127 127 0
-0.104315 -0.867175 -0.214470 127 0 127
0.251256 0.829161 0.025385 127 127 0
0.251256 0.688992 -0.131781 127 127 0
-0.205967 -0.465815 -0.176732 153 0 76
0.103389 -0.465815 0.224429 153 0 76
0.251256 0.302703 -0.133637 127 127 0
-0.152296 -0.849581 0.249140 153 0 76
-0.006685 -0.099884 -0.045709 204 51 127
-0.009558 0.582072 0.148754 255 0 0
0.251256 0.106862 0.079727 127 127 0
0.083070 0.530846 0.264900 0 127 127
0.251256 -0.038272 -0.150419 127 127 0
0.123187 -0.753888 -0.219724 127 0 127
-0.030380 -0.090663 0.249140 204 51 127
-0.224778 -0.951535 0.227538 0 127 127
0.180713 -0.120897 -0.031959 204 51 127
-0.206438 -0.099884 0.109839 204 51 127
0.018648 -0.039618 -0.219724 127 0 127
0.048063 -0.486829 -0.041302 153 0 76
-0.237308 -0.139015 0.093072 0 255 0
-0.253068 -0.693703 0.149302 76 0 153
-0.253068 0.594218 0.121170 0 255 0
0.235496 0.264802 0.050554 127 127 0
-0.140335 -0.701452 0.028265 76 0 153
-0.057358 -0.930522 0.179550 0 127 127
-0.217247 0.892375 -0.214470 153 0 76
-0.253068 0.330420 -0.101825 0 255 0
-0.237308 0.712751 0.243384 0 127 127
-0.155288 0.113024 0.249140 0 127 127
-0.253068 0.284139 -0.214390 0 255 0
0.235496 0.341421 0.033695 127 127 0
0.092609 -0.407341 0.264900 0 127 127
0.251256 0.595750 -0.047981 127 127 0
0.251256 0.087571 -0.178976 127 127 0
-0.194649 0.230588 0.080023 0 0 255
-0.053836 0.674512 0.249140 0 127 127
-0.226879 -0.821108 0.264900 153 0 76
-0.065018 -0.722465 -0.121781 76 0 153
0.157960 -0.951535 -0.033657 0 127 127
0.235496 0.422294 -0.038946 127 127 0
0.096492 0.153364 -0.219724 127 0 127
0.058929 0.954571 -0.035999 76 153 0
-0.148316 -0.465815 -0.139316 153 0 76
-0.253068 0.643438 -0.113728 0 255 0
0.184303 0.637921 0.249140 0 127 127
-0.237308 -0.247066 -0.041589 0 255 0
-0.037728 0.859024 -0.214470 153 0 76
-0.209462 -0.120897 0.057886 204 51 127
-0.214591 -0.666974 0.249140 153 0 76
0.213212 -0.173575 0.264900 0 127 127
-0.209760 0.582072 -0.162456 255 0 0
-0.237308 -0.828909 0.235523 153 0 76
-0.183013 0.925358 0.249140 0 127 127
0.152128 0.334032 0.264900 0 127 127
-0.253068 0.386576 0.057453 0 255 0
0.135754 0.230588 0.113323 0 0 255
0.235496 0.721254 -0.083915 127 127 0
0.241317 -0.327930 0.264900 0 127 127
-0.074772 0.146099 0.249140 0 127 127
-0.012055 0.825098 -0.214470 127 0 127
-0.054013 -0.099884 0.126729 204 51 127
0.181207 -0.099884 -0.077604 204 51 127
-0.253068 -0.350515 0.048073 0 255 0
-0.186026 -0.099884 0.197621 204 51 127
0.170941 0.603086 -0.065525 255 0 0
-0.094027 -0.214963 -0.214470 127 0 127
-0.237308 0.426917 0.201330 0 255 0
0.235496 0.149330 0.049437 127 127 0
-0.027876 -0.863680 -0.214470 127 0 127
0.114736 -0.701452 -0.106547 76 0 153
0.235496 -0.672511 -0.033459 127 127 0
-0.253068 0.095120 -0.125231 0 255 0
0.110631 0.824326 0.249140 0 127 127
0.111810 0.018959 0.249140 0 127 127
0.120376 -0.930522 -0.205912 0 127 127
-0.231361 -0.099884 -0.121390 204 51 127
0.251256 0.321453 0.214501 127 127 0
-0.111518 -0.044519 -0.235484 76 0 153
0.024583 0.880249 -0.235484 153 0 76
-0.166409 0.175342 -0.214470 127 0 127
0.034851 -0.951535 -0.067555 0 127 127
-0.124290 -0.951535 -0.058660 0 127 127
0.079893 0.230588 0.140786 0 0 255
0.118771 -0.007283 0.249140 0 127 127
-0.017066 -0.120897 0.020399 204 51 127
0.251256 0.763699 -0.068496 127 127 0
-0.048125 -0.043772 -0.214470 76 0 153
-0.253068 0.450244 -0.151941 0 255 0
0.177889 0.933557 0.032977 76 153 0
-0.230151 0.251601 -0.158594 0 0 255
0.249148 -0.951535 0.124266 127 127 0
-0.253068 -0.892045 -0.104703 0 255 0
-0.225711 -0.561792 0.264900 153 0 76
-0.253068 -0.490298 -0.007718 0 255 0
0.144165 -0.486829 0.084673 153 0 76
-0.115156 -0.099884 0.145268 204 51 127
0.134891 -0.951535 0.046954 0 127 127
0.251256 0.474210 -0.192500 127 127 0
0.227331 0.273635 -0.219724 127 0 127
-0.237308 0.837098 0.233921 0 255 0
0.251256 0.013044 -0.129572 127 127 0
-0.132651 -0.716011 0.242573 153 0 76
-0.124974 0.230588 0.204161 0 0 255
-0.237308 -0.395449 0.149369 0 255 0
0.123735 0.640635 0.264900 0 127 127
-0.219435 0.903234 0.249140 0 127 127
0.235496 -0.353736 0.219601 127 127 0
-0.029400 -0.120897 0.124271 204 51 127
-0.195758 -0.951535 0.112984 0 127 127
-0.029052 0.251601 0.238597 0 0 255
0.071431 0.251601 0.164030 0 0 255
0.251256 -0.929349 -0.070428 127 127 0
0.055290 -0.062582 -0.214470 127 0 127
-0.049285 -0.460861 -0.219724 153 0 76
-0.137057 -0.625691 0.264900 153 0 76
-0.059849 -0.099884 0.164322 204 51 127
-0.237308 0.844577 -0.096172 0 255 0
-0.224648 -0.884289 0.264900 153 0 76
0.062395 -0.847769 -0.235484 127 0 127
-0.064415 0.559479 -0.219724 127 0 127
-0.155788 -0.442018 -0.214470 127 0 127
0.069183 -0.120897 0.095705 204 51 127
-0.232218 0.582072 -0.048503 0 255 0
-0.199721 -0.843195 0.264900 153 0 76
0.251256 -0.426861 0.095400 127 127 0
-0.237308 0.290478 0.010453 0 255 0
-0.040428 -0.430017 0.249140 0 127 127
0.111441 0.546137 -0.214470 127 0 127
0.251256 0.536319 0.038450 127 127 0
0.196651 -0.099884 -0.186945 204 51 127
-0.253068 -0.209000 -0.136364 0 255 0
-0.107346 -0.722465 -0.182590 76 0 153
0.088284 0.325835 -0.214470 127 0 127
0.048275 0.564848 -0.219724 127 0 127
0.141175 -0.824257 0.249140 153 0 76
-0.104847 -0.771179 0.249140 153 0 76
-0.056604 0.603086 0.095100 255 0 0
-0.049415 0.582072 -0.096614 255 0 0
0.235496 0.105036 0.162007 127 127 0
0.174896 0.491441 -0.219724 127 0 127
0.119709 0.230588 -0.110784 0 0 255
-0.139527 0.582072 -0.097762 255 0 0
-0.032693 -0.701452 -0.146952 76 0 153
0.128306 -0.701452 -0.165868 76 0 153
0.016811 -0.218364 0.264900 0 127 127
0.164336 -0.717230 0.264900 153 0 76
-0.113762 -0.099884 -0.165856 204 51 127
0.205980 0.868989 -0.235484 153 0 76
-0.063328 -0.797256 -0.219724 127 0 127
0.251256 0.419277 -0.092802 127 127 0
-0.199043 0.933557 -0.082871 76 153 0
-0.237308 -0.127612 0.143665 204 51 127
-0.090122 -0.930522 0.089071 0 127 127
0.251256 -0.318658 0.143765 127 127 0
-0.111019 0.888370 -0.214470 127 0 127
0.251256 -0.467262 0.232603 153 0 76
-0.053710 -0.486829 -0.003726 153 0 76
-0.253068 -0.485327 -0.052767 0 255 0
-0.253068 0.794419 0.103446 0 255 0
-0.144448 -0.930522 -0.221804 153 76 0
0.235496 0.738646 0.208905 127 127 0
-0.031053 0.603086 0.153112 255 0 0
-0.253068 -0.319840 -0.024474 0 255 0
-0.201722 0.044410 0.264900 0 127 127
0.064649 -0.701452 -0.115531 76 0 153
0.251256 0.658565 -0.104094 127 127 0
0.180185 0.717491 -0.214470 127 0 127
0.098151 0.853897 -0.214470 127 0 127
-0.017562 -0.951535 0.159591 0 127 127
0.156588 0.251601 -0.043360 0 0 255
0.235496 0.142472 0.183306 127 127 0
-0.229207 -0.587433 -0.214470 0 255 0
0.235496 -0.742395 0.239634 127 127 0
0.235496 -0.910968 -0.183824 127 127 0
-0.253068 -0.398328 -0.070519 0 255 0
-0.093648 0.824541 0.249140 0 127 127
-0.253068 0.354501 0.082011 0 255 0
-0.237308 0.277617 -0.043842 0 255 0
0.152764 -0.930522 0.062399 0 127 127
-0.043152 0.616369 0.249140 0 127 127
0.235496 -0.415706 -0.208425 127 127 0
0.074718 -0.722465 0.018946 76 0 153
-0.024221 0.519219 -0.219724 127 0 127
0.058289 -0.011283 0.249140 0 127 127
-0.041634 0.091433 0.249140 0 127 127
-0.207552 -0.930522 -0.153222 0 127 127
0.026167 0.230588 0.142370 0 0 255
0.183502 -0.751289 0.249140 153 0 76
-0.253068 -0.126127 -0.210720 0 255 0
-0.072426 -0.107053 0.249140 204 51 127
-0.025453 -0.273272 0.264900 0 127 127
-0.253068 0.438959 -0.096440 0 255 0
-0.237308 0.357063 -0.058246 0 255 0
0.087928 -0.574549 0.249140 153 0 76
-0.120459 -0.072377 0.249140 0 127 127
0.046886 0.603086 -0.098002 255 0 0
0.011836 0.230588 0.219548 0 0 255
-0.020995 -0.930522 0.000821 0 127 127
-0.117769 0.533131 -0.219724 127 0 127
-0.230125 0.507905 0.264900 0 127 127
-0.237308 -0.887636 -0.223809 153 76 0
0.135948 0.562224 -0.219724 127 0 127
0.235496 0.193656 -0.153791 127 127 0
0.041741 0.442282 -0.219724 127 0 127
-0.115752 -0.147636 0.264900 0 127 127
-0.055414 0.895752 -0.235484 153 0 76
0.022432 0.371332 0.264900 0 127 127
0.144898 0.230588 -0.129887 0 0 255
0.098627 0.054371 -0.214470 127 0 127
-0.253068 0.606794 -0.054227 0 255 0
0.112647 0.933557 -0.169604 76 153 0
-0.194416 -0.722465 0.197696 76 0 153
-0.064189 -0.049317 0.264900 0 127 127
-0.253068 -0.367859 -0.099990 0 255 0
0.251256 -0.419634 0.158503 127 127 0
0.067795 -0.120897 0.171595 204 51 127
0.157591 0.230588 -0.193545 0 0 255
0.235496 -0.260495 0.041286 127 127 0
-0.201751 -0.486829 -0.080261 153 0 76
-0.237308 -0.366622 -0.034906 0 255 0
0.153020 0.933557 -0.125965 76 153 0
0.039926 0.603086 0.144366 255 0 0
-0.173017 -0.701452 -0.068708 76 0 153
0.174322 -0.133153 0.264900 0 127 127
0.235496 -0.631142 0.068225 127 127 0
-0.024277 0.480234 0.249140 0 127 127
0.251256 -0.149661 0.241317 127 127 0
0.166662 -0.616122 0.264900 153 0 76
-0.253068 -0.458097 0.149526 0 255 0
0.235496 -0.132019 -0.095284 127 127 0
0.139451 0.098743 0.264900 0 127 127
-0.253068 0.107562 -0.184358 0 255 0
0.251256 -0.486034 -0.003689 127 127 0
-0.253068 -0.792728 0.017349 0 255 0
-0.069095 -0.167219 -0.214470 127 0 127
-0.253068 -0.141666 -0.026769 0 255 0
0.136855 0.901096 -0.235484 153 0 76
0.015425 -0.486829 -0.138532 153 0 76
0.251256 0.401732 -0.141732 127 127 0
-0.095926 0.251601 0.042966 0 0 255
-0.237308 0.920154 0.047246 0 255 0
-0.253068 0.438546 0.069907 0 255 0
-0.223722 -0.227863 0.249140 0 127 127
-0.237308 0.164728 -0.041716 0 255 0
0.228669 -0.254665 0.249140 0 127 127
-0.253068 0.788349 0.054178 0 255 0
0.001264 -0.465815 0.113186 153 0 76
0.010612 0.585750 -0.219724 127 0 127
0.041657 -0.099884 -0.007522 204 51 127
-0.155429 0.603086 0.211585 255 0 0
0.080395 -0.914528 0.264900 153 0 76
0.050027 -0.702207 0.242573 76 0 153
0.003059 -0.456641 -0.219724 153 0 76
0.235496 -0.363021 0.141651 127 127 0
0.227546 0.439556 -0.214470 127 0 127
0.235496 0.457451 0.049614 127 127 0
0.235496 0.473143 -0.107098 127 127 0
0.101669 -0.465815 -0.059030 153 0 76
-0.116762 0.251601 0.072491 0 0 255
0.112866 0.933557 0.099911 76 153 0
-0.237725 0.954571 0.065821 76 153 0
0.221243 0.019282 0.249140 0 127 127
-0.246219 0.029124 -0.235484 0 255 0
0.161691 -0.120897 0.164318 204 51 127
0.031935 -0.951535 -0.101770 0 127 127
0.049961 -0.583597 -0.214470 127 0 127
-0.091855 0.230588 -0.086578 0 0 255
-0.237308 -0.642667 -0.173153 0 255 0
-0.237308 -0.079137 0.086744 0 255 0
0.011909 -0.838755 -0.235484 153 76 0
0.181625 0.413560 0.249140 0 127 127
0.191293 -0.701452 -0.016192 76 0 153
-0.049699 0.933557 0.195174 76 153 0
-0.056872 -0.099884 -0.164680 204 51 127
-0.043270 -0.774843 -0.214470 127 0 127
0.251256 -0.309619 -0.067661 127 127 0
0.249943 0.836998 0.261465 0 127 127
0.087405 -0.930522 0.061676 0 127 127
0.156903 -0.236739 -0.214470 127 0 127
0.235496 -0.566507 0.127688 127 127 0
0.204435 -0.951535 0.020856 0 127 127
-0.188525 0.603086 0.230188 255 0 0
0.027562 -0.745651 0.264900 153 0 76
-0.253068 -0.714030 -0.039421 0 255 0
-0.253068 0.735092 0.181017 0 255 0
-0.093047 0.251601 0.125050 0 0 255
-0.149704 0.165936 0.249140 0 127 127
-0.114700 -0.486829 0.085351 153 0 76
0.251256 0.828362 -0.123967 127 127 0
-0.029836 -0.465815 0.011325 153 0 76
-0.008147 -0.722465 0.133745 76 0 153
0.251256 0.916428 -0.004320 127 127 0
0.091158 0.586468 -0.219724 255 0 0
-0.085675 -0.099884 -0.121016 204 51 127
0.064537 0.603086 0.113754 255 0 0
-0.237308 0.042662 -0.173177 0 255 0
-0.253068 0.110041 0.091984 0 255 0
0.130965 0.933557 -0.017025 76 153 0
-0.160881 -0.465815 -0.064318 153 0 76
-0.006171 0.230588 0.092972 0 0 255
0.251256 -0.373077 -0.093054 127 127 0
0.119667 0.245987 0.242573 0 127 127
-0.055259 0.912495 0.249140 0 127 127
-0.143953 0.582072 0.226438 255 0 0
-0.253068 -0.665756 -0.102818 0 255 0
-0.253068 -0.240788 0.042679 0 255 0
-0.094022 -0.347787 -0.219724 127 0 127
0.211596 0.603086 0.162726 255 0 0
0.065050 -0.465815 0.153109 153 0 76
-0.237308 0.400458 -0.204065 0 255 0
-0.064872 0.230588 -0.093328 0 0 255
-0.150485 0.933557 -0.201190 76 153 0
-0.062989 0.719941 -0.214470 127 0 127
0.035212 -0.099884 0.058557 204 51 127
-0.229489 -0.404541 0.249140 0 127 127
-0.024948 -0.701452 0.006422 76 0 153
0.235496 0.041359 0.051174 127 127 0
-0.237308 -0.658861 0.087914 0 255 0
0.135991 0.954571 0.021962 76 153 0
-0.007344 -0.573101 0.264900 153 0 76
0.235496 -0.271931 -0.204564 127 0 127
0.156825 0.596323 0.264900 0 127 127
-0.214070 0.762492 0.249140 0 127 127
-0.209453 -0.004333 -0.214470 127 0 127
0.189845 -0.367317 0.249140 0 127 127
-0.220241 0.815370 -0.219724 127 0 127
-0.199850 0.582072 0.180479 255 0 0
0.235496 0.364832 0.142789 127 127 0
-0.253068 0.941641 -0.089863 0 255 0
-0.093622 0.417641 0.249140 0 127 127
0.175879 -0.465815 0.121425 153 0 76
-0.178796 -0.701452 -0.115956 76 0 153
0.228642 -0.951535 0.163762 127 127 0
0.036490 -0.707576 0.264900 153 0 76
-0.237308 0.690876 -0.109126 0 255 0
0.251256 0.299021 0.084034 127 127 0
0.112200 -0.489537 -0.214470 153 0 76
0.031969 0.521676 -0.214470 127 0 127
-0.193593 -0.465815 0.216922 153 0 76
-0.125708 0.230588 -0.012903 0 0 255
-0.079593 0.582072 0.177768 255 0 0
0.034779 -0.099884 -0.058452 204 51 127
-0.217366 -0.486829 0.083669 153 0 76
0.251256 -0.731080 0.055772 127 127 0
-0.122647 -0.701452 0.200146 76 0 153
-0.068183 -0.779353 0.249140 153 0 76
0.039599 0.933557 -0.193077 76 153 0
0.046072 0.954571 -0.092530 76 153 0
0.134006 -0.686984 -0.219724 127 0 127
-0.103491 0.932271 0.264900 0 127 127
-0.022707 -0.332618 0.264900 0 127 127
-0.168505 0.640272 0.264900 0 127 127
-0.010385 -0.951535 -0.102503 0 127 127
-0.253068 -0.839072 -0.163992 0 255 0
0.188782 0.230588 -0.090039 0 0 255
0.115057 0.954571 0.228461 76 153 0
0.093497 0.926694 -0.219724 127 0 127
-0.159648 -0.064370 -0.219724 127 0 127
0.251256 0.646423 -0.132770 127 127 0
0.182685 -0.241678 0.249140 0 127 127
0.140474 0.582072 -0.021167 255 0 0
0.032827 0.954571 0.093529 76 153 0
-0.237308 -0.410478 -0.129783 0 255 0
0.000985 0.833783 0.264900 0 127 127
-0.128458 0.383906 0.249140 0 127 127
0.251256 0.359060 -0.140841 127 127 0
0.194510 0.582072 0.186016 255 0 0
-0.237308 0.694671 0.134598 0 255 0
0.162871 -0.548424 0.249140 153 0 76
-0.016086 -0.951535 0.082907 0 127 127
0.128740 -0.479805 0.264900 153 0 76
-0.070055 0.067832 0.249140 0 127 127
-0.016666 -0.404691 0.249140 0 127 127
-0.109982 -0.951535 0.091629 0 127 127
-0.112676 0.933557 -0.109062 76 153 0
-0.199696 -0.722465 0.089692 76 0 153
-0.179486 0.251601 0.121728 0 0 255
-0.118876 -0.465815 0.041466 153 0 76
-0.093690 0.603086 0.018993 255 0 0
-0.190625 0.830340 0.264900 0 127 127
-0.183196 -0.418068 -0.219724 127 0 127
0.229505 -0.486829 0.078718 127 127 0
0.198886 0.582072 -0.088420 255 0 0
0.235496 0.197723 0.150051 127 127 0
0.162540 0.954571 0.126762 76 153 0
-0.066632 -0.465815 -0.054515 153 0 76
-0.245590 -0.213325 -0.235484 0 255 0
-0.013755 0.954571 -0.048270 76 153 0
-0.095019 0.603086 0.053371 255 0 0
-0.230698 -0.120897 -0.051000 0 255 0
-0.054393 0.603086 0.134580 255 0 0
-0.070310 0.251601 0.004474 0 0 255
0.235496 0.272222 -0.129911 127 127 0
0.251256 0.118009 0.117554 127 127 0
0.000175 -0.529917 -0.219724 127 0 127
-0.150302 -0.701452 -0.178920 76 0 153
0.052673 -0.481245 -0.219724 127 0 127
0.158952 0.954571 -0.055767 76 153 0
0.037450 -0.601982 0.264900 153 0 76
0.235496 0.065010 -0.209155 127 0 127
0.251256 0.406844 0.090026 127 127 0
-0.237308 0.379813 0.002694 0 255 0
-0.253068 0.749257 -0.124079 0 255 0
0.118661 -0.701452 0.224906 76 0 153
0.251256 0.251649 -0.204994 127 127 0
0.251256 -0.118913 0.220855 127 127 0
-0.057244 0.582072 0.232348 255 0 0
-0.018069 0.230588 -0.021564 0 0 255
0.099759 -0.701452 0.205839 76 0 153
0.251256 0.688028 0.213607 127 127 0
0.235496 0.349919 -0.011733 127 127 0
-0.150363 -0.002937 -0.235484 127 0 127
-0.209335 -0.486222 0.264900 153 0 76
0.111415 -0.951535 0.247489 153 0 76
-0.085180 0.933557 0.092276 76 153 0
0.251256 -0.645663 0.011146 127 127 0
0.191032 -0.717357 0.264900 153 0 76
0.038624 0.582072 -0.178970 255 0 0
0.094701 -0.120897 0.004316 204 51 127
0.229997 0.336274 0.264900 0 127 127
0.251256 0.846005 0.066110 127 127 0
0.235496 0.629352 -0.087537 127 127 0
0.042408 -0.951232 -0.235484 0 127 127
0.167593 0.933869 0.247827 76 153 0
-0.253068 0.138124 -0.126671 0 255 0
0.039163 -0.930522 0.241098 0 127 127
-0.032201 -0.722465 -0.026432 76 0 153
0.235496 -0.360725 0.084443 127 127 0
0.071768 -0.858251 0.264900 153 0 76
-0.185441 -0.613553 -0.214470 127 0 127
-0.222638 0.603086 0.059811 255 0 0
0.016501 -0.486829 0.021070 153 0 76
0.188164 0.026912 0.264900 0 127 127
0.181766 0.230588 0.122695 0 0 255
0.225832 -0.431747 0.264900 0 127 127
-0.150330 0.358386 -0.219724 127 0 127
-0.051389 -0.562095 0.249140 153 0 76
-0.108061 -0.701941 0.242573 153 0 76
0.102380 -0.120897 0.153926 204 51 127
-0.237308 0.151158 0.192737 0 255 0
0.136807 -0.099884 -0.014397 204 51 127
-0.179095 0.582072 0.145517 255 0 0
0.122423 0.354172 0.264900 0 127 127
-0.035429 0.954571 -0.075573 76 153 0
0.141136 -0.057966 -0.219724 127 0 127
0.091499 -0.704024 0.264900 153 0 76
-0.056370 0.230588 0.137973 0 0 255
-0.237308 0.666531 0.101844 0 255 0
-0.237308 -0.179991 0.222843 0 255 0
0.110361 0.644622 -0.214470 127 0 127
-0.184909 0.230588 -0.036195 0 0 255
-0.237308 -0.608047 -0.235383 0 255 0
-0.215714 0.603086 0.007518 255 0 0
0.125685 -0.486829 -0.032620 153 0 76
0.251256 -0.043914 0.026596 127 127 0
-0.129061 0.072813 0.249140 0 127 127
0.191144 -0.465815 0.007197 153 0 76
0.086987 -0.486829 0.229364 153 0 76
0.251256 -0.444115 -0.124556 127 127 0
-0.252789 -0.023094 -0.235484 0 255 0
-0.004084 0.550772 -0.219724 127 0 127
0.226368 -0.099884 -0.068769 204 51 127
0.131538 -0.722465 0.093136 76 0 153
0.235496 -0.360843 -0.164360 127 127 0
-0.073006 -0.085059 -0.219724 127 0 127
0.251256 -0.280679 -0.173061 127 127 0
-0.253068 -0.503149 -0.227284 0 255 0
-0.006953 -0.486829 -0.152590 153 0 76
-0.237308 0.917731 -0.188116 0 255 0
-0.204599 -0.465815 -0.139157 153 0 76
0.160261 0.667149 0.249140 0 127 127
-0.101093 -0.546713 0.264900 153 0 76
0.148975 0.933557 -0.218075 76 153 0
0.069811 -0.764191 0.249140 153 0 76
0.025779 -0.465815 -0.164929 153 0 76
-0.237308 0.520514 -0.094862 0 255 0
-0.003939 0.690652 0.264900 0 127 127
0.189370 0.508852 0.264900 0 127 127
-0.206035 0.856741 0.264900 0 127 127
-0.237308 0.404211 -0.037707 0 255 0
-0.162659 0.933557 0.178785 76 153 0
0.185123 -0.552792 0.264900 153 0 76
0.095361 -0.099884 -0.039507 204 51 127
0.251256 -0.025608 0.196825 127 127 0
-0.237308 -0.033211 0.137069 0 255 0
0.235496 0.801124 0.224178 127 127 0
-0.060090 -0.908884 -0.235484 153 76 0
-0.253068 -0.834983 0.025235 0 255 0
0.155323 -0.486829 0.012714 153 0 76
-0.005068 -0.001483 -0.235484 127 0 127
0.029271 -0.099884 -0.127363 204 51 127
-0.211291 0.480880 -0.219724 127 0 127
-0.253068 0.605262 -0.172556 0 255 0
-0.237308 -0.528699 0.159050 0 255 0
-0.237308 -0.301221 0.135543 0 255 0
0.139344 0.251601 -0.015872 0 0 255
-0.188705 -0.293500 -0.214470 127 0 127
0.091463 -0.926692 -0.219724 0 127 127
0.235496 0.202861 -0.064250 127 127 0
0.251256 -0.602609 -0.095693 127 127 0
0.200615 -0.668508 0.264900 153 0 76
0.251256 -0.283430 -0.036349 127 127 0
0.195569 -0.826394 -0.235484 153 76 0
0.018293 -0.359346 0.249140 0 127 127
-0.250074 -0.524244 0.264900 153 0 76
0.162595 -0.687753 0.264900 153 0 76
-0.013847 -0.738407 0.264900 153 0 76
-0.153842 -0.465815 -0.015855 153 0 76
0.251256 -0.025572 -0.065474 127 127 0
0.217851 -0.486829 -0.003308 153 0 76
0.235496 0.221492 0.133191 0 0 255
0.081289 -0.951535 -0.166160 0 127 127
-0.215057 0.731744 0.249140 0 127 127
0.018505 0.251601 -0.107527 0 0 255
0.102711 -0.507600 0.249140 153 0 76
-0.035304 -0.429799 -0.219724 127 0 127
-0.012659 -0.099884 0.084463 204 51 127
-0.189125 0.424907 0.249140 0 127 127
-0.012139 0.954571 0.013215 76 153 0
0.023622 0.106568 0.264900 0 127 127
-0.253068 0.852863 -0.042246 0 255 0
0.063388 -0.384559 0.249140 0 127 127
0.053013 0.582072 0.227668 255 0 0
-0.027678 -0.889857 0.249140 153 0 76
0.167913 -0.936016 0.264900 153 0 76
0.136939 -0.486829 0.133533 153 0 76
0.119388 0.438146 0.249140 0 127 127
-0.101241 0.582072 0.160892 255 0 0
0.099028 -0.828000 -0.214470 127 0 127
-0.179626 0.251601 -0.157833 0 0 255
-0.029633 -0.822828 0.249140 153 0 76
-0.251755 0.756265 0.259160 0 255 0
0.251256 -0.759184 0.040797 127 127 0
0.251256 -0.881189 0.093244 127 127 0
-0.038125 -0.120897 -0.034173 204 51 127
0.185042 -0.722465 0.047531 76 0 153
0.235496 0.587943 -0.077995 127 127 0
0.066722 0.468230 -0.214470 127 0 127
-0.100521 -0.701452 0.186243 76 0 153
0.202644 -0.701452 0.242352 76 0 153
-0.253068 0.255640 0.160142 0 0 255
-0.109251 -0.099884 -0.192111 204 51 127
0.038625 -0.811296 -0.214470 127 0 127
-0.197925 0.137669 -0.214470 127 0 127
-0.040517 0.286347 0.249140 0 127 127
-0.219684 0.230588 -0.114531 0 0 255
