ply
format ascii 1.0
element vertex 1249
property float x
property float y
property float z
property uchar red
property uchar green
property uchar blue
end_header
-0.125309 0.197941 0.364332 76 0 153
0.583112 -0.157436 -0.333713 0 127 127
0.042310 -0.433496 0.359464 76 0 153
-0.519768 0.215511 -0.397517 0 127 127
0.026367 -0.092651 0.360231 76 0 153
-0.560443 0.752970 -0.041853 0 127 127
0.523146 -0.736967 0.086663 0 127 127
0.583942 -0.283575 0.271366 0 127 127
0.576696 -0.286623 0.350835 0 127 127
-0.308879 -0.461403 0.357669 76 0 153
0.047854 0.029154 0.366656 76 0 153
0.583384 0.745222 -0.203447 0 127 127
-0.482621 -0.450403 0.357663 76 0 153
0.170385 0.730770 0.359422 76 0 153
0.583942 0.114282 0.111900 0 127 127
0.582203 -0.710821 -0.315814 0 127 127
0.583113 -0.659367 -0.134948 0 127 127
0.544382 -0.113022 -0.397458 0 127 127
-0.562076 0.464965 -0.040410 0 127 127
0.386215 0.483261 0.357223 76 0 153
0.583784 0.062950 -0.049578 0 127 127
0.229106 0.552950 -0.397558 0 127 127
0.417152 0.760642 0.356051 76 0 153
0.583942 0.025365 0.146426 0 127 127
-0.205943 -0.612661 -0.397558 0 127 127
0.583942 0.097316 0.227321 0 127 127
-0.140763 0.467748 -0.397558 0 127 127
0.250378 -0.736968 -0.233491 0 127 127
-0.562076 0.193670 -0.215254 0 127 127
-0.511019 0.184656 0.358194 76 0 153
-0.108525 0.776325 0.124407 0 127 127
-0.438724 -0.573061 -0.397558 0 127 127
-0.071377 -0.736968 -0.064685 0 127 127
-0.010403 -0.430961 0.359149 0 127 127
-0.306697 0.622822 0.357535 76 0 153
0.446913 -0.736968 -0.210671 0 127 127
-0.078655 -0.375158 -0.397558 0 127 127
0.129826 0.772777 -0.362933 0 127 127
0.072427 0.776183 0.301306 0 127 127
0.583493 0.041450 -0.150700 0 127 127
0.580400 0.764771 -0.325585 0 127 127
-0.562076 -0.391066 0.128592 0 127 127
-0.562076 -0.600380 -0.088628 0 127 127
-0.357015 0.204115 0.356670 76 0 153
-0.134213 -0.236115 0.357080 76 0 153
0.582940 -0.249750 -0.273013 0 127 127
0.459562 0.776011 -0.192775 0 127 127
-0.561887 0.163986 -0.367919 0 127 127
0.449555 0.698677 0.354465 0 0 255
0.583942 -0.226206 0.219080 0 127 127
0.446079 -0.554406 0.358267 76 0 153
0.583152 0.355332 -0.091552 0 127 127
-0.340822 0.776325 0.039358 0 127 127
0.583280 -0.028762 -0.358545 0 127 127
-0.033933 -0.724163 0.318243 0 127 127
-0.293016 -0.718267 0.319133 0 127 127
-0.562076 0.386810 -0.234789 0 127 127
-0.438262 0.112445 -0.397558 0 127 127
-0.021665 -0.729379 -0.388030 0 127 127
-0.562076 0.071825 -0.112513 0 127 127
-0.562076 0.062754 -0.238624 0 127 127
0.429624 -0.070757 0.357669 76 0 153
0.583942 0.450007 0.211687 0 127 127
-0.562076 0.572583 -0.114031 0 127 127
0.258665 0.456945 0.357669 76 0 153
0.402700 -0.651516 0.336792 0 127 127
0.574611 -0.110540 -0.393785 0 127 127
0.246430 -0.265394 -0.397558 0 127 127
-0.034722 0.776289 0.288172 0 127 127
-0.562076 -0.413245 0.095878 0 127 127
-0.136008 -0.141888 -0.397558 0 127 127
-0.099419 -0.736968 0.108720 0 127 127
-0.053033 -0.078518 -0.397558 0 127 127
-0.562076 0.542489 0.220208 0 127 127
0.378721 0.775964 -0.097595 0 127 127
-0.562062 0.715736 0.274632 0 127 127
0.003739 0.055236 0.361826 0 127 127
0.583026 -0.422413 0.097856 0 127 127
-0.461859 0.068270 0.357178 76 0 153
-0.442832 0.151682 -0.397558 0 127 127
0.583277 -0.503466 -0.356746 0 127 127
0.457457 0.775327 -0.348732 0 127 127
0.431736 -0.165221 -0.397558 0 127 127
0.581643 0.172101 -0.384604 0 127 127
-0.003848 -0.736968 0.225731 0 127 127
0.521493 -0.393520 -0.397552 0 127 127
-0.034349 -0.511227 0.359097 76 0 153
0.173021 0.775476 0.078278 0 127 127
-0.318844 -0.537557 0.357664 76 0 153
0.583700 0.664231 -0.317313 0 127 127
-0.153577 -0.024005 0.357043 76 0 153
-0.399273 0.776325 0.031185 0 127 127
-0.134156 -0.736968 -0.137594 0 127 127
0.138043 0.452868 -0.397558 0 127 127
0.583754 0.737313 0.176080 0 127 127
-0.562076 -0.254916 0.113251 0 127 127
-0.036050 0.776132 0.078657 0 127 127
-0.125102 0.004773 0.358789 76 0 153
-0.034953 0.689544 0.358614 76 0 153
0.583860 0.021426 -0.001475 0 127 127
-0.457998 -0.736339 -0.376346 0 127 127
-0.562076 -0.096678 -0.014559 0 127 127
-0.562076 -0.436731 -0.099555 0 127 127
0.490039 0.775692 0.283741 0 127 127
-0.065915 0.297382 0.369516 76 0 153
-0.554021 0.768788 0.313034 0 127 127
0.191551 0.773395 -0.359642 0 127 127
0.583942 -0.208148 0.149512 0 127 127
-0.562076 -0.302798 -0.007386 0 127 127
0.583942 0.428019 -0.283896 0 127 127
0.203050 -0.727978 0.316188 0 127 127
0.312975 -0.736968 0.225927 0 127 127
-0.562076 0.682371 0.199137 0 127 127
0.583667 0.341833 -0.153943 0 127 127
0.583942 0.172448 -0.316661 0 127 127
0.089945 -0.411825 0.358619 76 0 153
-0.510815 0.776323 0.261032 0 127 127
-0.078919 -0.735784 0.304827 0 127 127
0.583242 -0.639032 0.117619 0 127 127
-0.337267 -0.268482 0.357669 76 0 153
0.309016 0.775813 0.049680 0 127 127
-0.562076 -0.137446 0.155717 0 127 127
-0.562076 0.129930 -0.042494 0 127 127
0.467317 -0.449157 -0.397558 0 127 127
0.176303 0.239417 -0.397558 0 127 127
-0.198363 0.149517 0.357394 76 0 153
-0.562076 0.034280 0.129064 0 127 127
-0.277439 0.523041 -0.397558 0 127 127
-0.562076 -0.534204 0.157520 0 127 127
-0.156246 -0.540259 0.357663 76 0 153
-0.254168 -0.659512 0.333691 0 127 127
0.583942 0.300662 0.075336 0 127 127
0.583623 0.508746 -0.016965 0 127 127
-0.136440 -0.736968 -0.080610 0 127 127
0.436348 -0.724556 0.318159 0 127 127
-0.134546 0.776258 0.303393 0 127 127
-0.081683 -0.466482 0.358017 76 0 153
-0.562076 0.391950 -0.070524 0 127 127
-0.562076 -0.364894 -0.130796 0 127 127
0.043132 -0.319081 0.359424 76 0 153
0.036111 0.615930 0.359762 76 0 153
-0.562076 0.107340 0.085311 0 127 127
-0.561968 -0.011735 -0.359817 0 127 127
0.583684 -0.666361 0.180624 0 127 127
0.145846 0.038906 0.359179 76 0 153
0.495457 -0.736968 0.236034 0 127 127
-0.490044 0.776325 0.152219 0 127 127
-0.529970 -0.080944 -0.397294 0 127 127
-0.291222 -0.736968 -0.248952 0 127 127
0.174370 -0.535450 -0.397558 0 127 127
0.540255 -0.736966 0.216732 0 127 127
0.582940 -0.459819 0.074354 0 127 127
0.465667 0.083464 0.357669 76 0 153
0.583942 0.695441 0.160256 0 127 127
0.346691 0.308433 -0.397558 0 127 127
-0.106010 0.776239 0.309920 0 127 127
0.583287 -0.444110 -0.362588 0 127 127
0.189488 0.775326 -0.025916 0 127 127
0.267651 -0.481027 0.356922 76 0 153
-0.255082 -0.386269 0.357669 76 0 153
-0.562075 0.547967 -0.322285 0 127 127
0.573281 0.770535 -0.046120 0 127 127
0.230964 0.094866 -0.397558 0 127 127
0.578260 0.057380 0.346251 0 127 127
0.480558 0.666545 -0.397558 0 127 127
0.582976 -0.016038 -0.320005 0 127 127
-0.562076 -0.342766 -0.295996 0 127 127
0.472979 0.557776 0.357606 76 0 153
0.582940 -0.278854 -0.293346 0 127 127
-0.474647 0.486197 -0.397558 0 127 127
0.341792 0.734281 -0.395693 0 127 127
0.011630 0.542289 0.360142 0 127 127
-0.562076 -0.452985 -0.182293 0 127 127
0.582940 -0.504890 -0.175365 0 127 127
0.525948 0.776324 -0.153406 0 127 127
-0.562076 -0.154876 0.255893 0 127 127
-0.562076 0.642555 -0.233080 0 127 127
-0.009579 0.122387 0.367832 0 127 127
0.434197 -0.736967 0.261541 0 127 127
-0.353857 -0.736968 0.156736 0 127 127
-0.042027 0.776192 -0.325425 0 127 127
-0.105863 -0.736968 -0.197991 0 127 127
0.280459 0.775326 0.186229 0 127 127
0.312543 0.650688 0.357669 76 0 153
-0.152594 0.520936 0.356669 76 0 153
-0.465555 -0.622375 0.351964 0 127 127
-0.016459 0.775935 -0.302558 0 127 127
0.205066 0.351390 0.357668 76 0 153
-0.337213 -0.050075 -0.397558 0 127 127
0.576513 0.768157 0.065957 0 127 127
0.152769 -0.736966 -0.346584 0 127 127
-0.562076 0.460239 -0.082696 0 127 127
-0.481944 -0.736968 0.183167 0 127 127
-0.153240 -0.087280 0.356670 76 0 153
-0.562076 0.004892 -0.088153 0 127 127
0.498449 -0.308696 0.357665 76 0 153
-0.515105 -0.404351 0.359113 76 0 153
-0.562076 -0.286649 0.082150 0 127 127
-0.562076 0.143819 0.248063 0 127 127
0.583942 0.256246 -0.186029 0 127 127
-0.533490 0.776061 0.242841 0 127 127
-0.489229 -0.388747 0.357854 76 0 153
0.583499 -0.463289 0.185847 0 127 127
0.479635 -0.736968 -0.249155 0 127 127
-0.561220 0.748476 0.209442 0 127 127
0.372038 -0.251860 0.357669 76 0 153
0.011035 0.776179 0.264918 0 127 127
0.468461 0.776296 -0.141445 0 127 127
0.583378 0.739711 -0.251510 0 127 127
0.460692 -0.736968 0.183640 0 127 127
0.352787 0.079142 0.357669 76 0 153
0.582939 0.452880 -0.117299 0 127 127
0.368615 0.775369 -0.208527 0 127 127
-0.199582 0.428074 0.357064 76 0 153
-0.220344 0.504666 -0.397558 0 127 127
0.568901 0.718199 0.355581 76 0 153
-0.270320 0.192612 0.356670 76 0 153
0.583266 -0.573740 -0.376017 0 127 127
-0.231395 0.768522 0.347614 76 0 153
0.534686 0.461671 -0.397546 0 127 127
0.366760 0.369062 0.357669 76 0 153
0.526822 0.646774 -0.397549 0 127 127
-0.390940 -0.167707 0.357669 76 0 153
0.440982 -0.021733 -0.397558 0 127 127
-0.480286 -0.520824 0.357662 76 0 153
-0.562076 -0.652667 -0.116999 0 127 127
0.583942 0.117225 0.179071 0 127 127
0.398616 0.775326 -0.252610 0 127 127
-0.198290 0.241658 0.356782 76 0 153
0.012664 -0.736968 -0.154027 0 127 127
0.141615 -0.630155 -0.397558 0 127 127
0.038084 -0.127618 -0.397558 0 127 127
0.468389 0.404218 0.357669 76 0 153
-0.035417 -0.377206 0.359108 76 0 153
0.160297 -0.354690 0.356999 76 0 153
-0.562076 -0.591709 -0.146930 0 127 127
0.446111 0.336598 -0.397558 0 127 127
-0.190840 -0.502609 0.357669 76 0 153
-0.107829 0.316210 0.358925 76 0 153
0.428966 0.775326 0.168767 0 127 127
0.213049 0.775326 -0.071979 0 127 127
0.583451 -0.567049 0.239220 0 127 127
0.341848 0.458688 0.357415 76 0 153
0.582940 -0.247176 -0.238552 0 127 127
0.004084 0.773374 -0.361505 0 127 127
0.202258 0.458859 -0.397558 0 127 127
0.380752 -0.455145 -0.397558 0 127 127
0.509502 0.776325 -0.127982 0 127 127
0.583942 0.197028 -0.197246 0 127 127
0.104340 -0.670694 -0.397558 0 127 127
0.252896 0.608278 -0.397558 0 127 127
-0.434752 -0.736968 0.136496 0 127 127
-0.206954 0.499857 0.356949 76 0 153
0.237053 -0.736591 0.294222 0 127 127
-0.536160 -0.736532 0.122215 0 127 127
-0.129678 -0.736968 -0.221656 0 127 127
0.168879 -0.717045 0.319310 0 127 127
0.145793 0.184265 0.357509 76 0 153
-0.376193 -0.736968 -0.054303 0 127 127
0.007398 -0.546037 -0.397558 0 127 127
0.583017 -0.616706 0.088530 0 127 127
-0.428555 -0.356039 0.357669 76 0 153
0.549104 -0.453872 0.358735 76 0 153
-0.215385 -0.736844 0.284147 0 127 127
0.238441 0.172898 0.357669 76 0 153
0.364673 0.775723 -0.013510 0 127 127
-0.562076 0.153611 0.082560 0 127 127
0.583578 -0.685394 0.028398 0 127 127
-0.051581 0.559420 -0.397558 0 127 127
0.419863 -0.736968 0.022928 0 127 127
0.243835 0.374255 -0.397558 0 127 127
-0.562076 0.468255 0.020452 0 127 127
0.539256 -0.736966 -0.224481 0 127 127
-0.060372 0.776266 0.300550 0 127 127
0.082388 0.775326 -0.178297 0 127 127
-0.562076 0.295235 -0.292559 0 127 127
-0.165118 0.672395 -0.397558 0 127 127
-0.429970 0.775685 -0.210620 0 127 127
-0.562076 0.144923 0.043006 0 127 127
-0.411737 -0.692493 -0.397425 0 127 127
-0.395654 0.670873 0.357518 76 0 153
0.268180 0.775326 -0.138104 0 127 127
0.581198 -0.621846 -0.386003 0 127 127
-0.562073 0.301257 -0.344536 0 127 127
0.582940 -0.511865 0.055853 0 127 127
-0.308858 0.403449 -0.397558 0 127 127
-0.562076 -0.219248 0.070189 0 127 127
0.101349 0.478864 0.357566 76 0 153
-0.562076 -0.637014 -0.062288 0 127 127
-0.172382 0.776325 0.071167 0 127 127
0.388007 -0.371518 -0.397558 0 127 127
0.270359 -0.736968 0.192079 0 127 127
-0.562076 -0.628409 0.058841 0 127 127
-0.252504 -0.356692 -0.397558 0 127 127
-0.531964 0.357666 -0.397251 0 127 127
0.582534 0.605571 0.328716 0 127 127
0.279939 -0.027187 0.357412 76 0 153
0.582939 -0.576042 -0.300972 0 127 127
-0.562076 -0.338695 0.041989 0 127 127
-0.163640 0.048337 -0.397558 0 127 127
-0.537760 -0.532151 -0.397124 0 127 127
0.099794 -0.590139 -0.397558 0 127 127
0.583942 -0.117867 0.229868 0 127 127
-0.343081 0.775651 -0.090442 0 127 127
0.022800 -0.736968 0.206057 0 127 127
-0.297697 -0.736968 -0.104883 0 127 127
-0.398679 0.153168 -0.397558 0 127 127
-0.325188 -0.500518 0.357669 76 0 153
0.022149 -0.727124 -0.391822 0 127 127
-0.562076 0.490506 -0.114871 0 127 127
0.582940 -0.150027 -0.203309 0 127 127
0.583907 -0.086431 0.068085 0 127 127
0.583942 0.376566 -0.244547 0 127 127
-0.049658 -0.295049 -0.397558 0 127 127
-0.153378 0.421091 -0.397558 0 127 127
-0.562076 0.460063 0.060201 0 127 127
0.506226 0.772595 0.339084 0 127 127
0.571501 -0.043650 0.354250 76 0 153
-0.115001 -0.383848 0.357668 76 0 153
-0.562076 -0.550558 0.007599 0 127 127
-0.079040 0.117740 0.410953 153 76 0
-0.206972 0.543662 0.356823 76 0 153
-0.220693 -0.101052 0.357228 76 0 153
0.456795 0.494927 -0.397558 0 127 127
0.067209 0.775326 -0.266489 0 127 127
-0.562076 -0.477778 -0.147312 0 127 127
-0.350283 -0.682653 -0.397477 0 127 127
0.463241 -0.659920 -0.397558 0 127 127
-0.147336 -0.736968 0.138267 0 127 127
0.583942 0.526888 0.118036 0 127 127
-0.418965 -0.130323 -0.397558 0 127 127
-0.316058 0.776325 -0.166689 0 127 127
-0.461337 -0.082243 -0.397558 0 127 127
0.582939 -0.477068 -0.301004 0 127 127
0.583627 -0.615560 0.234372 0 127 127
0.041661 0.428101 -0.397558 0 127 127
0.171055 0.301161 0.358796 76 0 153
0.171219 0.772222 0.339896 0 127 127
-0.491764 0.023758 0.357937 76 0 153
-0.031757 0.182722 -0.397558 0 127 127
0.476055 0.502827 0.357669 76 0 153
0.509317 0.775675 -0.331158 0 127 127
-0.562041 -0.125658 0.301929 0 127 127
-0.447044 -0.444018 -0.397558 0 127 127
-0.437412 0.035856 0.357506 76 0 153
-0.281852 -0.447768 -0.397558 0 127 127
-0.401190 0.637738 -0.397558 0 127 127
0.583780 0.602910 -0.363341 0 127 127
0.144662 0.243561 0.365913 76 0 153
0.407332 0.119508 0.357669 76 0 153
-0.374171 0.566417 0.357009 76 0 153
-0.535479 -0.426052 -0.397174 0 127 127
-0.557810 0.766548 0.075596 0 127 127
-0.005599 -0.157770 0.359381 0 127 127
-0.562068 -0.657049 0.288805 0 127 127
-0.562076 0.045976 -0.076015 0 127 127
0.582940 0.566477 -0.126779 0 127 127
-0.162844 -0.533464 -0.397558 0 127 127
0.387473 -0.736968 -0.232428 0 127 127
0.149086 -0.736966 0.277423 0 127 127
0.582940 -0.229934 -0.046371 0 127 127
-0.016346 0.246507 0.368591 76 0 153
0.582940 -0.337049 -0.011141 0 127 127
0.256768 0.016428 -0.397558 0 127 127
-0.072011 0.270778 0.382395 76 0 153
0.118194 -0.675766 0.327830 0 127 127
-0.106203 -0.736968 -0.242004 0 127 127
0.013607 0.255959 -0.397558 0 127 127
0.583942 0.161497 0.179851 0 127 127
0.521842 0.079484 0.358363 76 0 153
-0.175784 -0.674465 0.328310 0 127 127
-0.424298 -0.736968 0.187890 0 127 127
-0.425489 0.776325 0.136987 0 127 127
-0.562076 0.605527 0.223846 0 127 127
0.481644 -0.557643 -0.397558 0 127 127
0.583942 -0.024864 0.247554 0 127 127
-0.105531 -0.736968 0.022345 0 127 127
0.076225 -0.546587 -0.397558 0 127 127
0.583137 0.427962 -0.065069 0 127 127
0.355344 -0.227065 -0.397558 0 127 127
-0.377198 -0.732030 0.310291 0 127 127
0.493331 -0.169365 0.357666 76 0 153
-0.562076 0.069918 -0.056849 0 127 127
-0.562076 0.464052 -0.288209 0 127 127
0.582940 -0.296059 -0.044968 0 127 127
0.497515 0.478564 -0.397558 0 127 127
0.351693 0.347625 -0.397558 0 127 127
-0.189668 0.426089 -0.397558 0 127 127
0.373907 0.423029 0.357607 76 0 153
0.583942 0.135325 0.061244 0 127 127
-0.193238 -0.736967 -0.325347 0 127 127
0.489546 0.775326 0.136185 0 127 127
0.411471 0.775860 -0.179962 0 127 127
0.072922 -0.218320 -0.397558 0 127 127
0.259776 -0.736968 0.236617 0 127 127
0.583655 0.522507 -0.238289 0 127 127
0.076498 0.669559 -0.397558 0 127 127
0.202054 0.775716 0.281905 0 127 127
-0.562073 0.455849 -0.344389 0 127 127
0.064249 0.523618 0.358946 76 0 153
0.352154 -0.736968 -0.265261 0 127 127
0.521591 -0.634251 0.346479 0 127 127
-0.562076 -0.496394 -0.238671 0 127 127
-0.558551 0.758919 -0.381303 0 127 127
0.583942 0.168231 -0.198442 0 127 127
0.207185 -0.305859 -0.397558 0 127 127
0.149029 -0.736968 0.193486 0 127 127
0.183087 0.413676 0.357435 76 0 153
0.365789 0.716030 -0.397428 0 127 127
-0.562046 0.227894 0.298353 0 127 127
0.235249 -0.726490 -0.392335 0 127 127
-0.092561 0.090163 0.389836 153 76 0
0.583942 -0.015470 0.208804 0 127 127
-0.265092 0.776325 0.077694 0 127 127
0.176905 -0.662274 0.332524 0 127 127
-0.166323 0.773656 0.332720 0 127 127
-0.037985 -0.038297 0.358952 76 0 153
-0.231956 -0.736968 -0.005553 0 127 127
-0.562076 0.361011 0.074291 0 127 127
-0.314550 0.731121 0.359246 76 0 153
-0.189261 -0.736968 -0.088764 0 127 127
-0.263794 -0.508317 -0.397558 0 127 127
0.434212 -0.736673 -0.362773 0 127 127
0.270465 0.773826 -0.357345 0 127 127
-0.119514 -0.408772 -0.397558 0 127 127
-0.291946 0.050502 -0.397558 0 127 127
0.583942 0.477346 0.147770 0 127 127
0.010287 0.775666 -0.149712 0 127 127
-0.560939 -0.366944 -0.379702 0 127 127
0.266429 0.328335 0.357669 76 0 153
0.582940 -0.105282 -0.298549 0 127 127
0.554047 0.144391 0.358597 76 0 153
0.311021 0.388216 -0.397558 0 127 127
-0.519264 -0.507195 -0.397528 0 127 127
0.583942 0.657330 0.250421 0 127 127
-0.562076 -0.638014 0.164661 0 127 127
0.583942 -0.067692 0.195148 0 127 127
0.273157 0.232125 -0.397558 0 127 127
-0.275441 -0.110741 0.357621 76 0 153
-0.538146 0.042376 0.358265 76 0 153
-0.075713 -0.736968 -0.121492 0 127 127
0.338493 -0.652880 -0.397558 0 127 127
0.349460 0.250080 0.357669 76 0 153
-0.558629 -0.725034 -0.255930 0 127 127
-0.180669 0.015104 0.357535 76 0 153
-0.562076 -0.352105 -0.234260 0 127 127
-0.220248 -0.736968 0.099693 0 127 127
0.480706 -0.736911 0.282534 0 127 127
0.461365 -0.318676 -0.397558 0 127 127
-0.093567 0.776325 -0.215212 0 127 127
-0.294329 0.244729 0.356670 76 0 153
-0.338853 0.134239 0.356669 76 0 153
0.582939 -0.428589 -0.302538 0 127 127
0.100300 -0.736968 -0.192472 0 127 127
0.471574 -0.229446 -0.397558 0 127 127
-0.562076 0.367568 0.027169 0 127 127
-0.561456 -0.413319 0.318653 0 127 127
-0.063294 0.504799 -0.397558 0 127 127
-0.562076 0.020626 0.018063 0 127 127
-0.538188 -0.363258 0.358414 76 0 153
-0.562076 0.034480 -0.132882 0 127 127
0.303098 0.318863 0.357669 76 0 153
0.457548 -0.106259 -0.397558 0 127 127
-0.486054 0.625225 -0.397558 0 127 127
0.099484 0.195842 0.400011 153 0 76
-0.193621 -0.090720 -0.397558 0 127 127
-0.441898 0.411838 0.356670 76 0 153
-0.562076 0.357714 -0.119967 0 127 127
0.583236 -0.302993 -0.346282 0 127 127
0.267910 -0.736968 -0.139183 0 127 127
-0.414789 -0.601886 0.358569 76 0 153
0.583942 -0.225355 0.272667 0 127 127
0.029016 0.775478 -0.234529 0 127 127
0.311084 -0.169571 -0.397558 0 127 127
0.008564 -0.736968 -0.324667 0 127 127
-0.230318 0.125475 0.357072 76 0 153
0.427250 0.553116 -0.397558 0 127 127
0.583705 -0.651834 0.322834 0 127 127
-0.527386 0.499281 0.358253 76 0 153
0.009132 -0.196118 -0.397558 0 127 127
0.490164 0.541417 -0.397558 0 127 127
0.081711 0.107275 -0.397558 0 127 127
0.026878 -0.207724 0.360206 76 0 153
-0.111065 -0.736968 0.078462 0 127 127
0.292770 -0.724842 0.318185 0 127 127
-0.469895 0.492653 0.356666 76 0 153
0.583942 0.323582 -0.255009 0 127 127
0.232764 0.148181 -0.397558 0 127 127
0.583695 -0.180039 0.313472 0 127 127
0.563729 0.107313 0.357485 76 0 153
0.210052 -0.266878 -0.397558 0 127 127
0.344932 -0.607292 0.357388 76 0 153
0.214536 -0.463109 -0.397558 0 127 127
0.578577 -0.543596 0.344968 0 127 127
-0.252174 -0.736622 -0.365106 0 127 127
-0.562076 0.098045 -0.134192 0 127 127
-0.229899 -0.403503 -0.397558 0 127 127
-0.555539 0.405222 0.349235 0 127 127
-0.349048 -0.736968 -0.246205 0 127 127
-0.053195 -0.446592 -0.397558 0 127 127
-0.118287 -0.269630 0.357308 76 0 153
-0.562076 0.549210 -0.242307 0 127 127
-0.473623 0.376955 0.356665 76 0 153
0.118766 0.131949 0.378667 76 0 153
0.582940 -0.407012 -0.209675 0 127 127
0.039466 -0.736968 0.098915 0 127 127
0.583197 -0.517075 0.172536 0 127 127
0.060620 -0.453860 0.359024 76 0 153
0.583942 0.225007 0.198765 0 127 127
0.583064 -0.704140 -0.365569 0 127 127
0.583926 -0.345539 0.289470 0 127 127
0.042625 -0.590612 -0.397558 0 127 127
-0.220873 -0.536941 -0.397558 0 127 127
-0.562076 -0.021561 0.045512 0 127 127
0.463796 0.244933 -0.397558 0 127 127
0.238604 -0.650038 0.337610 0 127 127
-0.060848 -0.257679 -0.397558 0 127 127
-0.516703 -0.489934 0.359126 76 0 153
-0.562076 0.556756 -0.020521 0 127 127
0.526408 -0.736967 -0.145611 0 127 127
0.446018 0.621857 -0.397558 0 127 127
-0.057169 0.776325 -0.080790 0 127 127
0.010099 -0.001547 -0.397558 0 127 127
0.239406 -0.060340 0.357315 76 0 153
-0.180542 0.776325 0.030372 0 127 127
0.323698 0.775579 -0.097373 0 127 127
0.583941 0.313524 0.021334 0 127 127
-0.341029 0.776325 0.152057 0 127 127
0.363716 0.775326 -0.272102 0 127 127
0.093845 0.775326 0.055618 0 127 127
-0.492719 -0.715175 -0.394983 0 127 127
0.350627 0.775891 0.309903 0 127 127
0.583942 0.537330 -0.308285 0 127 127
-0.561879 0.730380 -0.015808 0 127 127
-0.502464 0.141376 0.357684 76 0 153
0.013936 -0.550410 0.360444 0 127 127
-0.105840 0.264871 0.367706 76 0 153
0.469976 -0.496437 0.357669 76 0 153
-0.236476 0.704128 0.357952 76 0 153
-0.562076 -0.580465 -0.277885 0 127 127
-0.360193 -0.227080 -0.397558 0 127 127
-0.562076 -0.444826 0.039266 0 127 127
0.548501 -0.736838 -0.042688 0 127 127
-0.560939 0.521825 0.325515 0 127 127
-0.193471 0.082547 0.357656 76 0 153
-0.338318 0.409875 0.356670 76 0 153
0.316309 0.508972 0.357465 76 0 153
-0.562076 -0.242490 0.049782 0 127 127
0.445715 0.508208 0.357421 76 0 153
0.583940 0.118707 0.280903 0 127 127
-0.562076 -0.332165 -0.090662 0 127 127
-0.142495 -0.292746 -0.397558 0 127 127
0.580438 0.692522 -0.389885 0 127 127
-0.389734 -0.736968 0.035384 0 127 127
0.419884 -0.009929 0.357669 76 0 153
0.582940 -0.593354 0.138590 0 127 127
-0.397546 -0.736967 -0.331359 0 127 127
-0.054392 0.776325 0.245643 0 127 127
0.259736 -0.041105 -0.397558 0 127 127
-0.562076 0.269945 0.025103 0 127 127
0.582940 -0.201260 -0.247289 0 127 127
-0.562076 -0.283956 0.235406 0 127 127
0.582939 0.614056 -0.176895 0 127 127
0.458778 0.448674 0.357669 76 0 153
0.582940 -0.483175 -0.251601 0 127 127
0.108973 0.049477 0.373041 76 0 153
-0.473125 -0.736968 0.157465 0 127 127
0.345401 -0.294279 -0.397558 0 127 127
0.378016 0.065658 -0.397558 0 127 127
-0.243552 0.673024 0.356898 76 0 153
-0.056819 -0.736968 0.206096 0 127 127
-0.562076 -0.032207 -0.131220 0 127 127
-0.476890 0.775336 -0.210556 0 127 127
0.356142 0.675235 0.357667 76 0 153
0.583611 0.667810 -0.018149 0 127 127
0.045434 -0.736968 0.168813 0 127 127
-0.561562 0.116304 0.317358 0 127 127
-0.562076 -0.666272 -0.165964 0 127 127
0.569137 0.611636 0.355554 76 0 153
-0.562076 -0.576930 0.126954 0 127 127
0.144928 -0.279823 0.357478 76 0 153
-0.562076 -0.074806 -0.164176 0 127 127
0.576711 -0.506138 0.349759 0 127 127
-0.562076 0.063831 0.112148 0 127 127
-0.562076 0.212105 -0.261174 0 127 127
-0.009665 -0.736968 -0.050536 0 127 127
-0.367376 0.773144 0.336882 0 127 127
0.565513 0.775474 0.300817 0 127 127
-0.562076 -0.244794 -0.032121 0 127 127
-0.242754 0.276554 0.356670 76 0 153
-0.165913 0.723380 -0.396735 0 127 127
0.168760 0.360546 0.357661 76 0 153
0.583942 0.131087 -0.274535 0 127 127
-0.095397 -0.736968 0.153594 0 127 127
-0.562076 0.702129 0.112517 0 127 127
0.541455 -0.380348 0.359004 76 0 153
0.351572 -0.124944 0.357669 76 0 153
-0.105357 0.776325 0.183242 0 127 127
0.165466 0.606517 -0.397558 0 127 127
0.583733 0.216714 -0.039953 0 127 127
-0.515999 -0.736624 0.293259 0 127 127
-0.545752 0.774471 0.271363 0 127 127
0.583942 0.268898 0.128150 0 127 127
0.581365 0.335097 -0.385819 0 127 127
0.583942 -0.023624 0.054338 0 127 127
-0.260550 -0.301331 -0.397558 0 127 127
-0.142840 0.776325 0.000335 0 127 127
0.448296 0.775326 0.028815 0 127 127
-0.307305 0.676664 0.357540 76 0 153
0.583942 0.146678 0.265614 0 127 127
0.583792 0.120565 -0.015187 0 127 127
0.470402 0.127628 0.357669 76 0 153
-0.289554 0.776267 0.300061 0 127 127
-0.395987 0.542814 -0.397558 0 127 127
0.359805 -0.736968 0.131863 0 127 127
-0.035124 0.776123 -0.147527 0 127 127
0.564902 -0.354434 -0.397031 0 127 127
-0.431934 0.471943 0.356670 76 0 153
0.314057 0.775325 -0.329832 0 127 127
0.424160 0.244098 0.357669 76 0 153
-0.137439 0.638715 -0.397558 0 127 127
0.583379 0.073960 0.317681 0 127 127
0.056523 -0.504112 -0.397558 0 127 127
-0.558509 -0.199737 -0.390448 0 127 127
0.001022 -0.043454 0.359696 0 127 127
0.287271 0.764981 -0.383906 0 127 127
-0.562076 0.171142 -0.197059 0 127 127
0.439901 0.759862 -0.390374 0 127 127
-0.333180 -0.681038 0.326925 0 127 127
-0.489958 -0.338056 0.357889 76 0 153
-0.562076 0.682627 -0.104564 0 127 127
-0.562067 0.181994 0.285169 0 127 127
-0.436397 0.776325 0.072508 0 127 127
-0.280217 -0.736513 0.297345 0 127 127
0.582940 -0.153845 -0.127950 0 127 127
0.316803 -0.069936 -0.397558 0 127 127
0.583942 -0.284825 0.214489 0 127 127
-0.562076 -0.594752 0.259900 0 127 127
-0.054096 -0.512437 -0.397558 0 127 127
0.582985 0.064478 -0.378727 0 127 127
-0.325887 0.276851 -0.397558 0 127 127
0.112894 0.775326 -0.079004 0 127 127
0.504192 -0.736968 0.162275 0 127 127
0.362166 -0.325233 0.357669 76 0 153
-0.562076 0.429172 -0.281896 0 127 127
-0.562076 0.474570 -0.254275 0 127 127
-0.238320 -0.456698 0.357669 76 0 153
-0.256874 0.092004 -0.397558 0 127 127
-0.562076 -0.304039 -0.215931 0 127 127
-0.350051 -0.334703 -0.397558 0 127 127
-0.562076 0.489259 0.257145 0 127 127
0.236618 -0.368405 0.356670 76 0 153
0.583304 -0.645769 -0.373908 0 127 127
-0.459494 0.615008 -0.397558 0 127 127
0.583934 0.094387 -0.347608 0 127 127
0.582957 0.683266 -0.143314 0 127 127
-0.562066 -0.224646 0.285507 0 127 127
-0.562076 0.389719 0.166638 0 127 127
0.089766 -0.254077 0.358746 76 0 153
0.582940 -0.457815 -0.117276 0 127 127
-0.221603 0.403813 -0.397558 0 127 127
-0.562001 -0.686334 0.248611 0 127 127
-0.213002 0.776325 0.258042 0 127 127
-0.271370 -0.248467 0.357669 76 0 153
0.583942 0.573693 0.238514 0 127 127
-0.220695 0.223624 0.356670 76 0 153
-0.299409 0.506616 0.356970 76 0 153
-0.562076 -0.150549 -0.046909 0 127 127
0.582939 0.596131 -0.136180 0 127 127
-0.560564 0.373597 0.330440 0 127 127
0.016917 -0.375738 -0.397558 0 127 127
-0.554272 0.532949 0.352755 0 127 127
0.342039 0.379501 0.357669 76 0 153
-0.491873 -0.152397 0.357982 76 0 153
0.201770 -0.661554 -0.397558 0 127 127
0.408327 -0.736968 0.062706 0 127 127
0.582940 -0.302980 -0.005253 0 127 127
-0.310544 -0.370518 -0.397558 0 127 127
0.576040 -0.427842 0.351381 0 127 127
-0.558969 -0.118161 -0.388413 0 127 127
-0.273001 0.776325 -0.111776 0 127 127
-0.562076 -0.317550 -0.036033 0 127 127
0.423682 -0.725744 -0.392519 0 127 127
0.427809 0.353481 0.357669 76 0 153
0.239955 0.714050 0.359276 76 0 153
-0.562076 0.566492 0.255712 0 127 127
0.583467 -0.170125 0.044085 0 127 127
0.162261 0.696513 0.358058 76 0 153
0.209570 0.220296 0.357669 76 0 153
-0.562023 -0.653137 -0.354201 0 127 127
-0.357113 -0.616895 0.355349 76 0 153
-0.529891 -0.629771 0.356878 0 127 127
0.072099 0.103760 0.406339 153 0 76
-0.422468 0.776104 -0.007311 0 127 127
-0.013043 0.309620 0.363167 0 127 127
-0.339034 0.776325 0.206836 0 127 127
0.582940 -0.400545 0.054395 0 127 127
-0.562076 0.025825 0.191891 0 127 127
-0.337271 -0.736967 -0.326578 0 127 127
0.582940 -0.301972 -0.097287 0 127 127
0.207912 -0.701483 -0.397357 0 127 127
-0.035996 0.731877 0.358487 76 0 153
-0.279024 0.551655 -0.397558 0 127 127
0.519231 0.675675 0.358137 76 0 153
-0.561129 -0.332874 -0.378863 0 127 127
0.039607 -0.067001 0.359594 76 0 153
-0.380012 -0.634801 -0.397558 0 127 127
-0.501969 -0.641884 -0.397553 0 127 127
0.582940 -0.323594 -0.154322 0 127 127
-0.206272 -0.620270 0.353515 0 127 127
0.344198 -0.736905 -0.352124 0 127 127
-0.019537 0.775965 -0.205208 0 127 127
0.225756 0.189226 -0.397558 0 127 127
-0.538958 0.775912 -0.023067 0 127 127
0.176391 -0.441240 0.356670 76 0 153
-0.341763 0.776325 0.099234 0 127 127
-0.542974 0.708602 0.357694 76 0 153
-0.320587 0.776325 -0.201562 0 127 127
-0.217478 -0.705111 0.321155 0 127 127
0.566085 -0.394138 -0.396812 0 127 127
-0.377734 -0.736968 -0.139164 0 127 127
-0.060274 -0.183236 -0.397558 0 127 127
0.582939 -0.639893 -0.108031 0 127 127
0.582940 -0.580115 -0.083089 0 127 127
0.551554 0.599226 -0.397309 0 127 127
-0.561694 0.745171 0.163148 0 127 127
0.535380 -0.430752 0.359012 76 0 153
0.155059 0.009999 0.357647 76 0 153
0.583942 0.480268 0.102485 0 127 127
-0.562076 -0.533390 0.042996 0 127 127
0.345981 0.619517 0.357669 76 0 153
0.322309 0.205126 -0.397558 0 127 127
0.467824 -0.508643 -0.397558 0 127 127
0.583551 -0.694721 0.130804 0 127 127
-0.562076 0.021534 0.065028 0 127 127
-0.201246 0.776325 0.122161 0 127 127
0.583284 0.598832 -0.050479 0 127 127
-0.092436 -0.165030 -0.397558 0 127 127
0.293873 -0.236543 -0.397558 0 127 127
-0.509579 -0.736966 0.258415 0 127 127
0.084271 0.775326 0.136303 0 127 127
-0.562076 0.140717 -0.257125 0 127 127
0.583942 0.291010 -0.188058 0 127 127
0.582940 -0.385914 -0.132953 0 127 127
-0.236207 -0.509218 -0.397558 0 127 127
-0.562076 0.285209 -0.165102 0 127 127
-0.562076 -0.005498 -0.034642 0 127 127
-0.483720 0.207206 -0.397558 0 127 127
0.384101 0.312966 0.357669 76 0 153
0.580820 0.421258 -0.388205 0 127 127
-0.388053 -0.346522 0.357669 76 0 153
0.583942 0.100780 0.024609 0 127 127
-0.340965 -0.731245 -0.384905 0 127 127
0.380829 0.538666 0.356920 76 0 153
-0.409708 0.776325 -0.301155 0 127 127
0.394511 0.458582 -0.397558 0 127 127
0.495650 -0.736968 0.063850 0 127 127
0.571598 0.771283 0.107701 0 127 127
-0.131976 -0.736967 0.258983 0 127 127
0.583099 0.002436 -0.186178 0 127 127
0.512153 0.184315 0.357898 76 0 153
0.331413 0.538818 0.357388 76 0 153
0.105555 -0.074690 -0.397558 0 127 127
-0.520085 0.293730 0.358401 76 0 153
-0.562076 -0.024855 0.134857 0 127 127
0.582940 -0.251767 0.005766 0 127 127
-0.001716 0.775787 0.149762 0 127 127
0.582997 -0.660101 -0.322159 0 127 127
0.583942 0.614960 0.062437 0 127 127
0.582940 -0.625769 -0.200300 0 127 127
-0.265454 -0.559242 -0.397558 0 127 127
0.490346 -0.736968 -0.274119 0 127 127
-0.059331 -0.736968 -0.023385 0 127 127
-0.561750 0.740630 -0.323535 0 127 127
-0.461104 -0.546642 -0.397558 0 127 127
0.342265 0.284258 0.357669 76 0 153
-0.045091 -0.441702 0.359207 76 0 153
0.146011 0.135638 -0.397558 0 127 127
-0.558502 -0.151384 -0.390480 0 127 127
0.583942 0.232224 0.127962 0 127 127
-0.049262 -0.563184 -0.397558 0 127 127
0.582940 -0.586276 0.040409 0 127 127
0.097714 -0.723112 -0.393167 0 127 127
0.398506 -0.736968 -0.049144 0 127 127
-0.003970 -0.736968 0.190419 0 127 127
-0.009130 0.018118 -0.397558 0 127 127
0.307773 -0.079004 0.357331 76 0 153
-0.208857 0.776325 -0.281426 0 127 127
0.435463 -0.665074 0.331334 0 127 127
0.583939 0.428177 -0.327377 0 127 127
-0.562076 -0.176170 -0.233282 0 127 127
-0.558755 -0.280521 -0.389360 0 127 127
-0.474563 0.776325 0.058392 0 127 127
-0.341159 0.248291 -0.397558 0 127 127
0.026593 -0.736968 -0.225633 0 127 127
-0.562076 0.350735 -0.024897 0 127 127
0.278951 -0.736968 -0.112622 0 127 127
0.524486 -0.095628 -0.397550 0 127 127
0.413990 -0.544479 0.357753 76 0 153
0.485748 0.067067 -0.397558 0 127 127
0.583942 0.439451 0.239979 0 127 127
0.583399 0.003532 -0.374747 0 127 127
0.583648 -0.031568 -0.005452 0 127 127
0.269893 0.360323 0.357669 76 0 153
0.189269 0.090560 0.357652 76 0 153
0.008768 0.375682 -0.397558 0 127 127
0.525307 -0.244143 -0.397550 0 127 127
-0.562076 -0.505359 -0.165906 0 127 127
-0.561979 0.711703 -0.358710 0 127 127
-0.506137 -0.147627 -0.397552 0 127 127
0.528613 -0.736967 -0.280532 0 127 127
-0.247031 0.449274 -0.397558 0 127 127
0.075910 -0.344809 -0.397558 0 127 127
0.143642 -0.538419 -0.397558 0 127 127
0.526055 -0.349244 -0.397549 0 127 127
0.140826 -0.736968 0.112681 0 127 127
0.444554 0.776262 -0.130317 0 127 127
0.392562 -0.133740 -0.397558 0 127 127
0.102565 0.767720 0.349667 0 127 127
0.583096 0.675166 -0.241623 0 127 127
0.228108 0.443660 0.357586 76 0 153
0.583276 -0.091967 -0.028642 0 127 127
-0.315701 0.776325 -0.324572 0 127 127
-0.562076 0.279452 -0.242716 0 127 127
-0.562076 -0.570678 0.058003 0 127 127
-0.562076 -0.116323 -0.239910 0 127 127
-0.000940 -0.477249 0.359607 0 127 127
0.169455 -0.736968 -0.320301 0 127 127
-0.506410 -0.042212 0.358689 76 0 153
0.583470 -0.697759 0.218722 0 127 127
-0.562076 0.114426 0.192043 0 127 127
-0.254812 0.775930 -0.351371 0 127 127
0.356160 0.713446 0.359256 76 0 153
0.583942 0.158447 0.239863 0 127 127
0.531286 -0.548008 -0.397547 0 127 127
0.335191 0.400043 -0.397558 0 127 127
0.362144 -0.736967 0.268718 0 127 127
-0.254587 -0.273957 -0.397558 0 127 127
0.582940 -0.321224 -0.208889 0 127 127
0.016168 0.775607 0.038688 0 127 127
0.131460 0.615337 -0.397558 0 127 127
-0.041725 -0.130605 0.358959 76 0 153
0.532636 0.775324 0.227926 0 127 127
0.071278 0.577856 0.358971 76 0 153
0.151101 0.429882 -0.397558 0 127 127
-0.039805 -0.736968 0.140246 0 127 127
-0.427104 0.458605 -0.397558 0 127 127
0.400862 -0.050207 -0.397558 0 127 127
-0.480501 -0.454165 -0.397558 0 127 127
0.430561 -0.283456 -0.397558 0 127 127
-0.562076 -0.632500 -0.174428 0 127 127
0.270996 -0.736968 0.163893 0 127 127
0.263592 0.775707 0.090410 0 127 127
-0.499688 0.234477 -0.397554 0 127 127
0.314313 -0.182542 0.357391 76 0 153
-0.224803 -0.736968 0.054196 0 127 127
0.435439 -0.225109 0.357669 76 0 153
-0.562076 0.488980 0.146694 0 127 127
0.070237 0.617842 -0.397558 0 127 127
-0.562076 -0.377388 -0.071998 0 127 127
0.378853 -0.736968 -0.118959 0 127 127
-0.525579 0.775771 -0.306917 0 127 127
0.252355 0.767715 0.349662 0 127 127
-0.561163 0.310739 0.322582 0 127 127
-0.519368 0.650753 0.358427 76 0 153
0.233657 -0.327124 -0.397558 0 127 127
0.527241 0.775324 0.127696 0 127 127
-0.289197 0.177531 -0.397558 0 127 127
0.152816 -0.617010 0.354851 76 0 153
-0.562074 -0.624117 -0.329790 0 127 127
-0.372187 0.072546 0.357137 76 0 153
0.583117 0.138947 0.321229 0 127 127
-0.241004 -0.608741 0.357065 76 0 153
-0.562076 -0.175746 -0.269769 0 127 127
-0.094682 0.776325 -0.065345 0 127 127
-0.031095 0.084337 0.374859 76 0 153
-0.187738 -0.045259 0.357184 76 0 153
0.579540 0.122747 -0.392035 0 127 127
-0.410658 0.601542 -0.397558 0 127 127
-0.137244 -0.736967 -0.337514 0 127 127
0.312278 0.775344 -0.163886 0 127 127
0.582940 -0.605379 -0.141127 0 127 127
0.333788 0.001756 -0.397558 0 127 127
-0.562076 -0.282199 0.141335 0 127 127
0.069844 -0.210071 0.359180 76 0 153
-0.289629 0.098985 -0.397558 0 127 127
-0.230603 0.316821 0.356670 76 0 153
-0.562076 -0.443829 -0.254489 0 127 127
0.422422 -0.736968 -0.259613 0 127 127
0.113198 -0.736968 -0.299076 0 127 127
-0.561916 -0.449800 -0.364987 0 127 127
0.583942 0.204739 0.270285 0 127 127
0.458285 -0.282238 0.357669 76 0 153
-0.445398 0.675812 -0.397558 0 127 127
0.383150 0.775326 0.170018 0 127 127
-0.562032 0.483269 0.307514 0 127 127
0.583942 -0.254134 0.252328 0 127 127
-0.344831 -0.465937 -0.397558 0 127 127
0.284486 -0.161720 0.357091 76 0 153
-0.245419 -0.168924 -0.397558 0 127 127
0.255559 -0.642413 -0.397558 0 127 127
0.577072 0.017142 0.349616 0 127 127
-0.398626 0.776262 -0.239993 0 127 127
0.583380 0.380383 -0.040973 0 127 127
0.285283 -0.129330 -0.397558 0 127 127
0.583942 -0.175419 0.138997 0 127 127
-0.149405 0.319540 0.357043 76 0 153
0.232416 0.775693 0.155053 0 127 127
-0.562076 0.120063 0.132575 0 127 127
-0.538654 0.517019 -0.397104 0 127 127
-0.038927 -0.125442 -0.397558 0 127 127
0.583942 0.395771 0.273525 0 127 127
-0.562076 -0.068013 -0.011108 0 127 127
0.046261 -0.736968 -0.179423 0 127 127
0.553668 -0.080305 0.358598 76 0 153
0.276124 -0.660379 0.333427 0 127 127
-0.140458 -0.637104 0.343280 0 127 127
-0.159558 0.776325 -0.241180 0 127 127
-0.171613 -0.249574 0.357301 76 0 153
0.140749 -0.258169 -0.397558 0 127 127
0.257526 0.775326 -0.217763 0 127 127
-0.562076 0.652863 -0.031070 0 127 127
0.434524 0.612237 0.357171 76 0 153
0.294889 0.124800 -0.397558 0 127 127
-0.562076 0.218420 -0.047184 0 127 127
-0.305929 -0.248231 -0.397558 0 127 127
-0.562076 0.397456 -0.120232 0 127 127
-0.111245 0.580860 -0.397558 0 127 127
0.443991 -0.736968 0.108784 0 127 127
-0.562076 -0.423575 -0.156460 0 127 127
0.509313 -0.676945 -0.397544 0 127 127
-0.561979 0.377025 -0.358672 0 127 127
-0.193418 0.636672 -0.397558 0 127 127
0.346239 -0.736968 0.053202 0 127 127
0.300605 0.775691 -0.041101 0 127 127
0.200637 0.562034 -0.397558 0 127 127
0.583908 0.337291 0.300994 0 127 127
0.168765 -0.736968 -0.101381 0 127 127
-0.000417 0.775774 0.177711 0 127 127
-0.195139 0.776074 0.313094 0 127 127
0.078589 -0.726430 0.317954 0 127 127
0.583437 0.009494 -0.052039 0 127 127
0.159200 0.259001 -0.397558 0 127 127
-0.190185 -0.736966 0.277754 0 127 127
0.471321 -0.736968 -0.081817 0 127 127
-0.278113 0.776325 -0.181845 0 127 127
-0.427254 -0.470669 0.357669 76 0 153
-0.515936 -0.569539 0.359835 76 0 153
-0.009369 0.620174 -0.397558 0 127 127
-0.562076 -0.403491 -0.062073 0 127 127
-0.393681 0.399442 0.356670 76 0 153
0.379949 -0.420819 0.357669 76 0 153
-0.562070 0.082090 -0.349539 0 127 127
0.490915 0.775326 0.079434 0 127 127
-0.562076 0.692399 0.175171 0 127 127
-0.562076 0.226241 -0.110660 0 127 127
-0.562076 -0.665623 -0.301590 0 127 127
0.104466 0.125519 -0.397558 0 127 127
-0.159190 0.558748 -0.397558 0 127 127
0.583942 0.704449 0.076615 0 127 127
0.583900 0.719446 -0.345368 0 127 127
-0.183673 -0.424472 0.357669 76 0 153
0.425775 0.467397 -0.397558 0 127 127
0.045186 0.554387 0.359325 76 0 153
0.583942 0.282253 -0.243277 0 127 127
0.213381 -0.065688 -0.397558 0 127 127
0.097477 -0.018395 -0.397558 0 127 127
0.250278 0.775365 -0.062231 0 127 127
0.558278 0.693965 0.358464 76 0 153
0.204943 0.399177 0.357669 76 0 153
-0.484262 0.776325 0.246559 0 127 127
-0.011227 -0.387573 -0.397558 0 127 127
0.335768 0.435934 -0.397558 0 127 127
-0.562076 0.711491 -0.073664 0 127 127
-0.354860 0.340950 0.356670 76 0 153
-0.070494 -0.169613 0.358129 76 0 153
-0.106348 -0.736968 -0.068409 0 127 127
-0.045010 0.357690 -0.397558 0 127 127
-0.562076 0.097604 -0.166029 0 127 127
-0.065928 0.776325 -0.024628 0 127 127
-0.511687 0.046398 0.358678 76 0 153
-0.562076 0.477735 0.226467 0 127 127
-0.234652 0.269392 -0.397558 0 127 127
-0.562076 -0.195174 -0.072431 0 127 127
-0.535734 -0.736375 -0.366087 0 127 127
0.583893 0.368365 0.310449 0 127 127
0.583942 0.676569 0.212837 0 127 127
0.130955 0.776064 0.291592 0 127 127
0.015950 -0.736968 -0.127396 0 127 127
0.398034 0.719262 0.359434 76 0 153
0.494690 -0.010555 -0.397558 0 127 127
-0.562076 0.123628 -0.311297 0 127 127
-0.559635 -0.719192 -0.170124 0 127 127
-0.562076 -0.505325 0.254287 0 127 127
0.582074 -0.511020 -0.381770 0 127 127
0.334417 -0.479790 -0.397558 0 127 127
-0.396423 -0.538110 -0.397558 0 127 127
-0.560501 -0.319488 0.331019 0 127 127
0.583608 -0.642363 0.268384 0 127 127
0.147570 -0.037263 -0.397558 0 127 127
0.211161 0.685070 -0.397558 0 127 127
-0.552470 0.329223 -0.393900 0 127 127
0.186917 0.174116 0.357651 76 0 153
-0.562030 -0.601877 -0.353533 0 127 127
0.583916 -0.432211 0.310175 0 127 127
0.215477 -0.736968 -0.135464 0 127 127
0.582940 -0.656617 -0.245656 0 127 127
0.521556 0.647135 0.358268 76 0 153
0.439193 -0.381997 0.357669 76 0 153
-0.141620 -0.736968 -0.276705 0 127 127
-0.319344 0.007163 -0.397558 0 127 127
0.486206 0.775707 -0.023239 0 127 127
-0.498105 0.364719 -0.397554 0 127 127
0.536681 0.486718 0.359075 76 0 153
0.132829 -0.097617 -0.397558 0 127 127
0.455288 -0.347404 0.357669 76 0 153
-0.562076 0.337818 -0.207863 0 127 127
-0.115515 0.697376 0.357457 76 0 153
-0.253729 0.678644 -0.397558 0 127 127
-0.194184 -0.017107 -0.397558 0 127 127
-0.037720 0.445861 -0.397558 0 127 127
0.473590 0.775326 0.023796 0 127 127
0.388697 0.775326 0.215701 0 127 127
-0.399620 -0.016090 0.357669 76 0 153
0.110021 -0.475730 0.357185 76 0 153
-0.312112 -0.067765 0.357669 76 0 153
0.583942 0.370185 -0.270338 0 127 127
-0.379171 -0.736968 -0.082847 0 127 127
-0.341455 -0.600113 -0.397558 0 127 127
-0.388354 0.259931 -0.397558 0 127 127
0.067727 -0.671236 -0.397558 0 127 127
-0.310741 0.776104 -0.007342 0 127 127
-0.490680 -0.412543 -0.397556 0 127 127
-0.562076 -0.383676 0.183278 0 127 127
-0.040614 -0.478563 0.359161 76 0 153
0.068317 0.775326 0.103559 0 127 127
0.144070 -0.451315 -0.397558 0 127 127
0.583942 0.351259 0.130021 0 127 127
-0.562076 0.537330 -0.146146 0 127 127
0.448672 -0.457766 0.357669 76 0 153
-0.199574 -0.190922 -0.397558 0 127 127
-0.331203 -0.619509 0.354136 0 127 127
-0.548292 0.437066 -0.395368 0 127 127
0.206585 0.141838 -0.397558 0 127 127
-0.020770 -0.736968 -0.204020 0 127 127
0.266593 0.669816 0.357621 76 0 153
0.230656 -0.291392 0.356670 76 0 153
0.582928 -0.685121 -0.262913 0 127 127
-0.191085 -0.437503 -0.397558 0 127 127
-0.562076 0.501790 0.061684 0 127 127
0.577255 0.767685 0.163898 0 127 127
0.316230 -0.561284 0.358590 76 0 153
-0.562076 0.200879 -0.073916 0 127 127
0.583942 0.564541 0.063388 0 127 127
0.133194 -0.145178 -0.397558 0 127 127
0.582940 -0.486288 -0.130091 0 127 127
0.548930 -0.736831 0.052576 0 127 127
-0.513759 0.423331 -0.397549 0 127 127
-0.399526 -0.736968 -0.122313 0 127 127
0.011540 -0.736668 0.293233 0 127 127
-0.026933 0.482252 0.358595 76 0 153
-0.185279 -0.736765 -0.358566 0 127 127
-0.312068 -0.736968 -0.305024 0 127 127
-0.553627 0.008455 -0.393494 0 127 127
0.395222 0.447058 0.357466 76 0 153
0.518148 0.141734 0.358185 76 0 153
0.329752 0.230770 0.357669 76 0 153
0.015508 0.493550 -0.397558 0 127 127
0.197438 -0.331646 0.356731 76 0 153
0.181498 0.649715 0.357182 76 0 153
-0.067795 0.132095 -0.397558 0 127 127
0.448528 -0.121169 0.357669 76 0 153
-0.130706 -0.736968 -0.023129 0 127 127
-0.323524 0.526538 0.357134 76 0 153
0.228274 -0.736968 -0.098304 0 127 127
-0.012426 0.223387 -0.397558 0 127 127
0.332461 0.775764 0.002378 0 127 127
-0.311261 0.771818 -0.372534 0 127 127
-0.117467 -0.700775 -0.397363 0 127 127
-0.350326 -0.281577 -0.397558 0 127 127
-0.531416 -0.736648 0.157462 0 127 127
0.296624 0.775326 -0.228022 0 127 127
-0.241495 0.117224 -0.397558 0 127 127
0.261032 0.082644 -0.397558 0 127 127
-0.258837 -0.132406 0.357380 76 0 153
0.583888 0.372283 0.009252 0 127 127
0.492154 -0.736968 0.114910 0 127 127
0.433278 -0.269215 0.357669 76 0 153
-0.307886 -0.736967 0.255788 0 127 127
-0.035028 -0.182240 0.358945 76 0 153
0.219745 0.775326 -0.181032 0 127 127
-0.562076 0.421308 0.096430 0 127 127
0.122532 -0.727783 0.316472 0 127 127
0.172321 -0.728403 -0.389616 0 127 127
-0.555037 0.262794 -0.392999 0 127 127
-0.198107 0.776325 -0.322308 0 127 127
-0.290770 -0.396142 -0.397558 0 127 127
0.499648 0.311064 0.357664 76 0 153
0.582943 -0.209538 -0.316645 0 127 127
-0.562076 0.251625 0.279156 0 127 127
-0.469961 -0.736968 0.080466 0 127 127
-0.287398 -0.736968 -0.068272 0 127 127
0.079247 0.734492 -0.395673 0 127 127
0.016793 -0.052798 -0.397558 0 127 127
0.576331 0.539891 0.351829 0 127 127
-0.054436 0.361557 0.359070 76 0 153
-0.559737 -0.015128 -0.385020 0 127 127
-0.498249 -0.308485 0.358293 76 0 153
-0.505982 0.755230 -0.393396 0 127 127
0.092805 -0.646781 -0.397558 0 127 127
-0.164962 0.776325 0.121849 0 127 127
0.051465 0.126751 -0.397558 0 127 127
-0.378987 -0.564549 -0.397558 0 127 127
0.476760 -0.059081 -0.397558 0 127 127
0.577474 -0.728837 0.324921 0 127 127
0.582013 -0.104764 0.335175 0 127 127
0.453197 0.775326 0.144733 0 127 127
-0.562076 -0.402125 -0.300991 0 127 127
0.552230 0.365328 -0.397295 0 127 127
0.440575 0.771848 -0.367884 0 127 127
-0.175590 -0.736968 0.025663 0 127 127
-0.380420 -0.736968 -0.287585 0 127 127
0.375821 -0.242241 -0.397558 0 127 127
0.582940 -0.492507 -0.055374 0 127 127
0.583919 0.160159 0.010110 0 127 127
0.309982 0.742036 0.359694 76 0 153
-0.087237 -0.514906 0.357724 76 0 153
-0.487438 -0.605124 -0.397557 0 127 127
0.580560 0.305975 0.340314 0 127 127
-0.514313 -0.070248 0.359074 76 0 153
0.332199 -0.736968 0.185147 0 127 127
-0.429515 -0.736968 0.111309 0 127 127
-0.562076 0.308679 -0.198965 0 127 127
-0.560381 0.278900 0.332839 0 127 127
0.583719 0.356061 -0.368878 0 127 127
-0.562076 0.378585 0.001050 0 127 127
0.398081 -0.128359 0.357669 76 0 153
-0.562076 0.337094 -0.301786 0 127 127
0.326359 -0.533332 -0.397558 0 127 127
-0.447149 -0.248863 0.357669 76 0 153
-0.028103 -0.736968 -0.148633 0 127 127
0.059262 0.153400 -0.397558 0 127 127
0.114543 0.775326 -0.218244 0 127 127
-0.108798 -0.565595 0.358847 76 0 153
-0.135787 -0.495054 0.357669 76 0 153
-0.480930 0.517813 0.356663 76 0 153
0.361794 0.489171 -0.397558 0 127 127
0.365821 -0.669397 0.329702 0 127 127
0.442054 0.775326 0.243137 0 127 127
0.038092 0.775386 -0.022678 0 127 127
0.582940 -0.408992 -0.184350 0 127 127
-0.551677 0.770479 -0.354406 0 127 127
0.008728 0.141500 -0.397558 0 127 127
0.583893 0.240282 0.310435 0 127 127
-0.417999 0.571642 -0.397558 0 127 127
0.583280 0.569464 -0.211279 0 127 127
0.506527 -0.236432 0.357663 76 0 153
0.574183 0.391246 -0.393936 0 127 127
-0.537154 0.343411 0.358055 76 0 153
0.167127 -0.207699 -0.397558 0 127 127
-0.545187 0.774542 -0.137223 0 127 127
0.363370 -0.736968 0.185423 0 127 127
-0.562076 0.345318 0.097104 0 127 127
-0.273018 0.774373 0.326902 0 127 127
0.408600 0.285104 0.357669 76 0 153
-0.562076 -0.471659 0.253234 0 127 127
-0.518561 -0.736963 -0.232578 0 127 127
0.583942 0.692528 0.267145 0 127 127
0.126310 -0.327462 0.357504 76 0 153
0.583938 -0.147151 0.284242 0 127 127
-0.055161 0.192447 -0.397558 0 127 127
0.583942 0.598377 0.244251 0 127 127
-0.562076 0.048204 -0.216075 0 127 127
0.583093 -0.564595 0.189602 0 127 127
0.549051 -0.736829 0.241020 0 127 127
0.429398 -0.171683 0.357669 76 0 153
-0.130013 0.576506 0.356670 76 0 153
0.583929 0.716250 0.227571 0 127 127
0.274922 -0.005963 -0.397558 0 127 127
0.391280 0.530459 -0.397558 0 127 127
-0.257099 -0.383260 -0.397558 0 127 127
0.583937 0.249830 -0.335234 0 127 127
-0.560555 0.752322 -0.258938 0 127 127
0.341984 -0.564060 -0.397558 0 127 127
0.278947 -0.347566 0.357036 76 0 153
0.583370 0.707036 -0.054591 0 127 127
-0.562043 -0.507250 0.300525 0 127 127
-0.086523 0.679307 0.356783 76 0 153
0.583942 0.171631 0.269845 0 127 127
0.277251 0.485092 0.357656 76 0 153
-0.134278 0.746133 0.358752 76 0 153
-0.562076 -0.319414 -0.286243 0 127 127
-0.562076 0.643169 -0.167382 0 127 127
-0.481402 -0.311368 -0.397558 0 127 127
-0.065430 -0.396714 -0.397558 0 127 127
0.517113 0.281114 -0.397554 0 127 127
-0.124520 0.776325 -0.327202 0 127 127
-0.562076 -0.074183 -0.085079 0 127 127
-0.562076 -0.174330 -0.196644 0 127 127
-0.484070 0.776243 0.006458 0 127 127
-0.387016 0.336480 -0.397558 0 127 127
0.472365 0.776267 -0.078877 0 127 127
-0.562076 0.694115 -0.127429 0 127 127
-0.534411 -0.702570 0.337298 0 127 127
-0.202139 0.751960 0.357510 76 0 153
-0.229190 -0.736968 -0.226347 0 127 127
-0.294183 -0.351280 -0.397558 0 127 127
0.356259 -0.404540 0.357669 76 0 153
0.425454 -0.598262 0.358846 76 0 153
-0.562076 0.384571 0.063433 0 127 127
-0.562076 0.316593 0.005004 0 127 127
-0.415121 0.695924 0.358149 76 0 153
-0.041977 0.772912 0.336562 0 127 127
0.583604 -0.697870 0.319586 0 127 127
0.582087 0.519497 -0.382661 0 127 127
-0.521960 -0.428628 0.358952 76 0 153
0.025537 0.046063 -0.397558 0 127 127
0.361789 -0.402499 -0.397558 0 127 127
-0.135606 0.673623 0.356668 76 0 153
-0.561779 0.738340 -0.149819 0 127 127
0.565082 0.355829 0.357001 76 0 153
0.582940 -0.101871 -0.099210 0 127 127
-0.562076 0.594112 0.119382 0 127 127
-0.562075 -0.598983 -0.327767 0 127 127
0.033460 0.775432 -0.334749 0 127 127
-0.562076 0.690819 -0.168335 0 127 127
0.399090 -0.580168 -0.397558 0 127 127
0.583942 0.137730 -0.245878 0 127 127
0.583370 -0.426872 0.149403 0 127 127
0.390124 0.424324 -0.397558 0 127 127
0.500451 -0.645155 -0.397558 0 127 127
0.268418 -0.736550 -0.368435 0 127 127
-0.347983 0.029403 0.357572 76 0 153
0.496646 -0.182436 -0.397558 0 127 127
-0.139367 -0.736968 0.114127 0 127 127
0.249944 0.775500 0.263583 0 127 127
-0.562076 0.518538 -0.115316 0 127 127
0.506579 0.776190 -0.242277 0 127 127
-0.562076 -0.654085 0.017977 0 127 127
-0.193101 -0.480866 -0.397558 0 127 127
0.021677 0.220551 0.361651 76 0 153
-0.140376 -0.736968 -0.198888 0 127 127
-0.211047 -0.423114 0.357669 76 0 153
0.222096 -0.736968 0.184608 0 127 127
-0.450517 -0.069353 0.357669 76 0 153
-0.562076 -0.131320 0.122805 0 127 127
-0.562076 -0.460433 -0.045844 0 127 127
-0.032131 0.776092 0.166164 0 127 127
-0.369623 -0.736966 -0.341171 0 127 127
