ply
format ascii 1.0
element vertex 1265
property float x
property float y
property float z
property uchar red
property uchar green
property uchar blue
end_header
-0.739191 0.062629 -0.329137 76 153 0
0.536644 0.089955 -0.256902 0 127 127
0.729205 0.284425 -0.489619 255 0 0
0.732223 0.041964 0.460246 255 0 0
0.536319 -0.080582 0.025744 0 127 127
-0.339995 0.149531 -0.586488 127 127 0
0.139927 -0.427894 -0.574355 153 76 0
0.671624 0.106049 -0.160205 0 127 127
0.721994 0.035578 0.359502 255 0 0
-0.123763 0.149531 -0.563743 127 127 0
0.564775 -0.165494 0.500612 0 127 127
-0.206060 0.149531 -0.464462 127 127 0
0.595524 0.080288 -0.329851 153 0 76
0.375837 0.149531 -0.556786 127 127 0
-0.553522 0.105389 0.374195 76 0 153
-0.504371 0.141832 0.569059 127 127 0
0.585304 0.016278 0.220491 0 0 255
-0.694571 -0.050788 0.416780 76 153 0
0.618880 0.149531 -0.217550 127 127 0
0.713971 0.002470 -0.150739 127 0 127
0.536435 0.079851 -0.166061 0 127 127
-0.499370 0.020387 -0.069465 76 153 0
-0.535970 0.105503 0.460569 76 0 153
-0.693575 0.101183 -0.400314 0 0 255
0.076090 0.141832 -0.292860 127 127 0
0.672768 0.141832 -0.579527 127 127 0
0.698652 -0.050222 -0.029470 0 0 255
0.563913 0.149531 0.468888 127 127 0
0.755747 -0.428110 -0.278522 76 0 153
0.730874 0.149531 -0.003434 127 127 0
-0.498733 -0.095119 0.412443 76 153 0
-0.499374 0.080298 0.116383 76 153 0
0.538025 0.092628 0.421066 0 127 127
0.669295 -0.004183 0.400052 127 127 0
-0.683195 -0.428119 -0.096683 76 0 153
0.175703 0.141832 0.416239 127 127 0
-0.396700 0.141832 0.201580 127 127 0
0.732493 -0.470721 0.033815 76 0 153
-0.109885 0.149531 -0.015721 127 127 0
0.733484 -0.470721 -0.198240 76 0 153
0.546498 -0.428900 -0.556405 153 76 0
-0.694607 0.048547 0.067554 153 0 76
-0.138085 0.141832 -0.200746 127 127 0
-0.735057 0.097866 -0.583904 153 0 76
0.599201 -0.002843 -0.039711 0 0 255
-0.343862 0.141832 -0.155743 127 127 0
0.487179 0.149531 0.212937 127 127 0
0.773024 0.149531 -0.180831 127 127 0
0.740124 0.149531 -0.077878 127 127 0
-0.236697 0.146322 0.583480 127 127 0
-0.657464 -0.114435 -0.078565 76 0 153
0.129228 0.149531 -0.510780 127 127 0
-0.383366 0.149531 -0.279911 127 127 0
0.296404 0.101319 -0.616563 76 153 0
-0.451492 0.149531 0.367131 127 127 0
0.242520 0.141832 -0.042397 127 127 0
0.715617 -0.038007 -0.276948 153 0 76
0.771341 -0.000516 0.098442 127 0 127
-0.694607 0.028947 0.356123 153 0 76
-0.538097 -0.099814 0.318591 0 127 127
0.600411 0.105205 -0.147960 153 0 76
0.600936 0.104834 0.073962 153 0 76
0.093355 0.149531 0.467426 127 127 0
0.618144 -0.113434 0.139235 153 76 0
0.616506 0.148024 -0.625556 127 127 0
-0.694607 -0.103324 0.557106 76 153 0
-0.630086 -0.161078 -0.193806 0 255 0
-0.045921 -0.428565 -0.615956 153 76 0
-0.687017 -0.068696 0.343467 153 0 76
-0.557420 -0.165528 0.409340 127 0 127
0.751948 0.149531 -0.456422 127 127 0
-0.666065 -0.126127 0.434439 76 0 153
0.621031 0.149531 0.445175 127 127 0
-0.661687 0.041426 -0.159214 204 51 127
0.536335 -0.044988 -0.214165 0 127 127
-0.621290 0.104982 -0.040950 153 0 76
0.390444 -0.470571 -0.559103 153 76 0
-0.695590 -0.178847 -0.038255 127 0 127
0.682822 0.113897 0.222406 0 127 127
0.722269 -0.064730 0.190806 153 0 76
-0.540839 -0.015418 0.417493 153 76 0
0.748183 0.143918 -0.336081 153 0 76
-0.107377 0.141832 0.338031 127 127 0
0.735079 -0.427897 0.288336 76 0 153
0.448907 0.149531 0.445636 127 127 0
-0.002455 0.149531 -0.588923 127 127 0
-0.700837 -0.427893 -0.431606 76 0 153
-0.616963 0.104484 0.301144 0 0 255
-0.595135 -0.003221 0.298744 153 76 0
0.536319 0.025399 0.020034 0 127 127
0.218172 0.149531 0.136381 127 127 0
0.561180 -0.165473 0.090916 0 127 127
0.564169 0.104655 0.016603 153 0 76
-0.523100 0.149531 -0.362158 127 127 0
-0.623141 -0.047331 0.518542 0 0 255
-0.372335 0.149531 -0.061357 127 127 0
-0.308693 0.141832 -0.479416 127 127 0
-0.564718 0.104936 0.155837 76 0 153
-0.510685 0.149531 -0.581265 127 127 0
-0.538097 0.030329 0.360536 76 153 0
-0.734001 -0.005374 -0.080955 153 0 76
0.616374 0.149531 0.373909 127 127 0
-0.539013 -0.122440 -0.112873 153 0 76
-0.539105 -0.054940 0.280453 0 127 127
0.536319 0.030741 0.098191 0 127 127
0.581250 0.042833 -0.064226 0 127 127
-0.330661 0.149531 -0.264910 127 127 0
0.770248 -0.158006 0.431867 127 0 127
-0.644246 0.062676 0.378518 76 0 153
0.389278 0.141832 -0.281495 127 127 0
-0.733981 -0.143924 0.473030 153 0 76
0.209919 0.141832 0.498341 127 127 0
0.724245 0.065702 0.201002 255 0 0
-0.663817 -0.469435 -0.531198 76 0 153
-0.589866 0.149531 0.047474 127 127 0
0.210911 0.149531 -0.248312 127 127 0
0.080965 0.101250 -0.610598 76 153 0
0.675975 -0.003182 0.046446 127 127 0
0.295407 0.149531 0.424289 127 127 0
-0.590181 0.050019 0.546799 0 127 127
-0.582480 -0.060675 0.580764 127 0 127
0.286135 0.141832 -0.418880 127 127 0
-0.631777 -0.012448 0.337835 0 0 255
-0.253468 0.141832 0.150372 127 127 0
0.628112 -0.165528 0.068910 0 127 127
-0.740098 0.102484 0.147018 0 0 255
-0.738977 0.140833 0.234474 0 0 255
0.710885 -0.414351 -0.037406 153 0 76
0.545147 0.101242 0.485259 153 0 76
-0.457335 0.149531 -0.140024 127 127 0
0.757583 0.097845 -0.557103 153 0 76
-0.737302 0.141832 0.382257 127 127 0
0.566674 0.104482 0.358251 153 0 76
0.499046 0.149531 -0.272304 127 127 0
0.614025 -0.428265 -0.559709 153 76 0
0.144080 0.141832 -0.374331 127 127 0
0.771618 -0.111189 0.112436 127 0 127
-0.106628 0.149531 0.189790 127 127 0
-0.548688 0.104519 -0.055633 76 0 153
0.638558 -0.010499 -0.135411 0 255 0
-0.029689 0.149531 -0.482246 127 127 0
-0.607709 0.149531 -0.222368 127 127 0
-0.692762 -0.044848 0.071516 76 153 0
-0.694338 -0.427896 0.217877 76 0 153
-0.734001 -0.069035 0.205065 153 0 76
-0.710911 -0.470720 -0.121109 76 0 153
-0.689089 0.105435 0.009299 0 0 255
-0.685585 0.064725 0.125061 153 0 76
-0.519216 0.149531 -0.241019 127 127 0
0.542949 0.100348 0.122672 153 0 76
0.690623 -0.443150 -0.413752 76 0 153
-0.687789 0.105425 0.286071 0 0 255
-0.644558 -0.175866 -0.139000 127 0 127
0.717309 -0.176680 -0.059256 0 127 127
-0.363796 0.149531 -0.389586 127 127 0
0.234644 0.141832 -0.435445 127 127 0
0.718685 -0.002516 0.252619 127 0 127
0.772693 -0.431344 -0.594826 76 0 153
0.213746 0.149531 -0.594598 127 127 0
0.730137 -0.428209 0.437966 76 0 153
-0.734001 0.029217 -0.005254 153 0 76
-0.026516 0.149531 -0.166183 127 127 0
-0.739733 0.100110 0.493999 0 0 255
-0.636388 -0.113434 0.322600 76 0 153
-0.499683 0.149531 0.421752 127 127 0
0.389389 0.149531 0.441527 127 127 0
-0.524470 0.149531 0.205044 127 127 0
0.023909 0.141832 -0.273028 127 127 0
-0.682866 0.141832 -0.547726 127 127 0
0.725760 0.039833 0.090543 127 0 127
0.171170 -0.470721 -0.587034 153 76 0
0.123334 0.149531 -0.269334 127 127 0
0.701759 -0.429229 -0.214714 76 0 153
-0.618203 -0.047576 0.426507 204 51 127
-0.678616 -0.451900 -0.627486 153 76 0
0.579167 -0.125864 0.177791 76 153 0
0.770619 -0.034043 -0.097133 127 0 127
-0.512232 0.149531 -0.478196 127 127 0
-0.421130 0.149531 0.124575 127 127 0
0.035397 0.149531 -0.201820 127 127 0
0.647656 0.149531 0.124182 127 127 0
0.615250 -0.113434 0.542999 153 76 0
-0.734893 0.065564 -0.118454 153 0 76
0.628554 0.062676 0.090383 153 0 76
-0.423904 0.101299 -0.559421 76 153 0
0.748356 -0.427283 0.500186 76 0 153
0.361842 0.101204 -0.606713 76 153 0
0.584893 0.014932 0.163663 0 0 255
0.499835 0.149531 -0.383848 127 127 0
0.536319 -0.117737 0.099212 0 127 127
0.021926 0.149531 -0.005459 127 127 0
0.414614 0.149531 0.340443 127 127 0
0.446888 0.149531 -0.579202 127 127 0
0.576864 0.149531 -0.562356 127 127 0
-0.530200 0.104493 -0.187464 76 0 153
0.112488 0.149531 -0.058552 127 127 0
-0.683162 0.143997 0.108821 0 0 255
0.298573 0.149531 -0.593791 127 127 0
-0.687632 0.141832 -0.433988 127 127 0
0.536319 0.058699 0.316820 0 127 127
-0.174835 0.141832 -0.377559 127 127 0
0.700296 -0.430250 0.118804 76 0 153
-0.370073 0.149531 -0.543294 127 127 0
0.315092 -0.470719 -0.596798 153 76 0
0.692935 -0.165528 0.169255 0 127 127
0.718895 -0.126121 -0.101180 153 76 0
0.290793 0.141832 0.478578 127 127 0
0.723028 0.105466 -0.625617 76 153 0
0.736322 -0.165527 0.204678 0 127 127
-0.090602 0.149531 0.453767 127 127 0
-0.144619 0.141832 -0.122564 127 127 0
-0.703026 -0.470721 0.323512 76 0 153
0.636242 0.149531 -0.052762 127 127 0
-0.080311 0.149531 -0.407623 127 127 0
0.681610 -0.047568 0.078160 0 0 255
0.779126 0.111964 0.003543 153 0 76
-0.697295 -0.427897 0.148172 76 0 153
0.760366 0.047258 -0.326105 153 0 76
-0.602134 -0.047576 0.158947 204 51 127
-0.138114 -0.432539 -0.549999 153 76 0
0.685104 -0.468386 -0.621509 153 76 0
-0.549669 -0.095124 0.067411 0 127 127
0.738090 -0.427893 -0.522673 76 0 153
-0.691017 0.149531 0.408868 127 127 0
0.722117 -0.047870 0.327156 153 0 76
-0.698988 -0.428120 0.362020 76 0 153
0.771618 0.037073 0.159034 127 0 127
-0.557362 -0.015875 -0.061387 153 76 0
0.597699 0.141832 0.218512 127 127 0
0.700493 -0.468938 0.302522 76 0 153
-0.734001 -0.118786 0.293123 153 0 76
-0.631662 -0.165528 0.263206 127 0 127
-0.685366 -0.427919 0.093186 76 0 153
0.350419 0.149531 0.074182 127 127 0
-0.566615 -0.470720 -0.594339 153 76 0
0.234003 -0.428147 -0.613158 153 76 0
-0.582566 -0.114435 0.530937 76 0 153
0.536319 -0.076927 -0.062293 0 127 127
0.655465 -0.003914 0.463981 127 127 0
-0.314853 0.149531 -0.203589 127 127 0
-0.734001 -0.001335 0.277312 153 0 76
0.731299 0.000399 0.149882 255 0 0
0.585705 -0.061741 0.043057 0 127 127
-0.085849 -0.441841 -0.546905 153 76 0
-0.675754 0.149531 -0.274307 127 127 0
0.286477 -0.430799 -0.621711 153 76 0
0.577574 -0.015133 0.316552 127 127 0
0.058282 -0.470652 -0.608921 153 76 0
0.672163 0.106337 -0.092936 0 127 127
0.273778 0.149531 -0.283255 127 127 0
0.770618 -0.128233 0.381471 127 0 127
0.643822 -0.119171 -0.135176 0 127 127
0.769783 -0.225531 -0.135798 153 0 76
-0.729441 0.149531 -0.214680 127 127 0
-0.733999 -0.132248 0.393895 153 0 76
-0.547663 -0.045464 0.371964 0 127 127
0.698292 0.149531 -0.524062 127 127 0
-0.579145 -0.165528 -0.019180 127 0 127
-0.704754 0.145106 -0.334718 153 0 76
-0.559178 -0.115631 0.204372 127 0 127
-0.694602 -0.056313 -0.007304 76 153 0
0.695578 -0.165528 0.275783 0 127 127
0.617640 0.149531 0.276363 127 127 0
0.174596 0.149531 -0.087298 127 127 0
0.681480 0.111608 -0.010284 0 127 127
-0.697239 -0.428232 0.030427 76 0 153
0.182463 0.149531 -0.334225 127 127 0
0.777045 0.098122 0.142120 153 0 76
0.611012 -0.050199 -0.113407 0 127 127
0.726888 -0.015805 0.058366 127 127 0
0.366539 0.149531 -0.032843 127 127 0
-0.116818 0.141832 -0.305725 127 127 0
-0.546704 -0.045572 0.103553 0 127 127
-0.642276 -0.003720 0.076060 153 76 0
-0.352152 -0.470721 -0.586495 153 76 0
-0.625859 0.149531 0.010633 127 127 0
-0.499703 -0.026086 -0.115047 76 153 0
0.495170 0.141832 0.268445 127 127 0
-0.639764 0.109555 -0.147289 0 0 255
-0.093318 0.141832 -0.121380 127 127 0
0.535083 -0.470719 -0.596738 153 76 0
0.770912 -0.087554 0.180948 127 0 127
-0.600728 0.149531 -0.146707 127 127 0
0.275991 0.141832 0.579056 127 127 0
0.716959 -0.470679 0.082182 76 0 153
0.770619 -0.112643 0.296837 127 0 127
0.619747 0.149531 -0.290672 127 127 0
-0.695850 -0.427893 -0.335429 76 0 153
-0.032505 -0.470720 -0.591002 153 76 0
-0.588080 -0.122712 0.420854 127 0 127
0.075981 -0.428847 -0.556400 153 76 0
-0.619402 -0.432053 -0.550995 153 76 0
0.776327 0.093446 0.247996 127 0 127
0.622008 -0.047563 0.228317 0 0 255
-0.054112 0.149531 -0.561982 127 127 0
0.683370 0.115104 0.518611 0 127 127
-0.733017 -0.009331 0.528652 153 0 76
0.777072 0.099839 -0.194662 153 0 76
0.673965 0.107298 -0.282514 0 127 127
-0.012942 0.141832 0.532854 127 127 0
-0.224527 -0.470718 -0.571794 153 76 0
-0.499054 -0.428740 -0.579893 153 76 0
0.210539 0.149531 -0.522159 127 127 0
0.653119 0.141832 0.073202 127 127 0
0.650907 0.149531 -0.489342 127 127 0
-0.286697 0.141832 0.443300 127 127 0
0.576979 0.246513 -0.435786 255 0 0
-0.666742 -0.011676 -0.080173 204 51 127
0.650042 0.149531 0.327359 127 127 0
0.635080 0.062676 0.270050 153 0 76
-0.042357 0.149531 0.295342 127 127 0
-0.312457 0.104617 -0.581732 76 153 0
0.584842 -0.051910 0.174041 76 153 0
-0.291243 0.141832 0.355987 127 127 0
0.052111 0.149531 0.099547 127 127 0
-0.638629 0.149531 0.409136 127 127 0
-0.175234 0.149531 -0.589856 127 127 0
0.778982 -0.453986 -0.479747 76 0 153
0.771568 -0.013658 0.223134 127 0 127
0.163528 0.141832 -0.432252 127 127 0
-0.670932 -0.426247 -0.017621 76 0 153
-0.716200 -0.470701 -0.279897 76 0 153
0.311629 0.149531 0.112341 127 127 0
-0.706785 0.149531 -0.076676 127 127 0
0.118987 -0.470653 -0.608847 153 76 0
-0.733775 0.149531 -0.563055 127 127 0
-0.538778 -0.124125 0.436208 0 127 127
0.374561 0.149531 0.564503 127 127 0
-0.708348 -0.470720 -0.557652 76 0 153
-0.588500 -0.003193 -0.111649 153 76 0
0.682390 -0.015875 0.343759 127 127 0
0.463830 0.141832 -0.160105 127 127 0
-0.736524 0.098226 -0.484611 153 0 76
-0.612819 -0.122700 0.484531 127 0 127
-0.174998 0.141832 0.266594 127 127 0
-0.694607 -0.100527 0.400890 76 153 0
0.261684 0.149531 0.103727 127 127 0
0.653213 -0.047576 0.313207 0 0 255
0.090121 0.141832 -0.346088 127 127 0
0.672157 0.106333 0.156043 153 0 76
0.638163 0.105475 0.391559 153 0 76
0.721769 -0.126121 0.102097 153 76 0
0.583826 0.025177 -0.146257 0 127 127
-0.740814 0.103425 -0.297143 153 0 76
0.407669 0.149531 -0.191948 127 127 0
-0.733947 -0.148522 0.066186 153 0 76
0.174684 0.105501 -0.578813 76 153 0
-0.628159 -0.004183 0.016205 153 76 0
-0.715753 -0.470706 -0.060787 76 0 153
0.727043 -0.428391 -0.117371 76 0 153
-0.690144 0.105096 -0.173432 153 0 76
-0.222614 0.149531 -0.138916 127 127 0
-0.694282 -0.011976 0.152185 153 0 76
0.585942 0.022570 0.408214 0 0 255
0.738164 -0.165526 0.141498 0 127 127
-0.690322 0.028998 0.272735 153 0 76
0.770797 -0.367673 -0.054706 153 0 76
0.635632 0.062676 -0.117666 153 0 76
0.723780 0.260348 -0.446745 255 0 0
0.740530 -0.176680 -0.123002 0 127 127
0.125375 0.149531 -0.576064 127 127 0
-0.707693 -0.180122 -0.111196 127 0 127
-0.325354 -0.428757 -0.580762 153 76 0
-0.550929 0.054409 0.075793 76 153 0
-0.000139 0.149531 0.388302 127 127 0
0.742122 0.143664 0.472921 0 127 127
-0.624857 0.104426 0.166828 0 0 255
-0.685382 -0.056422 0.130359 76 153 0
0.624603 0.062676 -0.035198 153 0 76
0.646763 -0.004165 0.125521 127 127 0
-0.620235 0.104677 0.061164 0 0 255
-0.552204 -0.103906 -0.019853 0 127 127
-0.177883 0.141832 0.518635 127 127 0
0.770350 -0.090675 0.524803 127 0 127
-0.688316 -0.427893 -0.521377 76 0 153
-0.676033 -0.059375 -0.140364 204 51 127
-0.667299 -0.009227 -0.293446 76 153 0
0.444849 0.141832 -0.473788 127 127 0
0.536454 0.037732 -0.277748 0 127 127
0.595728 -0.082794 -0.235732 255 0 0
-0.734001 -0.030661 0.336672 153 0 76
-0.684377 0.036397 0.530899 153 0 76
-0.634838 -0.430518 -0.620925 153 76 0
0.554568 0.101323 -0.616853 76 153 0
-0.339604 0.149531 0.534917 127 127 0
-0.608515 -0.165528 0.372550 127 0 127
0.724528 0.261056 -0.564360 255 0 0
-0.733997 -0.123395 -0.135817 153 0 76
-0.686800 -0.470720 0.425987 76 0 153
0.731215 -0.054798 0.276084 153 0 76
0.416938 0.141832 -0.095342 127 127 0
-0.560843 0.149531 0.354148 127 127 0
0.732220 0.053269 -0.009395 255 0 0
0.387672 0.149531 0.242487 127 127 0
0.246850 0.149531 -0.149250 127 127 0
-0.673501 0.143945 0.342702 0 0 255
-0.499303 -0.043579 0.135947 76 153 0
0.290053 0.149531 0.321953 127 127 0
-0.666118 0.101416 -0.525819 0 0 255
-0.539739 -0.165528 0.363745 127 0 127
-0.530119 0.104633 0.277487 76 0 153
-0.300973 0.149531 0.012586 127 127 0
0.697630 0.102868 -0.487061 0 127 127
0.551162 0.104010 -0.103204 153 0 76
0.779113 -0.430006 0.367813 76 0 153
-0.153346 0.141832 0.372418 127 127 0
0.555119 0.149531 0.036773 127 127 0
0.541102 0.082179 0.530012 0 127 127
-0.669100 0.149531 -0.221715 127 127 0
0.771617 -0.132029 -0.029154 127 0 127
-0.499703 -0.105598 0.165023 76 153 0
0.159728 0.141832 0.109820 127 127 0
-0.645927 -0.047565 0.220947 204 51 127
-0.675602 -0.470662 -0.443253 76 0 153
0.779288 0.122898 -0.285118 153 0 76
-0.485888 0.141832 -0.277269 127 127 0
-0.352512 0.141832 0.363105 127 127 0
-0.733998 0.052800 0.166904 153 0 76
-0.176860 -0.470720 -0.594599 153 76 0
-0.636125 0.062676 0.485379 76 0 153
0.740978 -0.470720 0.255332 76 0 153
-0.570281 -0.003748 -0.281341 0 255 0
0.666654 -0.126127 0.385889 153 76 0
0.733339 0.149531 0.280268 127 127 0
-0.676401 0.149531 -0.609530 127 127 0
0.009770 -0.427894 -0.580454 153 76 0
0.777386 0.100345 0.495907 153 0 76
-0.377371 0.149531 -0.436035 127 127 0
-0.093600 -0.428574 -0.607770 153 76 0
-0.561595 0.103765 0.520325 76 0 153
-0.586888 0.149531 -0.097488 127 127 0
-0.368911 0.149531 0.101855 127 127 0
0.777151 0.142422 -0.582264 127 127 0
-0.127702 0.149531 -0.397427 127 127 0
-0.050422 0.149531 0.391362 127 127 0
0.686367 -0.123452 -0.001419 0 127 127
-0.499607 0.037886 0.009510 76 153 0
-0.593589 0.062676 -0.108137 76 0 153
-0.443197 0.108563 -0.626531 76 153 0
0.740280 -0.427770 0.072334 76 0 153
-0.587385 0.062676 0.160700 76 0 153
-0.734001 0.017163 0.094005 153 0 76
-0.592883 0.062676 0.053557 76 0 153
-0.649003 -0.012457 0.409554 204 51 127
-0.226713 0.101174 -0.599978 76 153 0
0.580768 0.011981 0.272594 0 127 127
0.292703 0.149531 -0.193801 127 127 0
0.596349 0.104720 0.173227 153 0 76
0.719221 0.187378 -0.390232 255 0 0
-0.430743 -0.428597 -0.602546 153 76 0
-0.695807 -0.162625 -0.205007 76 153 0
-0.600481 0.141832 0.553217 127 127 0
0.723802 -0.126105 0.436373 153 76 0
-0.541802 0.066015 0.326956 76 153 0
-0.587998 -0.165528 0.113595 127 0 127
-0.505125 0.101765 -0.554149 76 153 0
-0.701306 -0.165526 0.143896 127 0 127
0.576979 0.261443 -0.617116 255 0 0
0.575738 -0.051815 0.569746 76 153 0
0.587035 0.261056 -0.491536 255 0 0
0.776146 -0.424103 0.112243 76 0 153
-0.567565 0.141832 0.115067 127 127 0
-0.698093 -0.470721 -0.394400 76 0 153
0.770619 -0.023304 0.000642 127 0 127
0.483413 0.149531 -0.617018 127 127 0
0.026476 0.149531 -0.471405 127 127 0
0.406654 -0.454272 -0.627453 153 76 0
-0.499703 -0.066892 -0.001855 76 153 0
-0.524143 0.104445 -0.003539 76 0 153
-0.604807 -0.165522 -0.062463 127 0 127
0.648429 0.141832 0.014424 127 127 0
0.006651 0.149531 0.334785 127 127 0
0.773159 0.006427 -0.243339 153 0 76
0.536319 0.027849 0.232524 0 127 127
0.171293 0.149531 -0.287888 127 127 0
-0.602422 -0.122700 0.288473 127 0 127
0.589896 0.104590 0.416826 153 0 76
-0.611337 0.149531 -0.566687 127 127 0
-0.555187 0.000657 0.324314 76 153 0
0.701415 0.147917 -0.625556 127 127 0
-0.690201 0.029588 -0.067285 153 0 76
-0.455788 0.149531 -0.579182 127 127 0
0.575713 -0.109011 0.441145 76 153 0
0.770619 -0.124790 0.227490 127 0 127
-0.172746 0.141832 0.096805 127 127 0
-0.555476 0.057660 0.235624 76 153 0
-0.099871 0.110506 -0.627105 76 153 0
0.698318 -0.114170 0.527501 153 76 0
-0.592712 -0.004183 0.507593 153 76 0
-0.681347 -0.143273 0.531239 153 0 76
-0.550377 -0.053560 -0.096549 0 127 127
0.732223 -0.073264 -0.002640 153 0 76
0.536319 -0.114791 0.194618 0 127 127
0.536319 0.045442 0.424540 0 127 127
0.592386 0.105365 -0.279948 153 0 76
0.716019 -0.427958 0.380471 76 0 153
0.721477 -0.470721 0.346623 76 0 153
0.714113 -0.428335 0.013456 76 0 153
0.662522 -0.165528 0.342274 0 127 127
0.128716 0.106052 -0.595929 76 153 0
-0.738093 0.089427 0.056241 0 0 255
-0.216517 0.141832 -0.020225 127 127 0
-0.129263 0.141832 -0.488883 127 127 0
-0.653332 -0.165528 0.461274 127 0 127
-0.261576 0.149531 -0.587545 127 127 0
-0.498916 0.079997 -0.302756 76 0 153
0.608795 -0.016539 0.528932 0 0 255
0.745818 -0.470720 -0.314821 76 0 153
-0.597335 -0.003183 0.057203 153 76 0
-0.333868 0.141832 0.460458 127 127 0
-0.596285 -0.047575 0.020883 0 0 255
-0.242715 0.149531 -0.284743 127 127 0
-0.654704 -0.461072 -0.115717 76 0 153
0.621652 -0.003670 0.056139 127 127 0
0.481421 -0.428227 -0.589941 153 76 0
0.748566 -0.428488 -0.165500 76 0 153
-0.384392 0.141832 0.292655 127 127 0
0.779076 0.116100 0.343129 0 127 127
0.503613 0.149531 -0.130270 127 127 0
-0.591963 0.108542 -0.626525 76 153 0
0.695843 -0.466973 0.178625 76 0 153
0.575713 -0.075419 0.229846 76 153 0
-0.741015 0.108463 0.342439 0 0 255
-0.708341 -0.427240 0.454553 76 0 153
0.720208 0.012075 0.400028 255 0 0
0.669165 -0.428308 -0.579406 153 76 0
-0.599898 0.062676 0.411429 76 0 153
0.444520 0.149531 0.542028 127 127 0
-0.681605 -0.427893 -0.174878 76 0 153
0.770619 0.005314 -0.056854 127 0 127
0.731996 -0.121477 0.326356 153 0 76
0.575834 -0.118987 -0.049521 76 153 0
-0.511103 -0.470616 -0.562816 153 76 0
0.623106 0.247372 -0.425421 255 0 0
0.592869 -0.109414 0.000655 76 153 0
-0.733693 -0.468388 0.193536 76 0 153
0.304925 0.141832 0.010228 127 127 0
-0.727265 -0.470576 -0.357278 76 0 153
0.754814 0.149531 0.574898 127 127 0
-0.683660 -0.427893 -0.238751 76 0 153
-0.705365 -0.470721 -0.504523 76 0 153
0.536319 0.041720 -0.139292 0 127 127
-0.519660 0.149531 -0.193666 127 127 0
0.706717 -0.164707 0.005754 0 127 127
0.569570 0.149531 -0.443301 127 127 0
-0.691040 -0.015646 0.369895 153 76 0
0.625897 -0.123714 0.346152 0 127 127
-0.089866 0.149531 -0.595600 127 127 0
0.743214 -0.470720 0.407150 76 0 153
-0.164418 0.141832 -0.070144 127 127 0
0.324288 0.149531 0.157080 127 127 0
-0.498702 0.037205 -0.245159 76 153 0
-0.499526 0.066806 0.364227 76 153 0
0.155431 0.149531 -0.616509 127 127 0
-0.152161 0.103113 -0.623321 76 153 0
0.644773 -0.165528 0.485453 0 127 127
-0.398144 0.141832 0.535022 127 127 0
0.535233 0.149531 -0.027850 127 127 0
-0.717325 0.108633 -0.034823 153 0 76
-0.727496 -0.428511 -0.584449 76 0 153
0.446059 0.102199 -0.620236 76 153 0
-0.641691 0.062676 0.139558 76 0 153
0.728243 -0.165323 0.520141 0 127 127
-0.540924 -0.015443 0.145938 153 76 0
-0.538110 0.017178 0.027470 76 153 0
0.710381 0.146107 -0.366024 255 0 0
0.726923 -0.470721 -0.397932 76 0 153
0.536319 -0.062143 0.292408 0 127 127
0.588638 0.105186 -0.039416 153 0 76
0.770294 -0.468843 -0.261862 76 0 153
0.779269 -0.439514 0.294892 76 0 153
0.644857 0.141832 -0.117111 127 127 0
-0.596070 -0.047574 0.382089 204 51 127
0.092122 0.149531 0.310712 127 127 0
-0.615066 0.062676 0.257619 76 0 153
-0.498960 -0.045852 0.306973 76 153 0
-0.213350 0.104321 -0.555210 76 153 0
-0.734001 -0.010866 -0.165532 153 0 76
0.656682 -0.165528 -0.142271 0 127 127
0.670704 -0.012892 0.236443 0 0 255
-0.646156 -0.003182 0.208822 153 76 0
-0.203763 0.141832 0.339152 127 127 0
-0.539070 -0.045772 0.198560 0 127 127
0.041717 0.149531 -0.371196 127 127 0
-0.583360 -0.122718 0.011227 127 0 127
-0.622041 0.149531 -0.266060 127 127 0
0.584941 -0.061543 0.335803 76 153 0
-0.592678 0.062676 0.000714 76 0 153
-0.422207 -0.461254 -0.547934 153 76 0
-0.265553 0.149531 -0.431271 127 127 0
-0.728571 -0.164314 0.263905 127 0 127
-0.565485 0.105150 0.309812 76 0 153
0.573307 -0.136722 -0.204563 255 0 0
-0.602094 0.149531 0.464377 127 127 0
-0.664982 -0.051024 0.268582 0 0 255
0.730308 0.064649 0.555319 255 0 0
0.662190 -0.123313 0.217675 0 127 127
0.765713 -0.050228 -0.269742 153 0 76
0.653461 0.062676 -0.072066 153 0 76
-0.580454 0.098281 -0.339881 76 0 153
0.536319 -0.024515 0.013925 0 127 127
0.536319 0.052742 0.162135 0 127 127
-0.414676 0.141832 0.461770 127 127 0
-0.592473 0.062676 0.456854 76 0 153
-0.450669 0.141832 -0.038597 127 127 0
-0.491538 0.149531 0.054465 127 127 0
0.598660 0.104766 0.325763 153 0 76
0.666344 -0.113562 -0.062882 153 76 0
-0.613170 0.054338 -0.151632 204 51 127
0.647789 0.104712 -0.555672 76 153 0
-0.443048 0.141832 -0.367576 127 127 0
-0.499703 0.045369 0.287761 76 153 0
0.629139 -0.047570 0.001092 0 0 255
0.735561 0.143998 -0.149937 0 127 127
-0.538550 0.016082 0.212913 76 153 0
0.575768 -0.048810 -0.075801 76 153 0
0.356324 -0.428151 -0.592685 153 76 0
-0.694068 0.141832 0.539680 127 127 0
0.536319 -0.004614 0.452717 0 127 127
0.625145 -0.470286 -0.617832 153 76 0
-0.734001 -0.073660 0.320350 153 0 76
0.658252 -0.047576 0.198656 0 0 255
0.037876 0.141832 -0.538114 127 127 0
0.773991 0.078229 0.425072 127 0 127
0.734750 -0.427897 0.241695 76 0 153
0.576999 -0.165527 0.403822 0 127 127
-0.516248 0.149531 0.518511 127 127 0
-0.499704 -0.004860 0.277537 76 153 0
0.722848 -0.165528 0.079858 0 127 127
0.624111 -0.015875 0.399125 127 127 0
-0.007308 0.141832 0.477765 127 127 0
-0.499703 -0.096939 -0.051473 76 153 0
-0.499660 0.020002 0.508446 76 153 0
0.578923 0.065583 0.389654 0 0 255
-0.716921 0.149531 0.272957 127 127 0
-0.499703 -0.047698 0.049061 76 153 0
-0.687456 0.149531 0.196948 127 127 0
0.390471 0.141832 0.167083 127 127 0
0.621486 -0.113434 0.436918 153 76 0
0.770619 -0.099185 0.473090 127 0 127
0.771947 -0.071100 -0.188709 127 0 127
-0.736035 -0.071243 -0.195603 76 153 0
-0.121914 0.101624 -0.555406 76 153 0
-0.694607 -0.102446 0.464521 76 153 0
-0.718584 -0.425739 0.268636 76 0 153
-0.690213 0.104961 -0.270753 0 0 255
-0.536685 -0.102687 -0.224225 0 255 0
0.724704 -0.099223 0.150271 127 0 127
-0.596270 0.149531 0.393962 127 127 0
0.733912 -0.470721 -0.535694 76 0 153
-0.734001 -0.096398 0.121115 153 0 76
0.189897 0.149531 0.458156 127 127 0
-0.541933 -0.092763 0.376838 76 153 0
0.556714 0.141832 -0.347753 127 127 0
-0.576617 -0.165528 0.462127 127 0 127
-0.499556 -0.099099 0.234041 76 153 0
0.551523 0.149531 0.281559 127 127 0
-0.076343 -0.470242 -0.617918 153 76 0
0.584308 0.149531 -0.182240 127 127 0
0.621719 -0.156168 0.531041 0 127 127
0.555163 -0.032202 0.531249 0 127 127
-0.659654 -0.126127 0.146728 76 0 153
0.693015 -0.015874 0.545601 127 127 0
-0.656956 -0.165528 0.415128 127 0 127
0.332254 0.141832 -0.563746 127 127 0
0.779087 0.113938 -0.454735 153 0 76
-0.563526 -0.006535 -0.148681 204 51 127
-0.413259 0.149531 -0.079554 127 127 0
0.771371 0.012279 0.316615 127 0 127
-0.734001 -0.100121 -0.079843 153 0 76
-0.694579 0.058492 -0.010859 153 0 76
-0.161856 0.141832 0.162900 127 127 0
-0.677155 -0.167506 0.035632 127 0 127
0.776164 -0.464620 -0.175741 76 0 153
-0.662709 -0.468971 0.491164 76 0 153
0.778990 -0.454765 -0.088067 76 0 153
0.732222 -0.091896 0.073549 153 0 76
-0.677915 -0.165528 0.375187 127 0 127
-0.529864 -0.165504 -0.031335 127 0 127
0.526226 0.141832 0.502441 127 127 0
-0.587347 0.149531 -0.410089 127 127 0
0.644947 -0.004183 -0.053741 127 127 0
0.536319 -0.041287 0.169543 0 127 127
-0.694607 0.047235 -0.113423 153 0 76
0.722061 -0.048005 0.473445 153 0 76
0.731980 0.038358 0.299639 255 0 0
0.736140 0.149531 -0.406474 127 127 0
0.538671 0.149531 0.430576 127 127 0
0.564285 0.104461 0.243355 153 0 76
-0.188546 0.149531 -0.216681 127 127 0
-0.684719 -0.057385 0.520728 76 153 0
-0.499378 0.085888 0.238387 76 153 0
0.542515 0.141832 -0.531741 127 127 0
-0.667331 0.113154 0.476146 153 0 76
-0.688403 0.065160 0.382055 153 0 76
-0.151433 0.149531 0.416589 127 127 0
-0.664236 -0.003188 0.256890 153 76 0
-0.569469 -0.126127 -0.054151 76 0 153
0.624300 -0.047566 0.138431 0 0 255
-0.741604 0.118291 -0.244990 153 0 76
-0.738960 0.100853 -0.409214 0 0 255
0.722011 -0.080691 0.562562 153 0 76
0.447187 0.149531 -0.387066 127 127 0
0.733207 0.149531 -0.232767 127 127 0
0.567696 0.149531 0.568895 127 127 0
-0.499202 -0.033705 0.436888 76 153 0
0.338729 0.141832 -0.137630 127 127 0
-0.050687 0.104014 -0.625188 76 153 0
0.580330 -0.126027 0.513532 153 76 0
0.771617 -0.130085 0.040889 127 0 127
-0.625076 -0.126127 0.534021 76 0 153
0.716124 0.141832 0.370381 127 127 0
-0.593959 -0.064755 -0.104229 153 0 76
-0.738802 -0.463957 -0.001410 76 0 153
-0.710901 0.099182 -0.448650 0 0 255
0.729005 0.065443 -0.056362 255 0 0
0.575702 -0.001682 -0.282532 0 127 127
0.664748 0.104496 0.261534 153 0 76
0.681854 0.112247 -0.204230 153 0 76
-0.397385 0.141832 -0.578216 127 127 0
0.350888 0.141832 0.282460 127 127 0
0.661121 0.284425 -0.478021 255 0 0
-0.734001 -0.050264 0.492489 153 0 76
-0.630781 0.141832 0.258152 127 127 0
-0.498989 -0.073049 0.272347 76 153 0
0.569981 -0.165527 0.253670 0 127 127
-0.499406 0.072774 0.160130 76 153 0
0.585727 0.027837 0.321045 0 0 255
0.587005 -0.165528 0.344455 0 127 127
0.148505 0.141832 -0.167967 127 127 0
-0.550739 0.149531 -0.544712 127 127 0
0.678813 0.062676 0.096988 153 0 76
0.536319 -0.093731 -0.164124 0 127 127
-0.711384 0.106436 -0.135026 153 0 76
-0.076578 0.149531 -0.063631 127 127 0
0.778699 -0.457787 -0.405353 76 0 153
0.578929 0.027475 0.031800 0 127 127
0.204813 0.149531 -0.196862 127 127 0
-0.734001 0.022922 0.422067 153 0 76
0.640292 -0.047576 0.373083 0 0 255
0.075687 0.149531 -0.444579 127 127 0
0.231101 0.141832 0.407586 127 127 0
0.170857 0.149531 0.525399 127 127 0
-0.696080 0.143665 0.452003 153 0 76
0.536319 -0.073398 0.125469 0 127 127
-0.686557 0.044231 0.221435 153 0 76
-0.630576 -0.063372 -0.249733 0 255 0
0.722001 0.024113 0.218018 255 0 0
-0.499250 -0.009670 0.107656 76 153 0
-0.541313 -0.044899 0.571414 0 127 127
-0.667377 0.112698 -0.113489 153 0 76
0.295738 0.141832 -0.335507 127 127 0
-0.735543 0.071118 -0.200308 153 0 76
0.771618 -0.041884 0.112684 127 0 127
0.731185 0.064839 -0.130456 0 255 0
-0.443910 0.149531 0.228295 127 127 0
-0.655589 -0.440487 0.151806 76 0 153
0.598714 -0.165528 0.204531 0 127 127
0.731825 -0.117344 -0.000205 153 0 76
-0.718581 0.143922 0.136206 0 0 255
0.664246 0.141832 0.560431 127 127 0
-0.675083 -0.008098 0.047627 0 0 255
0.626320 0.149531 -0.580279 127 127 0
0.632259 -0.165528 -0.018267 0 127 127
-0.688920 -0.428146 0.504076 76 0 153
0.536319 -0.016902 0.330451 0 127 127
-0.499370 0.024862 -0.121737 76 153 0
0.649873 0.141832 0.227912 127 127 0
0.664024 0.021481 -0.297173 255 0 0
0.666367 0.141832 -0.444513 127 127 0
0.542995 -0.428227 -0.601734 153 76 0
-0.214887 0.149531 -0.510397 127 127 0
-0.628981 0.062676 -0.070364 76 0 153
0.728287 0.284425 -0.620120 255 0 0
-0.734001 -0.083471 -0.004156 153 0 76
-0.705549 0.102152 -0.622927 76 153 0
-0.461226 0.149531 0.464462 127 127 0
0.578094 -0.078048 0.480849 0 127 127
0.770760 0.040345 0.069376 127 0 127
-0.647900 -0.004183 -0.025641 153 76 0
-0.710983 0.106127 0.397143 153 0 76
-0.684197 -0.063767 -0.048915 204 51 127
-0.697828 -0.468768 0.526469 76 0 153
-0.547193 0.149531 0.241973 127 127 0
0.405735 0.141832 0.017780 127 127 0
-0.499703 -0.109302 0.093219 76 153 0
0.440550 -0.441331 -0.547360 153 76 0
0.117189 0.149531 -0.225569 127 127 0
0.770619 0.006765 -0.159765 127 0 127
-0.613282 0.062676 0.312479 76 0 153
-0.604057 0.149531 0.304859 127 127 0
-0.433700 0.141832 0.323414 127 127 0
-0.017869 0.141832 0.009685 127 127 0
-0.538474 0.060507 -0.133481 76 0 153
-0.656155 0.142150 -0.488297 0 0 255
0.536319 -0.128004 0.348823 0 127 127
-0.538098 -0.059723 -0.032895 0 127 127
0.725648 -0.427893 -0.440629 76 0 153
-0.655857 0.106127 -0.420810 153 0 76
0.672588 0.106564 0.055366 0 127 127
-0.539183 0.149531 -0.039303 127 127 0
-0.512313 -0.164666 0.056411 127 0 127
0.220956 -0.470539 -0.616837 153 76 0
0.735788 -0.080828 -0.252231 153 0 76
0.426383 0.149531 -0.234442 127 127 0
0.608183 0.261056 -0.575130 255 0 0
-0.712401 -0.391574 -0.072792 76 153 0
-0.664053 -0.178426 -0.008844 127 0 127
-0.734001 -0.142418 -0.009426 153 0 76
0.647441 -0.165528 0.131522 0 127 127
0.777895 -0.427341 0.468811 76 0 153
-0.260663 0.149531 0.106915 127 127 0
0.588861 0.104854 0.511648 153 0 76
0.242070 -0.470611 -0.562389 153 76 0
-0.314525 0.141832 0.081258 127 127 0
0.535415 0.141832 0.366157 127 127 0
0.487676 -0.470721 -0.590054 153 76 0
-0.643773 -0.003186 0.526051 153 76 0
0.667959 -0.003574 0.304417 127 127 0
-0.733841 -0.164527 -0.051498 153 0 76
0.344153 0.141832 -0.260869 127 127 0
0.715809 -0.470721 -0.587626 153 76 0
-0.501975 0.149531 -0.106380 127 127 0
0.581595 0.141832 -0.237326 127 127 0
0.406836 0.149531 0.115067 127 127 0
-0.499371 -0.132224 0.377169 76 153 0
-0.582090 -0.468972 -0.554408 153 76 0
-0.631332 0.105628 -0.295515 0 0 255
-0.377439 0.141832 0.009437 127 127 0
-0.538140 0.149531 0.399606 127 127 0
-0.579142 -0.146110 -0.199139 0 255 0
-0.740943 -0.056596 -0.248968 76 153 0
-0.668806 -0.470591 0.224150 76 0 153
0.248232 0.141832 0.063856 127 127 0
-0.733997 -0.137161 0.108165 153 0 76
0.573368 -0.165527 0.455132 0 127 127
-0.564919 -0.428859 -0.585859 153 76 0
-0.576522 -0.015875 0.441018 153 76 0
0.716712 0.141832 0.517745 127 127 0
-0.093141 0.141832 0.513551 127 127 0
0.071223 0.149531 -0.145667 127 127 0
0.713585 -0.263181 -0.126769 153 0 76
0.536319 0.068246 0.005096 0 127 127
-0.305462 0.141832 -0.036685 127 127 0
0.744149 -0.428228 -0.237505 76 0 153
-0.740385 -0.427609 0.351900 76 0 153
-0.734001 0.005260 0.232482 153 0 76
-0.016385 0.149531 -0.321283 127 127 0
0.634332 0.104525 -0.297865 153 0 76
0.628279 -0.113434 0.304891 153 76 0
0.584349 0.065665 0.072794 0 0 255
0.224344 0.141832 -0.362859 127 127 0
-0.741646 -0.439066 0.495481 76 0 153
0.768963 -0.422766 0.204048 76 0 153
-0.312010 0.141832 -0.124920 127 127 0
-0.388165 0.141832 0.392809 127 127 0
-0.499703 -0.046176 -0.165048 76 153 0
-0.682661 -0.126123 0.259864 76 0 153
-0.558295 0.002914 0.544185 0 127 127
-0.116877 0.141832 0.089376 127 127 0
0.779096 0.114454 0.403453 0 127 127
0.704066 -0.015875 -0.054492 127 127 0
0.213485 0.149531 0.539911 127 127 0
-0.734001 -0.029980 -0.121093 153 0 76
-0.607664 0.104639 0.106808 76 0 153
0.599109 0.107706 -0.626278 76 153 0
0.712884 -0.056357 -0.123799 127 0 127
0.145080 -0.460436 -0.547702 153 76 0
0.682574 0.284425 -0.559707 255 0 0
0.731990 -0.011386 0.365115 255 0 0
-0.541473 -0.125860 0.035305 0 127 127
0.323140 0.141832 0.505892 127 127 0
0.751688 -0.215885 -0.174249 153 0 76
0.770619 -0.055397 0.469332 127 0 127
0.697301 0.101172 -0.592328 76 153 0
-0.612082 -0.114287 0.368312 76 0 153
0.140314 0.149531 0.301161 127 127 0
-0.540339 0.104656 -0.295348 76 0 153
-0.680315 0.105541 -0.356765 153 0 76
-0.734001 -0.068874 0.412418 153 0 76
-0.738703 0.021967 -0.276653 76 153 0
0.212065 0.149531 0.017431 127 127 0
0.677294 0.109170 0.370542 153 0 76
-0.248588 0.141832 0.018684 127 127 0
-0.656615 -0.465646 -0.361468 76 0 153
-0.410586 0.141832 -0.225408 127 127 0
0.673515 -0.165528 0.080583 0 127 127
0.659946 0.141832 -0.363074 127 127 0
0.771524 -0.090144 0.058578 127 0 127
-0.645423 -0.122756 -0.031408 127 0 127
-0.660220 -0.467925 0.314966 76 0 153
0.773558 0.142984 0.259155 153 0 76
-0.698485 -0.165528 0.479339 127 0 127
0.224195 0.103593 -0.624939 76 153 0
0.536319 -0.140684 -0.064834 0 127 127
-0.538755 -0.013745 0.486422 153 76 0
-0.196795 -0.428510 -0.585157 153 76 0
0.731308 -0.046656 0.227579 153 0 76
0.634212 0.105477 0.349791 153 0 76
-0.733201 -0.160240 0.188159 153 0 76
0.536319 -0.097111 0.317918 0 127 127
-0.734001 -0.041642 -0.001392 153 0 76
-0.589119 -0.165528 0.037794 127 0 127
0.585444 -0.056655 0.090549 76 153 0
-0.606611 0.141832 -0.491532 127 127 0
-0.538810 0.104502 -0.096611 76 0 153
0.650609 0.141832 0.416599 127 127 0
-0.564242 -0.118217 0.153778 127 0 127
-0.637077 0.107710 0.424897 153 0 76
-0.326914 0.141832 -0.369183 127 127 0
-0.635895 -0.047573 0.474805 0 0 255
-0.514544 -0.033779 -0.263138 0 255 0
0.667583 0.149531 -0.080399 127 127 0
0.536319 0.051326 0.270685 0 127 127
0.540053 0.033438 0.528155 0 127 127
-0.735695 -0.198393 -0.181755 76 153 0
-0.647547 0.149531 -0.425263 127 127 0
0.677048 0.105445 -0.346261 153 0 76
0.665027 -0.003368 0.163037 127 127 0
0.589497 0.172699 -0.381622 255 0 0
-0.358386 0.141832 -0.103421 127 127 0
0.770619 -0.058097 0.303533 127 0 127
-0.543715 0.066034 0.487370 76 153 0
0.776360 0.095731 -0.035994 0 127 127
-0.227365 -0.470584 -0.613741 153 76 0
-0.496443 0.104721 -0.625396 76 153 0
-0.642655 0.110678 0.348514 153 0 76
-0.132117 0.141832 0.273479 127 127 0
0.650428 -0.090893 -0.231047 255 0 0
-0.410755 0.101175 -0.601619 76 153 0
-0.630812 -0.165528 0.211139 127 0 127
-0.592017 0.141832 0.222891 127 127 0
0.668726 0.062676 0.410598 153 0 76
-0.045782 0.149531 -0.208286 127 127 0
-0.682640 -0.470720 -0.086737 76 0 153
0.321793 0.141832 -0.099865 127 127 0
-0.596697 0.104525 0.342025 76 0 153
0.626777 0.101869 0.527895 153 0 76
-0.350403 0.141832 -0.466409 127 127 0
-0.322824 0.105708 -0.625688 76 153 0
0.582431 -0.126068 0.036982 153 76 0
0.770713 0.058611 0.004592 127 0 127
0.693488 -0.342004 -0.096080 153 0 76
-0.734001 0.025189 -0.109983 153 0 76
0.701542 0.101921 -0.410291 153 0 76
-0.464071 -0.437912 -0.626424 153 76 0
-0.691496 -0.044643 0.571841 76 153 0
0.697965 -0.467870 -0.319660 76 0 153
0.675431 0.007982 -0.135632 0 255 0
-0.547405 0.141832 -0.123035 127 127 0
0.687192 -0.470633 -0.557968 153 76 0
-0.590686 -0.165528 0.259261 127 0 127
0.746122 0.149531 -0.550060 127 127 0
-0.734001 0.033958 0.461681 153 0 76
0.680204 0.062676 0.472761 153 0 76
-0.741651 0.126653 0.016219 0 0 255
-0.712719 0.106254 0.463661 153 0 76
0.678461 -0.047570 -0.066132 0 0 255
0.770078 -0.159846 0.291139 127 0 127
0.730933 0.064592 0.331841 255 0 0
0.448805 -0.431845 -0.623431 153 76 0
-0.703031 0.141832 -0.011557 127 127 0
0.639805 -0.165528 0.297630 0 127 127
0.742539 0.143806 -0.496114 153 0 76
-0.483865 0.149531 0.210739 127 127 0
0.505580 0.149531 -0.171799 127 127 0
0.732223 0.022712 0.041262 255 0 0
-0.541954 -0.044855 0.050670 0 127 127
0.097513 0.141832 -0.535503 127 127 0
-0.476705 0.149531 0.539883 127 127 0
-0.720256 0.110395 0.105639 153 0 76
0.765463 0.261056 -0.483475 255 0 0
-0.576271 -0.046830 0.526744 0 0 255
-0.472571 0.149531 -0.234296 127 127 0
-0.652447 -0.048509 -0.069692 0 0 255
-0.660930 -0.013544 0.126417 0 0 255
0.684108 -0.165528 0.376919 0 127 127
0.770985 -0.048701 0.197332 127 0 127
-0.499476 -0.020027 0.378516 76 153 0
0.715212 -0.126127 0.483294 153 76 0
0.581278 -0.126046 0.226117 153 76 0
-0.658088 0.149531 0.145699 127 127 0
0.730805 -0.015023 -0.099853 127 127 0
0.722758 0.143998 0.140563 153 0 76
0.461393 0.149531 0.487139 127 127 0
0.771618 -0.077868 0.135930 127 0 127
0.649692 0.149531 0.474162 127 127 0
0.645224 0.104640 0.186570 153 0 76
-0.651812 0.129159 -0.066243 153 0 76
-0.499203 -0.053509 0.188784 76 153 0
0.333576 0.149531 -0.348453 127 127 0
0.772003 0.068298 -0.161441 127 0 127
0.455952 0.141832 0.402394 127 127 0
-0.599538 -0.105644 0.580974 127 0 127
-0.220268 0.149531 0.300570 127 127 0
-0.532074 0.104502 0.114887 76 0 153
-0.734001 0.023487 0.347440 153 0 76
0.756712 0.141832 0.194433 127 127 0
-0.407463 0.149290 0.583480 127 127 0
0.556238 -0.057100 -0.250444 0 127 127
0.778591 0.108595 -0.148832 0 127 127
-0.289560 -0.470719 -0.578380 153 76 0
0.062539 0.149531 0.536487 127 127 0
0.565852 -0.165506 0.135825 0 127 127
0.685748 0.118887 0.304855 153 0 76
0.745875 -0.427893 -0.482771 76 0 153
-0.541430 -0.085985 0.106127 76 153 0
-0.642092 -0.114435 0.010227 76 0 153
-0.739876 0.139202 0.514119 153 0 76
-0.499703 0.054115 0.416754 76 153 0
0.633293 0.062930 0.518457 153 0 76
-0.258975 0.149531 0.277536 127 127 0
0.429574 0.149531 0.271030 127 127 0
-0.499371 0.062360 -0.069712 76 153 0
0.770509 0.009459 0.520996 127 0 127
0.637532 0.104501 -0.182081 153 0 76
-0.195407 0.104896 -0.625448 76 153 0
0.271085 0.105477 -0.570330 76 153 0
0.774691 -0.432442 -0.124829 76 0 153
-0.650928 0.124380 0.034448 153 0 76
0.653880 -0.003853 0.080635 127 127 0
0.628086 0.104753 0.115234 153 0 76
0.708674 -0.470491 0.468854 76 0 153
0.643448 -0.126127 0.175001 153 76 0
-0.691754 -0.084418 0.159551 153 0 76
-0.225698 0.149531 0.070552 127 127 0
0.669128 -0.068997 0.581829 76 0 153
-0.728459 -0.470563 0.291116 76 0 153
-0.738186 -0.320027 -0.083388 76 153 0
-0.721529 0.149531 -0.168645 127 127 0
0.652074 0.261056 -0.588455 255 0 0
0.693106 -0.118808 -0.131293 0 127 127
-0.269143 -0.428593 -0.613422 153 76 0
0.099913 0.141832 0.157643 127 127 0
0.748285 -0.421242 -0.024136 76 0 153
0.640620 0.198870 -0.396972 255 0 0
-0.612155 -0.047576 0.336679 204 51 127
0.536319 0.013499 -0.071399 0 127 127
0.771490 -0.151115 -0.125770 127 0 127
-0.694599 -0.115863 0.216903 76 153 0
0.732223 0.036921 0.512356 255 0 0
-0.499816 0.062320 0.516213 76 153 0
-0.733995 0.030908 -0.227382 153 0 76
-0.597575 0.149531 0.089484 127 127 0
-0.259153 0.141832 -0.068555 127 127 0
-0.082630 0.149531 0.128866 127 127 0
-0.525189 -0.470719 -0.600409 153 76 0
0.596403 -0.165139 -0.181967 255 0 0
0.682121 0.065177 0.554621 204 51 127
-0.499263 -0.138251 -0.176533 76 153 0
-0.648870 -0.012456 -0.116987 0 0 255
-0.577980 0.105106 -0.083033 76 0 153
-0.710575 0.141832 0.579627 127 127 0
0.378596 0.141832 -0.517524 127 127 0
-0.685379 -0.060756 0.301700 76 153 0
0.405956 0.109042 -0.609710 76 153 0
0.693874 -0.113434 0.076268 153 76 0
-0.499703 0.048683 0.196275 76 153 0
-0.708175 -0.427893 -0.382305 76 0 153
-0.275491 0.101208 -0.607012 76 153 0
0.732175 0.031691 0.174867 255 0 0
0.404322 0.149531 -0.590819 127 127 0
0.536319 -0.047347 0.400510 0 127 127
-0.635142 -0.165357 0.518738 127 0 127
-0.023916 0.141832 0.085019 127 127 0
-0.684382 -0.079332 0.023795 76 153 0
-0.677561 0.107127 -0.030681 0 0 255
-0.036873 0.149531 0.195930 127 127 0
-0.551379 0.007899 0.111493 76 153 0
-0.564688 -0.165528 -0.108938 127 0 127
-0.634767 -0.113434 0.409933 76 0 153
0.617728 0.062683 0.230849 153 0 76
0.770674 0.031957 0.464114 127 0 127
0.696702 0.149531 0.233851 127 127 0
-0.541815 0.026865 -0.066985 76 153 0
-0.004743 0.141832 -0.392512 127 127 0
-0.611920 -0.004042 0.426986 153 76 0
-0.271804 0.149531 -0.537237 127 127 0
0.775474 -0.425482 0.530295 76 0 153
0.770619 -0.004932 0.404883 127 0 127
0.469570 0.141832 0.044341 127 127 0
-0.233658 0.141832 0.216178 127 127 0
0.559076 0.105406 -0.302573 153 0 76
-0.654015 -0.165528 0.125940 127 0 127
-0.545781 -0.083503 0.580111 0 127 127
-0.275185 0.149531 -0.207033 127 127 0
0.360762 -0.470721 -0.589937 153 76 0
0.774495 0.084976 -0.115519 127 0 127
0.585755 -0.057567 0.001944 76 153 0
0.460487 0.145915 0.583480 127 127 0
-0.666449 0.114979 0.206665 153 0 76
0.532805 0.149531 0.134445 127 127 0
-0.671137 0.003345 -0.152782 204 51 127
-0.297828 0.141832 0.311695 127 127 0
-0.694607 0.042715 0.310233 153 0 76
-0.675161 -0.126127 0.331396 76 0 153
0.562729 0.042926 -0.308273 0 127 127
-0.458545 0.149531 0.146213 127 127 0
0.749292 0.141832 -0.621219 127 127 0
-0.701371 -0.248435 -0.155474 76 153 0
-0.579085 -0.003182 -0.030716 153 76 0
0.772830 0.068302 0.190617 127 0 127
-0.194789 0.149531 0.232293 127 127 0
0.575529 0.149531 0.075291 127 127 0
-0.741406 0.111009 0.195227 153 0 76
0.700744 -0.013249 0.017192 0 0 255
-0.734001 -0.026863 0.425022 153 0 76
-0.697941 0.105149 -0.490400 153 0 76
-0.691007 0.149531 0.068364 127 127 0
0.575713 0.016477 0.121734 0 0 255
-0.618930 -0.126127 -0.064398 76 0 153
-0.684389 -0.094326 0.506574 76 153 0
-0.297556 0.149531 -0.571115 127 127 0
-0.212010 0.141832 0.427414 127 127 0
0.694335 -0.113323 0.581972 76 0 153
0.597327 -0.010377 -0.135416 0 255 0
-0.656577 -0.465557 -0.195030 76 0 153
-0.641535 -0.047568 0.162243 204 51 127
-0.572617 0.141832 0.005962 127 127 0
-0.574000 -0.120956 0.315882 127 0 127
0.458694 0.141832 0.347699 127 127 0
-0.685071 0.061938 0.031637 153 0 76
-0.498702 -0.119433 0.500251 76 153 0
0.579448 -0.428228 -0.578766 153 76 0
-0.132704 0.149531 -0.357695 127 127 0
-0.726301 -0.136362 -0.220056 76 153 0
0.584997 -0.015867 0.243311 127 127 0
-0.500498 0.040994 -0.297304 76 153 0
0.598748 0.141832 0.160192 127 127 0
-0.661380 -0.430690 -0.139910 76 0 153
0.579105 0.104708 0.106761 153 0 76
-0.620265 0.105231 -0.098179 153 0 76
0.756282 0.093890 -0.363932 0 127 127
-0.095865 0.141832 0.581881 127 127 0
-0.162281 0.149531 0.051265 127 127 0
0.597696 0.141832 0.487510 127 127 0
0.688682 -0.048226 0.427839 0 0 255
-0.554871 -0.165528 0.191757 127 0 127
-0.705170 -0.323639 -0.112045 76 153 0
-0.741513 -0.446663 -0.199219 76 0 153
-0.633872 0.141832 -0.194105 127 127 0
0.724266 -0.004831 -0.296107 153 0 76
-0.234857 0.141832 -0.369605 127 127 0
0.577002 0.141832 -0.065265 127 127 0
-0.538097 -0.062726 0.460622 0 127 127
-0.684377 0.031338 0.458427 153 0 76
-0.548316 -0.076304 0.242944 0 127 127
0.684847 -0.113434 0.290961 153 76 0
0.698052 -0.176680 -0.151800 0 127 127
0.623723 -0.003182 0.225664 127 127 0
0.379463 0.141832 -0.440665 127 127 0
0.687392 0.062688 0.240717 153 0 76
0.479593 0.149531 -0.540491 127 127 0
0.368802 0.149531 0.356714 127 127 0
-0.675738 -0.400963 -0.047162 76 153 0
0.000595 0.149531 -0.114880 127 127 0
0.727265 -0.073036 0.364269 127 0 127
0.519442 0.105952 -0.594417 76 153 0
0.414077 0.149531 -0.366250 127 127 0
0.756125 -0.310611 -0.119507 153 0 76
-0.538654 -0.010348 -0.000298 76 153 0
-0.586499 -0.113434 0.232258 76 0 153
-0.618429 0.149531 -0.366146 127 127 0
0.146233 0.141832 0.443959 127 127 0
0.686822 0.141832 0.124714 127 127 0
0.770913 -0.091491 -0.023722 127 0 127
0.575713 -0.090286 0.193559 76 153 0
0.691360 -0.459021 0.004042 76 0 153
-0.680579 0.105825 0.338052 0 0 255
0.577724 0.284425 -0.582221 255 0 0
0.758697 -0.164957 0.375704 0 127 127
-0.741640 -0.438704 0.128316 76 0 153
0.575717 0.052767 0.210518 0 0 255
0.696848 -0.431766 0.281564 76 0 153
-0.662375 0.149531 -0.337113 127 127 0
0.771906 0.143232 -0.420711 0 127 127
-0.684713 -0.165528 0.179194 127 0 127
0.585909 -0.089103 0.564552 76 153 0
0.483400 0.149531 -0.308018 127 127 0
-0.499703 0.013315 0.439262 76 153 0
0.450188 0.141832 -0.061683 127 127 0
-0.140999 -0.470556 -0.557894 153 76 0
0.260034 0.149531 -0.322040 127 127 0
0.696730 -0.467348 -0.220739 76 0 153
0.208675 0.141832 -0.061596 127 127 0
0.779074 0.114471 0.542025 0 127 127
0.658043 -0.123347 0.127061 0 127 127
0.193413 0.149531 0.257100 127 127 0
0.045801 -0.436480 -0.626111 153 76 0
-0.514375 0.104050 0.345294 76 0 153
-0.677841 -0.108251 -0.114460 153 0 76
0.286136 0.141832 -0.508820 127 127 0
-0.656530 -0.470703 -0.569293 153 76 0
0.728542 -0.044852 0.158103 153 0 76
-0.588002 0.105306 -0.302499 76 0 153
0.632755 0.002196 -0.284773 255 0 0
0.660321 -0.165528 0.449935 0 127 127
-0.542860 -0.165528 0.486500 127 0 127
0.521194 0.148104 -0.625556 127 127 0
0.459550 0.149531 0.185777 127 127 0
-0.433472 0.141832 -0.500768 127 127 0
0.576373 -0.013836 0.399070 127 127 0
0.536319 -0.125329 0.411697 0 127 127
0.536319 0.013643 0.354259 0 127 127
0.575714 -0.109501 0.111474 76 153 0
-0.720622 -0.470651 0.086743 76 0 153
0.160498 0.149531 0.066230 127 127 0
-0.669219 0.149531 0.009608 127 127 0
0.524598 0.149531 0.203103 127 127 0
-0.624774 0.149531 -0.046814 127 127 0
-0.625961 -0.468141 -0.622020 153 76 0
0.305030 0.141832 -0.381367 127 127 0
0.619126 -0.123388 0.069315 0 127 127
0.696810 -0.431957 0.515695 76 0 153
0.670492 0.106252 0.483267 0 127 127
0.537328 0.149531 -0.111284 127 127 0
0.296389 -0.464494 -0.548927 153 76 0
-0.535537 0.141832 0.046772 127 127 0
0.225906 0.141832 -0.487581 127 127 0
0.451277 0.141832 0.115667 127 127 0
0.236675 0.149531 0.358392 127 127 0
-0.623329 -0.003546 0.374411 153 76 0
-0.338971 0.149531 -0.625049 127 127 0
-0.522047 0.104417 -0.225167 76 0 153
-0.444369 0.141832 -0.297841 127 127 0
0.692426 0.149531 -0.006494 127 127 0
0.671652 -0.165528 -0.081443 0 127 127
0.503838 0.149531 -0.091722 127 127 0
0.656060 -0.047576 0.461458 0 0 255
-0.584789 -0.047564 0.290363 204 51 127
0.578112 0.065200 0.555433 0 0 255
0.722187 -0.055398 0.066415 153 0 76
0.732223 0.023450 -0.117588 255 0 0
-0.472612 -0.470055 -0.556628 153 76 0
-0.247730 0.149531 0.356717 127 127 0
-0.127150 0.105260 -0.594141 76 153 0
-0.583200 0.104796 0.420347 76 0 153
0.311059 0.141832 -0.477858 127 127 0
0.582883 -0.100589 -0.134693 0 127 127
0.031058 0.141832 0.255815 127 127 0
-0.072480 0.149531 -0.024565 127 127 0
-0.061170 0.141832 0.430291 127 127 0
0.006150 0.149531 0.292900 127 127 0
0.531004 0.149531 -0.484737 127 127 0
0.231133 0.149531 -0.554542 127 127 0
-0.554629 0.141832 0.466020 127 127 0
-0.499019 0.016048 -0.198367 76 153 0
-0.629744 -0.113518 0.451350 76 0 153
-0.734001 -0.019120 0.078633 153 0 76
0.770619 -0.031057 0.347258 127 0 127
0.704641 -0.428052 -0.492480 76 0 153
-0.703536 -0.427893 -0.141073 76 0 153
-0.694368 -0.121748 0.172382 76 153 0
0.728001 -0.428159 0.145177 76 0 153
-0.138126 -0.428562 -0.588089 153 76 0
0.767420 0.250662 -0.427351 255 0 0
0.578689 -0.015468 0.085290 127 127 0
-0.741651 -0.444118 0.236409 76 0 153
-0.076065 0.149531 0.362958 127 127 0
-0.205791 0.141832 0.145701 127 127 0
-0.543351 0.065343 -0.011517 76 153 0
-0.542279 0.030320 0.303898 76 153 0
0.646097 -0.061508 -0.103228 0 127 127
0.578716 0.065603 0.034725 0 0 255
-0.183786 0.141832 -0.123971 127 127 0
