ply
format ascii 1.0
element vertex 1304
property float x
property float y
property float z
property uchar red
property uchar green
property uchar blue
end_header
0.130075 -0.480779 -0.317975 0 255 0
-0.080448 -0.045909 0.059833 0 0 255
0.055087 -0.129785 0.011950 0 0 255
-0.069832 0.342664 0.875720 0 0 255
-0.076682 0.126571 0.491211 0 0 255
0.073400 0.107520 0.366550 0 0 255
0.129516 -0.047463 -0.280910 0 255 0
0.065881 0.210504 -0.412059 76 0 153
0.128265 0.087912 -0.329368 0 255 0
0.010429 0.261056 -0.316397 76 0 153
0.061973 -0.033112 0.194911 0 0 255
0.044690 0.332888 -0.106575 76 0 153
-0.069030 -0.034279 0.189758 0 0 255
0.066863 0.330424 0.789907 0 0 255
0.089992 -0.468897 -0.394500 0 255 0
0.048366 0.121979 0.292020 0 0 255
0.117038 0.180334 -0.360538 76 0 153
0.015871 0.422882 0.115609 76 0 153
-0.077410 0.126156 0.385266 0 0 255
-0.076505 0.293370 0.845520 0 0 255
0.084700 0.116063 -0.383668 0 255 0
-0.080238 -0.164117 -0.162228 0 0 255
0.123286 0.097590 -0.344897 0 255 0
0.096643 -0.128085 -0.387482 0 255 0
0.044136 -0.473213 -0.420834 0 255 0
-0.100166 -0.052000 -0.369579 0 255 0
0.041830 0.133445 -0.405918 0 255 0
-0.080491 0.015775 0.184519 0 0 255
-0.005695 -0.246333 -0.172428 0 0 255
0.065144 0.204439 0.684065 0 0 255
-0.063938 -0.105915 -0.168580 0 0 255
-0.010863 0.224848 -0.425771 76 0 153
-0.042343 0.139562 0.307877 0 0 255
0.006228 -0.499032 -0.373896 0 255 0
0.038585 0.351913 -0.100655 76 0 153
0.042813 -0.384590 -0.180525 0 255 0
0.011716 -0.460196 -0.426298 0 255 0
-0.090366 -0.255808 -0.382348 0 255 0
0.129407 -0.142929 -0.323045 0 255 0
0.039593 -0.387207 -0.422243 0 255 0
-0.051332 -0.499032 -0.273793 0 255 0
0.038720 -0.082024 0.146095 0 0 255
0.047095 -0.154201 -0.020334 0 0 255
-0.090445 -0.054417 -0.382245 0 255 0
0.036221 0.260423 0.874062 0 0 255
-0.116999 0.254281 -0.270670 76 0 153
-0.020949 -0.269293 -0.177742 0 255 0
0.106595 -0.104961 -0.226668 0 255 0
0.073639 -0.067774 -0.195049 0 255 0
0.069051 0.261792 0.657438 0 0 255
0.117397 0.113560 -0.333399 0 255 0
-0.009729 0.272830 -0.292143 76 0 153
-0.000117 0.071784 0.139434 0 0 255
-0.009818 -0.106112 -0.425586 0 255 0
0.045351 -0.002068 0.022786 0 0 255
0.013586 0.266428 0.555662 0 0 255
0.071050 0.275531 0.702807 0 0 255
0.054007 -0.054105 0.174669 0 0 255
0.046194 -0.127747 -0.420072 0 255 0
0.056110 0.107383 -0.191108 0 255 0
-0.024031 0.401568 0.072428 76 0 153
0.085775 -0.499032 -0.370503 0 255 0
0.066212 -0.046542 -0.010107 0 0 255
0.023727 0.344111 0.725917 0 0 255
-0.068191 0.333769 0.898299 0 0 255
-0.074794 0.316946 0.768533 0 0 255
-0.075336 0.220210 0.700283 0 0 255
0.078732 -0.233821 -0.403152 0 255 0
-0.056465 -0.145269 -0.190895 0 255 0
0.014775 0.289708 -0.270025 76 0 153
0.006023 -0.226424 -0.130792 0 0 255
0.008988 0.234644 -0.179272 76 0 153
0.131102 -0.387809 -0.298005 0 255 0
-0.019115 0.075783 0.151424 0 0 255
-0.117578 -0.426191 -0.274307 0 255 0
0.067252 0.261084 -0.314789 76 0 153
-0.119035 0.080823 -0.284210 0 255 0
-0.020933 -0.499032 -0.320986 0 255 0
-0.080506 0.040868 0.235657 0 0 255
-0.080281 0.085194 0.359365 0 0 255
-0.080468 0.148878 0.469220 0 0 255
0.129227 -0.383118 -0.324388 0 255 0
-0.026938 0.148140 0.653661 0 0 255
0.110449 0.234817 -0.370434 76 0 153
-0.061448 0.030535 0.114047 0 0 255
-0.008334 0.287907 -0.261376 76 0 153
-0.030006 -0.078814 0.171749 0 0 255
-0.003484 0.315724 -0.053281 76 0 153
0.031415 0.219003 -0.177559 76 0 153
0.110421 0.067917 -0.370490 0 255 0
-0.058245 -0.044676 -0.052827 0 0 255
-0.008690 0.242328 0.861465 0 0 255
0.039262 0.228038 0.841760 255 0 0
-0.021841 -0.014037 -0.036763 0 0 255
-0.107796 0.115967 -0.332071 0 255 0
0.046891 -0.015361 -0.001856 0 0 255
-0.079766 0.124394 0.461452 0 0 255
-0.062368 0.217267 0.511312 0 0 255
0.032429 0.246634 0.880287 255 0 0
-0.063659 -0.204744 -0.150683 0 0 255
-0.059422 -0.132511 0.011698 0 0 255
0.061215 -0.022190 0.221216 0 0 255
0.064093 0.001262 0.082772 0 0 255
0.056869 0.274298 0.633465 0 0 255
0.073762 -0.109889 -0.078054 0 0 255
0.038034 0.004595 0.025134 0 0 255
0.030994 -0.497149 -0.422288 0 255 0
-0.055706 0.357957 0.792798 0 0 255
-0.053640 0.261251 -0.341685 76 0 153
-0.017329 0.348557 0.860759 0 0 255
-0.072988 -0.287936 -0.399046 0 255 0
-0.067459 0.106735 0.494192 0 0 255
-0.065457 0.248738 0.802397 0 0 255
-0.119815 -0.420653 -0.308196 0 255 0
-0.052728 -0.147497 -0.004883 0 0 255
0.022939 0.335956 0.892747 0 0 255
0.046244 -0.121397 0.051127 0 0 255
0.014376 0.312446 0.653475 0 0 255
0.049817 0.055826 0.417385 0 0 255
-0.097270 0.259942 -0.371107 76 0 153
0.056962 -0.091039 0.089372 0 0 255
-0.019696 0.303576 -0.199784 76 0 153
-0.114374 -0.306321 -0.262206 0 255 0
-0.080258 0.107770 0.410254 0 0 255
-0.080569 -0.499032 -0.259066 0 255 0
0.127244 -0.409761 -0.267938 0 255 0
-0.030571 0.106126 -0.183907 0 255 0
-0.068555 0.303199 0.713111 0 0 255
0.059287 0.357215 0.817084 0 0 255
-0.027411 -0.053015 -0.115483 0 0 255
-0.071019 -0.148403 -0.201487 0 255 0
0.124995 0.237256 -0.340484 76 0 153
0.060750 0.200146 0.490496 0 0 255
0.018236 0.355839 0.842274 0 0 255
0.122245 0.119239 -0.259427 76 0 153
-0.109264 0.251037 -0.352900 76 0 153
-0.010947 -0.087798 0.163171 0 0 255
-0.088790 -0.304292 -0.217375 0 255 0
-0.074645 0.354101 0.846685 0 0 255
-0.058639 0.007268 0.309172 0 0 255
-0.040998 0.090540 0.202280 0 0 255
-0.097576 -0.393811 -0.372960 0 255 0
0.028618 0.356710 0.757830 0 0 255
0.047854 0.130805 0.309536 0 0 255
-0.023862 0.165769 0.692749 0 0 255
0.120632 0.023921 -0.351416 0 255 0
-0.073405 -0.151339 -0.074920 0 0 255
0.038509 -0.499032 -0.354890 0 255 0
-0.012033 0.332206 -0.159439 76 0 153
-0.027966 0.141781 -0.179361 76 0 153
-0.098147 -0.499032 -0.254672 0 255 0
-0.059327 -0.404531 -0.193034 0 255 0
-0.069728 -0.013713 0.230547 0 0 255
0.007309 0.228809 0.472419 0 0 255
-0.038600 -0.159472 -0.008791 0 0 255
-0.076869 -0.489063 -0.396056 0 255 0
0.069601 0.079904 0.399248 0 0 255
-0.059883 0.070638 0.195091 0 0 255
0.004959 -0.355247 -0.426543 0 255 0
0.009995 -0.207081 -0.091132 0 0 255
0.067792 0.208207 0.534971 0 0 255
-0.072553 0.255872 -0.398965 76 0 153
-0.007917 -0.182665 -0.037646 0 0 255
0.008741 0.419118 0.010523 76 0 153
0.004012 -0.499032 -0.279133 0 255 0
-0.040839 0.324898 0.697846 0 0 255
0.058900 -0.208615 -0.164060 0 0 255
0.008058 0.348423 -0.142757 76 0 153
0.111938 -0.498781 -0.360671 0 255 0
-0.072618 -0.144320 -0.057009 0 0 255
0.030367 -0.083714 0.154268 0 0 255
-0.081597 0.206676 -0.209118 76 0 153
0.063677 0.201086 0.503885 0 0 255
-0.080345 -0.131255 -0.107024 0 0 255
-0.019080 -0.117020 -0.424417 0 255 0
-0.033493 0.215571 0.791243 0 0 255
-0.080368 0.059694 0.293857 0 0 255
0.016572 0.078876 -0.425966 0 255 0
-0.068641 -0.105501 -0.151137 0 0 255
0.035919 0.165402 -0.178405 76 0 153
0.027577 0.382568 0.086369 76 0 153
-0.054452 -0.083428 -0.189967 0 255 0
0.046048 0.102701 0.246001 0 0 255
0.126808 -0.477435 -0.335269 0 255 0
0.030372 -0.088066 0.145055 0 0 255
0.049076 -0.091118 -0.157185 0 0 255
0.098194 -0.359413 -0.386544 0 255 0
-0.080468 0.185709 0.547147 0 0 255
-0.079098 0.152357 0.526055 0 0 255
-0.116634 -0.092697 -0.331901 0 255 0
0.031007 0.260722 -0.297433 76 0 153
-0.075847 0.098214 0.438036 0 0 255
-0.085862 0.103153 -0.215746 0 255 0
0.035638 0.049215 0.116422 0 0 255
-0.053877 -0.005190 -0.412127 0 255 0
-0.055539 0.150011 0.618150 0 0 255
-0.060740 -0.227061 -0.408328 0 255 0
-0.034042 -0.121615 -0.420527 0 255 0
0.006886 0.159736 0.326046 0 0 255
-0.076681 0.218451 0.573673 0 0 255
-0.095879 -0.141893 -0.375166 0 255 0
0.024845 0.322997 0.681902 0 0 255
0.037746 -0.013089 -0.179308 0 255 0
0.039528 -0.038048 -0.063141 0 0 255
0.071523 -0.107394 -0.015024 0 0 255
0.086193 -0.350017 -0.397420 0 255 0
-0.002494 0.370062 0.770544 0 0 255
0.038780 0.222273 0.789757 0 0 255
0.036061 -0.009104 0.304099 0 0 255
-0.033800 0.251761 0.533567 0 0 255
-0.078682 0.342666 0.855241 0 0 255
0.031655 0.330271 0.705836 0 0 255
-0.018475 0.205902 0.780792 0 0 255
0.028132 0.261130 -0.245372 76 0 153
0.061846 -0.181810 -0.119127 0 0 255
-0.042960 0.287917 0.932014 0 0 255
0.056100 0.281346 0.646637 0 0 255
-0.018444 0.353840 0.000238 76 0 153
0.107135 0.098269 -0.374627 0 255 0
-0.009716 -0.176531 -0.176172 0 255 0
0.039593 0.182277 0.403045 0 0 255
0.080907 -0.079824 -0.200994 0 255 0
-0.038444 0.315827 0.943848 0 0 255
-0.037611 -0.008156 -0.011277 0 0 255
0.120128 -0.484312 -0.249136 0 255 0
0.037064 -0.109307 0.090707 0 0 255
0.039417 -0.064191 -0.179555 0 255 0
0.012494 -0.024371 0.293717 0 0 255
0.047772 0.257090 0.576509 0 0 255
-0.102170 -0.163266 -0.366719 0 255 0
0.023394 0.261297 0.910666 255 0 0
0.048495 0.281777 0.898591 0 0 255
0.040121 0.248716 -0.179699 76 0 153
0.035199 0.182273 0.710172 0 0 255
-0.117276 -0.391738 -0.328888 0 255 0
-0.117141 -0.487228 -0.329495 0 255 0
-0.023907 -0.035079 0.267827 0 0 255
-0.052547 0.299567 0.941296 0 0 255
0.124987 0.148341 -0.341658 76 0 153
0.052759 0.256408 0.834589 0 0 255
0.010170 0.082372 0.164297 0 0 255
0.073938 0.155542 0.506818 0 0 255
-0.059230 -0.041926 -0.409240 0 255 0
-0.080213 -0.124133 -0.117900 0 0 255
0.070743 -0.020993 0.175080 0 0 255
-0.023703 0.270421 0.566264 0 0 255
-0.073568 -0.293460 -0.203724 0 255 0
0.056896 0.215306 0.508726 0 0 255
0.128350 -0.181821 -0.273433 0 255 0
-0.119749 -0.202690 -0.309459 0 255 0
-0.073385 0.351548 0.835789 0 0 255
0.083332 -0.455709 -0.399615 0 255 0
0.053779 0.128133 0.560749 0 0 255
0.010048 0.313761 -0.051628 76 0 153
0.051396 -0.064494 0.159020 0 0 255
0.012489 0.041142 -0.175507 0 255 0
0.121056 -0.249408 -0.251374 0 255 0
-0.043279 -0.032588 -0.054992 0 0 255
0.080020 -0.243647 -0.402160 0 255 0
-0.039426 -0.449604 -0.184217 0 255 0
0.079189 -0.498989 -0.212355 0 255 0
0.025864 -0.205891 -0.099266 0 0 255
-0.007536 0.217496 0.808885 0 0 255
0.128308 -0.438242 -0.272603 0 255 0
0.043137 0.383502 -0.010669 76 0 153
-0.019027 -0.046870 0.245729 0 0 255
-0.014111 0.170393 -0.412632 0 255 0
0.044609 -0.494106 -0.420468 0 255 0
0.043961 0.280847 -0.225901 76 0 153
0.073535 0.011878 0.165317 0 0 255
0.072290 0.314372 0.795095 0 0 255
-0.109493 -0.006782 -0.250220 0 255 0
0.064902 -0.098831 0.043516 0 0 255
-0.037207 -0.380597 -0.183290 0 255 0
-0.068534 -0.363684 -0.199746 0 255 0
-0.070659 -0.080050 -0.088774 0 0 255
0.067537 -0.293992 -0.191102 0 255 0
0.035272 0.238766 0.516944 0 0 255
0.023547 -0.019689 -0.043814 0 0 255
0.120060 -0.465997 -0.248967 0 255 0
0.039189 -0.019360 0.278003 0 0 255
-0.032495 -0.283949 -0.181014 0 255 0
-0.017210 0.160383 0.329117 0 0 255
0.072096 -0.086478 0.023847 0 0 255
-0.118866 -0.272234 -0.282921 0 255 0
0.005278 -0.143129 -0.175509 0 255 0
0.042319 0.332970 -0.059959 76 0 153
0.003194 -0.101934 0.132686 0 0 255
-0.005543 0.276741 -0.140640 76 0 153
-0.013362 0.368681 0.768071 0 0 255
0.001885 0.178471 -0.425497 76 0 153
-0.070267 0.212481 -0.200225 76 0 153
-0.046440 -0.449256 -0.415372 0 255 0
-0.080260 0.286974 0.789081 0 0 255
0.053364 -0.009296 0.271020 0 0 255
-0.010062 0.358851 0.747139 0 0 255
-0.005661 -0.034357 0.276009 0 0 255
0.125298 0.184373 -0.262367 76 0 153
0.048910 0.048750 0.404613 0 0 255
-0.088520 -0.148330 -0.217022 0 255 0
-0.001351 -0.209149 -0.175505 0 255 0
0.004782 -0.285696 -0.426535 0 255 0
-0.058414 -0.143352 -0.409733 0 255 0
0.105825 0.109007 -0.362810 0 255 0
-0.024690 0.402776 0.048504 76 0 153
0.001637 0.131999 -0.174525 76 0 153
-0.002963 0.241391 -0.426810 76 0 153
0.067005 0.028910 0.304874 0 0 255
0.041042 -0.156582 -0.421807 0 255 0
0.072485 0.261084 -0.287891 76 0 153
-0.024366 0.256918 -0.178996 76 0 153
0.116017 0.106451 -0.249381 0 255 0
0.131009 0.052316 -0.295130 0 255 0
-0.080295 0.168182 0.533152 0 0 255
0.041182 0.011647 0.340796 0 0 255
-0.115739 -0.113748 -0.335266 0 255 0
-0.080480 0.104855 0.369031 0 0 255
0.068746 0.180291 0.617770 0 0 255
-0.051910 0.083039 0.202003 0 0 255
-0.075110 -0.026565 0.043165 0 0 255
-0.010589 0.354516 0.021036 76 0 153
-0.102715 0.212511 -0.366453 76 0 153
0.012888 0.003073 -0.175738 0 255 0
0.076605 0.261084 -0.314080 76 0 153
-0.080452 0.107557 0.383890 0 0 255
0.052503 -0.194518 -0.184659 0 255 0
0.030734 -0.005271 -0.005204 0 0 255
0.039596 -0.081848 -0.155712 0 0 255
0.057913 -0.093612 -0.142000 0 0 255
-0.092672 -0.037868 -0.379344 0 255 0
-0.106387 0.253770 -0.242302 76 0 153
-0.071328 0.073265 0.408320 0 0 255
0.109979 -0.471876 -0.230519 0 255 0
-0.070261 0.104036 0.298980 0 0 255
0.017797 0.061602 -0.175912 0 255 0
-0.042982 0.136528 -0.401788 0 255 0
-0.036108 -0.218649 -0.130749 0 0 255
0.049280 0.080767 0.206902 0 0 255
-0.115875 0.031156 -0.334757 0 255 0
-0.119240 0.226185 -0.318075 76 0 153
-0.086577 -0.319274 -0.214648 0 255 0
0.068364 -0.137105 -0.052075 0 0 255
0.087400 -0.186270 -0.396494 0 255 0
-0.038981 -0.085265 -0.183307 0 255 0
0.002654 -0.499032 -0.392435 0 255 0
0.063224 0.056094 0.195386 0 0 255
-0.024113 0.278751 -0.194588 76 0 153
-0.024081 0.255847 -0.423530 76 0 153
0.026196 0.211445 0.447379 0 0 255
0.013337 0.438860 0.053329 76 0 153
0.068914 0.139537 0.397685 0 0 255
-0.116514 -0.380229 -0.269311 0 255 0
0.070470 0.239611 0.728958 0 0 255
0.070272 -0.069485 -0.033426 0 0 255
-0.061443 -0.070916 0.137437 0 0 255
0.064479 -0.020824 0.210326 0 0 255
-0.024677 0.234900 0.491771 0 0 255
0.051386 -0.046425 -0.057417 0 0 255
-0.000493 -0.165402 -0.001430 0 0 255
-0.005982 -0.131633 -0.425922 0 255 0
-0.076759 0.064105 0.247887 0 0 255
0.008593 -0.072627 -0.164524 0 0 255
0.112506 -0.258109 -0.234434 0 255 0
-0.105581 -0.087277 -0.241212 0 255 0
0.072478 0.322500 0.813820 0 0 255
-0.024690 0.411903 0.071589 76 0 153
-0.002533 0.263207 -0.322356 76 0 153
0.056571 0.031992 0.350595 0 0 255
-0.075625 -0.041082 0.014712 0 0 255
-0.032631 0.174809 0.369988 0 0 255
-0.065266 0.014692 -0.196797 0 255 0
0.073708 0.212879 0.597513 0 0 255
0.073998 0.091955 0.380388 0 0 255
-0.064157 -0.075301 -0.405825 0 255 0
0.052064 0.275803 0.877303 0 0 255
0.130984 0.034737 -0.294574 0 255 0
-0.067242 -0.162734 -0.075030 0 0 255
-0.079227 0.090002 -0.207946 0 255 0
0.045112 -0.089152 0.122027 0 0 255
0.029534 0.250794 0.863098 0 0 255
-0.023564 0.363561 -0.005815 76 0 153
0.002103 0.308769 0.640689 0 0 255
0.108834 0.211219 -0.228854 76 0 153
0.068015 -0.058044 0.116653 0 0 255
0.031098 -0.265138 -0.177546 0 255 0
-0.053798 0.028741 0.091712 0 0 255
-0.078648 0.223282 0.679773 0 0 255
0.034706 -0.001250 0.008453 0 0 255
-0.079934 -0.499032 -0.236074 0 255 0
-0.000306 0.260897 -0.418635 76 0 153
-0.079102 -0.110424 -0.099338 0 0 255
-0.098896 -0.481121 -0.371239 0 255 0
0.028341 0.401665 -0.015077 76 0 153
-0.072760 -0.046226 -0.008351 0 0 255
0.036810 0.141062 -0.401334 0 255 0
0.072176 -0.044699 0.034541 0 0 255
0.129350 0.006206 -0.323480 0 255 0
-0.090288 -0.054189 -0.219327 0 255 0
-0.057125 0.244661 0.867013 255 0 0
-0.008922 -0.230947 -0.139745 0 0 255
0.058202 0.208508 0.720063 0 0 255
-0.084756 -0.190322 -0.212590 0 255 0
0.049518 0.308952 0.690169 0 0 255
0.126761 -0.455747 -0.266378 0 255 0
0.091701 -0.096591 -0.209131 0 255 0
-0.009081 -0.068320 -0.156590 0 0 255
-0.055301 -0.244074 -0.411456 0 255 0
0.014878 0.357953 -0.121991 76 0 153
-0.010947 0.290621 0.963723 0 0 255
-0.059761 -0.499032 -0.306010 0 255 0
0.064527 0.079668 0.250333 0 0 255
0.012655 0.222450 0.462084 0 0 255
0.093318 -0.062054 -0.391368 0 255 0
-0.077224 0.037430 -0.206575 0 255 0
-0.119975 -0.217080 -0.304571 0 255 0
0.033978 0.166042 0.361418 0 0 255
0.045189 0.351307 0.769990 0 0 255
-0.031944 0.036385 0.414180 0 0 255
0.042041 0.217911 0.775944 0 0 255
0.008255 0.025534 0.042939 0 0 255
0.068161 0.286237 0.701895 0 0 255
0.017755 0.189212 0.742023 0 0 255
0.031699 -0.218703 -0.177674 0 255 0
-0.095992 -0.467853 -0.226754 0 255 0
0.013987 -0.114035 -0.176219 0 255 0
0.077211 -0.271746 -0.404324 0 255 0
-0.074477 -0.086073 0.058974 0 0 255
-0.012131 -0.005271 -0.023085 0 0 255
-0.004180 0.147182 -0.399887 0 255 0
-0.039749 0.045412 0.423155 0 0 255
0.037622 0.119495 -0.180982 0 255 0
-0.118927 -0.028575 -0.318391 0 255 0
0.045550 -0.167841 -0.045446 0 0 255
0.015534 0.355003 0.744182 0 0 255
-0.077250 -0.218900 -0.395774 0 255 0
0.126321 -0.278764 -0.335555 0 255 0
-0.071568 -0.330758 -0.400135 0 255 0
-0.029043 0.052814 -0.179749 0 255 0
-0.050209 -0.063397 -0.110423 0 0 255
-0.074559 0.206843 0.534617 0 0 255
0.005480 -0.160228 0.009270 0 0 255
0.093053 0.083297 -0.391890 0 255 0
-0.065427 0.037763 0.356191 0 0 255
0.098422 -0.391460 -0.215488 0 255 0
0.035062 -0.171176 -0.037363 0 0 255
-0.070143 -0.488430 -0.200860 0 255 0
-0.016169 -0.233479 -0.147380 0 0 255
-0.098994 0.111094 -0.248048 0 255 0
0.063852 0.210382 0.702091 0 0 255
-0.069030 -0.038365 0.181110 0 0 255
0.130195 -0.231800 -0.316870 0 255 0
0.122044 -0.179338 -0.255421 0 255 0
0.128895 -0.061922 -0.326411 0 255 0
0.035480 0.043425 0.416043 0 0 255
-0.079096 -0.138407 -0.089043 0 0 255
-0.027628 -0.020258 -0.046038 0 0 255
-0.078152 -0.097315 -0.080524 0 0 255
0.071371 0.321659 0.894075 0 0 255
0.064760 -0.434375 -0.189731 0 255 0
-0.079627 0.087545 0.324397 0 0 255
-0.022696 -0.027781 0.283972 0 0 255
0.062900 0.009671 -0.413100 0 255 0
0.105479 -0.305428 -0.377102 0 255 0
0.061329 0.048291 0.369839 0 0 255
-0.053188 -0.015188 0.273981 0 0 255
-0.067508 -0.004743 0.057235 0 0 255
0.046871 0.178871 -0.182043 76 0 153
-0.070975 0.261251 -0.234958 76 0 153
-0.062440 -0.168845 -0.194630 0 255 0
-0.021288 0.365972 0.014783 76 0 153
0.028292 0.142820 0.304919 0 0 255
0.071684 0.303167 0.766441 0 0 255
-0.048440 -0.335322 -0.414542 0 255 0
0.032394 0.273695 0.587106 0 0 255
-0.106818 0.167724 -0.358704 76 0 153
-0.057151 0.255607 0.861510 255 0 0
0.042390 0.232421 -0.421719 76 0 153
0.054197 -0.262660 -0.416759 0 255 0
-0.056242 -0.099594 0.088521 0 0 255
-0.050113 0.214753 0.477873 0 0 255
0.007340 0.341121 0.710034 0 0 255
-0.071030 -0.206396 -0.182148 0 0 255
-0.027196 0.002701 0.345834 0 0 255
0.031888 0.323030 0.925562 0 0 255
-0.024690 0.337512 -0.085019 76 0 153
-0.102434 0.221481 -0.234847 76 0 153
0.067509 0.190502 0.644594 0 0 255
-0.077862 0.266668 0.777968 0 0 255
0.126258 0.075909 -0.337007 0 255 0
0.008890 0.258042 0.535183 0 0 255
0.044681 0.261133 -0.262231 76 0 153
0.064951 -0.398407 -0.412139 0 255 0
-0.066217 0.192402 -0.197280 76 0 153
-0.080389 0.271101 0.738310 0 0 255
-0.102155 -0.499032 -0.274632 0 255 0
0.050731 0.132197 0.576734 0 0 255
-0.071830 0.348163 0.822059 0 0 255
0.036446 -0.206474 -0.113982 0 0 255
0.061582 0.231340 -0.188225 76 0 153
-0.013837 0.220739 0.826639 255 0 0
-0.061790 0.002201 0.054933 0 0 255
-0.119125 -0.484140 -0.316584 0 255 0
0.059016 -0.046099 -0.037188 0 0 255
0.044020 0.376424 -0.018145 76 0 153
-0.030539 0.134042 0.621738 0 0 255
0.019610 0.345662 0.014407 76 0 153
0.048935 -0.149143 -0.183191 0 255 0
0.012981 0.001372 -0.005421 0 0 255
0.070142 -0.131147 -0.164934 0 0 255
-0.114977 -0.175358 -0.337646 0 255 0
0.089470 -0.154272 -0.207270 0 255 0
0.026925 -0.029787 -0.062009 0 0 255
0.119803 -0.391254 -0.353204 0 255 0
0.065624 0.107414 0.476782 0 0 255
-0.000695 0.370380 -0.091158 76 0 153
0.044800 0.270783 -0.240250 76 0 153
-0.086619 0.060427 -0.387093 0 255 0
0.088852 -0.306494 -0.206827 0 255 0
0.006305 0.355834 0.039595 76 0 153
0.118967 -0.078628 -0.246827 0 255 0
-0.024962 -0.257222 -0.423174 0 255 0
-0.028526 0.301819 0.977847 0 0 255
-0.044667 -0.073737 0.164715 0 0 255
-0.002102 0.224478 0.844063 255 0 0
-0.078444 -0.132834 -0.152924 0 0 255
-0.020354 0.273555 -0.181735 76 0 153
-0.011321 0.248740 0.875137 0 0 255
-0.012834 -0.038542 -0.093440 0 0 255
-0.090022 -0.030438 -0.218980 0 255 0
-0.023515 -0.008865 -0.178436 0 255 0
-0.056564 -0.012862 0.010401 0 0 255
-0.034019 -0.499022 -0.409187 0 255 0
0.022511 0.073862 0.153492 0 0 255
0.046198 0.035047 -0.420072 0 255 0
0.033046 -0.055946 -0.109411 0 0 255
-0.024293 0.307293 -0.163278 76 0 153
-0.070185 0.037991 0.338148 0 0 255
-0.010111 -0.228527 -0.425561 0 255 0
0.000067 0.261194 -0.264455 76 0 153
0.008832 0.415068 0.134794 76 0 153
-0.039211 -0.164222 -0.418370 0 255 0
-0.038639 0.205650 -0.183408 76 0 153
0.062451 -0.238004 -0.413318 0 255 0
-0.047593 0.205899 0.752497 0 0 255
0.057803 -0.115731 0.035098 0 0 255
-0.071541 0.261251 -0.339909 76 0 153
0.023936 0.223594 0.810611 0 0 255
-0.094755 -0.267762 -0.376629 0 255 0
0.118720 -0.149534 -0.246604 0 255 0
-0.072895 -0.187661 -0.149777 0 0 255
0.071480 0.079142 0.380005 0 0 255
0.073739 -0.070469 0.002257 0 0 255
-0.046700 0.252719 0.852703 0 0 255
-0.113788 -0.073748 -0.260590 0 255 0
0.124224 -0.377924 -0.342780 0 255 0
-0.080507 -0.132083 -0.130401 0 0 255
-0.119789 -0.091008 -0.292942 0 255 0
0.054344 -0.212968 -0.185308 0 255 0
0.123661 -0.333698 -0.258010 0 255 0
0.037888 -0.186145 -0.073003 0 0 255
-0.030692 0.226073 0.477137 0 0 255
0.101134 -0.074906 -0.219144 0 255 0
-0.003635 -0.036084 -0.088617 0 0 255
0.071597 0.166495 0.563698 0 0 255
0.073902 0.089149 0.361674 0 0 255
-0.015522 -0.005644 0.334985 0 0 255
-0.027838 -0.079682 -0.171611 0 0 255
-0.110526 -0.133065 -0.349071 0 255 0
-0.034160 0.261149 -0.348501 76 0 153
-0.119585 -0.192996 -0.311329 0 255 0
0.017360 0.193824 0.752045 0 0 255
0.031308 -0.261485 -0.424184 0 255 0
0.032956 0.297389 -0.233348 76 0 153
-0.043844 -0.089940 0.131504 0 0 255
0.110134 0.251335 -0.230429 76 0 153
-0.071197 0.022708 0.130882 0 0 255
0.011604 0.225765 0.837051 255 0 0
-0.118652 0.143428 -0.278916 76 0 153
0.130823 -0.248695 -0.309966 0 255 0
-0.013564 0.043317 0.439707 0 0 255
0.036121 0.403885 0.116160 76 0 153
0.026857 0.011447 0.359848 0 0 255
0.065239 -0.112451 0.013280 0 0 255
-0.046035 -0.333446 -0.186455 0 255 0
-0.093094 -0.498791 -0.364302 0 255 0
-0.023535 0.387741 0.004394 76 0 153
0.053743 0.312620 0.707473 0 0 255
0.117198 -0.273804 -0.243114 0 255 0
0.015474 0.112336 -0.180819 0 255 0
0.128221 0.102520 -0.291521 0 255 0
0.048241 0.154530 0.360599 0 0 255
-0.009564 -0.369438 -0.425609 0 255 0
-0.080379 0.107647 0.393796 0 0 255
0.124704 -0.318495 -0.260964 0 255 0
-0.010938 -0.499032 -0.332750 0 255 0
-0.003280 0.095824 -0.426092 0 255 0
0.010618 0.202379 0.418434 0 0 255
-0.012245 0.408012 0.133737 76 0 153
0.021667 -0.107092 0.112561 0 0 255
-0.057946 0.170986 0.402686 0 0 255
0.131224 -0.423164 -0.301034 0 255 0
-0.007067 0.104799 0.570453 0 0 255
-0.112137 -0.244078 -0.256599 0 255 0
-0.021607 0.309809 -0.178366 76 0 153
-0.017676 0.061609 0.120472 0 0 255
0.072822 -0.168377 -0.156224 0 0 255
0.130896 -0.053480 -0.309094 0 255 0
0.063993 -0.146863 -0.054261 0 0 255
0.039532 -0.099800 -0.422260 0 255 0
-0.019336 0.333601 -0.136173 76 0 153
0.073784 0.165044 0.506496 0 0 255
0.053610 -0.309163 -0.417002 0 255 0
-0.037247 0.187911 0.402996 0 0 255
0.029521 0.172181 -0.416192 0 255 0
-0.046490 -0.021060 -0.415351 0 255 0
0.089074 -0.323461 -0.395209 0 255 0
0.124516 0.031354 -0.259738 0 255 0
-0.036377 -0.229493 -0.154038 0 0 255
0.068716 0.275602 0.683917 0 0 255
0.070180 -0.139023 -0.181287 0 0 255
-0.064523 0.073060 0.434384 0 0 255
-0.035107 0.237030 -0.181672 76 0 153
0.073649 0.215301 -0.194615 76 0 153
0.084776 -0.418851 -0.204247 0 255 0
-0.018179 0.278965 -0.161013 76 0 153
0.019612 0.260842 -0.304512 76 0 153
0.071261 -0.012297 0.095626 0 0 255
0.001559 0.400087 -0.028189 76 0 153
0.112845 -0.094177 -0.366636 0 255 0
0.015334 -0.227887 -0.175697 0 255 0
-0.066334 0.119858 0.315874 0 0 255
-0.068324 0.343418 0.797218 0 0 255
-0.068963 0.221908 0.542860 0 0 255
0.060934 0.280174 0.660515 0 0 255
-0.021125 0.378423 -0.031592 76 0 153
0.071408 0.155681 0.542592 0 0 255
0.029066 0.028471 -0.424568 0 255 0
-0.002866 0.285525 0.591720 0 0 255
-0.078828 -0.025203 0.078381 0 0 255
-0.024690 0.273654 -0.231311 76 0 153
-0.012095 0.348538 -0.123878 76 0 153
-0.045729 -0.127846 -0.186274 0 255 0
0.109265 -0.066504 -0.372181 0 255 0
-0.048586 0.092909 0.217962 0 0 255
-0.020397 0.371509 0.802490 0 0 255
0.073136 -0.173710 -0.170461 0 0 255
0.026161 -0.472834 -0.177162 0 255 0
0.025009 0.338602 -0.156402 76 0 153
-0.112376 0.126473 -0.256614 76 0 153
-0.074008 0.299827 0.877179 0 0 255
0.088903 -0.499032 -0.298152 0 255 0
-0.008804 0.369097 0.808615 0 0 255
0.011608 0.326674 0.681961 0 0 255
0.026473 0.142039 0.636377 0 0 255
0.034998 -0.056434 0.205467 0 0 255
0.079253 -0.406602 -0.402751 0 255 0
0.041833 0.034615 0.093567 0 0 255
0.130680 0.054222 -0.311538 0 255 0
-0.064209 -0.110940 -0.178554 0 0 255
0.067878 0.238415 0.744395 0 0 255
0.069421 0.100149 0.318494 0 0 255
-0.080372 -0.099334 -0.043122 0 0 255
-0.035342 0.161627 0.674725 0 0 255
-0.078254 -0.055760 0.008344 0 0 255
0.070058 0.044465 0.319994 0 0 255
0.036484 -0.066608 0.181853 0 0 255
-0.068348 -0.202555 -0.199289 0 255 0
-0.032099 0.226644 0.820374 255 0 0
0.126435 -0.498040 -0.295889 0 255 0
0.071673 0.039014 0.293295 0 0 255
0.021656 -0.220781 -0.425522 0 255 0
0.027417 0.254809 -0.425017 76 0 153
-0.015363 -0.398992 -0.177019 0 255 0
-0.077831 -0.149921 -0.103083 0 0 255
0.006804 0.109719 0.220187 0 0 255
0.033364 0.293665 0.630612 0 0 255
-0.114830 -0.150426 -0.338156 0 255 0
-0.080406 -0.154401 -0.164144 0 0 255
-0.098227 -0.248686 -0.372113 0 255 0
0.073710 0.303258 0.789100 0 0 255
-0.001445 0.012242 0.013528 0 0 255
0.112367 0.223620 -0.367575 76 0 153
-0.106849 -0.113226 -0.243901 0 255 0
0.129547 -0.402776 -0.279785 0 255 0
-0.113683 -0.056170 -0.341464 0 255 0
0.003896 -0.098231 -0.426496 0 255 0
0.121177 -0.466232 -0.350102 0 255 0
-0.059602 -0.040279 0.206409 0 0 255
-0.024385 0.051697 0.104007 0 0 255
-0.095780 0.021559 -0.375298 0 255 0
0.069365 -0.000529 0.231311 0 0 255
0.070963 -0.132431 -0.062732 0 0 255
0.072943 -0.077574 -0.028752 0 0 255
-0.080512 -0.039038 0.065843 0 0 255
-0.004151 0.083306 0.524864 0 0 255
0.010488 -0.499032 -0.205795 0 255 0
0.130939 -0.347739 -0.307557 0 255 0
0.045163 0.355689 0.779201 0 0 255
0.067800 0.353754 0.842908 0 0 255
0.055521 -0.196357 -0.129938 0 0 255
-0.012352 -0.451704 -0.176744 0 255 0
0.048386 -0.093913 0.104078 0 0 255
0.115069 -0.329080 -0.363085 0 255 0
0.023425 0.347413 -0.139376 76 0 153
-0.087360 0.192219 -0.215021 76 0 153
-0.079045 -0.053575 0.090839 0 0 255
0.049244 0.342324 0.760146 0 0 255
-0.057306 0.259953 -0.407673 76 0 153
-0.111735 0.129103 -0.331810 76 0 153
-0.119505 -0.136210 -0.289529 0 255 0
-0.116921 -0.224000 -0.271224 0 255 0
0.064577 0.225253 0.730492 0 0 255
-0.022490 0.047807 0.094504 0 0 255
-0.068646 -0.198036 -0.155180 0 0 255
0.057359 0.269026 0.850133 0 0 255
0.051154 0.180064 0.421198 0 0 255
0.033103 0.353489 0.848239 0 0 255
-0.062696 0.016767 0.320101 0 0 255
0.094638 -0.236453 -0.390482 0 255 0
0.030960 0.033637 0.077399 0 0 255
-0.030458 -0.013935 0.308738 0 0 255
0.090419 0.198796 -0.208423 76 0 153
-0.048102 -0.022712 0.268207 0 0 255
0.127998 -0.444418 -0.330629 0 255 0
0.014414 -0.202150 -0.083666 0 0 255
-0.058775 0.202763 0.722437 0 0 255
-0.119234 -0.193625 -0.286422 0 255 0
-0.066219 0.198778 0.482345 0 0 255
0.118150 -0.372881 -0.356643 0 255 0
0.015274 0.282137 0.589880 0 0 255
0.036233 0.069544 0.470237 0 0 255
-0.045277 0.256229 0.558817 0 0 255
-0.080311 -0.014686 0.144055 0 0 255
-0.033173 -0.466823 -0.420800 0 255 0
0.062251 0.267954 0.830647 0 0 255
0.131229 -0.238441 -0.300184 0 255 0
0.069601 0.249783 0.636522 0 0 255
0.019780 0.044475 -0.425686 0 255 0
0.006237 0.078837 -0.175235 0 255 0
0.017445 0.379645 -0.073314 76 0 153
0.127040 -0.330420 -0.334522 0 255 0
0.073860 0.212196 0.616338 0 0 255
0.016735 -0.420676 -0.176138 0 255 0
0.016089 0.286964 -0.110610 76 0 153
-0.022374 0.223784 0.816350 0 0 255
0.031493 0.284739 0.932155 0 0 255
-0.066659 0.002801 0.277434 0 0 255
0.054767 0.224552 0.762332 0 0 255
-0.068081 -0.164342 -0.402814 0 255 0
0.087192 -0.458871 -0.205833 0 255 0
0.010440 0.126352 0.613951 0 0 255
-0.094398 -0.372847 -0.377095 0 255 0
-0.060436 0.196178 0.704754 0 0 255
-0.012646 0.282103 -0.266607 76 0 153
-0.074906 -0.118288 -0.012307 0 0 255
-0.049199 0.057389 0.143681 0 0 255
-0.068862 0.298206 0.703845 0 0 255
0.008526 0.180954 -0.174992 76 0 153
0.059109 0.200038 0.699949 0 0 255
0.066938 0.102413 0.460651 0 0 255
0.056236 0.202257 0.711604 0 0 255
0.073409 0.244665 0.656754 0 0 255
-0.015733 0.009991 -0.177247 0 255 0
-0.076340 -0.274729 -0.205377 0 255 0
0.018554 0.265132 0.918610 255 0 0
0.073844 0.145204 0.497561 0 0 255
-0.090296 -0.118174 -0.219337 0 255 0
-0.027094 0.202284 -0.179459 76 0 153
0.018066 -0.103284 0.123035 0 0 255
-0.011925 0.439196 0.075552 76 0 153
-0.062140 0.106056 0.510250 0 0 255
0.070916 -0.103173 -0.000393 0 0 255
0.059416 0.236949 0.563160 0 0 255
-0.063567 -0.251488 -0.406277 0 255 0
-0.075691 0.299211 0.864522 0 0 255
-0.058791 -0.020130 0.000425 0 0 255
-0.117434 -0.086690 -0.273635 0 255 0
0.031105 0.152665 0.653294 0 0 255
0.054566 0.358877 0.807190 0 0 255
0.080184 -0.435789 -0.200501 0 255 0
0.116926 -0.381347 -0.242536 0 255 0
-0.039397 -0.057489 -0.113130 0 0 255
-0.077104 0.133946 -0.205731 76 0 153
-0.060646 0.178144 0.424374 0 0 255
0.055663 0.173583 -0.414536 76 0 153
-0.001016 0.226528 0.827725 0 0 255
0.114231 0.196844 -0.365002 76 0 153
-0.057803 0.140611 0.593149 0 0 255
-0.030942 -0.032656 -0.070041 0 0 255
-0.059332 0.137468 0.335138 0 0 255
-0.116545 -0.237307 -0.332320 0 255 0
-0.004833 0.437406 0.057942 76 0 153
0.123962 -0.131444 -0.343383 0 255 0
-0.117273 0.121806 -0.312053 76 0 153
-0.088789 0.175113 -0.216831 76 0 153
-0.043119 0.261251 -0.302107 76 0 153
-0.004999 -0.191826 -0.426008 0 255 0
0.029071 0.270619 0.905688 0 0 255
0.004660 -0.224344 -0.426530 0 255 0
0.125624 0.033266 -0.339044 0 255 0
0.033804 0.292238 -0.242492 76 0 153
-0.056732 0.147607 0.350285 0 0 255
-0.080500 0.092042 0.344631 0 0 255
0.111941 0.159476 -0.368964 76 0 153
-0.077342 0.070276 0.266417 0 0 255
0.118449 -0.004088 -0.356020 0 255 0
-0.077823 0.120152 0.376442 0 0 255
0.008930 -0.044824 0.252840 0 0 255
0.017493 0.246813 0.895968 255 0 0
0.068103 0.321423 0.775854 0 0 255
0.038164 0.411478 0.127447 76 0 153
-0.032357 0.366122 0.816165 0 0 255
0.024845 0.360986 0.043340 76 0 153
-0.037166 -0.204494 -0.102177 0 0 255
0.019092 0.268108 0.562428 0 0 255
-0.118413 0.071557 -0.279473 0 255 0
0.009013 0.223858 0.856184 255 0 0
-0.068171 0.177998 0.446625 0 0 255
-0.108851 -0.337927 -0.353101 0 255 0
0.127118 0.096369 -0.267693 0 255 0
0.072662 0.132435 0.481651 0 0 255
-0.093091 -0.304638 -0.378799 0 255 0
-0.014938 0.275647 0.571435 0 0 255
0.129538 -0.019261 -0.279718 0 255 0
0.035695 0.366820 -0.076267 76 0 153
-0.038507 -0.492051 -0.184028 0 255 0
0.059967 0.324824 0.751208 0 0 255
0.078245 -0.499032 -0.255008 0 255 0
0.119742 -0.214671 -0.352687 0 255 0
0.069201 -0.061882 0.103054 0 0 255
-0.105272 0.031056 -0.361145 0 255 0
-0.017934 0.003448 -0.002396 0 0 255
-0.054804 -0.313022 -0.411690 0 255 0
-0.080311 -0.144118 -0.129667 0 0 255
0.057073 0.261203 -0.277000 76 0 153
-0.039396 0.073035 -0.418292 0 255 0
0.060031 -0.001383 0.270231 0 0 255
-0.073364 -0.394051 -0.203249 0 255 0
-0.119355 -0.405321 -0.313960 0 255 0
-0.066148 -0.090965 0.081058 0 0 255
0.040868 0.083610 0.493477 0 0 255
0.130900 -0.099859 -0.307798 0 255 0
-0.118414 -0.100866 -0.279482 0 255 0
0.065402 0.301040 0.722055 0 0 255
0.130919 0.012291 -0.293083 0 255 0
-0.094793 -0.447333 -0.225198 0 255 0
0.110619 0.118015 -0.238251 0 255 0
0.064361 0.112355 0.492563 0 0 255
0.018842 0.168157 -0.408117 0 255 0
0.130077 -0.268824 -0.317960 0 255 0
-0.080241 0.102405 0.401119 0 0 255
-0.080434 -0.107485 -0.068605 0 0 255
0.002272 0.152143 0.670227 0 0 255
0.044951 0.402538 0.059170 76 0 153
-0.030628 -0.027451 -0.421591 0 255 0
0.026105 -0.022071 -0.424957 0 255 0
-0.063574 0.019873 0.096646 0 0 255
-0.025148 -0.156327 0.010602 0 0 255
-0.062491 0.297877 0.915258 0 0 255
0.090813 0.079211 -0.208339 0 255 0
0.023071 -0.092929 -0.425355 0 255 0
-0.077905 -0.037021 0.044713 0 0 255
0.098209 0.260918 -0.314209 76 0 153
-0.074886 0.025430 0.152217 0 0 255
0.069559 0.349773 0.857671 0 0 255
0.121159 0.029557 -0.251619 0 255 0
-0.080246 0.025607 0.238035 0 0 255
-0.004615 -0.056124 0.229918 0 0 255
-0.001667 -0.011309 -0.036287 0 0 255
-0.060724 0.293885 0.669414 0 0 255
0.058487 -0.058146 -0.064735 0 0 255
-0.077139 0.321355 0.795672 0 0 255
-0.112051 -0.244215 -0.345384 0 255 0
0.004902 -0.244790 -0.175230 0 255 0
-0.079160 0.025557 0.188884 0 0 255
0.035355 0.271081 -0.284660 76 0 153
-0.080295 0.149777 0.494151 0 0 255
0.058191 0.247353 0.881776 255 0 0
-0.000611 0.199997 0.410690 0 0 255
-0.037405 -0.236583 -0.183011 0 255 0
0.130911 -0.324009 -0.293052 0 255 0
0.032100 0.333769 -0.026267 76 0 153
-0.119573 -0.077865 -0.290305 0 255 0
0.084960 0.035440 -0.398366 0 255 0
-0.016774 0.073193 0.501037 0 0 255
-0.034626 0.033285 -0.181508 0 255 0
-0.074657 -0.438496 -0.397766 0 255 0
-0.046397 0.245854 -0.415746 76 0 153
-0.000844 0.008358 -0.426288 0 255 0
0.098120 -0.217033 -0.216157 0 255 0
-0.018566 0.145435 0.652820 0 0 255
0.129588 0.036022 -0.321677 0 255 0
-0.118742 -0.003349 -0.319789 0 255 0
-0.027047 0.207719 0.779638 0 0 255
-0.020005 0.260918 -0.334989 76 0 153
0.059110 0.122379 0.319595 0 0 255
0.006058 0.120929 0.604037 0 0 255
0.017755 -0.385549 -0.175895 0 255 0
0.072912 0.018680 0.238652 0 0 255
-0.045282 -0.011685 0.295190 0 0 255
-0.108506 0.070715 -0.247839 0 255 0
0.022372 0.086325 0.179775 0 0 255
-0.106986 -0.415176 -0.244196 0 255 0
-0.042390 -0.061678 0.193180 0 0 255
-0.050932 0.208060 0.464865 0 0 255
0.029079 0.260980 -0.414630 76 0 153
0.094499 0.260725 -0.351973 76 0 153
-0.074669 0.231437 0.587113 0 0 255
-0.074671 0.007086 0.254845 0 0 255
-0.027748 0.308884 0.961474 0 0 255
0.072762 -0.048470 -0.407732 0 255 0
-0.102848 -0.192980 -0.236171 0 255 0
-0.087638 -0.326856 -0.385896 0 255 0
-0.040980 0.144045 0.315445 0 0 255
-0.119164 0.097443 -0.311181 0 255 0
-0.064766 0.261251 -0.285786 76 0 153
0.087108 0.054018 -0.205536 0 255 0
-0.036192 0.253512 0.868007 0 0 255
0.016208 0.048117 0.444572 0 0 255
-0.075997 0.300051 0.739876 0 0 255
0.033058 0.339753 -0.141251 76 0 153
-0.038569 -0.186875 -0.183293 0 255 0
-0.119651 -0.028836 -0.291202 0 255 0
-0.062711 -0.267745 -0.406931 0 255 0
0.059751 -0.148741 -0.040326 0 0 255
0.072728 -0.499032 -0.388207 0 255 0
-0.059215 -0.219457 -0.171768 0 0 255
0.064699 -0.085108 0.073403 0 0 255
-0.035759 -0.446118 -0.419810 0 255 0
-0.072758 -0.105722 -0.134225 0 0 255
-0.113411 0.052387 -0.342119 0 255 0
0.009341 -0.065384 -0.148766 0 0 255
-0.005850 0.168900 -0.409633 0 255 0
0.021361 0.162444 0.682974 0 0 255
-0.074323 0.224973 0.717598 0 0 255
0.004105 -0.016653 0.313061 0 0 255
0.035009 0.257230 0.555665 0 0 255
0.097895 -0.455426 -0.215107 0 255 0
0.051186 -0.499032 -0.379876 0 255 0
0.071185 0.051883 -0.408722 0 255 0
0.042826 0.291596 -0.152948 76 0 153
0.090277 0.245143 -0.394699 76 0 153
-0.055176 0.346176 0.766591 0 0 255
-0.017843 -0.147780 -0.424581 0 255 0
-0.069612 0.168489 0.616448 0 0 255
-0.100647 -0.201264 -0.232817 0 255 0
-0.010342 0.261251 -0.214728 76 0 153
-0.076734 0.010265 -0.396169 0 255 0
0.001607 0.118075 -0.414099 0 255 0
0.030336 0.093776 0.203815 0 0 255
0.071926 0.202123 0.635985 0 0 255
-0.005324 -0.499032 -0.222616 0 255 0
0.105365 -0.163495 -0.376689 0 255 0
0.070683 0.292079 0.734825 0 0 255
-0.083438 -0.087078 -0.390576 0 255 0
0.066668 -0.008429 0.227303 0 0 255
0.091336 -0.478323 -0.208995 0 255 0
-0.024581 0.321314 -0.130308 76 0 153
-0.066454 0.171039 0.634139 0 0 255
0.012073 -0.450665 -0.175795 0 255 0
0.031194 0.166118 0.681628 0 0 255
-0.110128 0.034704 -0.350022 0 255 0
-0.080494 -0.010968 0.127621 0 0 255
-0.104116 0.261225 -0.303863 76 0 153
-0.118950 -0.043868 -0.283564 0 255 0
0.112657 0.260656 -0.243238 76 0 153
0.021555 0.295841 0.965048 0 0 255
-0.063895 -0.234359 -0.195893 0 255 0
-0.007884 -0.015159 -0.044176 0 0 255
-0.075738 0.151139 0.422421 0 0 255
0.114285 0.100967 -0.238073 0 255 0
0.128477 -0.287688 -0.328290 0 255 0
0.073047 -0.018709 0.158281 0 0 255
0.059099 0.222028 0.530362 0 0 255
-0.066759 -0.499032 -0.343648 0 255 0
0.007931 0.292659 -0.263665 76 0 153
0.066903 0.085365 0.271634 0 0 255
0.097453 -0.400217 -0.387374 0 255 0
-0.080378 0.321961 0.847379 0 0 255
-0.052959 -0.058575 0.182713 0 0 255
-0.097226 -0.236133 -0.373415 0 255 0
-0.088384 -0.171904 -0.384926 0 255 0
-0.117298 0.168491 -0.330353 76 0 153
-0.068481 0.356023 0.824549 0 0 255
0.068916 -0.097865 -0.104534 0 0 255
-0.079587 -0.092856 -0.057618 0 0 255
-0.021433 0.017841 0.030403 0 0 255
0.073725 -0.067263 0.049203 0 0 255
-0.111005 -0.289216 -0.253864 0 255 0
-0.067971 -0.006416 -0.402899 0 255 0
0.071676 0.078939 0.292020 0 0 255
-0.110065 -0.482892 -0.251601 0 255 0
-0.004603 0.391447 0.109360 76 0 153
-0.118110 -0.432733 -0.324572 0 255 0
-0.016797 0.120508 0.601118 0 0 255
0.130026 -0.169876 -0.286697 0 255 0
-0.027564 -0.309847 -0.422543 0 255 0
-0.017947 -0.485599 -0.177256 0 255 0
-0.068083 0.122357 0.328541 0 0 255
-0.084000 0.261076 -0.218911 76 0 153
0.065259 0.161318 0.592354 0 0 255
-0.034572 -0.362230 -0.181993 0 255 0
0.087674 -0.026722 -0.206086 0 255 0
0.001569 -0.440647 -0.426394 0 255 0
-0.080490 -0.086270 -0.031249 0 0 255
-0.110621 -0.373793 -0.252940 0 255 0
0.124732 0.218902 -0.341722 76 0 153
0.130156 0.055149 -0.284452 0 255 0
0.073101 0.332040 0.839087 0 0 255
-0.029119 0.301036 0.634666 0 0 255
0.038790 0.157512 0.349613 0 0 255
0.074756 -0.386977 -0.195753 0 255 0
0.060079 0.281484 0.883089 255 0 0
0.045451 0.118086 0.277199 0 0 255
-0.003837 -0.498962 -0.187941 0 255 0
-0.019720 0.348898 -0.015754 76 0 153
0.066116 0.108316 -0.196945 0 255 0
0.040132 0.370849 0.031214 76 0 153
0.040075 0.270049 0.911984 255 0 0
-0.039450 -0.013329 -0.418270 0 255 0
-0.031565 -0.119636 -0.180572 0 255 0
0.109844 -0.177167 -0.231388 0 255 0
-0.102425 -0.013788 -0.235468 0 255 0
-0.020711 0.305272 0.970644 0 0 255
0.097685 0.185525 -0.214964 76 0 153
0.023312 -0.419219 -0.425324 0 255 0
-0.020838 -0.289812 -0.424053 0 255 0
-0.069837 0.234470 0.755159 0 0 255
-0.012226 -0.081182 0.177106 0 0 255
0.076860 -0.015736 -0.404594 0 255 0
0.129572 -0.490635 -0.320626 0 255 0
0.070355 0.119828 0.367749 0 0 255
0.063855 -0.003395 0.071994 0 0 255
0.050661 0.077102 0.460350 0 0 255
0.097804 -0.411613 -0.386983 0 255 0
-0.024690 0.261808 -0.242157 76 0 153
0.088937 0.008135 -0.395315 0 255 0
-0.019390 0.332269 -0.050447 76 0 153
-0.023059 -0.124183 0.079821 0 0 255
0.131162 0.002187 -0.303074 0 255 0
0.073981 0.021842 0.229716 0 0 255
0.067822 0.260834 -0.401707 76 0 153
0.102482 -0.260304 -0.221221 0 255 0
-0.003479 -0.241549 -0.162397 0 0 255
-0.022030 0.410550 0.041808 76 0 153
-0.042022 0.336869 0.724834 0 0 255
0.044717 0.043105 0.116917 0 0 255
0.018183 -0.187031 -0.054213 0 0 255
-0.054882 0.259202 0.850630 0 0 255
0.100543 -0.091857 -0.382866 0 255 0
-0.077025 0.282699 0.712825 0 0 255
0.028466 0.284138 0.604104 0 0 255
-0.035533 0.024952 0.055843 0 0 255
0.067394 -0.072696 0.088280 0 0 255
0.045819 -0.006004 0.296272 0 0 255
-0.067896 0.048325 -0.199230 0 255 0
0.000414 0.214549 0.812275 255 0 0
0.056748 -0.014437 0.022365 0 0 255
0.083485 -0.335311 -0.399498 0 255 0
-0.079068 0.282987 0.802648 0 0 255
0.052168 -0.192456 -0.113560 0 0 255
0.017039 0.260917 -0.330291 76 0 153
-0.012592 0.257783 0.903384 255 0 0
0.051378 0.235190 0.538323 0 0 255
-0.119790 0.215677 -0.287830 76 0 153
0.053890 -0.035772 0.213736 0 0 255
-0.069855 -0.075095 0.100196 0 0 255
0.000255 0.036301 0.425244 0 0 255
-0.066986 0.025356 0.323875 0 0 255
-0.051675 -0.001811 0.021933 0 0 255
-0.080493 0.311391 0.809678 0 0 255
0.043121 0.280937 -0.178691 76 0 153
0.046570 0.260695 -0.353862 76 0 153
0.116410 -0.208404 -0.242207 0 255 0
0.064075 0.120688 0.335350 0 0 255
0.072745 0.093890 0.399329 0 0 255
0.020011 0.339737 0.001302 76 0 153
0.007723 -0.086363 -0.426472 0 255 0
0.099197 -0.494293 -0.216861 0 255 0
0.003166 0.193858 -0.427290 76 0 153
-0.068550 0.038925 0.154013 0 0 255
0.025699 0.309622 -0.218288 76 0 153
-0.083538 -0.068495 -0.390487 0 255 0
0.056482 0.106967 0.278597 0 0 255
-0.060532 -0.255348 -0.193319 0 255 0
-0.080287 -0.045284 0.082536 0 0 255
-0.118542 -0.473347 -0.321305 0 255 0
-0.117665 0.201729 -0.273148 76 0 153
0.027199 0.004133 0.010107 0 0 255
0.029400 -0.499032 -0.361210 0 255 0
0.089753 0.261251 -0.254208 76 0 153
-0.094811 0.260857 -0.233272 76 0 153
0.073990 -0.002492 0.179482 0 0 255
-0.025228 0.202682 -0.423451 76 0 153
-0.075580 -0.036620 0.154967 0 0 255
-0.003522 -0.024312 -0.175687 0 255 0
0.030829 -0.051295 -0.102446 0 0 255
-0.021145 -0.170371 -0.016775 0 0 255
0.071949 0.330927 0.827330 0 0 255
0.128848 0.210146 -0.275365 76 0 153
-0.077616 0.225803 0.598010 0 0 255
0.020284 0.293602 0.617056 0 0 255
0.130460 -0.314052 -0.287782 0 255 0
-0.052563 -0.096714 -0.176684 0 0 255
-0.034047 0.087045 0.518625 0 0 255
-0.015581 0.294964 0.612731 0 0 255
0.011526 -0.166107 -0.005478 0 0 255
0.066366 0.020600 0.289990 0 0 255
-0.035855 0.214644 0.457591 0 0 255
-0.012711 0.069168 -0.425260 0 255 0
-0.035315 -0.072491 0.179479 0 0 255
0.074277 -0.491000 -0.406430 0 255 0
-0.045347 0.261251 -0.321895 76 0 153
0.023874 0.419086 0.124931 76 0 153
-0.065690 0.083312 -0.404652 0 255 0
-0.080353 -0.055039 0.053142 0 0 255
0.003610 0.312095 0.953323 0 0 255
-0.042856 0.066404 0.153832 0 0 255
0.030156 -0.037138 0.253097 0 0 255
0.030303 0.425876 0.108258 76 0 153
-0.051779 -0.177350 -0.065892 0 0 255
-0.114391 -0.370071 -0.339532 0 255 0
-0.120064 -0.020697 -0.299253 0 255 0
0.006546 0.327022 -0.189159 76 0 153
0.070955 -0.019118 0.078692 0 0 255
-0.029455 -0.474362 -0.180301 0 255 0
-0.000444 -0.115961 -0.175532 0 255 0
-0.065918 -0.086209 -0.121821 0 0 255
0.017906 -0.096124 0.138288 0 0 255
0.006909 -0.057027 -0.132505 0 0 255
-0.054352 0.261251 -0.373490 76 0 153
0.127461 -0.312632 -0.270241 0 255 0
0.064314 -0.217301 -0.412439 0 255 0
-0.058261 0.096047 0.244915 0 0 255
0.007914 0.129052 0.261734 0 0 255
-0.014933 0.080906 0.518427 0 0 255
0.067616 0.259910 0.853811 255 0 0
-0.073666 0.310566 0.901229 0 0 255
-0.047828 -0.086873 -0.163435 0 0 255
0.104105 -0.247216 -0.223114 0 255 0
-0.054100 0.022471 0.351588 0 0 255
-0.054597 -0.399440 -0.411788 0 255 0
-0.097798 -0.225841 -0.229097 0 255 0
0.065704 0.019209 -0.190134 0 255 0
0.051438 -0.048293 0.193189 0 0 255
0.099652 -0.383326 -0.384691 0 255 0
0.131148 -0.340130 -0.298918 0 255 0
0.052327 0.328856 0.910772 0 0 255
-0.073830 -0.077037 -0.069013 0 0 255
0.020684 0.254849 0.878914 0 0 255
-0.100060 -0.340236 -0.232049 0 255 0
-0.060589 0.176211 -0.192972 76 0 153
0.106424 -0.143385 -0.226446 0 255 0
-0.011813 -0.499032 -0.363511 0 255 0
0.048230 -0.141616 0.003539 0 0 255
0.121725 -0.452151 -0.252985 0 255 0
0.058875 -0.062737 -0.072936 0 0 255
-0.106735 -0.013861 -0.243660 0 255 0
0.014174 0.026804 0.049077 0 0 255
0.030541 0.029394 -0.177440 0 255 0
0.059081 -0.092499 0.081147 0 0 255
-0.024690 0.283231 -0.202105 76 0 153
-0.011551 -0.045332 -0.176358 0 255 0
-0.093626 -0.406954 -0.223677 0 255 0
-0.053200 0.062699 -0.189636 0 255 0
-0.116098 -0.149823 -0.267766 0 255 0
0.061280 0.065963 0.407432 0 0 255
-0.080509 0.242961 0.662744 0 0 255
0.020044 0.129528 -0.175810 76 0 153
0.101340 -0.499032 -0.294303 0 255 0
-0.070547 -0.372050 -0.201271 0 255 0
-0.017633 0.224101 0.833603 255 0 0
-0.041078 0.198111 0.429960 0 0 255
-0.059802 -0.009193 0.271721 0 0 255
-0.072152 -0.262193 -0.202272 0 255 0
0.022137 0.103578 0.557922 0 0 255
-0.018790 0.317474 0.939666 0 0 255
-0.079231 0.140945 -0.377875 0 255 0
-0.043073 0.132425 0.602922 0 0 255
0.116364 -0.430417 -0.360102 0 255 0
-0.062784 0.344753 0.782020 0 0 255
-0.064658 0.034526 -0.196333 0 255 0
-0.057376 0.265411 0.601063 0 0 255
0.039930 0.075918 0.178477 0 0 255
-0.076288 -0.038222 0.026987 0 0 255
0.005645 0.346861 0.865065 0 0 255
0.064213 0.148006 0.393682 0 0 255
-0.075626 0.035163 0.176023 0 0 255
-0.109889 0.087317 -0.251175 0 255 0
-0.042049 -0.124725 -0.417192 0 255 0
0.056598 0.048804 0.386095 0 0 255
-0.046648 -0.051435 -0.090125 0 0 255
0.073728 0.320063 0.827010 0 0 255
0.068482 0.003704 0.106811 0 0 255
0.051364 0.069848 0.443298 0 0 255
0.059053 -0.101689 -0.154645 0 0 255
0.053665 -0.428326 -0.185150 0 255 0
-0.043762 0.261251 -0.389872 76 0 153
0.071967 -0.007012 0.193174 0 0 255
-0.071870 0.183872 0.640199 0 0 255
0.043901 -0.016121 -0.010221 0 0 255
-0.074603 0.260897 0.792336 0 0 255
-0.023633 0.338592 -0.101297 76 0 153
-0.119527 -0.378516 -0.311993 0 255 0
0.071282 -0.183005 -0.172717 0 0 255
0.129096 -0.359219 -0.276695 0 255 0
-0.084384 -0.022911 -0.389598 0 255 0
0.014587 0.419681 0.123469 76 0 153
-0.059160 -0.090033 -0.146561 0 0 255
-0.017050 0.261251 -0.369537 76 0 153
-0.053733 0.304458 0.948967 0 0 255
-0.036596 0.246439 0.852520 0 0 255
0.040012 0.054564 0.433232 0 0 255
0.031617 -0.180791 -0.052859 0 0 255
-0.023676 0.262749 0.913674 255 0 0
-0.070089 -0.410429 -0.200890 0 255 0
0.053428 0.233478 0.853031 255 0 0
0.025299 0.382183 -0.061511 76 0 153
-0.025809 -0.418946 -0.422993 0 255 0
-0.023672 0.382613 -0.005498 76 0 153
0.033660 0.292990 0.946560 0 0 255
-0.098377 -0.027767 -0.229848 0 255 0
0.052226 0.146496 -0.400102 0 255 0
0.006576 0.167461 0.342208 0 0 255
0.107515 -0.395172 -0.374456 0 255 0
0.018772 -0.372782 -0.425774 0 255 0
-0.105386 -0.238234 -0.360969 0 255 0
0.026967 -0.465081 -0.424844 0 255 0
-0.015133 0.296285 -0.229920 76 0 153
0.034662 0.254755 0.897112 255 0 0
-0.005351 0.301202 -0.236663 76 0 153
-0.071081 -0.074414 -0.201318 0 255 0
0.073858 0.224305 0.641692 0 0 255
-0.035645 -0.407863 -0.419858 0 255 0
-0.016870 0.412346 0.025870 76 0 153
0.053701 -0.499032 -0.353997 0 255 0
-0.044513 0.155238 0.344092 0 0 255
-0.028625 -0.020880 0.295113 0 0 255
0.041792 -0.090446 -0.171055 0 0 255
-0.059187 -0.211381 -0.154621 0 0 255
0.071309 -0.375111 -0.408648 0 255 0
-0.067717 -0.146693 -0.403094 0 255 0
-0.039051 0.246457 0.529386 0 0 255
0.040569 -0.499032 -0.389428 0 255 0
0.027984 0.414575 0.136006 76 0 153
-0.092697 0.166871 -0.221925 76 0 153
-0.019724 0.355256 -0.087616 76 0 153
0.002209 -0.415413 -0.175653 0 255 0
0.124740 -0.012892 -0.341506 0 255 0
0.025450 0.011378 0.023166 0 0 255
-0.055419 0.224156 0.509044 0 0 255
0.069363 -0.480592 -0.191999 0 255 0
-0.047357 -0.115213 0.073484 0 0 255
-0.115596 -0.048097 -0.266148 0 255 0
-0.093884 0.131054 -0.223533 76 0 153
-0.107925 0.261071 -0.331365 76 0 153
-0.044918 0.062763 0.453158 0 0 255
0.112756 0.017597 -0.366921 0 255 0
-0.025544 -0.203661 -0.089765 0 0 255
-0.043340 -0.154275 -0.003944 0 0 255
0.116707 -0.079210 -0.358927 0 255 0
-0.049716 0.352683 0.769108 0 0 255
0.042459 -0.368728 -0.421354 0 255 0
0.059646 0.160310 0.613921 0 0 255
0.083540 -0.498191 -0.396412 0 255 0
0.022674 -0.081160 -0.174366 0 0 255
0.007184 0.071564 -0.426495 0 255 0
0.112357 -0.492053 -0.234074 0 255 0
-0.077656 -0.058681 -0.395462 0 255 0
0.076610 -0.316312 -0.197293 0 255 0
-0.027220 0.116697 0.243419 0 0 255
0.073950 0.276431 0.764260 0 0 255
-0.004252 0.387779 -0.050461 76 0 153
0.069402 0.115478 0.476377 0 0 255
-0.024614 -0.058060 -0.128032 0 0 255
-0.071513 0.287326 0.692021 0 0 255
-0.031230 -0.092632 0.141800 0 0 255
-0.044511 0.202532 0.444141 0 0 255
0.044951 0.282875 -0.204761 76 0 153
-0.032759 0.077866 0.500877 0 0 255
-0.068260 0.153459 0.589919 0 0 255
0.069327 -0.104269 -0.114728 0 0 255
-0.015683 -0.024819 -0.063706 0 0 255
-0.022524 0.388524 0.057583 76 0 153
0.056552 0.186740 0.678012 0 0 255
-0.074855 -0.123421 -0.162812 0 0 255
0.017131 -0.352669 -0.175838 0 255 0
-0.080168 -0.146904 -0.116489 0 0 255
0.109454 -0.322191 -0.371936 0 255 0
-0.028988 0.294407 0.961896 0 0 255
0.084761 -0.398406 -0.203799 0 255 0
-0.060827 0.044026 0.141082 0 0 255
-0.063884 0.085431 0.462678 0 0 255
0.130749 -0.184820 -0.296790 0 255 0
-0.049621 0.055113 0.430759 0 0 255
-0.115220 0.082937 -0.264933 0 255 0
0.073990 -0.027589 0.126371 0 0 255
-0.116735 -0.019776 -0.270351 0 255 0
0.095661 -0.265157 -0.389390 0 255 0
0.048556 0.197300 -0.419453 76 0 153
0.010504 -0.437618 -0.426351 0 255 0
0.069572 0.015827 0.141346 0 0 255
-0.013961 0.096419 0.551813 0 0 255
0.131756 0.237706 -0.297822 76 0 153
