ply
format ascii 1.0
element vertex 1256
property float x
property float y
property float z
property uchar red
property uchar green
property uchar blue
end_header
-0.052122 -0.942634 -0.183133 127 127 0
0.298243 -0.252890 -0.160884 127 127 0
-0.349498 0.129123 0.017385 127 127 0
0.269895 -0.811454 0.236139 127 127 0
-0.340651 0.422455 0.084581 127 127 0
0.173860 -0.162506 -0.291660 127 127 0
0.324780 -0.821235 0.100278 127 127 0
0.250238 0.774745 -0.227393 0 255 0
-0.098243 -0.200682 -0.329300 127 127 0
-0.351450 -0.694310 -0.100599 127 127 0
-0.016870 0.052773 0.348276 127 127 0
0.341213 -0.810352 -0.032769 127 127 0
-0.154490 0.974724 -0.105957 0 255 0
-0.351450 -0.411933 -0.124237 127 127 0
-0.283584 0.216308 0.204544 127 127 0
-0.330923 -0.016446 -0.106702 127 127 0
-0.101540 0.961409 0.153976 0 255 0
0.341183 -0.656904 0.025369 127 127 0
-0.286815 0.493945 -0.193066 127 127 0
-0.348806 -0.086736 -0.015373 127 127 0
-0.146308 -0.340714 -0.342698 127 127 0
-0.130167 -0.932937 0.300053 127 127 0
-0.087075 -0.190388 0.339033 127 127 0
-0.044641 -0.942634 -0.029810 127 127 0
-0.254113 -0.067281 0.242951 127 127 0
0.087180 0.974724 -0.158976 0 255 0
0.176800 -0.083697 0.296672 127 127 0
-0.031195 0.215583 -0.339123 127 127 0
-0.040570 -0.928077 0.338110 127 127 0
0.016983 0.974724 0.216714 0 255 0
-0.116207 -0.763017 -0.331599 127 127 0
0.326101 0.366611 -0.093630 127 127 0
0.046499 0.896783 -0.335761 0 255 0
0.307718 0.889485 0.128028 0 255 0
-0.172088 -0.049014 -0.298712 127 127 0
0.002020 0.008819 -0.341616 127 127 0
0.020707 -0.942634 0.124019 127 127 0
-0.085140 -0.942634 -0.231756 127 127 0
0.095711 0.553797 0.313388 127 127 0
-0.042675 -0.131156 0.344879 127 127 0
0.067644 0.803499 0.340244 0 255 0
0.168594 -0.229114 -0.295700 127 127 0
0.248775 0.702663 -0.229299 0 255 0
-0.269322 0.172387 0.223131 127 127 0
-0.284634 0.693704 0.203176 0 255 0
-0.260958 0.161707 0.234030 127 127 0
0.145222 0.617205 0.312868 127 127 0
0.330178 0.145996 0.086372 127 127 0
0.096014 -0.257845 0.333250 127 127 0
0.297512 -0.578649 0.247823 127 127 0
-0.226467 -0.658694 0.311213 127 127 0
0.335848 -0.736760 -0.105933 127 127 0
0.303704 0.748413 0.154970 0 255 0
-0.347292 0.126328 -0.026874 127 127 0
-0.016405 0.363535 0.348337 127 127 0
0.060991 0.237880 0.341120 127 127 0
0.335884 -0.379234 -0.203265 127 127 0
0.224795 0.149929 -0.252576 127 127 0
-0.345117 0.310233 0.050659 127 127 0
0.308427 0.328391 -0.136298 127 127 0
0.092815 -0.942634 -0.207979 127 127 0
0.168752 -0.908889 -0.277238 127 127 0
-0.282036 -0.034628 -0.199294 127 127 0
0.164072 0.642478 0.305060 0 255 0
0.291888 0.923264 -0.088118 0 255 0
-0.351450 -0.477254 -0.164084 127 127 0
-0.245703 0.012346 0.251656 127 127 0
0.288328 0.013620 0.185021 127 127 0
0.048189 0.413395 0.342805 127 127 0
0.308700 0.572941 -0.038224 127 127 0
0.062795 -0.031835 -0.333615 127 127 0
0.139326 -0.290949 -0.337678 127 127 0
-0.182298 -0.889913 0.286823 127 127 0
-0.348234 -0.267555 -0.045777 127 127 0
-0.188363 -0.942634 -0.136217 127 127 0
-0.351450 -0.619340 -0.101922 127 127 0
0.332188 0.528307 -0.063838 127 127 0
0.258242 0.117981 -0.216961 127 127 0
0.305460 0.641434 -0.109752 127 127 0
0.221104 0.042500 0.262676 127 127 0
0.341170 -0.636437 0.019313 127 127 0
-0.258225 0.928660 0.162433 0 255 0
0.277510 -0.694162 0.250234 127 127 0
0.185792 0.858756 0.289772 0 255 0
0.163129 -0.118204 -0.298183 127 127 0
0.011686 0.668392 0.347611 0 255 0
0.230087 0.943840 0.124646 0 255 0
0.289267 -0.036294 -0.176529 127 127 0
0.006540 -0.017640 0.348288 127 127 0
0.119624 0.972301 0.190789 0 255 0
0.176701 0.444049 0.296748 127 127 0
-0.063463 0.928165 0.297106 0 255 0
0.329515 0.088549 -0.084143 127 127 0
-0.300540 0.343853 -0.175179 127 127 0
0.336381 -0.066568 0.039257 127 127 0
-0.050668 0.379740 0.343826 127 127 0
0.136783 0.469304 0.316363 127 127 0
-0.242639 -0.305269 -0.299302 127 127 0
-0.297763 -0.070928 0.186067 127 127 0
-0.004068 -0.604762 -0.342698 127 127 0
0.220438 0.757123 0.263187 0 255 0
-0.193859 0.910941 0.283588 0 255 0
-0.151367 -0.942634 0.280013 127 127 0
0.310768 -0.871361 0.110582 127 127 0
0.209062 -0.942634 0.214269 127 127 0
-0.044054 0.961409 -0.087646 0 255 0
0.142068 0.961409 -0.056811 0 255 0
-0.043238 0.899748 0.344804 0 255 0
-0.121523 -0.442044 0.349965 127 127 0
0.307614 -0.428956 0.247375 127 127 0
-0.351450 -0.469762 -0.097553 127 127 0
0.309942 -0.067989 -0.132641 127 127 0
-0.090518 0.961409 -0.015687 0 255 0
0.316931 -0.075137 0.123035 127 127 0
-0.177887 0.050989 -0.296310 127 127 0
-0.283892 0.931089 0.093789 0 255 0
0.222004 -0.415662 0.329118 127 127 0
0.062780 0.322162 -0.333617 127 127 0
-0.068390 -0.177742 -0.334226 127 127 0
0.268681 -0.188381 0.210625 127 127 0
0.311697 -0.849321 -0.111414 127 127 0
-0.034637 -0.942634 0.223481 127 127 0
0.298043 0.647139 -0.161367 0 255 0
-0.351437 -0.453317 0.069286 127 127 0
0.057306 0.917010 -0.314401 0 255 0
0.127117 -0.386338 0.349965 127 127 0
-0.253763 -0.455531 -0.305337 127 127 0
-0.283184 0.273954 0.205066 127 127 0
-0.351450 -0.861433 -0.031025 127 127 0
-0.351403 -0.485090 -0.032290 127 127 0
0.018439 0.803295 -0.339455 0 255 0
0.043694 0.870143 -0.336130 0 255 0
-0.121658 -0.831437 -0.316041 127 127 0
-0.201402 -0.347870 -0.342698 127 127 0
0.312311 0.777143 -0.126923 0 255 0
0.307083 -0.850981 0.129043 127 127 0
0.292665 -0.884688 -0.140765 127 127 0
0.147711 0.723840 -0.304569 0 255 0
0.173153 0.588589 -0.259364 127 127 0
0.239635 -0.796964 0.271526 127 127 0
-0.274153 0.738584 0.216835 0 255 0
0.103310 -0.212290 -0.322961 127 127 0
0.267626 -0.936823 -0.176749 127 127 0
0.169090 0.099002 -0.295320 127 127 0
0.328768 -0.371920 0.219806 127 127 0
-0.321282 0.087786 -0.129979 127 127 0
0.268219 0.401970 -0.203959 127 127 0
0.313383 0.641849 0.112207 127 127 0
0.097040 0.732075 -0.325558 0 255 0
-0.289203 0.720735 -0.189953 0 255 0
0.301924 0.750206 -0.151999 0 255 0
0.222759 -0.383109 -0.321272 127 127 0
-0.190797 0.939109 0.206735 0 255 0
-0.323121 -0.601726 -0.215798 127 127 0
0.318050 0.052459 -0.113066 127 127 0
0.287465 0.627105 -0.178878 127 127 0
-0.102826 0.967377 0.206071 0 255 0
-0.274424 0.629995 0.214081 127 127 0
-0.124232 -0.942634 -0.277268 127 127 0
0.217315 0.924972 -0.208653 0 255 0
0.333108 0.100640 -0.056855 127 127 0
0.007018 0.562236 -0.314098 127 127 0
-0.078737 0.046105 -0.332864 127 127 0
-0.323339 0.911888 -0.103217 0 255 0
0.178252 -0.442116 -0.342698 127 127 0
0.082733 0.707390 0.338257 0 255 0
-0.342871 0.069514 -0.060450 127 127 0
-0.313620 -0.242893 0.155744 127 127 0
-0.146138 0.890873 0.316729 0 255 0
0.325529 -0.672992 -0.160771 127 127 0
-0.312011 0.511883 0.159629 127 127 0
0.320247 0.912518 -0.079872 0 255 0
0.223828 -0.588498 -0.309146 127 127 0
-0.263102 -0.579864 -0.288222 127 127 0
-0.138986 -0.116032 -0.312424 127 127 0
-0.114504 0.791537 -0.322565 0 255 0
-0.160022 0.919976 -0.275153 0 255 0
0.216056 0.464044 -0.259282 127 127 0
0.001373 -0.719124 -0.342698 127 127 0
-0.077056 0.962921 -0.209477 0 255 0
0.323429 0.304503 -0.100080 127 127 0
0.341202 -0.319025 0.091634 127 127 0
0.341213 -0.693058 0.108036 127 127 0
-0.104964 -0.942634 0.156902 127 127 0
-0.268801 -0.942634 0.055247 127 127 0
-0.232400 0.956781 -0.061068 0 255 0
-0.337305 0.828107 0.098563 0 255 0
-0.324741 -0.017625 0.128894 127 127 0
-0.351391 -0.581781 -0.008567 127 127 0
-0.197993 -0.942634 -0.158934 127 127 0
-0.256876 0.258907 -0.232082 127 127 0
0.311056 -0.783844 -0.143689 127 127 0
-0.280807 -0.654173 0.267468 127 127 0
-0.111258 0.822131 0.331176 0 255 0
0.136058 0.238562 0.316664 127 127 0
0.285886 -0.599101 -0.251520 127 127 0
-0.224111 -0.723877 0.301778 127 127 0
0.163993 0.974724 0.089396 0 255 0
-0.301352 0.697158 -0.174122 0 255 0
0.283729 0.600936 -0.182156 127 127 0
0.312638 0.031040 0.133400 127 127 0
-0.284983 -0.851113 -0.199783 127 127 0
-0.127719 0.634696 0.317688 127 127 0
-0.342397 0.613896 0.071320 127 127 0
-0.328801 -0.640616 -0.192778 127 127 0
0.192224 0.428774 0.284837 127 127 0
-0.282587 -0.730756 -0.242198 127 127 0
0.329330 0.043211 0.092814 127 127 0
0.164912 0.946131 0.198996 0 255 0
0.203371 0.526300 -0.269016 127 127 0
-0.023246 -0.419220 0.349965 127 127 0
-0.313670 0.651126 0.155622 0 255 0
-0.344517 0.038951 0.055216 127 127 0
-0.105474 0.936139 0.265988 0 255 0
0.014092 0.105016 -0.340027 127 127 0
-0.323368 -0.781045 -0.139994 127 127 0
-0.020774 0.088846 -0.340495 127 127 0
0.341213 -0.420682 0.103793 127 127 0
0.330470 -0.411805 0.217589 127 127 0
-0.351418 -0.572685 0.036828 127 127 0
-0.149758 -0.268417 -0.313208 127 127 0
-0.293063 -0.486991 0.279679 127 127 0
-0.127668 0.961409 -0.109112 0 255 0
-0.201322 -0.637088 0.328089 127 127 0
0.221706 -0.315213 0.327310 127 127 0
0.014414 0.853055 0.347252 0 255 0
-0.137317 0.941011 0.241037 0 255 0
0.041286 0.123053 -0.336447 127 127 0
-0.113138 -0.214203 0.330398 127 127 0
-0.096603 0.127348 -0.329979 127 127 0
-0.351450 -0.642834 0.070574 127 127 0
0.341213 -0.310853 0.184960 127 127 0
-0.034007 0.076928 0.346020 127 127 0
-0.265825 -0.141324 0.227687 127 127 0
0.246630 0.936486 -0.120310 0 255 0
0.272540 -0.839000 -0.210792 127 127 0
0.323401 -0.857555 0.086562 127 127 0
-0.244969 0.293728 0.252219 127 127 0
-0.135266 -0.236734 -0.313965 127 127 0
-0.211609 -0.150132 0.277817 127 127 0
0.312960 0.692265 0.132623 0 255 0
0.284240 0.608676 0.190349 127 127 0
-0.026002 -0.603434 -0.342698 127 127 0
0.337664 -0.082356 -0.022242 127 127 0
0.228980 0.045940 -0.249365 127 127 0
0.288785 -0.096787 -0.177158 127 127 0
-0.327517 0.882099 -0.114925 0 255 0
0.063301 0.958362 -0.218291 0 255 0
-0.126894 -0.381379 0.349965 127 127 0
0.337162 0.821540 0.033327 0 255 0
0.107879 0.597859 0.323957 127 127 0
-0.084823 0.171097 0.339330 127 127 0
-0.022898 -0.566155 -0.342698 127 127 0
-0.170633 -0.094889 -0.299315 127 127 0
0.248457 -0.488939 0.308820 127 127 0
-0.238904 -0.431255 0.324005 127 127 0
0.311564 0.914066 -0.094232 0 255 0
-0.055539 0.961409 0.082417 0 255 0
0.341172 -0.285728 -0.067027 127 127 0
-0.346500 0.326347 0.040153 127 127 0
0.324132 -0.875280 -0.069211 127 127 0
0.341213 -0.502452 -0.144860 127 127 0
-0.113774 0.229494 -0.322867 127 127 0
-0.192770 0.824837 0.292273 0 255 0
0.065841 -0.530583 0.349965 127 127 0
-0.096590 -0.942634 0.033010 127 127 0
0.334503 0.772473 0.053521 0 255 0
0.151750 0.182571 0.310164 127 127 0
0.234375 0.355525 -0.245225 127 127 0
-0.150888 0.602766 -0.307494 127 127 0
-0.330503 0.541625 0.098535 127 127 0
0.334788 0.186609 -0.044093 127 127 0
-0.222416 -0.417248 0.336657 127 127 0
0.341213 -0.799517 -0.049708 127 127 0
0.255156 0.378293 0.228250 127 127 0
0.249006 -0.083971 0.236265 127 127 0
0.322058 0.641849 0.094317 127 127 0
-0.340191 0.649244 0.088078 0 255 0
-0.115942 -0.845956 0.322853 127 127 0
0.021098 0.061532 -0.339105 127 127 0
0.125972 -0.005952 -0.313574 127 127 0
-0.237471 0.213450 0.257973 127 127 0
0.056026 0.818570 0.341773 0 255 0
-0.098329 -0.101880 0.336532 127 127 0
-0.157471 -0.514992 -0.342698 127 127 0
0.095130 -0.594264 0.349965 127 127 0
-0.013559 0.930872 0.297585 0 255 0
-0.326122 -0.942634 -0.013754 127 127 0
-0.130800 0.961409 -0.056412 0 255 0
-0.324968 -0.453171 0.238101 127 127 0
-0.126222 -0.942634 -0.204766 127 127 0
0.068108 0.281579 -0.332916 127 127 0
-0.184015 0.047906 0.298991 127 127 0
0.197513 0.641849 -0.258196 127 127 0
0.201480 0.548611 0.260994 127 127 0
0.335388 -0.792107 -0.081071 127 127 0
-0.283924 -0.788960 0.235803 127 127 0
-0.030502 -0.942634 0.074923 127 127 0
0.170590 -0.317418 0.349965 127 127 0
-0.345039 -0.166357 -0.043981 127 127 0
-0.351450 -0.418097 -0.108910 127 127 0
-0.170267 -0.911970 0.287519 127 127 0
0.320657 0.889844 -0.106773 0 255 0
-0.141220 -0.254532 0.318766 127 127 0
-0.351450 -0.559562 0.090038 127 127 0
-0.233415 0.177289 0.261085 127 127 0
-0.251476 0.050317 0.246388 127 127 0
-0.029401 0.785514 0.346626 0 255 0
0.261029 0.337662 -0.213330 127 127 0
-0.342212 0.309670 -0.065459 127 127 0
-0.220451 -0.132464 -0.263765 127 127 0
0.233498 -0.546129 0.315652 127 127 0
-0.338124 0.461009 -0.089317 127 127 0
-0.324597 0.916905 0.056875 0 255 0
0.199638 -0.515210 0.346280 127 127 0
0.304941 0.331529 0.151984 127 127 0
0.087326 -0.942634 -0.020618 127 127 0
-0.351450 -0.289373 0.118985 127 127 0
-0.072283 0.550995 -0.317913 127 127 0
-0.307847 0.074474 0.169682 127 127 0
0.251036 0.139102 0.233619 127 127 0
-0.182126 -0.406196 -0.342698 127 127 0
0.303510 0.570563 -0.077649 127 127 0
0.184344 0.960384 0.129124 0 255 0
0.341213 -0.827938 0.040634 127 127 0
0.341156 -0.367113 0.050101 127 127 0
0.170791 0.974724 0.062699 0 255 0
-0.340978 0.751768 0.082095 0 255 0
0.179769 -0.284796 -0.313882 127 127 0
-0.136264 -0.503482 0.349965 127 127 0
-0.238968 0.041899 0.256824 127 127 0
0.339637 -0.280010 -0.103912 127 127 0
0.300084 -0.383896 -0.249922 127 127 0
-0.040897 0.110061 0.345113 127 127 0
0.249497 0.781585 0.235625 0 255 0
-0.351450 -0.413804 0.188313 127 127 0
0.135547 0.641849 0.303287 127 127 0
-0.073910 -0.942634 -0.012330 127 127 0
-0.341486 0.130405 0.078239 127 127 0
0.301669 0.284784 0.159883 127 127 0
-0.108359 0.502748 -0.325110 127 127 0
-0.179069 -0.624163 0.339819 127 127 0
-0.278109 0.903126 0.211679 0 255 0
-0.196423 0.956744 -0.132794 0 255 0
0.315806 0.737181 0.125751 0 255 0
-0.308029 0.875758 0.169242 0 255 0
-0.140101 0.493693 0.319229 127 127 0
0.147673 -0.942634 -0.004972 127 127 0
0.232279 0.710305 -0.246834 0 255 0
-0.087291 0.957630 0.221631 0 255 0
-0.281664 -0.401237 0.291195 127 127 0
-0.249256 -0.336770 -0.308795 127 127 0
-0.287520 -0.137824 -0.192147 127 127 0
-0.351450 -0.404242 -0.157828 127 127 0
0.041603 -0.942634 -0.062558 127 127 0
-0.034456 -0.046503 -0.338694 127 127 0
-0.332000 0.691283 -0.104101 0 255 0
-0.195053 0.609159 -0.283253 127 127 0
-0.319515 0.373091 0.141513 127 127 0
0.341164 -0.665021 0.010263 127 127 0
0.292249 0.487829 0.179911 127 127 0
-0.003476 0.868633 0.349607 0 255 0
0.184194 0.061388 0.290998 127 127 0
0.324506 -0.238128 -0.097481 127 127 0
0.115409 -0.312174 0.349965 127 127 0
-0.158274 0.854990 -0.304434 0 255 0
0.125423 0.588589 -0.297199 127 127 0
0.254152 0.406116 -0.222292 127 127 0
0.043198 0.172192 0.343462 127 127 0
-0.032204 0.819992 0.346257 0 255 0
0.309729 0.162725 0.140422 127 127 0
0.294295 -0.656484 -0.228810 127 127 0
0.130795 -0.700738 -0.333422 127 127 0
0.174193 0.831532 0.298673 0 255 0
0.262325 -0.090191 -0.211640 127 127 0
-0.312396 -0.302329 0.230667 127 127 0
0.090923 -0.942634 -0.162025 127 127 0
0.230949 0.607666 -0.247854 127 127 0
-0.106532 0.380266 0.333134 127 127 0
0.259895 -0.733413 -0.257886 127 127 0
-0.133092 0.779425 0.322133 0 255 0
-0.034685 -0.942634 -0.187286 127 127 0
0.332254 -0.000206 0.070604 127 127 0
-0.111527 -0.683389 -0.342698 127 127 0
0.269047 0.586706 -0.159135 127 127 0
-0.012545 0.191278 0.348845 127 127 0
0.116761 0.034774 0.324657 127 127 0
0.182176 0.632547 0.287488 127 127 0
0.045988 0.173116 -0.335828 127 127 0
-0.205337 -0.434100 0.349763 127 127 0
-0.287401 -0.853572 0.200057 127 127 0
-0.313653 -0.903236 -0.106104 127 127 0
0.265273 0.839728 -0.207798 0 255 0
0.226038 0.623072 0.258890 127 127 0
0.333115 0.165082 -0.056795 127 127 0
-0.116488 0.586228 0.300186 127 127 0
-0.048489 0.961409 -0.061870 0 255 0
0.202738 -0.030024 0.276769 127 127 0
-0.293692 0.765426 0.191372 0 255 0
0.225372 -0.775064 0.285911 127 127 0
0.272681 -0.836977 0.218668 127 127 0
0.247997 -0.415549 0.309173 127 127 0
-0.301559 0.449685 0.181120 127 127 0
-0.141299 0.490462 -0.311466 127 127 0
0.169273 -0.942634 -0.199330 127 127 0
-0.027698 0.632846 -0.335234 127 127 0
0.306543 0.410100 -0.140846 127 127 0
-0.330434 -0.151822 0.115150 127 127 0
-0.275510 0.311017 0.215067 127 127 0
0.341213 -0.617552 -0.127231 127 127 0
-0.152990 -0.824828 0.311615 127 127 0
0.010826 0.915656 0.330833 0 255 0
-0.016168 -0.942634 -0.237178 127 127 0
0.341213 -0.340653 -0.148548 127 127 0
-0.126711 -0.210160 -0.317508 127 127 0
-0.182654 0.415094 -0.292768 127 127 0
-0.351393 -0.598004 -0.007274 127 127 0
0.047214 -0.942634 0.198353 127 127 0
-0.133789 -0.942634 0.202249 127 127 0
-0.331298 -0.205801 0.113065 127 127 0
-0.067127 -0.285619 -0.342698 127 127 0
-0.217856 0.054436 -0.265756 127 127 0
0.341173 -0.622793 -0.016378 127 127 0
-0.012554 0.518057 0.348844 127 127 0
0.243115 -0.183298 -0.236675 127 127 0
0.071358 -0.942634 -0.089264 127 127 0
0.279547 -0.900689 -0.164925 127 127 0
0.276280 -0.920129 -0.163691 127 127 0
0.223315 0.641849 -0.237127 127 127 0
-0.340892 0.664022 -0.075487 0 255 0
0.283900 -0.478232 -0.271013 127 127 0
0.325429 -0.750583 0.131867 127 127 0
0.001746 -0.374268 0.349965 127 127 0
0.192105 0.484810 -0.277660 127 127 0
0.334829 0.657493 0.051044 0 255 0
0.293878 0.735394 -0.170520 0 255 0
0.186471 -0.942634 0.143374 127 127 0
0.217180 0.450233 0.265688 127 127 0
-0.076317 -0.483109 -0.342698 127 127 0
-0.184840 0.779187 0.298358 0 255 0
-0.301584 0.074024 -0.173819 127 127 0
0.339530 -0.266815 -0.029296 127 127 0
-0.326081 0.896435 0.125660 0 255 0
0.259080 0.935116 -0.098232 0 255 0
-0.096989 0.179471 -0.329820 127 127 0
-0.199019 -0.669019 0.322836 127 127 0
-0.351450 -0.345610 0.127835 127 127 0
-0.257580 -0.195845 0.238433 127 127 0
0.226488 -0.153050 -0.251277 127 127 0
0.182144 -0.572672 -0.337047 127 127 0
-0.254065 -0.543068 0.308205 127 127 0
-0.342256 0.384048 -0.065125 127 127 0
0.172587 0.974724 0.112364 0 255 0
-0.254511 0.947213 0.070733 0 255 0
0.332381 -0.083802 0.069644 127 127 0
-0.137241 0.541813 0.313397 127 127 0
0.309207 0.716649 -0.134415 0 255 0
0.334714 0.750481 0.051923 0 255 0
0.323544 -0.909168 -0.054728 127 127 0
-0.339743 0.720882 -0.084208 0 255 0
-0.113804 0.270268 0.330122 127 127 0
0.307135 0.585833 -0.050115 127 127 0
0.341139 -0.460944 0.023599 127 127 0
-0.093170 -0.161633 0.338231 127 127 0
-0.320965 0.437519 -0.130744 127 127 0
-0.175226 -0.438020 -0.342698 127 127 0
0.321016 -0.070047 -0.105905 127 127 0
0.337608 0.530239 0.029937 127 127 0
-0.241147 -0.106068 0.255152 127 127 0
0.291463 0.577767 -0.107665 127 127 0
-0.127330 -0.942634 -0.029939 127 127 0
0.181078 -0.221636 0.293389 127 127 0
0.309165 -0.015958 0.141785 127 127 0
-0.073272 -0.815304 -0.339219 127 127 0
-0.182902 0.335316 0.299845 127 127 0
-0.342317 0.495080 0.071929 127 127 0
0.271627 -0.109791 0.206786 127 127 0
0.219556 0.647693 0.263864 0 255 0
0.041542 -0.942634 -0.142069 127 127 0
-0.208558 0.596814 0.273743 127 127 0
-0.188152 -0.049461 -0.288548 127 127 0
-0.209122 0.202944 -0.272458 127 127 0
0.274112 -0.246032 0.203547 127 127 0
-0.155980 0.961409 -0.087353 0 255 0
0.269801 0.368919 0.209165 127 127 0
0.140058 -0.942634 0.132829 127 127 0
-0.157448 -0.942634 -0.202620 127 127 0
-0.032344 0.653981 0.346239 0 255 0
0.271914 0.749269 0.206412 0 255 0
-0.179334 0.743660 0.302583 0 255 0
-0.288688 -0.117173 -0.190625 127 127 0
0.256085 0.944289 0.031523 0 255 0
-0.298038 0.928554 -0.052256 0 255 0
-0.328361 0.589719 -0.077318 127 127 0
-0.351431 -0.712762 -0.017618 127 127 0
-0.165127 -0.682231 0.334306 127 127 0
-0.310202 -0.129655 -0.156727 127 127 0
0.031620 0.710966 0.344986 0 255 0
-0.340250 0.875727 0.087626 0 255 0
0.116291 0.421666 -0.317584 127 127 0
0.176093 0.801058 -0.289947 0 255 0
-0.306337 0.016148 0.173327 127 127 0
0.028034 -0.869489 0.349965 127 127 0
0.163596 -0.740724 0.319330 127 127 0
-0.231547 0.938476 0.161230 0 255 0
-0.351450 -0.530991 0.095706 127 127 0
-0.336193 0.033943 -0.093979 127 127 0
-0.060641 -0.422557 -0.342698 127 127 0
0.020155 -0.243129 -0.339229 127 127 0
-0.054920 0.084694 0.343267 127 127 0
0.131294 0.839214 -0.311370 0 255 0
-0.344205 0.641849 -0.013951 127 127 0
0.278144 0.710406 -0.191025 0 255 0
-0.117520 0.961409 -0.095169 0 255 0
0.279950 -0.628361 0.260531 127 127 0
0.064119 0.675698 0.340708 0 255 0
-0.351450 -0.387333 0.114598 127 127 0
0.146063 -0.313411 0.349965 127 127 0
-0.263436 0.351398 -0.223533 127 127 0
0.127079 -0.093349 -0.313116 127 127 0
0.198977 0.882695 -0.272387 0 255 0
0.168882 0.908703 0.301189 0 255 0
0.289456 0.686006 -0.176283 0 255 0
0.104053 0.504724 -0.322653 127 127 0
0.253847 -0.570202 0.296254 127 127 0
-0.242122 -0.782317 0.279774 127 127 0
-0.330166 0.588589 -0.049423 127 127 0
-0.113080 0.211849 0.330422 127 127 0
-0.148471 -0.296280 -0.342698 127 127 0
-0.345820 -0.181481 0.045322 127 127 0
-0.290595 0.464554 0.195407 127 127 0
-0.219939 -0.874153 -0.267028 127 127 0
0.334997 0.489702 0.049772 127 127 0
0.246254 -0.085753 -0.232584 127 127 0
0.337401 0.310938 -0.024241 127 127 0
-0.285499 0.918096 0.165598 0 255 0
0.065071 0.555258 0.320483 127 127 0
-0.351439 -0.582303 -0.043426 127 127 0
0.263717 0.613176 0.217094 127 127 0
-0.187233 -0.707045 0.320326 127 127 0
0.333843 0.678239 0.058534 0 255 0
0.096227 -0.138372 -0.325895 127 127 0
0.281545 -0.094651 0.193861 127 127 0
-0.034948 -0.423957 -0.342698 127 127 0
-0.178439 -0.942634 -0.011924 127 127 0
-0.347481 -0.220315 -0.025433 127 127 0
-0.302277 -0.750019 -0.205473 127 127 0
-0.171623 -0.722633 0.323762 127 127 0
-0.311904 0.811368 0.159887 0 255 0
-0.255335 -0.216086 0.241359 127 127 0
0.323193 -0.217936 -0.100650 127 127 0
-0.218633 -0.942634 0.113642 127 127 0
0.008277 0.827145 0.348059 0 255 0
0.332414 -0.749212 0.115647 127 127 0
0.317038 -0.054703 0.122777 127 127 0
-0.303606 0.581446 0.110334 127 127 0
-0.306899 0.747478 0.171971 0 255 0
-0.346610 0.645972 0.039318 0 255 0
0.012636 0.507523 -0.340219 127 127 0
0.202132 0.079157 -0.269966 127 127 0
0.327677 -0.652361 -0.165267 127 127 0
-0.042311 0.050591 -0.337659 127 127 0
0.311259 0.225444 -0.129462 127 127 0
0.184365 -0.296751 0.332570 127 127 0
0.341213 -0.486935 -0.120529 127 127 0
-0.168255 0.817627 0.307568 0 255 0
-0.243825 -0.202632 -0.245829 127 127 0
0.341213 -0.474442 0.100365 127 127 0
-0.323248 0.186570 -0.125231 127 127 0
-0.239337 0.863375 0.256541 0 255 0
0.335669 0.629567 -0.029490 127 127 0
-0.213603 -0.036966 -0.269019 127 127 0
0.270782 0.059917 -0.200620 127 127 0
-0.138451 0.915922 0.301146 0 255 0
0.169004 -0.084383 -0.295386 127 127 0
-0.237224 -0.561900 0.318169 127 127 0
0.133305 -0.625338 0.349965 127 127 0
-0.142077 0.332979 0.318411 127 127 0
-0.213804 -0.216209 0.276133 127 127 0
-0.289575 0.107839 0.196737 127 127 0
0.296152 -0.129080 0.173201 127 127 0
-0.187154 -0.467105 -0.342698 127 127 0
-0.254993 0.751407 0.241804 0 255 0
0.205410 -0.093902 -0.267451 127 127 0
-0.318364 0.641849 -0.120686 127 127 0
-0.324190 0.060760 0.130226 127 127 0
-0.121681 -0.318727 0.349965 127 127 0
-0.348090 0.312533 0.028076 127 127 0
-0.321315 -0.838864 -0.117816 127 127 0
-0.266356 -0.942634 -0.097874 127 127 0
0.118057 0.547198 0.311274 127 127 0
0.196121 -0.676416 -0.311091 127 127 0
-0.317952 0.730904 -0.138017 0 255 0
0.086545 -0.823026 -0.327980 127 127 0
0.332974 0.256833 -0.057868 127 127 0
0.006018 0.965053 -0.180965 0 255 0
-0.325904 -0.003570 -0.118819 127 127 0
-0.337139 -0.696634 -0.146362 127 127 0
0.307635 0.714340 0.145479 0 255 0
-0.312320 0.338789 0.158883 127 127 0
0.004572 0.130273 0.348547 127 127 0
0.324435 0.181653 -0.097651 127 127 0
0.238959 0.588589 0.218396 127 127 0
0.077876 -0.456032 0.349965 127 127 0
0.284700 -0.942634 -0.029245 127 127 0
-0.258598 0.208985 -0.229838 127 127 0
-0.088587 0.961409 0.125928 0 255 0
-0.223634 0.957169 0.087239 0 255 0
-0.351450 -0.795395 -0.055761 127 127 0
0.341213 -0.845635 -0.041693 127 127 0
-0.088348 -0.942634 0.180426 127 127 0
0.341213 -0.303579 -0.118372 127 127 0
-0.351450 -0.474549 0.170789 127 127 0
-0.163426 0.910456 -0.296729 0 255 0
0.155217 -0.942634 -0.167701 127 127 0
-0.326124 0.588589 0.041572 127 127 0
0.075122 0.961409 -0.123864 0 255 0
-0.350301 -0.254079 0.011280 127 127 0
-0.071911 -0.942634 -0.277439 127 127 0
-0.087766 0.199458 -0.331675 127 127 0
0.318900 -0.277476 0.154622 127 127 0
0.056624 -0.770208 -0.342698 127 127 0
0.286355 0.172802 -0.180325 127 127 0
0.340189 0.529925 -0.003062 127 127 0
-0.081169 -0.660932 0.349965 127 127 0
-0.209283 -0.086193 0.279602 127 127 0
-0.010469 -0.175146 -0.341851 127 127 0
-0.351428 -0.728511 -0.012818 127 127 0
-0.351450 -0.589122 -0.162201 127 127 0
-0.340385 0.515698 -0.079335 127 127 0
-0.137423 0.161026 0.320339 127 127 0
0.301851 0.094469 -0.152174 127 127 0
0.341183 -0.546943 0.042764 127 127 0
0.330037 0.210527 -0.080177 127 127 0
0.024547 0.411717 0.345918 127 127 0
-0.184018 0.458864 0.298989 127 127 0
-0.301195 -0.271068 0.193914 127 127 0
-0.090590 -0.827037 -0.329765 127 127 0
0.051871 -0.110664 0.342320 127 127 0
0.234206 -0.752382 -0.275430 127 127 0
0.247748 0.684118 0.237904 0 255 0
0.004245 0.761014 0.348590 0 255 0
-0.077194 0.064138 0.340334 127 127 0
-0.350952 0.445086 0.000931 127 127 0
0.160180 0.744283 0.306672 0 255 0
-0.253267 0.128878 0.244054 127 127 0
-0.012037 -0.283793 0.349965 127 127 0
0.228509 -0.277669 0.274766 127 127 0
-0.346526 0.805083 0.039955 0 255 0
-0.131937 0.826721 0.322611 0 255 0
0.165809 0.267118 -0.297073 127 127 0
0.304973 0.431740 -0.144638 127 127 0
-0.108525 0.018498 0.332308 127 127 0
-0.043494 0.070820 -0.337504 127 127 0
0.004007 0.496167 0.348622 127 127 0
-0.238478 -0.032869 -0.249932 127 127 0
0.328863 0.629946 0.085552 127 127 0
-0.177067 0.014006 -0.296650 127 127 0
-0.081685 0.625685 0.339743 127 127 0
0.074517 0.961409 -0.005637 0 255 0
-0.316205 -0.323051 0.249520 127 127 0
-0.140564 0.861821 0.319037 0 255 0
0.246212 -0.942634 -0.000313 127 127 0
0.152286 0.974724 -0.136247 0 255 0
0.250032 -0.370505 0.307612 127 127 0
-0.018683 0.536363 -0.339728 127 127 0
-0.038809 -0.098226 0.345388 127 127 0
-0.000306 -0.942634 0.346053 127 127 0
0.220673 0.359632 -0.255739 127 127 0
-0.350002 -0.126450 -0.006283 127 127 0
0.136971 -0.459057 0.349965 127 127 0
-0.345019 -0.601505 0.179247 127 127 0
0.341213 -0.740964 0.097784 127 127 0
-0.161382 -0.712213 -0.322762 127 127 0
0.198034 0.752595 0.280379 0 255 0
0.319770 -0.021002 0.116181 127 127 0
0.102770 0.573408 0.301628 127 127 0
-0.310128 0.246408 -0.156906 127 127 0
-0.070486 -0.799997 -0.342698 127 127 0
-0.012414 0.242595 -0.341595 127 127 0
-0.351371 -0.521130 0.010265 127 127 0
-0.271325 -0.422680 -0.291861 127 127 0
-0.351450 -0.469631 0.098567 127 127 0
-0.272479 -0.028578 0.219017 127 127 0
-0.111659 -0.610926 0.349965 127 127 0
0.330517 0.480625 -0.076534 127 127 0
0.173656 -0.802214 0.303210 127 127 0
-0.100837 -0.385246 0.349965 127 127 0
0.031070 0.671500 -0.337792 0 255 0
-0.181207 0.217677 -0.293877 127 127 0
-0.315273 0.547299 -0.113210 127 127 0
-0.243042 0.947863 0.094631 0 255 0
0.216591 0.272134 0.266139 127 127 0
-0.101610 -0.244776 -0.327906 127 127 0
-0.100877 0.961409 0.112237 0 255 0
0.230623 -0.942634 -0.210411 127 127 0
0.195013 0.405215 0.282697 127 127 0
0.074790 -0.183264 0.339303 127 127 0
0.334671 0.153506 -0.044977 127 127 0
-0.094229 -0.358533 0.349965 127 127 0
0.258440 -0.879386 -0.225880 127 127 0
-0.279706 0.713514 0.209599 0 255 0
-0.297823 -0.850606 -0.169020 127 127 0
0.254286 0.917728 0.194283 0 255 0
0.025204 -0.368334 0.349965 127 127 0
-0.017281 0.668413 0.348222 0 255 0
-0.331230 -0.021837 0.113229 127 127 0
0.332484 -0.141036 0.068858 127 127 0
0.325947 0.682685 -0.094002 0 255 0
-0.029116 -0.250179 0.346664 127 127 0
-0.031737 0.961409 -0.151991 0 255 0
-0.054268 -0.557379 -0.342698 127 127 0
0.335406 0.053765 -0.039399 127 127 0
0.200694 -0.195412 -0.271069 127 127 0
-0.321691 -0.290403 0.198961 127 127 0
0.237426 0.028793 0.250152 127 127 0
-0.292083 0.281416 0.193468 127 127 0
0.258181 0.201347 -0.217041 127 127 0
-0.036513 -0.942634 0.036665 127 127 0
-0.007031 0.643137 0.349571 0 255 0
-0.341764 0.544684 0.004470 127 127 0
-0.336909 -0.070186 -0.092249 127 127 0
0.098662 -0.792530 -0.328889 127 127 0
-0.212378 0.831779 0.277227 0 255 0
0.090396 -0.942634 0.235317 127 127 0
-0.104475 -0.235252 0.333986 127 127 0
0.271971 0.658681 0.206338 0 255 0
-0.235889 0.709065 0.259186 0 255 0
-0.297823 0.002592 0.185988 127 127 0
-0.269974 0.145519 0.222280 127 127 0
0.096113 -0.910024 -0.307106 127 127 0
-0.320581 0.281410 0.138938 127 127 0
0.006086 0.575259 0.321489 127 127 0
-0.301772 0.725620 -0.173574 0 255 0
0.050051 -0.812417 0.349965 127 127 0
-0.301409 -0.942634 -0.047024 127 127 0
-0.157287 0.196374 0.312111 127 127 0
0.281306 0.633819 0.185491 127 127 0
0.331774 -0.246653 0.074250 127 127 0
-0.337494 0.677900 0.098106 0 255 0
0.219844 -0.740521 0.295581 127 127 0
-0.342374 0.330139 -0.064228 127 127 0
0.335110 0.203799 -0.041645 127 127 0
-0.026865 -0.656469 -0.342698 127 127 0
0.330900 0.299954 -0.073626 127 127 0
-0.020694 -0.824206 0.349965 127 127 0
0.166833 0.593952 -0.287030 127 127 0
-0.198130 -0.016691 0.288160 127 127 0
-0.187577 0.429886 -0.288990 127 127 0
-0.092503 0.843920 0.338319 0 255 0
0.317189 -0.801357 -0.120666 127 127 0
-0.240080 0.811496 0.255971 0 255 0
0.154575 0.442546 -0.301726 127 127 0
0.322131 0.059065 0.110481 127 127 0
0.341213 -0.737389 0.047559 127 127 0
-0.226145 0.065776 -0.259395 127 127 0
-0.351007 0.308147 0.005918 127 127 0
-0.167024 -0.018773 -0.300810 127 127 0
0.088914 -0.431019 0.349965 127 127 0
-0.099100 -0.736671 0.349965 127 127 0
0.341166 -0.651280 -0.006571 127 127 0
-0.226148 0.468699 0.266661 127 127 0
-0.099686 0.732875 0.335970 0 255 0
0.022440 -0.942634 0.227068 127 127 0
-0.305332 -0.226435 -0.168487 127 127 0
0.304997 -0.354050 -0.243518 127 127 0
-0.337068 0.523496 0.099135 127 127 0
0.335392 0.779088 -0.039505 0 255 0
0.113059 -0.765967 -0.328089 127 127 0
0.253896 0.362447 -0.222625 127 127 0
-0.303844 0.685077 0.178141 0 255 0
-0.229756 0.974724 -0.008110 0 255 0
0.257506 -0.282852 -0.249596 127 127 0
0.184878 0.893427 0.282721 0 255 0
0.300347 -0.194821 -0.155806 127 127 0
0.146458 0.557803 0.288031 127 127 0
0.079668 -0.942634 -0.289083 127 127 0
0.341213 -0.526365 -0.153215 127 127 0
-0.295123 0.558813 0.139037 127 127 0
-0.319589 0.315318 -0.134066 127 127 0
0.274695 0.362274 -0.195520 127 127 0
-0.028235 0.961409 0.067235 0 255 0
0.172999 -0.463375 0.349965 127 127 0
-0.056316 -0.942634 0.236221 127 127 0
-0.229609 -0.069238 -0.256738 127 127 0
0.243391 -0.909818 0.250535 127 127 0
-0.129514 -0.761835 0.333583 127 127 0
0.301752 0.232358 0.159681 127 127 0
0.304386 0.069858 -0.146055 127 127 0
-0.296195 0.921001 -0.115626 0 255 0
0.248784 0.080143 -0.229287 127 127 0
-0.336998 -0.852614 0.080768 127 127 0
0.326716 0.719578 0.099412 0 255 0
0.089568 -0.756966 0.346836 127 127 0
0.341209 -0.485043 0.070930 127 127 0
-0.024876 -0.942634 0.289607 127 127 0
-0.203214 0.974724 0.027406 0 255 0
0.275671 0.418019 -0.194248 127 127 0
-0.290376 -0.699087 0.245800 127 127 0
0.241712 0.058031 0.245771 127 127 0
-0.101817 0.629268 0.334292 127 127 0
-0.195150 -0.165799 -0.283179 127 127 0
-0.027722 0.274257 0.346847 127 127 0
-0.351429 -0.680104 0.028398 127 127 0
-0.213765 0.426413 0.276163 127 127 0
-0.230973 0.961137 0.012076 0 255 0
-0.350328 0.050951 0.011078 127 127 0
-0.111962 0.961409 0.044236 0 255 0
-0.020320 -0.750254 0.349965 127 127 0
-0.290312 0.932731 -0.039562 0 255 0
0.074580 -0.942634 0.051943 127 127 0
-0.137688 -0.271963 -0.322047 127 127 0
0.248826 0.936705 0.120994 0 255 0
-0.028208 -0.035116 0.346783 127 127 0
0.245453 -0.012463 0.240896 127 127 0
0.338278 -0.045383 0.024849 127 127 0
-0.222502 0.952954 0.114543 0 255 0
-0.278400 -0.725384 0.256022 127 127 0
0.332183 -0.292771 -0.155254 127 127 0
-0.039793 -0.076156 -0.337991 127 127 0
0.333598 -0.146277 -0.053133 127 127 0
0.151950 -0.234948 0.310081 127 127 0
0.195752 -0.764773 -0.294069 127 127 0
-0.351447 -0.639760 0.047930 127 127 0
-0.119382 -0.942634 0.122124 127 127 0
0.315829 0.518818 -0.118427 127 127 0
0.182276 0.974724 0.033662 0 255 0
0.031232 0.206668 -0.337770 127 127 0
-0.327215 -0.095308 -0.115655 127 127 0
-0.180090 -0.690228 -0.319287 127 127 0
0.154319 -0.374368 0.349965 127 127 0
-0.121422 -0.942634 0.187049 127 127 0
-0.278499 0.162850 -0.203903 127 127 0
0.300582 0.082595 0.162507 127 127 0
0.260799 -0.030897 0.220897 127 127 0
-0.250087 0.284804 -0.240929 127 127 0
-0.279074 0.732418 -0.203153 0 255 0
0.157162 -0.259921 -0.300654 127 127 0
-0.346891 0.076128 0.037182 127 127 0
-0.185284 0.566027 -0.257184 127 127 0
-0.021297 -0.162062 -0.340426 127 127 0
0.310649 -0.523809 -0.234667 127 127 0
0.333935 -0.070114 -0.050568 127 127 0
0.341213 -0.434603 0.127207 127 127 0
-0.309266 -0.572187 -0.239903 127 127 0
0.341184 -0.601254 -0.027543 127 127 0
-0.347613 -0.251437 -0.024429 127 127 0
-0.248760 0.030184 -0.242042 127 127 0
-0.165600 0.538481 0.305256 127 127 0
0.154216 0.134510 0.309143 127 127 0
0.062214 -0.408571 0.349965 127 127 0
-0.328118 0.875882 0.120743 0 255 0
0.135612 -0.942634 0.021525 127 127 0
0.341213 -0.584553 -0.108100 127 127 0
-0.198711 0.539748 0.282145 127 127 0
0.148498 0.346326 -0.304243 127 127 0
0.341213 -0.374668 -0.164231 127 127 0
0.024959 0.948882 -0.246947 0 255 0
-0.144826 -0.755384 -0.321228 127 127 0
-0.345341 -0.075171 0.048958 127 127 0
-0.324738 0.306361 0.128903 127 127 0
-0.176860 0.403677 0.304003 127 127 0
0.181556 0.961841 -0.121735 0 255 0
-0.139012 0.771720 -0.312413 0 255 0
-0.109305 -0.582870 0.349965 127 127 0
-0.238342 -0.758789 -0.279105 127 127 0
0.341213 -0.544225 -0.099029 127 127 0
0.254653 0.946081 0.011774 0 255 0
0.224432 0.172809 0.260123 127 127 0
0.111107 -0.065147 -0.319731 127 127 0
-0.228708 0.265834 -0.257429 127 127 0
-0.101450 -0.418860 -0.342698 127 127 0
-0.328947 0.615361 0.118741 127 127 0
-0.350814 -0.027017 -0.000117 127 127 0
-0.273180 -0.045675 -0.210834 127 127 0
-0.289689 -0.942634 0.117508 127 127 0
-0.174477 0.961409 0.068251 0 255 0
0.069461 -0.700059 0.349965 127 127 0
0.048042 -0.569620 -0.342698 127 127 0
-0.192356 0.008146 -0.285323 127 127 0
0.023209 0.558854 -0.315099 127 127 0
-0.275592 -0.463465 0.295854 127 127 0
-0.208207 0.042878 0.280427 127 127 0
-0.006565 0.104082 -0.342366 127 127 0
-0.215698 0.938429 -0.174789 0 255 0
-0.288768 -0.295986 0.251039 127 127 0
0.341213 -0.337080 0.175527 127 127 0
-0.085500 0.961409 -0.108540 0 255 0
0.178381 -0.153020 0.295459 127 127 0
-0.010164 0.864919 -0.341892 0 255 0
-0.039927 0.912066 0.336427 0 255 0
0.155085 0.101664 -0.301515 127 127 0
-0.276139 0.938920 0.048709 0 255 0
-0.351439 -0.838928 0.011582 127 127 0
-0.266854 -0.467530 -0.295292 127 127 0
0.011539 0.961409 -0.026964 0 255 0
0.270066 0.027202 0.208821 127 127 0
-0.339700 -0.329215 -0.211634 127 127 0
-0.269658 0.659032 -0.215425 0 255 0
0.296697 -0.482474 0.261603 127 127 0
0.036595 0.754407 -0.337064 0 255 0
-0.321505 0.914596 0.099124 0 255 0
0.004410 0.964660 -0.221467 0 255 0
0.004400 -0.088602 0.348570 127 127 0
-0.351450 -0.336079 0.161397 127 127 0
-0.192825 0.634263 -0.277741 127 127 0
0.078408 0.932135 -0.275360 0 255 0
-0.002811 0.298268 0.349519 127 127 0
0.291291 -0.786720 -0.190058 127 127 0
-0.126967 -0.258625 -0.317402 127 127 0
-0.335801 -0.333098 0.223982 127 127 0
0.191863 0.166995 -0.277846 127 127 0
-0.042847 0.805675 0.344856 0 255 0
0.229812 -0.929310 0.255244 127 127 0
0.140472 0.255253 -0.307568 127 127 0
-0.014382 -0.942634 0.202702 127 127 0
-0.013215 0.436228 -0.341490 127 127 0
-0.351397 -0.569068 0.021799 127 127 0
-0.351450 -0.561429 -0.122601 127 127 0
-0.184981 0.643666 -0.290982 0 255 0
0.019449 0.819466 -0.339322 0 255 0
0.044253 -0.890294 -0.332422 127 127 0
0.341200 -0.816763 0.013374 127 127 0
0.324892 -0.472002 -0.217591 127 127 0
0.093646 0.961409 0.046677 0 255 0
-0.345491 0.755247 0.047816 0 255 0
0.049310 -0.358945 -0.342698 127 127 0
-0.172923 0.434480 0.305634 127 127 0
-0.148474 -0.426854 -0.342698 127 127 0
-0.110416 -0.503483 -0.342698 127 127 0
0.338761 -0.836395 0.059410 127 127 0
0.245675 -0.116151 -0.233339 127 127 0
-0.162698 0.259518 0.309869 127 127 0
-0.065923 0.407343 0.341818 127 127 0
0.107002 -0.877541 -0.308909 127 127 0
-0.224421 -0.359737 -0.327852 127 127 0
0.340521 -0.199807 0.007815 127 127 0
0.186206 0.549072 -0.264867 127 127 0
0.215249 -0.254196 -0.259901 127 127 0
0.317862 -0.414396 -0.226753 127 127 0
0.092205 -0.280430 -0.342698 127 127 0
0.308166 0.672200 -0.136929 0 255 0
-0.301089 0.662747 0.181731 0 255 0
-0.340288 0.621155 -0.080073 127 127 0
-0.351340 -0.396874 0.006935 127 127 0
-0.307630 -0.657381 0.231856 127 127 0
-0.351450 -0.331036 -0.124235 127 127 0
-0.217584 -0.526728 -0.331499 127 127 0
0.300097 0.700755 0.163677 0 255 0
-0.267492 -0.551088 -0.289375 127 127 0
0.302507 0.661970 0.157859 0 255 0
0.269021 -0.941691 0.178364 127 127 0
-0.057235 0.182273 0.342962 127 127 0
0.112705 0.012180 0.326337 127 127 0
0.073936 -0.942634 -0.228647 127 127 0
-0.232969 -0.501271 -0.321293 127 127 0
0.050336 -0.942634 0.144996 127 127 0
-0.190050 0.724296 0.294360 0 255 0
-0.318189 0.641849 0.110609 127 127 0
-0.247996 -0.294169 0.288467 127 127 0
0.198388 -0.371360 0.347240 127 127 0
0.190807 0.896848 -0.278656 0 255 0
0.278947 -0.804710 -0.211416 127 127 0
-0.281628 -0.386099 -0.283955 127 127 0
-0.061348 0.957523 0.231330 0 255 0
-0.330465 -0.783721 0.128872 127 127 0
-0.351357 -0.458570 0.009793 127 127 0
0.064027 -0.942634 -0.118405 127 127 0
0.272863 -0.284314 -0.231985 127 127 0
-0.228909 -0.251128 0.264543 127 127 0
-0.202589 0.575600 0.251172 127 127 0
0.092808 -0.942634 0.042235 127 127 0
-0.346603 0.346200 -0.032107 127 127 0
0.245100 0.266250 -0.234087 127 127 0
0.335081 0.107875 0.049130 127 127 0
0.132333 -0.227715 0.318207 127 127 0
-0.340243 0.308073 -0.080410 127 127 0
0.118701 -0.459009 -0.342698 127 127 0
0.212303 -0.172660 0.269429 127 127 0
0.087482 -0.942634 -0.084736 127 127 0
-0.247035 -0.942634 0.239593 127 127 0
-0.351450 -0.368034 0.196025 127 127 0
-0.298396 -0.633692 0.248740 127 127 0
0.341105 -0.412172 0.005647 127 127 0
-0.252576 0.948897 -0.049914 0 255 0
-0.152572 -0.337137 0.349965 127 127 0
0.330045 -0.194077 -0.080118 127 127 0
-0.259868 0.722514 -0.228183 0 255 0
-0.252421 0.065833 0.245157 127 127 0
-0.287719 -0.519973 0.285944 127 127 0
-0.203946 0.487013 -0.276429 127 127 0
0.216262 -0.614080 0.318199 127 127 0
-0.062796 0.574001 -0.308103 127 127 0
-0.007647 0.961409 -0.032249 0 255 0
0.188794 0.674722 0.287469 0 255 0
0.204513 0.819429 0.275407 0 255 0
0.102986 0.369637 -0.323095 127 127 0
-0.282944 0.125030 -0.198111 127 127 0
0.341180 -0.275670 0.081919 127 127 0
0.266906 -0.572034 -0.278679 127 127 0
0.202085 0.096563 -0.270002 127 127 0
-0.348863 0.014343 -0.014937 127 127 0
0.008780 -0.559048 -0.342698 127 127 0
-0.215857 -0.476171 0.341690 127 127 0
-0.230541 -0.605455 -0.309185 127 127 0
-0.051322 0.624020 0.343740 127 127 0
0.012477 0.602574 0.347507 127 127 0
-0.027361 0.616798 -0.339628 127 127 0
0.341213 -0.579167 0.141594 127 127 0
-0.006704 -0.339259 -0.342698 127 127 0
-0.205212 0.964244 0.106997 0 255 0
-0.165997 -0.920604 -0.280342 127 127 0
0.341213 -0.551477 0.125862 127 127 0
-0.284197 0.590023 -0.176961 127 127 0
0.336622 0.401179 0.037431 127 127 0
0.243584 -0.942634 -0.095691 127 127 0
0.341213 -0.428646 0.141870 127 127 0
0.272220 -0.868279 -0.197825 127 127 0
0.323387 0.250273 0.107449 127 127 0
0.260917 0.406254 0.220743 127 127 0
0.093843 0.327328 0.334150 127 127 0
0.186015 0.648700 -0.282333 0 255 0
-0.249010 0.681887 0.249119 0 255 0
0.154593 -0.931952 -0.278620 127 127 0
0.182560 -0.942634 -0.172406 127 127 0
0.305248 -0.196159 0.151242 127 127 0
-0.309325 -0.184280 0.166114 127 127 0
-0.270817 0.064283 0.221182 127 127 0
0.283029 0.588589 0.167689 127 127 0
0.207112 0.327299 -0.266145 127 127 0
0.004572 0.961409 -0.008914 0 255 0
0.014059 -0.942634 0.066037 127 127 0
-0.322078 0.263580 0.135325 127 127 0
-0.321571 0.211849 0.136548 127 127 0
0.002868 -0.942634 0.189790 127 127 0
0.272783 0.927671 -0.108555 0 255 0
-0.148756 0.628588 0.315586 127 127 0
0.332807 0.693288 -0.059135 0 255 0
0.300232 0.268844 0.163352 127 127 0
0.017894 -0.942634 -0.195569 127 127 0
0.164935 -0.587211 -0.341349 127 127 0
-0.331344 -0.903745 0.070424 127 127 0
0.341213 -0.372943 0.201120 127 127 0
-0.130987 0.961409 0.095098 0 255 0
-0.186329 -0.737288 0.314822 127 127 0
-0.206738 0.588589 -0.240835 127 127 0
-0.293894 -0.255779 -0.183840 127 127 0
-0.233829 -0.565432 -0.312952 127 127 0
0.341213 -0.636159 -0.123543 127 127 0
-0.276642 -0.600782 -0.274546 127 127 0
0.303652 -0.938495 -0.088989 127 127 0
0.230097 0.188097 0.255776 127 127 0
-0.309866 -0.847395 0.148722 127 127 0
0.042780 0.825936 0.343517 0 255 0
0.279573 0.202512 -0.189162 127 127 0
-0.084875 -0.175463 0.339323 127 127 0
0.323224 0.224999 -0.100574 127 127 0
0.313883 -0.176076 0.130394 127 127 0
-0.190898 -0.089353 -0.286441 127 127 0
0.070695 0.933910 0.281536 0 255 0
-0.017513 0.585703 0.321332 127 127 0
-0.059545 -0.131539 -0.335391 127 127 0
-0.301396 0.106923 -0.174064 127 127 0
0.321155 -0.929598 0.058175 127 127 0
0.203500 -0.926441 0.266700 127 127 0
-0.128923 -0.339469 -0.342698 127 127 0
0.076216 0.541406 -0.325719 127 127 0
0.341141 -0.568755 -0.000556 127 127 0
-0.201398 -0.702615 0.315320 127 127 0
-0.121474 0.961409 -0.015431 0 255 0
-0.000614 0.812848 0.349230 0 255 0
0.296657 0.537591 0.166074 127 127 0
0.054288 -0.462849 -0.342698 127 127 0
0.134888 0.961409 -0.025739 0 255 0
-0.196191 -0.446440 -0.342698 127 127 0
-0.164384 0.238518 -0.301903 127 127 0
-0.319593 0.773460 0.141325 0 255 0
-0.329531 0.205923 0.117331 127 127 0
0.341213 -0.335393 -0.187228 127 127 0
-0.300651 -0.304205 -0.241786 127 127 0
-0.192590 0.747518 0.292411 0 255 0
-0.226038 0.725083 -0.259477 0 255 0
0.035629 0.788343 -0.337192 0 255 0
0.331166 0.713879 0.078870 0 255 0
0.122653 -0.942634 0.170232 127 127 0
0.002808 -0.300202 -0.342698 127 127 0
-0.276651 -0.678083 0.267989 127 127 0
0.339450 0.778592 0.015951 0 255 0
0.306101 0.911900 0.127313 0 255 0
-0.351450 -0.713686 0.083076 127 127 0
0.325400 -0.834391 0.092607 127 127 0
-0.351450 -0.309432 -0.160143 127 127 0
0.174831 0.924181 -0.245835 0 255 0
-0.123253 -0.907434 0.307874 127 127 0
0.279555 0.219185 -0.189186 127 127 0
0.031016 0.604002 -0.337799 127 127 0
-0.317008 -0.017186 -0.140296 127 127 0
0.215574 -0.729753 -0.292665 127 127 0
0.250082 -0.942634 -0.030835 127 127 0
0.157646 0.944956 -0.200608 0 255 0
0.191949 -0.241540 -0.277780 127 127 0
-0.351450 -0.767145 -0.056092 127 127 0
0.107542 0.771667 0.328475 0 255 0
0.047525 -0.942634 0.226491 127 127 0
-0.315541 -0.032979 -0.143839 127 127 0
-0.204716 0.224992 0.283107 127 127 0
-0.208491 -0.849037 -0.276653 127 127 0
-0.350567 -0.769377 0.087073 127 127 0
0.079341 -0.942634 -0.258685 127 127 0
-0.291709 0.912908 -0.169251 0 255 0
0.300620 0.002818 0.162414 127 127 0
0.341213 -0.380119 0.130714 127 127 0
-0.351450 -0.468300 0.122888 127 127 0
-0.120087 0.409859 0.327519 127 127 0
-0.137771 -0.025611 0.320195 127 127 0
0.049075 0.953533 -0.233308 0 255 0
0.115439 0.974724 0.156824 0 255 0
-0.351169 -0.108165 0.002575 127 127 0
-0.139227 -0.823674 0.317539 127 127 0
0.275090 -0.474958 0.288384 127 127 0
0.017150 -0.713354 0.349965 127 127 0
0.319612 0.747461 -0.109294 0 255 0
0.025868 0.760306 0.345744 0 255 0
-0.228478 0.166164 -0.257605 127 127 0
-0.155722 -0.226795 0.312759 127 127 0
0.020425 0.941529 -0.264087 0 255 0
-0.131469 0.732498 0.322805 0 255 0
-0.346946 0.821460 -0.029502 0 255 0
0.341213 -0.666299 -0.056013 127 127 0
0.103226 -0.691152 -0.342698 127 127 0
0.246984 -0.592493 -0.290750 127 127 0
-0.141057 -0.683221 0.344084 127 127 0
-0.280842 0.384687 -0.200850 127 127 0
0.128188 -0.297949 0.349965 127 127 0
-0.279011 0.080098 0.210504 127 127 0
-0.351450 -0.628782 -0.071088 127 127 0
0.142122 0.950852 0.203210 0 255 0
-0.350296 0.324615 -0.004055 127 127 0
-0.122833 -0.656198 -0.342698 127 127 0
-0.338078 0.168059 -0.089427 127 127 0
-0.348255 -0.681145 0.134060 127 127 0
0.340458 -0.332251 0.204572 127 127 0
-0.148245 -0.273637 0.326754 127 127 0
0.183738 -0.112267 -0.284080 127 127 0
-0.120151 0.185652 -0.320226 127 127 0
0.083599 0.028645 -0.330876 127 127 0
0.168100 0.743347 -0.296080 0 255 0
-0.330102 -0.218423 -0.108683 127 127 0
0.088446 0.343987 -0.329118 127 127 0
-0.077556 0.555874 0.319565 127 127 0
0.273180 0.247686 -0.197495 127 127 0
-0.231793 -0.942634 -0.018236 127 127 0
0.269744 -0.578565 0.282741 127 127 0
-0.061480 0.655497 0.342403 0 255 0
-0.266237 0.748713 -0.219883 0 255 0
0.331073 -0.286405 0.148566 127 127 0
0.041642 -0.942634 -0.210297 127 127 0
-0.000795 0.623657 -0.341987 127 127 0
-0.018350 -0.214299 -0.340814 127 127 0
-0.033601 0.294877 -0.338806 127 127 0
0.096460 -0.941954 -0.300755 127 127 0
-0.168909 -0.304282 0.349965 127 127 0
-0.087721 0.838766 -0.331681 0 255 0
0.224558 -0.196322 0.260026 127 127 0
0.020195 0.961409 0.081730 0 255 0
0.340654 0.755995 0.000470 0 255 0
-0.351450 -0.440804 0.151537 127 127 0
0.065110 0.974724 -0.181171 0 255 0
0.262567 -0.895910 -0.208162 127 127 0
0.153724 -0.768282 0.318062 127 127 0
-0.344381 0.479981 0.056248 127 127 0
0.282485 0.933199 0.020527 0 255 0
-0.209610 0.464690 -0.272083 127 127 0
-0.208775 0.974724 -0.036393 0 255 0
-0.348732 0.343506 -0.015932 127 127 0
0.341157 -0.299619 -0.053772 127 127 0
0.276593 0.148275 0.200314 127 127 0
0.012438 0.451749 -0.340245 127 127 0
0.043959 0.961409 0.006022 0 255 0
0.215157 0.207565 -0.259972 127 127 0
0.332375 -0.712293 -0.125798 127 127 0
-0.323451 0.484536 0.132010 127 127 0
-0.105428 0.460176 0.333591 127 127 0
0.288051 0.771222 -0.178114 0 255 0
0.341197 -0.764059 -0.012206 127 127 0
-0.175184 0.016184 0.304698 127 127 0
0.262859 0.535575 0.217810 127 127 0
0.204509 -0.741316 0.302268 127 127 0
0.002382 -0.505474 0.349965 127 127 0
-0.337617 0.641849 -0.075001 127 127 0
-0.130964 0.409155 -0.315747 127 127 0
-0.184490 -0.772368 -0.301497 127 127 0
0.339464 0.717289 0.015841 0 255 0
-0.273687 0.613096 -0.210174 127 127 0
-0.021958 -0.689780 -0.342698 127 127 0
-0.265877 -0.849625 0.246898 127 127 0
0.174927 -0.942634 0.002285 127 127 0
-0.080782 -0.889563 0.328940 127 127 0
0.119008 -0.586092 0.349965 127 127 0
-0.283850 -0.642001 -0.258728 127 127 0
-0.311842 -0.180179 -0.152768 127 127 0
0.146705 0.867994 0.312254 0 255 0
0.339776 0.501236 0.013473 127 127 0
-0.080775 -0.249446 -0.332596 127 127 0
-0.297126 -0.277066 0.209067 127 127 0
-0.303313 0.913660 -0.141235 0 255 0
-0.330378 0.857414 -0.108019 0 255 0
-0.321835 -0.928230 0.081890 127 127 0
-0.309085 -0.372264 -0.251532 127 127 0
0.006538 0.351553 0.348289 127 127 0
-0.282304 -0.072978 -0.198944 127 127 0
0.030300 0.382431 -0.337893 127 127 0
0.256566 0.561468 -0.176210 127 127 0
-0.032390 -0.462170 0.349965 127 127 0
0.105445 0.836941 0.329344 0 255 0
-0.348498 -0.071329 -0.017707 127 127 0
-0.273633 -0.745131 -0.250924 127 127 0
-0.162368 0.457852 0.310006 127 127 0
-0.345795 -0.406304 -0.203691 127 127 0
-0.283249 0.528226 -0.197713 127 127 0
-0.349383 0.744481 -0.010986 0 255 0
-0.203890 -0.942634 -0.244429 127 127 0
0.294954 0.221158 -0.168826 127 127 0
-0.049772 -0.855964 0.348316 127 127 0
-0.322888 -0.281692 0.180725 127 127 0
-0.105559 -0.140862 0.333537 127 127 0
-0.351401 -0.422344 0.047526 127 127 0
0.332000 0.169914 0.072536 127 127 0
-0.270111 -0.221930 -0.214835 127 127 0
0.049938 -0.893412 0.336728 127 127 0
-0.111333 0.046245 -0.323878 127 127 0
0.304520 0.794004 0.152999 0 255 0
0.019632 0.371624 0.346565 127 127 0
-0.268735 0.934439 -0.103584 0 255 0
0.166854 -0.815127 -0.296250 127 127 0
-0.323668 0.720910 0.131486 0 255 0
-0.208675 0.641849 -0.262031 127 127 0
0.329680 0.456732 -0.082892 127 127 0
-0.087480 -0.942634 -0.287029 127 127 0
0.109480 0.866420 0.327673 0 255 0
-0.196549 0.777064 0.289373 0 255 0
-0.204138 0.414766 0.283550 127 127 0
-0.156634 0.735358 0.312381 0 255 0
0.211186 0.387320 0.270287 127 127 0
-0.331556 -0.258855 -0.105173 127 127 0
-0.096481 0.808289 -0.330030 0 255 0
-0.123434 -0.464070 -0.342698 127 127 0
0.023218 0.078470 -0.338826 127 127 0
0.249232 -0.942634 0.099139 127 127 0
0.341177 -0.608511 0.028220 127 127 0
-0.205298 0.911165 -0.266913 0 255 0
-0.241607 -0.423202 -0.314665 127 127 0
0.142714 -0.174063 -0.306639 127 127 0
-0.220825 0.107127 0.270746 127 127 0
0.000848 0.841169 -0.341771 0 255 0
0.143481 0.075807 -0.306321 127 127 0
