ply
format ascii 1.0
element vertex 1269
property float x
property float y
property float z
property uchar red
property uchar green
property uchar blue
end_header
0.133117 -0.023671 -0.056426 76 0 153
-0.648144 0.032746 -0.192469 153 0 76
-0.589619 0.097050 0.265864 127 127 0
-0.441585 -0.006863 0.340260 204 51 127
0.343323 -0.023671 0.172205 76 0 153
-0.027326 -0.049033 0.298004 255 0 0
-0.444937 0.061544 -0.121809 153 76 0
0.213490 0.061544 0.194915 153 76 0
0.655006 0.100093 -0.133160 255 0 0
0.047865 -0.002469 0.002404 76 0 153
-0.373783 0.061544 0.014020 153 76 0
-0.041171 0.096130 0.170971 204 51 127
-0.544706 0.097050 0.255120 204 51 127
0.578463 0.061544 -0.162338 153 76 0
0.139144 -0.043102 0.340869 255 0 0
0.103978 -0.026714 -0.330931 0 0 255
0.579353 0.009072 0.188339 153 0 76
-0.451482 0.069885 -0.399304 127 0 127
-0.505906 0.061544 -0.185686 153 76 0
-0.431470 0.097050 -0.229705 204 51 127
-0.648144 -0.004588 0.107170 153 0 76
-0.588130 -0.641339 0.323161 153 0 76
-0.398469 0.061544 0.133341 153 76 0
0.017295 0.039226 -0.063890 76 0 153
-0.331569 0.056297 -0.346935 127 0 127
0.566620 0.061544 0.134159 153 76 0
0.649639 -0.483763 0.333048 153 76 0
0.556110 -0.013526 0.290354 76 0 153
-0.577132 -0.022067 -0.129894 127 127 0
0.023404 -0.026714 -0.126491 76 0 153
0.136564 0.041806 -0.267807 76 0 153
-0.444318 0.097050 0.095391 204 51 127
0.670654 0.026156 -0.227491 76 153 0
-0.022786 -0.013526 -0.200575 0 0 255
0.599642 -0.069496 -0.323517 76 0 153
-0.322222 -0.028577 -0.369253 76 153 0
0.575734 0.097050 -0.053785 204 51 127
-0.294138 0.061544 0.080475 153 76 0
0.260488 0.097050 -0.137018 153 76 0
0.632550 -0.104013 0.303563 153 76 0
0.162797 0.097050 0.054505 153 76 0
-0.434986 0.097050 -0.367996 204 51 127
0.474126 -0.049033 0.320523 255 0 0
0.020195 -0.049033 0.118770 0 255 0
0.037623 0.061544 0.226711 0 0 255
-0.395493 0.061544 0.254278 0 0 255
-0.140391 0.061544 0.258616 153 76 0
-0.624672 -0.340959 -0.363895 76 0 153
-0.052937 0.068133 -0.369253 127 0 127
0.626520 -0.265249 -0.365549 76 0 153
-0.321923 -0.048920 0.340869 255 0 0
0.654714 -0.579007 -0.308801 76 0 153
0.632552 -0.139660 0.270743 153 76 0
0.171540 0.061544 -0.154734 153 76 0
0.664229 0.100093 0.043330 255 0 0
0.495921 -0.014405 -0.217021 153 76 0
0.304795 0.061544 0.005918 153 76 0
-0.394104 -0.013526 0.083705 127 127 0
0.583430 0.097050 0.071595 204 51 127
-0.597905 0.100093 0.041991 204 51 127
-0.389213 0.097050 -0.115000 153 76 0
0.651095 0.100093 -0.336622 0 0 255
-0.044679 0.061544 0.202424 153 76 0
-0.202499 0.045943 0.208989 0 0 255
-0.061395 0.039225 0.278484 0 0 255
0.457425 0.100093 -0.366006 127 0 127
-0.293622 0.006573 0.316928 204 51 127
0.668323 -0.211380 0.309612 153 76 0
-0.212008 0.061544 -0.118120 153 76 0
-0.061663 0.061544 0.054374 153 76 0
0.658150 -0.668033 -0.317511 76 0 153
0.585400 0.097050 0.280051 204 51 127
0.172239 -0.013526 0.283477 76 0 153
-0.217673 0.092783 0.239423 204 51 127
-0.603177 -0.166181 -0.299781 76 0 153
-0.406978 -0.049033 0.333196 255 0 0
0.212565 0.061544 -0.020157 153 76 0
0.670654 -0.046803 0.236813 76 153 0
0.429013 -0.013526 0.304168 76 0 153
-0.632941 0.080084 0.366127 0 255 0
-0.648144 0.097081 0.108375 127 127 0
0.512275 -0.002469 -0.024124 76 0 153
0.586481 0.097050 0.189057 255 0 0
0.660759 -0.586639 0.308044 153 76 0
-0.278413 0.097050 -0.076664 153 76 0
-0.188463 -0.002469 -0.266237 76 0 153
-0.027020 0.026936 -0.369253 76 153 0
0.213960 -0.013526 0.306123 76 0 153
-0.355342 0.019589 0.337217 204 51 127
0.364640 0.097050 -0.374750 0 0 255
0.021400 0.023589 -0.163846 76 0 153
-0.018164 0.031124 0.039980 0 0 255
0.643356 -0.156153 -0.299562 76 0 153
-0.211134 0.086905 0.321364 127 127 0
-0.605659 -0.334737 -0.303464 76 0 153
0.631437 0.026037 0.207911 153 0 76
-0.484342 0.061544 0.143495 153 76 0
-0.579366 -0.197921 -0.353327 76 0 153
-0.557224 -0.037874 -0.338172 76 153 0
0.040877 -0.049033 -0.026702 0 255 0
0.229130 0.061544 -0.074528 153 76 0
-0.613823 -0.223746 0.272438 153 0 76
0.670654 0.040866 -0.342625 76 0 153
-0.150805 0.061544 -0.354109 76 153 0
-0.561173 0.086905 0.124453 0 255 0
-0.558521 -0.023338 0.337217 255 0 0
-0.035164 0.097050 -0.224420 204 51 127
0.158598 0.061544 0.176699 153 76 0
0.448377 0.061544 0.185504 153 76 0
-0.362907 0.061544 -0.272105 76 0 153
0.560030 0.044510 -0.346935 76 153 0
-0.353377 0.086905 0.188677 204 51 127
0.505276 0.097050 -0.059616 204 51 127
0.508220 0.081498 -0.393560 127 0 127
-0.665478 0.080818 0.333096 127 127 0
-0.134589 0.061544 0.100754 153 76 0
-0.526409 0.041539 0.056099 204 51 127
0.428370 0.061544 0.102475 153 76 0
0.700788 0.061544 0.147376 255 0 0
0.126933 0.061544 0.262261 0 0 255
-0.206038 0.061544 0.116376 153 76 0
-0.122987 0.061544 0.159449 153 76 0
0.460167 0.061544 -0.177252 153 76 0
-0.120569 -0.002469 -0.203513 0 255 0
-0.375650 -0.013526 0.304529 204 51 127
-0.625826 -0.017144 -0.275949 153 0 76
-0.253846 -0.002469 0.134850 76 0 153
-0.526409 0.057001 0.141091 153 76 0
-0.518333 0.097050 -0.210374 204 51 127
-0.004466 0.097050 0.021831 153 76 0
-0.463715 0.097050 0.219882 204 51 127
-0.034037 0.079366 0.239423 76 0 153
-0.417007 -0.026714 0.234887 255 0 0
-0.214353 0.097050 0.087495 204 51 127
0.532837 0.097050 0.264515 153 76 0
0.322951 -0.049033 0.301304 255 0 0
0.473837 -0.023671 -0.062795 76 0 153
-0.594564 -0.055986 -0.022572 127 127 0
0.031866 0.086905 -0.176968 204 51 127
0.565406 -0.014181 -0.222157 153 76 0
-0.640270 -0.014603 -0.369253 76 0 153
0.633678 -0.055336 0.087777 204 51 127
0.628665 -0.019830 -0.210365 204 51 127
-0.263750 0.061544 -0.128405 153 76 0
0.256295 0.041993 0.340869 0 0 255
0.701928 0.061544 -0.207232 255 0 0
-0.034842 0.097050 -0.015441 204 51 127
0.503302 0.061544 -0.330248 127 0 127
0.648336 0.051482 -0.268635 153 76 0
-0.383781 0.061544 -0.178771 153 76 0
0.392951 0.061544 0.328238 0 0 255
0.185495 0.097050 -0.011339 204 51 127
-0.114645 0.026380 0.239423 76 0 153
-0.591804 -0.032212 0.300291 255 0 0
0.677571 0.097050 -0.077891 255 0 0
-0.038144 -0.013526 0.242404 127 127 0
0.031340 -0.042327 0.208989 0 255 0
-0.529394 -0.084646 -0.367568 76 153 0
0.361744 0.028896 -0.222157 153 76 0
0.201170 0.061544 -0.399956 127 0 127
0.464079 0.039225 0.338616 0 0 255
0.311887 0.061544 0.285200 153 76 0
-0.093782 -0.049033 0.268066 255 0 0
0.629446 -0.522897 0.332259 153 76 0
-0.602010 0.061544 0.111232 153 76 0
-0.461159 -0.023671 -0.080051 127 127 0
-0.497400 0.097050 0.191686 153 76 0
-0.205204 0.097050 -0.158265 204 51 127
0.619765 0.100093 0.110320 153 76 0
-0.203885 0.097050 -0.020824 153 76 0
0.247358 -0.013534 0.331739 76 0 153
0.280881 -0.004141 -0.346935 76 153 0
0.307455 -0.023671 0.203489 76 0 153
0.103798 -0.023671 -0.183971 76 0 153
0.670654 -0.026857 0.333460 153 76 0
-0.640887 -0.455781 0.326189 153 0 76
0.017516 0.086905 0.055659 153 76 0
-0.378969 -0.049033 0.255039 255 0 0
0.049107 -0.002469 -0.066570 76 0 153
0.455448 0.097050 0.053148 153 76 0
0.638684 -0.055336 -0.232294 76 153 0
-0.243198 0.039362 -0.217043 0 255 0
-0.648144 0.021560 -0.127667 153 0 76
0.659084 -0.669764 0.329079 153 76 0
0.189892 0.059271 -0.267807 76 0 153
0.579353 0.024649 0.271721 153 0 76
0.095638 -0.007657 0.317537 76 153 0
0.485645 0.061544 0.153332 153 76 0
0.242761 0.100093 0.289587 127 127 0
0.670654 0.028529 0.040719 76 153 0
0.599642 -0.053307 -0.115958 204 51 127
-0.203696 0.008225 0.337217 204 51 127
-0.191746 -0.049033 0.297069 255 0 0
0.670654 0.062100 0.221485 76 153 0
0.188195 -0.023671 0.100431 76 0 153
0.542948 0.061544 -0.055450 0 127 127
0.139691 0.061544 0.304933 153 76 0
-0.432148 -0.049033 0.296221 255 0 0
0.021400 0.028901 -0.018453 76 0 153
0.454880 0.097050 0.165375 204 51 127
0.172132 0.097050 -0.087324 153 76 0
0.636600 0.026037 0.071908 153 0 76
0.347432 0.097050 0.305463 204 51 127
-0.037240 0.061544 0.309039 153 76 0
0.154356 0.097050 0.151756 204 51 127
0.491646 0.100093 0.300319 204 51 127
-0.267212 -0.002469 0.077377 76 0 153
-0.049842 -0.013526 0.139725 76 0 153
-0.613093 -0.283354 0.273639 153 0 76
0.609811 -0.600242 0.318303 153 76 0
-0.100762 -0.023671 0.095859 127 127 0
0.633670 -0.019830 0.061628 204 51 127
0.656295 -0.529475 -0.359776 76 0 153
-0.592012 -0.549797 -0.308163 76 0 153
-0.231924 0.039225 0.323521 204 51 127
-0.648144 0.036690 -0.008161 153 0 76
0.333836 0.040467 0.208989 0 0 255
-0.574016 0.039225 0.190451 153 76 0
-0.314638 0.061544 -0.015845 153 76 0
-0.173362 -0.026714 -0.340293 0 0 255
0.244067 0.061544 -0.229284 153 76 0
0.224056 0.097050 -0.349876 204 51 127
-0.140345 0.097050 0.125884 204 51 127
0.614804 0.100093 -0.308179 0 0 255
0.082151 0.097050 -0.119186 204 51 127
-0.577132 -0.051965 0.088158 127 127 0
-0.096424 0.061544 -0.211533 153 76 0
0.213189 0.097050 0.041131 204 51 127
0.080070 0.077211 -0.359109 127 0 127
0.075934 0.086905 -0.259003 153 76 0
-0.191549 -0.023671 -0.019461 127 127 0
0.004581 -0.002469 -0.074347 0 255 0
-0.593951 0.061544 -0.291272 153 76 0
0.215911 0.039225 0.286290 0 0 255
0.406813 -0.049033 0.291807 255 0 0
0.670654 -0.050130 0.018507 76 153 0
-0.110203 0.097050 0.198086 153 76 0
0.345491 -0.013526 0.031614 76 0 153
0.385118 -0.049033 -0.328593 76 153 0
-0.533531 0.061544 0.231633 76 0 153
0.400268 0.047773 -0.369253 76 153 0
0.651163 -0.286399 0.337026 153 76 0
0.265536 -0.002469 -0.084580 76 0 153
0.388218 -0.013526 0.305028 76 0 153
-0.092241 0.097050 -0.099394 204 51 127
-0.234030 0.061544 0.031301 153 76 0
0.619280 -0.019830 -0.064867 204 51 127
-0.363069 -0.002469 -0.013669 76 0 153
0.670654 -0.088033 -0.288606 76 0 153
0.387469 0.061544 0.148629 153 76 0
-0.063345 -0.014405 -0.214637 0 255 0
-0.293366 0.097050 0.018662 204 51 127
0.070689 0.100093 0.293181 204 51 127
0.456072 0.097050 0.004260 204 51 127
0.001081 0.100093 0.264642 204 51 127
0.352944 0.061544 -0.074407 153 76 0
0.046704 0.100093 0.335470 204 51 127
-0.621166 0.061544 0.047777 153 0 76
-0.466108 0.061544 0.082387 153 76 0
0.670654 0.035853 0.133808 76 153 0
-0.637569 -0.579709 -0.321927 76 0 153
0.670654 -0.005703 0.193993 76 153 0
-0.594302 -0.694528 -0.356170 76 0 153
-0.580626 -0.255598 -0.308443 76 0 153
-0.214867 -0.002469 -0.232996 76 0 153
0.131923 0.100093 -0.308915 0 0 255
-0.220341 0.097050 0.046318 204 51 127
0.632704 -0.126661 -0.368577 76 0 153
0.499316 -0.002469 -0.173791 76 0 153
-0.677937 0.070564 -0.052372 127 127 0
-0.453204 -0.014405 -0.214567 0 255 0
-0.228902 0.100093 0.286052 127 127 0
-0.434738 0.097050 -0.186357 204 51 127
0.604123 -0.055336 0.189045 204 51 127
0.634002 -0.449592 -0.361521 76 0 153
0.276730 0.097050 0.030091 204 51 127
0.150095 -0.029519 -0.346935 0 0 255
0.670654 0.047212 -0.186004 76 153 0
0.201822 0.022086 0.239423 0 0 255
0.288192 -0.008317 0.317537 76 153 0
-0.312208 -0.013526 0.254294 255 0 0
0.418132 0.005560 0.340869 76 153 0
0.057738 0.086905 -0.211032 204 51 127
-0.625826 -0.054096 -0.108779 127 127 0
0.610045 0.026037 -0.169467 153 0 76
-0.063845 0.097050 -0.256080 204 51 127
-0.342232 0.099032 0.340869 204 51 127
-0.295375 -0.049033 0.223693 255 0 0
0.347365 0.018683 -0.346935 127 0 127
0.085541 -0.049033 0.211951 255 0 0
-0.068389 -0.002469 0.218103 76 0 153
-0.039592 -0.037016 0.051929 0 255 0
-0.316765 0.061544 -0.240854 153 76 0
0.420252 -0.049033 0.247560 255 0 0
-0.599462 0.097050 0.083369 0 255 0
-0.542698 -0.013526 0.158490 76 0 153
0.667950 0.097050 0.083335 255 0 0
-0.635858 -0.658019 -0.350164 76 0 153
0.670654 -0.063128 0.153942 76 153 0
0.181348 -0.002469 -0.166093 76 0 153
-0.469948 -0.013526 0.057374 76 0 153
-0.000928 0.061544 -0.225033 153 76 0
-0.437310 0.097050 0.038931 204 51 127
0.624873 0.026037 -0.224076 153 0 76
0.570341 -0.086164 -0.346935 76 153 0
-0.475339 0.058767 0.340869 0 255 0
-0.658911 0.093625 -0.278690 127 127 0
0.605054 -0.343403 -0.335397 76 0 153
0.430435 0.061544 -0.293606 153 76 0
0.648336 -0.017474 0.117697 76 153 0
-0.394782 0.046771 0.208989 0 0 255
-0.607896 -0.183650 0.339096 153 0 76
0.185593 0.100093 -0.365924 204 51 127
-0.649745 0.061544 -0.339095 153 76 0
0.620231 0.007186 0.269857 153 0 76
-0.559447 -0.010057 -0.217005 0 255 0
-0.279481 -0.023671 0.196189 255 0 0
0.549184 -0.049033 0.307711 255 0 0
0.496927 0.009154 -0.267807 76 0 153
0.421352 0.097050 0.339950 127 127 0
0.083675 0.036763 -0.222157 153 76 0
0.418760 0.061544 0.215939 0 0 255
-0.039062 0.060109 -0.287656 76 0 153
0.528029 0.061544 0.292499 0 0 255
0.052191 0.097050 -0.025390 204 51 127
-0.162565 -0.023671 -0.182742 127 127 0
-0.265268 0.097050 -0.319837 204 51 127
0.623167 0.061544 0.151392 153 0 76
0.658017 0.061544 0.366167 0 255 0
-0.076091 0.061544 0.120564 153 76 0
0.219870 -0.049033 -0.338664 0 0 255
-0.114920 -0.028070 0.340869 204 51 127
0.254008 0.086905 -0.286655 0 0 255
0.600030 -0.113466 -0.329164 76 0 153
-0.597705 0.100093 -0.231721 204 51 127
0.270741 0.061544 0.175945 153 76 0
-0.454926 0.061544 -0.083123 153 76 0
-0.137233 -0.023671 0.250005 255 0 0
0.290038 0.097050 -0.207668 204 51 127
-0.116089 0.061544 -0.096348 153 76 0
-0.520472 -0.002469 -0.068437 127 127 0
0.340716 0.061544 -0.207604 153 76 0
0.022313 0.039225 0.065705 76 0 153
0.526872 0.061544 0.137469 153 76 0
-0.339175 -0.066303 -0.347420 0 0 255
-0.370415 -0.023671 0.144513 127 127 0
-0.645068 -0.248342 0.324418 153 0 76
-0.312267 0.097050 -0.182787 204 51 127
-0.418086 0.061544 -0.151416 153 76 0
-0.058522 0.097050 -0.148001 153 76 0
0.505932 0.061544 -0.226197 153 76 0
-0.647272 -0.135639 -0.355328 76 0 153
-0.329912 0.097757 -0.369253 204 51 127
-0.600825 0.100093 -0.341207 204 51 127
0.455747 -0.002517 -0.222157 153 76 0
-0.589118 -0.644284 -0.314224 76 0 153
0.039465 -0.013526 0.176907 76 0 153
-0.345498 0.086905 0.295867 127 127 0
-0.638000 0.085867 -0.238994 127 127 0
0.400743 0.061544 -0.257873 76 0 153
-0.244733 0.097050 -0.032803 153 76 0
0.021021 0.061544 0.140721 153 76 0
-0.605342 0.061544 0.227134 153 76 0
0.321466 -0.002469 -0.241376 153 76 0
0.025005 0.061544 -0.107337 76 0 153
0.261544 0.061544 -0.111422 153 76 0
-0.411878 0.061544 -0.056938 153 76 0
0.635248 -0.055336 0.221045 204 51 127
0.224380 0.066688 0.340869 153 76 0
-0.589934 -0.730838 0.322717 153 0 76
0.118054 0.097050 -0.097825 204 51 127
-0.640540 0.086905 0.284386 127 127 0
-0.591580 0.061544 -0.055670 153 76 0
0.574533 -0.013526 0.254363 153 0 76
0.619763 -0.055336 -0.016497 204 51 127
0.294755 -0.035578 -0.369253 76 153 0
-0.332430 -0.023671 -0.160590 127 127 0
-0.044181 0.097050 -0.058274 204 51 127
0.670654 -0.019322 0.084239 76 153 0
0.015567 0.086905 0.187817 204 51 127
0.638107 -0.345871 -0.303707 76 0 153
0.568127 0.012553 0.317537 76 153 0
-0.648144 0.048029 0.120163 127 127 0
0.465796 0.061544 0.243662 0 0 255
-0.546950 0.097050 -0.007752 204 51 127
0.364534 0.097050 -0.112161 153 76 0
0.670654 0.007770 -0.084408 76 153 0
-0.085404 0.097050 0.269914 127 127 0
0.596164 -0.053809 -0.369253 76 0 153
-0.491272 -0.049033 0.229796 255 0 0
-0.152451 0.100093 -0.298452 204 51 127
-0.387928 0.061544 0.067124 153 76 0
0.620827 -0.652823 0.329640 153 76 0
0.038504 0.061544 0.270008 153 76 0
-0.609517 0.021918 -0.352008 76 0 153
0.338429 0.097050 -0.289568 0 0 255
0.512978 0.061544 -0.183757 153 76 0
-0.520341 -0.049033 -0.329880 0 0 255
-0.167610 0.061544 -0.202167 153 76 0
-0.396974 0.097050 0.271997 204 51 127
0.103577 -0.002469 0.192815 76 0 153
0.313822 -0.002469 0.056189 76 0 153
0.409020 -0.002469 0.144796 76 0 153
-0.221069 -0.002469 -0.155301 76 0 153
0.155428 0.039225 0.246958 76 0 153
0.397232 0.097050 -0.202706 204 51 127
0.173337 -0.049033 0.212011 255 0 0
-0.431413 -0.023671 0.138029 127 127 0
-0.184858 -0.023671 0.259811 127 127 0
0.165390 -0.023671 -0.134585 76 0 153
-0.203268 -0.023671 0.180318 127 127 0
0.206981 0.061544 -0.172220 153 76 0
-0.471355 -0.049033 0.297256 255 0 0
0.501147 0.021379 0.239423 76 0 153
-0.546698 0.008212 0.203376 76 0 153
0.569208 0.004691 -0.019734 76 0 153
0.614052 0.026037 -0.085458 153 0 76
0.040026 -0.037873 -0.328090 0 0 255
-0.648144 -0.034247 0.219614 153 0 76
0.180222 0.061544 -0.065634 153 76 0
-0.526373 -0.013526 0.317143 204 51 127
-0.183507 0.097050 0.157644 204 51 127
0.189953 0.061544 0.314781 0 0 255
-0.242008 -0.023671 0.310930 204 51 127
-0.107760 0.061544 0.323861 153 76 0
-0.522338 0.097050 0.317607 127 127 0
-0.008874 0.097050 -0.135067 204 51 127
-0.400950 -0.046108 -0.346935 76 153 0
-0.308006 -0.023671 -0.078723 127 127 0
-0.331918 -0.002469 0.045368 76 0 153
-0.648144 -0.040190 -0.227760 153 0 76
-0.102288 -0.013526 0.291677 127 127 0
0.545839 -0.023671 0.151080 76 0 153
-0.249768 0.089769 0.357724 0 255 0
0.079337 0.097050 0.163732 204 51 127
-0.625826 -0.089553 -0.289778 153 0 76
0.258177 -0.023671 -0.033989 76 0 153
0.601196 -0.166812 -0.329657 76 0 153
0.620809 -0.466332 -0.306339 76 0 153
0.021400 0.027394 0.295871 0 0 255
-0.452658 0.061544 -0.343204 153 76 0
-0.230841 -0.023671 -0.030873 127 127 0
-0.557652 -0.049033 -0.012236 127 127 0
0.164879 0.100093 -0.288143 0 0 255
-0.613388 -0.319438 0.336360 153 0 76
0.424098 -0.043449 0.208989 255 0 0
-0.098496 0.097050 0.066477 204 51 127
-0.338888 0.061544 0.258550 153 76 0
-0.627820 -0.083526 0.269857 153 0 76
-0.126822 0.097050 -0.011982 153 76 0
-0.579864 -0.231224 0.311072 153 0 76
-0.372576 -0.002469 0.227386 76 0 153
-0.278195 0.061544 0.240138 76 0 153
-0.546698 0.054929 -0.201076 153 76 0
0.179580 0.019950 -0.201867 153 76 0
-0.483416 0.097050 -0.153621 153 76 0
-0.676858 0.061544 -0.125594 127 127 0
0.648336 0.056239 0.186551 153 76 0
0.144248 0.061544 -0.104498 153 76 0
0.605666 -0.394598 0.312264 153 76 0
0.100773 0.061544 0.368799 0 255 0
0.193292 0.061544 0.134683 153 76 0
0.620271 0.026037 0.109154 153 0 76
-0.639411 -0.071356 0.183215 153 0 76
0.039600 -0.026714 -0.165180 0 255 0
-0.485343 0.015034 0.337217 204 51 127
-0.619842 0.097050 0.166874 204 51 127
0.109866 -0.049033 0.284668 255 0 0
0.293018 0.061544 -0.280222 153 76 0
-0.628597 -0.723170 0.282504 153 0 76
-0.474167 -0.013526 0.211724 127 127 0
-0.336394 0.061544 -0.097318 153 76 0
-0.031334 0.097050 -0.329160 204 51 127
-0.321436 -0.002469 -0.128153 76 0 153
-0.424180 0.039225 0.340082 204 51 127
-0.648144 -0.045057 -0.037666 153 0 76
-0.473968 -0.023671 -0.128124 127 127 0
0.353595 0.086905 0.215038 153 76 0
-0.244469 0.091148 0.163478 204 51 127
0.329174 0.052073 -0.369253 76 153 0
0.482765 -0.002469 0.147264 76 0 153
-0.132510 0.097050 0.340709 0 255 0
0.459005 0.093109 0.352657 0 255 0
-0.455001 0.086905 0.307635 127 127 0
-0.608221 -0.055986 -0.060787 127 127 0
-0.621853 0.026037 -0.226074 153 76 0
0.381525 0.100093 0.272707 204 51 127
0.638663 0.100093 -0.168075 255 0 0
0.149050 0.041842 -0.369253 76 153 0
-0.648144 -0.024515 0.027395 153 0 76
-0.325602 0.061544 0.136437 153 76 0
-0.153217 -0.002469 -0.128801 76 0 153
-0.038340 0.061544 -0.113093 153 76 0
-0.175441 0.061544 0.282577 0 0 255
-0.446571 0.097050 0.138416 204 51 127
0.631721 -0.174688 -0.367528 76 0 153
-0.584152 -0.443968 0.298493 153 0 76
0.599642 -0.042020 0.317208 255 0 0
0.586827 0.007326 -0.346935 76 0 153
0.336513 0.061544 -0.118311 153 76 0
-0.421597 0.100079 0.239423 127 127 0
-0.392877 0.094477 0.349544 0 255 0
0.470192 0.086905 -0.320606 0 0 255
-0.564405 -0.049033 0.192706 127 127 0
0.049860 0.046538 -0.369253 76 153 0
-0.353756 0.097050 -0.207722 204 51 127
0.670654 -0.030633 -0.368455 76 0 153
0.001635 0.039226 -0.306654 76 0 153
-0.155916 0.061544 -0.000698 153 76 0
-0.278632 0.086905 0.294190 204 51 127
0.640658 -0.340969 -0.363895 76 0 153
-0.648144 -0.075034 -0.245324 153 0 76
-0.053674 -0.013526 0.098559 127 127 0
-0.123294 0.061544 -0.325692 127 0 127
0.600345 -0.130566 0.300810 153 76 0
-0.580945 0.026037 0.002321 153 76 0
-0.005425 0.097050 0.156827 204 51 127
-0.471928 -0.023671 -0.006733 127 127 0
0.595780 0.061544 0.265742 153 76 0
0.623792 0.061544 -0.118987 153 0 76
-0.543966 0.061544 -0.291122 153 76 0
-0.393425 0.097050 -0.240105 204 51 127
0.670654 -0.002322 -0.166028 76 153 0
-0.644195 -0.276471 -0.328742 76 0 153
0.677375 0.097050 0.193466 204 51 127
0.569208 0.021954 -0.234656 76 0 153
-0.445201 -0.049033 -0.340526 0 0 255
-0.515335 -0.014405 -0.210360 0 255 0
0.228508 0.051502 -0.369253 76 153 0
0.460489 -0.023671 -0.136134 76 0 153
0.202643 0.026098 -0.346935 76 153 0
-0.558935 0.039225 0.313868 0 0 255
0.316810 -0.001724 0.239423 76 0 153
0.665908 -0.312928 -0.315596 76 0 153
-0.491879 0.097050 -0.237860 204 51 127
-0.563033 0.100093 -0.143604 0 255 0
-0.008972 0.039226 -0.122767 0 0 255
0.622301 -0.019830 0.022212 204 51 127
-0.230059 0.061544 -0.370043 76 153 0
0.442063 0.097050 -0.144931 153 76 0
-0.509137 -0.013526 0.277439 127 127 0
0.666137 -0.104206 -0.367596 76 0 153
0.645652 -0.495768 -0.306982 76 0 153
0.541875 -0.023671 -0.083277 76 0 153
0.360590 0.080818 0.337222 0 255 0
-0.423303 0.097050 -0.277175 204 51 127
-0.565371 0.028532 -0.369253 76 153 0
-0.309215 0.097050 -0.098902 204 51 127
0.289961 0.061544 -0.029048 153 76 0
0.640216 -0.139102 0.339994 153 76 0
0.171961 0.092366 0.354059 0 255 0
-0.525192 0.086905 -0.320129 153 76 0
0.470023 0.043688 -0.346935 127 0 127
0.333073 0.097050 -0.070675 204 51 127
0.701800 0.061544 -0.306253 255 0 0
0.543546 0.097050 0.074065 204 51 127
0.388822 -0.002469 0.220155 76 0 153
-0.254355 0.097050 -0.247044 204 51 127
-0.611884 -0.020480 0.172705 127 127 0
0.559307 -0.049033 -0.308882 0 0 255
-0.195427 -0.002469 0.111544 76 0 153
-0.630149 0.097050 -0.175254 0 255 0
0.618742 -0.637985 -0.357405 76 0 153
0.380552 0.097050 -0.024217 204 51 127
0.346762 0.061544 0.087823 153 76 0
0.071098 0.048953 0.340869 153 76 0
0.521363 -0.023671 0.257716 76 0 153
0.528804 0.064464 0.340869 153 76 0
0.404381 -0.023671 -0.074081 76 0 153
0.151504 -0.049033 0.264468 255 0 0
0.276878 0.034575 -0.369253 76 153 0
0.202569 -0.049033 0.243631 255 0 0
-0.386664 0.061544 -0.308987 127 0 127
-0.008374 -0.026714 0.095676 0 0 255
-0.380110 -0.002469 -0.113646 76 0 153
-0.018164 0.017927 0.259192 0 0 255
-0.158169 0.061544 0.179405 153 76 0
-0.528355 -0.049033 0.236984 255 0 0
-0.205702 0.097050 -0.374352 127 0 127
-0.647186 0.061544 0.075118 153 76 0
0.569208 0.070055 -0.118363 153 76 0
-0.585362 -0.472373 -0.316427 76 0 153
-0.060315 0.097050 0.323781 127 127 0
0.331828 -0.002469 -0.071245 76 0 153
-0.648144 -0.013735 -0.070383 153 0 76
-0.299028 -0.023671 -0.013455 127 127 0
-0.508841 0.097050 0.005670 204 51 127
-0.022957 -0.026714 -0.332944 0 255 0
0.351298 0.097050 -0.200822 153 76 0
0.545058 0.097050 -0.141471 204 51 127
0.405352 -0.002469 -0.235989 76 0 153
0.655880 0.100093 0.241807 204 51 127
-0.085464 -0.023671 -0.147811 127 127 0
0.624110 0.061544 -0.357395 76 0 153
0.633173 -0.019830 0.156562 204 51 127
-0.497233 0.061544 -0.040697 153 76 0
0.670433 0.061544 0.095510 255 0 0
-0.326603 0.018195 -0.202476 0 255 0
0.598628 0.010076 0.013548 153 0 76
0.606048 0.061544 0.003395 153 0 76
-0.471004 0.100093 0.260912 204 51 127
0.021400 0.015605 0.198426 76 0 153
-0.230253 -0.002469 -0.091876 127 127 0
-0.006918 -0.049033 0.035620 0 255 0
0.522363 0.061544 0.201189 153 76 0
0.579353 -0.025976 -0.189419 76 0 153
-0.234349 0.018882 -0.369253 76 153 0
0.573027 0.086905 -0.349729 204 51 127
-0.235060 -0.013526 0.254717 127 127 0
-0.517558 -0.023671 0.106043 127 127 0
0.118500 0.071688 0.334105 153 76 0
-0.116740 -0.044562 -0.308386 0 0 255
0.240331 -0.049033 0.243980 255 0 0
0.188436 0.061544 0.071891 153 76 0
0.629157 -0.089142 0.340869 153 76 0
-0.582409 0.026037 0.111201 204 51 127
0.603042 -0.264388 0.313117 153 76 0
0.117593 0.097050 -0.020637 204 51 127
0.374175 0.086905 -0.230872 204 51 127
0.111103 -0.002469 -0.093039 76 0 153
0.670654 -0.010592 0.250916 76 153 0
0.643264 -0.052927 -0.101901 76 153 0
-0.577132 -0.064422 0.312268 153 0 76
0.490513 0.086905 0.219421 204 51 127
0.417502 -0.023671 0.069869 76 0 153
-0.104271 0.097050 -0.061612 204 51 127
0.648336 -0.011178 -0.287232 204 51 127
-0.648144 -0.000815 -0.013811 153 0 76
0.252533 0.097050 -0.027958 153 76 0
-0.501120 0.097050 -0.089547 204 51 127
0.158570 0.061544 0.014019 153 76 0
-0.045165 -0.002469 -0.022004 76 0 153
0.416048 0.061544 -0.122190 153 76 0
0.291020 -0.002469 -0.015238 76 0 153
-0.677470 0.071794 0.244493 127 127 0
-0.537338 0.009335 0.239423 76 0 153
-0.330092 -0.023671 0.161049 127 127 0
0.021400 0.025232 -0.219169 76 0 153
0.625977 -0.541950 -0.307991 76 0 153
0.275819 -0.002469 -0.141152 76 0 153
-0.083262 0.091141 0.355925 0 255 0
-0.309540 -0.002469 0.076525 76 0 153
-0.006700 -0.026714 0.135265 127 127 0
0.248813 0.061544 0.269023 0 0 255
0.667696 -0.231123 -0.330628 76 0 153
0.508263 0.061544 -0.120835 153 76 0
0.321686 -0.002469 0.095970 76 0 153
0.358805 -0.002469 -0.127970 76 0 153
0.644276 0.097050 -0.206390 204 51 127
0.058262 0.006908 0.239423 76 0 153
-0.415487 0.061544 -0.204569 153 76 0
0.242612 -0.002469 0.037155 76 0 153
-0.236308 0.061544 -0.273794 76 0 153
0.158195 0.092904 -0.169405 204 51 127
0.361145 0.061544 -0.306982 153 76 0
0.061822 -0.002469 -0.133789 76 0 153
0.269440 0.061544 -0.173180 153 76 0
0.229087 0.100093 -0.311351 204 51 127
-0.071957 0.086905 -0.304277 153 76 0
-0.492991 -0.029495 0.340869 127 127 0
-0.289879 0.039225 -0.333281 127 0 127
-0.417584 0.061544 -0.360122 153 76 0
0.599642 -0.048474 0.060888 204 51 127
-0.625826 -0.047909 -0.168297 127 127 0
-0.002009 -0.049033 -0.141578 0 255 0
0.689644 0.061544 0.278641 255 0 0
0.500750 0.097050 -0.242831 204 51 127
-0.015456 0.097050 0.079508 204 51 127
-0.090470 -0.023671 0.033572 127 127 0
-0.525423 -0.002469 -0.116976 76 0 153
-0.533718 0.039225 -0.166769 76 0 153
-0.640890 -0.427706 -0.305807 76 0 153
-0.576118 0.002704 0.143351 255 0 0
0.146738 0.086905 0.211993 204 51 127
0.222133 0.097050 0.178518 204 51 127
0.070230 -0.023671 -0.020991 76 0 153
0.358903 -0.002469 -0.177087 76 0 153
0.561867 0.061544 0.307421 0 0 255
0.302174 0.086905 -0.318435 0 0 255
-0.035506 -0.013526 0.316959 204 51 127
-0.410449 0.097050 0.064309 153 76 0
0.474220 -0.013526 0.294311 76 0 153
0.684457 0.061544 -0.018732 255 0 0
0.533541 -0.036795 -0.369253 76 153 0
-0.286932 0.097050 0.342760 204 51 127
-0.039592 -0.048282 -0.181630 0 255 0
-0.407390 0.061544 -0.020320 153 76 0
-0.000940 0.061544 0.241666 255 0 0
-0.679368 0.066066 0.158004 127 127 0
-0.154031 0.061544 -0.120818 153 76 0
0.505895 0.061544 0.062602 153 76 0
0.297550 0.097050 -0.146201 204 51 127
0.598628 -0.009372 -0.127903 153 0 76
-0.594448 -0.379983 -0.363042 76 0 153
-0.093862 -0.002469 -0.030815 76 0 153
0.606548 -0.411771 -0.359109 76 0 153
-0.640403 -0.479771 0.284943 153 0 76
0.608514 0.035825 0.340869 0 0 255
0.452433 0.061544 0.068679 153 76 0
-0.546698 0.012687 0.123115 76 0 153
0.659089 0.061544 0.014304 76 153 0
-0.084826 -0.002469 0.165524 76 0 153
0.599642 -0.066061 0.279706 153 76 0
-0.210009 0.100093 -0.313241 0 0 255
-0.622052 0.100093 0.004671 204 51 127
0.079355 0.061544 0.084289 153 76 0
-0.648144 -0.001376 0.149412 153 0 76
-0.039592 -0.047659 -0.087486 0 255 0
-0.126414 0.064021 -0.400973 127 0 127
0.308163 0.086905 0.311501 204 51 127
0.161672 -0.013526 0.160999 76 0 153
0.319699 0.059680 0.340869 153 76 0
0.364722 0.097050 0.010480 204 51 127
-0.130083 0.061544 -0.170798 153 76 0
0.398456 -0.013718 -0.346935 76 153 0
0.462925 0.025016 0.239423 0 0 255
-0.000028 -0.018857 -0.276908 0 255 0
0.487526 -0.049033 0.286383 255 0 0
-0.336551 0.097050 0.086845 153 76 0
-0.256862 0.097050 0.036862 204 51 127
0.436564 -0.002469 0.183723 76 0 153
0.374883 0.061544 -0.146211 153 76 0
-0.397136 0.097339 -0.369253 0 0 255
0.609226 -0.408686 -0.305079 76 0 153
-0.174605 0.034961 -0.267807 76 0 153
-0.326903 0.061544 -0.204353 153 76 0
-0.645599 -0.212214 -0.333034 76 0 153
0.670654 0.045230 -0.126225 76 153 0
0.040357 -0.013526 0.125413 76 0 153
-0.567587 -0.049033 -0.159437 127 127 0
0.511895 -0.013526 -0.102953 76 0 153
-0.618508 0.026037 -0.079948 153 76 0
0.431981 0.061544 -0.207254 153 76 0
-0.431693 -0.002469 -0.174880 127 127 0
-0.356536 0.097050 -0.043616 204 51 127
0.643264 -0.053309 -0.059434 204 51 127
-0.647928 -0.106438 0.306531 153 0 76
0.656953 -0.373609 -0.363182 76 0 153
0.637886 0.100093 0.317489 153 76 0
0.669180 -0.168856 0.302857 153 76 0
-0.427585 0.097050 0.201946 204 51 127
-0.064370 0.086905 0.144106 153 76 0
-0.013170 0.061544 -0.186775 153 76 0
0.279617 0.061544 0.076549 153 76 0
-0.648144 0.043404 0.305301 153 76 0
-0.082809 0.097050 0.101877 204 51 127
0.500907 0.011170 -0.369253 76 153 0
0.478905 0.061544 -0.057111 153 76 0
-0.502352 -0.022386 -0.346935 0 0 255
0.581754 -0.026714 0.016601 76 0 153
-0.173772 0.097050 -0.067897 204 51 127
0.016995 0.017370 -0.346935 76 153 0
0.107804 0.061544 -0.301909 153 76 0
-0.066610 -0.000699 0.340260 204 51 127
-0.595930 0.097050 -0.303333 204 51 127
0.187006 0.097050 0.237049 153 76 0
0.269485 -0.049033 -0.337364 76 153 0
-0.527552 -0.002469 -0.009247 76 0 153
0.072326 0.086905 -0.296168 204 51 127
-0.612628 -0.374628 0.335247 153 0 76
-0.254225 -0.002469 0.029411 76 0 153
-0.238070 -0.002469 -0.260925 76 0 153
-0.197956 -0.002469 0.045290 76 0 153
-0.094421 0.097050 -0.135605 204 51 127
-0.118866 -0.002469 -0.241584 76 0 153
0.185856 -0.023671 -0.088567 76 0 153
0.596802 0.100093 -0.083901 204 51 127
-0.080392 0.097050 0.003028 153 76 0
-0.576118 -0.004058 0.034632 255 0 0
-0.182679 0.097050 0.063669 204 51 127
-0.553433 0.061544 0.170650 204 51 127
-0.612941 0.061544 0.145791 153 76 0
0.568424 0.086125 0.333696 0 255 0
-0.648144 -0.001644 0.250162 153 0 76
-0.576118 0.015685 -0.166375 255 0 0
-0.316687 0.071688 0.336869 153 76 0
0.611170 0.061544 -0.177873 153 0 76
-0.620777 -0.204642 -0.366873 76 0 153
-0.589156 -0.592700 0.279874 153 0 76
0.438410 0.097050 -0.335354 0 0 255
-0.088340 0.061544 0.293315 0 0 255
-0.528204 -0.002469 -0.174487 76 0 153
0.502990 -0.014286 0.337826 76 153 0
-0.612711 0.006984 0.340869 153 0 76
0.203778 0.061544 -0.227138 153 76 0
-0.526017 -0.036507 -0.024938 127 127 0
0.220027 -0.013526 -0.095243 76 0 153
-0.280611 -0.049033 0.295205 255 0 0
-0.240374 0.095040 -0.166361 204 51 127
0.253060 -0.002469 -0.173352 76 0 153
0.598216 0.100093 -0.274298 204 51 127
-0.276542 0.097050 0.226802 204 51 127
0.359296 0.097050 0.116973 204 51 127
-0.620754 -0.023712 0.092525 127 127 0
0.051914 0.039226 0.141357 76 0 153
0.648336 0.021928 -0.151315 153 0 76
0.565241 0.065172 -0.267807 76 0 153
0.061697 0.097050 0.111642 204 51 127
0.702293 0.064378 -0.364842 255 0 0
-0.375471 -0.002469 -0.191457 76 0 153
0.126337 -0.026714 0.311422 76 0 153
-0.581456 -0.310216 0.314069 153 0 76
0.301616 0.100093 0.248794 204 51 127
0.272409 -0.002469 0.203944 76 0 153
0.070780 -0.049033 0.296735 255 0 0
0.412675 0.061544 0.070048 153 76 0
-0.596149 0.061544 -0.137338 153 76 0
-0.576118 0.003933 0.226121 255 0 0
0.166076 -0.002469 -0.234748 76 0 153
0.522964 0.097050 -0.096537 204 51 127
0.548919 0.039940 -0.024952 0 127 127
0.582652 0.061544 -0.031812 153 76 0
0.242319 -0.023671 0.067862 76 0 153
0.599642 0.058860 0.115091 153 0 76
-0.346259 0.029984 -0.267807 76 0 153
-0.499617 0.025490 0.239423 0 0 255
0.670654 0.042966 0.319228 153 76 0
-0.143855 0.091538 -0.212469 204 51 127
0.080951 -0.023671 0.031424 76 0 153
-0.280308 0.061544 -0.062247 153 76 0
-0.644214 -0.290720 0.301855 153 0 76
0.423285 0.086905 0.295907 127 127 0
0.025440 0.018642 0.337826 76 0 153
0.364756 0.097050 -0.315462 204 51 127
-0.636827 -0.104422 -0.341053 76 0 153
-0.585072 -0.489620 0.309436 153 0 76
0.210833 -0.013526 0.215597 76 0 153
-0.479596 0.039225 0.290682 0 0 255
-0.481832 -0.023671 0.090555 127 127 0
0.598628 -0.002989 0.129885 153 0 76
-0.230007 0.061544 0.079198 153 76 0
0.236611 0.086905 0.067620 153 76 0
-0.605643 0.086905 0.297658 127 127 0
0.618690 0.061544 0.080819 153 0 76
-0.175636 -0.013526 0.297007 127 127 0
-0.268230 0.086905 -0.354726 0 0 255
-0.510530 -0.049033 0.302618 255 0 0
-0.061922 0.029428 -0.202476 0 255 0
0.037039 0.061544 0.030086 76 0 153
0.105379 -0.023671 0.134204 76 0 153
-0.361183 0.097050 0.151389 153 76 0
0.061854 -0.027997 -0.231426 0 255 0
-0.537473 0.061544 0.015210 76 0 153
0.239442 0.100093 0.329278 204 51 127
-0.631963 -0.161190 0.271177 153 0 76
-0.648144 0.046885 -0.238333 153 0 76
0.006224 0.061544 -0.038291 153 76 0
0.603996 -0.294947 -0.328509 76 0 153
0.116304 0.039362 -0.205490 153 76 0
-0.100253 0.061544 0.046800 153 76 0
0.633530 -0.055336 -0.281499 76 0 153
-0.386408 0.100093 -0.314530 204 51 127
0.105438 0.097050 -0.188982 204 51 127
0.028066 0.097050 -0.127262 153 76 0
-0.603912 -0.020480 -0.153412 127 127 0
-0.606907 -0.037583 -0.298241 127 127 0
0.667527 0.061544 -0.378947 255 0 0
-0.031772 0.061544 0.027251 153 76 0
-0.082203 0.030847 0.316928 204 51 127
-0.292098 -0.002469 -0.237272 76 0 153
0.320334 0.086905 0.144235 153 76 0
-0.443325 -0.049033 0.245176 255 0 0
-0.288522 0.061544 0.127068 153 76 0
0.670654 -0.072424 -0.228917 76 153 0
-0.085791 -0.021158 -0.369253 76 153 0
0.042870 -0.023671 -0.094517 76 0 153
0.641413 -0.095698 -0.330781 76 0 153
-0.328596 0.061544 0.185308 153 76 0
-0.506223 0.097050 -0.126283 204 51 127
0.651641 0.100093 0.126173 204 51 127
0.457773 0.097050 0.244942 153 76 0
-0.412046 0.020181 -0.369253 76 153 0
0.380813 0.039225 0.303306 0 0 255
0.505203 0.061544 0.019902 153 76 0
0.061854 -0.045473 0.067412 0 255 0
0.228312 0.008575 -0.222157 153 76 0
-0.164802 0.097050 -0.155775 204 51 127
0.466210 0.061544 -0.092383 153 76 0
-0.278562 0.097050 0.097776 153 76 0
0.598628 0.009092 -0.055688 153 0 76
-0.294481 -0.026714 0.329392 204 51 127
-0.495688 0.061544 0.372616 0 255 0
0.355143 -0.044312 0.208989 255 0 0
-0.384778 0.035967 0.316928 204 51 127
0.186613 0.012300 0.317537 76 153 0
0.084748 -0.054496 -0.349987 76 153 0
0.542499 -0.023671 0.044012 76 0 153
-0.271306 -0.023671 -0.130040 127 127 0
-0.137079 0.097050 -0.265459 204 51 127
0.186547 -0.023350 -0.346935 0 0 255
0.290609 -0.023671 0.138049 76 0 153
-0.609036 0.026037 -0.192990 153 76 0
0.095428 -0.017979 -0.369253 76 153 0
-0.644392 0.097050 -0.063991 204 51 127
0.589498 -0.017256 0.211976 204 51 127
0.602840 -0.055336 0.121510 204 51 127
0.509295 0.097050 -0.313889 204 51 127
0.660810 -0.076090 0.206613 76 153 0
0.599642 0.008671 -0.312502 76 0 153
-0.562749 -0.049033 -0.266936 127 127 0
-0.451500 0.086905 -0.303010 0 0 255
0.178237 0.097050 -0.199028 204 51 127
0.522281 -0.002469 0.210314 76 0 153
-0.517173 0.064844 -0.267807 76 0 153
0.145420 0.100093 0.288821 204 51 127
0.607532 -0.487152 0.288305 153 76 0
-0.556049 0.100093 -0.189087 204 51 127
0.422573 -0.023671 0.030742 76 0 153
0.602322 0.097050 0.040176 204 51 127
0.564442 0.061544 0.068768 153 76 0
-0.556843 0.009891 -0.066477 76 0 153
0.626119 -0.302052 0.274016 153 76 0
-0.219065 0.021479 0.239423 76 0 153
0.534077 -0.002469 -0.151791 76 0 153
-0.577699 -0.121631 -0.337557 76 0 153
0.073918 -0.013526 0.094073 76 0 153
-0.643072 -0.032500 0.307336 153 0 76
-0.588450 -0.613707 -0.337218 76 0 153
0.653409 0.018824 -0.320166 76 153 0
-0.018164 0.011862 -0.151883 0 0 255
0.033793 0.097050 -0.055441 204 51 127
0.072986 0.039225 0.279123 0 0 255
0.599642 0.001969 0.305890 76 153 0
-0.496110 0.061544 0.109361 153 76 0
0.114045 -0.002469 -0.023339 76 0 153
-0.619455 -0.342720 0.274836 153 0 76
-0.030618 0.093039 -0.381180 127 0 127
-0.229235 0.061544 0.149521 153 76 0
-0.546698 0.071916 -0.080312 153 76 0
-0.020638 0.024308 -0.267807 76 0 153
0.348220 0.061544 0.281918 153 76 0
-0.306727 0.061544 0.289245 0 0 255
-0.436908 0.086905 -0.027056 204 51 127
0.516902 0.097050 -0.162470 204 51 127
0.312012 0.097050 0.058921 204 51 127
0.603050 0.061544 0.225009 153 76 0
0.413944 0.061544 0.173984 153 76 0
-0.647159 -0.144597 0.305208 153 0 76
0.401550 0.086905 -0.078932 153 76 0
-0.039592 -0.043725 -0.273477 0 255 0
0.409919 0.100093 -0.281587 204 51 127
0.447863 -0.013526 0.271175 255 0 0
-0.606305 0.026037 0.186856 153 76 0
0.622653 -0.608800 -0.309452 76 0 153
0.482715 0.071399 -0.369253 153 76 0
0.670654 -0.018709 -0.257458 76 153 0
-0.492579 0.061544 0.053004 153 76 0
-0.192984 0.039225 -0.310740 127 0 127
0.579060 -0.023671 -0.055454 153 0 76
0.294542 0.091152 0.355909 0 255 0
-0.465164 0.000249 -0.346935 76 153 0
-0.026084 0.039226 0.142995 0 0 255
0.360566 0.061544 0.051780 153 76 0
-0.231320 -0.031720 0.208989 255 0 0
-0.485854 0.097050 0.148751 204 51 127
0.040641 0.066022 0.340869 0 255 0
-0.380098 0.086905 -0.010200 153 76 0
-0.413875 -0.002469 -0.124999 76 0 153
-0.018164 0.029719 0.300552 0 0 255
-0.096210 0.086905 0.228403 153 76 0
0.315299 0.061544 -0.183266 153 76 0
0.556536 0.039225 -0.181459 76 0 153
-0.546698 0.069635 0.059889 204 51 127
-0.599092 -0.128726 0.340203 153 0 76
0.325338 0.061544 -0.040628 153 76 0
-0.579278 -0.202184 0.331952 153 0 76
0.136071 0.097050 -0.240631 204 51 127
-0.565982 0.061544 0.096554 204 51 127
0.255964 0.097050 0.170433 204 51 127
0.643264 -0.026203 -0.138224 76 153 0
0.547343 0.086905 0.000822 204 51 127
-0.184899 -0.023671 -0.070247 127 127 0
-0.583799 -0.400833 -0.329834 76 0 153
0.329363 0.072491 0.239423 76 0 153
0.084368 0.061544 0.027707 153 76 0
0.166718 -0.013526 -0.021847 76 0 153
0.051980 -0.026714 -0.293992 0 255 0
0.479991 -0.023671 0.180271 76 0 153
-0.405216 0.061544 -0.114518 153 76 0
-0.327100 -0.009964 -0.222765 76 0 153
-0.621612 -0.412948 -0.362322 76 0 153
0.381046 -0.023671 0.024494 76 0 153
-0.002234 0.051611 -0.346935 127 0 127
0.638169 -0.092819 0.269857 153 76 0
-0.128974 -0.013526 0.030664 127 127 0
0.636128 -0.202511 0.272010 153 76 0
-0.611998 0.096198 0.239423 127 127 0
0.348004 -0.063931 -0.368536 76 153 0
-0.167086 0.061544 0.327884 0 0 255
-0.008020 -0.020458 -0.022431 0 255 0
-0.109370 0.061544 -0.289288 153 76 0
-0.415784 0.097050 0.122584 153 76 0
0.491681 -0.002469 0.058930 76 0 153
0.622506 0.097050 -0.059976 255 0 0
0.467378 0.091905 0.088713 204 51 127
-0.244761 0.061544 -0.099494 153 76 0
0.151923 0.097050 -0.024759 204 51 127
-0.298699 0.061544 -0.138139 153 76 0
0.260422 0.057209 -0.346935 76 153 0
0.412145 0.097050 0.209382 153 76 0
-0.501100 0.001370 -0.267807 76 0 153
-0.335075 -0.002469 -0.082065 127 127 0
-0.434791 -0.013526 0.297550 127 127 0
-0.609684 -0.187571 0.271709 153 0 76
0.183778 -0.002469 0.062089 76 0 153
-0.417404 -0.002469 -0.045119 76 0 153
-0.271342 0.026461 0.340260 204 51 127
0.336305 -0.049033 0.265572 255 0 0
0.027289 0.061544 -0.300828 153 76 0
-0.581235 0.061544 -0.204483 153 76 0
-0.281641 0.086905 0.188796 204 51 127
-0.648378 0.061544 -0.377985 127 0 127
0.391633 0.061544 0.010083 153 76 0
-0.359128 -0.013526 0.104015 127 127 0
0.589742 0.086990 0.360754 0 255 0
-0.348431 -0.030046 -0.346935 0 0 255
0.472201 0.061544 -0.006161 153 76 0
0.601141 -0.170033 0.323616 153 76 0
0.398568 -0.026714 0.340057 76 0 153
-0.048932 0.061544 -0.077908 76 0 153
-0.618170 -0.055986 0.132962 153 0 76
0.670654 -0.012329 -0.034627 76 153 0
0.569208 -0.001101 -0.260218 76 0 153
-0.589593 -0.713947 0.289353 153 0 76
0.171102 -0.049033 -0.325919 0 0 255
0.629058 0.100093 0.176651 153 76 0
0.670654 -0.063159 0.337846 153 76 0
-0.526932 0.086905 0.119809 204 51 127
0.599642 0.031909 0.062944 0 127 127
-0.371827 0.039225 -0.344664 127 0 127
-0.570527 -0.044119 -0.369253 76 153 0
0.666580 -0.297839 0.308520 153 76 0
-0.060897 0.061544 -0.028438 153 76 0
0.569208 0.068331 0.168833 76 0 153
-0.095656 -0.023671 -0.193062 127 127 0
0.130928 -0.013526 -0.138979 76 0 153
0.326604 -0.048446 -0.308386 0 0 255
-0.274957 0.086905 -0.219561 204 51 127
-0.585885 -0.496327 -0.344905 76 0 153
-0.631106 0.053469 -0.308386 76 0 153
-0.168047 0.039225 0.218591 0 0 255
-0.328156 0.097050 0.026607 153 76 0
0.163306 0.061544 -0.341470 153 76 0
0.670654 -0.022320 -0.110511 76 153 0
-0.389679 -0.011373 -0.222765 76 0 153
-0.089571 -0.023671 -0.091854 127 127 0
0.459254 0.026585 -0.201867 153 76 0
-0.045061 -0.049033 0.266942 255 0 0
0.091750 0.034203 0.239423 0 0 255
0.465737 0.061544 -0.215319 153 76 0
0.459365 -0.013526 0.231648 76 0 153
-0.517980 0.086905 0.278222 127 127 0
-0.477998 -0.023671 0.174144 127 127 0
-0.447287 0.061544 0.154497 153 76 0
0.292625 0.061544 0.037920 153 76 0
0.669285 0.046151 -0.298241 76 153 0
-0.416791 0.097050 0.302965 127 127 0
0.629395 -0.055336 -0.152939 204 51 127
-0.365178 -0.002469 -0.050839 76 0 153
-0.634458 -0.056894 0.340869 153 0 76
-0.096125 0.061544 -0.035829 153 76 0
0.606152 -0.418681 0.287981 153 76 0
0.670654 0.005781 0.311488 153 76 0
0.121635 0.086905 0.147965 153 76 0
-0.304275 0.034138 -0.267807 76 0 153
0.537278 -0.009001 0.337826 76 153 0
-0.224406 0.009622 -0.202476 0 255 0
0.663404 -0.427562 -0.332328 76 0 153
-0.473795 0.061544 -0.281375 153 76 0
0.310946 0.061544 0.099739 153 76 0
0.247335 -0.023671 -0.146658 76 0 153
0.420202 -0.023671 -0.114697 76 0 153
-0.392609 -0.007845 -0.346935 76 153 0
-0.170616 0.061544 -0.384251 127 0 127
-0.168345 0.021906 -0.202476 0 255 0
0.260688 -0.023671 0.179897 76 0 153
-0.324531 -0.002469 -0.031245 76 0 153
-0.562882 0.071688 -0.367158 127 0 127
-0.045876 -0.013526 -0.140226 76 0 153
0.109416 0.061544 0.068192 153 76 0
-0.577637 -0.120750 0.312882 153 0 76
0.083048 0.017184 0.337826 76 153 0
0.351740 -0.023671 0.110084 76 0 153
0.025873 0.097050 -0.248313 153 76 0
-0.431727 -0.002469 0.110060 76 0 153
0.321700 -0.026714 -0.343525 0 0 255
-0.257647 0.061544 0.323766 0 0 255
0.669158 -0.164192 -0.329955 76 0 153
-0.577257 -0.029269 0.269644 255 0 0
-0.580461 -0.020480 -0.037843 127 127 0
0.617714 -0.278244 -0.302230 76 0 153
-0.347702 0.086905 0.056340 153 76 0
0.702716 0.062507 0.106208 255 0 0
0.164677 -0.023671 0.126164 76 0 153
-0.401252 0.097050 -0.146940 153 76 0
0.030530 -0.014302 0.301648 76 0 153
0.633448 0.061544 0.286571 153 76 0
-0.317782 0.040664 -0.308386 127 0 127
0.367333 0.039475 0.340869 76 153 0
-0.066901 -0.002469 -0.076668 76 0 153
0.001110 -0.010823 0.251809 0 0 255
-0.246876 -0.002469 0.216567 76 0 153
-0.327180 0.016499 0.239423 76 0 153
0.083533 0.061544 -0.061090 153 76 0
-0.199504 0.061544 -0.178093 153 76 0
0.021400 0.007079 -0.128859 76 0 153
0.610095 0.090813 -0.384809 127 0 127
-0.055040 0.040492 -0.346935 127 0 127
0.443802 0.097050 -0.255664 204 51 127
-0.552216 -0.049033 -0.103272 127 127 0
-0.243770 0.064233 -0.400925 127 0 127
0.297847 0.097050 -0.240651 204 51 127
0.001110 0.008629 -0.186921 0 0 255
0.456932 0.061544 0.314144 0 0 255
-0.170831 -0.049033 0.241713 255 0 0
0.660510 0.074289 -0.111905 153 76 0
-0.546698 0.019380 0.165472 76 0 153
0.167247 -0.023671 -0.192298 153 76 0
0.544811 0.007579 -0.201867 76 0 153
-0.261765 -0.002469 -0.025093 76 0 153
-0.169419 -0.002469 0.079837 76 0 153
-0.359027 -0.002469 -0.252932 76 0 153
-0.033677 0.050570 0.340869 153 76 0
0.650267 -0.206258 0.338641 153 76 0
-0.187316 0.061544 -0.251153 153 76 0
-0.341503 -0.049033 0.259507 255 0 0
-0.216633 0.055964 0.239423 153 76 0
0.538440 0.096634 -0.066234 204 51 127
-0.287943 0.097050 -0.250908 204 51 127
0.564788 0.061544 -0.313309 153 76 0
0.350190 0.061544 0.188223 153 76 0
-0.130893 -0.026714 0.216935 127 127 0
-0.638813 -0.522777 -0.348416 76 0 153
-0.398505 -0.049033 0.299211 255 0 0
-0.619392 -0.149809 -0.368071 76 0 153
0.192636 -0.049033 0.325404 255 0 0
-0.646222 0.071688 -0.007912 153 76 0
0.379444 0.027999 -0.267807 76 0 153
-0.616969 -0.254363 -0.365787 76 0 153
-0.095991 0.028411 -0.346935 76 153 0
0.020127 0.086905 -0.016723 153 76 0
-0.648144 0.011609 -0.265772 153 0 76
0.260643 0.029396 -0.267807 76 0 153
0.684981 0.091620 0.327797 255 0 0
0.386151 -0.023671 -0.018274 76 0 153
0.439384 -0.049033 -0.325520 0 0 255
0.445460 -0.002469 0.075914 76 0 153
0.505453 -0.078597 -0.351699 76 153 0
-0.345062 0.034937 -0.369253 76 153 0
-0.432791 0.003671 0.239423 76 0 153
0.015418 -0.049033 -0.051224 0 255 0
-0.060232 0.100093 0.243819 204 51 127
-0.506718 0.092245 -0.382627 127 0 127
0.527943 0.039225 0.261600 0 0 255
-0.373557 0.061544 0.107084 153 76 0
0.670654 0.038997 -0.054085 76 153 0
-0.168595 -0.002469 0.136130 76 0 153
0.131111 0.039225 0.335569 76 153 0
-0.620754 -0.023369 -0.243258 127 127 0
-0.300830 0.080818 -0.369442 0 0 255
0.637622 0.000506 -0.352008 76 0 153
-0.035237 0.097050 0.210697 204 51 127
0.136676 0.061544 -0.137251 153 76 0
-0.641797 -0.410651 0.298450 153 0 76
0.533431 0.023954 -0.346935 76 153 0
0.548445 -0.049033 0.230974 255 0 0
0.119006 0.097050 0.032362 204 51 127
-0.062690 0.065438 0.372268 0 255 0
0.344899 0.097050 0.049305 204 51 127
-0.146718 0.004088 -0.346935 76 153 0
-0.228230 0.086905 -0.136023 153 76 0
-0.067831 -0.026714 0.250911 127 127 0
0.652731 0.100093 -0.004405 204 51 127
-0.040341 0.008651 -0.222765 0 255 0
0.569208 0.017551 0.154992 153 0 76
-0.247077 -0.032312 -0.346935 0 0 255
-0.143053 -0.023671 0.176099 127 127 0
0.251379 0.086905 -0.061266 153 76 0
0.017067 0.086905 0.324614 153 76 0
-0.018164 0.035084 0.089216 0 0 255
0.468206 -0.032135 -0.369253 76 153 0
0.180050 0.086905 -0.132246 153 76 0
-0.671015 0.083547 -0.366796 127 127 0
0.569208 0.016275 0.055273 153 0 76
0.193440 -0.023671 -0.039445 76 0 153
-0.351249 0.061544 -0.156391 153 76 0
-0.628289 -0.691184 0.328867 153 0 76
-0.616159 -0.123462 -0.298848 76 0 153
0.537185 -0.023671 0.103433 76 0 153
-0.633560 -0.613496 -0.309554 76 0 153
-0.641191 0.003537 -0.338819 76 0 153
-0.321110 0.086905 -0.036704 204 51 127
0.617528 -0.324971 0.336248 153 76 0
0.175550 0.097050 0.117725 204 51 127
-0.243451 0.097050 -0.071207 153 76 0
0.653442 -0.047470 -0.338819 76 153 0
-0.604801 -0.055986 0.069532 127 127 0
-0.556843 0.019288 -0.107426 255 0 0
0.182189 -0.023671 0.016039 76 0 153
-0.124135 -0.013526 -0.042941 76 0 153
0.637528 0.026037 -0.115821 153 0 76
0.658435 -0.701964 0.320280 153 76 0
0.608879 0.026037 0.175771 153 0 76
-0.358645 -0.023671 0.026206 127 127 0
0.294772 0.061544 0.144234 153 76 0
-0.350799 0.086905 0.223270 204 51 127
-0.061635 -0.049033 -0.327082 0 0 255
0.212276 -0.002469 -0.189546 76 0 153
0.276203 0.061544 -0.081465 153 76 0
0.627908 -0.229490 -0.366330 76 0 153
0.702074 0.065344 0.012542 255 0 0
-0.052474 -0.023671 0.019437 127 127 0
-0.000028 -0.015336 0.038116 0 0 255
0.515730 0.093370 0.036531 204 51 127
0.280702 0.097050 0.208225 204 51 127
0.602400 -0.055336 0.011869 204 51 127
0.112691 0.061544 0.200506 153 76 0
-0.645646 -0.219667 0.293221 153 0 76
0.378466 0.086905 0.169149 204 51 127
0.596977 -0.003752 -0.222156 153 0 76
0.033497 0.061544 0.087657 153 76 0
0.289025 0.086905 -0.115718 204 51 127
-0.115260 -0.036698 -0.369253 76 153 0
0.213013 0.086905 0.219068 204 51 127
-0.614122 -0.306758 -0.364642 76 0 153
0.334551 0.097050 -0.150272 204 51 127
0.670654 -0.041708 -0.191037 76 153 0
0.638458 -0.424379 -0.305422 76 0 153
0.023536 -0.033940 -0.369253 76 153 0
0.221339 0.061544 -0.295212 153 76 0
0.431238 0.061544 -0.400580 127 0 127
0.428611 -0.005709 -0.369253 76 153 0
-0.144879 0.097050 0.038474 204 51 127
0.366799 -0.002469 0.055242 76 0 153
0.490106 0.061544 -0.297268 153 76 0
-0.660902 0.061544 -0.202677 127 127 0
0.106543 0.097050 -0.357781 204 51 127
-0.426854 -0.002469 0.067641 127 127 0
0.139517 0.061544 -0.016289 153 76 0
0.569208 0.076338 -0.203411 153 76 0
0.538125 -0.049033 -0.337250 0 0 255
-0.387838 0.061544 0.286606 153 76 0
0.005159 -0.035147 0.305363 255 0 0
-0.648144 0.014492 0.339292 153 0 76
0.207146 -0.002469 0.170981 76 0 153
0.231246 -0.014130 -0.346935 76 153 0
0.537600 -0.023671 -0.006582 76 0 153
-0.485653 0.000863 -0.222765 76 0 153
0.415801 0.061544 -0.326002 153 76 0
-0.417899 -0.023671 -0.019256 127 127 0
0.238781 0.061544 -0.187847 153 76 0
0.665830 -0.335046 0.298396 153 76 0
0.172986 0.061544 0.105051 153 76 0
-0.648144 -0.062748 0.254379 153 0 76
-0.089845 0.100093 -0.367377 127 0 127
-0.258607 0.039225 0.266437 0 0 255
0.449539 0.029077 -0.267807 76 0 153
0.631999 0.077775 0.352370 0 255 0
0.157215 -0.017143 0.317537 76 153 0
-0.421469 0.061544 0.026729 153 76 0
0.227439 0.097050 -0.165183 204 51 127
-0.079675 -0.026714 0.316894 204 51 127
0.699227 0.061544 -0.093563 255 0 0
0.643264 -0.040457 0.001420 76 153 0
-0.526409 0.060568 -0.142220 204 51 127
0.033751 0.097050 -0.312370 204 51 127
-0.373481 0.097050 -0.084374 204 51 127
-0.266717 0.097050 -0.000577 153 76 0
-0.322505 -0.049033 0.308008 255 0 0
