ply
format ascii 1.0
element vertex 1285
property float x
property float y
property float z
property uchar red
property uchar green
property uchar blue
end_header
0.318798 -0.188633 0.517548 76 153 0
-0.185260 -0.486389 -0.375814 0 0 255
-0.011830 -0.017390 -0.508002 127 127 0
0.373821 -0.556474 0.034672 76 0 153
-0.381557 0.730268 0.160510 255 0 0
0.130125 -0.464334 -0.264358 0 0 255
-0.226489 -0.464334 0.126546 0 0 255
-0.321510 0.748682 -0.471789 76 0 153
0.397437 -0.369203 0.517548 76 153 0
-0.032504 -0.486389 -0.040078 0 0 255
-0.041671 -0.464334 -0.472700 0 0 255
0.077088 -0.414684 0.550630 76 153 0
-0.381557 0.619530 -0.130598 255 0 0
-0.185167 0.056951 -0.496974 127 127 0
-0.365016 -0.469145 0.357379 255 0 0
0.018781 0.432334 -0.496974 127 127 0
0.089398 -0.461415 0.517548 255 0 0
0.290085 0.088745 0.517548 76 153 0
0.373821 -0.643013 -0.088873 76 0 153
0.024267 0.110956 -0.508002 127 127 0
-0.326428 -0.312899 0.517548 76 153 0
0.390362 0.484938 0.230057 0 255 0
0.373821 0.642353 -0.006690 0 255 0
-0.365016 0.457755 0.072534 255 0 0
0.390362 0.685594 -0.008304 0 255 0
0.373821 0.232918 0.430277 0 255 0
0.390362 -0.670574 -0.319409 76 0 153
0.373821 -0.528899 -0.261615 76 0 153
0.090220 -0.223512 0.530643 76 153 0
-0.099607 0.401056 0.530643 76 153 0
-0.365016 0.621998 0.277388 255 0 0
-0.231483 0.097573 -0.508002 127 127 0
0.002312 0.125633 -0.090378 127 0 127
0.390362 -0.322409 -0.232828 0 255 0
-0.356728 0.478262 0.484466 0 0 255
-0.351119 0.125633 -0.023687 127 0 127
-0.365016 0.681386 0.321039 255 0 0
0.373821 0.002478 -0.264476 0 255 0
0.390362 0.062054 -0.479573 0 255 0
0.149525 0.158715 -0.131507 127 0 127
0.224592 0.158715 -0.315430 127 0 127
0.373821 -0.040301 -0.359892 0 255 0
-0.030395 0.458697 -0.496974 127 127 0
-0.381557 0.379508 -0.379944 255 0 0
-0.290822 -0.486389 -0.171565 0 0 255
-0.381557 -0.351502 0.160579 255 0 0
0.390362 -0.008097 -0.302967 0 255 0
0.373821 0.292563 0.223335 0 255 0
0.172585 -0.464334 -0.453578 0 0 255
0.334554 0.035033 0.550630 76 153 0
0.390362 0.728036 -0.055837 0 255 0
0.390362 -0.114670 0.275661 0 255 0
-0.381557 0.580114 0.422763 255 0 0
0.050675 0.502930 0.537535 76 153 0
-0.284982 0.666632 0.550630 76 153 0
-0.364205 -0.440566 0.484466 0 0 255
-0.381557 0.131787 -0.306313 255 0 0
-0.346302 0.175256 -0.508002 127 127 0
0.042817 0.766584 0.484466 127 127 0
0.373821 -0.303702 0.216148 0 255 0
0.390362 0.373868 0.418667 0 255 0
0.172211 0.229876 0.537535 76 153 0
-0.267122 0.125633 -0.056025 127 0 127
-0.232937 -0.486389 -0.217652 0 0 255
-0.381557 -0.164619 0.222456 255 0 0
0.390362 0.012160 -0.331755 0 255 0
-0.060300 -0.619284 -0.541084 153 76 0
0.058629 -0.484891 -0.541084 153 76 0
0.189980 -0.474329 0.550630 76 153 0
-0.288203 0.125633 -0.223088 127 0 127
-0.381557 -0.268556 0.111180 255 0 0
-0.258899 0.522380 0.517548 76 153 0
0.220463 -0.464334 0.209295 0 0 255
-0.381557 -0.658872 0.031694 204 51 127
0.095318 -0.464334 -0.294159 0 0 255
0.390362 0.732449 -0.432875 0 255 0
0.390362 -0.386038 -0.086609 0 255 0
0.033146 -0.443453 0.517548 255 0 0
0.116855 0.074292 0.530643 76 153 0
0.210238 -0.486389 -0.451399 0 0 255
0.344821 -0.617567 -0.541084 153 76 0
-0.013244 0.635082 -0.496974 127 127 0
0.067491 -0.486389 -0.441553 0 0 255
0.374585 -0.717964 -0.167820 76 0 153
0.390362 0.548991 -0.378481 0 255 0
0.138560 0.366588 0.530643 76 153 0
-0.381557 -0.066791 -0.511286 255 0 0
0.116819 -0.141220 -0.508002 127 127 0
0.212355 -0.183707 -0.496974 127 127 0
-0.381557 -0.287964 -0.172368 255 0 0
-0.365016 -0.315236 0.433324 255 0 0
0.373821 -0.137789 0.055238 0 255 0
0.373821 0.250305 -0.195657 0 255 0
-0.119773 0.456866 0.530643 76 153 0
-0.365016 0.729523 -0.415357 255 0 0
0.286844 -0.137367 0.517548 76 153 0
-0.113267 0.343649 -0.508002 127 127 0
-0.365016 0.252958 -0.455475 255 0 0
-0.365016 -0.385465 -0.069632 255 0 0
-0.063199 0.081350 -0.496974 127 127 0
0.390362 0.289791 0.283114 0 255 0
0.373821 0.330091 0.400363 0 255 0
0.318486 -0.486389 -0.251469 0 0 255
0.341166 0.067055 0.517548 76 153 0
0.390362 0.797411 -0.299453 0 255 0
-0.365016 -0.683013 -0.064553 204 51 127
0.263629 -0.464334 0.180932 0 0 255
0.373821 -0.689266 0.202841 76 0 153
0.298998 0.368045 0.517548 76 153 0
0.146557 -0.464334 0.464284 0 0 255
-0.381557 0.120846 -0.521502 255 0 0
0.176507 -0.464334 -0.135530 0 0 255
-0.387708 0.530868 0.484466 0 0 255
0.390362 -0.163855 -0.208457 0 255 0
0.195614 -0.064615 0.530643 76 153 0
-0.153996 -0.486389 -0.407144 0 0 255
0.315945 0.725489 0.517548 76 153 0
-0.297864 0.770736 -0.498969 127 127 0
0.289300 -0.464334 -0.166731 0 0 255
-0.060761 -0.692151 -0.541084 153 76 0
0.340432 -0.486389 0.097054 0 0 255
-0.365016 0.420218 0.482575 255 0 0
-0.365016 0.044984 0.127002 255 0 0
0.016896 0.551046 0.530643 76 153 0
-0.215745 -0.375715 -0.496974 127 127 0
0.217594 0.403145 -0.496974 127 127 0
0.365738 0.703763 -0.508002 127 127 0
-0.116180 -0.029217 -0.508002 127 127 0
0.390362 0.416228 0.305966 0 255 0
0.060088 0.717051 0.550630 76 153 0
-0.060648 -0.323026 -0.508002 127 127 0
-0.365016 -0.223632 -0.321026 255 0 0
-0.145701 -0.126991 0.530643 76 153 0
0.202878 0.158715 -0.263816 127 0 127
-0.059809 0.434856 -0.496974 127 127 0
-0.138742 0.803819 0.515912 127 127 0
-0.381557 -0.686274 0.015108 204 51 127
-0.365016 0.361079 -0.350794 255 0 0
0.129484 0.114629 -0.508002 127 127 0
-0.204654 -0.100145 -0.496974 127 127 0
-0.251555 0.240799 0.517548 76 153 0
0.305761 -0.486389 -0.467861 0 0 255
0.390362 -0.142282 -0.069234 0 255 0
0.373821 0.282418 0.088101 0 255 0
-0.381557 -0.701201 -0.099045 204 51 127
-0.381557 0.763724 -0.409391 255 0 0
0.126527 0.125633 -0.109638 127 0 127
0.133580 -0.589647 0.379705 153 0 76
-0.365016 0.648774 0.321068 255 0 0
-0.376043 0.732885 0.549193 76 153 0
-0.082798 -0.464334 -0.135605 0 0 255
-0.118577 -0.190827 -0.496974 127 127 0
0.083942 -0.464334 0.012847 0 0 255
-0.039778 -0.489864 0.517548 76 153 0
-0.176334 -0.220093 -0.496974 127 127 0
-0.365016 -0.626574 0.071779 204 51 127
0.390362 0.158133 -0.475475 0 255 0
-0.381557 0.626244 0.105119 255 0 0
-0.083066 -0.486389 0.438459 0 0 255
-0.112224 -0.486389 0.246218 0 0 255
0.390362 0.775153 -0.480116 0 255 0
0.373821 -0.182104 -0.503251 127 127 0
0.257853 -0.464334 0.095025 0 0 255
0.167103 -0.464334 0.274289 0 0 255
-0.075314 -0.560051 -0.541084 153 76 0
0.025734 -0.486389 -0.372897 0 0 255
0.322503 -0.464334 0.297991 0 0 255
-0.304313 -0.464334 -0.298308 0 0 255
0.262843 0.473003 0.550630 76 153 0
0.314856 -0.587178 -0.508002 153 76 0
0.044429 -0.336781 -0.496974 127 127 0
-0.284456 0.154085 0.517548 76 153 0
-0.307466 -0.464334 0.046504 0 0 255
-0.365016 -0.109000 0.384263 255 0 0
-0.180867 -0.683930 0.363164 153 0 76
0.336542 0.687239 0.550630 76 153 0
-0.296407 -0.464938 0.517548 76 153 0
-0.083883 -0.464334 0.242334 0 0 255
-0.351449 0.730143 -0.496974 127 127 0
-0.381557 -0.414804 0.394766 255 0 0
0.373821 0.034778 0.064290 0 255 0
0.142103 0.044418 0.537535 76 153 0
-0.365016 0.515199 -0.015880 255 0 0
0.111713 -0.464334 -0.375397 0 0 255
0.373821 -0.289951 -0.250097 0 255 0
-0.096188 -0.486389 -0.172161 0 0 255
0.390362 -0.578004 -0.297827 76 0 153
-0.381557 0.342794 -0.457096 255 0 0
-0.314703 0.764610 0.484466 0 0 255
-0.365016 0.001727 0.250142 255 0 0
0.390362 -0.167136 0.271510 0 255 0
-0.365016 -0.089381 -0.358192 255 0 0
0.258033 -0.163139 0.518205 76 153 0
0.373821 0.616529 -0.148383 0 255 0
-0.365016 -0.547756 -0.302167 204 51 127
-0.381557 0.544545 0.146682 255 0 0
-0.088222 -0.597867 -0.541084 153 76 0
-0.381557 0.655666 0.375023 255 0 0
-0.072027 -0.486389 0.296829 0 0 255
-0.381557 0.013435 0.029729 255 0 0
-0.149777 0.236437 -0.496974 127 127 0
-0.365016 0.181156 -0.096667 255 0 0
0.319814 0.249299 -0.496974 127 127 0
-0.320971 -0.174053 0.517548 76 153 0
0.268515 -0.175926 -0.508002 127 127 0
-0.238993 -0.610411 0.363164 153 0 76
0.373821 -0.237299 -0.389266 0 255 0
0.240963 0.243994 -0.508002 127 127 0
-0.182598 -0.486389 -0.094149 0 0 255
-0.381557 0.027941 -0.432017 255 0 0
0.076015 -0.494954 0.484466 0 0 255
0.254514 -0.464334 0.295922 0 0 255
-0.381557 0.189000 0.424255 255 0 0
-0.276575 -0.406275 0.517548 76 153 0
-0.230615 0.305203 0.530643 76 153 0
0.390362 0.374989 0.133654 0 255 0
0.145407 -0.344151 -0.508002 127 127 0
-0.381557 0.583640 -0.187941 255 0 0
0.373821 -0.094188 0.023389 0 255 0
-0.276919 -0.282045 0.550630 76 153 0
0.390362 0.198647 -0.414574 0 255 0
-0.074493 0.158715 -0.189245 127 0 127
0.390362 -0.604424 -0.125149 76 0 153
-0.365016 -0.353332 0.474663 0 0 255
0.084006 -0.133610 -0.496974 127 127 0
-0.381557 -0.583874 -0.085663 204 51 127
0.390362 0.264357 0.154620 0 255 0
0.390362 0.456169 0.093820 0 255 0
0.373821 0.594520 -0.220886 0 255 0
-0.259784 -0.464334 0.298015 0 0 255
0.372484 0.158715 -0.332980 0 255 0
-0.365016 -0.133116 0.224132 255 0 0
0.390362 0.085202 -0.411969 0 255 0
0.373821 0.738632 0.040441 0 255 0
0.390362 0.425910 -0.220764 0 255 0
-0.342040 0.560616 0.550630 76 153 0
0.390362 0.613973 -0.526973 0 255 0
0.245934 -0.517623 0.379705 153 0 76
-0.354018 -0.147709 0.550630 76 153 0
-0.362009 0.142178 0.484466 0 0 255
-0.200506 -0.514255 0.363164 153 0 76
0.293526 0.485686 -0.508002 127 127 0
0.390362 -0.028711 0.102683 0 255 0
-0.090946 -0.486389 0.406577 0 0 255
-0.365016 0.211602 0.246088 255 0 0
0.111133 -0.456289 0.484466 255 0 0
-0.150597 -0.486389 0.273193 0 0 255
0.232135 -0.015847 0.530643 76 153 0
0.181173 -0.349315 0.537535 76 153 0
-0.392584 -0.236006 0.513659 0 0 255
-0.202774 -0.164637 0.530643 76 153 0
0.149102 0.125633 -0.068186 127 0 127
-0.338012 -0.486389 0.078947 0 0 255
0.217961 -0.510319 0.517548 255 0 0
0.189869 0.158715 -0.435932 127 0 127
-0.365016 0.223146 -0.193569 255 0 0
-0.110524 -0.508568 -0.508002 153 76 0
-0.381557 0.574656 0.319541 255 0 0
-0.295149 -0.367148 0.517548 76 153 0
-0.381557 -0.358824 -0.014030 255 0 0
0.373821 -0.526909 -0.191290 76 0 153
0.335380 0.285792 0.517548 204 51 127
0.390362 0.407652 -0.101586 0 255 0
0.188590 0.802727 -0.508002 0 255 0
-0.176681 0.130180 -0.508002 127 127 0
-0.312026 -0.486389 -0.091148 0 0 255
-0.343805 0.158715 -0.236643 127 0 127
-0.381557 0.099037 -0.200505 255 0 0
0.373821 0.084542 -0.142669 0 255 0
-0.365016 0.199284 -0.445595 255 0 0
0.334336 -0.423122 0.517548 76 153 0
0.331327 0.125267 0.517548 76 153 0
0.390362 -0.162795 -0.041850 0 255 0
-0.296732 0.407638 0.550630 76 153 0
-0.272777 -0.464334 0.082332 0 0 255
0.220660 0.527651 -0.508002 127 127 0
-0.098938 0.108141 -0.496974 127 127 0
-0.354721 -0.128235 -0.508002 127 127 0
0.094219 0.125633 -0.281795 127 0 127
-0.335145 -0.227092 -0.508002 127 127 0
-0.011024 0.059779 -0.496974 127 127 0
-0.066693 0.773430 -0.508002 0 255 0
0.390362 0.507819 -0.172969 0 255 0
0.373821 0.576949 -0.299956 0 255 0
0.047987 0.662102 0.550630 76 153 0
-0.381557 0.661664 -0.103878 255 0 0
-0.049969 0.276300 -0.496974 127 127 0
-0.365016 -0.140368 -0.450549 255 0 0
0.373821 0.416573 -0.512174 0 255 0
0.390362 -0.479794 -0.162593 0 255 0
-0.309753 -0.486389 0.359116 0 0 255
-0.096482 -0.464334 -0.407187 0 0 255
0.390362 0.685264 0.430809 0 255 0
0.043369 0.277593 -0.496974 127 127 0
0.390362 0.571305 -0.154206 0 255 0
-0.068909 0.125633 -0.067457 127 0 127
0.262534 -0.634546 -0.508002 153 76 0
0.373821 -0.542221 -0.411214 76 0 153
-0.381557 -0.256396 -0.514174 255 0 0
0.373821 0.576236 -0.410058 0 255 0
0.390362 0.190924 0.437499 0 255 0
-0.365016 -0.417457 -0.510520 127 127 0
0.320947 -0.691068 0.379705 153 0 76
0.116516 -0.483890 0.550630 76 153 0
-0.327303 -0.486389 -0.170693 0 0 255
-0.381557 -0.144662 -0.179037 255 0 0
-0.010270 -0.464334 0.270000 0 0 255
0.390362 -0.355184 0.451275 0 255 0
-0.063645 -0.009099 -0.508002 127 127 0
-0.084539 -0.136384 0.537535 76 153 0
-0.365016 -0.421091 0.099912 255 0 0
-0.044745 0.125633 -0.328296 127 0 127
0.390362 0.120992 0.175150 0 255 0
0.373821 0.577787 0.130285 0 255 0
0.373821 -0.333662 -0.448948 0 255 0
0.127155 -0.464334 -0.455869 0 0 255
-0.365016 0.229800 0.093033 255 0 0
-0.381557 0.775339 0.194401 255 0 0
0.290103 0.363600 0.550630 76 153 0
0.370552 -0.569157 -0.541084 76 0 153
0.373821 0.716753 -0.214865 0 255 0
0.254638 0.125633 -0.137045 127 0 127
0.267228 0.115451 0.550630 76 153 0
0.360416 0.158715 -0.082702 0 255 0
-0.365016 0.243863 0.402584 255 0 0
-0.261342 -0.037859 0.550630 76 153 0
0.373821 0.440991 0.219719 0 255 0
-0.008893 0.167822 -0.496974 127 127 0
-0.381557 0.676154 0.004268 255 0 0
0.158778 -0.464334 0.018253 0 0 255
-0.173462 -0.464334 0.449191 0 0 255
-0.381557 0.690578 -0.163893 255 0 0
-0.365016 0.080830 0.021103 255 0 0
0.373821 -0.106659 -0.234552 0 255 0
-0.381557 0.764530 0.290405 255 0 0
0.390362 -0.145007 -0.455335 0 255 0
-0.144699 0.125633 -0.125967 127 0 127
-0.381557 -0.472181 -0.223229 255 0 0
0.310682 0.158715 -0.027225 127 0 127
0.390362 -0.186651 -0.177416 0 255 0
-0.191521 -0.464334 0.093010 0 0 255
0.373821 0.753572 0.314030 0 255 0
-0.381557 0.404090 0.286710 255 0 0
0.373821 0.475380 -0.498994 0 255 0
0.293241 0.518968 0.517548 76 153 0
-0.381557 0.432904 -0.424776 255 0 0
-0.381557 0.489872 -0.181364 255 0 0
0.390362 0.058168 -0.368133 0 255 0
-0.117628 0.720739 0.550630 76 153 0
-0.284483 -0.464334 -0.209398 0 0 255
-0.268457 -0.458820 -0.537884 153 76 0
-0.381557 0.068538 -0.070589 255 0 0
0.390362 0.153428 -0.018100 127 0 127
-0.112121 0.006432 0.537535 76 153 0
0.352694 -0.461575 -0.541084 0 255 0
0.390362 -0.265881 0.358562 0 255 0
-0.381557 -0.245840 0.133618 255 0 0
0.101215 -0.581825 0.379705 153 0 76
0.089577 -0.433238 -0.496974 127 127 0
-0.249228 -0.449691 0.525781 76 153 0
0.263211 0.720698 -0.508002 127 127 0
0.395195 0.486346 0.484466 204 51 127
-0.342411 0.787278 0.548433 76 153 0
0.005251 0.229682 -0.508002 127 127 0
-0.182872 0.761635 0.517548 127 127 0
0.373821 -0.446471 -0.480171 0 255 0
-0.307245 -0.464334 0.161278 0 0 255
-0.285014 0.528526 -0.496974 127 127 0
-0.381557 -0.482899 -0.379665 255 0 0
0.295954 0.125633 -0.230907 127 0 127
-0.277569 0.627767 0.517548 76 153 0
-0.381557 -0.569780 0.216379 204 51 127
0.373821 0.298335 -0.262697 0 255 0
0.373821 0.158774 0.328071 0 255 0
0.373821 0.468590 -0.293267 0 255 0
0.390362 0.175522 -0.120386 0 255 0
-0.381557 -0.114599 0.325196 255 0 0
-0.347793 0.136750 0.550630 76 153 0
0.012415 0.027024 0.530643 76 153 0
0.390362 0.626567 0.356670 0 255 0
-0.381557 -0.634562 -0.090120 204 51 127
0.083156 -0.464334 -0.067998 0 0 255
-0.381557 -0.512356 0.043999 255 0 0
-0.010285 0.345094 0.530643 76 153 0
0.080712 0.727259 -0.541084 0 255 0
0.218816 0.460009 -0.496974 127 127 0
-0.344995 0.125633 -0.205971 255 0 0
-0.109219 0.397329 -0.496974 127 127 0
0.131571 -0.331674 0.530643 76 153 0
-0.365016 0.298701 0.022519 255 0 0
0.136278 -0.542076 -0.508002 153 76 0
0.177877 0.551373 -0.496974 127 127 0
0.376901 -0.348857 -0.541084 0 255 0
0.390362 -0.645759 -0.213741 76 0 153
0.119203 -0.486389 -0.423795 0 0 255
-0.175234 0.125633 -0.447358 127 0 127
0.223173 -0.464334 0.243030 0 0 255
-0.365016 0.757176 0.006043 255 0 0
-0.298518 -0.486389 0.427738 0 0 255
-0.230775 0.724558 -0.541084 0 255 0
0.373821 0.679390 0.457482 0 255 0
0.329048 0.566756 -0.508002 127 127 0
0.390362 -0.272103 0.069394 0 255 0
0.373821 0.726274 -0.278714 0 255 0
-0.103144 -0.421425 -0.508002 127 127 0
0.373821 0.777779 0.138386 0 255 0
0.241733 -0.638018 -0.541084 153 76 0
0.187808 -0.464334 0.171496 0 0 255
-0.365016 0.210649 -0.390778 255 0 0
0.105092 -0.282588 0.537535 76 153 0
0.335225 0.198390 0.487228 204 51 127
0.373821 -0.388196 0.381518 0 255 0
0.235375 -0.689281 0.379705 153 0 76
0.390362 -0.234893 -0.416435 0 255 0
-0.271419 0.217209 0.550630 76 153 0
-0.284094 -0.464334 -0.416104 0 0 255
-0.192473 -0.690001 -0.508002 153 76 0
0.390362 -0.146834 -0.239282 0 255 0
0.373821 0.635465 -0.039918 0 255 0
-0.365016 0.305003 -0.466636 255 0 0
-0.173585 0.276515 0.537535 76 153 0
-0.104788 0.803819 0.517245 127 127 0
-0.381557 -0.223107 -0.406643 255 0 0
0.017073 -0.464334 -0.208490 0 0 255
-0.070239 -0.204657 0.537535 76 153 0
-0.381557 0.444741 0.234717 255 0 0
-0.381557 -0.452589 -0.332247 255 0 0
-0.322605 -0.464334 -0.219993 0 0 255
-0.381557 0.730384 0.305031 255 0 0
0.134191 0.621605 -0.508002 127 127 0
0.022356 0.125633 -0.033100 127 0 127
0.305470 0.291569 0.550630 76 153 0
-0.381557 0.205287 0.057405 255 0 0
0.360794 -0.624223 0.363164 76 0 153
0.275918 -0.458820 -0.519391 153 76 0
-0.365016 0.054808 0.348166 255 0 0
-0.381557 0.492595 0.289958 255 0 0
-0.365016 0.031479 -0.233725 255 0 0
-0.253337 -0.626227 -0.541084 153 76 0
0.140302 -0.175864 0.530643 76 153 0
0.399294 0.066458 0.484466 0 255 0
0.011940 -0.464334 -0.266786 0 0 255
0.286641 0.230149 0.550630 76 153 0
-0.344586 0.507718 -0.496974 127 127 0
-0.365016 -0.116799 0.181072 255 0 0
0.390362 0.695695 0.321730 0 255 0
-0.228046 -0.486389 0.346950 0 0 255
0.098938 0.777732 -0.541084 0 255 0
-0.062507 -0.676069 -0.508002 153 76 0
0.109296 -0.369119 0.530643 76 153 0
0.031914 0.158715 -0.000792 127 0 127
-0.365016 -0.690633 0.267962 204 51 127
0.079897 -0.402856 -0.496974 127 127 0
0.373821 -0.456675 0.149515 0 255 0
0.288323 -0.464334 0.013748 0 0 255
0.390362 0.537433 0.169817 0 255 0
0.021349 0.803819 -0.521125 0 255 0
0.376277 -0.313466 0.484466 204 51 127
0.335225 0.766808 0.493164 127 127 0
0.147053 -0.464334 0.068108 0 0 255
0.390362 -0.535495 -0.056550 76 0 153
-0.365016 -0.255153 -0.316991 255 0 0
-0.109388 -0.464334 -0.368872 0 0 255
-0.361787 -0.335252 0.550630 76 153 0
-0.381557 0.512533 0.079758 255 0 0
-0.365016 0.351943 0.401371 255 0 0
0.227668 0.125633 -0.443767 127 0 127
-0.189715 0.382628 0.530643 76 153 0
-0.114276 -0.464334 0.467290 0 0 255
0.064076 -0.025457 0.530643 76 153 0
-0.365016 0.552029 -0.333942 255 0 0
0.373821 0.487319 -0.054907 0 255 0
-0.392584 0.068209 0.499512 0 0 255
-0.153436 -0.486389 -0.237056 0 0 255
0.373821 0.276183 0.313836 0 255 0
0.049761 0.125633 -0.090047 127 0 127
-0.248391 -0.717964 -0.511592 153 76 0
-0.381557 -0.062594 -0.064697 255 0 0
0.390362 0.704671 -0.240103 0 255 0
-0.209230 -0.308068 -0.496974 127 127 0
-0.249228 0.367497 0.542791 76 153 0
0.390362 0.252514 -0.022567 0 255 0
-0.365016 -0.308919 -0.195714 255 0 0
-0.365016 -0.178426 -0.475167 255 0 0
-0.299057 -0.464334 -0.252878 0 0 255
0.390362 -0.167688 -0.394811 0 255 0
0.373821 -0.604886 0.006185 76 0 153
-0.206769 -0.458820 -0.530609 153 76 0
0.390362 -0.682303 -0.202902 76 0 153
0.358995 -0.115592 0.550630 76 153 0
-0.246025 0.750384 -0.494663 76 0 153
-0.381557 0.641332 -0.349340 255 0 0
0.028859 -0.115831 -0.508002 127 127 0
0.257826 -0.486389 -0.256216 0 0 255
0.390362 -0.351219 -0.408093 0 255 0
0.201183 -0.464334 -0.351777 0 0 255
-0.381557 -0.599859 -0.006529 204 51 127
0.357092 0.158715 -0.436638 127 0 127
-0.100529 -0.333638 0.530643 76 153 0
0.373821 0.136665 -0.540477 0 255 0
0.131609 0.419969 -0.496974 127 127 0
0.373821 -0.062276 -0.283198 0 255 0
0.373821 0.009958 0.399334 0 255 0
0.373821 0.693791 -0.309473 0 255 0
0.055641 -0.008757 -0.508002 127 127 0
-0.365016 0.445429 -0.463167 255 0 0
0.070677 -0.464334 -0.393900 0 0 255
-0.092409 0.465424 -0.496974 127 127 0
0.384848 0.454927 0.546480 76 153 0
-0.255078 -0.146993 -0.496974 127 127 0
-0.330962 0.201691 0.517548 76 153 0
-0.123145 -0.363157 0.530643 76 153 0
0.326804 -0.486389 0.453185 0 0 255
-0.359859 0.748682 -0.471837 76 0 153
-0.164160 0.671490 -0.523376 127 127 0
0.335225 -0.334349 0.487515 204 51 127
0.288012 -0.309437 0.550630 76 153 0
0.373821 0.240479 0.316462 0 255 0
-0.205732 0.677726 -0.508002 0 255 0
-0.344364 0.045140 0.517548 76 153 0
-0.278290 0.125633 -0.334376 127 0 127
-0.168320 -0.039892 0.530643 76 153 0
-0.072370 0.631612 -0.496974 127 127 0
0.390362 0.289685 -0.024290 0 255 0
-0.381557 0.547270 -0.183023 255 0 0
-0.365016 0.752847 0.400940 255 0 0
0.048988 -0.486389 -0.306983 0 0 255
0.390362 0.333948 -0.432350 0 255 0
0.390362 0.737008 -0.385317 0 255 0
-0.104407 0.498179 0.530643 76 153 0
0.390362 0.549101 0.069929 0 255 0
-0.381557 0.026267 -0.008071 255 0 0
0.160698 -0.486389 -0.500016 0 0 255
0.390362 -0.584507 0.239689 76 0 153
0.075793 -0.464334 -0.464931 0 0 255
-0.309716 0.659948 0.517548 76 153 0
0.390362 -0.498140 0.281936 0 255 0
0.373821 -0.009596 -0.038519 0 255 0
0.278935 0.723506 -0.541084 0 255 0
0.293701 0.081555 -0.508002 127 127 0
0.390362 -0.265790 0.244154 0 255 0
0.247196 -0.082722 -0.508002 127 127 0
-0.381557 0.343133 -0.243518 255 0 0
-0.365016 0.574548 0.182228 255 0 0
-0.381557 0.153885 -0.205010 255 0 0
-0.376043 0.417857 0.539813 76 153 0
0.299616 0.636087 -0.496974 127 127 0
-0.381557 0.297222 0.319514 255 0 0
-0.365016 -0.650600 -0.216474 204 51 127
-0.365016 -0.381857 -0.393793 255 0 0
-0.312670 -0.486389 -0.422398 0 0 255
-0.365016 0.186055 -0.473134 255 0 0
-0.365016 0.255702 -0.111196 255 0 0
0.390362 -0.068667 0.247221 0 255 0
0.390362 -0.360649 0.087900 0 255 0
0.369739 0.321736 0.484466 0 255 0
-0.304684 0.352871 0.550630 76 153 0
0.373821 -0.381296 0.322003 0 255 0
-0.381557 0.773386 -0.455568 255 0 0
0.180203 -0.538256 0.363164 153 0 76
-0.364652 -0.290537 0.484466 255 0 0
0.174004 0.680237 -0.541084 0 255 0
0.175905 -0.355882 -0.496974 127 127 0
0.390362 -0.386192 -0.136501 0 255 0
-0.063214 -0.383165 -0.496974 127 127 0
-0.381557 -0.717959 -0.315953 204 51 127
0.059196 -0.486389 0.168191 0 0 255
0.390362 0.241720 -0.424097 0 255 0
-0.290899 0.748682 0.459643 76 0 153
0.002267 -0.464334 0.167467 0 0 255
-0.365016 0.591062 0.226354 255 0 0
-0.274543 0.212318 0.517548 76 153 0
0.045191 -0.464334 0.013293 0 0 255
0.100625 -0.181787 0.537535 76 153 0
0.373821 0.472272 0.178214 0 255 0
-0.207336 -0.486389 0.217567 0 0 255
0.390362 -0.235474 0.320940 0 255 0
-0.242538 -0.486389 0.184817 0 0 255
-0.365016 -0.547266 -0.155005 204 51 127
0.303605 -0.097152 0.550630 76 153 0
-0.365016 0.567223 -0.046917 255 0 0
-0.321657 0.325275 0.517548 0 0 255
0.026523 0.571993 -0.496974 127 127 0
0.342818 0.071344 -0.496974 127 127 0
0.293001 0.685071 0.517548 76 153 0
-0.381557 0.621864 -0.389168 255 0 0
-0.381557 0.421960 -0.092966 255 0 0
-0.365016 -0.143824 -0.355947 255 0 0
0.278612 0.125633 -0.353538 127 0 127
0.019485 0.158715 -0.054149 127 0 127
0.247818 0.406196 -0.508002 127 127 0
0.155349 -0.165940 -0.508002 127 127 0
0.373821 0.687488 0.038448 0 255 0
0.290334 0.125633 -0.277471 127 0 127
-0.365016 -0.298706 0.158634 255 0 0
-0.108188 0.555919 0.530643 76 153 0
-0.358747 -0.230549 0.517548 0 0 255
0.373821 0.730861 0.141093 0 255 0
-0.341375 0.115601 0.517548 76 153 0
0.373821 0.546681 -0.520398 0 255 0
-0.227733 -0.687289 -0.541084 153 76 0
-0.365016 0.405501 -0.216585 255 0 0
-0.337751 -0.464334 0.198716 0 0 255
0.097575 -0.534070 0.379705 153 0 76
0.373821 -0.050592 0.299059 0 255 0
-0.381557 -0.439132 -0.050244 255 0 0
0.105484 -0.694616 0.379705 153 0 76
0.376696 0.738723 0.550630 76 153 0
-0.381557 -0.366952 -0.266496 255 0 0
-0.142551 0.158715 -0.358980 127 0 127
-0.365016 -0.265724 -0.360282 255 0 0
-0.232254 0.754103 0.550630 76 153 0
-0.390023 0.438445 0.484466 255 0 0
0.390362 -0.060458 0.349014 0 255 0
-0.381557 0.181728 0.353578 255 0 0
-0.381557 -0.209384 -0.290777 255 0 0
-0.344146 0.770736 -0.423156 76 0 153
0.030492 -0.697715 -0.508002 153 76 0
0.167663 -0.486389 -0.066495 0 0 255
0.390362 0.728159 -0.522745 0 255 0
-0.365016 -0.095811 0.346036 255 0 0
-0.326759 0.518331 0.484466 0 0 255
-0.209888 -0.486389 0.182627 0 0 255
-0.381557 -0.237538 0.348563 255 0 0
0.390362 -0.564718 -0.103066 76 0 153
-0.112371 0.795337 -0.541084 0 255 0
-0.381557 0.242120 -0.395153 255 0 0
0.373821 0.192509 -0.009723 0 255 0
-0.029837 -0.104993 0.530643 76 153 0
0.373821 0.483150 -0.359188 0 255 0
0.074811 0.790399 0.484466 127 127 0
-0.211669 0.698080 0.550630 76 153 0
-0.381557 -0.252925 -0.085371 255 0 0
0.390362 -0.265721 -0.202175 0 255 0
0.390362 0.621320 0.166722 0 255 0
-0.150993 -0.184316 -0.496974 127 127 0
0.146986 0.291223 -0.496974 127 127 0
0.360424 -0.464334 0.074269 0 0 255
-0.334341 0.468087 0.550630 76 153 0
-0.135016 0.550818 -0.508002 127 127 0
0.373821 0.449241 0.473613 0 255 0
-0.381557 0.796017 -0.413548 255 0 0
-0.371113 0.803819 -0.474075 255 0 0
0.376479 -0.337236 0.517548 204 51 127
-0.096568 -0.486389 0.216952 0 0 255
0.373821 -0.438736 0.045210 0 255 0
0.390362 -0.330412 0.407909 0 255 0
-0.312209 -0.486389 0.119364 0 0 255
0.071391 -0.247733 -0.508002 127 127 0
0.390362 -0.408841 -0.526929 0 255 0
0.172878 -0.118038 -0.496974 127 127 0
0.300545 -0.519471 0.490398 255 0 0
-0.139754 -0.486389 0.168061 0 0 255
-0.159462 -0.464334 0.405120 0 0 255
0.039480 -0.570352 -0.541084 153 76 0
-0.192342 -0.486389 -0.186360 0 0 255
-0.381557 -0.078737 -0.187793 255 0 0
0.373821 0.280011 0.183497 0 255 0
-0.392584 0.273753 0.487463 0 0 255
-0.381557 0.210013 -0.327917 255 0 0
0.033245 -0.464334 -0.178896 0 0 255
-0.123484 -0.050006 0.530643 76 153 0
0.390362 0.311651 0.060501 0 255 0
-0.365016 0.552632 0.046926 255 0 0
0.242011 0.234065 0.537535 76 153 0
0.390362 0.055714 -0.038505 0 255 0
0.021196 0.792592 0.484466 127 127 0
0.378522 -0.014280 0.550630 76 153 0
-0.003079 0.692702 -0.508002 127 127 0
-0.296851 0.278050 0.550630 76 153 0
0.303437 -0.464334 0.388880 0 0 255
-0.389253 0.743644 0.484466 0 0 255
-0.262666 -0.307923 -0.508002 127 127 0
-0.365016 -0.109141 -0.266428 255 0 0
0.128742 -0.369356 -0.508002 127 127 0
-0.365016 0.406805 0.189836 255 0 0
0.211383 -0.607142 -0.508002 153 76 0
0.049343 -0.211093 -0.496974 127 127 0
0.266639 -0.476544 0.517548 76 153 0
0.313824 -0.486389 -0.102807 0 0 255
0.084408 0.587906 -0.496974 127 127 0
-0.025496 -0.486389 0.375650 0 0 255
0.182157 -0.267619 0.537535 76 153 0
0.373821 0.754620 -0.361446 0 255 0
0.153736 0.668108 -0.496974 127 127 0
-0.124491 0.427888 -0.508002 127 127 0
-0.038684 0.125633 -0.192539 127 0 127
-0.275817 -0.176880 0.517548 76 153 0
-0.381557 -0.615656 0.266431 204 51 127
0.276177 -0.486389 -0.366847 0 0 255
-0.257259 0.158715 -0.039395 127 0 127
-0.365016 -0.393563 0.308241 255 0 0
0.269136 -0.419528 0.550630 76 153 0
0.120728 -0.486389 0.250991 0 0 255
-0.365016 -0.698554 0.351396 204 51 127
-0.050989 0.699486 0.517548 76 153 0
0.343146 -0.464334 0.042541 0 0 255
0.174176 -0.595341 -0.541084 153 76 0
0.373821 0.352761 0.445500 0 255 0
0.373821 -0.571439 -0.023537 76 0 153
0.165442 -0.486389 -0.403299 0 0 255
-0.381557 0.610978 0.205279 255 0 0
-0.105245 0.588689 0.530643 76 153 0
0.352304 -0.502930 0.518476 204 51 127
0.033076 0.158715 -0.278987 127 0 127
0.090195 -0.464334 -0.229311 0 0 255
0.373821 -0.296479 0.364390 0 255 0
0.390362 -0.413539 -0.321780 0 255 0
0.346305 0.578894 0.550630 76 153 0
-0.381557 0.323950 -0.507298 255 0 0
-0.326420 -0.507653 0.509587 255 0 0
-0.321329 -0.220131 0.517548 76 153 0
-0.381557 -0.681929 -0.513335 204 51 127
-0.365016 0.586219 -0.225354 255 0 0
0.373821 -0.501274 0.166976 0 255 0
-0.381557 -0.153856 -0.276711 255 0 0
-0.004676 0.722608 0.517548 127 127 0
0.047959 -0.304918 -0.508002 127 127 0
-0.381557 0.378190 -0.265238 255 0 0
0.373821 0.756845 -0.167974 0 255 0
0.373821 0.788027 -0.044820 0 255 0
-0.381557 0.533885 0.352006 255 0 0
0.390362 -0.438017 0.310735 0 255 0
0.359887 -0.505103 -0.541084 153 76 0
-0.381557 -0.060871 0.038741 255 0 0
0.335225 0.546206 0.514367 204 51 127
0.045325 -0.455841 -0.508002 127 127 0
0.377200 0.803819 -0.189554 0 255 0
-0.357040 -0.050454 0.550630 76 153 0
0.163506 0.158715 -0.389004 127 0 127
0.361890 -0.276217 0.484466 204 51 127
0.129678 -0.464334 0.431273 0 0 255
-0.193694 -0.603544 -0.508002 153 76 0
0.359615 -0.464334 -0.308836 0 0 255
-0.358955 -0.464334 -0.047837 0 0 255
0.011731 -0.464334 -0.059478 0 0 255
-0.292633 -0.654352 -0.541084 153 76 0
0.373821 0.263405 -0.262800 0 255 0
0.373821 0.448646 -0.032444 0 255 0
0.373821 -0.333469 0.138558 0 255 0
0.293622 0.158715 -0.446689 127 0 127
-0.173995 -0.479500 -0.496974 127 127 0
-0.365016 0.335265 0.353234 255 0 0
0.373821 0.298214 -0.396620 0 255 0
-0.381557 0.080320 -0.249146 255 0 0
0.373821 0.629651 0.283338 0 255 0
-0.287513 -0.547005 0.379705 153 0 76
0.373821 -0.110966 -0.113468 0 255 0
0.373821 0.202051 0.256357 0 255 0
0.010048 0.125633 -0.237623 127 0 127
-0.365016 0.637060 0.157678 255 0 0
-0.262363 0.131176 -0.000741 127 0 127
-0.381557 -0.479191 0.169115 255 0 0
-0.381557 -0.504995 0.447436 255 0 0
0.390362 -0.443750 -0.445652 0 255 0
0.390362 0.352729 -0.382333 0 255 0
-0.381557 0.279826 -0.410979 255 0 0
-0.381557 0.402796 0.334945 255 0 0
0.390362 0.498057 -0.534149 0 255 0
-0.242883 0.802188 0.517548 127 127 0
-0.365016 0.776544 -0.129227 255 0 0
0.390362 -0.634535 0.293126 76 0 153
-0.154268 0.163243 -0.496974 127 127 0
-0.181391 0.125633 -0.218932 127 0 127
-0.381557 -0.048087 -0.285119 255 0 0
-0.004634 0.158715 -0.437697 127 0 127
0.074738 -0.486389 -0.281510 0 0 255
0.164267 0.673148 0.550630 76 153 0
-0.381557 0.344227 0.295588 255 0 0
0.124487 0.125633 -0.304088 127 0 127
0.373821 0.765461 0.405166 0 255 0
0.123989 0.777837 -0.508002 0 255 0
0.390362 -0.239663 0.377191 0 255 0
-0.365016 -0.681868 0.084672 204 51 127
0.371164 0.125633 -0.403910 127 0 127
0.255983 0.158715 -0.026519 127 0 127
-0.381557 0.033408 -0.513062 255 0 0
0.266370 -0.464334 -0.305447 0 0 255
-0.205727 -0.376115 0.517687 76 153 0
-0.365016 0.306683 0.258053 255 0 0
0.009550 -0.464334 -0.421162 0 0 255
0.390362 0.285566 -0.322185 0 255 0
0.019778 0.158715 -0.227922 127 0 127
0.401389 0.227135 0.515198 204 51 127
-0.143689 -0.464334 -0.046204 0 0 255
-0.381557 -0.218045 0.293724 255 0 0
-0.315587 0.668549 -0.508002 127 127 0
0.390362 0.131871 -0.452464 0 255 0
0.390362 -0.218497 -0.124952 0 255 0
-0.381557 0.536843 -0.453064 255 0 0
0.373821 -0.439709 -0.084922 0 255 0
0.261774 -0.486389 -0.036913 0 0 255
-0.365016 -0.431933 0.004969 255 0 0
0.119466 -0.486389 -0.479835 0 0 255
-0.381557 0.137922 -0.376731 255 0 0
-0.137973 -0.486389 0.219745 0 0 255
0.390362 -0.650812 0.246991 76 0 153
-0.365016 0.131867 0.409646 255 0 0
-0.094708 0.436820 0.537535 76 153 0
0.373821 0.496049 -0.310457 0 255 0
-0.312103 0.390836 0.517548 76 153 0
0.081176 0.611000 0.537535 76 153 0
0.390362 0.385272 -0.145979 0 255 0
-0.232847 -0.500089 -0.541084 153 76 0
-0.252411 0.031873 0.550630 76 153 0
0.039128 -0.464334 -0.143958 0 0 255
-0.316731 0.074296 -0.508002 127 127 0
-0.365016 0.361915 0.211353 255 0 0
-0.366648 0.512758 0.550630 76 153 0
-0.354767 -0.486389 -0.070750 255 0 0
0.344085 -0.486389 0.132163 0 0 255
-0.381557 0.111641 0.230697 255 0 0
-0.365016 -0.116862 -0.327430 255 0 0
-0.236925 -0.486389 0.266619 0 0 255
0.090708 0.647525 0.530643 76 153 0
-0.019245 -0.189681 -0.508002 127 127 0
-0.074391 -0.376115 0.518296 76 153 0
0.373821 0.753568 0.196601 0 255 0
-0.217017 0.776408 -0.508002 76 0 153
0.231132 0.430320 0.530643 76 153 0
0.390362 0.356092 -0.201287 0 255 0
0.014811 -0.464334 0.104319 0 0 255
-0.365016 -0.466623 0.076780 255 0 0
0.373821 0.214453 -0.030487 0 255 0
0.373821 -0.091866 0.301254 0 255 0
0.217300 -0.486389 0.375322 153 0 76
-0.365016 -0.178576 0.049674 255 0 0
-0.174723 -0.522205 -0.508002 153 76 0
-0.108165 -0.464334 -0.456862 0 0 255
0.155317 -0.206254 0.530643 76 153 0
0.007163 -0.486389 0.026445 0 0 255
-0.029597 0.158715 -0.288806 127 0 127
-0.223281 -0.486389 -0.368989 0 0 255
0.390362 -0.658933 -0.530654 76 0 153
0.373821 -0.663065 -0.026293 76 0 153
-0.381557 -0.442927 -0.454279 255 0 0
-0.345183 -0.656996 -0.508002 153 76 0
-0.365016 0.499544 -0.284103 255 0 0
-0.381557 -0.253920 0.272362 255 0 0
0.106532 0.019180 -0.496974 127 127 0
0.102185 -0.200374 -0.508002 127 127 0
-0.194920 0.583630 -0.496974 127 127 0
-0.162928 0.158715 -0.294761 127 0 127
-0.291017 0.158715 -0.188735 127 0 127
-0.381557 0.025922 0.302382 255 0 0
0.390362 -0.697201 0.236849 76 0 153
-0.381557 -0.610569 -0.336953 204 51 127
-0.365016 0.009466 0.395758 255 0 0
0.036135 -0.502729 0.379705 153 0 76
-0.084244 -0.486389 -0.217572 0 0 255
0.369908 -0.486389 -0.477703 0 255 0
0.390362 0.667694 -0.293368 0 255 0
0.273810 -0.473994 0.550630 76 153 0
0.373821 -0.702170 -0.231220 76 0 153
0.293537 0.032811 0.517548 76 153 0
-0.381557 0.114637 0.341429 255 0 0
0.319227 -0.599269 0.363164 153 0 76
-0.365016 -0.278169 -0.540957 255 0 0
-0.028978 -0.486389 0.002466 0 0 255
0.089939 -0.464334 0.375583 0 0 255
-0.381557 0.790126 -0.085814 255 0 0
-0.147901 0.485410 -0.508002 127 127 0
0.390362 0.720178 0.235013 0 255 0
-0.381557 0.220347 -0.260021 255 0 0
-0.273272 -0.464334 -0.340957 0 0 255
0.390362 0.180933 0.470645 0 255 0
-0.184822 -0.560455 0.363164 153 0 76
0.373821 0.763166 -0.307505 0 255 0
-0.287977 -0.486389 -0.439036 0 0 255
-0.346528 0.513704 0.517548 76 153 0
-0.381557 -0.343082 -0.411900 255 0 0
-0.381557 0.389627 -0.151076 255 0 0
-0.381557 0.310137 -0.179061 255 0 0
-0.132200 -0.486389 0.024273 0 0 255
0.147244 -0.486389 0.222340 0 0 255
0.146247 0.230825 -0.496974 127 127 0
0.373821 0.551230 0.238880 0 255 0
0.110874 -0.486389 0.033597 0 0 255
0.322542 0.455014 0.550630 76 153 0
-0.141248 -0.252612 0.537535 76 153 0
0.123854 -0.100510 -0.496974 127 127 0
-0.285149 0.106391 -0.496974 127 127 0
0.358764 -0.464334 0.178240 0 0 255
-0.381557 -0.142179 -0.506662 255 0 0
0.310251 0.540506 0.550630 76 153 0
0.373821 -0.289599 -0.004215 0 255 0
0.373821 -0.352277 -0.088142 0 255 0
0.390362 -0.432577 -0.003288 0 255 0
-0.292807 -0.464334 0.191935 0 0 255
-0.018345 0.220928 0.537535 76 153 0
0.089131 0.740314 -0.496974 127 127 0
-0.281194 -0.464334 0.450782 0 0 255
0.297955 -0.619064 0.379705 153 0 76
0.182414 0.228839 -0.508002 127 127 0
-0.381557 -0.034484 0.104602 255 0 0
0.353843 0.748682 -0.418189 153 0 76
0.301647 0.751903 -0.447846 153 0 76
-0.365016 0.562531 0.391701 255 0 0
0.390362 0.302813 0.197997 0 255 0
-0.272840 0.737654 0.516776 76 153 0
-0.173596 -0.529176 0.363164 153 0 76
-0.293110 -0.216916 -0.508002 127 127 0
0.373821 -0.068520 -0.415628 0 255 0
-0.301619 -0.033165 0.517548 76 153 0
-0.381557 0.411913 0.413466 255 0 0
-0.365016 0.679355 0.108367 255 0 0
-0.046773 -0.616326 0.363164 153 0 76
0.373821 -0.381729 -0.249437 0 255 0
0.373821 0.042505 -0.238036 0 255 0
-0.365016 0.085937 0.096234 255 0 0
0.390362 -0.110118 0.064085 0 255 0
0.285454 0.748682 0.446073 153 76 0
0.024547 -0.513119 -0.508002 153 76 0
-0.365016 -0.197012 -0.102090 255 0 0
-0.039498 0.343016 -0.508002 127 127 0
-0.294484 -0.251465 0.550630 76 153 0
0.373821 -0.472544 -0.419485 0 0 255
-0.352030 -0.486389 0.124151 0 0 255
0.123238 -0.486389 -0.132801 0 0 255
-0.255937 -0.464334 0.199836 0 0 255
0.259630 -0.464334 -0.422832 0 0 255
-0.365016 0.340238 -0.132974 255 0 0
0.390362 -0.522777 0.074129 76 0 153
0.390362 0.564873 -0.246094 0 255 0
-0.368212 0.803819 -0.041876 255 0 0
-0.365016 -0.001644 0.150501 255 0 0
-0.381557 0.064764 0.049763 255 0 0
0.373821 0.010132 -0.083723 0 255 0
-0.365016 0.176106 -0.421941 255 0 0
0.004656 -0.074035 0.530643 76 153 0
0.390362 -0.155075 0.166457 0 255 0
0.390362 0.060260 -0.518405 0 255 0
0.390362 0.169622 -0.408680 0 255 0
0.299666 -0.486389 0.261672 0 0 255
-0.249228 0.670620 0.520962 76 153 0
-0.090143 0.125633 -0.373963 127 0 127
-0.244858 -0.206279 -0.496974 127 127 0
-0.365016 0.734766 0.346512 255 0 0
0.373821 0.324694 0.281965 0 255 0
-0.187038 -0.464334 0.367493 153 0 76
-0.348915 0.158715 -0.452041 127 0 127
-0.381557 -0.661107 -0.380952 204 51 127
-0.365016 -0.630442 0.202086 204 51 127
0.002255 -0.258151 0.530643 76 153 0
-0.365016 -0.294898 0.111062 255 0 0
-0.365016 -0.429581 0.348814 255 0 0
0.254128 0.351339 -0.508002 127 127 0
-0.375128 -0.519471 -0.110808 204 51 127
0.351978 -0.486389 -0.452160 0 0 255
0.390362 0.215350 -0.468664 0 255 0
0.310196 -0.552086 -0.541084 153 76 0
0.390362 0.680046 0.096259 0 255 0
-0.381557 -0.613044 -0.239054 204 51 127
0.335090 -0.464334 -0.349577 0 0 255
-0.171241 0.125633 -0.334946 127 0 127
0.108923 -0.464334 0.075125 0 0 255
-0.034969 -0.486389 0.461660 0 0 255
-0.363050 0.751511 0.517548 76 153 0
-0.381557 0.502355 -0.423558 255 0 0
-0.365016 0.561921 0.003888 255 0 0
0.075750 0.158715 -0.300796 127 0 127
-0.326420 0.459149 0.491286 0 0 255
-0.365016 0.497601 0.228095 255 0 0
-0.282658 -0.464334 0.389180 0 0 255
0.373821 -0.080132 -0.019654 0 255 0
-0.354118 0.364471 0.550630 76 153 0
-0.373578 0.122886 0.517548 0 0 255
-0.237606 -0.464334 0.448961 0 0 255
0.390362 0.112554 0.042754 0 255 0
0.353915 0.193106 0.517548 204 51 127
-0.365016 -0.335333 0.347698 255 0 0
0.291115 0.620644 0.517548 76 153 0
0.007593 -0.315865 0.537535 76 153 0
0.390362 -0.253559 -0.104609 0 255 0
0.177658 0.125633 -0.302795 127 0 127
-0.054003 -0.582695 0.379705 153 0 76
-0.354838 -0.609055 0.363164 153 0 76
-0.353394 -0.486389 -0.300804 255 0 0
-0.381557 -0.263945 -0.240722 255 0 0
0.272835 0.128503 -0.000741 127 0 127
-0.365016 -0.595419 -0.466254 204 51 127
0.382627 -0.717964 -0.358121 76 0 153
0.253319 0.059758 -0.496974 127 127 0
0.338558 0.651835 0.517548 204 51 127
-0.166069 0.040680 0.537535 76 153 0
0.373821 0.615038 -0.324164 0 255 0
-0.381557 0.038448 0.410338 255 0 0
-0.131984 -0.464334 -0.171677 0 0 255
0.373821 0.095426 -0.317904 0 255 0
0.365148 0.158715 -0.227430 0 255 0
-0.381557 0.720052 -0.303010 255 0 0
0.304876 -0.486389 0.203575 0 0 255
-0.025924 0.678643 -0.541084 0 255 0
0.097569 0.214099 -0.496974 127 127 0
-0.172613 -0.486389 0.350313 0 0 255
0.254312 0.439540 -0.508002 127 127 0
0.081072 0.157376 -0.496974 127 127 0
0.316079 -0.636251 -0.508002 153 76 0
0.249353 -0.452671 0.517548 255 0 0
0.290385 -0.486389 0.124935 0 0 255
-0.152172 -0.387686 0.550630 76 153 0
-0.354330 0.776196 -0.541084 0 255 0
0.390362 0.429920 0.269729 0 255 0
0.078248 0.405476 -0.496974 127 127 0
0.060932 -0.486389 -0.373504 0 0 255
0.344074 -0.219636 0.517548 76 153 0
0.159169 0.781174 -0.508002 0 255 0
0.158506 -0.291607 -0.496974 127 127 0
-0.365016 0.149363 0.245389 255 0 0
-0.261186 -0.464334 0.327436 0 0 255
-0.037354 -0.543604 -0.508002 153 76 0
-0.365016 0.402014 -0.000382 255 0 0
0.351167 -0.333767 -0.508002 127 127 0
0.373821 0.622996 0.137620 0 255 0
-0.381557 0.245039 0.151890 255 0 0
0.301510 -0.504773 0.379705 153 0 76
0.373821 -0.450309 -0.190527 0 255 0
-0.276311 0.125633 -0.443736 127 0 127
0.373821 0.220660 0.062345 0 255 0
0.384848 -0.413567 0.542712 76 153 0
0.110854 -0.486389 0.115338 0 0 255
-0.261662 -0.209940 0.517548 76 153 0
-0.365016 0.703810 0.427841 255 0 0
-0.365016 -0.144311 0.435441 255 0 0
-0.357073 -0.486389 0.040875 0 0 255
-0.266946 -0.564891 -0.541084 153 76 0
-0.340356 0.158715 -0.386938 127 0 127
0.248142 -0.464334 -0.086276 0 0 255
0.373821 0.308919 0.120202 0 255 0
-0.125728 -0.528967 -0.541084 153 76 0
-0.381557 0.443741 0.378417 255 0 0
-0.381557 -0.207890 -0.201144 255 0 0
-0.365016 0.754987 -0.504873 255 0 0
-0.141616 -0.426620 -0.496974 127 127 0
0.394326 -0.041462 0.484466 204 51 127
0.373821 0.473549 0.370447 0 255 0
0.147841 0.615565 0.530643 76 153 0
0.362531 -0.017821 0.484466 204 51 127
-0.341576 0.705152 -0.541084 0 255 0
0.373821 -0.223649 0.066367 0 255 0
-0.107194 -0.464334 0.160461 0 0 255
-0.365016 -0.265150 -0.180642 255 0 0
0.355348 -0.320431 0.550630 76 153 0
0.205884 -0.486389 0.266169 0 0 255
0.199055 0.427069 -0.496974 127 127 0
-0.334647 -0.464334 0.426485 0 0 255
0.373821 -0.232997 -0.230477 0 255 0
0.247135 -0.261509 -0.496974 127 127 0
-0.392584 0.310532 0.512726 0 0 255
-0.251080 0.472897 0.517548 76 153 0
-0.248220 -0.541063 -0.508002 153 76 0
-0.381557 0.225174 -0.522147 255 0 0
-0.037178 -0.717460 0.379705 153 0 76
-0.102757 -0.304006 0.537535 76 153 0
0.390362 0.198710 -0.049170 0 255 0
-0.381557 0.628539 -0.016352 255 0 0
-0.317753 -0.464334 0.324697 0 0 255
-0.333682 0.728096 0.550630 76 153 0
0.233593 0.803819 0.514779 127 127 0
0.373821 -0.611999 -0.485216 76 0 153
0.228247 0.750845 0.517548 127 127 0
-0.157629 -0.696585 -0.508002 153 76 0
0.390362 0.207891 -0.230867 0 255 0
-0.340281 0.199141 0.550630 76 153 0
0.350585 0.724197 0.517548 204 51 127
0.006947 0.308285 -0.496974 127 127 0
0.160578 0.346739 0.537535 76 153 0
0.390362 0.604405 0.471270 0 255 0
-0.381557 0.571697 0.244379 255 0 0
-0.243936 0.158715 -0.485790 127 0 127
-0.381557 -0.296723 -0.444426 255 0 0
-0.045074 0.184363 0.537535 76 153 0
-0.089391 0.746293 -0.541084 0 255 0
0.214365 0.710156 0.550630 76 153 0
0.349613 0.672422 -0.496974 127 127 0
0.373821 -0.690444 -0.079546 76 0 153
-0.053460 -0.486389 -0.123322 0 0 255
0.373821 -0.206171 0.012939 0 255 0
-0.381557 0.354846 0.042876 255 0 0
-0.139304 0.158715 -0.016178 127 0 127
0.390362 -0.608500 -0.073983 76 0 153
-0.381557 -0.335774 0.401445 255 0 0
0.296784 -0.454313 0.484466 0 0 255
-0.210363 0.468906 -0.496974 127 127 0
0.373821 0.785696 0.049772 0 255 0
0.390362 -0.717420 -0.449495 76 0 153
0.390362 0.325599 0.024362 0 255 0
-0.356791 -0.486389 -0.156048 255 0 0
-0.381557 0.475490 -0.436939 255 0 0
-0.381557 -0.295661 0.062558 255 0 0
0.193222 -0.049872 -0.496974 127 127 0
0.390362 0.331208 -0.073232 0 255 0
0.228534 0.694857 0.517548 76 153 0
0.027264 0.392430 0.537535 76 153 0
0.390362 0.746583 0.466578 153 76 0
-0.365016 0.362800 0.133507 255 0 0
-0.365016 0.704569 -0.400122 255 0 0
-0.000479 -0.464334 -0.232556 0 0 255
-0.274004 -0.486389 -0.035402 0 0 255
-0.035511 -0.464334 -0.304387 0 0 255
-0.381557 0.413586 0.383674 255 0 0
-0.088550 -0.189369 -0.496974 127 127 0
0.373821 -0.413188 0.428948 0 255 0
0.390362 -0.644688 0.360947 76 0 153
-0.043871 -0.238843 0.530643 76 153 0
-0.381557 0.296651 0.129584 255 0 0
0.373821 -0.534357 0.244517 76 0 153
-0.373612 -0.018551 0.517548 76 153 0
-0.154560 0.803819 -0.509318 0 255 0
0.390362 0.296199 -0.424680 0 255 0
-0.262982 0.471787 -0.496974 127 127 0
0.390362 -0.212041 0.356220 0 255 0
-0.365016 0.334353 -0.192679 255 0 0
-0.200578 -0.405590 -0.496974 127 127 0
-0.314569 -0.486389 0.282532 0 0 255
0.079674 -0.464334 0.074286 0 0 255
0.373821 -0.574185 -0.344393 76 0 153
-0.248231 0.125633 -0.171084 127 0 127
0.029723 0.748775 0.550630 76 153 0
-0.179782 0.554758 -0.508002 127 127 0
-0.065766 0.257225 0.537535 76 153 0
0.238597 -0.486389 -0.193625 0 0 255
0.373821 -0.164509 -0.313836 0 255 0
0.373821 0.710843 -0.333184 0 255 0
-0.381557 -0.006202 -0.056604 255 0 0
-0.365016 0.405013 -0.324749 255 0 0
0.373821 -0.218225 -0.298897 0 255 0
0.390362 -0.201167 -0.226918 0 255 0
-0.187450 0.063312 0.530643 76 153 0
0.120669 0.593015 0.537535 76 153 0
-0.207129 0.723242 0.517548 76 153 0
0.170315 -0.380967 0.550630 76 153 0
0.390362 -0.267546 0.471975 0 255 0
0.101931 0.392351 0.537535 76 153 0
-0.381557 0.115181 -0.122581 255 0 0
-0.341163 0.734527 -0.541084 0 255 0
0.089680 -0.464334 -0.348037 0 0 255
0.390362 -0.318297 0.354324 0 255 0
-0.381557 0.727831 -0.441517 255 0 0
-0.198378 -0.236072 0.530643 76 153 0
-0.365016 -0.636439 -0.540329 153 76 0
0.390362 0.516845 0.064002 0 255 0
0.146162 -0.464334 0.127241 0 0 255
0.322868 0.660828 0.603010 153 0 76
0.373821 -0.717221 0.191225 76 0 153
-0.381557 -0.542964 0.175008 204 51 127
0.390362 0.391981 0.376299 0 255 0
0.373821 0.490222 -0.116610 0 255 0
0.210897 0.158715 -0.204618 127 0 127
-0.381557 -0.065580 -0.308427 255 0 0
0.373821 -0.367616 -0.188881 0 255 0
0.143853 -0.464334 -0.128943 0 0 255
-0.066223 -0.486389 -0.004424 0 0 255
0.390362 -0.038844 0.277594 0 255 0
0.373821 -0.354964 -0.136226 0 255 0
-0.284809 0.696907 -0.541084 0 255 0
-0.051858 0.576839 0.530643 76 153 0
0.390362 0.606544 0.007626 0 255 0
0.373821 0.115322 0.069656 0 255 0
-0.321257 -0.464334 0.382340 0 0 255
-0.365016 -0.424845 -0.541029 255 0 0
0.390362 0.097464 -0.238483 0 255 0
-0.285761 -0.464334 0.121879 0 0 255
-0.365016 -0.497064 -0.507009 153 76 0
-0.365016 -0.549219 -0.488677 204 51 127
0.285742 0.158715 -0.207667 127 0 127
0.190694 -0.486389 -0.373232 0 0 255
0.088555 -0.486389 0.187114 0 0 255
-0.365016 0.310241 0.378253 255 0 0
-0.155404 -0.567302 0.363164 153 0 76
-0.082906 0.530952 -0.496974 127 127 0
-0.381557 0.594086 -0.359957 255 0 0
0.390362 -0.221552 -0.337625 0 255 0
-0.244275 -0.464334 0.076516 0 0 255
-0.182818 0.730052 0.550630 76 153 0
0.194510 -0.160324 0.530643 76 153 0
-0.365016 -0.164408 0.405728 255 0 0
-0.365016 0.237951 0.340353 255 0 0
-0.365016 -0.467061 -0.015404 0 0 255
0.311590 -0.464334 -0.041891 0 0 255
0.373821 -0.077429 -0.513177 127 127 0
0.136187 -0.443011 -0.496974 127 127 0
-0.197103 -0.486389 -0.304633 0 0 255
0.373821 0.142516 0.413592 0 255 0
0.373821 -0.494718 -0.281611 0 255 0
0.063593 -0.616405 0.379705 153 0 76
0.349823 0.770736 -0.480889 153 0 76
-0.120187 -0.294500 -0.508002 127 127 0
-0.281432 -0.464334 0.031863 0 0 255
-0.365016 -0.171623 0.199606 255 0 0
0.390362 0.112546 -0.421819 0 255 0
0.098045 0.125633 -0.337677 127 0 127
0.094317 0.449469 0.530643 76 153 0
0.373821 0.247501 -0.158230 0 255 0
0.390362 0.676582 -0.076327 0 255 0
0.176600 0.571725 0.537535 76 153 0
0.376106 0.672887 -0.541084 0 255 0
0.261769 -0.436588 -0.496974 127 127 0
-0.231876 -0.486389 0.107360 0 0 255
-0.381557 -0.008100 -0.019284 255 0 0
-0.365016 -0.173520 0.138957 255 0 0
-0.381557 -0.632516 0.143727 204 51 127
-0.138316 0.190989 0.530643 76 153 0
0.373821 0.172279 0.041838 0 255 0
0.226496 0.125633 -0.387654 127 0 127
0.246902 0.299650 -0.508002 127 127 0
0.293809 -0.528878 -0.508002 153 76 0
0.373821 0.354893 0.219852 0 255 0
-0.102756 -0.464334 -0.009531 0 0 255
0.259863 -0.204853 0.517548 76 153 0
0.390362 0.531739 0.327081 0 255 0
-0.381557 0.077360 -0.151319 255 0 0
0.067097 -0.486389 0.118721 0 0 255
0.373821 -0.454642 0.365371 0 255 0
0.190976 0.652716 -0.508002 127 127 0
0.135116 -0.486389 -0.043011 0 0 255
0.116665 0.258070 0.530643 76 153 0
0.071996 0.158715 -0.047503 127 0 127
0.061857 -0.710710 -0.508002 153 76 0
-0.392584 0.596623 0.514670 0 0 255
0.373821 0.506038 -0.341417 0 255 0
-0.365016 -0.178338 -0.348116 255 0 0
-0.293729 0.686305 0.517548 76 153 0
0.266410 -0.484565 0.484466 0 0 255
0.390362 -0.557366 0.060537 76 0 153
0.222672 -0.456554 0.550630 76 153 0
-0.365016 -0.255966 -0.270400 255 0 0
-0.381557 0.596337 0.159280 255 0 0
-0.023773 0.665303 0.517548 76 153 0
0.390362 -0.480810 0.310518 0 255 0
0.150704 -0.486389 0.436884 0 0 255
-0.381557 -0.369299 0.360468 255 0 0
0.096837 -0.536874 -0.541084 153 76 0
-0.365016 -0.410122 -0.017468 255 0 0
-0.075033 0.801065 0.517548 127 127 0
-0.081037 -0.464334 -0.045030 0 0 255
0.185028 -0.464334 0.127392 0 0 255
0.373821 -0.082073 0.435141 0 255 0
0.244840 0.125633 -0.078556 127 0 127
-0.381557 0.292335 0.196786 255 0 0
-0.265491 0.416386 0.550630 76 153 0
-0.381557 -0.089266 -0.419101 255 0 0
0.365494 0.125633 -0.147900 127 0 127
-0.195044 0.125633 -0.281351 127 0 127
-0.365016 -0.336058 0.194717 255 0 0
-0.381557 -0.572541 -0.358695 204 51 127
-0.381557 -0.224133 0.080962 255 0 0
0.203535 -0.320015 0.537535 76 153 0
0.373821 -0.126813 -0.287479 0 255 0
0.230003 -0.486389 0.009851 0 0 255
-0.365016 -0.704440 -0.217736 204 51 127
-0.365016 -0.072467 0.186275 255 0 0
0.145591 -0.037762 0.537535 76 153 0
0.373821 -0.131637 -0.178075 0 255 0
-0.345016 -0.464334 -0.176655 255 0 0
-0.339279 -0.532104 0.379705 153 0 76
0.371545 0.125633 -0.359784 0 255 0
-0.381557 0.460295 0.327193 255 0 0
0.207552 -0.464334 0.089129 0 0 255
-0.094771 -0.458820 -0.529918 153 76 0
-0.365016 -0.221032 0.212037 255 0 0
-0.381557 0.463802 -0.002043 255 0 0
-0.381557 0.008216 0.449125 255 0 0
-0.365016 -0.350271 -0.335310 255 0 0
0.024120 -0.065202 -0.496974 127 127 0
-0.179518 0.682816 -0.496974 127 127 0
0.373821 0.247666 0.007599 0 255 0
-0.121107 -0.486389 0.448505 0 0 255
-0.381557 0.194183 0.022658 255 0 0
-0.040409 -0.486389 0.093172 0 0 255
0.051781 -0.486389 0.079705 0 0 255
0.390362 -0.527188 -0.527844 76 0 153
0.221764 -0.704846 -0.508002 153 76 0
0.373821 0.666472 -0.428793 0 255 0
-0.381557 -0.117658 -0.079422 255 0 0
-0.302115 -0.596543 -0.541084 153 76 0
0.373821 0.532659 0.450609 0 255 0
0.193427 -0.011019 -0.496974 127 127 0
0.390362 -0.478728 0.020845 0 255 0
-0.095943 -0.464334 -0.257395 0 0 255
0.094262 -0.580751 -0.541084 153 76 0
-0.365016 -0.024503 -0.201110 255 0 0
0.287106 -0.486389 0.434881 0 0 255
-0.198123 -0.256092 -0.496974 127 127 0
-0.168580 -0.045519 -0.508002 127 127 0
