ply
format ascii 1.0
element vertex 1251
property float x
property float y
property float z
property uchar red
property uchar green
property uchar blue
end_header
0.553121 0.211818 -0.104046 127 127 0
0.229095 -0.031480 -0.517742 127 127 0
-0.049497 -0.780403 -0.482291 127 127 0
-0.014628 -0.458373 0.571599 127 127 0
-0.533553 0.230009 0.218490 127 127 0
-0.570626 -0.079950 0.078954 127 127 0
-0.347032 -0.734748 0.035501 127 127 0
-0.046956 -0.742675 0.569920 127 127 0
0.562459 -0.772952 0.034565 127 127 0
-0.228209 0.255409 0.528008 127 127 0
0.417732 -0.682870 -0.377270 127 127 0
-0.352833 0.242813 0.455970 127 127 0
0.549027 0.402202 0.134557 127 127 0
0.483772 0.350942 -0.288395 127 127 0
0.370370 0.849894 -0.263059 0 255 0
0.525279 0.398425 -0.207411 127 127 0
0.252647 -0.761467 -0.505426 127 127 0
-0.172294 -0.734494 -0.001633 127 127 0
-0.119784 -0.454676 0.562111 127 127 0
0.120805 0.889933 -0.169181 0 255 0
0.401330 -0.171498 0.400998 127 127 0
0.007165 0.889930 -0.406261 0 255 0
0.122325 -0.734492 -0.304264 127 127 0
0.224243 -0.252389 -0.519955 127 127 0
-0.013491 0.122664 0.571643 127 127 0
0.024684 -0.734494 -0.275453 127 127 0
-0.039293 -0.739377 -0.384546 127 127 0
-0.419429 0.480627 -0.389000 127 127 0
-0.442984 0.672627 0.277803 127 127 0
-0.508415 0.632554 0.213257 127 127 0
0.336464 -0.483797 0.459321 127 127 0
-0.369562 0.383823 0.443278 127 127 0
0.423686 0.343158 0.379756 127 127 0
0.562927 -0.271153 -0.049425 127 127 0
0.156691 0.219348 0.548717 127 127 0
0.563681 0.260310 -0.015250 127 127 0
-0.436761 -0.208372 0.373993 127 127 0
0.561075 0.111874 0.061991 127 127 0
0.009774 -0.202742 0.571819 127 127 0
0.553921 0.544714 0.117417 127 127 0
-0.416277 -0.641403 0.396151 127 127 0
0.320411 -0.403592 -0.464063 127 127 0
-0.215364 -0.765108 -0.406424 127 127 0
0.239776 -0.503270 -0.512327 127 127 0
0.321800 -0.735751 -0.183909 127 127 0
0.524123 -0.419721 -0.209334 127 127 0
0.474770 -0.084981 -0.305118 127 127 0
0.361539 0.388061 -0.435427 127 127 0
-0.350942 -0.292535 -0.451822 127 127 0
-0.494459 0.568746 0.291427 127 127 0
-0.522907 0.286477 -0.237675 127 127 0
-0.422488 0.422929 0.389432 127 127 0
-0.497766 0.019112 0.288243 127 127 0
-0.464364 -0.704387 -0.335540 127 127 0
0.300556 0.791705 -0.344874 0 255 0
0.381330 -0.531433 -0.416328 127 127 0
-0.572877 -0.278076 -0.039984 127 127 0
-0.240369 -0.734494 -0.073233 127 127 0
-0.558231 -0.200366 0.136238 127 127 0
0.274853 -0.201770 -0.492800 127 127 0
0.234823 0.220242 0.518960 127 127 0
0.295705 -0.287107 0.486895 127 127 0
0.447178 0.738194 0.142347 127 127 0
0.391333 0.025863 -0.405786 127 127 0
-0.495597 0.679947 0.147869 127 127 0
0.370620 0.744187 -0.286293 0 255 0
-0.529411 -0.802905 0.043044 127 127 0
-0.331161 0.097748 -0.466196 127 127 0
0.217057 -0.754537 0.383835 127 127 0
-0.480399 0.499861 -0.310106 127 127 0
0.348231 0.124872 -0.445366 127 127 0
0.292015 0.637955 0.456100 127 127 0
0.518920 0.438943 0.228086 127 127 0
-0.184844 -0.734494 0.261927 127 127 0
-0.161681 0.888499 0.411837 0 255 0
-0.564881 -0.122212 -0.110976 127 127 0
-0.486580 0.122608 -0.300307 127 127 0
-0.520979 -0.814211 -0.214285 127 127 0
-0.453563 0.738039 0.157119 0 255 0
-0.457270 -0.797734 0.252032 127 127 0
0.015738 -0.152653 -0.565581 127 127 0
0.546889 -0.475882 -0.132425 127 127 0
0.035008 -0.388783 -0.564816 127 127 0
0.299982 0.889933 0.182257 0 255 0
0.562924 -0.191170 0.025053 127 127 0
0.563864 0.009729 -0.023581 127 127 0
0.288216 0.527304 -0.484383 127 127 0
-0.513548 -0.758080 -0.255560 127 127 0
-0.323867 0.427503 0.473858 127 127 0
-0.429287 -0.756660 -0.127028 127 127 0
-0.454757 0.509212 0.354115 127 127 0
0.492887 0.154053 0.278537 127 127 0
0.438903 0.459047 -0.354243 127 127 0
0.221863 0.889933 -0.309814 0 255 0
0.562699 0.469115 0.030783 127 127 0
-0.072612 -0.114684 0.568798 127 127 0
-0.432319 -0.454838 -0.376472 127 127 0
-0.238388 -0.792858 -0.448549 127 127 0
-0.005777 0.889607 0.430154 0 255 0
-0.543752 0.543312 -0.181259 127 127 0
0.212675 -0.099805 -0.524238 127 127 0
0.310465 -0.734489 -0.131802 127 127 0
0.338592 -0.734905 -0.075320 127 127 0
0.143398 -0.524371 -0.546538 127 127 0
-0.434455 -0.087849 -0.374164 127 127 0
0.071699 -0.341379 -0.562817 127 127 0
-0.240985 -0.735037 -0.248410 127 127 0
-0.029834 -0.295484 0.570669 127 127 0
0.061872 0.496857 0.569564 127 127 0
-0.185455 0.889767 0.307916 0 255 0
-0.317088 -0.755415 -0.306936 127 127 0
0.265985 -0.677314 -0.497987 127 127 0
0.449638 -0.569722 -0.341068 127 127 0
0.340558 -0.529499 -0.451004 127 127 0
0.421178 0.728684 0.221578 127 127 0
0.330357 -0.753425 -0.280685 127 127 0
0.121000 0.656556 0.514733 127 127 0
-0.520932 -0.804751 0.119943 127 127 0
-0.005127 0.889778 -0.224488 0 255 0
0.184535 0.147475 -0.533718 127 127 0
0.546967 0.375065 -0.132844 127 127 0
-0.287100 0.889686 0.130307 0 255 0
-0.279927 -0.734494 0.039735 127 127 0
0.484057 -0.205569 -0.288211 127 127 0
-0.336442 0.145561 0.466317 127 127 0
-0.305373 -0.626804 0.485733 127 127 0
0.529346 0.542179 -0.196875 127 127 0
0.561783 -0.464637 -0.060354 127 127 0
0.065601 0.036170 0.568910 127 127 0
-0.293018 -0.188190 0.493405 127 127 0
0.274758 0.424717 -0.492860 127 127 0
0.074670 -0.449905 -0.562541 127 127 0
0.145651 -0.044245 0.551049 127 127 0
-0.562825 0.107722 0.115496 127 127 0
-0.377346 0.722908 0.311031 127 127 0
0.125252 -0.456782 0.556236 127 127 0
-0.322057 -0.814920 -0.446678 127 127 0
0.235435 -0.734494 -0.050463 127 127 0
-0.312823 0.889708 0.028202 0 255 0
-0.270415 0.433755 -0.500344 127 127 0
-0.078099 0.798038 0.459381 0 255 0
-0.387728 0.654812 0.367311 127 127 0
-0.495833 -0.662681 -0.285627 127 127 0
0.117542 -0.025004 -0.554280 127 127 0
0.335153 0.608378 0.450449 127 127 0
-0.356461 -0.393169 -0.446870 127 127 0
-0.068841 -0.734494 -0.158167 127 127 0
-0.387867 -0.061727 0.426637 127 127 0
0.367521 0.129317 0.432481 127 127 0
-0.558381 -0.567414 -0.133770 127 127 0
-0.045066 0.889918 -0.113188 0 255 0
0.512187 0.646239 -0.131841 127 127 0
-0.567834 -0.018112 -0.097692 127 127 0
-0.533490 0.639301 -0.112450 127 127 0
-0.050634 0.632734 0.545312 127 127 0
0.295562 0.886303 0.325913 0 255 0
-0.085613 0.889848 -0.209108 0 255 0
0.112146 0.865865 0.440801 0 255 0
0.190080 -0.208554 0.538923 127 127 0
0.561452 -0.369872 0.060976 127 127 0
0.539733 -0.285271 -0.162536 127 127 0
-0.006733 -0.734494 0.063845 127 127 0
0.476830 -0.453403 -0.301439 127 127 0
0.305195 -0.560539 -0.473679 127 127 0
0.563854 -0.096413 -0.009073 127 127 0
0.082053 -0.139417 -0.561857 127 127 0
0.364486 0.302643 0.435373 127 127 0
0.489614 -0.256375 -0.277633 127 127 0
0.130184 0.130710 -0.550512 127 127 0
-0.463650 0.842562 -0.012035 0 255 0
-0.095331 -0.726151 -0.559771 127 127 0
0.375313 0.889824 0.144281 0 255 0
0.087959 -0.734494 0.301071 127 127 0
0.435179 -0.206322 -0.358395 127 127 0
-0.556043 0.268973 -0.141624 127 127 0
0.377891 0.433308 0.422542 127 127 0
0.435544 0.532935 0.366470 127 127 0
-0.138999 -0.386241 -0.550028 127 127 0
0.178321 0.823030 0.423505 0 255 0
-0.563850 0.429162 -0.115386 127 127 0
-0.121196 0.889933 -0.323519 0 255 0
0.169342 -0.750104 0.545451 127 127 0
-0.338455 -0.734481 -0.064535 127 127 0
0.143612 0.291333 0.552092 127 127 0
0.139184 -0.734494 -0.245853 127 127 0
-0.046904 0.889933 -0.314897 0 255 0
0.001942 -0.065531 -0.566120 127 127 0
-0.255405 -0.608583 -0.508240 127 127 0
-0.285439 0.321360 0.498482 127 127 0
-0.574309 -0.573028 -0.003992 127 127 0
0.097245 -0.810799 0.532958 127 127 0
-0.072466 -0.734494 0.139503 127 127 0
-0.056054 -0.734494 0.030793 127 127 0
0.552452 0.070284 0.123059 127 127 0
0.072435 -0.718873 0.567711 127 127 0
0.477105 0.029891 0.303788 127 127 0
-0.572414 0.225761 -0.050933 127 127 0
0.015816 0.740933 0.476587 0 255 0
-0.001701 0.889871 -0.007627 0 255 0
-0.284347 -0.359350 -0.493015 127 127 0
-0.502971 0.214664 0.278357 127 127 0
0.390741 -0.207767 -0.406562 127 127 0
-0.242962 -0.703168 0.521678 127 127 0
0.436818 0.577952 -0.354693 127 127 0
-0.021602 0.299364 -0.566470 127 127 0
-0.523515 -0.682995 0.239303 127 127 0
-0.268077 -0.734342 0.257779 127 127 0
0.194764 -0.540581 -0.530493 127 127 0
-0.135992 0.520227 -0.550689 127 127 0
-0.431686 -0.805094 0.315885 127 127 0
-0.233505 0.551544 -0.519229 127 127 0
0.562768 0.343044 0.027756 127 127 0
-0.218752 -0.644514 0.531512 127 127 0
0.378405 0.866365 0.248578 0 255 0
0.563688 0.411289 -0.036253 127 127 0
0.507261 -0.427162 0.251965 127 127 0
-0.445697 0.235998 -0.361774 127 127 0
0.462522 -0.157530 0.326907 127 127 0
-0.269388 0.889933 -0.050223 0 255 0
-0.435903 0.820064 0.162438 0 255 0
-0.301681 -0.745620 0.300696 127 127 0
0.547351 0.574930 -0.118686 127 127 0
-0.081423 -0.798064 0.514315 127 127 0
0.486436 0.696384 -0.081305 127 127 0
-0.258454 -0.182091 -0.506637 127 127 0
0.550822 -0.676134 -0.115289 127 127 0
-0.148012 -0.704954 0.553956 127 127 0
0.001895 -0.769516 -0.566103 127 127 0
0.298012 -0.735276 0.182548 127 127 0
0.563862 -0.715372 -0.020167 127 127 0
-0.532758 -0.374206 0.220223 127 127 0
0.010206 0.250612 -0.565797 127 127 0
0.101562 -0.234114 -0.558253 127 127 0
-0.013566 0.889723 0.079514 0 255 0
-0.377977 -0.195360 -0.427330 127 127 0
0.448355 0.788970 -0.077517 0 255 0
0.129322 0.361721 -0.550769 127 127 0
-0.124164 -0.734494 -0.242515 127 127 0
0.353297 -0.808198 -0.392313 127 127 0
0.278440 0.065920 -0.490540 127 127 0
-0.132564 0.722392 -0.463125 127 127 0
-0.441864 -0.815593 -0.342207 127 127 0
0.321081 -0.771354 0.470469 127 127 0
0.265348 0.711083 0.411566 127 127 0
-0.389826 0.573141 -0.415649 127 127 0
-0.036914 -0.241753 -0.566482 127 127 0
0.396060 0.063954 0.405745 127 127 0
0.463127 -0.035248 -0.323511 127 127 0
-0.573832 -0.768708 0.052934 127 127 0
-0.460651 -0.197137 -0.341432 127 127 0
-0.176833 -0.117292 -0.540771 127 127 0
-0.266873 0.805880 -0.378222 0 255 0
0.562576 -0.306867 0.033946 127 127 0
-0.166966 -0.734494 0.186240 127 127 0
0.411947 0.238609 0.391514 127 127 0
0.089877 0.889933 0.040703 0 255 0
-0.514552 -0.340040 -0.253811 127 127 0
0.444013 -0.282592 -0.348523 127 127 0
-0.309358 -0.089685 -0.479817 127 127 0
-0.534329 0.337247 0.216796 127 127 0
0.554723 0.518311 -0.097871 127 127 0
0.509465 0.113762 -0.239920 127 127 0
-0.574647 -0.159479 0.034680 127 127 0
0.227537 -0.734494 -0.197067 127 127 0
0.540647 0.627237 0.060837 127 127 0
0.555750 -0.568910 0.108515 127 127 0
-0.239432 -0.712355 -0.516642 127 127 0
0.193433 -0.734494 0.185563 127 127 0
0.480788 0.234105 -0.294378 127 127 0
0.266905 0.889933 0.072523 0 255 0
-0.570439 -0.631940 -0.079691 127 127 0
-0.574138 -0.460994 -0.008353 127 127 0
0.504083 -0.065715 0.258742 127 127 0
-0.043555 0.733168 -0.474149 127 127 0
0.024566 0.763927 -0.464228 0 255 0
-0.418646 0.142315 -0.389723 127 127 0
0.402385 0.742063 -0.237879 0 255 0
-0.462405 0.780758 0.073112 0 255 0
0.128987 0.889933 -0.331659 0 255 0
0.532729 -0.073113 0.187537 127 127 0
-0.347357 -0.119625 0.459077 127 127 0
-0.518689 -0.218546 -0.245986 127 127 0
0.119140 0.641200 -0.521084 127 127 0
-0.552184 -0.518752 0.161556 127 127 0
-0.445588 0.352117 -0.361918 127 127 0
0.562697 -0.409446 0.028455 127 127 0
0.320578 -0.171224 0.471495 127 127 0
0.087847 0.204255 -0.561319 127 127 0
-0.207035 0.468034 -0.531317 127 127 0
-0.021891 -0.734494 -0.058700 127 127 0
0.317126 0.065289 0.473675 127 127 0
-0.508639 -0.779960 0.266833 127 127 0
-0.556272 -0.699736 0.145079 127 127 0
0.071933 0.765309 0.460428 0 255 0
-0.570171 -0.369244 -0.082568 127 127 0
-0.573422 0.056948 -0.026609 127 127 0
-0.572025 0.570589 -0.045474 127 127 0
0.033084 -0.762693 0.459018 127 127 0
0.202794 0.589725 -0.523741 127 127 0
0.178022 -0.493702 0.542915 127 127 0
0.466573 0.522399 -0.318396 127 127 0
-0.182898 0.791456 0.430436 0 255 0
0.396293 0.503852 0.405531 127 127 0
-0.334029 -0.179055 -0.464111 127 127 0
0.221513 -0.794846 -0.455921 127 127 0
0.073186 -0.600510 -0.562679 127 127 0
0.184948 0.888826 0.379400 0 255 0
-0.304126 -0.784838 0.396665 127 127 0
-0.569390 -0.146424 0.086003 127 127 0
0.317360 -0.673953 -0.466005 127 127 0
0.559797 0.448250 0.084155 127 127 0
-0.193127 -0.465838 -0.535947 127 127 0
0.181925 0.537811 0.541621 127 127 0
-0.166917 0.889600 0.070892 0 255 0
-0.483672 0.492085 0.313721 127 127 0
-0.419585 0.857934 -0.197129 0 255 0
-0.247334 -0.546196 -0.512486 127 127 0
0.447160 0.061443 -0.344541 127 127 0
0.181191 -0.734494 -0.164322 127 127 0
-0.528940 -0.647922 -0.224672 127 127 0
0.496563 0.458595 -0.264447 127 127 0
0.325404 -0.552891 0.467820 127 127 0
-0.065298 0.673896 -0.509634 127 127 0
-0.445152 0.740983 -0.175699 127 127 0
-0.422877 0.152146 0.389012 127 127 0
0.222034 0.449177 0.525563 127 127 0
0.427169 0.163766 0.375757 127 127 0
0.221045 0.534258 -0.521139 127 127 0
-0.181716 -0.083872 0.543366 127 127 0
-0.267736 0.169809 -0.501755 127 127 0
0.423101 -0.412750 0.379891 127 127 0
-0.257349 0.615419 0.498520 127 127 0
-0.370265 -0.698384 0.442789 127 127 0
0.161979 0.786857 -0.427673 0 255 0
-0.069353 -0.734494 -0.227233 127 127 0
-0.350151 0.550220 -0.452379 127 127 0
0.035469 -0.734490 -0.323589 127 127 0
-0.518382 -0.196625 0.249067 127 127 0
-0.479192 -0.245438 0.320983 127 127 0
-0.499614 0.146185 0.284734 127 127 0
0.206581 0.889933 0.330046 0 255 0
-0.164181 -0.549116 0.548990 127 127 0
-0.085933 -0.539364 -0.561647 127 127 0
-0.280108 0.424922 0.501643 127 127 0
0.448823 0.133170 -0.342230 127 127 0
0.203703 -0.746276 -0.363427 127 127 0
0.246702 0.043553 0.512365 127 127 0
-0.511803 -0.312859 0.261574 127 127 0
0.515056 -0.674061 0.236783 127 127 0
0.453119 -0.793158 0.225096 127 127 0
-0.180209 0.133159 -0.539899 127 127 0
0.236790 -0.636949 0.517734 127 127 0
0.562291 0.247942 0.036193 127 127 0
0.449438 0.712489 -0.174648 127 127 0
0.519374 -0.141085 -0.220278 127 127 0
0.068295 -0.734494 -0.205269 127 127 0
0.151224 0.505091 -0.544108 127 127 0
0.561341 -0.661022 0.055647 127 127 0
0.192888 0.356851 -0.531085 127 127 0
-0.545818 0.210307 -0.174679 127 127 0
-0.360745 0.834725 0.294036 0 255 0
0.413872 -0.428813 -0.381533 127 127 0
0.446394 0.406752 -0.345892 127 127 0
0.323706 0.210775 -0.461928 127 127 0
0.489324 -0.384351 -0.278147 127 127 0
0.435997 -0.484482 -0.356866 127 127 0
0.156996 0.889933 -0.056585 0 255 0
-0.485482 0.602780 -0.284526 127 127 0
0.029649 0.222733 0.572033 127 127 0
-0.446466 0.072918 0.363375 127 127 0
0.560917 0.049134 0.067187 127 127 0
-0.498271 0.704811 0.018834 127 127 0
-0.064906 -0.080824 -0.565133 127 127 0
-0.514068 0.025187 -0.254661 127 127 0
-0.574623 0.437355 0.006564 127 127 0
-0.103008 0.889933 0.391749 0 255 0
-0.302027 -0.788817 0.486486 127 127 0
0.563830 -0.538635 -0.033799 127 127 0
-0.395904 -0.765627 -0.243196 127 127 0
0.281654 0.362544 -0.488516 127 127 0
0.345362 0.787853 -0.299021 0 255 0
-0.041309 0.889707 -0.410658 0 255 0
-0.538616 -0.510186 -0.197552 127 127 0
-0.214177 0.693871 0.458982 127 127 0
0.242189 -0.743199 0.334076 127 127 0
0.419730 0.884603 0.114157 0 255 0
0.555927 -0.785373 0.089622 127 127 0
-0.468665 0.776382 -0.026040 0 255 0
0.078571 -0.695694 -0.562179 127 127 0
0.041303 0.889934 -0.056864 0 255 0
-0.380298 -0.726153 -0.425184 127 127 0
0.174558 0.705972 -0.456074 127 127 0
0.550731 -0.117139 -0.115701 127 127 0
-0.570332 -0.312940 -0.080808 127 127 0
-0.037146 -0.813349 0.546025 127 127 0
0.146503 -0.475872 -0.545574 127 127 0
-0.104296 -0.370446 0.565555 127 127 0
0.075484 0.789935 -0.453335 0 255 0
0.516013 -0.818133 -0.192880 127 127 0
0.384459 0.130423 -0.413030 127 127 0
-0.572702 -0.399884 0.067120 127 127 0
0.468567 0.653383 0.241747 127 127 0
-0.302874 -0.741801 -0.259464 127 127 0
-0.352803 -0.095879 -0.450156 127 127 0
-0.452349 0.856750 0.100316 0 255 0
0.563240 -0.353384 0.015776 127 127 0
0.523223 0.317141 0.216347 127 127 0
0.448202 -0.511344 0.348574 127 127 0
-0.059434 -0.330945 -0.565444 127 127 0
0.428400 -0.034068 -0.365574 127 127 0
0.417912 -0.105742 -0.377170 127 127 0
0.125517 -0.771012 0.555870 127 127 0
0.441866 0.474207 0.357863 127 127 0
-0.149499 0.592580 -0.542083 127 127 0
0.533830 -0.121015 0.184055 127 127 0
-0.280678 0.170354 0.501320 127 127 0
0.533772 0.108446 0.183134 127 127 0
-0.570590 0.037169 -0.078114 127 127 0
-0.573216 0.392239 -0.031864 127 127 0
-0.573259 0.191570 0.063895 127 127 0
-0.574171 0.325137 -0.007497 127 127 0
0.237260 0.084434 -0.513603 127 127 0
-0.145090 0.849871 0.439052 0 255 0
-0.560018 0.483565 0.128168 127 127 0
-0.016190 0.829141 -0.456038 0 255 0
-0.324738 0.335116 0.473537 127 127 0
-0.047976 0.889790 -0.024766 0 255 0
-0.408404 0.778255 -0.226479 0 255 0
-0.550560 0.399025 -0.159383 127 127 0
0.046798 0.889933 -0.316800 0 255 0
0.394179 0.882136 0.206340 0 255 0
-0.487581 -0.408410 -0.298721 127 127 0
-0.122552 0.889617 0.229759 0 255 0
0.562842 -0.635098 -0.050896 127 127 0
0.498584 -0.617062 0.268464 127 127 0
0.206481 -0.430472 -0.526531 127 127 0
0.479882 0.371846 0.299380 127 127 0
-0.322219 0.094729 0.475292 127 127 0
-0.424353 -0.376490 -0.384444 127 127 0
-0.561563 0.270734 0.121193 127 127 0
-0.519960 0.515015 -0.243483 127 127 0
-0.230872 0.000634 0.527022 127 127 0
0.376516 -0.433680 -0.420805 127 127 0
-0.327539 0.768050 0.339824 0 255 0
0.558859 -0.118756 0.094258 127 127 0
-0.574601 0.084524 0.039404 127 127 0
0.449244 -0.018296 0.347583 127 127 0
-0.316350 0.889798 0.261493 0 255 0
-0.460045 -0.309256 -0.342395 127 127 0
-0.488802 -0.757405 0.305227 127 127 0
-0.547755 -0.127721 0.178728 127 127 0
0.542013 -0.760023 0.157405 127 127 0
-0.215817 -0.021988 -0.527799 127 127 0
0.490033 -0.636771 -0.276859 127 127 0
-0.012326 0.562203 0.570939 127 127 0
0.280705 -0.308466 -0.489114 127 127 0
0.317596 0.159762 -0.465856 127 127 0
-0.038362 0.036644 -0.566483 127 127 0
0.364523 -0.736731 0.045918 127 127 0
0.117852 -0.779744 -0.466922 127 127 0
0.107347 -0.742476 -0.392709 127 127 0
0.313831 0.174885 0.475948 127 127 0
-0.525131 -0.561980 0.236230 127 127 0
0.068692 0.264212 0.568368 127 127 0
-0.492777 0.705419 -0.073189 127 127 0
0.505300 -0.155373 0.256591 127 127 0
-0.264051 -0.107332 -0.503695 127 127 0
0.292944 -0.734494 -0.012872 127 127 0
0.336707 -0.754055 -0.453498 127 127 0
-0.265347 0.741852 -0.396426 0 255 0
-0.441170 0.717886 0.218529 127 127 0
-0.230055 0.719378 -0.428712 127 127 0
0.562252 -0.225088 -0.059434 127 127 0
0.018691 0.137976 -0.565465 127 127 0
-0.267163 -0.734494 0.210741 127 127 0
-0.252164 0.889933 -0.232026 0 255 0
-0.566122 -0.232242 0.100918 127 127 0
-0.388410 -0.744782 -0.149900 127 127 0
-0.365194 0.454498 -0.439028 127 127 0
0.452385 -0.761520 0.342201 127 127 0
-0.223267 0.889600 0.195394 0 255 0
-0.561978 0.574465 0.109036 127 127 0
0.180207 0.707047 0.458959 127 127 0
0.560069 0.564774 0.075448 127 127 0
0.291115 -0.804818 -0.479755 127 127 0
0.368910 -0.030565 0.431064 127 127 0
0.293429 0.748913 -0.362638 0 255 0
-0.347282 0.885460 -0.263047 0 255 0
0.536822 -0.426123 0.174281 127 127 0
0.035538 -0.734494 -0.127121 127 127 0
-0.400714 0.204698 0.412981 127 127 0
0.234634 0.673369 0.458663 127 127 0
0.129350 0.722616 -0.458935 127 127 0
0.501365 -0.234860 0.263548 127 127 0
-0.406475 -0.038896 -0.400982 127 127 0
0.347219 -0.109293 -0.446297 127 127 0
-0.519165 -0.088738 0.247576 127 127 0
-0.123355 -0.810929 -0.538237 127 127 0
-0.037931 0.707611 0.492148 127 127 0
0.106592 -0.555399 0.560364 127 127 0
-0.309766 0.403264 -0.479565 127 127 0
0.470436 0.220356 0.313739 127 127 0
-0.177189 -0.748320 0.394449 127 127 0
-0.230041 -0.734494 0.169424 127 127 0
-0.124620 0.300085 0.560909 127 127 0
0.447392 0.835588 0.080090 0 255 0
0.538755 -0.608032 -0.166320 127 127 0
0.390462 -0.727735 -0.406705 127 127 0
0.299230 0.889933 -0.144030 0 255 0
0.044655 -0.624802 0.571138 127 127 0
-0.478883 -0.142504 0.321485 127 127 0
-0.566486 -0.753019 0.099288 127 127 0
0.279413 0.238755 -0.489927 127 127 0
-0.317668 0.690200 -0.393203 127 127 0
0.026115 0.297069 -0.565175 127 127 0
0.346807 0.373860 0.451214 127 127 0
-0.430215 0.631229 -0.341939 127 127 0
0.553135 -0.404470 0.120166 127 127 0
-0.434331 0.431231 -0.374345 127 127 0
0.256740 0.516519 0.507243 127 127 0
0.214831 0.889933 0.127650 0 255 0
0.217192 -0.345272 0.527784 127 127 0
0.054408 0.889934 0.274645 0 255 0
0.464485 0.753431 -0.008242 127 127 0
-0.482423 -0.776392 -0.051783 127 127 0
0.377022 -0.742200 0.128022 127 127 0
0.015880 -0.798800 0.521294 127 127 0
-0.535935 -0.156068 -0.205803 127 127 0
0.538692 -0.225378 0.168417 127 127 0
0.322779 -0.268739 -0.462585 127 127 0
0.537239 -0.638702 0.172314 127 127 0
-0.260347 0.331560 -0.505644 127 127 0
-0.419107 -0.286236 0.393089 127 127 0
0.091084 0.889933 0.211133 0 255 0
-0.289473 -0.388477 0.495790 127 127 0
-0.295898 0.889601 0.182828 0 255 0
0.504567 0.679400 -0.042276 127 127 0
-0.380237 -0.152972 0.433734 127 127 0
0.490554 0.612359 -0.248975 127 127 0
-0.173374 -0.445408 0.546140 127 127 0
-0.447187 0.694606 -0.234189 127 127 0
0.065888 -0.521624 0.568860 127 127 0
-0.086587 -0.773572 -0.561458 127 127 0
-0.572570 0.300462 -0.047237 127 127 0
-0.570027 0.387105 -0.084109 127 127 0
-0.569498 -0.736742 -0.089662 127 127 0
-0.099446 0.453700 -0.558839 127 127 0
-0.550230 0.328463 0.169131 127 127 0
-0.574631 0.162926 0.016349 127 127 0
0.026449 0.862997 -0.453964 0 255 0
0.540495 -0.746772 -0.159576 127 127 0
0.502964 -0.336699 0.260724 127 127 0
0.363163 0.755996 0.292926 0 255 0
0.540968 0.274930 0.160226 127 127 0
0.293402 0.769752 0.360045 0 255 0
-0.229031 0.889933 -0.123208 0 255 0
0.528569 0.491709 0.200688 127 127 0
0.092445 -0.548866 -0.560297 127 127 0
0.026026 0.332699 0.572010 127 127 0
-0.111447 -0.737442 0.375372 127 127 0
-0.080941 0.327694 0.568228 127 127 0
-0.355019 0.503486 -0.448166 127 127 0
0.300707 0.666537 -0.418963 127 127 0
0.563857 0.548473 -0.027402 127 127 0
-0.480664 0.237860 -0.309685 127 127 0
-0.239282 0.853938 0.396714 0 255 0
-0.511515 0.284579 0.262121 127 127 0
-0.515588 0.548603 0.254371 127 127 0
-0.332513 -0.651356 -0.465212 127 127 0
-0.261269 0.084388 0.512313 127 127 0
0.065981 0.889917 0.110979 0 255 0
-0.277579 -0.734494 -0.046430 127 127 0
0.256313 0.832191 0.381271 0 255 0
0.104929 0.113844 0.560605 127 127 0
-0.140502 -0.741350 -0.368390 127 127 0
-0.112956 0.881477 -0.423561 0 255 0
-0.040126 -0.395843 0.570432 127 127 0
-0.282820 -0.755291 -0.493793 127 127 0
-0.235336 -0.753234 -0.366937 127 127 0
0.172269 -0.780554 0.457746 127 127 0
-0.482300 0.367253 -0.307094 127 127 0
-0.554679 0.624252 -0.031589 127 127 0
-0.200424 -0.368304 -0.533519 127 127 0
-0.064579 0.883091 0.450238 0 255 0
-0.501522 0.452602 0.281112 127 127 0
-0.190154 0.824587 -0.417532 0 255 0
0.369254 -0.792795 -0.340028 127 127 0
-0.097071 -0.754279 0.566035 127 127 0
-0.373982 -0.540691 0.439782 127 127 0
-0.574636 0.532504 0.034727 127 127 0
0.466310 -0.799376 -0.213587 127 127 0
0.393613 -0.813363 0.376167 127 127 0
-0.317088 -0.734491 0.131851 127 127 0
-0.404944 -0.763031 -0.402373 127 127 0
0.419953 0.819448 0.176544 0 255 0
0.528393 0.063115 -0.199744 127 127 0
-0.026701 0.889747 0.244340 0 255 0
0.463163 -0.723591 -0.323283 127 127 0
0.102197 -0.034756 0.561071 127 127 0
-0.209299 -0.735827 -0.297937 127 127 0
-0.383541 0.889696 0.179036 0 255 0
0.047640 0.429772 -0.564288 127 127 0
0.175208 0.247325 -0.536659 127 127 0
-0.197740 -0.797640 0.481483 127 127 0
-0.089209 -0.233065 -0.561069 127 127 0
-0.360670 -0.737257 -0.113918 127 127 0
0.355772 0.303299 -0.439387 127 127 0
0.054907 -0.250176 -0.563985 127 127 0
-0.148473 0.467500 0.553407 127 127 0
0.190768 -0.735375 0.299566 127 127 0
0.551897 -0.783396 -0.108597 127 127 0
0.093303 -0.761085 -0.559790 127 127 0
0.081329 0.888331 0.416082 0 255 0
-0.195228 0.646783 0.502659 127 127 0
0.563566 0.306277 0.001120 127 127 0
0.329944 -0.267465 0.464456 127 127 0
-0.454331 0.883027 0.010708 0 255 0
-0.151848 -0.064119 -0.547204 127 127 0
-0.378336 0.889934 -0.056482 0 255 0
0.258190 0.257075 0.506668 127 127 0
0.120833 0.889933 0.129925 0 255 0
0.359317 0.889815 -0.224495 0 255 0
-0.484798 -0.356620 -0.303132 127 127 0
0.364124 0.711951 -0.317440 127 127 0
-0.395926 -0.799587 0.344776 127 127 0
0.303613 -0.456970 -0.474678 127 127 0
-0.137703 0.308329 -0.550313 127 127 0
-0.018573 0.477461 -0.566467 127 127 0
-0.490726 -0.448767 0.301609 127 127 0
-0.179169 0.869599 -0.418508 0 255 0
-0.236712 -0.139342 0.524681 127 127 0
0.532524 0.494719 -0.187350 127 127 0
-0.125597 0.889933 -0.036151 0 255 0
-0.416339 -0.152302 0.396084 127 127 0
0.103367 -0.734494 0.083501 127 127 0
-0.117705 0.614354 0.547216 127 127 0
0.307597 -0.348751 0.479706 127 127 0
-0.307982 0.889934 -0.171880 0 255 0
0.356626 -0.063840 -0.439084 127 127 0
-0.482563 -0.702082 0.315518 127 127 0
0.511772 0.526883 -0.235533 127 127 0
0.526971 -0.700817 -0.203725 127 127 0
-0.526480 0.242055 -0.230625 127 127 0
-0.573610 -0.454244 0.057482 127 127 0
0.204992 0.790049 -0.409988 0 255 0
-0.411598 0.889931 -0.007061 0 255 0
-0.365837 -0.445781 -0.438450 127 127 0
-0.304180 -0.735103 0.486451 127 127 0
-0.447425 0.008548 -0.359489 127 127 0
-0.520534 0.375568 -0.242348 127 127 0
-0.562904 -0.432422 -0.118567 127 127 0
0.142148 0.435045 -0.546926 127 127 0
0.109210 -0.663769 0.559785 127 127 0
-0.472633 -0.038194 0.330891 127 127 0
0.108420 -0.734494 0.133821 127 127 0
0.519715 -0.504675 0.224978 127 127 0
0.066735 0.503039 -0.563269 127 127 0
0.205435 -0.585934 0.533136 127 127 0
-0.543605 0.195055 0.192018 127 127 0
0.050215 -0.384633 0.570934 127 127 0
0.152332 0.746861 0.446534 127 127 0
-0.164954 -0.734494 -0.111980 127 127 0
-0.024120 -0.396502 -0.566472 127 127 0
0.337936 0.873413 -0.299633 0 255 0
-0.382792 0.790314 -0.261399 0 255 0
-0.004317 -0.734494 0.295615 127 127 0
-0.187393 -0.734488 0.307440 127 127 0
0.115998 -0.369317 0.558061 127 127 0
-0.561294 -0.483703 -0.123980 127 127 0
-0.221416 0.889932 -0.313747 0 255 0
0.517576 -0.535479 -0.224195 127 127 0
0.390491 -0.213845 0.410911 127 127 0
0.421835 -0.351983 0.381277 127 127 0
0.326119 -0.709276 0.466916 127 127 0
0.496392 0.307457 0.271639 127 127 0
0.536441 0.008578 0.175024 127 127 0
0.415994 -0.804073 0.321603 127 127 0
-0.019763 -0.740193 0.397314 127 127 0
0.518830 0.205850 0.227720 127 127 0
-0.349249 -0.743960 -0.212963 127 127 0
-0.314767 0.889933 -0.016490 0 255 0
0.388796 -0.742108 -0.102428 127 127 0
-0.426831 -0.772415 0.216918 127 127 0
0.396812 -0.605829 -0.399976 127 127 0
0.014427 -0.568195 0.572023 127 127 0
-0.574640 -0.540570 0.026696 127 127 0
-0.021005 0.482167 0.570940 127 127 0
0.059782 0.063428 -0.563780 127 127 0
-0.574643 0.250684 0.030066 127 127 0
0.436722 0.786590 0.131775 0 255 0
0.371904 0.586579 0.425328 127 127 0
0.460847 -0.613391 -0.326164 127 127 0
0.451745 -0.423327 0.343960 127 127 0
0.212066 0.889933 -0.162553 0 255 0
0.559878 0.152869 0.079512 127 127 0
0.316491 -0.776037 0.357842 127 127 0
-0.476541 0.652157 0.246081 127 127 0
-0.201778 0.889824 0.015149 0 255 0
0.360907 -0.360897 0.438151 127 127 0
-0.034984 -0.805516 -0.526813 127 127 0
0.503841 0.098198 0.259169 127 127 0
-0.568647 0.462650 0.089766 127 127 0
-0.501073 -0.048239 0.281964 127 127 0
-0.324245 -0.735555 0.208928 127 127 0
-0.551563 0.582467 -0.144772 127 127 0
-0.202384 0.581873 -0.530653 127 127 0
-0.165525 0.618984 0.532144 127 127 0
-0.565968 -0.040333 0.101600 127 127 0
0.355939 0.889933 -0.068297 0 255 0
-0.296426 0.644775 -0.449152 127 127 0
0.452455 -0.125561 -0.338272 127 127 0
-0.531349 -0.807715 -0.096268 127 127 0
0.232952 -0.739728 -0.316252 127 127 0
0.150172 0.889933 0.286132 0 255 0
0.127075 -0.735282 0.322693 127 127 0
-0.563072 -0.816898 -0.047450 127 127 0
-0.573473 0.181765 -0.025296 127 127 0
-0.171263 0.889933 -0.249391 0 255 0
0.537239 0.587335 0.164094 127 127 0
-0.095499 0.133822 -0.559731 127 127 0
0.135563 -0.734494 0.052511 127 127 0
-0.248634 -0.271596 -0.511804 127 127 0
-0.346464 0.163562 -0.455075 127 127 0
-0.572467 -0.216109 -0.049686 127 127 0
0.240469 -0.605783 -0.511976 127 127 0
-0.534489 0.594075 -0.197156 127 127 0
-0.323235 0.258578 -0.471254 127 127 0
0.508122 0.393478 0.251042 127 127 0
0.019439 -0.622751 -0.565436 127 127 0
-0.554949 0.416484 0.150836 127 127 0
0.216139 0.889933 -0.212899 0 255 0
-0.320474 -0.261415 -0.472957 127 127 0
-0.556027 0.623988 0.028536 127 127 0
0.538051 0.616231 -0.106279 127 127 0
0.506889 -0.232518 -0.244817 127 127 0
-0.538019 -0.033250 0.208751 127 127 0
0.045796 -0.437843 0.571179 127 127 0
0.493367 -0.104944 -0.270522 127 127 0
0.497252 -0.551153 -0.262983 127 127 0
0.190488 -0.812310 0.524378 127 127 0
0.413610 -0.785531 -0.262617 127 127 0
-0.434067 -0.257240 -0.374625 127 127 0
0.415180 0.846230 -0.180852 0 255 0
0.128746 -0.734494 0.236719 127 127 0
0.445037 0.254101 -0.346559 127 127 0
-0.166684 -0.677313 -0.543392 127 127 0
-0.524015 0.428959 -0.235493 127 127 0
0.555230 -0.293408 -0.095631 127 127 0
-0.384988 -0.596085 -0.420848 127 127 0
0.030916 -0.760480 -0.448116 127 127 0
0.272863 -0.742618 0.296880 127 127 0
0.561637 -0.027022 0.054758 127 127 0
-0.371175 -0.815329 -0.406429 127 127 0
-0.040635 0.108269 -0.566484 127 127 0
0.206266 -0.287681 0.532794 127 127 0
0.243274 -0.139978 0.514270 127 127 0
0.422855 -0.771547 -0.371496 127 127 0
0.409612 0.375953 -0.386021 127 127 0
-0.469010 -0.366615 0.335872 127 127 0
-0.091422 0.647094 0.531552 127 127 0
-0.081823 -0.734494 -0.060381 127 127 0
-0.125875 0.144593 0.560537 127 127 0
-0.485151 -0.615445 -0.302572 127 127 0
-0.521181 -0.427356 -0.241072 127 127 0
-0.121879 0.757822 0.453968 0 255 0
0.552848 -0.381801 -0.106159 127 127 0
0.173366 0.889933 0.056732 0 255 0
0.532444 0.288807 -0.186985 127 127 0
0.514116 -0.578029 0.238647 127 127 0
0.535764 0.368189 -0.177624 127 127 0
-0.387663 -0.802169 -0.356783 127 127 0
0.563852 -0.148967 -0.006401 127 127 0
-0.512967 -0.509268 -0.256606 127 127 0
-0.572757 -0.594097 -0.042814 127 127 0
-0.101062 0.842275 0.452759 0 255 0
-0.572469 -0.493226 -0.049638 127 127 0
0.473203 0.394892 -0.307336 127 127 0
0.458650 0.772627 0.033698 127 127 0
0.179239 -0.700721 -0.535388 127 127 0
0.183090 -0.368934 0.541236 127 127 0
-0.236620 -0.433508 -0.518122 127 127 0
-0.537007 0.109641 0.210959 127 127 0
0.205841 -0.811049 -0.493261 127 127 0
-0.546765 0.440706 -0.171625 127 127 0
-0.024854 -0.019124 0.571198 127 127 0
0.113054 0.889933 -0.011214 0 255 0
0.461028 -0.302414 0.329270 127 127 0
0.330675 0.024890 0.464039 127 127 0
0.095043 0.687760 0.497742 127 127 0
-0.429475 0.240274 0.381875 127 127 0
-0.262598 -0.668445 -0.504459 127 127 0
-0.318163 0.313644 -0.474384 127 127 0
0.376450 0.613538 -0.404065 127 127 0
0.538817 -0.356700 -0.165417 127 127 0
0.451981 -0.665199 -0.338362 127 127 0
0.293168 -0.116090 -0.481264 127 127 0
0.067207 0.889933 -0.257871 0 255 0
-0.356153 0.889933 -0.097583 0 255 0
0.276713 0.889933 0.026279 0 255 0
0.038944 0.840208 0.460222 0 255 0
0.379962 0.245439 0.421080 127 127 0
-0.467215 0.330630 -0.331016 127 127 0
-0.510692 0.130171 -0.260615 127 127 0
-0.145241 -0.165524 -0.548656 127 127 0
0.460119 0.533549 0.330699 127 127 0
-0.015797 -0.755624 -0.442359 127 127 0
0.284739 -0.393432 -0.486573 127 127 0
-0.460383 0.826681 0.068144 0 255 0
0.506043 -0.809794 0.207082 127 127 0
0.122811 -0.125793 0.556391 127 127 0
0.326012 0.071114 -0.460433 127 127 0
0.187973 0.885689 -0.401309 0 255 0
0.554772 -0.038673 0.113658 127 127 0
0.315924 0.889933 0.089891 0 255 0
0.164384 -0.762581 -0.421082 127 127 0
0.315964 0.450685 0.474632 127 127 0
-0.393329 0.223524 -0.413135 127 127 0
-0.556973 -0.776646 -0.137791 127 127 0
-0.164302 0.319257 0.548777 127 127 0
-0.426560 0.548993 -0.382402 127 127 0
-0.573902 -0.247906 0.052150 127 127 0
-0.547415 -0.642514 0.180046 127 127 0
0.267146 -0.402902 0.501786 127 127 0
-0.143158 0.233700 0.555399 127 127 0
0.151564 -0.667835 0.550040 127 127 0
0.504651 -0.355623 -0.249072 127 127 0
0.550679 0.610431 -0.065416 127 127 0
-0.062109 0.821736 -0.454007 0 255 0
0.485072 -0.439359 0.290369 127 127 0
-0.342675 -0.625590 0.462186 127 127 0
0.552275 0.166931 0.123583 127 127 0
0.247542 0.170615 0.512271 127 127 0
-0.563184 0.087292 -0.117628 127 127 0
-0.341978 -0.804820 0.409753 127 127 0
-0.551506 -0.203214 -0.156334 127 127 0
-0.404160 -0.438118 0.409255 127 127 0
-0.571777 0.281967 0.072394 127 127 0
0.338397 -0.072475 0.458582 127 127 0
0.458370 0.126924 0.332540 127 127 0
-0.121235 0.682994 0.498103 127 127 0
-0.151860 0.064395 0.552809 127 127 0
0.087403 0.284320 -0.561360 127 127 0
0.184088 -0.008305 -0.533859 127 127 0
0.361727 -0.616480 0.437330 127 127 0
-0.150959 0.534627 0.552726 127 127 0
-0.431733 -0.751250 -0.071323 127 127 0
-0.065462 -0.734484 -0.323498 127 127 0
-0.023831 -0.734494 0.196965 127 127 0
-0.388454 0.381469 -0.417642 127 127 0
-0.101657 0.097553 0.566144 127 127 0
-0.463810 0.212873 0.343019 127 127 0
0.269209 -0.476509 -0.496161 127 127 0
-0.324607 0.844720 -0.326580 0 255 0
0.394861 -0.581272 0.406830 127 127 0
0.421694 0.039764 0.381291 127 127 0
0.290084 0.330597 0.489878 127 127 0
-0.135094 0.392207 0.557632 127 127 0
0.030483 0.889933 0.317907 0 255 0
-0.368602 -0.209765 0.443706 127 127 0
0.488895 0.702908 0.002073 127 127 0
-0.544484 0.621743 0.118771 127 127 0
0.061229 -0.741852 -0.395991 127 127 0
-0.121354 0.889933 -0.108405 0 255 0
0.091075 -0.734494 0.191854 127 127 0
0.238743 -0.734494 -0.093063 127 127 0
-0.504731 0.655532 -0.169443 127 127 0
-0.187531 -0.773793 -0.537749 127 127 0
0.299184 -0.019523 0.484226 127 127 0
-0.188210 0.311174 -0.537584 127 127 0
-0.426365 0.318961 -0.382584 127 127 0
-0.573678 -0.315784 -0.020086 127 127 0
0.261318 -0.468656 0.504838 127 127 0
-0.560136 0.051321 0.127635 127 127 0
0.149556 0.847888 -0.428781 0 255 0
0.104874 0.574223 -0.555318 127 127 0
0.339195 -0.771268 -0.318375 127 127 0
0.492106 -0.782794 0.279220 127 127 0
0.459189 -0.317009 -0.328643 127 127 0
0.382403 -0.268469 0.418369 127 127 0
-0.054498 0.889933 0.354240 0 255 0
0.014854 0.672272 -0.512921 127 127 0
-0.475791 0.299934 0.326496 127 127 0
0.477948 -0.542355 -0.299805 127 127 0
-0.245879 -0.340909 -0.513251 127 127 0
0.563299 0.175618 0.007061 127 127 0
-0.147679 -0.734494 -0.155433 127 127 0
0.546044 -0.522098 -0.135683 127 127 0
-0.396238 0.404733 0.417821 127 127 0
0.028314 0.115073 0.572032 127 127 0
-0.452985 0.766036 0.125305 0 255 0
-0.073359 0.287561 -0.563865 127 127 0
-0.574228 0.340768 0.046203 127 127 0
-0.012984 -0.783674 0.571274 127 127 0
0.487211 -0.700043 0.287743 127 127 0
-0.013409 -0.734494 -0.115016 127 127 0
0.513319 -0.456568 -0.232253 127 127 0
-0.038088 0.889605 0.116499 0 255 0
-0.133505 0.687084 -0.486447 127 127 0
0.528748 -0.392025 0.200119 127 127 0
-0.254871 0.889600 0.042743 0 255 0
0.035578 -0.734494 0.027105 127 127 0
0.560812 0.485654 -0.067606 127 127 0
0.009059 -0.507397 0.572018 127 127 0
0.368570 -0.745864 -0.194245 127 127 0
-0.444195 -0.554553 0.365912 127 127 0
0.267848 -0.771447 0.500847 127 127 0
-0.561099 -0.091764 0.123291 127 127 0
-0.517459 0.668501 -0.086407 127 127 0
0.238199 0.889933 -0.103444 0 255 0
-0.211143 0.557690 0.533321 127 127 0
-0.472921 0.706638 -0.148812 127 127 0
0.291635 -0.811211 0.456047 127 127 0
-0.075565 0.889600 0.054434 0 255 0
0.282214 0.889933 -0.269438 0 255 0
-0.434571 -0.654926 -0.374092 127 127 0
0.069510 -0.734494 -0.049920 127 127 0
0.485072 -0.277061 0.291140 127 127 0
0.420767 -0.605023 0.382474 127 127 0
0.130635 0.057575 -0.550378 127 127 0
0.482385 -0.495968 -0.291253 127 127 0
-0.574324 -0.619641 0.044456 127 127 0
-0.358106 0.567269 0.450783 127 127 0
0.541473 0.362790 0.159456 127 127 0
-0.011994 -0.493323 -0.566462 127 127 0
-0.573899 -0.781154 -0.012745 127 127 0
-0.515010 -0.684081 -0.253001 127 127 0
-0.446415 -0.756389 0.070164 127 127 0
0.490498 0.097427 -0.275975 127 127 0
-0.282334 -0.078567 0.499992 127 127 0
0.054661 0.116364 -0.563994 127 127 0
-0.474881 0.663478 -0.229083 127 127 0
0.399157 0.786680 0.225633 0 255 0
-0.398533 0.121174 0.415340 127 127 0
-0.216531 -0.553739 0.532335 127 127 0
-0.155674 -0.153874 0.551263 127 127 0
-0.382079 -0.779428 -0.304132 127 127 0
0.511878 -0.803255 0.103553 127 127 0
0.125507 -0.145600 -0.551905 127 127 0
0.463640 -0.209892 0.325132 127 127 0
-0.533516 0.031979 0.218570 127 127 0
-0.570110 0.196586 -0.083165 127 127 0
-0.499974 -0.569373 -0.279060 127 127 0
-0.543533 0.553131 0.192201 127 127 0
0.360347 -0.736113 -0.023392 127 127 0
-0.563625 -0.378684 0.111945 127 127 0
0.280861 -0.734494 0.091580 127 127 0
-0.271913 0.275954 0.506285 127 127 0
0.268790 0.882339 -0.353896 0 255 0
-0.215318 0.514933 -0.528030 127 127 0
0.299048 -0.761340 -0.333912 127 127 0
0.221156 0.297310 0.525966 127 127 0
0.371503 -0.800638 0.426342 127 127 0
-0.398823 0.636409 -0.370583 127 127 0
-0.211294 -0.734494 -0.103254 127 127 0
-0.393101 -0.613630 0.421213 127 127 0
-0.557714 -0.678099 -0.136011 127 127 0
-0.309372 -0.227674 0.482993 127 127 0
-0.431590 -0.739684 0.379587 127 127 0
-0.574322 -0.143010 -0.003659 127 127 0
-0.312298 0.555819 -0.477277 127 127 0
-0.185496 0.094038 0.542383 127 127 0
0.515889 0.610334 -0.205041 127 127 0
-0.323222 -0.775428 -0.471130 127 127 0
0.553705 -0.060951 -0.102370 127 127 0
-0.170812 -0.299231 0.546587 127 127 0
-0.462995 -0.489174 -0.337713 127 127 0
0.448748 0.615141 0.325134 127 127 0
0.250838 0.889933 -0.053918 0 255 0
-0.253213 0.142250 0.516523 127 127 0
0.135496 -0.625140 -0.548929 127 127 0
-0.550732 -0.359628 -0.158830 127 127 0
0.561301 -0.570106 0.054713 127 127 0
-0.503494 0.693745 0.059970 127 127 0
-0.313277 0.861855 0.344154 0 255 0
0.360699 0.010945 0.438851 127 127 0
-0.088089 -0.734494 0.057316 127 127 0
-0.047792 -0.734492 0.325710 127 127 0
-0.333033 -0.137219 -0.464834 127 127 0
0.102346 0.882825 -0.427551 0 255 0
0.048292 0.633291 0.545791 127 127 0
-0.082133 0.746471 -0.465443 0 255 0
0.548769 -0.711841 0.135424 127 127 0
-0.405595 0.872123 0.220682 0 255 0
0.024626 -0.736663 -0.371049 127 127 0
-0.496729 -0.489847 0.290212 127 127 0
0.210517 0.889933 0.226876 0 255 0
0.155901 -0.230490 0.548729 127 127 0
0.480276 -0.295680 -0.294855 127 127 0
0.541755 0.628703 0.014527 127 127 0
0.542540 0.204045 -0.151017 127 127 0
0.451810 0.861292 0.023371 0 255 0
-0.079368 -0.743154 -0.399452 127 127 0
-0.325739 0.626447 0.448920 127 127 0
-0.065758 -0.697639 -0.565084 127 127 0
-0.526898 0.081812 -0.229803 127 127 0
0.501576 0.526274 0.263173 127 127 0
-0.169652 0.085763 -0.542626 127 127 0
-0.478602 0.056327 -0.312956 127 127 0
0.258348 0.889898 0.308157 0 255 0
0.220349 0.087811 0.526336 127 127 0
0.211629 -0.336673 -0.524625 127 127 0
0.395092 -0.721767 0.406609 127 127 0
-0.461530 -0.813123 -0.295813 127 127 0
-0.128487 -0.203568 0.558311 127 127 0
-0.515056 -0.793893 -0.005321 127 127 0
-0.238380 -0.493915 0.524055 127 127 0
-0.323527 -0.692455 -0.471074 127 127 0
0.505392 0.010898 0.256419 127 127 0
0.488305 -0.786653 0.068068 127 127 0
0.180136 0.889933 0.188117 0 255 0
0.468091 0.311453 0.317950 127 127 0
0.560400 -0.156513 0.077658 127 127 0
-0.176344 -0.764196 -0.423412 127 127 0
0.444469 0.716726 0.186355 127 127 0
0.055336 -0.811161 0.556728 127 127 0
0.115180 -0.735653 -0.348311 127 127 0
-0.389525 0.467181 0.425066 127 127 0
0.020725 -0.734494 0.140987 127 127 0
0.471356 0.146404 -0.310355 127 127 0
-0.215790 0.880941 -0.384887 0 255 0
0.021709 -0.702695 -0.565347 127 127 0
-0.140718 0.758319 -0.443993 0 255 0
-0.061766 -0.806253 -0.564400 127 127 0
0.110581 0.409365 0.559481 127 127 0
-0.516103 0.332890 0.253401 127 127 0
-0.546348 0.443704 0.183721 127 127 0
0.249500 -0.508944 0.511061 127 127 0
0.052559 -0.737099 0.371016 127 127 0
0.320645 0.628229 -0.438223 127 127 0
-0.387427 0.869617 0.257805 0 255 0
0.285915 -0.775376 -0.375909 127 127 0
-0.545232 -0.621792 -0.176570 127 127 0
0.555946 -0.285037 0.108387 127 127 0
0.023477 0.516061 -0.565278 127 127 0
0.358198 0.889934 0.033476 0 255 0
-0.259423 0.379282 -0.506129 127 127 0
0.558889 -0.700258 0.092127 127 127 0
0.076202 -0.071309 -0.562399 127 127 0
-0.144303 -0.734494 0.113503 127 127 0
-0.387632 -0.742014 0.426859 127 127 0
-0.198197 0.889600 0.107862 0 255 0
-0.547180 0.288175 0.180957 127 127 0
0.518867 -0.027301 -0.221383 127 127 0
0.504176 0.606515 0.239448 127 127 0
-0.481322 -0.299306 0.317530 127 127 0
0.527837 -0.593952 0.201896 127 127 0
-0.104766 -0.628175 -0.557633 127 127 0
0.383808 0.220361 -0.413544 127 127 0
0.551400 0.295787 -0.112514 127 127 0
0.377602 -0.132486 0.423252 127 127 0
0.165609 0.145819 0.546247 127 127 0
-0.057864 -0.669269 0.569349 127 127 0
-0.471844 0.058560 0.331975 127 127 0
-0.393143 -0.814489 0.385997 127 127 0
-0.129766 -0.023287 -0.552056 127 127 0
0.304027 -0.796687 -0.408959 127 127 0
-0.364443 0.191517 0.447220 127 127 0
0.006638 0.889820 -0.099924 0 255 0
-0.203679 0.302852 0.536445 127 127 0
0.527051 0.576752 0.202936 127 127 0
0.347216 0.437289 0.450838 127 127 0
0.441307 0.743578 -0.149620 127 127 0
-0.385608 0.624573 0.401226 127 127 0
-0.308335 -0.323186 -0.480387 127 127 0
-0.187666 0.184369 -0.537766 127 127 0
-0.403456 0.512119 0.410018 127 127 0
-0.053436 0.540637 -0.565785 127 127 0
0.021371 -0.734494 -0.198564 127 127 0
-0.110596 0.353098 -0.556316 127 127 0
0.145584 -0.734494 0.004576 127 127 0
-0.573812 0.470752 -0.016653 127 127 0
-0.075550 0.719999 0.482890 127 127 0
0.458012 -0.342689 0.334043 127 127 0
0.529384 0.263345 0.197448 127 127 0
-0.318183 -0.141335 0.477276 127 127 0
0.273305 -0.734493 -0.186946 127 127 0
0.228620 -0.734494 0.039082 127 127 0
-0.241503 -0.490155 -0.515553 127 127 0
-0.274016 -0.414869 -0.498451 127 127 0
0.142362 0.337580 0.552414 127 127 0
0.070518 0.889934 0.367652 0 255 0
0.532883 -0.121287 -0.186271 127 127 0
0.510450 -0.394447 -0.238044 127 127 0
-0.146579 -0.299167 -0.548362 127 127 0
-0.460749 0.845568 -0.054824 0 255 0
-0.009206 0.889933 0.387193 0 255 0
0.556371 -0.635845 0.105534 127 127 0
-0.391985 0.710386 -0.302731 127 127 0
0.249884 -0.734482 0.221799 127 127 0
-0.025792 -0.280769 -0.566473 127 127 0
-0.539158 -0.435971 -0.195844 127 127 0
-0.373085 -0.522203 -0.431854 127 127 0
0.098990 0.415855 -0.558839 127 127 0
0.298440 0.889933 -0.184817 0 255 0
0.539975 0.070520 -0.161601 127 127 0
0.231793 0.605823 0.510896 127 127 0
0.124182 -0.442786 -0.552301 127 127 0
-0.238946 -0.789891 0.449236 127 127 0
-0.209767 -0.734494 0.020525 127 127 0
-0.488138 -0.262866 -0.297838 127 127 0
0.192062 -0.440345 0.538268 127 127 0
-0.392329 -0.312834 -0.414059 127 127 0
0.559932 0.236123 0.078375 127 127 0
-0.088764 0.033814 0.567723 127 127 0
-0.440431 -0.700687 -0.367899 127 127 0
0.164249 0.480890 0.546766 127 127 0
0.176211 0.186906 -0.536343 127 127 0
0.333949 0.888753 0.259081 0 255 0
-0.137051 0.384265 -0.550456 127 127 0
0.040938 -0.734494 -0.238532 127 127 0
0.200594 0.664129 -0.477849 127 127 0
-0.533573 -0.649654 0.218446 127 127 0
0.460780 0.682846 0.208577 127 127 0
0.111015 0.889933 0.337673 0 255 0
0.105495 0.301363 0.560611 127 127 0
-0.035437 0.796830 0.463370 0 255 0
0.424180 -0.665716 0.378880 127 127 0
-0.335583 -0.734961 0.170266 127 127 0
0.097141 0.889933 -0.133006 0 255 0
-0.315555 -0.524636 -0.475995 127 127 0
0.487765 0.583533 -0.276964 127 127 0
-0.417004 -0.001121 -0.391243 127 127 0
0.378939 0.339977 0.421798 127 127 0
0.402670 0.889931 -0.029176 0 255 0
-0.031228 0.158770 0.570948 127 127 0
0.408514 -0.521514 -0.387056 127 127 0
0.290045 -0.738289 -0.262162 127 127 0
0.456727 -0.115757 0.335940 127 127 0
-0.011784 -0.731388 -0.566462 127 127 0
-0.462602 -0.455648 0.344680 127 127 0
0.238869 -0.304901 0.516832 127 127 0
0.140135 -0.243333 -0.547547 127 127 0
0.111173 0.763034 0.452164 0 255 0
0.034624 0.889933 -0.230192 0 255 0
-0.198561 0.410123 0.537892 127 127 0
0.462823 0.754342 -0.048341 127 127 0
-0.562528 0.515910 -0.119721 127 127 0
-0.548151 -0.340227 0.177190 127 127 0
-0.480813 -0.032173 -0.309449 127 127 0
-0.544806 0.355792 -0.177937 127 127 0
-0.545829 -0.123084 -0.174643 127 127 0
-0.357869 -0.048750 0.452186 127 127 0
0.168946 -0.817024 -0.526582 127 127 0
0.055396 0.889933 -0.144219 0 255 0
0.520316 0.530542 0.224313 127 127 0
0.477130 0.474175 -0.301293 127 127 0
0.034260 0.415985 0.571816 127 127 0
0.550232 -0.198229 0.130511 127 127 0
-0.532329 0.402519 0.221158 127 127 0
0.086362 -0.452595 0.564945 127 127 0
-0.574634 -0.011414 0.019280 127 127 0
0.463260 0.626812 -0.282984 127 127 0
0.272563 0.603428 -0.484009 127 127 0
-0.140838 -0.707241 -0.549624 127 127 0
-0.235954 0.889617 0.336841 0 255 0
-0.299047 -0.734924 -0.174063 127 127 0
-0.448966 0.162759 0.360582 127 127 0
-0.472879 0.766020 0.012373 0 255 0
0.042406 0.625836 -0.544622 127 127 0
-0.566036 0.144958 0.101298 127 127 0
0.544632 -0.641896 -0.143478 127 127 0
0.561179 0.347272 0.067474 127 127 0
-0.160051 0.889600 0.160057 0 255 0
0.537110 -0.480978 0.172949 127 127 0
-0.151363 -0.734490 -0.272235 127 127 0
0.330448 -0.226845 0.464093 127 127 0
-0.258578 -0.288177 0.513793 127 127 0
-0.472061 -0.786800 0.330939 127 127 0
-0.211216 -0.269030 -0.529914 127 127 0
0.029565 -0.807882 -0.530218 127 127 0
-0.105105 0.667848 -0.506895 127 127 0
-0.422250 -0.408388 0.389690 127 127 0
-0.327240 0.352115 -0.468783 127 127 0
0.093313 -0.812961 -0.545724 127 127 0
-0.388276 0.889637 -0.157828 0 255 0
0.241222 0.172052 -0.511594 127 127 0
-0.403513 -0.227163 -0.403720 127 127 0
-0.185910 0.889933 -0.173825 0 255 0
-0.122556 0.889933 -0.224116 0 255 0
-0.033188 0.889807 -0.193705 0 255 0
-0.020708 -0.448139 -0.566469 127 127 0
-0.561307 -0.786544 0.120208 127 127 0
-0.212999 0.017743 -0.529094 127 127 0
-0.160546 -0.734494 0.228433 127 127 0
-0.143718 -0.772844 -0.451019 127 127 0
-0.570564 0.026852 0.079306 127 127 0
-0.325467 -0.771769 0.349408 127 127 0
0.339160 0.889910 0.173966 0 255 0
-0.188366 0.173248 0.541474 127 127 0
0.278804 0.316904 -0.490311 127 127 0
-0.259798 0.889600 0.096222 0 255 0
-0.402008 0.015003 0.411583 127 127 0
0.526819 -0.306600 -0.204055 127 127 0
-0.367200 -0.751296 0.246956 127 127 0
-0.566218 -0.657163 0.100493 127 127 0
0.357440 0.028351 -0.438421 127 127 0
-0.446545 0.174828 -0.360653 127 127 0
0.561742 -0.392296 -0.062137 127 127 0
-0.416392 0.818720 0.206945 0 255 0
0.324535 0.547986 -0.461419 127 127 0
0.493493 0.638483 0.213672 127 127 0
-0.146622 -0.734494 0.300104 127 127 0
0.438769 -0.266430 0.361884 127 127 0
-0.569274 0.320141 0.086661 127 127 0
0.559186 -0.731252 -0.076848 127 127 0
0.006750 -0.095809 0.571894 127 127 0
-0.483517 0.443941 -0.305163 127 127 0
-0.231618 -0.075357 -0.520543 127 127 0
-0.530985 0.147240 0.224088 127 127 0
-0.370831 0.415575 -0.433939 127 127 0
0.484267 0.046846 -0.287813 127 127 0
0.131297 -0.799700 -0.498409 127 127 0
-0.088601 0.889933 -0.299309 0 255 0
0.090876 0.889933 -0.091375 0 255 0
0.392153 -0.271713 -0.404983 127 127 0
0.176253 -0.748323 -0.536330 127 127 0
-0.451154 -0.769542 0.144411 127 127 0
-0.179627 -0.781203 0.543722 127 127 0
-0.554302 0.115282 0.153343 127 127 0
0.099211 0.354474 0.562035 127 127 0
-0.500288 0.525367 -0.278560 127 127 0
-0.077130 -0.119899 -0.563202 127 127 0
-0.083820 0.889686 0.237495 0 255 0
-0.080568 0.467951 0.568042 127 127 0
-0.467037 -0.529749 -0.331298 127 127 0
0.159190 -0.560211 -0.541635 127 127 0
-0.365325 0.850545 -0.283356 0 255 0
0.434952 0.668641 -0.272260 127 127 0
0.423161 0.574449 0.379890 127 127 0
-0.443022 0.467423 0.367221 127 127 0
-0.228663 -0.734494 0.257970 127 127 0
-0.346257 -0.790353 0.459504 127 127 0
-0.284274 0.052876 -0.493056 127 127 0
-0.045906 0.889934 -0.368316 0 255 0
0.364755 -0.477846 -0.432045 127 127 0
-0.444770 0.646161 0.308616 127 127 0
-0.543059 -0.605842 0.193671 127 127 0
-0.283332 0.770310 -0.374612 0 255 0
0.350180 0.095814 0.448350 127 127 0
-0.339587 -0.338064 0.463941 127 127 0
-0.121958 -0.796012 0.503095 127 127 0
0.563848 -0.755637 -0.000730 127 127 0
0.179797 0.396777 0.542328 127 127 0
0.114497 -0.745654 0.405440 127 127 0
-0.572812 -0.045469 -0.041528 127 127 0
0.091459 0.730879 -0.465690 127 127 0
-0.567654 0.232655 -0.098523 127 127 0
0.562832 -0.454106 0.023268 127 127 0
-0.331666 -0.579708 -0.465829 127 127 0
0.172643 0.889933 -0.019749 0 255 0
-0.481531 -0.642349 0.317191 127 127 0
