ply
format ascii 1.0
element vertex 1267
property float x
property float y
property float z
property uchar red
property uchar green
property uchar blue
end_header
0.647910 -0.343426 -0.256122 127 127 0
0.661559 0.216390 0.105702 127 127 0
0.036101 -0.362109 -0.375699 0 127 127
0.327539 -0.362109 0.297022 0 127 127
0.355548 -0.168093 0.425212 76 0 153
-0.322244 -0.112867 0.452512 76 153 0
0.647910 -0.009465 -0.043876 127 127 0
0.539562 -0.069480 0.425212 76 0 153
-0.390478 -0.362109 0.005677 0 127 127
-0.630608 -0.076518 -0.049522 0 255 0
-0.161403 -0.380309 0.352672 0 127 127
-0.362508 0.632026 0.397913 153 0 76
0.217092 0.053675 0.425212 76 0 153
0.634208 0.320460 -0.411967 127 0 127
-0.024129 -0.341229 -0.411967 127 0 127
-0.236405 -0.338849 0.425212 76 153 0
0.580303 0.398043 0.425212 76 0 153
0.247738 -0.278425 -0.411967 127 0 127
0.176181 -0.571404 0.300591 255 0 0
-0.630608 -0.257516 -0.333030 0 255 0
-0.499170 -0.362109 -0.037099 0 127 127
-0.519655 0.657065 0.387037 127 0 127
-0.473121 0.474935 0.425212 76 153 0
0.026908 -0.288956 0.425212 76 0 153
-0.191993 0.057016 0.425212 76 153 0
-0.615162 0.151337 0.425212 76 153 0
-0.594222 -0.497659 0.311465 255 0 0
-0.630608 -0.232714 -0.137651 0 255 0
0.547771 -0.494052 -0.448366 204 51 127
0.303450 0.661434 0.425212 76 0 153
0.661559 -0.482882 -0.012232 153 0 76
0.035145 0.320322 0.397913 76 0 153
0.480404 -0.362109 -0.213051 0 127 127
0.647910 -0.259797 -0.250207 127 127 0
0.661559 0.037989 -0.183734 127 127 0
0.647910 -0.227184 -0.008998 127 127 0
0.079405 -0.176448 0.452512 76 0 153
-0.420325 -0.053706 -0.411967 127 0 127
-0.506203 -0.140920 0.425212 76 153 0
-0.281961 0.376272 -0.411967 127 0 127
0.072792 -0.500677 -0.448366 204 51 127
-0.295705 -0.291352 0.452512 76 153 0
-0.630608 -0.370003 0.222581 0 255 0
-0.630608 0.629527 -0.435513 0 255 0
-0.616958 0.033586 0.186572 0 255 0
0.661559 -0.391649 0.118116 127 127 0
0.212613 -0.380309 -0.131510 0 127 127
0.653620 -0.021986 -0.448366 127 127 0
-0.407962 -0.190900 0.452512 76 153 0
0.647910 0.253785 0.394323 153 0 76
0.040366 0.198701 0.425212 76 0 153
-0.436785 -0.362109 -0.073710 0 127 127
0.463947 0.249017 0.425212 76 0 153
-0.266007 -0.403243 -0.448366 204 51 127
0.647910 0.210052 -0.226695 127 127 0
-0.407527 -0.011817 0.452512 76 153 0
0.246294 0.290350 0.425212 76 0 153
0.209230 0.430523 -0.411967 127 0 127
-0.010577 -0.228240 0.452512 76 153 0
-0.563321 -0.445696 -0.448366 204 51 127
0.029261 0.007963 0.425212 76 0 153
-0.526367 0.164644 0.452512 76 153 0
0.641199 0.203048 0.425212 76 0 153
-0.233964 -0.001586 0.425212 76 153 0
0.647910 0.348689 -0.084016 127 127 0
0.633984 0.657065 -0.395925 0 127 127
0.661559 -0.271571 -0.350973 127 127 0
-0.630608 0.263473 -0.309308 0 255 0
0.422435 0.069248 0.425212 76 0 153
0.647910 0.429014 -0.216694 127 127 0
-0.482416 -0.264711 0.425212 76 153 0
0.247987 -0.205315 0.452512 76 0 153
0.272249 0.360987 -0.421066 127 0 127
-0.621751 0.199892 0.425212 153 0 76
0.319685 -0.362109 -0.202517 0 127 127
0.647910 0.009929 0.356122 153 0 76
0.214421 0.246068 -0.411967 127 0 127
0.220638 -0.243285 0.425212 76 0 153
-0.188175 0.363186 0.452512 76 153 0
-0.544609 -0.123031 0.425212 76 153 0
0.661559 0.129231 0.359741 153 0 76
0.661559 -0.058149 0.243652 127 127 0
-0.516383 0.684364 0.420585 153 0 76
-0.345553 0.261375 0.452512 76 153 0
0.236362 -0.038584 0.425212 76 0 153
-0.615445 -0.311586 0.452512 76 153 0
0.054365 -0.089337 -0.411967 127 0 127
0.661559 0.555588 -0.434807 127 127 0
-0.608110 -0.362109 -0.220924 0 127 127
-0.538261 0.492078 0.452512 76 153 0
0.203775 0.613648 0.425212 76 0 153
-0.389731 0.561920 0.425212 76 153 0
-0.616958 -0.456250 0.081987 0 0 255
-0.533697 -0.393279 0.297815 255 0 0
0.229163 0.372318 0.425212 76 0 153
-0.413077 0.258982 0.425212 76 153 0
0.586195 0.246295 0.425212 76 0 153
-0.072482 -0.362109 -0.403645 0 127 127
0.234553 -0.380309 -0.009380 0 127 127
-0.181633 0.570774 0.452512 76 153 0
-0.239105 -0.362109 -0.084324 0 127 127
-0.339872 0.325327 -0.411967 127 0 127
-0.181061 -0.124468 0.452512 76 153 0
-0.009442 0.548758 0.452512 76 153 0
-0.029206 -0.380309 -0.124410 0 127 127
-0.087764 0.033873 0.452512 76 153 0
0.647910 0.509261 0.027027 127 127 0
-0.554040 -0.200217 0.425212 76 153 0
-0.616958 0.607283 -0.236768 0 255 0
0.640182 0.429035 0.425212 76 0 153
-0.039123 -0.061916 0.424857 76 0 153
0.172383 0.647294 0.425212 76 0 153
-0.630608 0.651244 0.229370 0 255 0
0.661559 -0.095731 0.335985 153 0 76
0.238369 0.254013 0.425212 76 0 153
-0.445949 0.178686 0.425212 76 153 0
-0.181463 0.439479 0.452512 76 153 0
-0.616958 0.456047 0.259500 0 255 0
-0.455526 -0.362109 -0.274913 0 127 127
-0.270700 -0.237553 0.425212 76 153 0
-0.596487 -0.380309 0.055867 0 127 127
0.647910 -0.123919 -0.397610 127 127 0
0.357867 -0.376023 -0.448366 204 51 127
0.647910 -0.551384 -0.245030 153 0 76
-0.154885 -0.160057 0.452512 76 153 0
-0.034869 -0.362109 -0.374008 0 127 127
-0.604058 -0.040053 -0.411967 127 0 127
0.661559 0.065926 0.182121 127 127 0
-0.466407 -0.215423 0.425212 76 153 0
-0.026257 0.508091 -0.411967 127 0 127
0.029126 -0.151990 0.431832 76 0 153
-0.276824 -0.020616 0.425212 76 153 0
0.427094 -0.510299 -0.448366 204 51 127
-0.093796 0.623345 0.452512 76 153 0
-0.096062 0.683821 -0.421066 153 76 0
-0.602766 0.548386 0.425212 153 0 76
0.036742 0.145477 0.397913 76 0 153
-0.630608 0.143047 0.181952 0 255 0
-0.630608 -0.242983 0.196051 0 255 0
0.542114 0.644682 -0.421066 127 0 127
0.658689 -0.239289 -0.448366 127 127 0
-0.374030 -0.380309 0.062894 0 127 127
0.303875 0.116908 -0.411967 127 0 127
0.640298 -0.475148 -0.448366 153 0 76
-0.630608 0.559813 -0.084430 0 255 0
0.187526 -0.382104 0.425212 76 0 153
-0.328768 -0.380309 -0.253750 0 127 127
-0.320409 -0.384361 0.425212 76 153 0
0.197769 0.019473 -0.411967 127 0 127
0.661559 0.221378 -0.181850 127 127 0
-0.616958 0.306975 -0.423618 0 255 0
-0.330662 -0.393300 0.297815 255 0 0
-0.581230 0.327678 0.452512 76 153 0
-0.113332 -0.215684 0.425212 76 153 0
-0.630608 -0.330597 -0.325061 0 255 0
-0.452336 0.341097 0.452512 76 153 0
0.426340 -0.085769 0.425212 76 0 153
-0.214463 0.369669 -0.421066 127 0 127
-0.561454 0.225253 0.452512 76 153 0
0.661559 -0.535893 -0.180620 153 0 76
0.224965 0.377821 -0.411967 127 0 127
-0.630608 0.644451 0.289806 0 255 0
-0.187459 -0.198434 0.425212 76 153 0
-0.114712 0.636243 0.425212 76 153 0
0.647910 0.262762 0.130442 127 127 0
0.069276 0.127953 -0.421066 127 0 127
-0.484800 0.648272 0.452512 76 153 0
-0.329162 0.653275 -0.421066 153 76 0
-0.630608 -0.569106 0.149220 0 0 255
0.060062 0.409717 0.397913 76 0 153
0.569012 0.623779 0.452512 76 0 153
0.408042 0.183140 0.425212 76 0 153
0.661559 -0.166703 -0.092023 127 127 0
-0.616958 0.397970 0.204033 0 255 0
-0.504488 0.573922 0.452512 76 153 0
-0.311659 -0.380309 0.328576 0 127 127
-0.546578 0.451829 -0.421066 127 0 127
-0.558139 -0.362109 -0.065686 0 127 127
0.661559 0.255895 -0.426876 127 127 0
0.471681 0.622972 0.425212 153 0 76
0.450112 0.396478 0.425212 76 0 153
0.661559 0.273180 -0.361339 127 127 0
-0.189862 0.402465 0.425212 76 153 0
-0.616958 0.490453 0.203742 0 255 0
-0.630608 -0.266598 0.060481 0 255 0
-0.059620 -0.116333 -0.421066 127 0 127
0.490335 -0.089099 0.425212 76 0 153
-0.616958 0.450112 0.049520 0 255 0
0.661559 -0.490763 0.169711 153 0 76
0.377827 0.537463 0.452512 76 0 153
-0.566792 0.396499 0.425212 76 153 0
-0.211603 -0.150451 0.425212 76 153 0
0.661559 -0.076450 -0.234981 127 127 0
0.108033 -0.174122 -0.421066 127 0 127
0.291414 -0.329989 0.425212 76 0 153
0.015557 0.646661 0.425212 153 0 76
0.078020 -0.380309 -0.068402 0 127 127
-0.630608 -0.452912 0.218729 0 0 255
-0.125001 -0.492159 -0.448366 204 51 127
0.647910 0.466912 -0.219223 127 127 0
0.131979 0.684364 0.422547 153 0 76
0.357717 0.213948 0.452512 76 0 153
-0.630608 0.320555 0.188194 0 255 0
-0.036720 0.597140 0.452512 76 153 0
0.647910 0.381915 0.149075 127 127 0
0.647910 0.296954 -0.028741 127 127 0
0.647910 -0.147605 -0.121888 127 127 0
-0.630608 -0.226404 0.091020 0 255 0
-0.122842 -0.266158 0.425212 76 153 0
0.016690 -0.380309 0.042656 0 127 127
-0.078093 -0.315649 -0.421066 127 0 127
0.263788 0.303540 0.452512 76 0 153
-0.167028 -0.468934 -0.448366 204 51 127
-0.345513 -0.407608 0.410851 76 0 153
-0.599108 -0.362109 -0.363608 0 127 127
0.374907 0.167410 0.452512 76 0 153
-0.244527 0.390545 0.425212 76 153 0
-0.616958 -0.409706 0.185826 0 0 255
-0.453302 0.085798 0.452512 76 153 0
-0.497032 -0.380309 -0.386546 0 127 127
0.094168 0.229952 0.452512 76 0 153
-0.630608 0.147345 -0.260717 0 255 0
-0.372364 0.365920 0.452512 76 153 0
-0.372075 0.290548 0.452512 76 153 0
0.095962 -0.362109 -0.302780 0 127 127
0.138918 -0.212173 0.425212 76 0 153
0.528580 0.357909 0.452512 76 0 153
-0.429067 -0.373298 0.452512 76 153 0
-0.316783 -0.426240 -0.448366 204 51 127
0.179333 0.099773 0.452512 76 0 153
-0.147626 -0.536918 0.311465 255 0 0
0.308603 -0.380309 -0.090690 0 127 127
0.182351 -0.380309 -0.364221 0 127 127
0.458572 0.684364 0.407839 153 0 76
-0.402863 0.446519 0.452512 76 153 0
0.064524 -0.555270 -0.421066 204 51 127
0.661559 0.668381 -0.239684 127 127 0
0.504902 0.060723 -0.421066 127 0 127
0.585746 -0.153244 0.425212 76 0 153
-0.236759 -0.040393 0.425212 76 153 0
-0.329902 -0.571404 -0.448136 204 51 127
-0.030957 -0.358879 0.425212 76 0 153
-0.616958 0.136448 0.288268 0 255 0
0.661559 0.083465 0.361025 153 0 76
0.661559 0.288676 0.191090 127 127 0
0.661559 -0.330385 -0.176364 127 127 0
0.592936 0.179701 0.452512 76 0 153
0.119609 0.242095 0.425212 76 0 153
-0.630608 -0.140856 -0.052414 0 255 0
0.622295 0.509991 0.425212 76 0 153
0.468367 -0.143383 -0.411967 127 0 127
0.473782 -0.380309 0.078791 0 127 127
-0.630608 -0.425381 -0.157531 0 0 255
-0.251583 -0.123243 0.425212 76 153 0
0.038393 -0.362109 -0.017267 0 127 127
0.163982 -0.407608 0.423106 76 0 153
-0.630608 0.542278 0.226252 0 255 0
-0.463402 -0.414490 -0.421066 204 51 127
0.494607 0.066259 0.452512 76 0 153
0.647910 -0.109464 0.235856 127 127 0
-0.103720 -0.138845 0.452512 76 153 0
-0.312064 -0.002608 -0.411967 127 0 127
0.647910 0.650274 0.396769 76 153 0
0.329341 0.635788 -0.448366 153 76 0
-0.630608 -0.517056 0.243928 0 0 255
0.661559 0.093709 0.009524 127 127 0
-0.585909 -0.499428 -0.448366 204 51 127
0.130062 0.278453 0.425212 76 0 153
0.382061 0.110184 -0.421066 127 0 127
-0.602743 -0.362109 0.168799 0 255 0
0.553982 0.175166 0.425212 76 0 153
0.661559 -0.363859 -0.204457 127 127 0
0.333876 -0.346606 -0.421066 127 0 127
0.488630 -0.120441 0.452512 76 0 153
-0.506113 -0.380309 -0.096652 0 127 127
0.292139 -0.258906 0.452512 76 0 153
-0.630608 -0.083509 -0.369341 0 255 0
0.315618 0.183441 -0.411967 127 0 127
0.148810 0.595167 0.425212 76 0 153
-0.616958 -0.293478 0.094787 0 255 0
-0.630608 -0.491306 -0.181860 0 0 255
-0.117142 0.338885 0.425212 76 153 0
0.303722 0.357491 0.425212 76 0 153
-0.045973 0.648554 -0.448366 153 76 0
0.102687 -0.532592 -0.448366 204 51 127
0.531125 0.059638 0.452512 76 0 153
0.661559 0.370049 -0.445481 127 127 0
0.345011 0.454968 0.452512 76 0 153
0.418920 0.350563 -0.421066 127 0 127
0.372957 0.079713 0.452512 76 0 153
0.442616 0.081726 0.452512 76 0 153
-0.007871 0.029438 -0.421066 127 0 127
-0.041218 -0.159727 -0.421066 127 0 127
0.001685 -0.561698 -0.448366 204 51 127
0.255519 0.542401 0.452512 76 0 153
0.661559 -0.062534 -0.311294 127 127 0
0.476788 0.534383 0.452512 76 0 153
0.366732 -0.208107 0.425212 76 0 153
-0.616958 0.129568 0.210748 0 255 0
-0.630608 -0.443451 -0.221429 0 0 255
-0.345010 0.236379 -0.421066 127 0 127
-0.630608 -0.394888 -0.232994 0 0 255
0.591308 0.367839 -0.411967 127 0 127
0.278118 0.665769 -0.421066 153 76 0
-0.626058 0.315835 0.431730 76 153 0
-0.003793 0.234569 0.452512 76 153 0
0.549069 0.265643 -0.421066 127 0 127
-0.616958 0.572967 -0.124434 0 255 0
-0.525422 0.678360 -0.421066 153 76 0
-0.555978 -0.306152 0.452512 76 153 0
0.624857 -0.380309 -0.368025 0 127 127
0.647910 0.095527 0.241554 127 127 0
0.661559 0.654640 0.240360 127 127 0
-0.449398 -0.362109 -0.008102 0 127 127
0.621267 -0.527334 -0.421066 204 51 127
0.661559 0.202992 -0.356409 127 127 0
-0.219068 -0.362109 -0.308641 0 127 127
0.412691 0.010282 0.452512 76 0 153
0.262031 -0.362109 -0.024080 0 127 127
0.583037 -0.325084 0.452512 76 0 153
0.115402 -0.362109 -0.121686 0 127 127
0.090606 0.139543 0.425212 76 0 153
0.646598 -0.089285 0.397913 76 153 0
0.477743 -0.393958 0.430209 76 0 153
-0.147041 -0.367425 0.452512 76 153 0
0.073277 0.117527 0.452512 76 0 153
0.647910 0.349617 -0.392126 127 127 0
-0.145740 0.068813 0.452512 76 153 0
0.225398 0.500591 -0.421066 127 0 127
0.661559 -0.543219 0.168753 153 0 76
0.107231 0.165841 -0.411967 127 0 127
-0.630608 0.337073 -0.167807 0 255 0
0.568509 -0.380685 0.425212 76 0 153
0.480406 0.643716 -0.448366 153 76 0
-0.233394 -0.362109 -0.379279 0 127 127
-0.124832 0.661220 0.397913 153 0 76
-0.389692 -0.144476 0.452512 76 153 0
-0.616958 0.265317 0.328505 76 0 153
0.557731 -0.407418 -0.421066 204 51 127
0.160337 0.684364 -0.427450 153 76 0
-0.046943 0.481305 -0.421066 127 0 127
0.144170 0.651848 -0.421066 153 76 0
-0.616958 -0.438912 0.142728 0 0 255
-0.268850 0.214564 0.425212 76 153 0
-0.593019 -0.371088 0.425212 76 153 0
0.031956 -0.390714 0.452512 76 0 153
-0.630608 0.026795 0.375678 76 0 153
0.647910 -0.427206 0.142740 153 0 76
-0.474206 -0.067906 -0.411967 127 0 127
-0.075167 -0.189365 0.452512 76 153 0
-0.261162 -0.362109 -0.355765 0 127 127
0.070231 -0.362109 0.252798 0 127 127
0.166299 0.258292 -0.421066 127 0 127
-0.341672 -0.362109 0.043091 0 127 127
0.633435 -0.358124 0.425212 76 0 153
-0.540041 -0.052928 -0.411967 127 0 127
0.624022 -0.279789 0.425212 76 153 0
-0.630608 0.040036 0.004844 0 255 0
0.083609 -0.317320 0.425212 76 0 153
0.521783 -0.357559 -0.436268 204 51 127
0.434591 0.270939 0.452512 76 0 153
-0.616958 0.573260 0.370307 76 0 153
-0.355794 -0.380309 -0.115576 0 127 127
0.306402 0.105780 0.425212 76 0 153
0.139698 -0.534676 -0.448366 204 51 127
-0.009475 -0.445194 -0.448366 204 51 127
0.647910 0.119895 -0.160422 127 127 0
0.523885 0.379310 -0.411967 127 0 127
-0.616958 -0.142264 -0.301247 0 255 0
-0.496692 -0.380309 0.367805 0 127 127
0.435886 0.530948 0.425212 76 0 153
-0.024077 -0.380309 0.239598 0 127 127
-0.118940 -0.362109 0.042242 0 127 127
0.492039 0.597374 -0.411967 127 0 127
0.328844 0.602067 0.425212 76 0 153
0.654069 -0.140961 0.452512 76 0 153
-0.630608 -0.405252 0.272973 0 255 0
0.647910 -0.169982 -0.025807 127 127 0
-0.542666 0.659940 0.425212 76 153 0
-0.409700 0.331856 0.425212 76 153 0
-0.616958 0.067011 -0.348831 0 255 0
-0.391075 -0.086957 0.425212 76 153 0
-0.142890 0.567092 -0.411967 127 0 127
0.166419 -0.007848 0.425212 76 0 153
-0.616958 0.056768 -0.139731 0 255 0
0.354650 -0.406379 0.397913 76 0 153
0.306012 -0.065270 -0.421066 127 0 127
0.273641 -0.362109 0.241621 0 127 127
-0.153989 -0.380309 -0.182110 0 127 127
0.593959 0.599144 0.425212 76 0 153
-0.083156 -0.362109 -0.140842 0 127 127
-0.006213 0.426820 -0.421066 127 0 127
-0.203512 0.206998 0.425212 76 153 0
-0.313065 0.590287 -0.411967 127 0 127
0.647910 -0.061204 0.105042 127 127 0
0.661559 -0.305408 -0.391344 127 127 0
-0.616958 -0.175722 -0.114008 0 255 0
0.647910 -0.084542 0.182093 127 127 0
0.313133 -0.271547 -0.411967 127 0 127
-0.501687 -0.362109 -0.225604 0 127 127
-0.603134 -0.420199 -0.421066 204 51 127
-0.310325 -0.535688 -0.421066 204 51 127
-0.177718 -0.380309 -0.239895 0 127 127
0.643977 0.171614 0.397913 76 153 0
-0.482133 0.250736 0.425212 76 153 0
-0.311000 -0.362109 0.218798 0 127 127
-0.091657 -0.180034 -0.411967 127 0 127
0.647910 0.145590 0.268601 127 127 0
-0.630608 -0.481906 -0.448253 204 51 127
0.502791 0.652613 0.425212 76 0 153
0.570994 0.463923 0.425212 76 0 153
-0.367306 0.627773 0.452512 76 153 0
-0.205150 -0.071911 0.425212 76 153 0
-0.616958 -0.277901 0.356460 76 0 153
0.641724 -0.362109 0.230326 0 127 127
0.299284 -0.487317 -0.421066 204 51 127
-0.616958 -0.541331 -0.416029 0 0 255
-0.315373 -0.456374 0.297815 255 0 0
0.647910 0.114534 0.063452 127 127 0
0.486663 -0.396498 -0.421066 204 51 127
-0.630608 0.239116 0.273439 0 255 0
-0.616958 0.017606 -0.378389 0 255 0
-0.086534 0.197422 0.425212 76 153 0
0.261986 -0.340658 0.452512 76 0 153
0.076049 0.621019 0.452512 76 0 153
0.182624 -0.510171 -0.421066 204 51 127
0.289565 -0.167550 0.452512 76 0 153
-0.219650 0.268069 0.425212 76 153 0
0.647910 -0.117151 0.271148 127 127 0
0.647910 0.463932 0.062326 127 127 0
0.419608 -0.164531 0.452512 76 0 153
0.099825 -0.377534 0.425212 76 0 153
0.129920 -0.362109 0.058116 0 127 127
-0.236146 0.252779 -0.421066 127 0 127
0.647910 0.591557 -0.278013 127 127 0
0.139618 0.135410 -0.421066 127 0 127
0.463033 0.477103 -0.411967 127 0 127
0.234846 0.159390 0.425212 76 0 153
0.647910 0.492673 -0.340965 127 127 0
0.412811 -0.380309 -0.294486 0 127 127
-0.630608 0.684307 0.171312 0 255 0
-0.448374 -0.362109 -0.117216 0 127 127
-0.357048 -0.243505 -0.411967 127 0 127
-0.008121 -0.169944 0.452512 76 153 0
-0.616958 -0.042098 -0.187056 0 255 0
-0.616958 0.365902 -0.293134 0 255 0
0.285378 0.470873 0.425212 76 0 153
0.661559 0.260821 0.237959 127 127 0
0.647910 0.658413 0.336987 76 153 0
0.647910 -0.197825 -0.089503 127 127 0
-0.007118 0.062380 0.397913 76 0 153
0.342013 -0.393958 0.450245 76 0 153
0.585107 0.076942 0.452512 76 0 153
-0.630608 0.492449 -0.175733 0 255 0
0.255277 -0.419400 -0.448366 204 51 127
0.647910 0.068761 0.268917 127 127 0
-0.469211 -0.386362 0.425212 76 0 153
-0.630608 0.599896 0.077672 0 255 0
-0.575759 0.293262 0.452512 76 153 0
-0.377819 -0.449165 -0.421066 204 51 127
-0.402823 0.156928 0.425212 76 153 0
0.333652 0.477362 0.425212 76 0 153
0.629978 0.653265 0.306648 76 153 0
-0.623508 -0.062713 0.397913 153 0 76
-0.323074 0.436104 -0.421066 127 0 127
-0.567967 -0.362109 0.126590 0 127 127
0.650761 0.370229 0.452512 76 0 153
-0.157492 0.000853 -0.411967 127 0 127
-0.616958 -0.033538 -0.061868 0 255 0
0.248554 -0.380309 0.032326 0 127 127
0.076850 -0.380309 0.309173 255 0 0
-0.478648 -0.345840 -0.421066 76 0 153
-0.616958 -0.497670 -0.134146 0 0 255
-0.566584 -0.362109 0.312962 0 127 127
-0.639708 0.343748 0.414804 153 0 76
-0.123587 -0.002268 0.452512 76 153 0
-0.542075 0.071021 -0.411967 127 0 127
0.661559 0.090130 0.118916 127 127 0
0.661559 0.537720 -0.007618 127 127 0
0.368309 -0.328674 0.425212 76 0 153
0.647910 -0.087850 -0.086499 127 127 0
0.017553 0.026329 0.397913 76 0 153
0.054143 0.257904 -0.421066 127 0 127
-0.495761 0.395933 -0.421066 127 0 127
-0.030434 0.577972 0.425212 76 153 0
-0.371082 -0.362109 -0.300733 0 127 127
-0.552407 0.404615 -0.411967 127 0 127
0.647910 0.646452 -0.294961 127 127 0
0.245614 0.642031 0.452512 76 0 153
-0.616958 -0.243180 0.321753 76 0 153
0.447686 -0.539020 -0.421066 204 51 127
0.018361 0.274077 0.397913 76 0 153
0.307942 0.038181 0.425212 76 0 153
0.151411 -0.362109 0.316314 0 127 127
0.405292 0.161945 -0.421066 127 0 127
0.219959 -0.050091 -0.411967 127 0 127
-0.630608 -0.305886 -0.300245 0 255 0
-0.073888 -0.511727 -0.448366 204 51 127
0.023828 0.512227 0.397913 76 0 153
-0.616958 0.270882 -0.006167 0 255 0
0.538224 0.524975 0.452512 76 0 153
-0.341981 -0.359098 0.452512 76 153 0
-0.592689 0.568043 -0.411967 127 0 127
-0.630608 -0.119277 -0.194757 0 255 0
0.077067 -0.536101 0.297815 255 0 0
0.145530 0.058665 -0.411967 127 0 127
-0.431214 -0.536531 -0.421066 204 51 127
0.395460 0.373851 0.425212 76 0 153
-0.616958 0.344090 -0.244278 0 255 0
0.585065 0.506248 0.452512 76 0 153
-0.131116 -0.380309 -0.136372 0 127 127
0.661559 -0.060908 0.000510 127 127 0
0.388361 0.094883 0.425212 76 0 153
0.647910 0.138398 -0.231856 127 127 0
0.591986 0.366064 0.452512 76 0 153
0.493149 -0.509863 -0.448366 204 51 127
-0.499663 0.307769 -0.411967 127 0 127
-0.340529 0.429166 0.425212 76 153 0
0.197210 -0.360730 0.452512 76 0 153
0.154563 -0.508049 0.311465 255 0 0
0.661559 0.554764 0.121745 127 127 0
0.150196 0.216945 0.425212 76 0 153
-0.036796 -0.328827 0.397913 76 0 153
0.024180 0.098571 0.425212 76 0 153
-0.124658 0.028716 -0.421066 127 0 127
-0.616958 0.612033 0.023302 0 255 0
0.630228 -0.358280 -0.421066 0 127 127
0.303531 0.045082 -0.411967 127 0 127
-0.616958 -0.077573 -0.216526 0 255 0
0.409465 -0.208500 0.452512 76 0 153
0.382599 -0.026529 0.425212 76 0 153
0.103217 -0.458053 0.311465 255 0 0
-0.321039 0.078563 0.452512 76 153 0
0.670207 0.511858 0.397913 76 153 0
0.647910 0.160548 0.002742 127 127 0
-0.630608 -0.570010 0.263670 0 0 255
0.661559 0.077348 -0.133810 127 127 0
-0.576664 0.126750 0.425212 76 153 0
-0.260437 0.493396 0.425212 76 153 0
0.109604 0.640897 0.397913 153 0 76
-0.616958 0.002003 -0.131566 0 255 0
-0.198226 0.227887 0.452512 76 153 0
0.041552 0.562890 0.425212 76 0 153
0.454816 0.155869 0.425212 76 0 153
0.661559 0.584276 -0.400068 127 127 0
0.246575 0.439565 0.425212 76 0 153
-0.630608 0.142415 -0.037459 0 255 0
-0.063543 -0.320665 0.425212 76 153 0
0.526085 -0.056865 -0.421066 127 0 127
-0.403594 -0.105783 -0.421066 127 0 127
-0.377891 0.011649 -0.411967 127 0 127
-0.247689 0.612561 -0.411967 127 0 127
0.525758 -0.373283 0.425212 76 0 153
-0.153864 -0.362109 0.277213 0 127 127
0.135392 -0.095746 0.452512 76 0 153
-0.436598 0.548127 -0.411967 127 0 127
0.387882 -0.373109 0.452512 76 0 153
0.630575 -0.075797 -0.421066 127 0 127
-0.608431 0.039788 0.452512 76 153 0
-0.630608 0.426665 0.112222 0 255 0
0.647910 0.467438 -0.398589 127 127 0
0.037959 -0.113245 0.425212 76 0 153
-0.630608 -0.514475 -0.004345 0 0 255
0.012496 0.384897 -0.411967 127 0 127
-0.362319 -0.362109 0.137587 0 127 127
-0.058682 0.473953 0.452512 76 153 0
0.483532 0.365402 0.452512 76 0 153
0.186123 0.491022 -0.411967 127 0 127
0.550932 -0.289955 0.425212 76 0 153
0.022803 0.684364 0.425145 153 0 76
0.647910 0.359525 -0.205014 127 127 0
-0.616958 0.142758 -0.190759 0 255 0
-0.342587 -0.552336 -0.421066 204 51 127
0.661559 -0.403965 -0.347187 127 127 0
-0.511075 -0.129814 -0.411967 127 0 127
0.534045 -0.121155 -0.411967 127 0 127
0.654994 0.684364 0.098099 127 127 0
-0.280257 -0.362109 0.383195 0 127 127
-0.253206 -0.407608 0.415039 76 0 153
-0.616958 -0.242465 -0.075947 0 255 0
-0.616958 -0.434704 0.027109 0 0 255
0.627291 0.649340 -0.448366 153 76 0
0.338927 0.208608 0.425212 76 0 153
0.566489 -0.243294 -0.411967 127 0 127
-0.616958 -0.184585 0.305255 0 255 0
-0.416240 0.667597 0.425212 153 0 76
-0.037156 0.047069 -0.421066 127 0 127
-0.217030 -0.362109 0.002218 0 127 127
0.376763 -0.450090 -0.448366 204 51 127
0.443571 -0.380309 0.200074 0 127 127
0.182300 -0.101122 0.425212 76 0 153
-0.173472 0.022639 0.425212 76 153 0
-0.414518 -0.490893 0.297815 255 0 0
0.417681 -0.380309 0.113055 0 127 127
-0.630608 0.661825 0.105311 0 255 0
-0.616958 -0.341574 0.374371 76 0 153
0.379393 -0.492053 -0.421066 204 51 127
-0.298101 0.591971 0.452512 76 153 0
0.419327 0.262778 -0.421066 127 0 127
0.647910 0.534099 -0.197590 127 127 0
0.670659 -0.182814 0.424387 76 0 153
-0.207738 -0.362109 0.293315 0 127 127
0.631230 0.575167 -0.439125 127 127 0
0.293640 0.509601 0.452512 76 0 153
0.633731 -0.420289 -0.421066 204 51 127
-0.281762 0.515284 -0.411967 127 0 127
0.142759 0.227181 -0.421066 127 0 127
-0.259187 0.575167 -0.446501 153 76 0
0.129223 -0.364247 -0.411967 204 51 127
0.043910 0.634474 0.397913 76 0 153
-0.518391 -0.380309 0.223972 0 127 127
-0.140954 -0.212819 0.452512 76 153 0
-0.024698 -0.469835 -0.421066 204 51 127
0.658814 0.161333 -0.448366 127 127 0
0.254616 0.015358 -0.421066 127 0 127
0.052408 0.307152 0.425212 76 0 153
-0.600640 -0.160003 0.425212 153 0 76
-0.353861 0.141038 0.425212 76 153 0
-0.596920 -0.362109 -0.015632 0 127 127
-0.600547 -0.330414 0.425212 153 0 76
-0.630608 0.073521 -0.406782 0 255 0
0.670659 -0.249391 0.400451 76 153 0
0.647910 -0.223370 0.388188 153 0 76
-0.511824 -0.465999 -0.421066 204 51 127
0.661559 0.362121 0.017132 127 127 0
-0.378746 0.588001 0.452512 76 153 0
-0.630608 0.410167 -0.051643 0 255 0
-0.082702 0.541760 -0.411967 127 0 127
0.640279 0.618662 0.425212 76 0 153
-0.630608 0.373426 -0.194865 0 255 0
-0.459903 0.612107 0.425212 76 153 0
-0.389092 -0.200633 0.425212 76 153 0
-0.351978 -0.256209 0.452512 76 153 0
0.647910 0.124765 -0.362289 127 127 0
-0.379243 -0.396066 0.297815 255 0 0
-0.387240 0.495634 -0.421066 127 0 127
0.298523 0.638866 -0.413800 127 0 127
0.661559 0.195580 0.177013 127 127 0
0.661559 0.681346 -0.165929 127 127 0
-0.232246 -0.093030 0.425212 76 153 0
0.268866 -0.127122 0.425212 76 0 153
-0.616958 0.291907 0.376481 76 0 153
0.647910 -0.026551 -0.007748 127 127 0
0.167771 0.307235 0.425212 76 0 153
-0.559110 -0.385947 0.397913 76 0 153
-0.465840 -0.362109 0.132324 0 127 127
0.067632 -0.437267 -0.421066 204 51 127
0.326617 -0.362109 -0.381642 0 127 127
-0.107310 -0.362109 0.104454 0 127 127
-0.039123 -0.198882 0.419523 76 0 153
-0.418020 0.399829 0.425212 76 153 0
0.613125 -0.380309 -0.233091 0 127 127
0.467859 -0.020673 0.425212 76 0 153
-0.519656 0.311847 0.425212 76 153 0
0.521006 0.078881 0.425212 76 0 153
-0.011177 -0.362109 -0.197895 0 127 127
0.150616 -0.362109 0.196606 0 127 127
-0.067437 -0.380309 0.258185 0 127 127
-0.034120 0.285672 0.397913 76 0 153
0.567625 0.187101 -0.421066 127 0 127
-0.307184 -0.380309 0.390412 76 0 153
-0.616958 0.299946 -0.140320 0 255 0
-0.283619 0.338852 -0.421066 127 0 127
-0.418191 0.635920 -0.411967 127 0 127
0.160934 0.134261 0.452512 76 0 153
-0.000059 -0.362109 -0.254772 0 127 127
-0.510107 0.352017 -0.411967 127 0 127
0.661559 -0.251619 -0.182130 127 127 0
-0.038503 0.265721 0.425212 76 153 0
0.534679 -0.480250 -0.421066 204 51 127
0.556297 0.657840 0.452512 76 0 153
0.647910 0.161629 -0.192225 127 127 0
-0.285387 -0.084107 0.452512 76 153 0
0.661559 -0.312781 -0.283709 127 127 0
0.255392 -0.077656 0.425212 76 0 153
0.522679 -0.187658 -0.421066 127 0 127
0.661559 -0.120592 0.095811 127 127 0
0.495639 0.303636 0.452512 76 0 153
0.338087 -0.460359 -0.448366 204 51 127
0.107354 -0.362109 -0.361966 0 127 127
0.430291 -0.042454 0.425212 76 0 153
-0.347848 -0.402240 -0.448366 204 51 127
-0.616958 0.290184 0.054095 0 255 0
0.472098 -0.228046 0.452512 76 0 153
-0.306757 0.684364 -0.422651 153 76 0
-0.240809 -0.348898 -0.411967 127 0 127
0.531007 0.319045 0.452512 76 0 153
0.581219 -0.190714 -0.421066 127 0 127
0.441120 -0.389292 0.425212 76 0 153
0.295257 -0.020906 -0.421066 127 0 127
-0.084935 0.353960 0.452512 76 153 0
-0.525149 0.007328 0.425212 76 153 0
0.091826 0.026587 0.425212 76 0 153
0.043774 0.048740 0.425212 76 0 153
0.490812 0.520039 0.425212 76 0 153
-0.325546 0.406906 0.452512 76 153 0
0.609497 -0.069469 0.425212 76 0 153
0.647910 0.334210 0.096893 127 127 0
0.661559 -0.541113 -0.282799 153 0 76
-0.145089 -0.386092 0.397913 0 127 127
0.583634 0.649080 0.425212 153 0 76
0.647910 0.237777 -0.057076 127 127 0
-0.151529 0.507456 0.425212 76 153 0
0.163790 -0.271087 -0.421066 127 0 127
0.647910 -0.007748 -0.347245 127 127 0
0.364844 -0.362109 -0.176825 0 127 127
0.284635 -0.437731 -0.421066 204 51 127
0.661559 0.603448 -0.025131 127 127 0
0.492840 0.596472 0.425212 76 0 153
0.573971 -0.380056 -0.411967 0 127 127
0.627182 0.216990 0.452512 76 0 153
0.125595 0.305591 0.452512 76 0 153
0.333278 0.674017 -0.448366 153 76 0
-0.196336 0.664121 -0.421066 153 76 0
-0.214916 0.684364 0.422393 153 0 76
0.661559 -0.327509 -0.315772 127 127 0
-0.022288 0.231905 0.425212 76 153 0
0.470851 -0.360260 -0.411967 204 51 127
0.424559 -0.362109 -0.361166 0 127 127
-0.026747 0.247638 -0.421066 127 0 127
0.152787 0.436774 0.452512 76 0 153
0.297287 -0.553899 -0.448366 204 51 127
0.059957 0.508707 0.452512 76 0 153
0.513870 -0.362109 0.346954 0 127 127
0.044498 0.332034 -0.411967 127 0 127
0.097270 0.507642 0.425212 76 0 153
0.308722 -0.243785 0.425212 76 0 153
0.586824 0.068552 -0.411967 127 0 127
0.303190 0.426506 0.452512 76 0 153
0.442103 0.641210 0.425212 153 0 76
-0.595406 0.186144 0.397913 76 0 153
-0.077665 -0.446049 0.311465 255 0 0
0.647910 0.342699 -0.328352 127 127 0
0.276004 0.643059 0.425212 76 0 153
-0.630608 0.219596 -0.102119 0 255 0
0.647910 0.397179 0.295875 127 127 0
0.070074 0.184395 0.423632 76 0 153
0.297541 0.631636 0.452512 76 0 153
-0.439899 0.596836 -0.448366 153 76 0
0.661559 0.004397 -0.319439 127 127 0
-0.162235 -0.519819 -0.421066 204 51 127
-0.385435 0.544677 -0.411967 127 0 127
0.647910 0.375317 -0.236573 127 127 0
0.661559 -0.543843 0.133741 153 0 76
0.029375 0.078149 -0.421066 127 0 127
0.199785 -0.380309 -0.312665 0 127 127
0.651845 0.476627 0.425212 76 153 0
0.470053 -0.094742 -0.421066 127 0 127
0.145504 0.358066 0.452512 76 0 153
0.461396 -0.209795 -0.421066 127 0 127
-0.630608 0.541787 -0.273824 0 255 0
-0.630608 -0.120809 -0.424038 0 255 0
-0.447732 -0.378247 0.397913 76 0 153
-0.630608 -0.447541 -0.444387 0 0 255
-0.630608 -0.045113 0.060921 0 255 0
-0.463732 0.183669 0.452512 76 153 0
-0.002197 0.276997 -0.421066 127 0 127
-0.281989 -0.355485 -0.421066 127 0 127
-0.313695 0.181949 0.452512 76 153 0
-0.407569 -0.371512 0.425212 76 0 153
-0.030612 -0.380309 -0.046092 0 127 127
-0.630608 0.094751 -0.178272 0 255 0
-0.419509 0.672564 -0.421066 153 76 0
0.661559 -0.145732 0.223883 127 127 0
-0.034727 0.327173 0.397913 76 0 153
0.377931 0.615381 -0.448366 153 76 0
-0.401826 0.350308 -0.411967 127 0 127
0.278464 0.143445 -0.421066 127 0 127
0.545537 -0.120286 0.452512 76 0 153
-0.171233 -0.380309 -0.042219 0 127 127
-0.115144 -0.571404 0.301768 255 0 0
0.661559 0.177468 0.045965 127 127 0
-0.344176 0.632516 0.425212 76 153 0
0.661559 -0.328960 -0.131716 127 127 0
0.245994 0.610986 0.425212 76 0 153
-0.616958 -0.547313 -0.351400 0 0 255
-0.505816 0.347614 0.425212 76 153 0
-0.616958 -0.503972 0.271205 0 0 255
0.232781 -0.533507 -0.448366 204 51 127
0.218788 -0.387043 0.311465 255 0 0
-0.596481 0.684197 -0.448366 153 76 0
-0.616958 0.505203 0.024202 0 255 0
0.449895 0.600070 -0.411967 127 0 127
0.596998 -0.472245 -0.448366 204 51 127
0.191819 0.423133 0.452512 76 0 153
0.661559 -0.143269 0.371321 153 0 76
0.070074 -0.136667 0.399540 76 0 153
0.081024 -0.380309 0.216525 0 127 127
0.589615 0.139773 0.425212 76 0 153
0.661559 0.134904 -0.103455 127 127 0
0.232610 -0.082395 0.452512 76 0 153
-0.177051 -0.362109 -0.013122 0 127 127
0.097761 -0.380309 -0.235802 0 127 127
-0.162937 0.254621 -0.421066 127 0 127
0.661559 0.594601 -0.096987 127 127 0
-0.616958 -0.253373 0.130056 0 255 0
0.440676 -0.137994 0.452512 76 0 153
0.170769 0.500114 0.452512 76 0 153
0.047983 -0.020717 0.425212 76 0 153
0.536354 0.620501 0.452512 76 0 153
0.141725 -0.169763 -0.421066 127 0 127
0.647171 -0.049916 0.425212 76 153 0
0.159068 -0.362109 -0.241700 0 127 127
0.661559 0.247082 -0.394806 127 127 0
-0.195746 -0.381782 -0.448366 204 51 127
0.350656 -0.216626 0.452512 76 0 153
-0.476624 -0.511317 -0.448366 204 51 127
0.521325 -0.362109 -0.163319 0 127 127
0.423448 0.302722 0.452512 76 0 153
-0.560933 0.611243 0.425212 76 153 0
-0.614945 0.670715 0.451322 153 0 76
-0.630608 0.175600 -0.088194 0 255 0
-0.094349 0.060718 -0.411967 127 0 127
0.069211 0.684364 0.399194 153 0 76
-0.616958 -0.234260 0.391022 153 0 76
-0.057959 0.603153 -0.411967 127 0 127
-0.014757 0.638635 0.452512 76 153 0
0.661559 0.091548 -0.093465 127 127 0
0.349213 0.142474 0.425212 76 0 153
-0.582436 -0.063433 0.425212 76 153 0
0.324936 -0.404972 -0.421066 204 51 127
0.019946 0.355607 0.397913 76 0 153
0.661559 -0.445988 -0.105224 153 0 76
0.445261 0.418984 0.452512 76 0 153
0.084085 0.384174 0.452512 76 0 153
0.401463 -0.135835 0.452512 76 0 153
-0.480817 -0.496683 0.311465 255 0 0
0.337246 -0.522790 0.311465 255 0 0
0.122269 -0.569403 -0.448366 204 51 127
-0.488180 0.210676 -0.411967 127 0 127
-0.616958 0.199018 0.316593 76 0 153
0.661559 -0.211663 -0.136289 127 127 0
0.359617 -0.362109 0.101225 0 127 127
0.322426 -0.090058 0.452512 76 0 153
-0.616958 0.327765 0.251397 0 255 0
-0.616958 0.443117 -0.225146 0 255 0
-0.103876 0.433428 0.452512 76 153 0
-0.630608 -0.088949 0.319086 76 0 153
0.670659 0.237323 0.411059 76 153 0
0.037036 -0.345492 0.397913 76 0 153
-0.160013 -0.380309 -0.323937 0 127 127
0.048367 -0.074054 0.425212 76 0 153
-0.638592 0.459415 0.425212 76 153 0
-0.240054 -0.176971 0.452512 76 153 0
-0.160979 0.212061 0.425212 76 153 0
0.142420 -0.345447 0.425212 76 0 153
-0.632470 -0.305946 0.425212 153 0 76
-0.109766 0.274063 -0.421066 127 0 127
0.193484 -0.207926 0.425212 76 0 153
0.654554 0.164124 0.452512 76 0 153
-0.235677 0.555032 0.425212 76 153 0
0.150388 0.556654 0.425212 76 0 153
0.617090 0.437928 0.452512 76 0 153
0.100757 -0.060488 0.425212 76 0 153
0.178427 0.246263 0.452512 76 0 153
0.153299 0.512454 0.425212 76 0 153
0.647910 0.021646 -0.208476 127 127 0
-0.616958 -0.098354 0.032346 0 255 0
-0.616958 -0.122693 0.329486 76 0 153
0.197040 -0.362109 -0.053723 0 127 127
0.661559 0.189715 -0.008371 127 127 0
0.007664 -0.384856 -0.448366 204 51 127
-0.630608 -0.493358 0.049872 0 0 255
-0.616958 0.545227 0.166976 0 255 0
0.236533 -0.174763 0.452512 76 0 153
-0.606116 0.524993 -0.421066 127 0 127
-0.091294 -0.571404 -0.447382 204 51 127
0.353875 0.268602 0.452512 76 0 153
-0.355957 -0.235134 0.425212 76 153 0
-0.630608 -0.540097 -0.071925 0 0 255
0.528240 -0.362109 -0.399710 0 127 127
0.399392 0.350294 0.452512 76 0 153
-0.262948 0.052352 0.425212 76 153 0
0.661559 -0.298513 0.155844 127 127 0
0.008219 0.535753 0.425212 76 0 153
-0.188461 -0.362109 0.218603 0 127 127
-0.042001 -0.544128 -0.421066 204 51 127
0.320222 0.007804 -0.421066 127 0 127
-0.001180 -0.318792 0.452512 76 153 0
-0.259567 -0.148209 0.452512 76 153 0
-0.630608 0.172764 -0.337683 0 255 0
-0.068230 0.493222 0.425212 76 153 0
-0.630608 -0.209241 0.198335 0 255 0
0.661559 0.036102 -0.025574 127 127 0
0.520433 0.315123 -0.411967 127 0 127
-0.281447 -0.362109 0.013835 0 127 127
-0.616958 -0.245430 0.248956 0 255 0
0.322642 0.386763 0.452512 76 0 153
0.502585 -0.457085 -0.421066 204 51 127
-0.184066 0.298510 -0.421066 127 0 127
-0.252217 0.657152 0.425212 76 153 0
-0.148481 0.422252 0.425212 76 153 0
-0.082765 0.309056 0.452512 76 153 0
-0.028374 -0.362109 0.171908 0 127 127
0.627242 0.591612 0.452512 76 0 153
0.446342 -0.380309 -0.256203 0 127 127
-0.534575 -0.491145 0.297815 255 0 0
-0.616958 -0.196454 -0.330810 0 255 0
-0.366983 0.244069 0.425212 76 153 0
0.647910 0.101360 -0.285254 127 127 0
0.468213 0.459637 0.452512 76 0 153
0.661559 0.055666 0.041940 127 127 0
-0.400209 0.301021 -0.411967 127 0 127
-0.385482 -0.311329 0.452512 76 153 0
0.563782 0.657664 0.397913 76 153 0
-0.616958 0.482026 -0.261886 0 255 0
0.517348 -0.380309 0.383105 0 127 127
0.588231 0.526817 0.425212 76 0 153
0.613210 -0.380309 -0.059182 0 127 127
-0.037648 0.062703 0.425212 76 153 0
-0.508906 0.425143 0.452512 76 153 0
-0.129189 -0.102694 0.425212 76 153 0
0.220895 -0.376216 0.425212 76 0 153
-0.616958 -0.039829 -0.285036 0 255 0
0.647910 -0.037420 -0.291345 127 127 0
0.187603 -0.414664 -0.421066 204 51 127
-0.616958 0.073308 0.248454 0 255 0
0.037297 -0.309987 0.397913 76 0 153
0.088961 -0.287131 -0.421066 127 0 127
0.397064 -0.108987 0.425212 76 0 153
0.336438 0.353436 0.452512 76 0 153
-0.269102 0.427400 0.425212 76 153 0
0.661559 -0.432670 -0.285450 153 0 76
-0.616958 0.054500 -0.213300 0 255 0
-0.498405 -0.200256 0.452512 76 153 0
-0.616958 -0.145064 -0.333604 0 255 0
-0.041111 0.576448 -0.421066 153 76 0
-0.255850 0.624050 0.425212 153 0 76
0.257747 -0.461955 -0.448366 204 51 127
-0.187434 -0.367959 0.425212 76 0 153
-0.508225 -0.380309 -0.163922 0 127 127
-0.630608 0.266212 -0.377642 0 255 0
-0.369075 0.683187 -0.448366 153 76 0
-0.069571 0.107873 -0.411967 127 0 127
-0.280356 -0.393140 -0.421066 127 0 127
0.433526 -0.302691 -0.411967 127 0 127
0.306902 0.236627 0.452512 76 0 153
-0.087847 -0.053283 0.452512 76 153 0
0.532645 0.132760 -0.411967 127 0 127
0.329306 -0.069745 0.425212 76 0 153
-0.209197 0.656310 0.397913 153 0 76
-0.009458 0.357022 0.452512 76 153 0
-0.600371 0.410301 -0.421066 127 0 127
0.342576 0.307555 0.452512 76 0 153
-0.630608 0.570735 -0.385707 0 255 0
-0.540634 -0.354805 0.397913 0 127 127
-0.630608 -0.145903 0.152963 0 255 0
-0.314500 -0.262718 0.452512 76 153 0
0.647910 -0.254114 0.290733 127 127 0
0.620655 -0.140624 -0.421066 127 0 127
-0.050780 0.371845 -0.421066 127 0 127
-0.156269 0.644838 0.425212 153 0 76
0.661559 0.408233 0.009872 127 127 0
0.661559 -0.127783 0.331336 153 0 76
0.343269 -0.557082 -0.421066 204 51 127
-0.585884 -0.276200 0.397913 153 0 76
0.080680 0.304408 0.452512 76 0 153
0.227358 -0.380309 0.088252 0 127 127
-0.600516 0.486878 0.425212 153 0 76
-0.185368 -0.362109 0.266253 0 127 127
0.379071 -0.282039 -0.411967 127 0 127
-0.144286 0.481553 0.452512 76 153 0
0.465788 -0.260244 0.452512 76 0 153
0.115914 0.621860 0.452512 76 0 153
0.661559 0.658887 -0.106687 127 127 0
-0.066059 0.145863 0.452512 76 153 0
0.661559 -0.170431 0.315336 153 0 76
-0.630197 0.684364 0.205485 0 255 0
0.120760 -0.362109 -0.265793 0 127 127
0.138001 0.459002 0.425212 76 0 153
-0.328879 -0.362109 0.189588 0 127 127
-0.333157 0.471787 -0.421066 127 0 127
-0.622302 0.665765 0.397913 127 0 127
-0.326141 0.534115 0.452512 76 153 0
-0.630608 0.607007 0.133899 0 255 0
-0.279355 0.531675 0.452512 76 153 0
-0.406260 -0.393515 0.397913 76 0 153
0.187685 0.298474 0.452512 76 0 153
0.661559 0.377213 -0.094365 127 127 0
-0.616958 -0.142599 0.270553 0 255 0
0.287746 0.512703 -0.411967 127 0 127
0.260909 0.018730 0.452512 76 0 153
0.105994 0.108313 0.425212 76 0 153
-0.034620 0.021490 0.425212 76 153 0
0.474787 -0.524012 0.311465 255 0 0
-0.070636 0.001638 -0.421066 127 0 127
-0.630608 0.001615 0.164647 0 255 0
-0.606762 0.372110 -0.411967 127 0 127
-0.135308 -0.362109 -0.082370 0 127 127
-0.256559 -0.197010 0.425212 76 153 0
-0.616958 0.038717 -0.255045 0 255 0
-0.385880 0.443281 -0.411967 127 0 127
0.393920 -0.362109 0.261656 0 127 127
0.092271 0.333442 0.425212 76 0 153
0.647910 0.483486 -0.085236 127 127 0
0.579577 -0.427653 -0.448366 204 51 127
-0.616958 -0.495972 0.118821 0 0 255
0.216625 -0.469494 0.297815 255 0 0
0.475599 0.575167 -0.446103 153 76 0
0.071153 -0.398655 -0.448366 204 51 127
0.516236 0.027620 0.452512 76 0 153
-0.052894 -0.429569 -0.448366 204 51 127
0.323509 -0.380309 0.091297 0 127 127
-0.008577 0.580844 0.397913 76 0 153
-0.585936 -0.368590 -0.448366 204 51 127
-0.478302 0.545855 0.425212 76 153 0
-0.415768 -0.362109 0.025721 0 127 127
-0.350809 0.026547 0.452512 76 153 0
0.661559 0.440193 0.106439 127 127 0
0.442426 -0.330832 0.452512 76 0 153
-0.576736 0.576963 0.425212 76 153 0
-0.361497 0.544990 0.452512 76 153 0
-0.468832 0.208292 0.425212 76 153 0
-0.286990 -0.219777 0.452512 76 153 0
0.254073 -0.258890 0.425212 76 0 153
-0.058082 -0.362109 0.335380 0 127 127
-0.454233 0.650779 -0.421066 153 76 0
0.178888 0.394982 0.425212 76 0 153
0.661559 0.537963 0.258783 127 127 0
0.655145 0.438511 0.452512 76 0 153
-0.059888 -0.098322 0.425212 76 153 0
0.601787 0.486203 -0.411967 127 0 127
-0.630608 0.613874 0.173229 0 255 0
-0.248360 0.099918 -0.411967 127 0 127
-0.277390 0.206009 -0.411967 127 0 127
0.216460 -0.486801 -0.421066 204 51 127
-0.474022 -0.432291 -0.448366 204 51 127
-0.171780 -0.191692 0.452512 76 153 0
-0.206778 -0.246783 0.452512 76 153 0
-0.616958 -0.281406 -0.358348 0 255 0
-0.630608 0.233552 -0.057386 0 255 0
-0.616958 0.101564 -0.239325 0 255 0
0.121531 0.518373 0.452512 76 0 153
-0.516608 -0.556047 -0.421066 204 51 127
0.127146 -0.362109 0.268931 0 127 127
-0.616958 0.173580 0.341347 76 0 153
-0.280995 0.315890 0.452512 76 153 0
0.661559 -0.364324 0.389439 153 0 76
-0.071842 0.329473 -0.421066 127 0 127
-0.312785 -0.362109 0.107488 0 127 127
-0.616958 0.174917 -0.191323 0 255 0
0.135106 -0.362109 -0.209491 0 127 127
0.295294 0.135258 0.452512 76 0 153
0.113446 -0.044033 -0.411967 127 0 127
0.579567 0.019250 -0.421066 127 0 127
0.661559 0.323244 -0.109849 127 127 0
-0.567645 -0.397692 0.311465 255 0 0
-0.600144 0.658547 0.425212 153 0 76
0.213900 -0.357559 -0.446427 204 51 127
0.525269 0.479819 0.452512 76 0 153
-0.145437 0.265615 0.452512 76 153 0
0.647910 -0.262416 0.061270 127 127 0
-0.500483 -0.375786 -0.421066 127 0 127
-0.098508 -0.245164 0.425212 76 153 0
0.417640 -0.495926 0.311465 255 0 0
0.069129 -0.362109 0.358321 0 127 127
0.476591 -0.380309 -0.091671 0 127 127
-0.253432 -0.290699 -0.421066 127 0 127
-0.031321 0.541548 0.425212 76 0 153
-0.630608 -0.402694 -0.418727 0 0 255
-0.499966 0.304359 0.452512 76 153 0
0.647910 0.068727 -0.193116 127 127 0
-0.088490 0.240216 0.452512 76 153 0
0.617905 0.490964 0.452512 76 0 153
-0.410082 0.248946 -0.421066 127 0 127
0.510267 -0.459081 0.311465 255 0 0
0.021149 -0.380309 -0.307096 0 127 127
-0.616958 -0.177995 0.389539 76 0 153
0.029443 -0.362109 -0.168602 0 127 127
-0.586282 0.073909 0.452512 76 153 0
0.223434 0.103060 0.452512 76 0 153
-0.568579 -0.362109 -0.164436 0 127 127
-0.630608 0.513903 0.109340 0 255 0
-0.500017 0.145142 0.425212 76 153 0
0.016972 -0.380309 -0.393927 0 127 127
0.647910 0.144971 -0.055422 127 127 0
-0.282945 0.109203 0.452512 76 153 0
-0.125443 -0.362109 0.144618 0 127 127
0.509050 0.217429 -0.411967 127 0 127
-0.099413 0.161263 0.425212 76 153 0
-0.289539 -0.436656 0.297815 255 0 0
0.610114 0.381341 0.425212 76 0 153
-0.004817 -0.107809 0.397913 76 0 153
0.444191 0.004354 0.452512 76 0 153
0.103060 -0.380309 -0.046052 0 127 127
0.354740 0.432829 0.425212 76 0 153
0.342983 0.655459 0.425212 153 0 76
-0.616958 -0.017565 0.082120 0 255 0
0.054533 0.428602 -0.421066 127 0 127
0.247684 -0.554457 0.297815 255 0 0
-0.639708 0.067647 0.419761 153 0 76
0.332555 -0.136186 0.425212 76 0 153
-0.616958 0.379287 0.392345 153 0 76
-0.614009 0.268201 0.425212 153 0 76
0.039864 0.638866 -0.411973 127 0 127
-0.630608 -0.228294 -0.253828 0 255 0
0.292694 0.558088 -0.421066 127 0 127
0.008390 0.489857 -0.421066 127 0 127
-0.196462 0.470980 0.425212 76 153 0
-0.215843 -0.247403 -0.411967 127 0 127
0.612481 0.262865 -0.421066 127 0 127
0.647910 -0.451599 0.298585 153 0 76
-0.395179 -0.389170 -0.421066 127 0 127
-0.630608 -0.395576 -0.277829 0 255 0
-0.460517 0.015293 0.452512 76 153 0
-0.630608 0.546200 0.054042 0 255 0
-0.630608 0.140539 -0.296034 0 255 0
0.647910 -0.315314 0.021201 127 127 0
-0.294152 -0.268193 0.425212 76 153 0
0.562784 -0.051121 0.452512 76 0 153
0.620982 -0.315450 0.425212 76 0 153
0.513897 0.418523 0.452512 76 0 153
-0.342586 0.153266 0.452512 76 153 0
-0.616958 0.079403 -0.012580 0 255 0
0.641578 -0.142738 0.397913 76 153 0
0.661559 -0.547869 0.083628 153 0 76
0.149368 -0.069508 -0.421066 127 0 127
0.567499 -0.317273 0.425212 76 0 153
-0.116428 -0.353009 0.406690 76 0 153
0.058843 0.084333 0.425212 76 0 153
-0.630608 0.622455 -0.190482 0 255 0
-0.372125 -0.300995 -0.421066 127 0 127
-0.568189 0.657065 0.379519 127 0 127
-0.616958 0.222503 0.367992 76 0 153
0.294397 -0.380309 0.197024 0 127 127
-0.111425 0.677652 -0.448366 153 76 0
0.165041 0.535680 -0.411967 127 0 127
0.001024 0.026307 0.425212 76 0 153
-0.630608 0.619265 -0.090989 0 255 0
-0.255309 -0.033331 -0.421066 127 0 127
-0.616958 0.143151 0.110600 0 255 0
0.103482 0.666183 0.425212 76 0 153
-0.630608 -0.027968 0.290314 0 255 0
-0.453765 -0.362109 -0.203387 0 127 127
0.275138 -0.376070 0.425212 76 0 153
-0.522535 0.542101 0.425212 76 153 0
-0.123664 0.330867 -0.411967 127 0 127
-0.591554 0.157140 0.452512 76 153 0
-0.142907 -0.299654 -0.421066 127 0 127
0.569310 0.223468 -0.411967 127 0 127
0.030216 -0.353581 0.452512 76 0 153
0.455089 0.380776 0.452512 76 0 153
-0.435513 -0.501918 -0.421066 204 51 127
0.510888 0.314216 0.425212 76 0 153
-0.639708 0.499768 0.424482 153 0 76
0.164957 -0.457926 -0.448366 204 51 127
-0.059596 -0.069070 -0.421066 127 0 127
0.649538 0.143778 0.425212 76 0 153
-0.224000 0.133915 0.452512 76 153 0
0.351828 0.638866 -0.419909 127 0 127
-0.561639 -0.342739 -0.411967 127 0 127
0.157980 -0.149917 0.425212 76 0 153
0.026597 -0.362109 0.311930 0 127 127
-0.600830 0.025264 0.425212 76 153 0
0.234532 0.654102 0.425212 153 0 76
0.448952 -0.182742 0.425212 76 0 153
0.424998 -0.392214 0.397913 76 0 153
-0.294004 -0.327705 0.452512 76 153 0
-0.451760 0.282050 0.425212 76 153 0
0.087138 0.190524 -0.411967 127 0 127
-0.604659 -0.014691 0.425212 153 0 76
0.097559 0.430329 0.452512 76 0 153
-0.459840 -0.322207 0.452512 76 153 0
-0.398351 0.603650 -0.411967 127 0 127
0.374916 0.476025 0.452512 76 0 153
0.455519 0.631858 0.397913 153 0 76
0.375900 0.315971 -0.421066 127 0 127
0.329832 -0.380309 0.262852 0 127 127
-0.489090 0.590024 -0.421066 127 0 127
-0.422725 -0.380309 -0.222415 0 127 127
-0.537057 0.152286 0.425212 76 153 0
0.384413 0.343798 0.425212 76 0 153
-0.608515 0.399156 0.425212 153 0 76
-0.002494 -0.040176 -0.421066 127 0 127
-0.076181 -0.454220 -0.421066 204 51 127
0.472122 -0.362109 0.320506 0 127 127
0.647910 0.172927 0.288381 127 127 0
0.334276 -0.362109 -0.005107 0 127 127
-0.322457 -0.401255 -0.421066 204 51 127
-0.130303 0.575167 -0.440998 153 76 0
0.325037 -0.302407 0.452512 76 0 153
-0.329193 -0.362109 0.140478 0 127 127
-0.616958 -0.388115 0.139471 0 255 0
0.208005 -0.039435 0.452512 76 0 153
-0.365539 -0.504097 0.311465 255 0 0
0.661559 0.643753 0.025781 127 127 0
-0.320310 -0.190967 0.452512 76 153 0
-0.132373 0.550300 0.452512 76 153 0
0.661559 0.583339 0.020100 127 127 0
-0.282615 0.168585 0.425212 76 153 0
-0.630608 0.588696 0.107978 0 255 0
-0.464628 -0.398352 -0.448366 204 51 127
0.190100 0.589701 -0.411967 127 0 127
0.259882 -0.362109 0.168037 0 127 127
-0.464176 0.303570 0.452512 76 153 0
-0.258644 -0.498153 -0.421066 204 51 127
0.321528 -0.154542 0.452512 76 0 153
-0.183949 0.273235 0.425212 76 153 0
0.661559 0.279932 0.345503 153 0 76
-0.119031 0.285190 0.425212 76 153 0
0.562103 0.189122 0.452512 76 0 153
0.130905 -0.040994 0.425212 76 0 153
-0.521770 -0.153181 0.452512 76 153 0
-0.078264 0.095632 0.425212 76 153 0
-0.597726 -0.380309 0.285338 0 127 127
-0.387220 -0.186683 -0.411967 127 0 127
0.245584 -0.407608 0.411568 76 0 153
0.354958 0.280629 -0.411967 127 0 127
-0.045668 -0.380309 0.383678 0 127 127
-0.486000 -0.380309 0.302209 0 127 127
-0.509764 0.648025 0.425212 76 153 0
0.336780 -0.065847 -0.411967 127 0 127
0.661559 0.390083 -0.142175 127 127 0
0.645074 0.385245 0.425212 76 0 153
-0.006082 -0.362109 -0.139607 0 127 127
0.033443 -0.362109 -0.107303 0 127 127
0.561237 0.336460 0.452512 76 0 153
-0.287576 -0.376566 0.425212 76 0 153
0.481651 -0.566648 -0.421066 204 51 127
0.365083 -0.484842 -0.448366 204 51 127
0.279533 -0.357559 -0.437093 204 51 127
-0.256512 -0.487221 0.297815 255 0 0
0.661559 -0.442246 -0.000847 153 0 76
-0.073653 -0.380309 -0.270890 0 127 127
-0.361773 0.662309 -0.421066 153 76 0
0.661559 0.660984 -0.020286 127 127 0
-0.630608 -0.565235 0.198538 0 0 255
-0.630608 0.134607 -0.357295 0 255 0
0.661559 -0.337416 -0.027167 127 127 0
-0.525031 0.030787 0.452512 76 153 0
0.661559 -0.305991 -0.064523 127 127 0
0.318426 0.182933 0.425212 76 0 153
-0.008534 0.581220 0.452512 76 153 0
-0.618558 0.684364 0.002806 0 255 0
0.008694 -0.380309 -0.039454 0 127 127
-0.134670 0.520541 -0.421066 127 0 127
0.399288 -0.220658 0.425212 76 0 153
-0.402970 -0.380309 0.194348 0 127 127
-0.308511 0.652882 -0.448366 153 76 0
-0.616958 -0.251338 -0.177245 0 255 0
-0.630608 -0.422662 -0.360263 0 0 255
-0.178310 -0.362109 -0.359764 0 127 127
0.613757 -0.087158 0.452512 76 0 153
0.661559 0.295645 0.140787 127 127 0
0.661559 0.071040 -0.249887 127 127 0
0.647910 -0.284512 -0.228238 127 127 0
0.401303 0.458153 0.425212 76 0 153
0.661559 0.306872 -0.419894 127 127 0
0.121410 0.506280 -0.421066 127 0 127
0.207349 -0.251858 0.452512 76 0 153
0.594965 0.657065 0.344526 76 153 0
-0.473991 0.131233 -0.421066 127 0 127
0.661559 0.219051 -0.324555 127 127 0
0.647910 0.001425 0.196722 127 127 0
0.661559 -0.311756 0.086952 127 127 0
-0.582155 0.089157 0.425212 153 0 76
-0.616958 -0.331325 -0.116120 0 255 0
-0.630608 -0.552176 0.087872 0 0 255
-0.604287 -0.362109 -0.055094 0 255 0
-0.071301 0.601251 0.452512 76 153 0
-0.630608 0.002656 -0.097710 0 255 0
0.181352 0.541370 0.452512 76 0 153
0.228682 0.391194 0.452512 76 0 153
-0.630608 0.281885 -0.077502 0 255 0
-0.630608 -0.095582 -0.154820 0 255 0
0.575440 0.282890 -0.421066 127 0 127
0.017539 -0.379156 0.397913 0 127 127
