ply
format ascii 1.0
element vertex 641
property float x
property float y
property float z
property float nx
property float ny
property float nz
property uchar red
property uchar green
property uchar blue
property float opacity
end_header
-0.678859 -0.258027 -0.100242 0.767014 0.641630 0.000000 201 201 201 1.000000
0.141961 0.414511 -0.057220 0.000000 1.000000 0.000000 128 0 0 1.000000
0.386053 0.129197 0.361199 -0.952714 -0.303868 0.000000 201 201 201 1.000000
0.782786 0.403501 -0.386171 0.620139 0.784492 0.000000 128 0 0 1.000000
0.494484 0.414511 0.228280 0.000000 -1.000000 0.000000 7 3 1 1.000000
0.383047 0.404681 0.436682 0.031878 0.999492 0.000000 7 3 1 1.000000
-0.210999 0.171466 0.470195 0.000000 0.000000 1.000000 128 128 128 0.100000
0.801871 0.120051 -0.138419 1.000000 0.000000 0.000000 128 0 0 1.000000
0.799854 0.378565 0.350581 -0.961342 -0.275356 0.000000 7 3 1 1.000000
-0.006837 -0.311722 -0.310252 0.253405 -0.967360 -0.000000 202 202 202 1.000000
-0.547442 -0.202534 0.486537 0.000000 0.000000 1.000000 128 128 128 0.100000
-0.734551 0.219043 -0.254984 -1.000000 0.000000 0.000000 128 0 0 1.000000
-0.676708 0.324900 -0.146219 -0.739632 0.673012 0.000000 167 167 167 1.000000
-0.677310 0.162053 0.368021 0.921722 -0.387852 -0.000000 201 201 201 1.000000
-0.179711 -0.311642 0.159064 -0.062898 -0.998020 0.000000 202 202 202 1.000000
0.019450 0.301440 0.470195 0.000000 0.000000 -1.000000 128 128 128 0.100000
0.385342 -0.069561 0.199829 0.963876 -0.266350 -0.000000 234 234 234 1.000000
0.619233 -0.370046 -0.249728 0.000000 1.000000 0.000000 7 3 1 1.000000
0.559441 0.072766 -0.474547 0.000000 0.000000 1.000000 7 3 1 1.000000
-0.678488 -0.157516 -0.130301 -0.881272 -0.472609 0.000000 168 168 168 1.000000
0.298911 0.355903 0.324730 -0.642228 -0.766514 0.000000 201 201 201 1.000000
0.375796 0.000115 -0.458199 0.000000 0.000000 1.000000 178 178 178 1.000000
-0.595948 0.414511 -0.011784 0.000000 -1.000000 0.000000 7 3 1 1.000000
0.688327 0.414511 0.062925 0.000000 1.000000 0.000000 128 0 0 1.000000
0.217000 0.414511 -0.014023 0.000000 -1.000000 0.000000 7 3 1 1.000000
0.032928 0.355977 0.065506 -0.318944 -0.947774 0.000000 201 201 201 1.000000
0.801871 -0.048537 -0.205765 -1.000000 0.000000 0.000000 7 3 1 1.000000
-0.504641 0.414511 -0.377966 0.000000 1.000000 0.000000 128 0 0 1.000000
-0.467296 -0.286720 -0.474547 0.000000 0.000000 1.000000 7 3 1 1.000000
0.231388 -0.306451 -0.474547 0.000000 0.000000 1.000000 7 3 1 1.000000
0.384516 -0.301068 0.219706 0.717269 -0.696796 -0.000000 234 234 234 1.000000
0.285745 0.311679 0.424430 0.000000 0.000000 -1.000000 40 42 45 1.000000
0.759008 -0.162004 0.475002 1.000000 0.000000 0.000000 40 42 45 1.000000
-0.734551 -0.204947 0.196618 -1.000000 0.000000 0.000000 128 0 0 1.000000
-0.352455 -0.311563 -0.340125 -0.361878 -0.932226 0.000000 202 202 202 1.000000
-0.187677 0.356037 0.052712 -0.078304 0.996930 0.000000 204 204 204 1.000000
0.054286 0.414511 -0.284745 0.000000 -1.000000 0.000000 7 3 1 1.000000
-0.676836 0.290386 -0.392487 0.778517 -0.627623 -0.000000 201 201 201 1.000000
-0.346827 -0.311566 0.051826 -0.353249 -0.935529 0.000000 202 202 202 1.000000
-0.734551 -0.042194 -0.327037 -1.000000 0.000000 0.000000 128 0 0 1.000000
0.384537 -0.295223 0.401166 0.723595 -0.690225 -0.000000 238 238 238 1.000000
-0.678501 -0.160589 0.400175 0.877892 0.478859 0.000000 201 201 201 1.000000
0.801871 0.112848 0.206182 1.000000 0.000000 0.000000 128 0 0 1.000000
0.801871 -0.286981 -0.135582 1.000000 0.000000 0.000000 128 0 0 1.000000
-0.026259 -0.370046 -0.193831 0.000000 -1.000000 0.000000 128 0 0 1.000000
0.607371 -0.070775 -0.474547 0.000000 0.000000 1.000000 7 3 1 1.000000
-0.053101 0.414511 0.091469 0.000000 -1.000000 0.000000 7 3 1 1.000000
-0.258489 0.308413 0.489805 0.000000 0.000000 1.000000 128 0 0 1.000000
0.801871 -0.271628 0.362752 1.000000 0.000000 0.000000 128 0 0 1.000000
-0.439762 0.414511 0.079267 0.000000 -1.000000 0.000000 7 3 1 1.000000
0.801871 0.078132 -0.251798 -1.000000 0.000000 0.000000 7 3 1 1.000000
-0.510087 -0.367279 -0.474547 0.000000 0.000000 1.000000 7 3 1 1.000000
-0.119499 -0.311670 0.020956 -0.050152 0.998742 0.000000 201 201 201 1.000000
-0.582265 -0.311458 -0.369374 -0.634748 -0.772719 0.000000 202 202 202 1.000000
0.359098 0.414511 -0.309972 0.000000 1.000000 0.000000 128 0 0 1.000000
0.801871 0.069779 0.025645 1.000000 0.000000 0.000000 128 0 0 1.000000
0.386003 0.114784 -0.164226 0.964000 0.265902 0.000000 234 234 234 1.000000
-0.037613 0.414511 0.413001 0.000000 1.000000 0.000000 128 0 0 1.000000
0.692894 -0.370046 0.245526 0.000000 -1.000000 0.000000 128 0 0 1.000000
0.800621 -0.329983 0.060487 -0.974142 0.225935 0.000000 7 3 1 1.000000
-0.298795 0.414511 -0.278397 0.000000 1.000000 0.000000 128 0 0 1.000000
0.474750 0.328976 -0.474547 0.000000 0.000000 1.000000 7 3 1 1.000000
-0.734551 0.311264 0.142977 -1.000000 0.000000 0.000000 128 0 0 1.000000
0.330825 0.117531 -0.458199 0.000000 0.000000 -1.000000 178 178 178 1.000000
-0.574649 0.414511 -0.271620 0.000000 -1.000000 0.000000 7 3 1 1.000000
-0.353842 0.366363 0.489805 0.000000 0.000000 -1.000000 40 42 45 1.000000
0.052400 0.026611 0.486537 0.000000 0.000000 -1.000000 128 128 128 0.100000
0.364033 0.210981 0.424430 0.000000 0.000000 -1.000000 40 42 45 1.000000
-0.598828 -0.370046 0.437617 0.000000 1.000000 0.000000 7 3 1 1.000000
0.384958 -0.177335 -0.042430 0.857606 -0.514306 -0.000000 234 234 234 1.000000
-0.399711 -0.370046 -0.113105 0.000000 -1.000000 0.000000 128 0 0 1.000000
0.655836 -0.370046 0.021174 0.000000 1.000000 0.000000 7 3 1 1.000000
-0.677784 0.033569 -0.397525 -0.999369 0.035526 0.000000 167 167 167 1.000000
-0.014684 -0.206048 0.470195 0.000000 0.000000 -1.000000 128 128 128 0.100000
0.038047 0.203472 -0.458199 0.000000 0.000000 -1.000000 178 178 178 1.000000
0.093333 -0.370046 -0.122439 0.000000 -1.000000 0.000000 128 0 0 1.000000
0.563946 0.040198 0.477503 0.446933 0.894568 0.000000 128 0 0 1.000000
0.801871 -0.224833 0.196929 -1.000000 0.000000 0.000000 7 3 1 1.000000
0.268222 0.124066 0.470195 0.000000 0.000000 1.000000 128 128 128 0.100000
0.149954 -0.264903 0.424430 0.000000 0.000000 -1.000000 40 42 45 1.000000
-0.209054 -0.262634 -0.340480 0.000000 -1.000000 0.000000 128 0 0 1.000000
0.801871 -0.013649 -0.109295 1.000000 0.000000 0.000000 128 0 0 1.000000
-0.192390 0.356039 0.346734 -0.087076 0.996202 0.000000 204 204 204 1.000000
-0.112930 0.387172 -0.474547 0.000000 0.000000 -1.000000 7 3 1 1.000000
-0.454162 0.414511 -0.452307 0.000000 1.000000 0.000000 128 0 0 1.000000
-0.292348 -0.262634 -0.205035 0.000000 1.000000 0.000000 128 0 0 1.000000
0.191948 0.414511 0.224326 0.000000 -1.000000 0.000000 7 3 1 1.000000
0.078883 -0.252783 0.202447 -0.016984 0.999710 -0.017100 128 0 0 1.000000
0.315836 -0.149180 -0.458199 0.000000 0.000000 1.000000 178 178 178 1.000000
0.213353 0.051617 0.486537 0.000000 0.000000 1.000000 128 128 128 0.100000
0.061116 -0.286384 -0.458199 0.000000 0.000000 -1.000000 178 178 178 1.000000
0.759008 0.001504 0.429686 1.000000 0.000000 0.000000 40 42 45 1.000000
0.288878 -0.370046 -0.179546 0.000000 1.000000 0.000000 7 3 1 1.000000
-0.734551 -0.070138 0.190844 -1.000000 0.000000 0.000000 128 0 0 1.000000
0.505570 -0.330880 -0.474547 0.000000 0.000000 1.000000 7 3 1 1.000000
-0.390448 -0.147632 -0.458199 0.000000 0.000000 1.000000 178 178 178 1.000000
-0.629165 -0.370046 0.046383 0.000000 1.000000 0.000000 7 3 1 1.000000
-0.678993 -0.293763 -0.367353 0.727467 0.686142 0.000000 201 201 201 1.000000
-0.241414 -0.239690 -0.474547 0.000000 0.000000 1.000000 7 3 1 1.000000
0.117376 0.075145 0.470195 0.000000 0.000000 1.000000 128 128 128 0.100000
0.800416 -0.331545 -0.467446 -0.970420 0.241422 0.000000 7 3 1 1.000000
0.801871 -0.191245 0.117133 -1.000000 0.000000 0.000000 7 3 1 1.000000
-0.424891 0.414511 -0.050267 0.000000 1.000000 0.000000 128 0 0 1.000000
-0.278379 -0.252792 0.114720 -0.009355 -0.999906 0.009977 128 0 0 1.000000
-0.734551 -0.287571 -0.227874 -1.000000 0.000000 0.000000 128 0 0 1.000000
0.801871 -0.182577 -0.405282 -1.000000 0.000000 0.000000 7 3 1 1.000000
-0.676649 0.340698 -0.000100 -0.722314 0.691566 0.000000 167 167 167 1.000000
0.215417 0.414511 0.436544 0.000000 -1.000000 0.000000 7 3 1 1.000000
0.153577 -0.370046 -0.474086 0.000000 1.000000 0.000000 7 3 1 1.000000
0.346191 -0.370046 -0.068761 0.000000 1.000000 0.000000 7 3 1 1.000000
0.112350 -0.236365 -0.343916 0.082098 0.991836 -0.097578 128 0 0 1.000000
-0.117451 -0.311671 0.359429 -0.053988 0.998542 0.000000 201 201 201 1.000000
-0.422257 0.356102 0.218347 -0.460771 0.887519 0.000000 204 204 204 1.000000
0.029112 -0.311738 -0.002064 0.312932 -0.949776 -0.000000 202 202 202 1.000000
0.618310 0.414511 -0.350824 0.000000 1.000000 0.000000 128 0 0 1.000000
0.720241 0.346921 -0.474547 0.000000 0.000000 1.000000 7 3 1 1.000000
-0.148193 -0.313012 0.489805 0.000000 0.000000 -1.000000 40 42 45 1.000000
-0.342432 0.356080 -0.042218 -0.346441 0.938072 0.000000 204 204 204 1.000000
0.801871 -0.060577 0.380216 -1.000000 0.000000 0.000000 7 3 1 1.000000
-0.680801 0.358986 0.489805 0.000000 0.000000 1.000000 128 0 0 1.000000
-0.478846 -0.023552 0.470195 0.000000 0.000000 -1.000000 128 128 128 0.100000
-0.561399 -0.370046 0.341883 0.000000 -1.000000 0.000000 128 0 0 1.000000
-0.214456 -0.262634 -0.231472 0.000000 -1.000000 0.000000 128 0 0 1.000000
0.076458 0.414511 0.204991 0.000000 -1.000000 0.000000 7 3 1 1.000000
-0.677740 0.045203 0.269313 0.997531 -0.070234 -0.000000 201 201 201 1.000000
0.432111 0.068842 0.430515 1.000000 0.000000 0.000000 40 42 45 1.000000
0.026565 0.414511 -0.450417 0.000000 -1.000000 0.000000 7 3 1 1.000000
-0.734551 -0.301547 0.332449 1.000000 0.000000 0.000000 7 3 1 1.000000
0.105111 0.414511 -0.376519 0.000000 -1.000000 0.000000 7 3 1 1.000000
-0.343124 0.356081 0.313700 -0.347513 0.937675 0.000000 204 204 204 1.000000
0.385738 0.041265 -0.198781 0.998449 0.055679 0.000000 234 234 234 1.000000
0.304179 -0.311864 0.155304 -0.645668 0.763618 0.000000 201 201 201 1.000000
-0.063779 -0.311695 -0.249167 -0.153130 0.988206 0.000000 201 201 201 1.000000
0.498378 -0.235729 0.473462 0.000000 0.000000 1.000000 40 42 45 1.000000
-0.529737 -0.261531 0.140121 0.917487 -0.003922 -0.397747 128 0 0 1.000000
0.590355 -0.310091 0.489805 0.000000 0.000000 -1.000000 128 0 0 1.000000
-0.677690 0.058795 -0.004358 0.993881 -0.110459 -0.000000 201 201 201 1.000000
0.186601 -0.311810 0.062806 -0.530050 0.847967 0.000000 201 201 201 1.000000
-0.707781 0.408695 -0.393641 0.462048 -0.886855 -0.000000 7 3 1 1.000000
0.801871 -0.146643 0.268733 1.000000 0.000000 0.000000 128 0 0 1.000000
-0.678578 -0.181980 -0.247047 -0.853934 -0.520382 0.000000 168 168 168 1.000000
0.088841 0.414511 0.054139 0.000000 -1.000000 0.000000 7 3 1 1.000000
-0.553839 0.355818 0.424430 0.000000 0.000000 1.000000 40 42 45 1.000000
0.354568 0.355887 0.023213 -0.686025 -0.727578 0.000000 201 201 201 1.000000
0.033997 0.206798 0.470195 0.000000 0.000000 1.000000 128 128 128 0.100000
-0.667580 0.193507 0.489805 0.000000 0.000000 -1.000000 40 42 45 1.000000
0.504127 0.414511 -0.277549 0.000000 1.000000 0.000000 128 0 0 1.000000
0.373430 -0.370046 -0.402070 0.000000 -1.000000 0.000000 128 0 0 1.000000
0.446963 -0.370046 -0.248675 0.000000 1.000000 0.000000 7 3 1 1.000000
0.801871 -0.046356 0.054607 1.000000 0.000000 0.000000 128 0 0 1.000000
-0.634624 0.309464 0.424430 0.000000 0.000000 -1.000000 40 42 45 1.000000
0.724382 -0.257237 -0.474547 0.000000 0.000000 1.000000 7 3 1 1.000000
0.163232 -0.236878 0.235537 -0.312626 0.912347 -0.264365 128 0 0 1.000000
0.615289 0.227760 -0.474547 0.000000 0.000000 1.000000 7 3 1 1.000000
0.310268 -0.238946 0.486537 0.000000 0.000000 1.000000 128 128 128 0.100000
0.386558 0.270882 -0.104132 -0.802900 -0.596114 0.000000 201 201 201 1.000000
0.801871 0.253266 -0.392244 1.000000 0.000000 0.000000 128 0 0 1.000000
-0.363503 0.356086 -0.413094 -0.378466 0.925615 0.000000 204 204 204 1.000000
0.801871 0.331490 -0.083089 1.000000 0.000000 0.000000 128 0 0 1.000000
0.339149 -0.296587 -0.474547 0.000000 0.000000 -1.000000 7 3 1 1.000000
0.694871 -0.114249 0.489805 0.000000 0.000000 -1.000000 128 0 0 1.000000
-0.378044 -0.252778 0.486537 0.000000 0.000000 1.000000 128 128 128 0.100000
-0.658673 0.414511 -0.230979 0.000000 1.000000 0.000000 128 0 0 1.000000
-0.677422 0.131701 0.082989 0.949706 -0.313144 -0.000000 201 201 201 1.000000
-0.020654 0.414511 0.176834 0.000000 -1.000000 0.000000 7 3 1 1.000000
-0.677740 0.045437 0.111072 0.997481 -0.070929 -0.000000 201 201 201 1.000000
0.628511 0.414511 -0.197422 0.000000 1.000000 0.000000 128 0 0 1.000000
-0.060602 0.312878 -0.458199 0.000000 0.000000 -1.000000 178 178 178 1.000000
-0.506324 0.106146 0.486537 0.000000 0.000000 1.000000 128 128 128 0.100000
-0.179225 0.356035 0.182651 0.062530 -0.998043 -0.000000 201 201 201 1.000000
-0.265325 0.033499 -0.458199 0.000000 0.000000 -1.000000 178 178 178 1.000000
-0.604088 -0.311448 0.158496 -0.653181 -0.757201 0.000000 202 202 202 1.000000
-0.460135 0.414511 0.280156 0.000000 1.000000 0.000000 128 0 0 1.000000
-0.524363 -0.370046 0.238817 0.000000 1.000000 0.000000 7 3 1 1.000000
0.348816 -0.311884 -0.295201 -0.680693 0.732569 0.000000 201 201 201 1.000000
0.719889 0.001361 -0.474547 0.000000 0.000000 -1.000000 7 3 1 1.000000
-0.493982 0.356122 0.094549 0.547190 -0.837009 -0.000000 201 201 201 1.000000
-0.681986 0.414511 0.246349 0.000000 -1.000000 0.000000 7 3 1 1.000000
0.384908 -0.191417 0.114445 0.841514 -0.540236 -0.000000 234 234 234 1.000000
0.455368 0.414511 -0.407963 0.000000 1.000000 0.000000 128 0 0 1.000000
-0.732964 -0.332534 0.158328 0.967937 0.251192 0.000000 7 3 1 1.000000
0.385491 -0.027864 0.132458 -0.988742 0.149630 0.000000 201 201 201 1.000000
0.296242 0.355904 -0.187595 0.639953 0.768414 0.000000 204 204 204 1.000000
-0.575662 0.356145 0.318657 0.627967 -0.778240 -0.000000 201 201 201 1.000000
0.265830 -0.370046 -0.362453 0.000000 -1.000000 0.000000 128 0 0 1.000000
-0.079161 0.356008 -0.170998 -0.124566 -0.992211 0.000000 201 201 201 1.000000
0.112519 0.355954 0.348318 0.437427 0.899254 0.000000 204 204 204 1.000000
-0.429209 0.414511 -0.155348 0.000000 1.000000 0.000000 128 0 0 1.000000
-0.678569 -0.179208 0.072708 -0.857073 -0.515195 0.000000 168 168 168 1.000000
-0.498291 -0.293287 0.019229 0.342839 0.938366 -0.043947 105 105 105 1.000000
-0.225212 -0.311621 0.002625 -0.147015 -0.989134 0.000000 202 202 202 1.000000
0.734339 -0.370046 -0.395692 0.000000 -1.000000 0.000000 128 0 0 1.000000
0.585520 -0.370046 0.328671 0.000000 1.000000 0.000000 7 3 1 1.000000
0.417356 -0.370046 0.066267 0.000000 1.000000 0.000000 7 3 1 1.000000
-0.138778 -0.311661 -0.113473 0.013962 -0.999903 -0.000000 202 202 202 1.000000
-0.314393 -0.370046 0.101383 0.000000 1.000000 0.000000 7 3 1 1.000000
-0.590271 0.414511 -0.390049 0.000000 1.000000 0.000000 128 0 0 1.000000
-0.673656 -0.370046 -0.296155 0.000000 -1.000000 0.000000 128 0 0 1.000000
-0.390913 0.339157 0.424430 0.000000 0.000000 1.000000 40 42 45 1.000000
-0.734551 0.023339 0.351585 -1.000000 0.000000 0.000000 128 0 0 1.000000
-0.282113 0.136582 0.470195 0.000000 0.000000 1.000000 128 128 128 0.100000
-0.083659 0.414511 -0.272013 0.000000 1.000000 0.000000 128 0 0 1.000000
-0.677793 -0.311414 -0.157829 -0.707731 -0.706482 0.000000 202 202 202 1.000000
-0.374832 -0.296458 -0.458199 0.000000 0.000000 -1.000000 178 178 178 1.000000
0.038598 0.414344 0.440772 0.000000 0.000000 -1.000000 7 3 1 1.000000
-0.734551 -0.267224 -0.045155 -1.000000 0.000000 0.000000 128 0 0 1.000000
0.403261 -0.149521 0.444594 -1.000000 0.000000 0.000000 40 42 45 1.000000
-0.734551 0.205081 -0.341085 -1.000000 0.000000 0.000000 128 0 0 1.000000
-0.690753 -0.062999 0.489805 0.000000 0.000000 1.000000 128 0 0 1.000000
-0.407517 -0.370046 -0.229689 0.000000 1.000000 0.000000 7 3 1 1.000000
0.385064 -0.148135 0.219750 -0.890097 0.455770 0.000000 201 201 201 1.000000
-0.701583 -0.077795 -0.474547 0.000000 0.000000 1.000000 7 3 1 1.000000
0.380372 -0.311899 -0.133743 0.702932 -0.711257 -0.000000 202 202 202 1.000000
0.505236 -0.370046 0.427653 0.000000 -1.000000 0.000000 128 0 0 1.000000
0.801871 0.349285 -0.004664 -1.000000 0.000000 0.000000 7 3 1 1.000000
-0.676914 0.269628 -0.077328 -0.802381 0.596812 0.000000 167 167 167 1.000000
-0.718489 -0.356715 0.014765 0.678884 0.734245 0.000000 7 3 1 1.000000
-0.541013 -0.370046 -0.082197 0.000000 -1.000000 0.000000 128 0 0 1.000000
0.176918 0.370492 0.489805 0.000000 0.000000 -1.000000 40 42 45 1.000000
-0.313894 0.356072 -0.215441 0.301071 -0.953602 -0.000000 201 201 201 1.000000
-0.462732 0.257616 0.486537 0.000000 0.000000 -1.000000 128 128 128 0.100000
0.161427 0.159782 -0.474547 0.000000 0.000000 1.000000 7 3 1 1.000000
-0.049282 -0.311702 0.073661 0.179254 -0.983803 -0.000000 202 202 202 1.000000
0.507147 -0.370046 -0.054937 0.000000 1.000000 0.000000 7 3 1 1.000000
-0.449713 -0.115822 0.470195 0.000000 0.000000 1.000000 128 128 128 0.100000
-0.440413 0.356107 -0.288910 -0.484093 0.875016 0.000000 204 204 204 1.000000
-0.095693 -0.370046 0.310863 0.000000 1.000000 0.000000 7 3 1 1.000000
0.161046 -0.311798 -0.233293 -0.499864 0.866104 0.000000 201 201 201 1.000000
0.432270 -0.312048 0.466230 0.985876 0.167477 0.000000 40 42 45 1.000000
0.337375 0.414511 0.168822 0.000000 -1.000000 0.000000 7 3 1 1.000000
-0.678164 -0.069753 0.137291 -0.964498 -0.264091 0.000000 167 167 167 1.000000
0.626886 0.308928 -0.474547 0.000000 0.000000 1.000000 7 3 1 1.000000
0.386293 0.196354 -0.414279 0.887299 0.461195 0.000000 234 234 234 1.000000
-0.047097 0.355999 0.276863 0.182748 0.983160 0.000000 204 204 204 1.000000
0.343111 0.272327 0.489805 0.000000 0.000000 -1.000000 40 42 45 1.000000
-0.546594 0.356137 0.000723 -0.601231 0.799076 0.000000 204 204 204 1.000000
0.416486 -0.370046 0.329968 0.000000 1.000000 0.000000 7 3 1 1.000000
-0.437629 -0.370046 0.420676 0.000000 -1.000000 0.000000 128 0 0 1.000000
0.640070 0.069541 0.476730 0.000000 0.000000 -1.000000 128 0 0 1.000000
-0.678257 -0.094899 -0.333684 -0.944140 -0.329545 0.000000 168 168 168 1.000000
-0.033040 -0.370046 -0.107456 0.000000 1.000000 0.000000 7 3 1 1.000000
0.348103 0.414511 0.261880 0.000000 1.000000 0.000000 128 0 0 1.000000
-0.670950 -0.251608 0.489805 0.000000 0.000000 -1.000000 40 42 45 1.000000
-0.678064 -0.042557 -0.064084 -0.981986 -0.188953 0.000000 167 167 167 1.000000
0.425343 -0.275781 -0.474547 0.000000 0.000000 -1.000000 7 3 1 1.000000
0.118735 0.355953 -0.124315 0.445885 0.895090 0.000000 204 204 204 1.000000
0.191754 0.414511 0.335523 0.000000 -1.000000 0.000000 7 3 1 1.000000
0.798922 0.380819 0.130869 0.946622 0.322347 0.000000 128 0 0 1.000000
-0.676705 0.326142 -0.294995 -0.738258 0.674518 0.000000 167 167 167 1.000000
0.425069 0.414511 0.116054 0.000000 -1.000000 0.000000 7 3 1 1.000000
-0.734551 -0.026912 -0.128898 1.000000 0.000000 0.000000 7 3 1 1.000000
0.801871 0.107573 -0.435578 -1.000000 0.000000 0.000000 7 3 1 1.000000
0.146487 0.414511 0.148526 0.000000 1.000000 0.000000 128 0 0 1.000000
-0.438801 -0.029633 -0.458199 0.000000 0.000000 -1.000000 178 178 178 1.000000
-0.625552 0.414511 0.315901 0.000000 -1.000000 0.000000 7 3 1 1.000000
0.385878 0.080675 0.249978 0.985238 0.171189 0.000000 234 234 234 1.000000
0.291828 0.414511 0.098471 0.000000 1.000000 0.000000 128 0 0 1.000000
-0.591106 0.414511 0.110237 0.000000 1.000000 0.000000 128 0 0 1.000000
-0.725822 -0.347989 -0.394744 -0.829364 -0.558709 0.000000 128 0 0 1.000000
0.089489 -0.311766 0.385105 -0.404920 0.914352 0.000000 201 201 201 1.000000
-0.283576 0.161596 -0.458199 0.000000 0.000000 -1.000000 178 178 178 1.000000
-0.640788 0.412404 -0.474547 0.000000 0.000000 -1.000000 7 3 1 1.000000
-0.429667 0.355922 0.489805 0.000000 0.000000 1.000000 128 0 0 1.000000
0.249706 -0.236967 0.088308 -0.419515 -0.899913 -0.119016 128 0 0 1.000000
0.801871 -0.184084 -0.128724 -1.000000 0.000000 0.000000 7 3 1 1.000000
0.230733 -0.236731 -0.190800 -0.334393 -0.931068 0.145924 128 0 0 1.000000
0.371677 0.031723 0.489805 0.000000 0.000000 1.000000 128 0 0 1.000000
-0.533460 0.356133 -0.244148 0.588439 -0.808541 -0.000000 201 201 201 1.000000
0.617132 0.414511 -0.082278 0.000000 -1.000000 0.000000 7 3 1 1.000000
0.737853 0.204919 -0.474547 0.000000 0.000000 1.000000 7 3 1 1.000000
0.486662 0.414511 -0.128680 0.000000 -1.000000 0.000000 7 3 1 1.000000
0.496523 -0.370046 -0.311948 0.000000 -1.000000 0.000000 128 0 0 1.000000
-0.124540 -0.311667 -0.334332 0.040701 -0.999171 -0.000000 202 202 202 1.000000
0.044562 -0.238005 0.341852 0.305110 0.752667 0.583439 128 0 0 1.000000
-0.055673 -0.252785 -0.299279 0.006875 -0.999767 -0.020458 128 0 0 1.000000
0.801871 0.121220 0.098303 -1.000000 0.000000 0.000000 7 3 1 1.000000
0.120649 -0.370046 0.174496 0.000000 -1.000000 0.000000 128 0 0 1.000000
0.166627 -0.252783 -0.015875 0.060109 -0.961107 -0.269555 128 0 0 1.000000
0.385404 -0.052555 0.344402 -0.975538 0.219831 0.000000 201 201 201 1.000000
0.718798 0.414511 -0.019054 0.000000 -1.000000 0.000000 7 3 1 1.000000
-0.678426 -0.140547 -0.053266 -0.899565 -0.436788 0.000000 168 168 168 1.000000
-0.734551 -0.194347 0.361592 -1.000000 0.000000 0.000000 128 0 0 1.000000
0.801871 -0.040886 0.226216 -1.000000 0.000000 0.000000 7 3 1 1.000000
0.042355 0.414511 0.340599 0.000000 1.000000 0.000000 128 0 0 1.000000
-0.734551 0.206766 0.022502 1.000000 0.000000 0.000000 7 3 1 1.000000
0.386018 0.119669 -0.088501 -0.960315 -0.278919 0.000000 201 201 201 1.000000
0.208340 -0.370046 0.389214 0.000000 1.000000 0.000000 7 3 1 1.000000
0.385167 -0.118721 -0.176871 0.920734 -0.390191 -0.000000 234 234 234 1.000000
0.582009 -0.370046 0.164981 0.000000 -1.000000 0.000000 128 0 0 1.000000
-0.734551 0.347340 0.371263 -1.000000 0.000000 0.000000 128 0 0 1.000000
0.008530 0.414511 -0.071922 0.000000 -1.000000 0.000000 7 3 1 1.000000
0.801871 -0.292143 0.233093 1.000000 0.000000 0.000000 128 0 0 1.000000
-0.182925 0.414511 0.294365 0.000000 1.000000 0.000000 128 0 0 1.000000
-0.272705 0.386632 -0.474547 0.000000 0.000000 -1.000000 7 3 1 1.000000
-0.678856 -0.256781 0.076043 0.768418 0.639948 0.000000 201 201 201 1.000000
-0.120044 0.356019 0.089916 -0.048573 -0.998820 0.000000 201 201 201 1.000000
0.519312 -0.370046 0.254698 0.000000 -1.000000 0.000000 128 0 0 1.000000
-0.633689 -0.245499 0.424430 0.000000 0.000000 1.000000 40 42 45 1.000000
-0.734551 0.046324 0.218946 1.000000 0.000000 0.000000 7 3 1 1.000000
-0.437074 -0.311524 -0.272200 0.480324 0.877091 0.000000 201 201 201 1.000000
0.058410 -0.292967 0.262978 -0.265001 0.889334 -0.372638 105 105 105 1.000000
0.061749 -0.311753 0.067327 0.363966 -0.931412 -0.000000 202 202 202 1.000000
-0.734551 0.191462 -0.165255 1.000000 0.000000 0.000000 7 3 1 1.000000
-0.316491 -0.370046 -0.194292 0.000000 1.000000 0.000000 7 3 1 1.000000
0.235977 0.414511 -0.239983 0.000000 -1.000000 0.000000 7 3 1 1.000000
-0.734551 0.257165 0.380796 -1.000000 0.000000 0.000000 128 0 0 1.000000
0.276062 -0.315608 0.489805 0.000000 0.000000 1.000000 128 0 0 1.000000
-0.243948 -0.311613 -0.423120 -0.180858 -0.983509 0.000000 202 202 202 1.000000
-0.250052 -0.236247 0.370614 -0.004125 0.999882 0.014776 128 0 0 1.000000
0.266812 -0.253268 -0.073406 -0.992869 -0.033311 0.114458 128 0 0 1.000000
-0.228314 -0.262634 -0.065593 0.000000 -1.000000 0.000000 128 0 0 1.000000
0.057276 -0.252791 -0.041925 -0.014924 0.999888 0.001151 128 0 0 1.000000
-0.352140 -0.252789 -0.156252 -0.015064 -0.999841 -0.009586 128 0 0 1.000000
0.341768 -0.000502 0.424430 0.000000 0.000000 1.000000 40 42 45 1.000000
-0.606342 -0.113062 0.486537 0.000000 0.000000 -1.000000 128 128 128 0.100000
0.201883 0.414511 -0.329799 0.000000 1.000000 0.000000 128 0 0 1.000000
0.385379 -0.059378 -0.410675 0.971094 -0.238695 -0.000000 234 234 234 1.000000
0.801871 0.197002 0.342276 -1.000000 0.000000 0.000000 7 3 1 1.000000
-0.171562 -0.370046 0.112650 0.000000 1.000000 0.000000 7 3 1 1.000000
-0.312569 0.414511 -0.167955 0.000000 1.000000 0.000000 128 0 0 1.000000
-0.676948 0.259919 -0.226677 0.813601 -0.581423 -0.000000 201 201 201 1.000000
0.385738 0.041030 -0.284501 -0.998488 -0.054979 0.000000 201 201 201 1.000000
-0.676674 0.334025 0.099138 0.729586 -0.683889 -0.000000 201 201 201 1.000000
-0.033791 0.329699 0.424430 0.000000 0.000000 -1.000000 40 42 45 1.000000
0.385395 -0.054736 -0.325478 -0.974153 0.225889 0.000000 201 201 201 1.000000
-0.103216 0.355604 0.489805 0.000000 0.000000 1.000000 128 0 0 1.000000
-0.331081 -0.370046 -0.472359 0.000000 1.000000 0.000000 7 3 1 1.000000
-0.600079 0.412451 0.440772 0.000000 0.000000 -1.000000 7 3 1 1.000000
0.107169 -0.370046 -0.049170 0.000000 1.000000 0.000000 7 3 1 1.000000
-0.734551 -0.046175 0.006416 -1.000000 0.000000 0.000000 128 0 0 1.000000
0.198759 0.414511 -0.409478 0.000000 1.000000 0.000000 128 0 0 1.000000
0.316500 -0.370046 0.296679 0.000000 -1.000000 0.000000 128 0 0 1.000000
-0.358874 -0.366887 0.440772 0.000000 0.000000 1.000000 40 42 45 1.000000
-0.044057 -0.311704 0.421499 0.188578 -0.982058 -0.000000 202 202 202 1.000000
0.385092 -0.139948 0.347863 -0.898886 0.438183 0.000000 201 201 201 1.000000
0.541830 -0.119270 0.493078 0.000000 0.000000 -1.000000 40 42 45 1.000000
-0.066126 -0.252792 -0.195608 0.005884 -0.999908 -0.012227 128 0 0 1.000000
0.801871 -0.264449 -0.379898 1.000000 0.000000 0.000000 128 0 0 1.000000
-0.733020 -0.213045 -0.474547 0.000000 0.000000 1.000000 7 3 1 1.000000
0.019351 0.355980 -0.186230 0.296932 0.954899 0.000000 204 204 204 1.000000
-0.241370 0.414511 -0.343978 0.000000 1.000000 0.000000 128 0 0 1.000000
-0.077321 -0.311689 -0.432704 -0.128433 0.991718 0.000000 201 201 201 1.000000
-0.022855 0.159097 0.486537 0.000000 0.000000 -1.000000 128 128 128 0.100000
0.386190 0.167305 -0.298611 0.917692 0.397292 0.000000 234 234 234 1.000000
-0.241769 -0.370046 -0.296604 0.000000 1.000000 0.000000 7 3 1 1.000000
-0.185684 0.356037 -0.146569 0.074594 -0.997214 -0.000000 201 201 201 1.000000
0.345515 0.082905 0.424430 0.000000 0.000000 1.000000 40 42 45 1.000000
-0.734551 0.135154 0.329762 -1.000000 0.000000 0.000000 128 0 0 1.000000
0.801313 -0.324718 0.309535 -0.984879 0.173241 0.000000 7 3 1 1.000000
-0.532284 0.414511 0.305526 0.000000 -1.000000 0.000000 7 3 1 1.000000
0.765168 -0.368342 -0.299141 0.259513 -0.965739 -0.000000 128 0 0 1.000000
0.275991 0.355909 -0.057961 0.622121 0.782921 0.000000 204 204 204 1.000000
0.801871 0.029340 -0.462021 -1.000000 0.000000 0.000000 7 3 1 1.000000
-0.266884 -0.311602 0.071616 -0.221427 -0.975177 0.000000 202 202 202 1.000000
0.426038 -0.004363 0.424430 0.000000 0.000000 1.000000 40 42 45 1.000000
-0.018571 -0.236275 -0.414678 -0.013586 -0.999125 0.039549 128 0 0 1.000000
-0.678195 -0.077621 0.249136 0.958522 0.285019 0.000000 201 201 201 1.000000
-0.113021 -0.311673 0.124615 0.062274 -0.998059 -0.000000 202 202 202 1.000000
-0.517186 -0.235211 -0.458199 0.000000 0.000000 -1.000000 178 178 178 1.000000
0.503693 0.080510 0.489805 0.000000 0.000000 -1.000000 128 0 0 1.000000
-0.734551 -0.187829 -0.355226 -1.000000 0.000000 0.000000 128 0 0 1.000000
-0.199046 -0.311633 -0.284134 -0.098913 -0.995096 0.000000 202 202 202 1.000000
-0.623604 -0.370046 -0.213639 0.000000 -1.000000 0.000000 128 0 0 1.000000
-0.678688 -0.210853 -0.025695 0.820904 0.571066 0.000000 201 201 201 1.000000
-0.306851 -0.370046 0.369024 0.000000 1.000000 0.000000 7 3 1 1.000000
0.188194 -0.370046 0.210840 0.000000 1.000000 0.000000 7 3 1 1.000000
-0.500548 0.356124 0.336490 0.554349 -0.832284 -0.000000 201 201 201 1.000000
-0.006428 0.355987 -0.030371 0.253827 0.967250 0.000000 204 204 204 1.000000
0.233109 0.355921 0.208751 -0.580943 -0.813944 0.000000 201 201 201 1.000000
-0.042127 -0.311705 -0.043403 -0.192010 0.981393 0.000000 201 201 201 1.000000
-0.159933 -0.311651 -0.220087 0.025815 0.999667 0.000000 201 201 201 1.000000
-0.294902 0.414511 -0.047468 0.000000 1.000000 0.000000 128 0 0 1.000000
0.348807 0.355889 0.383627 0.681803 0.731536 0.000000 204 204 204 1.000000
0.624701 -0.370046 -0.465014 0.000000 -1.000000 0.000000 128 0 0 1.000000
0.139174 -0.226912 0.486537 0.000000 0.000000 -1.000000 128 128 128 0.100000
-0.466199 -0.370046 0.122545 0.000000 -1.000000 0.000000 128 0 0 1.000000
-0.577757 0.356145 -0.138762 0.629813 -0.776747 -0.000000 201 201 201 1.000000
0.388840 0.414511 -0.222668 0.000000 -1.000000 0.000000 7 3 1 1.000000
0.697621 -0.370046 0.082671 0.000000 -1.000000 0.000000 128 0 0 1.000000
0.079273 -0.370046 0.018306 0.000000 -1.000000 0.000000 128 0 0 1.000000
-0.241404 -0.370046 -0.149162 0.000000 1.000000 0.000000 7 3 1 1.000000
0.223775 -0.370046 0.039069 0.000000 1.000000 0.000000 7 3 1 1.000000
-0.428345 -0.311528 0.097498 -0.469105 -0.883142 0.000000 202 202 202 1.000000
0.354235 -0.370046 0.369006 0.000000 -1.000000 0.000000 128 0 0 1.000000
-0.026755 0.355993 -0.389837 -0.218731 -0.975785 0.000000 201 201 201 1.000000
0.555186 0.414511 -0.209705 0.000000 -1.000000 0.000000 7 3 1 1.000000
-0.535396 -0.370046 0.076336 0.000000 1.000000 0.000000 7 3 1 1.000000
-0.433788 -0.252782 0.143588 0.837563 -0.233067 -0.494134 128 0 0 1.000000
0.307521 -0.311865 -0.042349 0.648444 -0.761262 -0.000000 202 202 202 1.000000
-0.734551 -0.050876 0.389002 1.000000 0.000000 0.000000 7 3 1 1.000000
0.090693 0.323221 -0.458199 0.000000 0.000000 1.000000 178 178 178 1.000000
-0.183730 -0.333198 0.424430 0.000000 0.000000 1.000000 40 42 45 1.000000
0.386489 0.251164 0.257809 -0.825559 -0.564316 0.000000 201 201 201 1.000000
0.189538 0.355933 0.024311 0.533998 0.845486 0.000000 204 204 204 1.000000
-0.157626 -0.252683 0.373420 0.005495 0.981079 -0.193529 128 0 0 1.000000
-0.734551 -0.141213 -0.446552 -1.000000 0.000000 0.000000 128 0 0 1.000000
0.119486 0.355953 -0.320590 0.446901 0.894583 0.000000 204 204 204 1.000000
-0.221770 0.356047 0.263427 -0.141204 0.989981 0.000000 204 204 204 1.000000
-0.170677 -0.208891 0.486537 0.000000 0.000000 -1.000000 128 128 128 0.100000
0.744739 -0.370046 0.313619 0.000000 1.000000 0.000000 7 3 1 1.000000
-0.063327 0.033417 -0.474547 0.000000 0.000000 -1.000000 7 3 1 1.000000
0.801871 0.248270 0.167999 -1.000000 0.000000 0.000000 7 3 1 1.000000
0.128094 0.414511 -0.212467 0.000000 1.000000 0.000000 128 0 0 1.000000
0.286933 0.355906 -0.405519 -0.631881 -0.775065 0.000000 201 201 201 1.000000
0.384488 -0.309178 -0.362671 0.708578 -0.705632 -0.000000 234 234 234 1.000000
-0.734551 0.238323 0.227843 -1.000000 0.000000 0.000000 128 0 0 1.000000
-0.111072 0.414511 0.045635 0.000000 -1.000000 0.000000 7 3 1 1.000000
-0.734551 0.278445 -0.135682 -1.000000 0.000000 0.000000 128 0 0 1.000000
0.588818 -0.370046 -0.097760 0.000000 1.000000 0.000000 7 3 1 1.000000
0.130710 -0.311784 0.291815 -0.461505 0.887137 0.000000 201 201 201 1.000000
-0.734551 -0.231019 -0.144792 1.000000 0.000000 0.000000 7 3 1 1.000000
-0.381688 0.249482 -0.474547 0.000000 0.000000 -1.000000 7 3 1 1.000000
-0.286961 -0.091162 -0.474547 0.000000 0.000000 1.000000 7 3 1 1.000000
-0.626868 0.356159 0.370066 0.670144 -0.742231 -0.000000 201 201 201 1.000000
0.384877 -0.199762 -0.358231 0.831907 -0.554915 -0.000000 234 234 234 1.000000
0.237850 -0.311833 -0.394383 0.584944 -0.811074 -0.000000 202 202 202 1.000000
0.317058 0.355898 -0.312441 -0.657266 -0.753659 0.000000 201 201 201 1.000000
0.366699 -0.370046 -0.256693 0.000000 -1.000000 0.000000 128 0 0 1.000000
-0.677235 0.182571 -0.298406 -0.900690 0.434462 0.000000 167 167 167 1.000000
-0.602289 -0.233623 -0.474547 0.000000 0.000000 -1.000000 7 3 1 1.000000
-0.615623 0.356156 0.183568 -0.661392 0.750040 0.000000 204 204 204 1.000000
-0.734551 -0.081877 -0.203570 -1.000000 0.000000 0.000000 128 0 0 1.000000
-0.283039 -0.311595 -0.148321 -0.249339 -0.968416 0.000000 202 202 202 1.000000
0.801871 -0.112125 0.114888 -1.000000 0.000000 0.000000 7 3 1 1.000000
0.181251 0.355935 -0.265640 0.524455 0.851438 0.000000 204 204 204 1.000000
-0.143859 0.414511 0.204125 0.000000 1.000000 0.000000 128 0 0 1.000000
-0.266376 -0.370046 0.207816 0.000000 -1.000000 0.000000 128 0 0 1.000000
0.056063 -0.252787 -0.206793 -0.015043 0.999798 0.013350 128 0 0 1.000000
-0.676658 0.338342 -0.218727 0.724874 -0.688881 -0.000000 201 201 201 1.000000
0.474039 -0.162537 -0.474547 0.000000 0.000000 -1.000000 7 3 1 1.000000
-0.446430 -0.252784 -0.088351 -0.022459 -0.999737 -0.004687 128 0 0 1.000000
-0.695457 -0.152965 0.481612 1.000000 0.000000 0.000000 40 42 45 1.000000
0.801871 0.250166 -0.219251 1.000000 0.000000 0.000000 128 0 0 1.000000
0.378736 0.184400 0.489805 0.000000 0.000000 -1.000000 40 42 45 1.000000
-0.387324 -0.370046 0.044986 0.000000 1.000000 0.000000 7 3 1 1.000000
-0.018821 -0.370046 -0.270759 0.000000 1.000000 0.000000 7 3 1 1.000000
-0.470794 -0.311509 -0.204299 -0.521503 -0.853249 0.000000 202 202 202 1.000000
0.801871 0.183311 -0.361156 1.000000 0.000000 0.000000 128 0 0 1.000000
0.749400 0.182233 0.489805 0.000000 0.000000 -1.000000 128 0 0 1.000000
-0.536970 0.356134 -0.075937 0.591905 -0.806008 -0.000000 201 201 201 1.000000
-0.281655 0.356063 0.357758 0.247239 -0.968955 -0.000000 201 201 201 1.000000
-0.050348 0.170638 -0.458199 0.000000 0.000000 1.000000 178 178 178 1.000000
0.724223 -0.014258 0.489805 0.000000 0.000000 -1.000000 128 0 0 1.000000
-0.124412 0.356020 -0.014933 -0.040384 -0.999184 0.000000 201 201 201 1.000000
0.345512 -0.370046 0.010830 0.000000 1.000000 0.000000 7 3 1 1.000000
0.133808 -0.311786 -0.137490 -0.465550 0.885022 0.000000 201 201 201 1.000000
0.006154 0.355984 0.142927 0.275074 0.961423 0.000000 204 204 204 1.000000
-0.734551 0.056995 -0.278054 -1.000000 0.000000 0.000000 128 0 0 1.000000
-0.526186 -0.311483 0.198675 -0.581972 -0.813209 0.000000 202 202 202 1.000000
-0.677550 0.096677 -0.298692 -0.975674 0.219227 0.000000 167 167 167 1.000000
-0.442327 -0.102096 -0.474547 0.000000 0.000000 -1.000000 7 3 1 1.000000
-0.611486 -0.311444 0.007208 -0.659181 -0.751984 0.000000 202 202 202 1.000000
-0.633234 -0.311435 -0.420988 -0.676115 -0.736796 0.000000 202 202 202 1.000000
0.268755 -0.154880 0.470195 0.000000 0.000000 -1.000000 128 128 128 0.100000
0.801871 -0.187946 -0.000879 1.000000 0.000000 0.000000 128 0 0 1.000000
-0.630974 0.157665 0.438714 -0.903367 0.428869 0.000000 40 42 45 1.000000
0.386635 0.292261 -0.387742 -0.778475 -0.627676 0.000000 201 201 201 1.000000
0.801871 -0.245209 -0.261943 -1.000000 0.000000 0.000000 7 3 1 1.000000
0.236709 -0.311833 -0.042106 0.583803 -0.811896 -0.000000 202 202 202 1.000000
-0.567089 -0.028054 0.470195 0.000000 0.000000 1.000000 128 128 128 0.100000
0.272140 -0.370046 0.123810 0.000000 -1.000000 0.000000 128 0 0 1.000000
-0.678048 -0.038277 -0.392169 -0.984250 -0.176780 0.000000 167 167 167 1.000000
0.221486 -0.262954 0.489805 0.000000 0.000000 -1.000000 40 42 45 1.000000
0.230141 0.059456 -0.458199 0.000000 0.000000 1.000000 178 178 178 1.000000
-0.389578 0.114590 -0.458199 0.000000 0.000000 -1.000000 178 178 178 1.000000
-0.303852 -0.262634 -0.097423 0.000000 -1.000000 0.000000 128 0 0 1.000000
-0.371871 0.414511 0.098627 0.000000 1.000000 0.000000 128 0 0 1.000000
-0.731147 0.381914 0.033333 -0.938598 0.345013 0.000000 128 0 0 1.000000
-0.452709 -0.246470 -0.309280 0.731596 -0.057487 0.679310 128 0 0 1.000000
-0.734551 0.335924 -0.422353 1.000000 0.000000 0.000000 7 3 1 1.000000
0.158637 -0.311797 0.147922 -0.496917 0.867798 0.000000 201 201 201 1.000000
-0.305994 0.231683 -0.474547 0.000000 0.000000 1.000000 7 3 1 1.000000
0.024579 -0.252792 0.056683 -0.297266 -0.634816 0.713191 128 0 0 1.000000
0.033791 -0.326637 0.485359 0.000000 -1.000000 0.000000 40 42 45 1.000000
-0.150350 -0.262634 0.232463 0.000000 1.000000 0.000000 128 0 0 1.000000
-0.354590 -0.311562 -0.117557 -0.365133 -0.930956 0.000000 202 202 202 1.000000
-0.312023 0.414511 0.435547 0.000000 1.000000 0.000000 128 0 0 1.000000
-0.090593 0.286528 0.486537 0.000000 0.000000 -1.000000 128 128 128 0.100000
0.634191 0.096959 -0.474547 0.000000 0.000000 1.000000 7 3 1 1.000000
-0.488876 -0.311501 0.258326 0.542204 0.840247 0.000000 201 201 201 1.000000
-0.103350 0.414511 0.439980 0.000000 -1.000000 0.000000 7 3 1 1.000000
-0.595698 -0.370046 0.119670 0.000000 1.000000 0.000000 7 3 1 1.000000
0.134117 -0.002667 -0.474547 0.000000 0.000000 1.000000 7 3 1 1.000000
-0.676992 0.247849 0.291279 0.827553 -0.561388 -0.000000 201 201 201 1.000000
-0.111022 0.237768 -0.474547 0.000000 0.000000 -1.000000 7 3 1 1.000000
-0.164557 0.414511 -0.229751 0.000000 1.000000 0.000000 128 0 0 1.000000
0.642296 -0.263156 0.493078 0.000000 0.000000 -1.000000 178 178 178 1.000000
0.268540 0.414511 0.362964 0.000000 -1.000000 0.000000 7 3 1 1.000000
-0.331894 -0.262634 -0.024728 0.000000 1.000000 0.000000 128 0 0 1.000000
-0.734551 0.068160 0.146968 1.000000 0.000000 0.000000 7 3 1 1.000000
0.338859 -0.131519 0.424430 0.000000 0.000000 1.000000 40 42 45 1.000000
0.254947 0.242763 0.486537 0.000000 0.000000 -1.000000 128 128 128 0.100000
-0.677843 0.017413 0.393828 -0.999917 -0.012847 0.000000 167 167 167 1.000000
-0.678734 -0.224075 0.234546 0.805707 0.592314 0.000000 201 201 201 1.000000
0.529363 0.414511 0.432361 0.000000 1.000000 0.000000 128 0 0 1.000000
-0.175287 0.356034 -0.438109 0.055169 -0.998477 -0.000000 201 201 201 1.000000
0.759008 0.128388 0.442218 -1.000000 0.000000 0.000000 40 42 45 1.000000
-0.676786 0.304257 0.244765 0.762741 -0.646705 -0.000000 201 201 201 1.000000
-0.150740 0.101084 -0.474547 0.000000 0.000000 -1.000000 7 3 1 1.000000
-0.517722 -0.250636 -0.181198 -0.871851 -0.325563 -0.365902 128 0 0 1.000000
0.447104 -0.370046 -0.119078 0.000000 1.000000 0.000000 7 3 1 1.000000
-0.385102 0.011365 0.470195 0.000000 0.000000 -1.000000 128 128 128 0.100000
0.068733 -0.311756 -0.081555 0.374493 -0.927230 -0.000000 202 202 202 1.000000
-0.147859 -0.308635 -0.458199 0.000000 0.000000 -1.000000 178 178 178 1.000000
0.465213 -0.370046 0.122270 0.000000 -1.000000 0.000000 128 0 0 1.000000
-0.164884 0.356031 -0.337805 -0.035669 0.999364 0.000000 204 204 204 1.000000
-0.695457 0.044407 0.487803 1.000000 0.000000 0.000000 40 42 45 1.000000
0.386938 0.155281 -0.474547 0.000000 0.000000 -1.000000 7 3 1 1.000000
0.384671 -0.258148 -0.224969 0.764784 -0.644286 -0.000000 234 234 234 1.000000
0.315627 -0.311869 0.034212 0.655071 -0.755567 -0.000000 202 202 202 1.000000
-0.520675 -0.311486 -0.124814 0.576340 0.817210 0.000000 201 201 201 1.000000
0.110099 -0.311775 -0.011098 -0.433854 0.900983 0.000000 201 201 201 1.000000
0.331869 -0.370046 -0.329076 0.000000 1.000000 0.000000 7 3 1 1.000000
-0.296251 0.414511 0.112631 0.000000 -1.000000 0.000000 7 3 1 1.000000
-0.112749 0.208373 0.486537 0.000000 0.000000 -1.000000 128 128 128 0.100000
0.003610 -0.370046 -0.346266 0.000000 -1.000000 0.000000 128 0 0 1.000000
0.204184 -0.370046 -0.228379 0.000000 1.000000 0.000000 7 3 1 1.000000
-0.406678 -0.311538 -0.062339 0.440267 0.897867 0.000000 201 201 201 1.000000
0.801871 -0.136768 -0.189242 1.000000 0.000000 0.000000 128 0 0 1.000000
-0.502113 -0.370046 0.306087 0.000000 1.000000 0.000000 7 3 1 1.000000
-0.101744 -0.370046 -0.136917 0.000000 -1.000000 0.000000 128 0 0 1.000000
-0.499114 0.356124 -0.417403 -0.552796 0.833316 0.000000 204 204 204 1.000000
0.245239 0.414511 -0.077777 0.000000 1.000000 0.000000 128 0 0 1.000000
-0.671586 -0.370046 -0.103434 0.000000 -1.000000 0.000000 128 0 0 1.000000
-0.638029 -0.370046 0.327773 0.000000 -1.000000 0.000000 128 0 0 1.000000
-0.000443 -0.311724 0.189310 -0.264231 0.964460 0.000000 201 201 201 1.000000
-0.546578 -0.236701 0.077989 -0.342575 0.935275 0.088904 128 0 0 1.000000
0.095728 -0.311768 -0.211077 0.413816 -0.910361 -0.000000 202 202 202 1.000000
0.386960 0.414511 -0.399071 0.000000 1.000000 0.000000 128 0 0 1.000000
0.228984 0.355922 -0.368095 0.576727 0.816937 0.000000 204 204 204 1.000000
0.270700 -0.021603 -0.474547 0.000000 0.000000 1.000000 7 3 1 1.000000
-0.336215 -0.321099 0.489805 0.000000 0.000000 1.000000 128 0 0 1.000000
-0.734551 -0.282164 -0.471891 1.000000 0.000000 0.000000 7 3 1 1.000000
-0.414092 0.115633 0.470195 0.000000 0.000000 1.000000 128 128 128 0.100000
0.308472 0.357426 -0.474547 0.000000 0.000000 -1.000000 7 3 1 1.000000
0.313145 -0.311868 0.259891 0.653059 -0.757307 -0.000000 202 202 202 1.000000
-0.001456 -0.252792 -0.163790 -0.010417 0.999897 0.009829 128 0 0 1.000000
-0.206974 -0.311630 -0.160903 0.113572 0.993530 0.000000 201 201 201 1.000000
0.512700 0.218713 -0.474547 0.000000 0.000000 -1.000000 7 3 1 1.000000
-0.028588 -0.262634 0.295151 0.000000 1.000000 0.000000 128 0 0 1.000000
-0.734551 0.108136 -0.221477 -1.000000 0.000000 0.000000 128 0 0 1.000000
-0.677282 0.169344 0.142827 -0.914413 0.404783 0.000000 167 167 167 1.000000
0.801871 -0.091053 -0.011953 -1.000000 0.000000 0.000000 7 3 1 1.000000
-0.146774 -0.311657 0.292052 0.001075 0.999999 0.000000 201 201 201 1.000000
-0.383583 0.414511 -0.383216 0.000000 1.000000 0.000000 128 0 0 1.000000
0.732338 0.414511 0.116229 0.000000 1.000000 0.000000 128 0 0 1.000000
0.279333 0.355908 0.138619 0.625134 0.780517 0.000000 204 204 204 1.000000
-0.734551 -0.150658 0.238524 1.000000 0.000000 0.000000 7 3 1 1.000000
0.626497 -0.139513 -0.474547 0.000000 0.000000 1.000000 7 3 1 1.000000
0.110249 -0.370046 -0.417378 0.000000 -1.000000 0.000000 128 0 0 1.000000
-0.678619 -0.192211 0.159226 -0.842285 -0.539032 0.000000 168 168 168 1.000000
-0.260849 -0.262153 0.433065 0.230296 0.973121 0.000000 128 0 0 1.000000
-0.109635 0.414511 0.301611 0.000000 1.000000 0.000000 128 0 0 1.000000
0.564062 -0.013131 -0.474547 0.000000 0.000000 1.000000 7 3 1 1.000000
-0.301240 -0.024245 -0.474547 0.000000 0.000000 1.000000 7 3 1 1.000000
-0.536615 -0.311479 0.367098 0.592405 0.805640 0.000000 201 201 201 1.000000
-0.432117 -0.311527 0.024953 -0.473983 -0.880534 0.000000 202 202 202 1.000000
0.568364 -0.258960 -0.474547 0.000000 0.000000 -1.000000 7 3 1 1.000000
0.577514 -0.370046 -0.195196 0.000000 -1.000000 0.000000 128 0 0 1.000000
-0.310994 0.414511 0.273665 0.000000 1.000000 0.000000 128 0 0 1.000000
0.075538 -0.311759 -0.395218 0.384608 -0.923080 -0.000000 202 202 202 1.000000
0.750267 -0.250051 0.489805 0.000000 0.000000 1.000000 128 0 0 1.000000
-0.013805 0.414511 0.256069 0.000000 -1.000000 0.000000 7 3 1 1.000000
0.474837 0.072768 -0.474547 0.000000 0.000000 -1.000000 7 3 1 1.000000
-0.734551 -0.280148 0.244541 1.000000 0.000000 0.000000 7 3 1 1.000000
-0.562852 0.414511 -0.202566 0.000000 1.000000 0.000000 128 0 0 1.000000
0.042576 0.271532 -0.458199 0.000000 0.000000 1.000000 178 178 178 1.000000
-0.734551 -0.270415 0.396839 1.000000 0.000000 0.000000 7 3 1 1.000000
-0.734551 -0.231447 -0.266513 1.000000 0.000000 0.000000 7 3 1 1.000000
-0.488321 0.414511 -0.197029 0.000000 1.000000 0.000000 128 0 0 1.000000
0.338778 -0.244080 0.424897 -0.729897 0.683557 0.000000 128 0 0 1.000000
0.474139 -0.370046 -0.184734 0.000000 1.000000 0.000000 7 3 1 1.000000
-0.144445 -0.252782 -0.363862 -0.000216 0.999674 0.025542 128 0 0 1.000000
0.000951 -0.145943 -0.474547 0.000000 0.000000 -1.000000 7 3 1 1.000000
0.801871 0.321674 0.392512 -1.000000 0.000000 0.000000 7 3 1 1.000000
-0.613525 0.356155 -0.279158 0.659728 -0.751504 -0.000000 201 201 201 1.000000
-0.501246 0.356124 -0.153178 0.555102 -0.831782 -0.000000 201 201 201 1.000000
0.435035 0.101817 0.489805 0.000000 0.000000 -1.000000 128 0 0 1.000000
0.076907 0.414511 -0.037847 0.000000 1.000000 0.000000 128 0 0 1.000000
0.757923 0.311910 0.489805 0.000000 0.000000 -1.000000 128 0 0 1.000000
-0.170346 -0.252800 -0.101670 -0.001468 -0.999988 -0.004712 128 0 0 1.000000
0.374767 0.414511 -0.026823 0.000000 1.000000 0.000000 128 0 0 1.000000
0.258938 0.355914 -0.124845 0.606319 0.795222 0.000000 204 204 204 1.000000
-0.175225 -0.090458 0.486537 0.000000 0.000000 1.000000 128 128 128 0.100000
-0.391739 0.016279 -0.474547 0.000000 0.000000 -1.000000 7 3 1 1.000000
-0.316372 -0.370046 -0.038259 0.000000 1.000000 0.000000 7 3 1 1.000000
-0.100323 -0.370046 0.156464 0.000000 -1.000000 0.000000 128 0 0 1.000000
-0.734551 0.156942 -0.468624 -1.000000 0.000000 0.000000 128 0 0 1.000000
-0.734551 0.275587 -0.344290 1.000000 0.000000 0.000000 7 3 1 1.000000
-0.581498 0.414511 -0.090652 0.000000 -1.000000 0.000000 7 3 1 1.000000
-0.670270 0.356171 -0.368077 0.701454 -0.712715 -0.000000 201 201 201 1.000000
0.106187 -0.235580 -0.458199 0.000000 0.000000 1.000000 178 178 178 1.000000
0.163116 0.299904 0.486537 0.000000 0.000000 -1.000000 128 128 128 0.100000
-0.196222 0.158534 -0.458199 0.000000 0.000000 -1.000000 178 178 178 1.000000
0.801871 -0.024437 -0.357433 -1.000000 0.000000 0.000000 7 3 1 1.000000
-0.513361 -0.252780 -0.040622 0.027758 0.999614 0.001130 128 0 0 1.000000
0.321784 -0.311872 0.382879 0.660007 -0.751259 -0.000000 202 202 202 1.000000
-0.059149 -0.370046 0.029629 0.000000 1.000000 0.000000 7 3 1 1.000000
-0.319019 0.274651 0.470195 0.000000 0.000000 -1.000000 128 128 128 0.100000
0.801871 -0.286250 -0.316132 -1.000000 0.000000 0.000000 7 3 1 1.000000
0.041445 -0.239572 0.486537 0.000000 0.000000 -1.000000 128 128 128 0.100000
-0.500675 -0.131565 -0.458199 0.000000 0.000000 -1.000000 178 178 178 1.000000
0.038545 0.355975 0.307478 0.327906 0.944710 0.000000 204 204 204 1.000000
0.001740 0.027484 -0.458199 0.000000 0.000000 -1.000000 178 178 178 1.000000
-0.734551 -0.001623 -0.389158 -1.000000 0.000000 0.000000 128 0 0 1.000000
-0.734551 0.244769 0.153128 -1.000000 0.000000 0.000000 128 0 0 1.000000
-0.082447 -0.326637 0.485764 0.000000 -1.000000 0.000000 40 42 45 1.000000
0.344143 -0.370046 -0.135963 0.000000 -1.000000 0.000000 128 0 0 1.000000
0.611433 -0.058292 0.476730 0.000000 0.000000 -1.000000 40 42 45 1.000000
0.038545 0.087030 -0.458199 0.000000 0.000000 1.000000 178 178 178 1.000000
-0.280604 0.371664 0.480265 -0.000022 -1.000000 0.000000 40 42 45 1.000000
0.790854 -0.350970 0.182165 0.784319 -0.620358 -0.000000 128 0 0 1.000000
-0.047028 -0.252789 0.187097 0.007404 -0.999850 0.015646 128 0 0 1.000000
-0.308129 0.356071 0.017876 0.291640 -0.956528 -0.000000 201 201 201 1.000000
0.119546 -0.370046 0.260559 0.000000 -1.000000 0.000000 128 0 0 1.000000
-0.625328 -0.311438 -0.317585 -0.670079 -0.742290 0.000000 202 202 202 1.000000
0.378661 -0.104426 0.489805 0.000000 0.000000 1.000000 128 0 0 1.000000
-0.612985 -0.311444 -0.174789 0.660382 0.750930 0.000000 201 201 201 1.000000
-0.268243 0.032387 0.470195 0.000000 0.000000 1.000000 128 128 128 0.100000
0.801871 0.075275 0.298293 -1.000000 0.000000 0.000000 7 3 1 1.000000
0.386236 0.180614 0.216851 -0.904075 -0.427373 0.000000 201 201 201 1.000000
-0.476150 0.356117 -0.043010 0.527116 -0.849793 -0.000000 201 201 201 1.000000
-0.226153 0.414511 0.150060 0.000000 -1.000000 0.000000 7 3 1 1.000000
-0.337515 -0.370046 0.305514 0.000000 1.000000 0.000000 7 3 1 1.000000
-0.037579 0.355996 0.210690 -0.199686 -0.979860 0.000000 201 201 201 1.000000
0.033542 -0.252783 -0.295089 0.013597 -0.999702 -0.020256 128 0 0 1.000000
-0.074279 -0.089217 -0.458199 0.000000 0.000000 1.000000 178 178 178 1.000000
0.069693 0.307190 0.426624 -0.406595 -0.913609 0.000000 128 0 0 1.000000
0.216389 0.355926 -0.439157 -0.563559 -0.826076 0.000000 201 201 201 1.000000
-0.246810 -0.091285 0.470195 0.000000 0.000000 -1.000000 128 128 128 0.100000
-0.144056 -0.311658 -0.044818 0.004036 -0.999992 -0.000000 202 202 202 1.000000
-0.201070 0.040530 -0.474547 0.000000 0.000000 1.000000 7 3 1 1.000000
-0.382075 -0.311550 0.150634 -0.405791 -0.913966 0.000000 202 202 202 1.000000
-0.677381 0.142229 0.296286 0.940494 -0.339811 -0.000000 201 201 201 1.000000
0.235556 0.414511 -0.173361 0.000000 1.000000 0.000000 128 0 0 1.000000
-0.102359 0.414511 0.139673 0.000000 -1.000000 0.000000 7 3 1 1.000000
-0.677060 0.229605 0.361611 -0.848541 0.529129 0.000000 167 167 167 1.000000
0.310156 -0.097817 0.486537 0.000000 0.000000 -1.000000 128 128 128 0.100000
-0.734551 -0.112244 -0.142721 1.000000 0.000000 0.000000 7 3 1 1.000000
0.020969 0.414511 -0.223896 0.000000 1.000000 0.000000 128 0 0 1.000000
-0.305442 -0.311585 -0.248188 0.287041 0.957918 0.000000 201 201 201 1.000000
