ply
format ascii 1.0
element vertex 1270
property float x
property float y
property float z
property uchar red
property uchar green
property uchar blue
end_header
-0.371748 0.381513 -0.061502 76 0 153
-0.748081 0.295485 -0.402722 76 0 153
0.796669 -0.203433 -0.280275 76 153 0
0.088749 -0.186083 0.428631 127 0 127
-0.149008 -0.388583 -0.120607 153 76 0
0.382680 0.154027 0.402378 127 0 127
0.546419 0.319689 -0.402722 255 0 0
-0.687128 -0.388583 -0.272831 153 76 0
-0.799776 -0.197734 0.402378 127 0 127
-0.313555 -0.065272 0.402378 127 0 127
0.831674 0.080534 -0.135398 76 153 0
0.414510 -0.072360 0.428631 127 0 127
-0.465651 0.346509 -0.290380 76 0 153
0.849176 0.154686 0.392091 153 0 76
-0.501608 -0.275481 -0.437727 0 0 255
-0.600858 -0.399735 -0.437727 0 0 255
0.379113 -0.353578 -0.121014 153 76 0
0.796669 -0.359839 -0.071937 76 153 0
0.708732 -0.134547 0.402378 127 0 127
-0.552450 -0.036941 -0.402722 76 0 153
-0.114247 -0.246728 -0.402722 0 0 255
-0.604343 0.381513 -0.019462 76 0 153
-0.454468 0.232714 -0.376469 76 0 153
-0.544437 -0.222413 -0.402722 76 0 153
0.016837 0.346509 0.152154 76 0 153
0.200703 -0.061669 -0.376469 76 0 153
-0.013935 0.349202 0.531836 0 127 127
0.686187 0.403391 0.429495 127 0 127
-0.220773 -0.229109 0.402378 127 0 127
-0.592460 0.293762 0.454884 127 0 127
0.258559 0.411925 -0.437727 255 0 0
0.607842 -0.353578 0.019010 153 76 0
0.561457 0.003903 0.428631 127 0 127
0.771555 0.346509 0.114782 76 0 153
-0.778526 0.260010 0.175163 153 0 76
-0.383129 0.403391 0.452560 127 0 127
-0.778526 0.416089 0.245918 153 0 76
0.514646 0.381513 0.031774 76 0 153
0.796669 0.229398 -0.112675 76 153 0
-0.345528 0.259836 -0.402722 255 0 0
-0.703347 0.381513 -0.209389 76 0 153
0.796669 0.297421 0.043717 76 153 0
0.311006 0.163748 0.428631 127 0 127
0.768974 -0.168745 -0.376469 76 0 153
-0.803297 -0.423586 0.370272 204 51 127
0.064899 0.381513 -0.178003 76 0 153
0.049238 -0.320122 -0.376469 76 0 153
-0.003819 0.118372 0.402378 127 0 127
0.533389 -0.388583 0.013989 153 76 0
0.178504 -0.388583 0.229358 153 76 0
0.509041 -0.017187 -0.402722 76 0 153
-0.580522 -0.353578 0.002370 153 76 0
0.161034 -0.388583 -0.201658 153 76 0
-0.419513 -0.326488 -0.376469 76 0 153
-0.061974 0.330220 0.454884 127 0 127
-0.017175 0.346509 0.250674 76 0 153
-0.419628 -0.256630 -0.437727 0 0 255
0.647992 0.258321 0.454884 127 0 127
0.794255 0.346509 0.341371 153 0 76
-0.407624 0.381513 0.123616 76 0 153
-0.533651 0.346509 0.150902 76 0 153
0.224861 -0.388583 -0.317731 153 76 0
-0.332628 -0.203407 -0.402722 0 0 255
0.831674 -0.285384 0.193813 76 153 0
0.198621 -0.300418 -0.376469 76 0 153
0.806083 0.006187 0.402378 153 0 76
-0.642580 -0.388583 -0.229946 153 76 0
-0.023548 0.311504 0.380422 127 0 127
0.082146 -0.353578 -0.263593 153 76 0
0.796669 0.015228 -0.159579 76 153 0
-0.726020 -0.071011 0.360481 204 51 127
-0.158664 -0.388583 0.208949 153 76 0
-0.813531 -0.394479 0.288091 153 0 76
0.601634 0.389625 0.402378 127 127 0
0.747967 0.010764 0.402378 127 0 127
0.108978 0.311504 0.370375 127 127 0
-0.335324 -0.060896 -0.376469 76 0 153
-0.813531 -0.051285 -0.372783 153 0 76
-0.284865 0.208967 -0.376469 76 0 153
-0.601120 -0.353578 0.054462 153 76 0
-0.813531 0.372791 0.076009 153 0 76
0.358985 -0.068707 -0.402722 76 0 153
0.441653 0.079755 0.428631 127 0 127
0.831674 -0.241079 0.076058 76 153 0
-0.464404 0.098670 -0.402722 76 0 153
0.225318 0.330383 -0.437727 255 0 0
-0.778526 0.257266 -0.323409 153 0 76
-0.203999 0.001265 -0.402722 76 0 153
0.046769 0.189407 0.402378 127 0 127
0.044421 0.346509 0.109205 76 0 153
-0.256205 0.255080 -0.402722 76 0 153
-0.153959 0.199896 0.402378 127 0 127
-0.644898 -0.353578 -0.107358 153 76 0
0.006174 0.250995 0.402378 127 0 127
0.217291 0.333844 0.402378 127 127 0
-0.600385 0.001566 -0.376469 76 0 153
-0.778526 -0.376747 -0.281721 153 0 76
0.390125 -0.110009 0.402378 127 0 127
-0.168562 -0.029297 -0.376469 76 0 153
0.831674 -0.042231 -0.043139 76 153 0
-0.778526 -0.073740 0.190486 153 0 76
0.037410 -0.262115 0.402378 127 0 127
0.765935 0.259164 -0.376469 76 0 153
-0.402654 0.186936 -0.402722 76 0 153
0.796669 -0.289867 0.148464 76 153 0
-0.813531 0.163191 -0.237447 153 0 76
0.397879 0.001692 -0.376469 76 0 153
-0.275536 0.381513 0.291013 76 0 153
0.180011 0.381426 0.402378 127 0 127
0.153919 0.346509 -0.340391 76 0 153
0.184595 0.176835 0.428631 127 0 127
0.024556 -0.152579 -0.376469 76 0 153
0.831674 0.220690 0.015545 76 153 0
-0.516987 0.126676 -0.376469 76 0 153
-0.720239 0.346509 -0.281452 76 0 153
-0.120338 0.042717 0.428631 127 0 127
0.529338 -0.388583 -0.213073 153 76 0
-0.831033 0.213803 0.372221 204 51 127
-0.724404 -0.353578 -0.228772 153 76 0
-0.813531 -0.398360 -0.187505 153 0 76
-0.642095 0.346509 0.090990 76 0 153
0.384899 0.265150 0.402378 127 0 127
-0.813531 0.055434 -0.187468 153 0 76
-0.831033 0.140282 0.377563 204 51 127
0.744845 0.145196 0.402378 153 0 76
-0.813531 -0.317485 0.053302 153 0 76
0.831674 -0.250474 -0.128820 76 153 0
-0.185122 -0.369523 0.454884 127 0 127
0.796669 0.242063 0.279862 76 153 0
-0.813531 -0.017488 0.262450 153 0 76
-0.161820 0.146575 0.428631 127 0 127
0.316501 -0.410460 0.453312 127 0 127
0.243901 -0.388583 0.075579 153 76 0
0.836049 -0.168290 0.416400 127 0 127
0.238847 -0.269068 -0.402722 76 0 153
0.466133 0.346509 0.254999 76 0 153
0.172330 0.234087 -0.376469 76 0 153
-0.041866 -0.325853 -0.376469 76 0 153
0.628025 0.225661 -0.402722 76 0 153
-0.549898 0.346509 0.318794 76 0 153
-0.661057 -0.372899 0.349871 0 255 0
0.192244 0.226039 -0.402722 76 0 153
0.775477 -0.353578 0.278481 153 76 0
0.553704 0.137497 -0.402722 76 0 153
-0.435745 -0.353578 -0.380093 153 76 0
0.503691 0.179195 -0.402722 76 0 153
-0.726020 -0.338069 0.380813 204 51 127
0.584446 -0.353578 0.238033 153 76 0
-0.601096 0.381513 -0.148562 76 0 153
-0.667608 -0.388583 0.037766 153 76 0
0.690173 -0.028706 0.454884 127 0 127
-0.107322 0.297642 -0.437727 255 0 0
-0.012872 -0.347309 -0.402722 153 76 0
-0.813531 0.212763 -0.210283 153 0 76
-0.165251 -0.353578 0.303552 153 76 0
-0.813531 0.321684 -0.357785 153 0 76
-0.609023 -0.248763 0.454884 127 0 127
0.193794 -0.035749 0.428631 127 0 127
0.820349 0.416517 -0.225672 76 153 0
-0.341755 0.381513 -0.312626 76 0 153
0.653088 0.228323 -0.437727 255 0 0
-0.457584 -0.245739 -0.376469 76 0 153
-0.390003 0.034701 0.402378 127 0 127
-0.251165 -0.338313 -0.376469 76 0 153
0.492025 0.346509 0.049464 76 0 153
-0.813531 0.286312 0.031197 153 0 76
-0.453016 -0.353578 -0.183834 153 76 0
0.187680 -0.096682 0.402378 127 0 127
0.632428 -0.037465 0.454884 127 0 127
0.522153 -0.284118 -0.437727 0 0 255
0.327962 -0.273671 -0.437727 0 0 255
0.782416 0.381513 0.046603 76 0 153
0.357414 -0.048508 -0.376469 76 0 153
-0.566692 0.361280 0.454884 127 0 127
0.463321 0.238421 0.444591 127 0 127
0.476881 -0.388583 0.114815 153 76 0
-0.090479 -0.307602 -0.376469 76 0 153
0.428320 0.240049 -0.402722 255 0 0
-0.813531 0.087017 0.075749 153 0 76
0.196204 0.321952 -0.376469 76 0 153
-0.813531 0.217279 -0.028362 153 0 76
-0.348789 -0.388583 0.283206 153 76 0
0.348799 0.085266 0.402378 127 0 127
0.569676 -0.423587 -0.436458 0 0 255
-0.496948 -0.388583 -0.211945 153 76 0
-0.436337 -0.151862 -0.402722 76 0 153
0.246749 0.346509 -0.342335 76 0 153
-0.192351 -0.353578 -0.375412 153 76 0
-0.306638 -0.388583 0.179928 153 76 0
-0.649444 -0.388583 0.154732 153 76 0
-0.640758 -0.213695 -0.437727 0 0 255
-0.484697 0.142319 -0.376469 76 0 153
0.796669 0.242990 -0.369615 76 153 0
0.821268 0.215133 0.402378 127 0 127
-0.446126 0.279420 -0.376469 76 0 153
0.475080 -0.388583 -0.105925 153 76 0
0.456868 0.416517 0.375953 127 127 0
-0.638045 0.346509 0.136263 76 0 153
-0.091203 0.381513 -0.019865 76 0 153
0.831674 -0.055161 -0.344947 76 153 0
0.472338 0.082156 -0.376469 76 0 153
-0.164969 0.381513 -0.319738 76 0 153
0.796669 0.338964 0.099569 76 153 0
0.836049 0.180601 0.431337 127 0 127
-0.397373 -0.310562 0.454884 127 0 127
-0.813531 -0.082859 -0.350091 153 0 76
0.360832 -0.388583 -0.310423 153 76 0
0.831674 -0.387003 0.285130 76 153 0
-0.506496 -0.254555 -0.402722 76 0 153
0.831674 0.209622 -0.105314 76 153 0
-0.670930 -0.353578 -0.060329 153 76 0
0.831674 0.305677 0.079731 76 153 0
-0.101063 0.346509 0.063637 76 0 153
0.642017 0.340829 0.349871 127 127 0
-0.831033 0.260107 0.351749 204 51 127
0.759504 0.185110 -0.402722 76 0 153
0.246880 0.163671 -0.376469 76 0 153
-0.557324 -0.353578 0.035210 153 76 0
0.618606 -0.397224 0.402378 127 0 127
-0.610054 -0.388583 0.029768 153 76 0
0.458007 0.381513 -0.296658 76 0 153
-0.548287 -0.388583 -0.118082 153 76 0
0.775745 0.316881 -0.376469 76 0 153
0.299734 -0.353578 -0.129360 153 76 0
0.051536 0.071801 -0.376469 76 0 153
0.555022 -0.400429 0.349871 0 255 0
0.120296 -0.391943 0.402378 0 255 0
0.645535 -0.343583 0.402378 0 255 0
0.665684 -0.034170 -0.402722 76 0 153
-0.082606 -0.143944 0.402378 127 0 127
0.831674 0.104931 0.201707 76 153 0
0.184047 -0.354435 0.349871 0 255 0
-0.214511 0.067564 0.428631 127 0 127
-0.778526 0.262869 0.046909 153 0 76
-0.778526 0.250327 -0.180247 153 0 76
0.310356 -0.160266 0.402378 127 0 127
-0.668563 0.346509 -0.291815 76 0 153
0.400031 0.223292 -0.402722 76 0 153
0.442919 0.346509 -0.041789 76 0 153
0.760376 0.416517 0.398268 153 0 76
0.430863 -0.073766 0.402378 127 0 127
0.000146 -0.353578 0.165550 153 76 0
-0.110167 0.413685 -0.437727 255 0 0
0.613307 0.346509 0.052737 76 0 153
0.590087 0.116149 0.402378 127 0 127
0.011309 -0.060598 -0.376469 76 0 153
0.831674 0.205764 0.091673 76 153 0
-0.033384 0.390364 0.454884 127 0 127
0.796669 0.297494 -0.093771 76 153 0
0.796669 -0.179896 -0.070460 76 153 0
-0.813531 0.317479 0.116039 153 0 76
0.402097 -0.353578 0.149288 153 76 0
-0.382372 -0.353578 0.322642 153 76 0
0.360729 0.346509 0.176474 76 0 153
-0.813531 0.316895 -0.056226 153 0 76
-0.589238 -0.110245 -0.402722 76 0 153
0.572940 -0.293343 0.454884 127 0 127
0.767773 0.381513 0.101940 76 0 153
0.329326 0.381513 -0.162107 76 0 153
0.590919 -0.317447 -0.402722 76 0 153
0.380885 -0.031947 0.402378 127 0 127
0.710693 0.346509 -0.194076 76 0 153
0.391627 0.416517 0.374677 127 127 0
-0.511280 -0.246933 -0.437727 0 0 255
0.273667 -0.219983 0.440479 127 0 127
0.259105 0.092652 0.428631 127 0 127
-0.243319 0.381513 -0.199599 76 0 153
-0.403758 0.381513 -0.296278 76 0 153
0.561447 0.346509 0.033492 76 0 153
0.610768 0.117937 0.428631 127 0 127
0.112581 -0.106726 0.402378 127 0 127
0.130205 0.191577 0.428631 127 0 127
-0.032136 -0.353578 0.062394 153 76 0
-0.813531 -0.103855 0.030283 153 0 76
0.097909 0.381513 0.182543 76 0 153
0.831674 0.286801 -0.160817 76 153 0
0.831674 0.041034 -0.403846 76 153 0
-0.803865 -0.100482 0.402378 204 51 127
0.684054 0.346509 0.299236 76 0 153
0.119063 0.346509 0.322372 76 0 153
-0.171321 -0.290263 -0.402722 0 0 255
-0.704560 0.070849 -0.402722 76 0 153
0.356412 0.233108 -0.376469 76 0 153
0.233629 0.387861 0.402378 127 127 0
0.012247 0.346509 -0.400800 76 0 153
0.519480 0.346509 -0.205558 76 0 153
-0.660552 -0.348940 -0.437727 0 0 255
0.203198 0.367550 0.349871 127 127 0
-0.265360 0.409659 -0.437727 255 0 0
-0.231698 -0.388583 -0.359903 153 76 0
0.195161 0.242523 -0.437727 255 0 0
0.831674 0.351054 -0.211165 76 153 0
0.523590 -0.266131 -0.402722 76 0 153
-0.388015 -0.388583 -0.262701 153 76 0
-0.075767 0.346509 0.201375 76 0 153
-0.813531 -0.415864 -0.336531 153 0 76
-0.757268 -0.137768 0.349871 204 51 127
0.593706 -0.145166 -0.402722 76 0 153
0.093983 -0.388583 0.110716 153 76 0
-0.703660 0.346509 -0.084181 76 0 153
0.657638 -0.281960 0.402378 127 0 127
-0.601109 0.346509 -0.312769 76 0 153
0.369720 0.379380 0.454884 127 0 127
-0.151137 -0.388583 0.015340 153 76 0
-0.077839 0.224109 0.442284 127 0 127
0.831674 -0.027951 0.088015 76 153 0
0.195402 0.077437 -0.402722 76 0 153
0.831674 0.089294 0.084292 76 153 0
-0.668603 0.250192 0.454884 127 0 127
-0.201382 0.381513 -0.226967 76 0 153
-0.291853 0.236899 0.444346 127 0 127
-0.152857 -0.026860 -0.402722 76 0 153
0.691312 0.107959 -0.376469 76 0 153
-0.079301 -0.265617 -0.402722 0 0 255
0.497426 -0.095483 0.402378 127 0 127
-0.424007 0.381513 0.072138 76 0 153
-0.527042 0.069898 -0.402722 76 0 153
0.319160 -0.353578 -0.358377 153 76 0
-0.598734 -0.097290 0.428631 127 0 127
0.575111 -0.388583 0.127834 153 76 0
-0.778526 0.173781 0.146262 153 0 76
-0.512129 -0.065009 0.402378 127 0 127
-0.177854 -0.388583 0.284469 153 76 0
-0.519125 -0.353578 -0.310476 153 76 0
-0.502033 0.081891 0.402378 127 0 127
0.485757 0.410246 -0.402722 255 0 0
0.140672 -0.008054 0.402378 127 0 127
-0.206747 -0.166128 0.402378 127 0 127
-0.447483 0.381513 -0.129964 76 0 153
0.802954 -0.370224 0.349871 153 0 76
-0.422726 0.178342 0.428631 127 0 127
-0.524536 -0.410460 0.430982 127 0 127
-0.200527 0.381513 -0.019845 76 0 153
-0.405918 0.346509 0.012876 76 0 153
-0.588356 -0.324391 0.454884 127 0 127
0.292961 -0.021341 -0.402722 76 0 153
0.225134 -0.069145 0.428631 127 0 127
0.796669 -0.186545 -0.000805 76 153 0
0.594475 0.381513 -0.043982 76 0 153
-0.602603 -0.384586 0.349871 153 76 0
-0.813531 -0.041868 -0.001457 153 0 76
-0.577072 -0.388583 0.066004 153 76 0
-0.370032 0.346509 -0.352768 76 0 153
0.831674 0.093546 -0.248804 76 153 0
-0.227869 -0.004791 0.428631 127 0 127
0.498898 -0.315254 -0.402722 0 0 255
0.831674 0.367899 -0.421115 76 153 0
-0.152481 -0.388583 0.322865 153 76 0
0.303523 0.008754 0.428631 127 0 127
0.831674 0.058196 0.339455 153 0 76
-0.629916 -0.423587 0.397349 0 255 0
0.407668 -0.160669 0.402378 127 0 127
-0.023484 0.073958 -0.402722 76 0 153
0.284643 -0.283222 -0.376469 76 0 153
0.739608 -0.346575 -0.437727 0 0 255
-0.813531 0.405383 -0.076415 153 0 76
0.311779 -0.353578 0.110190 153 76 0
-0.778526 0.127064 -0.272429 153 0 76
0.687341 -0.353578 0.283151 153 76 0
-0.008437 0.034001 0.402378 127 0 127
0.529031 0.370287 0.454884 127 0 127
-0.622013 -0.017248 -0.402722 76 0 153
-0.557027 0.011958 -0.402722 76 0 153
0.153271 0.350725 -0.402722 255 0 0
-0.440346 -0.181609 0.402378 127 0 127
-0.100728 0.381513 -0.065106 76 0 153
-0.185446 0.044713 0.402378 127 0 127
-0.605554 -0.353578 -0.050189 153 76 0
-0.203934 -0.197269 -0.376469 76 0 153
-0.778526 0.248826 0.111411 153 0 76
-0.778526 -0.134862 -0.167768 153 0 76
0.573930 0.381513 -0.340300 76 0 153
0.426083 0.014494 -0.402722 76 0 153
0.640160 0.346509 -0.093673 76 0 153
0.410075 0.205807 -0.376469 76 0 153
0.464413 -0.253399 -0.437727 0 0 255
0.701044 0.381513 0.264722 76 0 153
0.397337 -0.353578 -0.338509 153 76 0
0.796669 -0.355523 -0.180770 153 76 0
0.102592 -0.087715 -0.376469 76 0 153
0.179047 -0.240369 -0.402722 0 0 255
0.751693 0.381513 -0.280499 76 0 153
-0.813531 0.072388 0.262175 153 0 76
-0.391091 -0.404894 -0.437727 0 0 255
0.775011 -0.353578 0.146093 153 76 0
-0.406747 0.326181 0.402378 127 0 127
-0.037993 -0.162032 0.428631 127 0 127
0.796669 -0.058839 -0.362121 76 153 0
0.831674 0.118335 0.109095 76 153 0
0.831674 0.346621 -0.132602 76 153 0
0.271092 0.251124 -0.402722 255 0 0
-0.576077 0.261080 0.402378 127 0 127
-0.531760 -0.353578 0.127393 153 76 0
-0.619669 -0.268268 0.402378 127 0 127
-0.387490 0.267821 -0.437727 255 0 0
0.328714 -0.230564 -0.376469 76 0 153
-0.385000 -0.200434 0.434021 127 0 127
-0.778526 -0.354815 -0.422617 153 0 76
0.515993 0.089424 -0.376469 76 0 153
0.826447 -0.023365 0.402378 153 0 76
0.375603 -0.192210 0.428631 127 0 127
0.110036 0.381513 -0.074410 76 0 153
0.831674 -0.156267 0.293658 76 153 0
0.445031 -0.383290 0.402378 127 0 127
-0.778526 -0.197579 -0.088491 153 0 76
-0.604755 -0.353578 -0.218113 153 76 0
0.199633 0.033414 0.428631 127 0 127
0.605509 0.397851 -0.437727 255 0 0
0.117101 -0.388583 -0.025003 153 76 0
0.019101 0.357563 -0.437727 255 0 0
0.046241 0.381513 -0.140213 76 0 153
0.796669 -0.421358 -0.074048 76 153 0
0.756891 -0.388583 0.115700 153 76 0
-0.778526 0.364844 -0.281422 153 0 76
0.053916 0.096194 -0.402722 76 0 153
0.379028 0.270991 -0.402722 76 0 153
0.565932 0.257339 -0.402722 255 0 0
0.024911 0.351382 0.349871 127 127 0
-0.629522 0.246083 -0.376469 76 0 153
-0.668280 0.346509 -0.214441 76 0 153
0.219324 -0.353578 0.136653 153 76 0
0.493100 0.120516 0.402378 127 0 127
0.052132 0.381513 0.278449 76 0 153
-0.281692 -0.206097 -0.402722 76 0 153
0.796669 0.274914 -0.356363 76 153 0
0.762807 0.110017 -0.402722 76 0 153
-0.813531 -0.037058 0.091782 153 0 76
0.796669 0.171930 -0.109472 76 153 0
0.553087 0.193365 0.410657 127 0 127
0.648627 -0.423587 -0.404085 0 0 255
0.501932 -0.213561 -0.418980 0 0 255
0.796669 -0.313013 0.258182 76 153 0
0.802451 -0.332176 0.454884 127 0 127
-0.736451 0.381513 -0.068664 76 0 153
-0.341056 0.144060 -0.402722 76 0 153
-0.778526 0.263373 -0.227021 153 0 76
0.059659 -0.388583 0.197586 153 76 0
-0.787292 0.176900 0.402378 204 51 127
0.770914 0.215083 0.454884 127 0 127
-0.778526 -0.120344 -0.289627 153 0 76
0.796669 0.280774 -0.264664 76 153 0
-0.269916 -0.353578 0.132212 153 76 0
-0.757831 0.346509 -0.368197 76 0 153
-0.813531 -0.140789 -0.091938 153 0 76
-0.750478 -0.423586 0.377522 204 51 127
0.075906 -0.318574 0.373852 0 255 0
0.519579 0.284271 0.402378 127 0 127
0.392062 -0.346479 0.402378 0 255 0
0.019419 -0.309195 -0.437727 0 0 255
-0.711449 -0.157435 0.454884 127 0 127
0.342340 -0.297840 0.402378 127 0 127
-0.802267 -0.423586 0.177495 153 0 76
-0.494123 -0.186242 -0.376469 76 0 153
-0.524531 -0.388583 0.032518 153 76 0
0.082912 0.346509 0.256221 76 0 153
-0.206297 -0.390580 -0.437727 0 0 255
-0.813531 -0.409239 0.327878 204 51 127
-0.519131 0.346509 -0.018810 76 0 153
0.484876 -0.153362 0.402378 127 0 127
-0.498217 0.346509 -0.179937 76 0 153
0.465146 0.381513 0.163082 76 0 153
-0.404665 -0.168880 -0.402722 76 0 153
0.065552 -0.202081 0.437593 127 0 127
-0.778526 0.146293 0.033466 153 0 76
-0.778526 0.043557 -0.364128 153 0 76
0.555892 -0.038536 0.402378 127 0 127
0.251525 -0.353578 -0.077071 153 76 0
0.309465 0.416517 0.351935 127 127 0
-0.792992 0.232734 0.454884 127 0 127
-0.734972 0.066114 -0.402722 76 0 153
-0.124353 -0.388583 0.154949 153 76 0
0.831674 0.171583 0.024996 76 153 0
0.831674 0.263878 0.060808 76 153 0
-0.049452 0.259712 0.402378 127 0 127
0.296868 0.381513 -0.155708 76 0 153
0.796669 -0.142057 0.266498 76 153 0
-0.120219 0.320450 -0.376469 76 0 153
-0.114689 0.323387 0.454884 127 0 127
-0.698947 0.237108 0.454884 127 0 127
-0.389324 0.346509 0.329879 76 0 153
0.035957 -0.125334 -0.376469 76 0 153
-0.011069 -0.410460 0.427538 127 0 127
-0.778526 0.210323 -0.320171 153 0 76
0.840556 0.104241 0.349871 153 0 76
0.018069 0.321047 0.535832 0 127 127
0.819940 0.298768 0.349871 76 153 0
0.213666 0.381513 0.196192 76 0 153
-0.778526 0.171839 -0.310744 153 0 76
-0.778526 0.399117 0.282020 153 0 76
-0.426111 -0.283469 -0.402722 0 0 255
0.390072 -0.119137 -0.402722 76 0 153
-0.513762 0.175734 0.428631 127 0 127
-0.551994 -0.329290 -0.402722 76 0 153
-0.813531 0.065389 0.323950 153 0 76
-0.416243 -0.038724 0.428631 127 0 127
0.625643 0.170175 -0.402722 76 0 153
0.541025 -0.251647 0.445583 127 0 127
-0.029507 0.346509 -0.345728 76 0 153
0.378953 0.253644 -0.376469 76 0 153
0.849176 -0.411463 0.400826 127 0 127
0.831674 -0.362382 0.125999 76 153 0
0.609349 0.346509 0.295986 76 0 153
0.828100 -0.399166 0.349871 153 0 76
-0.778526 -0.327333 0.089776 153 0 76
0.849176 -0.161487 0.375096 153 0 76
-0.005104 -0.346690 0.349871 153 76 0
-0.066632 -0.198316 -0.402722 0 0 255
-0.294196 -0.066400 0.428631 127 0 127
0.831674 0.350670 -0.297885 76 153 0
-0.281840 0.338658 0.349871 127 127 0
0.684908 0.381513 -0.202634 76 0 153
-0.345772 -0.388583 -0.245018 153 76 0
0.553954 0.354508 -0.437727 255 0 0
-0.103598 0.381513 -0.215383 76 0 153
0.542812 -0.166411 -0.402722 76 0 153
-0.489337 -0.353578 -0.287056 153 76 0
0.011189 -0.329618 0.454884 127 0 127
-0.590154 0.271672 -0.437727 255 0 0
-0.108482 0.381513 -0.159629 76 0 153
0.515826 0.215513 0.440898 127 0 127
0.515524 0.346509 0.246570 76 0 153
0.796669 -0.072265 -0.241452 76 153 0
-0.831033 -0.345055 0.389784 204 51 127
-0.280651 -0.272135 -0.402722 76 0 153
-0.265130 0.346509 -0.177618 76 0 153
-0.813531 -0.117495 -0.115981 153 0 76
0.150694 0.278955 -0.437727 255 0 0
0.796669 0.276970 -0.072666 76 153 0
-0.296684 0.115850 0.402378 127 0 127
-0.387044 -0.353578 -0.320211 153 76 0
-0.280799 -0.388583 0.072632 153 76 0
-0.655157 -0.353578 0.226667 153 76 0
-0.562233 -0.388583 -0.394207 0 0 255
-0.178280 0.229860 0.443211 127 0 127
-0.517036 -0.388583 0.167603 153 76 0
0.366365 0.280582 -0.376469 76 0 153
0.202867 -0.160667 -0.376469 76 0 153
-0.015303 -0.388583 0.280637 153 76 0
-0.607880 0.385361 0.430333 127 0 127
0.433861 -0.388583 0.006381 153 76 0
0.796669 -0.384278 0.017436 76 153 0
-0.141097 0.381513 0.108319 76 0 153
0.110835 0.257645 -0.376469 76 0 153
0.093088 -0.388583 -0.192868 153 76 0
-0.813531 0.377389 -0.376706 153 0 76
0.221508 -0.331796 -0.402722 0 0 255
0.626023 0.209681 0.430085 127 0 127
-0.315700 -0.296673 -0.376469 76 0 153
0.041770 0.295126 -0.402722 76 0 153
0.073608 -0.381639 0.402378 127 0 127
0.831674 -0.107806 -0.153615 76 153 0
-0.813531 0.129370 0.317645 153 0 76
0.045153 -0.288181 -0.402722 0 0 255
-0.061570 0.276845 -0.376469 76 0 153
0.463401 0.302701 0.402378 127 0 127
-0.778526 -0.185707 0.032129 153 0 76
-0.160895 -0.388583 0.129905 153 76 0
-0.067818 0.311504 0.387886 127 0 127
0.349678 0.381513 -0.367914 76 0 153
-0.316667 0.346509 0.010556 76 0 153
0.779129 -0.097348 -0.376469 76 153 0
0.682561 0.381513 -0.132486 76 0 153
-0.009129 0.269633 0.454884 127 0 127
0.251827 0.360606 0.349871 127 127 0
0.796669 0.000214 -0.032689 76 153 0
-0.786045 0.360438 0.454884 127 0 127
0.146849 -0.191677 -0.376469 76 0 153
0.262712 -0.110259 -0.402722 76 0 153
-0.416143 -0.375268 -0.402722 0 0 255
-0.412502 0.024199 -0.376469 76 0 153
0.796669 0.299903 0.321278 76 153 0
0.364865 -0.008286 0.428631 127 0 127
-0.778526 -0.364124 -0.230258 153 0 76
-0.503507 -0.046595 -0.376469 76 0 153
0.266338 -0.213561 -0.434975 0 0 255
-0.002693 -0.276639 -0.402722 76 0 153
-0.374976 -0.256817 0.449664 127 0 127
-0.008023 -0.058415 0.402378 127 0 127
-0.127506 -0.335108 -0.376469 76 0 153
0.430048 0.011723 0.402378 127 0 127
0.758734 -0.353578 0.242305 153 76 0
-0.376741 -0.353578 -0.281240 153 76 0
0.059311 0.346509 -0.116624 76 0 153
-0.714785 0.346509 0.296189 76 0 153
-0.184065 -0.082164 -0.376469 76 0 153
0.516807 0.073953 -0.402722 76 0 153
0.684985 0.037679 0.402378 127 0 127
0.428670 -0.098033 0.428631 127 0 127
0.597612 0.403391 0.451445 127 0 127
0.831674 0.054552 0.114396 76 153 0
0.280562 0.039567 0.402378 127 0 127
-0.449442 -0.212276 -0.402722 76 0 153
-0.166101 0.346509 -0.152908 76 0 153
0.661506 -0.196546 0.402378 127 0 127
0.550348 0.337799 0.349871 127 127 0
-0.778526 -0.128962 -0.385391 153 0 76
-0.778526 0.312393 0.083245 153 0 76
-0.119254 -0.388583 -0.297964 153 76 0
-0.193059 -0.388583 -0.163211 153 76 0
0.071837 0.177184 0.428631 127 0 127
-0.763518 -0.314995 -0.402722 153 0 76
0.772885 0.117729 0.349871 153 0 76
0.747311 -0.353578 -0.094960 153 76 0
0.831674 -0.294920 0.081260 76 153 0
-0.055356 -0.326573 -0.402722 76 0 153
-0.681225 0.135838 0.402378 127 0 127
0.719277 0.269410 -0.402722 255 0 0
-0.703232 -0.353578 0.177339 153 76 0
-0.778526 0.025832 0.032220 153 0 76
-0.790706 -0.303110 0.402378 204 51 127
-0.694005 0.381513 -0.297312 76 0 153
-0.442476 0.328730 0.402378 127 0 127
0.796669 -0.104056 -0.187141 76 153 0
-0.483960 -0.155815 -0.376469 76 0 153
-0.508770 -0.423587 -0.428795 0 0 255
-0.406984 0.346509 -0.165258 76 0 153
-0.178620 -0.388583 -0.267924 153 76 0
-0.075554 -0.135209 -0.402722 76 0 153
-0.349726 -0.137129 0.428631 127 0 127
0.361884 -0.388583 0.100564 153 76 0
-0.778526 0.181533 -0.035863 153 0 76
-0.696635 -0.010179 0.454884 127 0 127
0.273794 0.381513 0.094420 76 0 153
0.744163 -0.079481 0.381922 127 0 127
0.699385 0.277664 0.454884 127 0 127
0.345046 0.279273 0.454884 127 0 127
-0.370538 0.360771 -0.437727 255 0 0
0.131153 -0.388583 -0.343998 153 76 0
-0.285181 0.056813 0.402378 127 0 127
0.502313 0.403391 0.440001 127 0 127
0.045843 -0.025428 0.428631 127 0 127
-0.130926 0.374000 0.454884 127 0 127
0.383185 0.346509 0.031386 76 0 153
0.356187 0.381513 0.126480 76 0 153
-0.778526 -0.401386 -0.226582 153 0 76
-0.726020 -0.391259 0.374079 0 255 0
-0.298359 0.297888 -0.402722 76 0 153
-0.251312 -0.014089 -0.376469 76 0 153
0.710776 -0.353578 0.010955 153 76 0
0.000325 0.416416 0.402378 127 127 0
-0.500561 0.236811 -0.376469 76 0 153
0.339845 -0.173307 0.402378 127 0 127
0.551786 -0.388583 0.207793 153 76 0
0.831674 0.271334 -0.021654 76 153 0
0.220524 -0.138019 0.428631 127 0 127
-0.636190 0.381513 -0.316493 76 0 153
-0.813531 -0.235253 -0.044453 153 0 76
-0.482773 -0.353578 -0.092660 153 76 0
-0.556582 0.163176 -0.376469 76 0 153
-0.103899 -0.022379 0.428631 127 0 127
-0.609313 0.381513 -0.092349 76 0 153
0.583433 -0.254891 -0.437727 0 0 255
0.645186 -0.388583 0.023493 153 76 0
0.162685 0.116248 0.402378 127 0 127
0.210749 -0.394910 0.349871 0 255 0
0.409163 0.414435 -0.437727 255 0 0
-0.692336 0.346509 0.243766 76 0 153
-0.682633 0.381513 -0.074977 76 0 153
0.333446 0.346509 0.265594 76 0 153
0.468606 0.247816 -0.376469 76 0 153
0.186687 -0.010563 -0.402722 76 0 153
-0.316077 0.044827 -0.376469 76 0 153
0.796669 0.031800 0.331200 153 0 76
0.373565 0.367359 0.402378 127 127 0
0.089312 0.002946 -0.376469 76 0 153
0.289740 0.121536 -0.376469 76 0 153
0.796669 0.233595 -0.076698 76 153 0
0.642137 -0.353578 -0.257881 153 76 0
-0.425260 -0.174156 -0.376469 76 0 153
-0.538910 -0.143800 0.428631 127 0 127
0.704558 -0.383564 -0.402722 0 0 255
-0.012572 -0.317277 -0.437727 0 0 255
0.179198 -0.353578 -0.378161 76 0 153
0.245124 -0.312401 -0.402722 76 0 153
-0.008671 0.206491 -0.421207 255 0 0
-0.669839 -0.047924 0.402378 127 0 127
-0.498770 -0.155256 0.402378 127 0 127
0.288746 -0.212487 -0.402722 76 0 153
0.775671 -0.388583 -0.111685 153 76 0
0.115624 -0.353578 -0.385825 76 0 153
0.775650 0.346509 -0.055467 76 0 153
-0.118541 -0.397638 -0.402722 153 76 0
-0.660825 0.381513 0.237811 76 0 153
-0.726020 0.136229 0.390088 204 51 127
-0.151937 0.396381 0.402378 127 127 0
0.134401 0.381513 0.119452 76 0 153
0.831674 0.336876 -0.040521 76 153 0
0.796669 0.230462 -0.256980 76 153 0
-0.593601 -0.290831 0.454884 127 0 127
0.376355 0.278079 0.454884 127 0 127
-0.634118 -0.191931 0.454884 127 0 127
0.185754 0.236636 0.402378 127 0 127
-0.784525 0.416517 -0.319974 153 0 76
0.831674 -0.295890 -0.279102 76 153 0
0.324525 0.123375 0.428631 127 0 127
0.573168 -0.014629 0.402378 127 0 127
0.001951 -0.353578 -0.307697 153 76 0
-0.475620 0.291506 0.402378 127 127 0
0.249254 -0.250909 0.445464 127 0 127
-0.255160 0.381513 -0.263713 76 0 153
-0.632315 -0.054472 -0.376469 76 0 153
-0.092383 -0.353578 0.050780 153 76 0
-0.723865 -0.353578 0.105156 153 76 0
-0.778526 0.410149 -0.377424 153 0 76
0.831674 0.301605 -0.426549 76 153 0
0.464948 -0.294734 0.402378 127 0 127
-0.787701 0.200684 0.454884 127 0 127
0.770475 0.054025 -0.376469 76 0 153
0.266340 -0.347259 0.402378 0 255 0
0.390975 -0.353578 0.345256 0 255 0
-0.394622 -0.039281 0.402378 127 0 127
-0.721659 0.346509 -0.213748 76 0 153
0.221539 -0.199227 0.428631 127 0 127
0.523774 0.040435 -0.402722 76 0 153
0.370525 0.120239 0.428631 127 0 127
0.392182 0.381513 -0.058618 76 0 153
-0.255989 0.381513 -0.297341 76 0 153
-0.813531 -0.359370 -0.011477 153 0 76
-0.778526 -0.133837 0.121094 153 0 76
0.461910 -0.326090 -0.376469 76 0 153
-0.011514 -0.388583 0.014152 153 76 0
-0.491913 -0.268774 0.402378 127 0 127
0.770191 -0.211159 0.402378 153 0 76
0.362086 0.089559 0.428631 127 0 127
-0.620612 -0.371680 0.402378 0 255 0
0.831674 -0.356725 -0.294121 76 153 0
-0.294436 0.410415 -0.437727 255 0 0
0.379505 0.346509 -0.274302 76 0 153
-0.264191 -0.261944 0.402378 127 0 127
-0.575945 -0.423587 0.400817 0 255 0
0.831674 -0.076061 0.053482 76 153 0
0.647398 0.070086 0.402378 127 0 127
0.796669 0.182121 -0.301297 76 153 0
-0.733609 -0.356452 0.402378 127 0 127
-0.080372 0.381513 0.046327 76 0 153
-0.813531 -0.051372 0.150097 153 0 76
0.064201 0.052389 0.428631 127 0 127
-0.312153 0.346509 0.349220 127 127 0
-0.298692 0.346509 -0.116340 76 0 153
-0.831033 0.080088 0.396027 127 0 127
0.831674 -0.204150 -0.164354 76 153 0
0.071715 0.008863 0.402378 127 0 127
-0.309657 0.141850 0.402378 127 0 127
0.298444 -0.353578 -0.302993 153 76 0
0.831674 0.224639 -0.324809 76 153 0
0.225789 -0.388583 -0.372088 153 76 0
-0.089123 -0.353578 0.159010 153 76 0
0.796669 -0.217680 0.050545 76 153 0
0.796669 -0.210486 0.291238 76 153 0
0.495886 0.385552 -0.437727 255 0 0
-0.044639 0.266731 -0.402722 255 0 0
-0.778526 0.298581 0.021752 153 0 76
-0.181752 -0.353578 -0.244409 153 76 0
0.751043 0.358748 -0.402722 255 0 0
0.041268 0.381513 -0.075533 76 0 153
-0.746499 0.403391 0.451689 127 0 127
-0.753298 0.381513 -0.388740 255 0 0
-0.778526 -0.010750 -0.363072 153 0 76
-0.813531 -0.202589 0.307845 153 0 76
0.603978 0.216298 -0.376469 76 0 153
-0.555018 -0.075054 -0.402722 76 0 153
0.458930 -0.388583 -0.080605 153 76 0
0.075170 0.026530 -0.402722 76 0 153
0.831674 -0.007171 0.147075 76 153 0
-0.704789 -0.388583 0.249939 153 76 0
-0.049912 -0.353578 -0.360413 153 76 0
-0.323358 0.416517 0.376500 127 127 0
-0.112676 0.346509 0.237948 76 0 153
0.428036 -0.157601 -0.376469 76 0 153
-0.206187 -0.282673 -0.376469 76 0 153
0.509369 0.081358 0.402378 127 0 127
0.181073 0.381513 -0.325835 76 0 153
0.796669 0.410465 -0.002153 76 153 0
0.078633 -0.353578 -0.042328 153 76 0
0.796669 -0.177952 -0.106564 76 153 0
0.796669 -0.103294 0.249393 76 153 0
0.291042 0.027041 -0.402722 76 0 153
-0.636912 0.346509 0.038716 76 0 153
-0.328023 0.346509 -0.096244 76 0 153
-0.813531 0.117719 -0.077972 153 0 76
0.658046 -0.275749 0.454884 127 0 127
0.706467 0.109241 -0.402722 76 0 153
-0.817906 -0.335377 0.428581 127 0 127
-0.778526 -0.041236 0.309449 153 0 76
0.616460 0.260459 -0.402722 76 0 153
0.654486 0.052731 -0.402722 76 0 153
-0.813531 -0.301785 -0.024232 153 0 76
0.374679 -0.383099 0.454884 127 0 127
0.796669 -0.076438 0.179844 76 153 0
-0.503174 0.002909 0.402378 127 0 127
0.682963 -0.388583 0.230055 153 76 0
0.508870 0.120774 0.428631 127 0 127
0.236812 0.367774 -0.437727 255 0 0
-0.778526 -0.361236 0.282334 153 76 0
-0.319540 0.346509 0.205117 76 0 153
-0.302825 0.245446 -0.376469 76 0 153
-0.039676 0.381513 0.084108 76 0 153
-0.459146 0.113403 -0.376469 76 0 153
-0.062097 0.332464 0.349871 76 0 153
0.796669 0.001297 0.241438 76 153 0
0.796669 -0.083222 -0.069319 76 153 0
0.831674 -0.080643 -0.384649 76 153 0
0.213789 0.151044 0.402378 127 0 127
-0.241349 0.380156 0.402378 127 127 0
-0.561403 -0.388583 0.288016 153 76 0
0.412696 0.403391 0.435911 127 0 127
-0.484283 -0.388583 0.178993 153 76 0
-0.813531 -0.176005 -0.040651 153 0 76
0.831674 -0.409307 -0.047698 76 153 0
-0.778526 0.358794 -0.415321 153 0 76
0.639356 0.333369 0.402378 127 127 0
0.389497 -0.170955 -0.402722 76 0 153
-0.065016 -0.388583 -0.003198 153 76 0
0.488397 -0.290813 0.454884 127 0 127
0.272588 -0.403936 -0.437727 0 0 255
0.029103 0.346509 -0.098416 76 0 153
0.831674 -0.189983 0.259013 76 153 0
-0.813531 -0.325786 0.332307 204 51 127
0.648442 -0.388583 -0.330443 153 76 0
-0.576647 -0.186855 -0.376469 76 0 153
0.754666 -0.098586 0.454884 127 0 127
0.796669 0.271083 0.183175 76 153 0
0.440994 0.403391 0.423937 127 0 127
-0.781934 0.416517 -0.251450 153 0 76
-0.300841 0.066366 -0.402722 76 0 153
-0.359621 -0.388583 -0.004979 153 76 0
0.796669 -0.014375 -0.120778 76 153 0
-0.142540 -0.207718 0.438502 127 0 127
0.339526 0.346509 0.056774 76 0 153
-0.600537 -0.353578 0.150220 153 76 0
0.408060 0.131489 -0.376469 76 0 153
0.629580 0.047316 -0.376469 76 0 153
-0.278859 -0.353578 -0.238305 153 76 0
-0.426570 -0.073396 0.428631 127 0 127
-0.574088 0.329453 0.402378 127 0 127
-0.711755 -0.085820 -0.376469 76 0 153
0.779396 -0.059489 0.349871 153 0 76
0.796669 0.006536 -0.326596 76 153 0
-0.770189 -0.353578 0.030292 153 0 76
-0.813531 0.391118 -0.343804 153 0 76
-0.409055 -0.248591 -0.402722 76 0 153
-0.163764 -0.221664 -0.402722 76 0 153
-0.612471 -0.353578 0.188379 153 76 0
0.831674 -0.253297 -0.409194 76 153 0
0.849176 0.199870 0.382453 153 0 76
-0.146798 0.381513 -0.109353 76 0 153
-0.422482 -0.353578 0.295781 153 76 0
-0.778526 -0.263684 -0.382631 153 0 76
0.437927 -0.286053 -0.402722 76 0 153
0.005069 -0.139953 0.402378 127 0 127
0.743162 -0.191141 -0.376469 76 0 153
0.468824 0.381513 0.065625 76 0 153
-0.381712 -0.398524 0.349871 0 255 0
0.153149 0.083288 -0.402722 76 0 153
0.831674 0.178027 -0.075404 76 153 0
0.346824 0.319946 -0.402722 76 0 153
-0.334260 0.334264 -0.376469 76 0 153
0.376989 -0.388583 -0.161907 153 76 0
0.229522 0.408563 0.349871 127 127 0
0.702844 0.329606 -0.402722 255 0 0
0.087481 0.316901 -0.376469 76 0 153
-0.077024 0.074571 0.402378 127 0 127
-0.813531 0.380975 0.022341 153 0 76
0.777899 0.383447 -0.437727 255 0 0
0.136605 -0.294423 0.454884 127 0 127
0.039206 0.381513 0.176767 76 0 153
0.339435 -0.111493 -0.376469 76 0 153
-0.813531 -0.160323 0.215748 153 0 76
0.831674 0.163543 -0.164790 76 153 0
-0.751698 -0.289403 0.402378 127 0 127
0.306550 0.052231 -0.402722 76 0 153
0.797164 -0.017956 0.454884 127 0 127
0.831674 0.244396 -0.267625 76 153 0
-0.123077 -0.388583 -0.172846 153 76 0
-0.042606 -0.403526 0.454884 127 0 127
-0.037122 -0.261984 -0.437727 0 0 255
0.501144 -0.143854 0.428631 127 0 127
-0.176667 0.124450 -0.376469 76 0 153
-0.700438 0.017790 0.402378 127 0 127
0.659036 0.381513 -0.098771 76 0 153
-0.660645 0.136373 0.454884 127 0 127
-0.292638 -0.106295 -0.376469 76 0 153
-0.125872 0.191818 -0.376469 76 0 153
0.602896 0.346509 -0.065686 76 0 153
-0.542969 -0.353578 0.064552 153 76 0
-0.813531 -0.402495 0.021393 153 0 76
-0.790282 -0.010627 0.402378 127 0 127
0.602015 0.174029 0.428631 127 0 127
-0.258319 -0.388583 0.321215 153 76 0
0.118686 0.220443 -0.437727 255 0 0
0.637542 0.346509 -0.030395 76 0 153
0.174638 0.048806 -0.402722 76 0 153
-0.100928 0.232734 -0.402722 76 0 153
0.849176 -0.264412 0.382297 153 0 76
-0.415663 -0.341536 0.454884 127 0 127
0.849176 0.397559 0.354882 153 0 76
-0.190755 0.124311 0.428631 127 0 127
-0.119801 -0.388583 0.298859 153 76 0
-0.497383 0.303635 -0.402722 76 0 153
-0.261478 -0.388583 -0.151005 153 76 0
0.010186 0.381513 0.324529 76 0 153
0.601577 0.381513 -0.159623 76 0 153
0.252387 -0.388583 0.109028 153 76 0
-0.270307 -0.099106 0.402378 127 0 127
0.796669 -0.003306 0.008787 76 153 0
-0.068596 -0.125216 -0.376469 76 0 153
0.394849 -0.261849 -0.437727 0 0 255
-0.782728 0.395813 -0.437727 255 0 0
0.378372 0.381513 -0.210273 76 0 153
0.831674 -0.275153 0.250180 76 153 0
0.831674 0.146360 -0.250832 76 153 0
-0.531543 -0.423587 0.369364 0 255 0
0.162149 -0.083789 -0.376469 76 0 153
-0.362091 0.229087 -0.376469 76 0 153
0.831674 -0.059467 -0.214000 76 153 0
-0.343482 -0.353860 -0.437727 0 0 255
0.473844 -0.234639 0.402378 127 0 127
0.762368 0.381513 0.345157 76 0 153
-0.272162 0.346509 -0.069341 76 0 153
0.609527 -0.353578 -0.378224 76 0 153
0.451381 -0.353578 0.180779 153 76 0
-0.524890 -0.173347 -0.402722 76 0 153
-0.778526 -0.240863 0.036498 153 0 76
0.634560 -0.388583 0.269432 153 76 0
-0.602548 -0.338344 -0.437727 0 0 255
-0.813531 -0.203649 -0.268458 153 0 76
-0.413090 -0.133983 -0.402722 76 0 153
-0.534218 0.381513 -0.047262 76 0 153
-0.353466 -0.041347 0.428631 127 0 127
-0.063035 0.162412 0.402378 127 0 127
0.423153 0.311504 0.378253 127 127 0
0.015436 0.346509 -0.270086 76 0 153
-0.813531 0.073947 -0.233522 153 0 76
0.578534 -0.186176 0.428631 127 0 127
0.289336 0.346509 0.315354 76 0 153
0.762145 0.408662 -0.402722 255 0 0
0.444217 0.288826 -0.402722 76 0 153
-0.175866 -0.263685 0.454884 127 0 127
-0.679886 0.009926 -0.402722 76 0 153
0.696624 0.346509 -0.042824 76 0 153
-0.298693 -0.353958 0.349871 153 76 0
-0.778526 0.401643 -0.068209 153 0 76
-0.582690 0.113508 0.402378 127 0 127
-0.305991 -0.101195 0.428631 127 0 127
-0.328293 0.011080 0.428631 127 0 127
-0.051005 -0.003556 -0.402722 76 0 153
0.044502 -0.410460 0.427288 127 0 127
0.449521 -0.388583 -0.323816 153 76 0
-0.356837 -0.388583 -0.168504 153 76 0
0.617371 0.288216 -0.376469 76 0 153
-0.607806 -0.326338 -0.402722 76 0 153
-0.778526 -0.032657 -0.288381 153 0 76
0.189535 -0.267818 -0.402722 76 0 153
0.124193 0.343557 0.402378 127 0 127
-0.506346 -0.353578 -0.236998 153 76 0
0.460128 0.381513 0.282989 76 0 153
-0.778526 -0.304178 0.193973 153 0 76
-0.754994 0.267394 0.349871 204 51 127
0.148343 -0.121983 0.402378 127 0 127
-0.060973 -0.388583 -0.092936 153 76 0
0.669480 0.211863 -0.376469 76 0 153
-0.781245 -0.423586 -0.133408 153 0 76
-0.644791 -0.350546 -0.376469 153 76 0
-0.778526 0.002916 0.244111 153 0 76
-0.813531 -0.037014 0.210011 153 0 76
0.311116 -0.110788 0.402378 127 0 127
-0.064509 -0.091814 0.428631 127 0 127
-0.374124 0.065603 0.428631 127 0 127
0.461251 -0.389848 0.349871 0 255 0
0.037458 -0.346640 -0.402722 153 76 0
-0.700687 0.325395 0.349871 127 127 0
0.496658 0.347609 0.402378 127 127 0
0.538781 -0.388583 -0.127645 153 76 0
0.547230 -0.388583 -0.055105 153 76 0
0.800636 -0.220227 -0.437727 76 153 0
0.831674 0.314079 0.156364 76 153 0
0.415829 -0.355087 -0.437727 0 0 255
-0.046435 -0.176712 -0.376469 76 0 153
0.796669 0.032120 0.052856 76 153 0
0.252188 0.307122 -0.376469 76 0 153
0.562398 -0.109169 0.402378 127 0 127
0.567005 -0.388583 -0.332137 153 76 0
-0.202941 0.327072 -0.402722 255 0 0
0.107442 0.125975 0.402378 127 0 127
0.421774 0.164945 0.428631 127 0 127
-0.458872 -0.353578 0.109647 153 76 0
0.689450 -0.255530 -0.376469 76 0 153
0.641017 -0.172465 -0.376469 76 0 153
-0.226056 -0.202247 0.437619 127 0 127
0.796669 0.232415 0.173470 76 153 0
0.509340 -0.238050 0.443391 127 0 127
-0.387356 0.381513 -0.343401 76 0 153
0.392875 -0.353578 -0.221246 153 76 0
-0.588147 0.369319 -0.437727 255 0 0
0.570844 -0.410460 0.441862 127 0 127
-0.813531 0.224274 -0.410374 153 0 76
0.741316 -0.388583 -0.276851 153 76 0
0.259736 -0.115292 0.428631 127 0 127
0.577456 0.381513 0.091023 76 0 153
-0.257265 0.381513 0.050379 76 0 153
0.010507 0.159372 -0.402722 76 0 153
0.068180 0.381513 0.029157 76 0 153
0.568567 -0.353578 -0.237388 153 76 0
0.016028 0.346509 0.259800 76 0 153
0.048046 0.381513 0.128878 76 0 153
0.428718 -0.201169 0.402378 127 0 127
-0.602210 -0.131167 0.402378 127 0 127
0.018454 -0.388583 -0.021493 153 76 0
-0.476214 0.245141 -0.402722 76 0 153
-0.304346 0.381513 0.083346 76 0 153
-0.453889 -0.353578 0.147367 153 76 0
-0.690285 -0.117758 -0.376469 76 0 153
-0.440891 -0.353578 0.036081 153 76 0
-0.460102 0.311504 0.384978 127 127 0
-0.080981 -0.353578 -0.132412 153 76 0
-0.726020 0.394092 0.381011 204 51 127
-0.778526 -0.397683 0.314812 153 76 0
0.796669 -0.264173 0.078707 76 153 0
0.251123 -0.353578 -0.376995 153 76 0
0.378928 0.381513 -0.322251 76 0 153
0.305046 0.100866 0.402378 127 0 127
0.339102 -0.217817 -0.437727 0 0 255
-0.403504 0.277341 0.402378 127 0 127
0.088184 0.403391 0.424176 127 0 127
-0.634689 0.359451 0.349871 76 0 153
0.831674 0.385212 0.104635 76 153 0
0.577832 -0.290002 -0.437727 0 0 255
0.717457 0.381513 0.115918 76 0 153
-0.628217 0.147028 0.402378 127 0 127
0.670793 0.283743 -0.402722 255 0 0
-0.233966 0.381513 -0.042867 76 0 153
0.605451 0.068518 0.428631 127 0 127
-0.224425 -0.129391 0.402378 127 0 127
0.796669 0.061567 -0.251896 76 153 0
0.467988 -0.211384 -0.376469 76 0 153
-0.360934 -0.353578 0.000824 153 76 0
-0.209924 -0.068921 -0.402722 76 0 153
0.796669 -0.367213 -0.314511 76 153 0
0.831674 -0.362629 0.261647 76 153 0
0.658301 0.229783 0.402378 127 0 127
-0.193341 -0.320943 0.349871 0 255 0
0.584310 0.416517 0.395371 127 127 0
-0.267358 -0.169118 -0.402722 76 0 153
0.607481 0.381513 -0.009737 76 0 153
0.274952 -0.388583 -0.192199 153 76 0
0.288870 0.397662 -0.402722 255 0 0
0.504834 0.233945 -0.402722 76 0 153
0.377839 0.140245 -0.376469 76 0 153
-0.763594 0.381513 0.186382 76 0 153
-0.778526 0.363478 -0.070621 153 0 76
-0.058914 0.392144 0.349871 127 127 0
-0.732309 -0.272180 -0.437727 0 0 255
-0.699394 0.278100 -0.437727 255 0 0
-0.263177 0.263778 -0.376469 76 0 153
0.831674 0.308204 0.325649 76 153 0
-0.393473 0.122500 0.428631 127 0 127
-0.057127 -0.299978 -0.376469 76 0 153
0.486391 0.261927 0.454884 127 0 127
-0.320736 0.402897 0.349871 127 127 0
0.330152 -0.355365 0.402378 0 255 0
-0.333247 0.164101 0.402378 127 0 127
-0.392662 -0.185455 -0.376469 76 0 153
-0.126600 0.381513 0.141117 76 0 153
0.313505 -0.353578 0.268438 153 76 0
0.645566 0.383826 0.402378 127 0 127
0.708558 -0.388583 0.187430 153 76 0
-0.008632 -0.397283 0.402378 127 0 127
0.390601 0.357695 -0.402722 255 0 0
0.559609 -0.353578 0.061558 153 76 0
0.123146 0.363230 -0.402722 255 0 0
0.665832 -0.206624 0.454884 127 0 127
-0.473024 0.416517 0.388264 127 127 0
0.383002 0.234700 -0.437727 255 0 0
0.410121 0.382011 0.402378 127 127 0
-0.200966 -0.143783 0.428631 127 0 127
0.685322 -0.029796 -0.376469 76 0 153
0.725715 0.299538 -0.402722 255 0 0
-0.138031 0.080225 -0.402722 76 0 153
0.166882 0.381513 -0.235738 76 0 153
0.637527 -0.388583 0.325862 153 76 0
-0.267863 0.218521 -0.402722 255 0 0
0.455944 0.346509 0.181321 76 0 153
-0.752980 -0.353578 0.231233 153 76 0
0.425738 -0.249447 0.445229 127 0 127
-0.778526 0.133094 -0.382027 153 0 76
0.744163 -0.339354 0.372058 153 0 76
-0.574323 -0.423587 0.350459 0 255 0
0.729185 -0.353578 -0.346673 153 76 0
-0.251772 0.111997 0.402378 127 0 127
0.266904 0.022161 -0.376469 76 0 153
0.081583 0.381513 -0.085588 76 0 153
0.836049 0.046425 0.426796 127 0 127
0.654779 -0.070701 0.402378 127 0 127
-0.272615 0.346509 0.296330 76 0 153
-0.195789 -0.353578 -0.186134 153 76 0
-0.654255 -0.092060 0.454884 127 0 127
0.195428 -0.353578 0.301008 153 76 0
-0.778526 -0.193658 0.068903 153 0 76
-0.731030 -0.410461 0.427624 127 0 127
0.796669 0.200407 -0.161916 76 153 0
-0.441814 0.249747 0.449884 127 0 127
0.594570 -0.130546 -0.376469 76 0 153
0.128963 0.254954 0.402378 127 0 127
0.319765 0.364867 0.402378 127 127 0
0.323649 -0.002173 0.402378 127 0 127
0.796669 0.015883 0.291911 76 153 0
0.484603 -0.353578 0.174216 153 76 0
0.722629 0.206491 -0.435406 255 0 0
0.647871 -0.204613 -0.376469 76 0 153
0.385009 0.302491 -0.402722 76 0 153
-0.141681 0.363718 -0.402722 255 0 0
0.325342 0.381513 0.119222 76 0 153
0.796669 0.291657 -0.166195 76 153 0
-0.357433 -0.353578 -0.323868 153 76 0
-0.662033 0.238872 -0.402722 76 0 153
0.298502 -0.423587 0.374556 0 255 0
0.744667 -0.388583 0.161193 153 76 0
-0.332018 0.255174 -0.437727 255 0 0
0.626023 0.373775 0.433440 127 0 127
0.623278 0.246790 0.402378 127 0 127
0.831674 0.329590 0.064340 76 153 0
0.642353 -0.388583 -0.035312 153 76 0
0.662980 0.381513 -0.019381 76 0 153
-0.500020 -0.353578 -0.146231 153 76 0
0.831674 -0.162339 -0.290118 76 153 0
-0.018859 0.368685 -0.437727 255 0 0
0.136014 -0.388583 -0.372057 153 76 0
-0.666544 -0.292241 0.454884 127 0 127
0.112218 0.150627 0.428631 127 0 127
0.787546 -0.209412 0.349871 76 153 0
0.604558 0.381513 -0.265773 76 0 153
-0.813531 -0.280830 0.175904 153 0 76
0.050223 -0.353578 0.259586 153 76 0
0.138602 0.342989 0.473502 0 127 127
0.776154 0.274211 -0.402722 255 0 0
0.355381 0.017112 -0.376469 76 0 153
-0.110711 -0.423587 0.391183 127 0 127
-0.778526 -0.235224 0.301855 153 0 76
0.416383 -0.318574 0.366962 0 255 0
-0.813531 -0.284227 -0.145383 153 0 76
-0.555332 -0.093478 0.402378 127 0 127
-0.562285 0.346509 -0.099685 76 0 153
-0.778526 -0.028584 -0.147353 153 0 76
0.464015 -0.388583 -0.033020 153 76 0
-0.186777 0.381513 0.141232 76 0 153
0.222652 0.107037 0.402378 127 0 127
-0.098910 -0.353578 0.115080 153 76 0
-0.183956 0.012089 0.402378 127 0 127
-0.599829 0.158565 -0.376469 76 0 153
-0.694018 0.110092 -0.376469 76 0 153
0.645825 -0.015635 -0.376469 76 0 153
-0.813531 -0.395962 0.250810 153 0 76
-0.817906 0.267053 0.417366 127 0 127
0.698629 0.349416 0.349871 127 127 0
0.601785 0.218468 0.402378 127 0 127
-0.096540 -0.388583 -0.211690 153 76 0
0.530890 0.381513 0.106725 76 0 153
0.831674 0.261667 0.117371 76 153 0
0.831674 0.394879 0.224779 76 153 0
-0.722876 0.381513 0.178124 76 0 153
0.832731 -0.207438 0.349871 153 0 76
-0.575186 -0.105457 -0.376469 76 0 153
0.300947 -0.326987 -0.437727 0 0 255
0.466078 0.346509 0.074973 76 0 153
-0.626218 -0.200613 -0.376469 76 0 153
-0.648237 0.416366 -0.402722 255 0 0
-0.603284 -0.241583 -0.376469 76 0 153
-0.475117 -0.131592 0.402378 127 0 127
0.209079 -0.229508 0.442014 127 0 127
-0.778526 0.019690 -0.410368 153 0 76
-0.789624 -0.305813 0.454884 127 0 127
0.157359 -0.058459 0.402378 127 0 127
-0.315953 -0.353578 -0.070958 153 76 0
0.195240 -0.353578 -0.200610 153 76 0
-0.704893 0.101127 -0.402722 76 0 153
-0.790913 0.131612 0.349871 204 51 127
-0.739472 0.289058 -0.376469 76 0 153
-0.741678 -0.388583 0.164389 153 76 0
-0.341907 -0.119480 0.402378 127 0 127
0.482192 0.089477 0.402378 127 0 127
-0.806873 -0.423586 0.082211 153 0 76
-0.475909 0.346509 -0.039626 76 0 153
-0.286135 -0.388583 0.330320 153 76 0
-0.474078 0.192088 -0.376469 76 0 153
0.796669 0.354468 -0.297092 76 153 0
-0.721361 -0.311567 -0.376469 76 0 153
-0.217896 0.366775 -0.402722 255 0 0
0.460765 -0.353578 -0.070693 153 76 0
-0.230153 0.060685 -0.402722 76 0 153
-0.354962 0.107735 -0.376469 76 0 153
-0.123965 -0.388583 -0.133885 153 76 0
0.789010 0.192784 -0.402722 76 153 0
0.614366 0.381513 0.286694 76 0 153
-0.750351 0.381513 0.043667 76 0 153
0.361254 -0.175903 -0.402722 76 0 153
-0.045819 0.346509 -0.009891 76 0 153
-0.778526 0.304408 -0.380851 153 0 76
0.030871 -0.391207 0.349871 0 255 0
0.079315 0.249391 -0.376469 76 0 153
0.480885 -0.015586 -0.376469 76 0 153
-0.491778 -0.223946 -0.376469 76 0 153
-0.831033 -0.384918 0.368367 204 51 127
0.796669 0.297880 -0.201395 76 153 0
0.728291 0.022780 -0.376469 76 0 153
0.539959 0.036395 -0.376469 76 0 153
-0.239083 0.346509 0.174063 76 0 153
0.831674 0.015687 0.253313 76 153 0
0.319509 -0.353578 0.031845 153 76 0
-0.294716 0.385794 0.402378 127 0 127
-0.362259 -0.386389 0.454884 127 0 127
-0.784742 0.041993 0.454884 127 0 127
0.598146 0.031193 0.402378 127 0 127
0.831674 -0.327959 -0.088075 76 153 0
0.025697 0.381513 0.105992 76 0 153
-0.086128 0.250067 -0.376469 76 0 153
0.557762 -0.353567 0.454884 127 0 127
0.773877 0.381513 0.303451 76 0 153
-0.813531 -0.211049 0.014227 153 0 76
-0.669261 -0.410461 0.432165 127 0 127
-0.813531 0.263961 0.139529 153 0 76
0.822616 -0.238572 0.402378 153 0 76
-0.778526 0.190769 0.032361 153 0 76
0.796669 0.286059 0.144179 76 153 0
0.831674 -0.265946 -0.066752 76 153 0
-0.489329 0.026438 0.428631 127 0 127
-0.778526 0.221926 0.279429 153 0 76
-0.016044 -0.388583 -0.108797 153 76 0
0.630794 0.381513 0.315874 76 0 153
0.304809 0.381513 0.290092 76 0 153
-0.044843 -0.300544 0.454884 127 0 127
0.849176 0.042540 0.382157 153 0 76
-0.419545 -0.388583 -0.176952 153 76 0
-0.423963 -0.353578 0.348764 0 255 0
0.681380 -0.388583 -0.127547 153 76 0
-0.366097 -0.270533 -0.402722 0 0 255
-0.550003 -0.383178 0.454884 127 0 127
0.595084 -0.353578 0.170296 153 76 0
0.564737 -0.353578 -0.338405 153 76 0
-0.431598 0.004500 0.402378 127 0 127
-0.813531 0.251315 -0.057391 153 0 76
-0.056867 0.247541 -0.376469 76 0 153
-0.186311 -0.388583 0.197413 153 76 0
-0.395277 -0.386046 0.402378 0 255 0
-0.532269 -0.388583 -0.281041 153 76 0
-0.575985 0.346509 -0.197723 76 0 153
-0.235308 0.016576 0.402378 127 0 127
-0.561270 -0.353578 -0.089724 153 76 0
-0.497918 -0.388583 -0.377211 153 76 0
-0.729044 -0.388583 0.234746 153 76 0
-0.137276 0.381513 -0.056704 76 0 153
-0.111420 0.346509 -0.019109 76 0 153
-0.511932 0.405589 -0.437727 255 0 0
-0.501812 0.381513 -0.038637 76 0 153
-0.262004 -0.388583 -0.338662 153 76 0
0.796669 0.152919 -0.196118 76 153 0
0.492479 0.206491 -0.435931 255 0 0
-0.441300 0.221159 0.402378 127 0 127
0.574645 0.269896 0.402378 127 0 127
0.706088 -0.360656 0.402378 0 255 0
-0.813531 -0.052245 0.279860 153 0 76
-0.778526 -0.380183 -0.078753 153 0 76
-0.475351 -0.319351 -0.437727 0 0 255
0.793266 0.289515 0.349871 153 0 76
-0.769699 0.346509 0.101294 76 0 153
0.796669 0.085702 0.319992 76 153 0
0.144462 0.346509 -0.206016 76 0 153
0.506584 -0.049055 0.428631 127 0 127
-0.448586 -0.388583 -0.091846 153 76 0
0.040923 -0.388583 -0.249140 153 76 0
0.138965 0.416517 0.374939 127 127 0
