ply
format ascii 1.0
element vertex 635
property float x
property float y
property float z
property float nx
property float ny
property float nz
property uchar red
property uchar green
property uchar blue
property float opacity
end_header
-0.628255 -0.402346 -0.202425 -1.000000 0.000000 0.000000 83 24 5 1.000000
0.610114 0.183791 -0.072372 0.000000 1.000000 0.000000 74 22 6 1.000000
-0.757086 0.158613 0.006438 -0.189758 -0.981831 -0.000000 80 26 8 1.000000
-0.594058 0.062759 -0.071398 1.000000 0.000000 0.000000 76 26 2 1.000000
-0.594058 0.125134 -0.085955 1.000000 0.000000 0.000000 80 25 6 1.000000
0.727072 0.183791 -0.015997 0.000000 -1.000000 -0.000000 255 255 255 1.000000
-0.439427 0.078078 0.198536 0.000000 -0.000000 1.000000 77 25 6 1.000000
-0.597012 0.021354 0.083163 0.000000 1.000000 0.000000 255 255 255 1.000000
0.466742 0.039691 -0.194731 0.000000 0.000000 -1.000000 73 24 6 1.000000
-0.243537 0.066419 -0.015683 -1.000000 0.000000 0.000000 182 122 72 1.000000
-0.602764 -0.322654 0.207085 0.000000 0.000000 -1.000000 255 255 255 1.000000
0.306014 0.158143 0.218141 0.000000 1.000000 0.000000 255 255 255 1.000000
0.655862 0.183791 -0.005125 0.000000 1.000000 0.000000 80 25 5 1.000000
-0.592160 -0.277289 0.151284 0.000000 0.047565 0.998868 255 255 255 1.000000
-0.165341 -0.546347 0.014726 0.000000 0.000000 -1.000000 74 23 6 1.000000
0.638671 -0.244172 0.207085 0.000000 0.000000 -1.000000 255 255 255 1.000000
-0.476730 0.183791 -0.077519 0.000000 -1.000000 -0.000000 255 255 255 1.000000
0.676131 0.162250 0.255185 0.000000 0.840210 -0.542261 255 255 255 1.000000
-0.602576 0.093354 0.207085 0.000000 -0.000000 1.000000 79 26 7 1.000000
-0.157153 0.110215 -0.194731 0.000000 0.000000 -1.000000 80 26 8 1.000000
0.648743 -0.526765 0.207085 0.000000 -0.000000 1.000000 82 26 6 1.000000
-0.383798 0.183791 -0.233526 0.000000 1.000000 0.000000 75 24 6 1.000000
0.277969 0.095947 -0.040393 -1.000000 0.000000 0.000000 202 143 87 1.000000
0.511374 0.158143 0.088451 0.000000 -1.000000 -0.000000 81 27 6 1.000000
0.262781 0.122139 -0.134886 0.000000 -0.000000 1.000000 194 139 85 1.000000
0.654065 -0.345673 0.207085 0.000000 0.000000 -1.000000 255 255 255 1.000000
0.468629 0.183791 -0.232721 0.000000 -1.000000 -0.000000 255 255 255 1.000000
0.511809 0.124870 0.198536 0.000000 0.000000 -1.000000 255 255 255 1.000000
0.231029 0.157551 -0.169083 0.000000 -0.000000 1.000000 77 24 6 1.000000
0.724877 0.183791 0.236958 0.000000 -1.000000 -0.000000 255 255 255 1.000000
-0.591781 -0.047264 -0.136525 0.000000 -0.047565 0.998868 80 26 5 1.000000
-0.543842 0.163832 -0.253565 -0.000000 -0.778582 -0.627543 77 23 3 1.000000
0.575553 0.183791 0.115257 0.000000 1.000000 0.000000 84 30 5 1.000000
0.705630 0.158143 0.227378 0.000000 1.000000 0.000000 255 255 255 1.000000
0.289961 0.121086 -0.169083 0.000000 0.000000 -1.000000 74 26 6 1.000000
-0.455787 0.046160 0.198536 0.000000 -0.000000 1.000000 76 26 6 1.000000
0.296890 0.067093 -0.194731 0.000000 -0.000000 1.000000 77 26 6 1.000000
0.638108 0.152440 -0.062869 -1.000000 0.000000 0.000000 82 31 5 1.000000
-0.309581 0.158143 -0.100462 0.000000 1.000000 0.000000 255 255 255 1.000000
0.663734 0.021635 0.034716 0.995768 0.091901 0.000000 81 25 6 1.000000
-0.594058 -0.542929 0.046962 -1.000000 0.000000 0.000000 255 255 255 1.000000
0.163032 0.183791 -0.175486 0.000000 1.000000 0.000000 78 27 5 1.000000
0.618234 0.183791 -0.165651 0.000000 1.000000 0.000000 80 27 5 1.000000
0.315645 0.053240 0.105428 -1.000000 0.000000 0.000000 255 255 255 1.000000
0.275244 0.183791 0.114206 0.000000 1.000000 0.000000 80 27 6 1.000000
-0.777122 0.183791 -0.100119 0.000000 1.000000 0.000000 74 22 4 1.000000
-0.624525 -0.723640 0.172539 0.000000 -0.047565 -0.998868 75 26 7 1.000000
0.187881 0.072650 0.085050 0.000000 1.000000 0.000000 210 153 98 1.000000
0.502453 0.066451 -0.194731 0.000000 -0.000000 1.000000 74 23 6 1.000000
-0.712107 0.183791 0.047601 0.000000 -1.000000 -0.000000 255 255 255 1.000000
0.328281 0.101395 0.198536 0.000000 0.000000 -1.000000 255 255 255 1.000000
-0.725672 0.158143 -0.094239 0.000000 -1.000000 -0.000000 76 24 8 1.000000
-0.619706 0.090230 -0.124108 -1.000000 0.000000 0.000000 72 23 8 1.000000
0.782018 0.158143 0.014568 0.000000 1.000000 0.000000 255 255 255 1.000000
-0.754038 0.158212 -0.129301 0.070918 0.997482 0.000000 255 255 255 1.000000
0.193322 0.183791 0.206019 0.000000 1.000000 0.000000 79 25 7 1.000000
-0.256050 0.172188 0.264147 0.000000 0.452538 -0.891745 255 255 255 1.000000
0.641217 -0.208047 0.207085 0.000000 0.000000 -1.000000 255 255 255 1.000000
0.637039 -0.566916 0.011116 1.000000 0.000000 0.000000 79 25 4 1.000000
0.696237 0.183791 -0.187193 0.000000 1.000000 0.000000 78 25 6 1.000000
0.548103 0.183791 -0.060451 0.000000 1.000000 0.000000 81 30 8 1.000000
0.643451 0.088321 0.153655 -1.000000 0.000000 0.000000 255 255 255 1.000000
0.418456 0.183791 0.264412 0.000000 1.000000 0.000000 80 27 6 1.000000
-0.748157 0.158143 -0.039221 0.000000 -1.000000 -0.000000 78 28 7 1.000000
0.388167 0.066792 -0.194731 0.000000 0.000000 -1.000000 80 25 8 1.000000
-0.493647 0.183791 0.011144 0.000000 1.000000 0.000000 81 22 3 1.000000
0.412514 0.183791 0.067918 0.000000 -1.000000 -0.000000 255 255 255 1.000000
0.469809 0.183791 0.089243 0.000000 -1.000000 -0.000000 255 255 255 1.000000
-0.310058 0.183791 0.176533 0.000000 -1.000000 -0.000000 255 255 255 1.000000
0.038307 0.158143 -0.143028 0.000000 -1.000000 -0.000000 78 27 8 1.000000
0.306762 0.029904 -0.144381 0.000000 1.000000 0.000000 255 255 255 1.000000
0.587637 0.158143 0.147017 0.000000 1.000000 0.000000 255 255 255 1.000000
0.792473 0.164531 0.258218 0.000000 -0.750975 0.660330 77 27 7 1.000000
0.450009 0.183791 -0.096240 0.000000 1.000000 0.000000 79 28 8 1.000000
0.637039 -0.546691 -0.130975 1.000000 0.000000 0.000000 255 255 255 1.000000
-0.197162 0.112771 0.181438 0.000000 -0.000000 1.000000 255 255 255 1.000000
0.220229 0.055552 0.186410 0.000000 1.000000 0.000000 77 25 5 1.000000
0.636796 -0.270169 -0.147140 0.000000 -0.047565 0.998868 80 25 7 1.000000
-0.669936 0.158143 -0.059297 0.000000 1.000000 0.000000 255 255 255 1.000000
-0.164500 0.064101 -0.106020 0.000000 -1.000000 -0.000000 205 147 88 1.000000
-0.472559 0.158143 0.017362 0.000000 -1.000000 -0.000000 77 28 4 1.000000
0.130874 0.158143 0.077766 0.000000 -1.000000 -0.000000 81 28 8 1.000000
-0.491260 0.158143 -0.198421 0.000000 1.000000 0.000000 255 255 255 1.000000
-0.188689 0.183791 -0.231464 0.000000 1.000000 0.000000 76 23 5 1.000000
0.529951 0.094179 -0.169083 0.000000 -0.000000 1.000000 80 27 9 1.000000
0.829325 0.181928 0.232756 0.997357 -0.072654 -0.000000 82 27 9 1.000000
-0.405728 0.073979 0.172888 0.000000 0.000000 -1.000000 79 25 4 1.000000
0.430056 0.059952 -0.194731 0.000000 0.000000 -1.000000 75 23 5 1.000000
0.448922 -0.550422 0.014726 0.000000 0.000000 -1.000000 79 26 7 1.000000
0.662716 0.183791 -0.037109 0.000000 1.000000 0.000000 80 27 6 1.000000
-0.123735 0.072650 0.117156 0.000000 -1.000000 -0.000000 255 255 255 1.000000
0.418673 0.158143 0.201762 0.000000 -1.000000 -0.000000 79 26 6 1.000000
0.654693 -0.567239 -0.203280 0.000000 0.000000 -1.000000 80 26 5 1.000000
-0.647013 0.183791 0.130000 0.000000 1.000000 0.000000 79 26 7 1.000000
-0.460085 0.158143 0.061009 0.000000 -1.000000 -0.000000 80 26 5 1.000000
-0.358812 0.158143 -0.037090 0.000000 -1.000000 -0.000000 76 25 7 1.000000
0.366330 0.158143 0.047510 0.000000 1.000000 0.000000 255 255 255 1.000000
-0.106457 0.183791 0.168304 0.000000 -1.000000 -0.000000 255 255 255 1.000000
-0.040491 0.158143 0.105509 0.000000 1.000000 0.000000 255 255 255 1.000000
0.104432 0.130274 -0.169083 0.000000 -0.000000 1.000000 79 24 7 1.000000
0.268061 0.158681 -0.242674 -0.000000 -0.979248 -0.202668 79 26 6 1.000000
0.756544 0.158143 -0.095013 0.000000 1.000000 0.000000 255 255 255 1.000000
-0.018262 0.132495 0.176199 0.000000 -1.000000 -0.000000 255 255 255 1.000000
0.393649 0.055210 0.172888 0.000000 -0.000000 1.000000 255 255 255 1.000000
0.544909 0.158143 0.096256 0.000000 -1.000000 -0.000000 75 24 6 1.000000
-0.606165 -0.103919 0.207085 0.000000 -0.000000 1.000000 77 28 7 1.000000
-0.381917 0.183791 0.087089 0.000000 1.000000 0.000000 74 25 4 1.000000
-0.582013 0.126445 -0.175495 0.000000 -0.000000 1.000000 78 27 6 1.000000
-0.104267 0.025473 0.197468 -0.000000 -0.482323 -0.875993 255 255 255 1.000000
-0.637853 0.158143 -0.070937 0.000000 1.000000 0.000000 255 255 255 1.000000
-0.596703 -0.049287 -0.203280 0.000000 -0.000000 1.000000 255 255 255 1.000000
0.607188 0.012188 -0.203280 0.000000 0.000000 -1.000000 81 26 4 1.000000
0.612598 -0.217726 -0.162513 0.998868 0.047565 0.000000 255 255 255 1.000000
-0.254589 0.183791 -0.199344 0.000000 1.000000 0.000000 78 25 5 1.000000
-0.234988 0.091680 0.179520 -1.000000 0.000000 0.000000 205 144 85 1.000000
0.282127 0.064101 -0.036661 0.000000 1.000000 0.000000 255 255 255 1.000000
-0.276613 0.183791 0.171951 0.000000 1.000000 0.000000 82 28 4 1.000000
-0.581957 -0.476872 0.177769 -0.998868 0.047565 0.000000 255 255 255 1.000000
-0.466133 0.159375 0.249100 0.000000 -0.952371 0.304942 80 27 8 1.000000
-0.234988 0.098886 -0.051917 -1.000000 0.000000 0.000000 217 157 100 1.000000
0.739003 0.158143 0.200134 0.000000 1.000000 0.000000 255 255 255 1.000000
0.033896 0.158143 0.145620 0.000000 1.000000 0.000000 255 255 255 1.000000
-0.252087 0.104502 0.010545 -1.000000 0.000000 0.000000 199 140 84 1.000000
0.371170 0.183791 0.072118 0.000000 -1.000000 -0.000000 255 255 255 1.000000
0.647607 0.183791 -0.202503 0.000000 -1.000000 -0.000000 255 255 255 1.000000
0.046780 0.101731 -0.151985 0.000000 0.000000 -1.000000 186 130 78 1.000000
0.810744 0.159125 -0.034482 0.272779 -0.962077 -0.000000 79 24 7 1.000000
-0.619706 -0.561426 -0.052448 -1.000000 0.000000 0.000000 75 26 8 1.000000
0.083226 0.123946 0.177010 0.000000 1.000000 0.000000 255 255 255 1.000000
-0.706774 0.158143 0.135568 0.000000 -1.000000 -0.000000 82 26 8 1.000000
-0.219607 0.021354 0.179031 0.000000 -1.000000 -0.000000 74 24 6 1.000000
0.323187 0.158143 0.137701 0.000000 -1.000000 -0.000000 80 27 8 1.000000
-0.129914 0.072650 0.050508 0.000000 -1.000000 -0.000000 255 255 255 1.000000
-0.594703 -0.730983 0.194668 0.000000 1.000000 0.000000 255 255 255 1.000000
0.611623 -0.197237 0.183406 -0.998868 -0.047565 -0.000000 74 23 6 1.000000
0.671236 0.010397 -0.172831 1.000000 0.000000 0.000000 80 24 6 1.000000
-0.628255 0.012928 0.175210 1.000000 0.000000 0.000000 255 255 255 1.000000
-0.777858 0.183508 -0.203266 -0.999269 -0.038228 -0.000000 78 25 5 1.000000
0.638108 0.066604 -0.109651 1.000000 0.000000 0.000000 255 255 255 1.000000
-0.520597 0.183791 -0.231197 0.000000 -1.000000 -0.000000 255 255 255 1.000000
0.671236 0.070970 0.184830 -1.000000 0.000000 0.000000 255 255 255 1.000000
0.034425 0.127083 0.206485 -0.000000 -0.367121 -0.930173 255 255 255 1.000000
0.312175 0.029904 -0.099596 0.000000 -1.000000 -0.000000 206 147 91 1.000000
-0.333190 0.183791 -0.140932 0.000000 -1.000000 -0.000000 255 255 255 1.000000
0.669459 -0.728587 0.207085 0.000000 0.000000 -1.000000 255 255 255 1.000000
0.264349 0.034542 -0.093147 1.000000 0.000000 0.000000 255 255 255 1.000000
-0.624092 0.183791 0.158078 0.000000 1.000000 0.000000 79 24 4 1.000000
-0.081070 0.158143 -0.083803 0.000000 1.000000 0.000000 255 255 255 1.000000
0.762993 0.183791 -0.116716 0.000000 1.000000 0.000000 82 30 5 1.000000
0.662687 -0.542442 0.044529 1.000000 0.000000 0.000000 79 27 9 1.000000
-0.488122 0.183791 -0.250312 0.000000 -1.000000 -0.000000 255 255 255 1.000000
-0.717037 0.158143 -0.202557 0.000000 -1.000000 -0.000000 86 29 5 1.000000
0.174488 0.072650 0.182720 0.000000 1.000000 0.000000 210 149 97 1.000000
-0.481466 0.042890 0.172888 0.000000 0.000000 -1.000000 81 27 7 1.000000
0.729219 0.158143 -0.153661 0.000000 1.000000 0.000000 255 255 255 1.000000
0.053279 0.074145 0.206921 0.002864 0.034320 -0.999407 255 255 255 1.000000
0.671236 -0.649765 0.195402 -1.000000 0.000000 0.000000 255 255 255 1.000000
-0.628255 -0.258759 -0.170266 -1.000000 0.000000 0.000000 78 25 2 1.000000
0.441049 0.158143 0.046559 0.000000 -1.000000 -0.000000 80 27 8 1.000000
0.234752 0.158143 -0.119667 0.000000 -1.000000 -0.000000 78 28 5 1.000000
-0.064562 0.072650 0.119854 0.000000 1.000000 0.000000 221 163 103 1.000000
0.637039 -0.562284 0.051953 -1.000000 0.000000 0.000000 70 21 4 1.000000
-0.142455 0.072650 -0.078005 0.000000 1.000000 0.000000 209 146 89 1.000000
-0.354283 0.047971 0.172888 0.000000 0.000000 -1.000000 78 25 5 1.000000
0.668284 -0.599230 -0.162809 0.000000 -0.047565 0.998868 70 19 1 1.000000
0.267967 0.072650 -0.081959 0.000000 1.000000 0.000000 208 139 90 1.000000
-0.303989 0.183791 0.229738 0.000000 -1.000000 -0.000000 255 255 255 1.000000
0.638108 0.114907 0.062283 -1.000000 0.000000 0.000000 77 26 8 1.000000
-0.400519 0.091348 -0.169083 0.000000 0.000000 -1.000000 76 25 8 1.000000
0.826084 0.183791 0.165122 0.000000 -1.000000 -0.000000 255 255 255 1.000000
0.246857 0.183791 0.191522 0.000000 1.000000 0.000000 74 23 6 1.000000
0.538355 0.158143 -0.123820 0.000000 1.000000 0.000000 255 255 255 1.000000
-0.028551 0.064101 -0.078552 0.000000 1.000000 0.000000 255 255 255 1.000000
0.636801 -0.725981 0.185627 -0.998868 -0.047565 -0.000000 83 26 7 1.000000
0.054592 0.072650 0.159056 0.000000 1.000000 0.000000 210 149 91 1.000000
-0.418786 0.158143 0.224223 0.000000 -1.000000 -0.000000 79 26 8 1.000000
-0.496744 0.158143 -0.123225 0.000000 -1.000000 -0.000000 77 22 4 1.000000
-0.299019 0.183791 -0.229941 0.000000 1.000000 0.000000 80 26 6 1.000000
0.636938 0.183791 -0.103064 0.000000 -1.000000 -0.000000 255 255 255 1.000000
0.224744 0.158279 0.243781 0.000000 -0.995238 0.097472 82 27 5 1.000000
-0.628255 -0.072484 -0.202089 1.000000 0.000000 0.000000 255 255 255 1.000000
-0.284663 0.158143 0.079240 0.000000 -1.000000 -0.000000 76 26 6 1.000000
0.291599 0.183791 0.147060 0.000000 -1.000000 -0.000000 255 255 255 1.000000
-0.238741 0.158450 -0.241353 -0.000000 -0.988504 -0.151192 78 26 8 1.000000
0.545304 0.054774 -0.194731 0.000000 -0.000000 1.000000 74 23 5 1.000000
-0.317484 0.183791 0.090884 0.000000 1.000000 0.000000 79 25 5 1.000000
-0.577552 0.183791 0.104505 0.000000 1.000000 0.000000 83 30 8 1.000000
0.007825 0.183791 0.235282 0.000000 1.000000 0.000000 79 27 6 1.000000
-0.001245 0.158143 0.029483 0.000000 -1.000000 -0.000000 69 19 6 1.000000
0.174541 0.183791 -0.060469 0.000000 1.000000 0.000000 77 26 8 1.000000
0.486593 0.072698 0.172888 0.000000 0.000000 -1.000000 77 25 6 1.000000
0.144562 0.158143 0.188353 0.000000 1.000000 0.000000 255 255 255 1.000000
-0.298946 0.095690 0.198536 0.000000 0.000000 -1.000000 255 255 255 1.000000
0.793901 0.183791 -0.174451 0.000000 -1.000000 -0.000000 255 255 255 1.000000
0.201555 0.158143 0.093188 0.000000 -1.000000 -0.000000 84 32 10 1.000000
-0.594058 0.114484 -0.123477 -1.000000 0.000000 0.000000 255 255 255 1.000000
-0.338685 0.183791 -0.054758 0.000000 1.000000 0.000000 75 24 7 1.000000
-0.540662 0.158143 0.117850 0.000000 -1.000000 -0.000000 74 22 2 1.000000
0.142209 0.158143 -0.017191 0.000000 1.000000 0.000000 255 255 255 1.000000
-0.174225 0.158143 0.038582 0.000000 1.000000 0.000000 255 255 255 1.000000
-0.562961 -0.077946 -0.179665 -0.998868 0.047565 0.000000 255 255 255 1.000000
0.641400 0.078774 0.207085 0.000000 -0.000000 1.000000 78 24 3 1.000000
-0.277705 0.149594 0.174251 0.000000 1.000000 0.000000 255 255 255 1.000000
-0.229402 0.183791 -0.002114 0.000000 -1.000000 -0.000000 255 255 255 1.000000
-0.628255 -0.194716 -0.166706 -1.000000 0.000000 0.000000 80 28 9 1.000000
0.500418 0.158143 0.051110 0.000000 -1.000000 -0.000000 81 28 10 1.000000
-0.293726 -0.551015 0.014726 0.000000 0.000000 -1.000000 81 27 3 1.000000
0.444702 0.158841 -0.243363 -0.000000 -0.973287 -0.229592 86 28 5 1.000000
0.651973 -0.397321 -0.203280 0.000000 0.000000 -1.000000 80 25 7 1.000000
0.450488 -0.568563 -0.010922 0.000000 -0.000000 1.000000 255 255 255 1.000000
-0.502897 -0.548524 0.014726 0.000000 -0.000000 1.000000 75 22 5 1.000000
-0.604556 -0.027501 0.139389 0.000000 -0.047565 -0.998868 75 23 6 1.000000
0.439439 0.158143 -0.189542 0.000000 1.000000 0.000000 74 24 7 1.000000
0.771955 0.158143 0.101862 0.000000 -1.000000 -0.000000 83 31 6 1.000000
0.625078 0.054535 -0.175495 0.000000 0.000000 -1.000000 83 26 7 1.000000
0.797704 0.183791 0.100591 0.000000 -1.000000 -0.000000 255 255 255 1.000000
0.493469 0.183791 0.118992 0.000000 1.000000 0.000000 72 20 3 1.000000
-0.059332 0.183791 0.107935 0.000000 1.000000 0.000000 78 24 7 1.000000
-0.000708 0.047524 0.172888 0.000000 -0.000000 1.000000 255 255 255 1.000000
-0.545728 0.183791 -0.194451 0.000000 1.000000 0.000000 80 30 10 1.000000
0.020165 0.123946 0.173996 0.000000 1.000000 0.000000 255 255 255 1.000000
0.111469 0.158143 -0.063902 0.000000 1.000000 0.000000 255 255 255 1.000000
-0.062942 0.158143 0.055467 0.000000 -1.000000 -0.000000 82 28 4 1.000000
0.375971 -0.573064 -0.010911 -0.000007 -0.706481 -0.707732 78 24 2 1.000000
0.671236 0.101920 -0.146120 -1.000000 0.000000 0.000000 255 255 255 1.000000
0.358823 0.021646 -0.169083 0.000000 -0.000000 1.000000 79 25 7 1.000000
-0.197706 0.183791 0.126904 0.000000 1.000000 0.000000 79 25 3 1.000000
0.463195 0.132495 0.173263 0.000000 -1.000000 -0.000000 255 255 255 1.000000
-0.594058 0.021446 -0.049615 -1.000000 0.000000 0.000000 255 255 255 1.000000
-0.205896 0.159188 0.248486 0.000000 -0.959711 0.280987 77 24 6 1.000000
0.107831 0.072650 -0.107216 0.000000 -1.000000 -0.000000 255 255 255 1.000000
-0.628255 -0.663682 -0.169451 1.000000 0.000000 0.000000 255 255 255 1.000000
0.299544 -0.548678 -0.010922 0.000000 0.000000 -1.000000 73 22 5 1.000000
0.414380 0.140085 -0.194731 0.000000 0.000000 -1.000000 80 26 10 1.000000
-0.364136 0.025550 -0.169083 0.000000 -0.000000 1.000000 82 29 3 1.000000
0.129052 0.183791 0.160265 0.000000 -1.000000 -0.000000 255 255 255 1.000000
-0.596890 -0.659628 0.207085 0.000000 0.000000 -1.000000 255 255 255 1.000000
0.341273 0.046454 0.172888 0.000000 0.000000 -1.000000 77 26 8 1.000000
0.277969 0.095292 0.101938 1.000000 0.000000 0.000000 202 145 88 1.000000
0.285464 0.055552 0.117053 0.000000 1.000000 0.000000 207 144 87 1.000000
-0.252087 0.094327 -0.139549 1.000000 0.000000 0.000000 217 161 100 1.000000
0.519210 0.158143 -0.157516 0.000000 -1.000000 -0.000000 81 28 5 1.000000
0.431593 0.046800 0.198536 0.000000 0.000000 -1.000000 255 255 255 1.000000
-0.082931 -0.565041 -0.010922 0.000000 -0.000000 1.000000 255 255 255 1.000000
-0.011425 0.183791 -0.144556 0.000000 1.000000 0.000000 70 23 5 1.000000
0.638108 0.127377 0.126097 1.000000 0.000000 0.000000 255 255 255 1.000000
0.685015 0.183791 0.116015 0.000000 -1.000000 -0.000000 255 255 255 1.000000
-0.354692 0.081347 0.198536 0.000000 -0.000000 1.000000 82 30 4 1.000000
-0.031636 0.158143 -0.062127 0.000000 -1.000000 -0.000000 75 26 4 1.000000
0.745455 0.183791 -0.146430 0.000000 -1.000000 -0.000000 255 255 255 1.000000
-0.523122 0.183791 -0.162512 0.000000 1.000000 0.000000 84 29 4 1.000000
0.829356 0.182517 -0.012100 0.998343 -0.057541 -0.000000 83 29 5 1.000000
-0.176565 0.181534 -0.263013 0.000000 0.088042 0.996117 255 255 255 1.000000
0.166446 0.072650 -0.014783 0.000000 1.000000 0.000000 216 151 95 1.000000
-0.302950 0.183791 -0.167575 0.000000 1.000000 0.000000 77 26 11 1.000000
-0.324289 0.109057 -0.169083 0.000000 0.000000 -1.000000 79 26 7 1.000000
0.197329 0.165076 0.258800 0.000000 0.730083 -0.683358 255 255 255 1.000000
0.291321 0.055552 0.013062 0.000000 1.000000 0.000000 205 146 96 1.000000
0.638990 -0.118023 -0.139895 0.000000 -0.047565 0.998868 71 22 5 1.000000
-0.628255 0.126081 -0.163982 1.000000 0.000000 0.000000 255 255 255 1.000000
-0.343352 0.144495 -0.194731 0.000000 -0.000000 1.000000 75 24 6 1.000000
-0.502114 0.183791 0.051044 0.000000 -1.000000 -0.000000 255 255 255 1.000000
-0.651676 0.158143 -0.122911 0.000000 1.000000 0.000000 255 255 255 1.000000
-0.596410 -0.282572 -0.147730 0.000000 0.047565 -0.998868 255 255 255 1.000000
0.741346 0.158143 0.129298 0.000000 1.000000 0.000000 255 255 255 1.000000
-0.569667 0.050581 0.207085 0.000000 -0.000000 1.000000 79 25 1 1.000000
0.056783 0.158143 0.094061 0.000000 -1.000000 -0.000000 81 29 5 1.000000
0.187993 0.105158 -0.194731 0.000000 -0.000000 1.000000 83 29 6 1.000000
-0.396381 0.183791 0.238603 0.000000 -1.000000 -0.000000 255 255 255 1.000000
0.603016 -0.016508 -0.152986 0.998868 0.047565 0.000000 255 255 255 1.000000
-0.236898 0.158143 -0.169811 0.000000 -1.000000 -0.000000 77 24 1 1.000000
0.521064 0.159095 0.248180 0.000000 -0.963143 0.268991 79 27 6 1.000000
-0.401745 0.158143 0.185823 0.000000 1.000000 0.000000 255 255 255 1.000000
0.333106 0.158143 0.177920 0.000000 1.000000 0.000000 255 255 255 1.000000
0.277969 0.104880 0.051653 1.000000 0.000000 0.000000 222 164 105 1.000000
0.810397 0.159020 0.038850 -0.259166 0.965833 0.000000 255 255 255 1.000000
-0.145555 0.064101 -0.009146 0.000000 -1.000000 -0.000000 230 168 109 1.000000
0.096361 0.183791 -0.223814 0.000000 -1.000000 -0.000000 255 255 255 1.000000
0.303454 0.158143 -0.064768 0.000000 -1.000000 -0.000000 73 21 4 1.000000
-0.342101 0.158143 0.018609 0.000000 1.000000 0.000000 255 255 255 1.000000
-0.186832 -0.549080 -0.010922 0.000000 0.000000 -1.000000 75 24 7 1.000000
0.237409 0.072650 0.074303 0.000000 -1.000000 -0.000000 255 255 255 1.000000
-0.042898 0.072650 -0.040233 0.000000 -1.000000 -0.000000 255 255 255 1.000000
-0.088168 0.064101 -0.006555 0.000000 -1.000000 -0.000000 212 149 94 1.000000
0.662687 -0.558925 0.117254 -1.000000 0.000000 0.000000 255 255 255 1.000000
0.008520 0.072650 -0.122288 0.000000 1.000000 0.000000 199 140 84 1.000000
0.503719 0.042182 0.172888 0.000000 -0.000000 1.000000 255 255 255 1.000000
0.094528 0.183791 -0.080692 0.000000 1.000000 0.000000 77 23 7 1.000000
0.633960 0.158143 0.177958 0.000000 1.000000 0.000000 255 255 255 1.000000
-0.105851 0.183791 -0.084207 0.000000 -1.000000 -0.000000 255 255 255 1.000000
0.637039 -0.539915 0.086897 1.000000 0.000000 0.000000 255 255 255 1.000000
0.631469 0.000503 0.138691 0.000000 -0.000000 1.000000 255 255 255 1.000000
0.049429 0.183791 0.229627 0.000000 -1.000000 -0.000000 255 255 255 1.000000
-0.041932 0.072650 0.013133 0.000000 -1.000000 -0.000000 255 255 255 1.000000
0.642066 0.025621 0.207085 0.000000 -0.000000 1.000000 74 27 8 1.000000
-0.427341 -0.561025 0.014726 0.000000 0.000000 -1.000000 80 24 6 1.000000
-0.628255 0.069345 0.180660 -1.000000 0.000000 0.000000 78 24 2 1.000000
-0.673747 0.158143 0.150676 0.000000 1.000000 0.000000 255 255 255 1.000000
0.513456 -0.557010 -0.010922 0.000000 -0.000000 1.000000 255 255 255 1.000000
0.669017 0.158143 0.047498 0.000000 -1.000000 -0.000000 74 22 2 1.000000
0.115636 0.183791 -0.114308 0.000000 1.000000 0.000000 80 27 6 1.000000
-0.175796 0.183791 -0.121984 0.000000 -1.000000 -0.000000 255 255 255 1.000000
-0.580326 -0.442609 -0.188819 0.998868 -0.047565 -0.000000 81 26 11 1.000000
0.171746 0.064101 -0.114940 0.000000 -1.000000 -0.000000 191 132 75 1.000000
0.217434 0.064101 -0.108093 0.000000 -1.000000 -0.000000 210 152 93 1.000000
-0.196640 0.183791 -0.050041 0.000000 -1.000000 -0.000000 255 255 255 1.000000
-0.638319 0.158143 -0.170192 0.000000 -1.000000 -0.000000 80 27 5 1.000000
-0.005238 0.108201 -0.169083 0.000000 0.000000 -1.000000 80 27 4 1.000000
-0.227619 0.158143 0.209641 0.000000 1.000000 0.000000 255 255 255 1.000000
-0.016906 0.072650 0.032060 0.000000 1.000000 0.000000 228 165 106 1.000000
-0.594058 -0.547819 -0.130316 -1.000000 0.000000 0.000000 255 255 255 1.000000
0.057346 0.021354 -0.187565 0.000000 -1.000000 -0.000000 73 24 5 1.000000
-0.628255 0.041364 -0.144240 -1.000000 0.000000 0.000000 76 23 5 1.000000
0.622899 -0.434048 0.190100 0.998868 0.047565 0.000000 255 255 255 1.000000
-0.200446 0.183791 0.198818 0.000000 1.000000 0.000000 80 29 8 1.000000
-0.233028 0.029904 -0.031642 0.000000 -1.000000 -0.000000 209 148 95 1.000000
-0.131218 0.183791 0.132636 0.000000 -1.000000 -0.000000 255 255 255 1.000000
-0.648047 0.183791 -0.148196 0.000000 1.000000 0.000000 78 29 9 1.000000
0.542326 0.183791 0.131275 0.000000 -1.000000 -0.000000 255 255 255 1.000000
-0.136305 0.158143 0.001863 0.000000 1.000000 0.000000 255 255 255 1.000000
0.313479 0.094815 -0.194731 0.000000 -0.000000 1.000000 78 27 2 1.000000
0.481916 0.158143 -0.179630 0.000000 -1.000000 -0.000000 81 26 8 1.000000
-0.155320 0.021354 0.190705 0.000000 1.000000 0.000000 255 255 255 1.000000
0.173895 -0.540489 -0.010922 0.000000 -0.000000 1.000000 255 255 255 1.000000
0.323923 0.159403 0.249193 0.000000 -0.951210 0.308544 79 26 4 1.000000
-0.594058 0.102119 0.037161 1.000000 0.000000 0.000000 75 23 5 1.000000
0.255374 0.158143 0.176702 0.000000 -1.000000 -0.000000 76 23 8 1.000000
0.671236 -0.275216 -0.180735 -1.000000 0.000000 0.000000 255 255 255 1.000000
0.028907 0.183791 -0.121663 0.000000 1.000000 0.000000 77 26 9 1.000000
0.516179 0.158143 0.202036 0.000000 -1.000000 -0.000000 80 27 7 1.000000
0.636157 -0.070640 -0.203280 0.000000 -0.000000 1.000000 255 255 255 1.000000
-0.551179 -0.553465 -0.010922 0.000000 0.000000 -1.000000 80 26 6 1.000000
0.603931 0.183791 -0.116417 0.000000 1.000000 0.000000 67 21 6 1.000000
-0.052776 0.183791 -0.247340 0.000000 1.000000 0.000000 80 26 7 1.000000
0.647106 -0.517124 -0.203280 0.000000 -0.000000 1.000000 255 255 255 1.000000
-0.771372 0.183791 0.119598 0.000000 -1.000000 -0.000000 255 255 255 1.000000
-0.494522 0.183791 0.096878 0.000000 -1.000000 -0.000000 255 255 255 1.000000
0.557008 0.026887 0.172888 0.000000 0.000000 -1.000000 77 27 6 1.000000
0.116856 0.089022 0.206921 0.012952 0.004476 0.999906 77 26 7 1.000000
-0.314937 -0.551764 -0.010922 0.000000 0.000000 -1.000000 85 27 5 1.000000
0.397599 0.158143 0.154179 0.000000 -1.000000 -0.000000 80 27 5 1.000000
-0.126143 0.051852 -0.169083 0.000000 0.000000 -1.000000 77 28 3 1.000000
-0.530062 0.060123 -0.169083 0.000000 -0.000000 1.000000 70 20 7 1.000000
-0.209713 0.123946 -0.141540 0.000000 1.000000 0.000000 203 144 85 1.000000
0.248873 0.183791 0.243290 0.000000 -1.000000 -0.000000 255 255 255 1.000000
0.232015 -0.537890 0.014726 0.000000 0.000000 -1.000000 76 25 7 1.000000
-0.628255 -0.594173 -0.188375 1.000000 0.000000 0.000000 255 255 255 1.000000
-0.593618 -0.330613 0.153823 0.000000 0.047565 0.998868 255 255 255 1.000000
-0.395480 0.042150 0.172888 0.000000 -0.000000 1.000000 255 255 255 1.000000
-0.709400 0.158143 -0.036046 0.000000 1.000000 0.000000 255 255 255 1.000000
-0.056404 0.064101 -0.097158 0.000000 1.000000 0.000000 255 255 255 1.000000
0.671236 -0.217780 0.183589 1.000000 0.000000 0.000000 86 29 4 1.000000
0.107011 0.183791 -0.017842 0.000000 -1.000000 -0.000000 255 255 255 1.000000
-0.748948 0.158143 0.131770 0.000000 1.000000 0.000000 255 255 255 1.000000
0.695471 0.158143 -0.164808 0.000000 1.000000 0.000000 255 255 255 1.000000
0.357245 0.183791 -0.031206 0.000000 1.000000 0.000000 79 27 8 1.000000
-0.305651 0.045647 0.172888 0.000000 0.000000 -1.000000 84 32 9 1.000000
-0.169929 0.072650 0.153679 0.000000 -1.000000 -0.000000 255 255 255 1.000000
-0.085720 0.092040 -0.134886 0.000000 0.000000 -1.000000 255 255 255 1.000000
-0.178131 0.104418 -0.169083 0.000000 -0.000000 1.000000 76 24 6 1.000000
-0.059048 0.094922 0.206921 -0.030792 0.018440 0.999356 77 26 6 1.000000
-0.505673 0.183791 0.163911 0.000000 -1.000000 -0.000000 255 255 255 1.000000
-0.597374 -0.185978 -0.203280 0.000000 0.000000 -1.000000 79 24 5 1.000000
0.398724 0.158143 -0.015015 0.000000 -1.000000 -0.000000 83 28 8 1.000000
0.032052 0.046417 0.172888 0.000000 -0.000000 1.000000 255 255 255 1.000000
0.001504 0.064101 0.127728 0.000000 -1.000000 -0.000000 211 145 89 1.000000
-0.735798 0.158143 0.218546 0.000000 1.000000 0.000000 255 255 255 1.000000
-0.415006 0.158143 0.019016 0.000000 -1.000000 -0.000000 79 25 7 1.000000
-0.619706 0.077089 -0.090618 -1.000000 0.000000 0.000000 83 29 6 1.000000
-0.561291 -0.042880 0.176628 0.998868 -0.047565 -0.000000 78 26 8 1.000000
0.682994 0.158143 0.011126 0.000000 -1.000000 -0.000000 77 26 7 1.000000
0.161429 0.183791 0.063077 0.000000 -1.000000 -0.000000 255 255 255 1.000000
0.166151 0.183791 -0.007583 0.000000 1.000000 0.000000 78 27 5 1.000000
-0.086332 0.064101 -0.064930 0.000000 1.000000 0.000000 255 255 255 1.000000
0.490723 0.183791 -0.095010 0.000000 1.000000 0.000000 70 20 5 1.000000
0.027414 0.072650 0.069727 0.000000 1.000000 0.000000 206 148 96 1.000000
-0.585863 0.183791 0.194152 0.000000 -1.000000 -0.000000 255 255 255 1.000000
-0.074884 0.183791 -0.042882 0.000000 -1.000000 -0.000000 255 255 255 1.000000
-0.197238 0.064101 -0.140928 0.000000 1.000000 0.000000 255 255 255 1.000000
-0.440780 0.024541 -0.169083 0.000000 0.000000 -1.000000 71 22 3 1.000000
-0.628255 -0.150366 0.177618 1.000000 0.000000 0.000000 255 255 255 1.000000
0.671236 -0.061560 0.173102 1.000000 0.000000 0.000000 79 25 5 1.000000
0.324570 0.183791 -0.231234 0.000000 -1.000000 -0.000000 255 255 255 1.000000
-0.407887 0.130092 -0.169083 0.000000 -0.000000 1.000000 74 25 7 1.000000
-0.547948 0.158143 0.028879 0.000000 -1.000000 -0.000000 73 22 5 1.000000
0.671236 -0.083252 -0.171991 1.000000 0.000000 0.000000 76 26 4 1.000000
-0.594058 0.089182 0.107938 -1.000000 0.000000 0.000000 255 255 255 1.000000
0.423588 0.129765 0.172888 0.000000 0.000000 -1.000000 80 27 5 1.000000
-0.317744 0.183791 0.128749 0.000000 1.000000 0.000000 79 25 3 1.000000
-0.286345 0.183791 0.025923 0.000000 -1.000000 -0.000000 255 255 255 1.000000
0.640241 -0.318605 0.207085 0.000000 -0.000000 1.000000 79 28 8 1.000000
0.189300 0.072650 0.042068 0.000000 -1.000000 -0.000000 255 255 255 1.000000
-0.550817 0.158143 0.212107 0.000000 -1.000000 -0.000000 78 24 7 1.000000
-0.748575 0.183791 -0.008262 0.000000 1.000000 0.000000 79 27 6 1.000000
0.532363 0.158143 0.024557 0.000000 -1.000000 -0.000000 77 24 7 1.000000
-0.018629 0.183791 -0.013365 0.000000 1.000000 0.000000 76 26 3 1.000000
-0.533532 0.085660 0.198536 0.000000 -0.000000 1.000000 81 28 9 1.000000
0.038291 0.158143 -0.176179 0.000000 -1.000000 -0.000000 78 25 6 1.000000
0.290489 0.158424 0.245003 0.000000 -0.989417 0.145101 79 29 6 1.000000
-0.176124 0.025261 -0.193782 0.000000 0.457167 -0.889381 79 28 8 1.000000
0.427908 0.086432 0.198536 0.000000 0.000000 -1.000000 255 255 255 1.000000
-0.700046 0.161629 -0.250382 0.000000 0.864164 0.503210 255 255 255 1.000000
-0.094160 0.072650 0.094022 0.000000 1.000000 0.000000 209 152 93 1.000000
-0.151998 0.183791 -0.225998 0.000000 -1.000000 -0.000000 255 255 255 1.000000
-0.329711 0.158143 -0.157916 0.000000 1.000000 0.000000 255 255 255 1.000000
-0.255316 -0.558143 -0.010922 0.000000 0.000000 -1.000000 76 25 4 1.000000
-0.077532 0.158143 -0.018392 0.000000 -1.000000 -0.000000 86 26 4 1.000000
0.613089 -0.228040 0.174495 0.998868 0.047565 0.000000 255 255 255 1.000000
-0.624181 0.158143 -0.104672 0.000000 -1.000000 -0.000000 74 26 6 1.000000
-0.037865 0.088773 0.181438 0.000000 0.000000 -1.000000 77 27 6 1.000000
-0.159382 0.158143 -0.080518 0.000000 1.000000 0.000000 255 255 255 1.000000
-0.006760 0.083121 0.206921 0.017800 0.007372 -0.999814 255 255 255 1.000000
0.398693 0.183791 0.208645 0.000000 -1.000000 -0.000000 255 255 255 1.000000
-0.218518 0.183791 -0.117293 0.000000 -1.000000 -0.000000 255 255 255 1.000000
0.478040 0.048951 0.198536 0.000000 -0.000000 1.000000 88 32 8 1.000000
-0.412068 0.183791 0.084533 0.000000 -1.000000 -0.000000 255 255 255 1.000000
-0.100315 0.158143 0.033688 0.000000 1.000000 0.000000 255 255 255 1.000000
-0.379433 -0.570646 -0.010922 0.000000 -0.000000 1.000000 255 255 255 1.000000
0.409520 0.183791 -0.206951 0.000000 1.000000 0.000000 78 26 7 1.000000
-0.634010 0.158143 -0.217262 0.000000 -1.000000 -0.000000 77 26 7 1.000000
-0.252088 0.121403 0.207085 0.032785 0.000000 -0.999462 255 255 255 1.000000
-0.676873 0.183791 -0.204754 0.000000 1.000000 0.000000 77 28 6 1.000000
0.399442 0.158143 -0.097481 0.000000 1.000000 0.000000 255 255 255 1.000000
0.480915 0.109489 -0.194731 0.000000 -0.000000 1.000000 84 30 5 1.000000
0.162776 0.158143 -0.116736 0.000000 -1.000000 -0.000000 71 22 3 1.000000
0.264349 0.046136 0.154565 1.000000 0.000000 0.000000 255 255 255 1.000000
0.252415 0.115951 -0.194731 0.000000 0.000000 -1.000000 78 29 7 1.000000
0.170611 0.139275 -0.175495 0.000000 -0.000000 1.000000 77 27 4 1.000000
0.770131 0.183791 -0.202642 0.000000 -1.000000 -0.000000 255 255 255 1.000000
0.662687 -0.541644 -0.148287 -1.000000 0.000000 0.000000 255 255 255 1.000000
0.738703 0.171012 0.263518 0.000000 -0.498280 0.867016 76 26 5 1.000000
-0.356207 0.183791 -0.205711 0.000000 1.000000 0.000000 75 26 8 1.000000
0.632116 0.158143 -0.005894 0.000000 1.000000 0.000000 255 255 255 1.000000
-0.389421 0.183791 -0.017393 0.000000 1.000000 0.000000 83 27 7 1.000000
-0.608117 -0.539133 -0.183128 0.000000 -0.000000 1.000000 255 255 255 1.000000
-0.757163 0.158626 -0.235644 -0.192746 -0.981249 -0.000000 82 29 7 1.000000
0.080713 0.159348 -0.245208 0.000000 0.953450 0.301550 255 255 255 1.000000
-0.598922 0.027694 0.207085 0.000000 0.000000 -1.000000 255 255 255 1.000000
-0.060773 0.158143 0.203624 0.000000 1.000000 0.000000 255 255 255 1.000000
0.130852 0.056051 -0.194731 0.000000 0.000000 -1.000000 85 28 5 1.000000
-0.051944 0.041111 0.172888 0.000000 0.000000 -1.000000 79 28 4 1.000000
0.775784 0.183791 -0.234878 0.000000 1.000000 0.000000 76 23 6 1.000000
-0.604598 -0.452949 -0.203280 0.000000 -0.000000 1.000000 255 255 255 1.000000
0.248546 0.183791 0.056137 0.000000 -1.000000 -0.000000 255 255 255 1.000000
-0.619434 -0.525800 0.117717 0.000000 -1.000000 -0.000000 255 255 255 1.000000
0.287716 0.029904 0.144814 0.000000 -1.000000 -0.000000 201 139 86 1.000000
0.212435 0.023168 -0.194533 0.000000 0.212239 -0.977218 78 26 8 1.000000
0.447505 0.158143 -0.044388 0.000000 1.000000 0.000000 255 255 255 1.000000
0.649922 0.117817 0.207085 0.000000 -0.000000 1.000000 79 24 7 1.000000
-0.628255 -0.013834 0.189594 1.000000 0.000000 0.000000 255 255 255 1.000000
-0.564716 0.183791 0.265391 0.000000 1.000000 0.000000 70 23 5 1.000000
0.123895 0.173880 -0.261130 0.000000 0.386457 0.922307 255 255 255 1.000000
0.117963 0.117853 -0.194731 0.000000 0.000000 -1.000000 77 23 7 1.000000
-0.520983 0.155761 -0.194731 0.000000 -0.000000 1.000000 72 23 6 1.000000
0.268948 0.072650 0.136695 0.000000 -1.000000 -0.000000 255 255 255 1.000000
0.023298 0.158143 0.176833 0.000000 -1.000000 -0.000000 255 255 255 1.000000
0.637469 -0.574141 0.165397 0.000000 0.047565 0.998868 79 23 7 1.000000
0.146030 0.158143 0.112431 0.000000 1.000000 0.000000 255 255 255 1.000000
0.623635 0.041655 0.179300 0.000000 -0.000000 1.000000 255 255 255 1.000000
-0.590136 -0.577328 -0.002246 0.000000 1.000000 0.000000 255 255 255 1.000000
0.343031 0.021602 -0.194723 0.000000 -0.047216 0.998885 74 25 7 1.000000
-0.391377 0.047974 -0.169083 0.000000 -0.000000 1.000000 84 30 5 1.000000
-0.685555 0.183791 -0.156750 0.000000 1.000000 0.000000 79 27 7 1.000000
-0.628255 -0.083960 -0.141024 -1.000000 0.000000 0.000000 76 27 8 1.000000
0.160898 0.064101 0.032731 0.000000 -1.000000 -0.000000 211 149 94 1.000000
-0.225714 0.183791 0.059619 0.000000 -1.000000 -0.000000 255 255 255 1.000000
0.481472 0.089473 0.198536 0.000000 0.000000 -1.000000 255 255 255 1.000000
0.058481 0.075539 -0.169083 0.000000 -0.000000 1.000000 77 25 6 1.000000
0.291308 0.029904 0.036430 0.000000 1.000000 0.000000 255 255 255 1.000000
0.171110 0.159995 -0.247026 -0.000000 -0.928068 -0.372410 80 27 5 1.000000
-0.098208 0.183791 -0.173323 0.000000 -1.000000 -0.000000 255 255 255 1.000000
0.293970 0.183791 -0.046641 0.000000 1.000000 0.000000 80 25 5 1.000000
-0.407926 0.131896 0.172888 0.000000 0.000000 -1.000000 80 25 6 1.000000
0.672696 0.183791 -0.067197 0.000000 -1.000000 -0.000000 255 255 255 1.000000
-0.009829 0.023378 0.198283 -0.000000 -0.236928 -0.971527 255 255 255 1.000000
-0.567987 -0.092542 0.142486 0.000000 0.047565 0.998868 255 255 255 1.000000
0.439467 0.183791 0.152745 0.000000 -1.000000 -0.000000 255 255 255 1.000000
0.637039 -0.557151 -0.033234 1.000000 0.000000 0.000000 255 255 255 1.000000
0.663756 0.117979 -0.022062 -1.000000 0.000000 0.000000 255 255 255 1.000000
0.314298 -0.552777 0.014726 0.000000 -0.000000 1.000000 82 28 4 1.000000
0.611765 0.183791 0.077488 0.000000 1.000000 0.000000 77 27 8 1.000000
-0.167957 0.158143 -0.170369 0.000000 1.000000 0.000000 255 255 255 1.000000
-0.597851 0.183791 -0.238128 0.000000 1.000000 0.000000 77 28 5 1.000000
-0.661346 0.183791 -0.230710 0.000000 1.000000 0.000000 76 25 7 1.000000
0.084609 0.036519 0.198300 0.000000 -0.226619 0.973983 79 24 5 1.000000
0.188380 0.158143 -0.054114 0.000000 1.000000 0.000000 255 255 255 1.000000
0.404367 0.110129 -0.194731 0.000000 -0.000000 1.000000 80 29 8 1.000000
0.209832 0.158143 -0.033380 0.000000 1.000000 0.000000 255 255 255 1.000000
-0.088220 0.072650 0.162980 0.000000 -1.000000 -0.000000 255 255 255 1.000000
0.644908 -0.298029 -0.203280 0.000000 0.000000 -1.000000 82 27 10 1.000000
-0.258510 0.076783 -0.194731 0.000000 -0.000000 1.000000 79 26 7 1.000000
0.278725 0.183791 0.231528 0.000000 -1.000000 -0.000000 255 255 255 1.000000
-0.619706 0.142774 0.060186 1.000000 0.000000 0.000000 255 255 255 1.000000
0.556242 -0.542080 -0.010922 0.000000 0.000000 -1.000000 78 25 5 1.000000
-0.192211 0.183791 -0.182293 0.000000 -1.000000 -0.000000 255 255 255 1.000000
-0.163704 0.083977 0.181438 0.000000 -0.000000 1.000000 255 255 255 1.000000
0.301497 0.158143 -0.095933 0.000000 -1.000000 -0.000000 76 26 6 1.000000
0.309160 0.034098 -0.193535 -0.000000 -0.509590 -0.860417 73 24 6 1.000000
0.202971 0.123946 -0.136659 0.000000 -1.000000 -0.000000 255 255 255 1.000000
-0.026957 0.158143 0.206636 0.000000 1.000000 0.000000 255 255 255 1.000000
-0.619706 -0.552454 -0.021549 1.000000 0.000000 0.000000 255 255 255 1.000000
-0.307567 0.063966 0.198536 0.000000 -0.000000 1.000000 76 23 3 1.000000
0.316148 0.183791 -0.073687 0.000000 1.000000 0.000000 75 24 8 1.000000
0.337242 0.158143 -0.037550 0.000000 1.000000 0.000000 255 255 255 1.000000
-0.083563 0.124625 0.172888 0.000000 -0.000000 1.000000 255 255 255 1.000000
0.669053 -0.587066 0.207085 0.000000 -0.000000 1.000000 84 28 6 1.000000
0.225827 0.181143 -0.262975 -0.000000 -0.103273 -0.994653 79 25 6 1.000000
0.054426 0.159951 0.250714 0.000000 -0.929872 0.367882 78 23 7 1.000000
-0.594058 -0.575338 -0.104176 1.000000 0.000000 0.000000 69 22 4 1.000000
0.256434 0.091884 -0.134886 0.000000 0.000000 -1.000000 255 255 255 1.000000
-0.046807 -0.532843 0.014726 0.000000 0.000000 -1.000000 73 24 4 1.000000
0.671236 -0.380935 0.177534 -1.000000 0.000000 0.000000 255 255 255 1.000000
0.749341 0.159891 -0.246748 0.000000 0.932315 0.361648 255 255 255 1.000000
-0.096817 0.158143 -0.127011 0.000000 -1.000000 -0.000000 80 26 6 1.000000
-0.391223 0.158143 0.046460 0.000000 1.000000 0.000000 255 255 255 1.000000
0.532132 0.158179 -0.238575 0.000000 0.998534 0.054120 255 255 255 1.000000
-0.600309 0.183791 0.236773 0.000000 -1.000000 -0.000000 255 255 255 1.000000
-0.188528 0.052234 -0.194731 0.000000 -0.000000 1.000000 74 26 9 1.000000
0.272757 0.158143 -0.179998 0.000000 1.000000 0.000000 255 255 255 1.000000
0.114505 0.183791 -0.047662 0.000000 -1.000000 -0.000000 255 255 255 1.000000
0.638108 0.119555 -0.124102 1.000000 0.000000 0.000000 255 255 255 1.000000
0.105134 0.072650 0.037195 0.000000 1.000000 0.000000 209 152 95 1.000000
0.348276 0.183791 -0.211443 0.000000 -1.000000 -0.000000 255 255 255 1.000000
-0.188720 0.158143 -0.025637 0.000000 1.000000 0.000000 255 255 255 1.000000
0.561829 0.181511 0.266816 0.000000 0.088950 -0.996036 255 255 255 1.000000
-0.463770 0.158143 -0.020363 0.000000 -1.000000 -0.000000 79 24 2 1.000000
-0.619532 0.022893 -0.106394 -0.981597 0.190966 0.000000 82 29 9 1.000000
-0.525741 0.158143 0.090471 0.000000 1.000000 0.000000 255 255 255 1.000000
-0.548170 0.183791 0.077909 0.000000 -1.000000 -0.000000 255 255 255 1.000000
-0.596006 -0.501504 -0.203280 0.000000 0.000000 -1.000000 84 26 8 1.000000
0.322742 0.183791 -0.010688 0.000000 1.000000 0.000000 75 25 8 1.000000
0.185221 0.072705 -0.194731 0.000000 0.000000 -1.000000 89 31 8 1.000000
-0.593254 -0.221872 0.148645 0.000000 -0.047565 -0.998868 78 22 6 1.000000
0.713763 0.183791 0.072258 0.000000 -1.000000 -0.000000 255 255 255 1.000000
0.121929 0.183791 0.062433 0.000000 1.000000 0.000000 74 25 4 1.000000
-0.606374 0.158143 -0.074724 0.000000 -1.000000 -0.000000 255 255 255 1.000000
0.295068 0.072659 0.182422 -1.000000 0.000000 0.000000 201 143 91 1.000000
0.671236 -0.710375 -0.175688 1.000000 0.000000 0.000000 84 24 3 1.000000
-0.594058 0.128228 0.063732 -1.000000 0.000000 0.000000 255 255 255 1.000000
0.756987 0.158143 -0.061579 0.000000 -1.000000 -0.000000 73 23 9 1.000000
0.295068 0.120958 -0.139959 1.000000 0.000000 0.000000 198 135 78 1.000000
-0.137233 0.072650 -0.149954 0.000000 -1.000000 -0.000000 205 146 88 1.000000
0.212866 0.183791 -0.019006 0.000000 -1.000000 -0.000000 255 255 255 1.000000
0.178727 0.183791 0.145631 0.000000 1.000000 0.000000 77 25 5 1.000000
-0.251134 0.158143 -0.050627 0.000000 1.000000 0.000000 255 255 255 1.000000
-0.628255 -0.383738 -0.167644 -1.000000 0.000000 0.000000 79 26 8 1.000000
0.643743 -0.324866 0.153549 0.000000 0.047565 0.998868 255 255 255 1.000000
0.193182 0.158143 -0.099528 0.000000 -1.000000 -0.000000 76 25 6 1.000000
0.043679 0.072650 0.040413 0.000000 1.000000 0.000000 212 155 98 1.000000
-0.608405 0.158143 -0.180385 0.000000 1.000000 0.000000 76 26 6 1.000000
0.385277 0.183791 -0.043631 0.000000 1.000000 0.000000 75 24 7 1.000000
0.655508 -0.412374 -0.153911 0.000000 0.047565 -0.998868 255 255 255 1.000000
0.361072 0.089829 0.198536 0.000000 0.000000 -1.000000 255 255 255 1.000000
-0.350237 0.021904 0.198500 -0.000000 -0.097538 -0.995232 255 255 255 1.000000
0.027902 0.183791 0.159164 0.000000 -1.000000 -0.000000 255 255 255 1.000000
0.246423 0.134132 0.198536 0.000000 -0.000000 1.000000 73 24 3 1.000000
-0.269185 0.049754 0.009998 -1.000000 0.000000 0.000000 234 172 113 1.000000
-0.448214 0.183791 0.136496 0.000000 1.000000 0.000000 77 26 7 1.000000
0.750731 0.158143 0.013704 0.000000 1.000000 0.000000 255 255 255 1.000000
0.092673 0.158143 0.197807 0.000000 -1.000000 -0.000000 77 27 5 1.000000
0.494290 0.183791 -0.172075 0.000000 -1.000000 -0.000000 255 255 255 1.000000
-0.564048 -0.100783 0.172900 0.998868 -0.047565 -0.000000 74 24 4 1.000000
0.809645 0.158844 0.149043 0.229962 -0.973200 -0.000000 79 26 6 1.000000
-0.338799 -0.527510 -0.006647 0.000000 -0.000000 1.000000 255 255 255 1.000000
0.043743 0.183791 0.046166 0.000000 1.000000 0.000000 78 26 7 1.000000
0.608261 -0.126646 0.177712 0.998868 0.047565 0.000000 255 255 255 1.000000
0.268402 0.183791 -0.202721 0.000000 1.000000 0.000000 83 29 7 1.000000
-0.002063 0.159779 -0.246451 0.000000 0.936730 0.350052 255 255 255 1.000000
0.124868 0.183791 0.126412 0.000000 -1.000000 -0.000000 255 255 255 1.000000
-0.605366 -0.564839 0.188370 0.000000 0.000000 -1.000000 77 23 9 1.000000
-0.177834 0.158143 -0.138713 0.000000 1.000000 0.000000 255 255 255 1.000000
0.621786 0.131358 0.179300 0.000000 -0.000000 1.000000 255 255 255 1.000000
-0.430252 0.052374 0.172888 0.000000 0.000000 -1.000000 83 29 8 1.000000
0.420451 0.183791 -0.079020 0.000000 -1.000000 -0.000000 255 255 255 1.000000
-0.619706 0.085234 0.086025 1.000000 0.000000 0.000000 255 255 255 1.000000
-0.299116 0.158143 -0.037321 0.000000 -1.000000 -0.000000 79 24 6 1.000000
-0.590660 0.158143 0.003411 0.000000 -1.000000 -0.000000 73 22 4 1.000000
0.637039 -0.565043 -0.100275 -1.000000 0.000000 0.000000 78 27 8 1.000000
-0.252087 0.083552 -0.073819 -1.000000 0.000000 0.000000 213 154 98 1.000000
-0.055360 0.183791 0.039385 0.000000 -1.000000 -0.000000 255 255 255 1.000000
-0.252087 0.103206 0.042520 -1.000000 0.000000 0.000000 180 122 62 1.000000
-0.608725 0.009202 0.138691 0.000000 -0.000000 1.000000 255 255 255 1.000000
0.304544 0.183791 0.177216 0.000000 -1.000000 -0.000000 255 255 255 1.000000
0.081449 0.089270 -0.194731 0.000000 0.000000 -1.000000 79 26 6 1.000000
-0.514565 0.158143 0.185990 0.000000 1.000000 0.000000 255 255 255 1.000000
-0.011012 0.158143 0.124635 0.000000 -1.000000 -0.000000 77 28 7 1.000000
-0.111615 0.158143 0.112808 0.000000 1.000000 0.000000 255 255 255 1.000000
-0.367902 0.158143 0.203284 0.000000 1.000000 0.000000 255 255 255 1.000000
0.369445 0.158143 0.176540 0.000000 1.000000 0.000000 73 22 7 1.000000
0.285830 0.158143 0.053385 0.000000 1.000000 0.000000 255 255 255 1.000000
-0.501835 0.183791 -0.056777 0.000000 -1.000000 -0.000000 255 255 255 1.000000
-0.452006 0.158143 -0.197116 0.000000 1.000000 0.000000 255 255 255 1.000000
0.174924 0.158143 -0.146570 0.000000 -1.000000 -0.000000 80 27 5 1.000000
0.197334 0.183791 -0.195119 0.000000 1.000000 0.000000 78 24 8 1.000000
-0.252087 0.068918 0.095636 -1.000000 0.000000 0.000000 201 143 91 1.000000
-0.228880 0.068028 -0.194731 0.000000 0.000000 -1.000000 77 24 2 1.000000
0.069810 -0.576220 -0.007763 0.000007 0.706481 0.707732 255 255 255 1.000000
-0.269185 0.032274 0.070883 1.000000 0.000000 0.000000 255 255 255 1.000000
-0.022854 0.183791 -0.073160 0.000000 -1.000000 -0.000000 255 255 255 1.000000
-0.117188 0.158143 -0.028617 0.000000 1.000000 0.000000 255 255 255 1.000000
-0.079140 0.183791 -0.230247 0.000000 1.000000 0.000000 75 27 7 1.000000
0.636390 -0.172627 -0.142495 0.000000 0.047565 -0.998868 255 255 255 1.000000
0.166974 0.125386 0.206959 0.033732 0.111738 0.993165 78 24 6 1.000000
-0.029891 0.073520 -0.194731 0.000000 0.000000 -1.000000 76 24 3 1.000000
0.137455 0.100487 -0.134886 0.000000 -0.000000 1.000000 225 161 111 1.000000
0.182372 0.064101 -0.054582 0.000000 -1.000000 -0.000000 213 155 95 1.000000
-0.559941 0.129436 0.207085 0.000000 -0.000000 1.000000 80 27 5 1.000000
-0.694592 0.158143 -0.104251 0.000000 1.000000 0.000000 255 255 255 1.000000
-0.118472 0.183791 -0.204521 0.000000 1.000000 0.000000 78 26 7 1.000000
0.275282 0.183791 0.017781 0.000000 1.000000 0.000000 75 26 8 1.000000
-0.065896 0.183791 -0.183615 0.000000 -1.000000 -0.000000 255 255 255 1.000000
-0.628255 -0.050574 -0.176425 1.000000 0.000000 0.000000 255 255 255 1.000000
0.671236 -0.628260 -0.195121 1.000000 0.000000 0.000000 84 32 7 1.000000
-0.601455 0.158143 0.154570 0.000000 1.000000 0.000000 255 255 255 1.000000
0.621463 0.052737 -0.134886 0.000000 -0.000000 1.000000 84 29 10 1.000000
-0.574172 -0.313378 -0.184744 -0.998868 0.047565 0.000000 255 255 255 1.000000
0.733808 0.183791 0.016054 0.000000 1.000000 0.000000 74 24 7 1.000000
-0.274509 0.094639 -0.169083 0.000000 0.000000 -1.000000 81 29 7 1.000000
0.528763 0.115737 0.172888 0.000000 -0.000000 1.000000 255 255 255 1.000000
0.671236 -0.025382 -0.187398 -1.000000 0.000000 0.000000 255 255 255 1.000000
0.048798 0.166372 -0.256285 0.000000 0.679512 0.733664 255 255 255 1.000000
-0.053978 0.160705 0.252444 0.000000 -0.900305 0.435259 83 26 3 1.000000
0.486128 0.183791 0.042086 0.000000 -1.000000 -0.000000 255 255 255 1.000000
0.129204 0.072650 0.110722 0.000000 -1.000000 -0.000000 255 255 255 1.000000
0.394974 0.158143 -0.206882 0.000000 1.000000 0.000000 255 255 255 1.000000
-0.187384 0.183791 0.011146 0.000000 -1.000000 -0.000000 255 255 255 1.000000
0.700581 0.183791 -0.229565 0.000000 -1.000000 -0.000000 255 255 255 1.000000
0.155447 0.183791 -0.082491 0.000000 -1.000000 -0.000000 255 255 255 1.000000
-0.639693 0.158143 -0.038711 0.000000 1.000000 0.000000 255 255 255 1.000000
0.663756 0.042730 -0.120584 -1.000000 0.000000 0.000000 255 255 255 1.000000
-0.528086 0.021891 0.198501 -0.000000 -0.096758 -0.995308 255 255 255 1.000000
0.033252 0.158143 -0.074891 0.000000 -1.000000 -0.000000 73 24 6 1.000000
-0.045567 0.183791 -0.034327 0.000000 1.000000 0.000000 75 23 3 1.000000
-0.759855 0.159319 0.074380 -0.297859 -0.954610 -0.000000 75 24 5 1.000000
0.228003 0.064101 0.102996 0.000000 -1.000000 -0.000000 218 157 99 1.000000
