-0.592761 -0.076306 0.288224 0.000000 1.000000 0.000000
-0.418930 0.354287 0.140548 0.000000 1.000000 0.000000
0.586013 0.236031 -0.019600 0.000000 1.000000 0.000000
-0.592761 0.113303 0.063680 0.000000 1.000000 0.000000
-0.592761 0.317610 -0.375900 0.000000 1.000000 0.000000
-0.580280 0.415318 0.451387 0.600000 0.000000 0.300000
-0.143683 0.557836 0.070911 0.000000 1.000000 0.000000
-0.276814 -0.743858 0.296674 1.000000 0.000000 0.000000
0.581509 0.476099 -0.426657 0.000000 1.000000 0.000000
-0.348910 -0.686890 0.170635 0.000000 1.000000 0.000000
-0.592761 0.051393 -0.322559 0.000000 1.000000 0.000000
0.371001 0.553790 -0.428475 0.000000 1.000000 0.000000
-0.169557 -0.519942 0.453385 0.500000 0.000000 0.500000
0.289355 0.033431 0.400586 0.500000 0.000000 0.500000
0.443157 0.599718 0.302307 0.000000 1.000000 0.000000
0.161054 0.599718 -0.370082 0.000000 1.000000 0.000000
0.521297 -0.091001 0.310048 0.000000 1.000000 0.000000
-0.271546 -0.686890 -0.005152 0.000000 1.000000 0.000000
0.366503 -0.047134 -0.438634 0.000000 1.000000 0.000000
-0.589406 0.561838 0.016796 0.000000 1.000000 0.000000
0.586642 -0.353092 -0.223986 0.000000 1.000000 0.000000
0.415559 -0.147888 -0.382340 0.000000 1.000000 0.000000
-0.196364 0.200067 0.452385 0.500000 0.000000 0.500000
0.187229 -0.609727 0.400586 0.500000 0.000000 0.500000
0.057074 -0.529425 0.452385 0.500000 0.000000 0.500000
-0.592556 -0.712570 -0.279144 1.000000 0.000000 0.000000
0.067007 0.354287 0.189680 0.000000 1.000000 0.000000
-0.288176 -0.601789 0.453385 0.500000 0.000000 0.500000
0.403522 0.599718 0.103358 0.000000 1.000000 0.000000
-0.025183 -0.233284 -0.381665 0.000000 1.000000 0.000000
-0.004431 0.197472 0.400586 0.500000 0.000000 0.500000
-0.527484 -0.273092 -0.311991 0.000000 1.000000 0.000000
0.309218 -0.151415 -0.382299 0.000000 1.000000 0.000000
0.360378 -0.374418 -0.381665 0.000000 1.000000 0.000000
-0.143943 -0.743858 0.299433 1.000000 0.000000 0.000000
0.586642 0.067254 -0.245326 0.000000 1.000000 0.000000
0.467621 -0.688483 -0.438634 0.000000 1.000000 0.000000
-0.193689 0.280623 0.453164 0.500000 0.000000 0.500000
-0.578761 -0.739177 0.107662 1.000000 0.000000 0.000000
-0.447248 0.599718 -0.067535 0.000000 1.000000 0.000000
-0.589157 -0.211638 0.389943 0.000000 1.000000 0.000000
-0.162134 0.274822 -0.438634 0.000000 1.000000 0.000000
-0.078954 -0.116091 -0.438634 0.000000 1.000000 0.000000
0.521297 -0.417616 -0.146787 0.000000 1.000000 0.000000
0.519115 -0.638911 0.247889 0.000000 1.000000 0.000000
0.586642 0.456875 -0.199968 0.000000 1.000000 0.000000
0.521297 0.126572 -0.137703 0.000000 1.000000 0.000000
-0.592506 0.259842 0.380751 0.000000 1.000000 0.000000
-0.382381 -0.361500 0.400586 0.500000 0.000000 0.500000
-0.171206 -0.743858 -0.368339 1.000000 0.000000 0.000000
-0.589406 0.596155 0.397660 0.000000 1.000000 0.000000
-0.188975 -0.686890 0.161677 0.000000 1.000000 0.000000
-0.592761 -0.101543 -0.226841 0.000000 1.000000 0.000000
0.585643 0.200906 0.104942 0.000000 1.000000 0.000000
0.335171 0.350794 -0.336276 0.000000 1.000000 0.000000
-0.592761 0.432605 -0.063215 0.000000 1.000000 0.000000
0.240427 0.016886 -0.382667 0.000000 1.000000 0.000000
-0.439676 -0.474779 -0.438634 0.000000 1.000000 0.000000
-0.527416 -0.276456 -0.234524 0.000000 1.000000 0.000000
0.586642 -0.561900 0.120037 0.000000 1.000000 0.000000
0.112752 0.003776 -0.438634 0.000000 1.000000 0.000000
-0.364048 -0.505848 -0.438634 0.000000 1.000000 0.000000
-0.528415 -0.579234 -0.088737 0.000000 1.000000 0.000000
0.416944 0.599718 -0.026422 0.000000 1.000000 0.000000
-0.527416 -0.006537 -0.256536 0.000000 1.000000 0.000000
0.396304 -0.464661 0.400586 0.500000 0.000000 0.500000
0.386079 -0.079806 0.400586 0.500000 0.000000 0.500000
-0.269866 0.023642 0.400586 0.500000 0.000000 0.500000
0.132741 0.557836 0.140049 0.000000 1.000000 0.000000
-0.382306 0.557836 0.171812 0.000000 1.000000 0.000000
-0.421813 0.178747 -0.438634 0.000000 1.000000 0.000000
-0.070607 -0.686890 0.104143 0.000000 1.000000 0.000000
0.242180 -0.227056 0.400586 0.500000 0.000000 0.500000
0.585948 0.252228 0.195800 0.000000 1.000000 0.000000
0.389897 0.354287 0.041127 0.000000 1.000000 0.000000
0.539981 -0.743849 -0.078872 1.000000 0.000000 0.000000
-0.463505 0.599718 0.397928 0.000000 1.000000 0.000000
-0.526467 0.310062 -0.283155 0.000000 1.000000 0.000000
-0.184352 -0.068429 -0.381665 0.000000 1.000000 0.000000
-0.342367 -0.080247 0.452385 0.500000 0.000000 0.500000
0.490050 0.345390 -0.282399 0.000000 1.000000 0.000000
0.586642 -0.132770 0.049541 0.000000 1.000000 0.000000
-0.028053 0.557090 0.387807 0.000000 1.000000 0.000000
0.516061 -0.348769 -0.438634 0.000000 1.000000 0.000000
0.250842 -0.304765 -0.438634 0.000000 1.000000 0.000000
-0.073217 -0.687900 -0.285065 0.000000 1.000000 0.000000
-0.448894 -0.024380 0.452385 0.500000 0.000000 0.500000
-0.527416 -0.149642 0.045876 0.000000 1.000000 0.000000
0.067743 -0.072026 -0.438634 0.000000 1.000000 0.000000
-0.424820 0.355199 0.366133 0.000000 1.000000 0.000000
-0.576122 -0.740421 0.371708 1.000000 0.000000 0.000000
-0.269583 -0.085792 0.400586 0.500000 0.000000 0.500000
0.210550 -0.743858 0.095241 1.000000 0.000000 0.000000
0.525880 -0.063045 0.392184 0.000000 1.000000 0.000000
-0.227744 -0.672483 -0.347535 0.000000 1.000000 0.000000
0.022140 0.420996 0.401222 0.600000 0.000000 0.300000
0.563214 0.600084 -0.435279 0.000000 1.000000 0.000000
-0.052329 -0.072361 0.400586 0.500000 0.000000 0.500000
0.203801 -0.379807 0.400586 0.500000 0.000000 0.500000
0.214980 -0.225343 -0.381665 0.000000 1.000000 0.000000
-0.159866 -0.686890 0.244589 0.000000 1.000000 0.000000
0.435762 -0.583307 -0.381678 0.000000 1.000000 0.000000
0.521297 -0.589019 -0.172488 0.000000 1.000000 0.000000
-0.062147 -0.496863 0.400586 0.500000 0.000000 0.500000
-0.037316 -0.743858 0.255991 1.000000 0.000000 0.000000
-0.027238 0.599718 0.131014 0.000000 1.000000 0.000000
0.216410 0.599718 0.357922 0.000000 1.000000 0.000000
0.298266 -0.563258 -0.381665 0.000000 1.000000 0.000000
0.586443 -0.710915 0.053147 1.000000 0.000000 0.000000
0.108019 -0.623729 -0.438634 0.000000 1.000000 0.000000
0.449567 -0.360867 0.452385 0.500000 0.000000 0.500000
-0.592761 0.063718 0.331408 0.000000 1.000000 0.000000
-0.011487 -0.743858 -0.170533 1.000000 0.000000 0.000000
0.434760 -0.189818 0.400586 0.500000 0.000000 0.500000
0.521297 0.068493 -0.190306 0.000000 1.000000 0.000000
0.521297 -0.404063 0.138748 0.000000 1.000000 0.000000
0.130131 0.156656 -0.381665 0.000000 1.000000 0.000000
0.063685 -0.743858 0.129396 1.000000 0.000000 0.000000
0.586485 -0.351621 0.370431 0.000000 1.000000 0.000000
-0.532316 -0.273836 0.393307 0.000000 1.000000 0.000000
-0.311818 -0.680727 -0.330767 0.000000 1.000000 0.000000
0.277286 0.156686 -0.381709 0.000000 1.000000 0.000000
-0.592761 0.064219 -0.037848 0.000000 1.000000 0.000000
0.586642 -0.635800 0.294324 0.000000 1.000000 0.000000
0.586642 0.114879 -0.385893 0.000000 1.000000 0.000000
0.262917 0.232942 -0.381665 0.000000 1.000000 0.000000
0.097319 0.354387 -0.321412 0.000000 1.000000 0.000000
-0.527416 -0.454075 0.350076 0.000000 1.000000 0.000000
-0.484596 -0.621498 0.453385 0.500000 0.000000 0.500000
0.586390 -0.435355 -0.210402 0.000000 1.000000 0.000000
-0.592761 -0.636753 0.302246 0.000000 1.000000 0.000000
0.466300 -0.111141 -0.438634 0.000000 1.000000 0.000000
0.367709 -0.743858 -0.238942 1.000000 0.000000 0.000000
-0.272816 0.463066 0.404713 0.000000 1.000000 0.000000
-0.592761 -0.026679 0.042874 0.000000 1.000000 0.000000
0.014538 -0.541990 -0.381665 0.000000 1.000000 0.000000
-0.002071 -0.687143 0.377525 0.000000 1.000000 0.000000
-0.527416 -0.560935 0.248611 0.000000 1.000000 0.000000
0.108463 0.354287 -0.196490 0.000000 1.000000 0.000000
-0.407295 0.354287 -0.011791 0.000000 1.000000 0.000000
-0.592761 0.038386 0.192550 0.000000 1.000000 0.000000
-0.033160 0.081367 -0.438634 0.000000 1.000000 0.000000
-0.382160 0.506745 0.452748 0.600000 0.000000 0.300000
0.235857 -0.454992 0.452385 0.500000 0.000000 0.500000
0.136058 0.599718 -0.196532 0.000000 1.000000 0.000000
-0.137815 0.599718 0.318890 0.000000 1.000000 0.000000
-0.096635 0.322952 -0.438634 0.000000 1.000000 0.000000
-0.181644 -0.131633 0.400586 0.500000 0.000000 0.500000
0.586642 -0.244318 0.226026 0.000000 1.000000 0.000000
0.521297 0.185016 -0.057702 0.000000 1.000000 0.000000
0.252171 -0.411605 -0.381665 0.000000 1.000000 0.000000
0.586642 0.106832 0.168465 0.000000 1.000000 0.000000
-0.183928 -0.743858 0.118326 1.000000 0.000000 0.000000
0.585933 0.332405 -0.012770 0.000000 1.000000 0.000000
0.585643 -0.445044 -0.047229 0.000000 1.000000 0.000000
-0.284287 -0.330315 -0.382668 0.000000 1.000000 0.000000
0.006133 -0.037992 -0.381665 0.000000 1.000000 0.000000
-0.144895 -0.400772 -0.438634 0.000000 1.000000 0.000000
0.532173 -0.248943 0.452716 0.500000 0.000000 0.500000
-0.494026 -0.676542 0.330399 0.000000 1.000000 0.000000
0.506825 0.255444 -0.438634 0.000000 1.000000 0.000000
0.299320 0.388466 0.452748 0.600000 0.000000 0.300000
0.217023 -0.743858 -0.341925 1.000000 0.000000 0.000000
0.586165 0.402402 -0.032639 0.000000 1.000000 0.000000
-0.059891 0.557836 -0.273333 0.000000 1.000000 0.000000
-0.451307 -0.686920 -0.276986 0.000000 1.000000 0.000000
0.440800 0.159462 -0.382687 0.000000 1.000000 0.000000
-0.043906 0.097422 0.452649 0.500000 0.000000 0.500000
-0.311630 -0.686890 0.085700 0.000000 1.000000 0.000000
-0.289882 -0.743858 -0.253660 1.000000 0.000000 0.000000
0.349898 -0.087904 -0.382667 0.000000 1.000000 0.000000
-0.007938 -0.053127 0.453385 0.500000 0.000000 0.500000
-0.363849 0.354287 0.091638 0.000000 1.000000 0.000000
0.092704 -0.137729 -0.382459 0.000000 1.000000 0.000000
-0.527416 -0.177178 -0.086288 0.000000 1.000000 0.000000
0.067229 0.633977 -0.435279 0.000000 1.000000 0.000000
-0.527416 -0.072673 0.154072 0.000000 1.000000 0.000000
0.586296 0.529546 -0.097469 0.000000 1.000000 0.000000
0.201641 0.599718 0.164289 0.000000 1.000000 0.000000
-0.212055 0.034910 -0.438634 0.000000 1.000000 0.000000
0.348823 -0.601957 0.452385 0.500000 0.000000 0.500000
-0.054389 -0.612012 0.400586 0.500000 0.000000 0.500000
0.430183 0.051694 -0.382673 0.000000 1.000000 0.000000
-0.111934 -0.635404 -0.438634 0.000000 1.000000 0.000000
0.586642 -0.587244 -0.376856 0.000000 1.000000 0.000000
-0.480092 -0.743858 -0.385083 1.000000 0.000000 0.000000
-0.140180 0.599718 0.176976 0.000000 1.000000 0.000000
0.135124 -0.743858 -0.003878 1.000000 0.000000 0.000000
-0.503234 -0.668421 -0.321280 0.000000 1.000000 0.000000
-0.527416 0.021144 0.240563 0.000000 1.000000 0.000000
0.110102 0.372415 0.400622 0.000000 1.000000 0.000000
-0.055709 -0.142799 0.400586 0.500000 0.000000 0.500000
-0.248959 0.627667 -0.385021 0.000000 1.000000 0.000000
0.509460 0.496415 0.452748 0.600000 0.000000 0.300000
-0.592761 0.196541 0.124552 0.000000 1.000000 0.000000
-0.528415 0.092169 0.088036 0.000000 1.000000 0.000000
-0.485881 -0.171891 0.400586 0.500000 0.000000 0.500000
0.250278 0.599718 0.425767 0.000000 1.000000 0.000000
-0.477144 -0.013476 -0.438634 0.000000 1.000000 0.000000
0.388558 -0.201669 0.452385 0.500000 0.000000 0.500000
-0.376282 -0.686890 -0.090570 0.000000 1.000000 0.000000
0.057133 -0.331983 -0.438634 0.000000 1.000000 0.000000
-0.159311 0.624169 -0.385021 0.000000 1.000000 0.000000
-0.527416 -0.476002 0.096204 0.000000 1.000000 0.000000
-0.340274 -0.199863 0.452385 0.500000 0.000000 0.500000
-0.528415 0.197278 0.051577 0.000000 1.000000 0.000000
0.288561 -0.743858 -0.097544 1.000000 0.000000 0.000000
-0.313883 -0.368396 -0.438634 0.000000 1.000000 0.000000
-0.534165 -0.743858 0.239212 1.000000 0.000000 0.000000
-0.553358 -0.743739 -0.344529 1.000000 0.000000 0.000000
-0.180576 -0.686890 -0.028138 0.000000 1.000000 0.000000
0.521297 -0.028519 0.163440 0.000000 1.000000 0.000000
-0.161967 -0.473878 -0.381665 0.000000 1.000000 0.000000
0.360116 -0.467877 -0.438634 0.000000 1.000000 0.000000
-0.309676 0.599718 0.387263 0.000000 1.000000 0.000000
0.502895 0.046139 -0.438634 0.000000 1.000000 0.000000
-0.084831 0.388473 0.401222 0.600000 0.000000 0.300000
0.434256 -0.687297 0.334219 0.000000 1.000000 0.000000
-0.384343 -0.743858 0.316280 1.000000 0.000000 0.000000
0.586642 -0.093559 -0.285234 0.000000 1.000000 0.000000
-0.435202 -0.368045 -0.382673 0.000000 1.000000 0.000000
0.109409 -0.276707 -0.438634 0.000000 1.000000 0.000000
-0.528415 -0.509900 -0.109728 0.000000 1.000000 0.000000
0.576867 0.160739 0.399325 0.000000 1.000000 0.000000
0.237014 -0.151742 -0.382295 0.000000 1.000000 0.000000
0.435907 0.683481 -0.398048 0.000000 1.000000 0.000000
0.491258 -0.075706 -0.370094 0.000000 1.000000 0.000000
-0.189911 -0.415039 0.453385 0.500000 0.000000 0.500000
0.229849 -0.569450 -0.438634 0.000000 1.000000 0.000000
0.521297 -0.133137 -0.039846 0.000000 1.000000 0.000000
-0.321085 -0.743858 0.237955 1.000000 0.000000 0.000000
-0.435587 -0.457509 0.452385 0.500000 0.000000 0.500000
0.586642 -0.004005 -0.296833 0.000000 1.000000 0.000000
-0.592761 -0.596869 0.149929 0.000000 1.000000 0.000000
-0.527416 -0.261205 0.254524 0.000000 1.000000 0.000000
-0.305333 -0.315653 0.452385 0.500000 0.000000 0.500000
-0.592761 -0.485810 -0.220268 0.000000 1.000000 0.000000
0.400568 -0.686890 0.200911 0.000000 1.000000 0.000000
-0.528335 -0.544316 -0.246843 0.000000 1.000000 0.000000
-0.245950 0.354287 -0.164694 0.000000 1.000000 0.000000
-0.020387 0.635673 -0.385021 0.000000 1.000000 0.000000
-0.290481 0.354374 -0.318987 0.000000 1.000000 0.000000
-0.111082 -0.743858 0.123171 1.000000 0.000000 0.000000
-0.541979 -0.743858 -0.154562 1.000000 0.000000 0.000000
-0.527914 -0.541406 -0.002046 0.000000 1.000000 0.000000
0.586642 0.117151 -0.116402 0.000000 1.000000 0.000000
0.065030 -0.743858 -0.050912 1.000000 0.000000 0.000000
-0.161361 -0.270696 0.400586 0.500000 0.000000 0.500000
-0.095627 -0.743858 -0.178045 1.000000 0.000000 0.000000
-0.286675 0.111427 0.400586 0.500000 0.000000 0.500000
-0.253996 -0.489883 -0.438634 0.000000 1.000000 0.000000
-0.527416 -0.367396 0.126299 0.000000 1.000000 0.000000
-0.333814 -0.246673 0.400586 0.500000 0.000000 0.500000
-0.094678 -0.527268 0.453385 0.500000 0.000000 0.500000
0.335918 0.223386 -0.381666 0.000000 1.000000 0.000000
0.514035 -0.743858 0.080613 1.000000 0.000000 0.000000
-0.464991 0.536719 -0.437665 0.000000 1.000000 0.000000
0.586251 0.060088 0.087137 0.000000 1.000000 0.000000
0.258376 -0.029438 -0.438634 0.000000 1.000000 0.000000
-0.528415 -0.413737 -0.072810 0.000000 1.000000 0.000000
0.586012 -0.712689 -0.307564 1.000000 0.000000 0.000000
0.521297 -0.389875 0.006427 0.000000 1.000000 0.000000
0.586280 -0.089615 -0.409020 0.000000 1.000000 0.000000
0.220444 0.354287 0.033279 0.000000 1.000000 0.000000
0.030668 -0.575419 0.400586 0.500000 0.000000 0.500000
0.459333 -0.453152 -0.438634 0.000000 1.000000 0.000000
-0.538497 0.561190 -0.245219 0.000000 1.000000 0.000000
-0.245826 0.599718 0.337255 0.000000 1.000000 0.000000
0.228331 0.069843 -0.438634 0.000000 1.000000 0.000000
0.521297 -0.265659 -0.161974 0.000000 1.000000 0.000000
0.362996 -0.585975 -0.381665 0.000000 1.000000 0.000000
0.209927 0.230568 -0.438634 0.000000 1.000000 0.000000
0.433200 0.599718 0.221360 0.000000 1.000000 0.000000
0.384503 -0.361904 0.400586 0.500000 0.000000 0.500000
-0.527494 -0.308783 -0.134725 0.000000 1.000000 0.000000
0.281569 -0.686890 -0.157111 0.000000 1.000000 0.000000
0.445839 -0.743858 -0.034140 1.000000 0.000000 0.000000
-0.284234 0.354287 0.329870 0.000000 1.000000 0.000000
0.477360 -0.704392 0.437189 0.500000 0.000000 0.500000
0.182530 -0.508626 -0.438634 0.000000 1.000000 0.000000
0.396478 -0.036124 0.452385 0.500000 0.000000 0.500000
-0.172408 0.149614 0.400586 0.500000 0.000000 0.500000
-0.368163 0.281410 0.493639 0.000000 0.500000 0.500000
-0.527784 -0.001926 0.376673 0.000000 1.000000 0.000000
-0.527416 -0.070374 -0.163449 0.000000 1.000000 0.000000
0.586108 -0.662784 -0.005514 1.000000 0.000000 0.000000
-0.053557 -0.301372 0.400586 0.500000 0.000000 0.500000
-0.029634 -0.687176 -0.035028 0.000000 1.000000 0.000000
-0.264500 -0.096800 -0.381665 0.000000 1.000000 0.000000
0.097360 -0.743818 0.358725 1.000000 0.000000 0.000000
-0.457979 0.599718 -0.356194 0.000000 1.000000 0.000000
0.459803 0.178721 0.452385 0.500000 0.000000 0.500000
0.282251 -0.686890 0.016762 0.000000 1.000000 0.000000
0.324345 0.599718 0.386189 0.000000 1.000000 0.000000
0.191109 0.063771 -0.381788 0.000000 1.000000 0.000000
0.053946 -0.271125 0.400586 0.500000 0.000000 0.500000
0.586642 -0.121015 -0.103976 0.000000 1.000000 0.000000
0.586642 0.222125 -0.190424 0.000000 1.000000 0.000000
0.389205 0.177648 -0.438634 0.000000 1.000000 0.000000
0.161980 -0.300793 -0.381665 0.000000 1.000000 0.000000
0.239397 0.560192 0.289876 0.000000 1.000000 0.000000
-0.285773 -0.194730 0.400586 0.500000 0.000000 0.500000
0.012073 0.354287 0.063511 0.000000 1.000000 0.000000
-0.592761 0.263851 0.234042 0.000000 1.000000 0.000000
-0.248391 -0.743858 0.235022 1.000000 0.000000 0.000000
-0.527416 -0.525647 0.345516 0.000000 1.000000 0.000000
-0.531891 0.046629 0.453229 0.500000 0.000000 0.500000
-0.233140 -0.496450 0.453385 0.500000 0.000000 0.500000
0.521297 -0.493062 -0.146466 0.000000 1.000000 0.000000
0.157875 0.533818 0.452747 0.600000 0.000000 0.300000
0.442365 -0.260718 -0.381687 0.000000 1.000000 0.000000
-0.274145 0.362268 0.402840 0.500000 0.000000 0.500000
-0.435505 -0.743858 0.131818 1.000000 0.000000 0.000000
-0.152111 0.002792 0.452385 0.500000 0.000000 0.500000
0.075980 0.468192 0.401222 0.600000 0.000000 0.300000
0.516609 -0.345775 0.452384 0.500000 0.000000 0.500000
0.586642 -0.246259 -0.268069 0.000000 1.000000 0.000000
0.166558 -0.686890 -0.050811 0.000000 1.000000 0.000000
0.278926 -0.542186 0.452385 0.500000 0.000000 0.500000
0.424993 -0.686890 0.047142 0.000000 1.000000 0.000000
-0.251811 0.320712 -0.369167 0.000000 1.000000 0.000000
-0.592761 -0.058416 -0.120696 0.000000 1.000000 0.000000
0.585643 -0.599507 -0.086457 0.000000 1.000000 0.000000
-0.465552 0.599718 0.046599 0.000000 1.000000 0.000000
0.114015 0.599718 -0.303842 0.000000 1.000000 0.000000
-0.592675 0.515039 0.353932 0.000000 1.000000 0.000000
0.585643 0.345708 0.099912 0.000000 1.000000 0.000000
-0.498263 -0.328849 -0.438634 0.000000 1.000000 0.000000
0.527173 -0.743857 -0.206243 1.000000 0.000000 0.000000
-0.508138 -0.448103 0.452385 0.500000 0.000000 0.500000
0.521297 0.056459 -0.029693 0.000000 1.000000 0.000000
-0.018793 -0.743858 -0.096481 1.000000 0.000000 0.000000
-0.176842 0.403000 0.401222 0.600000 0.000000 0.300000
-0.359296 -0.743858 -0.213307 1.000000 0.000000 0.000000
-0.476989 0.467884 0.451969 0.600000 0.000000 0.300000
-0.047963 0.491972 0.452748 0.300000 0.000000 0.600000
-0.308527 0.557836 0.203885 0.000000 1.000000 0.000000
-0.151751 0.475458 0.452365 0.300000 0.000000 0.600000
0.379731 0.605738 -0.385021 0.000000 1.000000 0.000000
0.496806 0.446727 0.401222 0.600000 0.000000 0.300000
-0.592761 -0.100229 -0.295009 0.000000 1.000000 0.000000
0.209285 0.191484 0.400586 0.500000 0.000000 0.500000
-0.341688 -0.581670 -0.381665 0.000000 1.000000 0.000000
-0.497693 -0.254255 0.452385 0.500000 0.000000 0.500000
0.039237 0.404168 -0.438634 0.000000 1.000000 0.000000
0.414334 0.105715 0.452385 0.500000 0.000000 0.500000
0.250370 0.354287 -0.248421 0.000000 1.000000 0.000000
0.585643 0.266583 0.120907 0.000000 1.000000 0.000000
-0.354302 0.093307 0.400586 0.500000 0.000000 0.500000
-0.495900 -0.743858 -0.028400 1.000000 0.000000 0.000000
0.479244 0.561191 -0.226975 0.000000 1.000000 0.000000
-0.186298 -0.308852 -0.381933 0.000000 1.000000 0.000000
-0.251826 0.279679 0.515726 0.000000 0.500000 0.500000
-0.185175 0.560192 -0.283402 0.000000 1.000000 0.000000
-0.552694 0.599718 0.255428 0.000000 1.000000 0.000000
0.263881 -0.743858 0.232281 1.000000 0.000000 0.000000
-0.119378 -0.743858 -0.115537 1.000000 0.000000 0.000000
-0.192417 -0.743858 -0.294591 1.000000 0.000000 0.000000
0.521297 -0.233727 -0.098702 0.000000 1.000000 0.000000
0.529801 0.561190 -0.339341 0.000000 1.000000 0.000000
-0.346763 -0.686890 -0.165279 0.000000 1.000000 0.000000
0.227067 0.337883 0.452385 0.500000 0.000000 0.500000
-0.592761 0.498005 0.177602 0.000000 1.000000 0.000000
-0.532011 0.104681 0.400586 0.500000 0.000000 0.500000
0.521297 -0.458082 0.191862 0.000000 1.000000 0.000000
-0.035317 -0.687179 0.319709 0.000000 1.000000 0.000000
0.147162 -0.238191 0.400586 0.500000 0.000000 0.500000
0.388296 0.557836 -0.162307 0.000000 1.000000 0.000000
-0.492601 -0.326469 0.452385 0.500000 0.000000 0.500000
-0.592761 0.090350 -0.125077 0.000000 1.000000 0.000000
-0.527649 -0.416126 -0.201642 0.000000 1.000000 0.000000
0.204666 0.124680 0.400586 0.500000 0.000000 0.500000
-0.397253 -0.366227 -0.438634 0.000000 1.000000 0.000000
0.324776 -0.071595 0.452385 0.500000 0.000000 0.500000
0.521297 -0.337770 0.143378 0.000000 1.000000 0.000000
-0.131434 0.044211 -0.381665 0.000000 1.000000 0.000000
0.521297 0.057338 0.153326 0.000000 1.000000 0.000000
-0.372039 0.599718 0.010876 0.000000 1.000000 0.000000
0.016728 -0.743858 0.063005 1.000000 0.000000 0.000000
-0.349173 0.664733 -0.435279 0.000000 1.000000 0.000000
-0.527416 -0.110215 -0.092428 0.000000 1.000000 0.000000
0.033708 0.599718 -0.231689 0.000000 1.000000 0.000000
-0.057968 -0.573414 -0.381665 0.000000 1.000000 0.000000
0.124938 -0.686890 0.040557 0.000000 1.000000 0.000000
-0.592761 -0.595254 0.040114 0.000000 1.000000 0.000000
0.117895 -0.687889 0.227407 0.000000 1.000000 0.000000
-0.070788 0.342446 0.453313 0.500000 0.000000 0.500000
-0.348348 0.167639 -0.438634 0.000000 1.000000 0.000000
0.568945 0.599718 0.237232 0.000000 1.000000 0.000000
-0.008036 0.354287 0.277857 0.000000 1.000000 0.000000
-0.090079 0.599718 0.273122 0.000000 1.000000 0.000000
0.031893 0.355244 0.401640 0.500000 0.000000 0.500000
0.000393 0.557836 0.007125 0.000000 1.000000 0.000000
0.074239 -0.087109 0.453385 0.500000 0.000000 0.500000
0.521297 0.194941 0.178948 0.000000 1.000000 0.000000
-0.583344 -0.009151 0.430617 0.500000 0.000000 0.500000
-0.527570 -0.629469 0.161045 0.000000 1.000000 0.000000
0.029259 0.161840 -0.381665 0.000000 1.000000 0.000000
-0.038206 -0.410614 0.453385 0.500000 0.000000 0.500000
0.521297 0.274196 0.031344 0.000000 1.000000 0.000000
-0.592761 -0.427788 0.162215 0.000000 1.000000 0.000000
0.064023 0.599718 0.229225 0.000000 1.000000 0.000000
-0.041218 -0.084014 -0.381665 0.000000 1.000000 0.000000
-0.286061 -0.743858 -0.037741 1.000000 0.000000 0.000000
0.521422 0.286969 -0.260441 0.000000 1.000000 0.000000
0.199073 -0.150324 0.400586 0.500000 0.000000 0.500000
0.521297 -0.100936 0.134890 0.000000 1.000000 0.000000
-0.527416 -0.134404 0.178155 0.000000 1.000000 0.000000
-0.527416 0.225218 -0.181485 0.000000 1.000000 0.000000
-0.495443 -0.132397 0.452385 0.500000 0.000000 0.500000
-0.414412 0.647229 -0.435279 0.000000 1.000000 0.000000
0.586642 -0.473156 -0.272341 0.000000 1.000000 0.000000
0.195782 -0.335434 0.452385 0.500000 0.000000 0.500000
-0.020892 0.354287 -0.257027 0.000000 1.000000 0.000000
0.190244 -0.682528 -0.320152 0.000000 1.000000 0.000000
-0.592761 0.021945 0.099405 0.000000 1.000000 0.000000
-0.442784 -0.185507 -0.382450 0.000000 1.000000 0.000000
0.183919 0.421575 0.401222 0.600000 0.000000 0.300000
-0.217888 -0.730646 -0.432881 1.000000 0.000000 0.000000
0.090498 -0.732332 -0.432166 1.000000 0.000000 0.000000
-0.296275 -0.686890 0.340912 0.000000 1.000000 0.000000
0.521660 0.599718 0.409774 0.000000 1.000000 0.000000
-0.592761 -0.067947 0.223150 0.000000 1.000000 0.000000
-0.592761 -0.634669 -0.192275 0.000000 1.000000 0.000000
-0.455384 -0.505218 -0.382702 0.000000 1.000000 0.000000
-0.360392 -0.532201 0.400586 0.500000 0.000000 0.500000
-0.592761 -0.201195 -0.380059 0.000000 1.000000 0.000000
0.506567 -0.743858 -0.341336 1.000000 0.000000 0.000000
0.521297 0.016595 -0.113550 0.000000 1.000000 0.000000
-0.321048 0.334119 -0.438634 0.000000 1.000000 0.000000
0.521297 -0.298228 0.320419 0.000000 1.000000 0.000000
0.521297 -0.241687 0.028145 0.000000 1.000000 0.000000
-0.128357 0.276436 0.453079 0.500000 0.000000 0.500000
0.110059 0.492990 -0.438634 0.000000 1.000000 0.000000
-0.172697 -0.509994 -0.438634 0.000000 1.000000 0.000000
0.285836 0.507709 0.405704 0.000000 1.000000 0.000000
-0.125229 -0.743858 -0.269674 1.000000 0.000000 0.000000
0.585643 0.190494 0.040365 0.000000 1.000000 0.000000
-0.590032 -0.724702 -0.114555 1.000000 0.000000 0.000000
-0.339232 0.354287 0.249215 0.000000 1.000000 0.000000
0.360119 0.592136 0.473151 0.000000 1.000000 0.000000
-0.027373 -0.387365 -0.381665 0.000000 1.000000 0.000000
-0.325189 0.367635 0.447773 0.500000 0.000000 0.500000
-0.527416 0.114894 -0.232584 0.000000 1.000000 0.000000
0.318932 0.002768 0.452385 0.500000 0.000000 0.500000
0.447727 0.530010 -0.438425 0.000000 1.000000 0.000000
-0.372078 0.557836 -0.293892 0.000000 1.000000 0.000000
0.201786 -0.743858 0.198719 1.000000 0.000000 0.000000
-0.592761 -0.480252 -0.384346 0.000000 1.000000 0.000000
0.299984 -0.675765 -0.438634 0.000000 1.000000 0.000000
-0.592761 -0.183710 0.277695 0.000000 1.000000 0.000000
0.107079 0.185549 0.453385 0.500000 0.000000 0.500000
0.219999 0.354437 0.356578 0.000000 1.000000 0.000000
0.162620 -0.063577 0.452483 0.500000 0.000000 0.500000
0.138305 -0.585835 0.452385 0.500000 0.000000 0.500000
0.284779 0.354287 -0.121854 0.000000 1.000000 0.000000
-0.538202 0.599718 -0.329764 0.000000 1.000000 0.000000
0.586475 -0.176066 -0.044116 0.000000 1.000000 0.000000
-0.420223 0.179230 0.452385 0.500000 0.000000 0.500000
-0.592761 -0.490498 -0.036098 0.000000 1.000000 0.000000
-0.592761 0.394796 0.219743 0.000000 1.000000 0.000000
0.310314 -0.687889 0.322353 0.000000 1.000000 0.000000
-0.527416 0.172122 -0.066014 0.000000 1.000000 0.000000
-0.112271 0.593088 0.471857 0.000000 1.000000 0.000000
0.171299 0.249658 -0.381665 0.000000 1.000000 0.000000
-0.246191 -0.732432 0.399023 1.000000 0.000000 0.000000
0.585643 0.456637 0.027565 0.000000 1.000000 0.000000
0.521297 0.144191 0.033136 0.000000 1.000000 0.000000
0.305857 -0.743858 0.064729 1.000000 0.000000 0.000000
0.142788 0.621756 -0.435279 0.000000 1.000000 0.000000
0.480350 0.599718 -0.101240 0.000000 1.000000 0.000000
0.529145 0.335612 0.400157 0.000000 1.000000 0.000000
0.084876 0.557836 0.030772 0.000000 1.000000 0.000000
0.204684 -0.153263 -0.438634 0.000000 1.000000 0.000000
0.173129 0.318279 -0.438634 0.000000 1.000000 0.000000
-0.101350 -0.397534 0.400586 0.500000 0.000000 0.500000
0.521297 -0.280505 -0.287713 0.000000 1.000000 0.000000
0.164777 0.599718 0.397251 0.000000 1.000000 0.000000
-0.262242 0.125559 -0.381665 0.000000 1.000000 0.000000
0.032354 -0.436026 -0.438634 0.000000 1.000000 0.000000
0.586642 -0.204831 -0.373435 0.000000 1.000000 0.000000
-0.592761 -0.247140 -0.137149 0.000000 1.000000 0.000000
-0.268386 0.272842 -0.438634 0.000000 1.000000 0.000000
0.195410 0.536540 -0.437741 0.000000 1.000000 0.000000
-0.406605 -0.686890 0.249463 0.000000 1.000000 0.000000
0.375193 -0.015690 -0.382667 0.000000 1.000000 0.000000
0.442861 0.354301 0.295761 0.000000 1.000000 0.000000
-0.527416 -0.150682 -0.218411 0.000000 1.000000 0.000000
-0.063170 0.560485 -0.395604 0.000000 1.000000 0.000000
-0.159102 0.347445 -0.438634 0.000000 1.000000 0.000000
-0.527416 -0.499780 0.181199 0.000000 1.000000 0.000000
0.071391 -0.184048 0.452385 0.500000 0.000000 0.500000
-0.372364 -0.743858 0.145885 1.000000 0.000000 0.000000
0.054599 -0.197533 -0.381759 0.000000 1.000000 0.000000
-0.132994 -0.062478 -0.438634 0.000000 1.000000 0.000000
-0.174156 -0.234228 0.452385 0.500000 0.000000 0.500000
-0.125919 -0.743596 0.380335 1.000000 0.000000 0.000000
-0.466601 0.059032 -0.438634 0.000000 1.000000 0.000000
-0.342187 -0.122719 -0.381700 0.000000 1.000000 0.000000
0.429397 0.599718 -0.309247 0.000000 1.000000 0.000000
-0.182411 -0.743858 -0.058935 1.000000 0.000000 0.000000
-0.592761 0.469737 -0.177634 0.000000 1.000000 0.000000
0.266785 0.128091 -0.438634 0.000000 1.000000 0.000000
-0.019294 -0.476464 0.453144 0.500000 0.000000 0.500000
0.142925 -0.204992 -0.438634 0.000000 1.000000 0.000000
0.198639 -0.598304 -0.381665 0.000000 1.000000 0.000000
0.428683 -0.424280 -0.381669 0.000000 1.000000 0.000000
-0.043870 -0.028768 -0.438634 0.000000 1.000000 0.000000
-0.368634 0.223322 0.452374 0.500000 0.000000 0.500000
-0.476471 0.372980 0.400959 0.500000 0.000000 0.500000
-0.357543 0.599718 0.344142 0.000000 1.000000 0.000000
-0.078312 0.502922 -0.438634 0.000000 1.000000 0.000000
0.544658 -0.743763 0.259442 1.000000 0.000000 0.000000
-0.538662 0.557836 -0.124795 0.000000 1.000000 0.000000
-0.436047 0.599718 -0.295684 0.000000 1.000000 0.000000
-0.509170 -0.665119 -0.074995 0.000000 1.000000 0.000000
-0.592761 0.438060 0.023432 0.000000 1.000000 0.000000
-0.045158 -0.743858 0.119678 1.000000 0.000000 0.000000
-0.502931 -0.743823 0.358166 1.000000 0.000000 0.000000
-0.527416 0.032329 -0.118134 0.000000 1.000000 0.000000
-0.319035 -0.189028 -0.438634 0.000000 1.000000 0.000000
-0.539730 0.192862 0.453385 0.500000 0.000000 0.500000
0.574163 0.515761 0.451300 0.600000 0.000000 0.300000
0.521297 -0.353574 -0.150800 0.000000 1.000000 0.000000
-0.257260 -0.581537 -0.381665 0.000000 1.000000 0.000000
0.217149 -0.687264 0.164403 0.000000 1.000000 0.000000
-0.592761 0.285378 -0.027437 0.000000 1.000000 0.000000
-0.451066 0.599718 0.132252 0.000000 1.000000 0.000000
0.563917 -0.190184 0.452729 0.500000 0.000000 0.500000
-0.534629 0.317197 0.401428 0.000000 1.000000 0.000000
-0.540245 -0.743858 -0.255819 1.000000 0.000000 0.000000
0.255576 0.599718 -0.076647 0.000000 1.000000 0.000000
-0.448859 -0.646028 -0.438634 0.000000 1.000000 0.000000
0.369197 0.113892 0.400586 0.500000 0.000000 0.500000
0.516576 0.018000 0.452717 0.500000 0.000000 0.500000
-0.195050 -0.036466 -0.438634 0.000000 1.000000 0.000000
-0.592761 -0.168275 -0.118873 0.000000 1.000000 0.000000
0.263565 0.557836 -0.231941 0.000000 1.000000 0.000000
0.491452 -0.674000 0.308826 0.000000 1.000000 0.000000
0.521297 -0.166947 -0.101980 0.000000 1.000000 0.000000
-0.281820 0.150020 0.452385 0.500000 0.000000 0.500000
0.109142 0.534036 0.401224 0.600000 0.000000 0.300000
0.172104 0.071689 0.453385 0.500000 0.000000 0.500000
-0.046093 -0.687054 0.213711 0.000000 1.000000 0.000000
-0.532911 0.561190 0.055516 0.000000 1.000000 0.000000
0.073978 0.272680 0.400586 0.500000 0.000000 0.500000
-0.592761 -0.179389 0.141921 0.000000 1.000000 0.000000
0.521297 -0.472940 -0.018894 0.000000 1.000000 0.000000
0.348189 0.354287 0.249873 0.000000 1.000000 0.000000
0.390519 0.079182 -0.438634 0.000000 1.000000 0.000000
-0.359965 0.262743 -0.381676 0.000000 1.000000 0.000000
-0.179134 0.599718 -0.083954 0.000000 1.000000 0.000000
-0.579237 0.308367 0.450401 0.500000 0.000000 0.500000
-0.527416 -0.510322 -0.300753 0.000000 1.000000 0.000000
-0.196493 0.535321 0.404757 0.000000 1.000000 0.000000
0.348568 -0.502004 -0.381665 0.000000 1.000000 0.000000
-0.388817 -0.088152 0.400586 0.500000 0.000000 0.500000
-0.592428 -0.091675 -0.407563 0.000000 1.000000 0.000000
0.145387 -0.686890 -0.211901 0.000000 1.000000 0.000000
0.189606 0.599718 0.292059 0.000000 1.000000 0.000000
-0.592761 -0.419326 -0.348733 0.000000 1.000000 0.000000
-0.206281 0.083740 0.400586 0.500000 0.000000 0.500000
-0.502367 0.557836 0.210208 0.000000 1.000000 0.000000
0.310610 0.560872 -0.405590 0.000000 1.000000 0.000000
-0.592761 0.373728 0.322522 0.000000 1.000000 0.000000
0.031812 -0.683527 0.452731 0.500000 0.000000 0.500000
0.582766 -0.028311 0.390634 0.000000 1.000000 0.000000
0.227890 -0.686890 -0.024015 0.000000 1.000000 0.000000
-0.168116 0.313167 -0.373911 0.000000 1.000000 0.000000
0.586642 -0.581811 0.261143 0.000000 1.000000 0.000000
-0.592507 -0.679967 -0.402887 0.000000 1.000000 0.000000
0.521474 -0.459672 0.364976 0.000000 1.000000 0.000000
-0.132291 0.354287 0.090883 0.000000 1.000000 0.000000
-0.217563 -0.686890 -0.082999 0.000000 1.000000 0.000000
0.297281 0.305741 -0.438634 0.000000 1.000000 0.000000
0.586642 -0.186090 0.178927 0.000000 1.000000 0.000000
-0.258895 0.209922 0.452385 0.500000 0.000000 0.500000
0.279315 -0.743858 -0.217006 1.000000 0.000000 0.000000
-0.527459 -0.153306 -0.308264 0.000000 1.000000 0.000000
0.521305 -0.527891 -0.303369 0.000000 1.000000 0.000000
0.500142 -0.213906 0.400586 0.500000 0.000000 0.500000
-0.537811 0.599718 0.434096 0.000000 1.000000 0.000000
0.029801 0.557836 0.356674 0.000000 1.000000 0.000000
0.149567 0.557836 0.024767 0.000000 1.000000 0.000000
0.117479 0.557836 -0.351434 0.000000 1.000000 0.000000
0.411009 -0.686890 -0.215641 0.000000 1.000000 0.000000
0.586642 -0.376856 0.300611 0.000000 1.000000 0.000000
0.068509 -0.687821 0.100509 0.000000 1.000000 0.000000
0.586642 -0.541241 0.053573 0.000000 1.000000 0.000000
0.445428 -0.686918 -0.141951 0.000000 1.000000 0.000000
-0.475252 0.561191 0.347242 0.000000 1.000000 0.000000
0.143808 0.557836 -0.250280 0.000000 1.000000 0.000000
-0.336799 0.599718 0.150099 0.000000 1.000000 0.000000
-0.462865 -0.743858 0.227517 1.000000 0.000000 0.000000
-0.042344 0.002435 0.400586 0.500000 0.000000 0.500000
-0.374417 -0.704379 0.438424 0.500000 0.000000 0.500000
-0.051095 0.599718 -0.093816 0.000000 1.000000 0.000000
0.086924 -0.627017 0.400586 0.500000 0.000000 0.500000
0.135209 0.443042 0.452748 0.300000 0.000000 0.600000
0.272942 0.615914 -0.385021 0.000000 1.000000 0.000000
0.521391 0.058076 -0.330189 0.000000 1.000000 0.000000
0.416983 -0.289454 0.400586 0.500000 0.000000 0.500000
0.448649 0.561191 0.124884 0.000000 1.000000 0.000000
-0.527416 -0.220150 0.067205 0.000000 1.000000 0.000000
0.586642 0.371852 -0.087818 0.000000 1.000000 0.000000
-0.419419 -0.598094 -0.381665 0.000000 1.000000 0.000000
-0.002874 0.354287 -0.012879 0.000000 1.000000 0.000000
0.329171 0.302238 0.452706 0.500000 0.000000 0.500000
-0.263150 -0.032904 -0.438634 0.000000 1.000000 0.000000
-0.420324 -0.686890 -0.007411 0.000000 1.000000 0.000000
0.242188 0.557836 0.006800 0.000000 1.000000 0.000000
-0.528154 0.178071 0.197732 0.000000 1.000000 0.000000
-0.135815 -0.022408 -0.381665 0.000000 1.000000 0.000000
0.281857 -0.132380 0.452385 0.500000 0.000000 0.500000
0.585905 0.526143 0.249566 0.000000 1.000000 0.000000
-0.061580 -0.687889 -0.189380 0.000000 1.000000 0.000000
0.216171 0.032167 0.400586 0.500000 0.000000 0.500000
0.061035 -0.743858 0.011903 1.000000 0.000000 0.000000
0.062825 -0.477962 -0.381665 0.000000 1.000000 0.000000
0.534102 -0.475128 0.452715 0.500000 0.000000 0.500000
-0.350432 -0.292579 -0.438634 0.000000 1.000000 0.000000
0.521297 -0.023503 0.313723 0.000000 1.000000 0.000000
0.302357 -0.438831 -0.438634 0.000000 1.000000 0.000000
-0.001418 -0.743858 -0.247258 1.000000 0.000000 0.000000
-0.582475 0.528368 0.447966 0.600000 0.000000 0.300000
0.296206 -0.111808 -0.438634 0.000000 1.000000 0.000000
-0.527417 0.180214 -0.302193 0.000000 1.000000 0.000000
0.586642 0.002931 -0.188674 0.000000 1.000000 0.000000
0.103841 -0.316497 0.452385 0.500000 0.000000 0.500000
0.205639 -0.687758 0.337486 0.000000 1.000000 0.000000
-0.251872 0.678209 -0.435279 0.000000 1.000000 0.000000
0.002101 -0.353133 0.452583 0.500000 0.000000 0.500000
-0.465845 -0.649537 0.400586 0.500000 0.000000 0.500000
-0.592761 -0.662460 0.022616 0.000000 1.000000 0.000000
0.194475 -0.743858 -0.199261 1.000000 0.000000 0.000000
0.238534 0.599718 0.100126 0.000000 1.000000 0.000000
-0.086484 0.441122 0.452261 0.300000 0.000000 0.600000
0.469436 -0.743858 -0.241485 1.000000 0.000000 0.000000
0.252554 0.541699 0.452059 0.600000 0.000000 0.300000
0.550865 0.557836 0.360803 0.000000 1.000000 0.000000
-0.243052 -0.198435 0.452385 0.500000 0.000000 0.500000
-0.022560 0.260913 -0.381674 0.000000 1.000000 0.000000
-0.451804 -0.357474 0.400586 0.500000 0.000000 0.500000
0.586490 0.413261 0.369915 0.000000 1.000000 0.000000
-0.556502 0.646341 -0.385021 0.000000 1.000000 0.000000
0.328822 -0.687536 0.383987 0.000000 1.000000 0.000000
-0.474799 -0.682889 -0.209568 0.000000 1.000000 0.000000
-0.213355 0.557836 0.249606 0.000000 1.000000 0.000000
0.585746 0.488640 0.167450 0.000000 1.000000 0.000000
-0.592761 -0.550053 0.202074 0.000000 1.000000 0.000000
0.586196 -0.049697 -0.009600 0.000000 1.000000 0.000000
0.408534 0.359419 0.391601 0.000000 1.000000 0.000000
0.521297 -0.165075 -0.297087 0.000000 1.000000 0.000000
-0.165978 -0.643263 0.400586 0.500000 0.000000 0.500000
-0.592346 0.453343 -0.412465 0.000000 1.000000 0.000000
-0.592761 -0.258368 0.337590 0.000000 1.000000 0.000000
0.586642 -0.071345 0.112609 0.000000 1.000000 0.000000
-0.592699 0.437399 0.361059 0.000000 1.000000 0.000000
-0.528104 0.125295 0.164790 0.000000 1.000000 0.000000
-0.581651 0.599718 0.156714 0.000000 1.000000 0.000000
-0.521234 0.599718 0.326667 0.000000 1.000000 0.000000
-0.528415 -0.450270 -0.127433 0.000000 1.000000 0.000000
0.574530 -0.145562 0.402972 0.500000 0.000000 0.500000
0.521297 0.010505 0.034826 0.000000 1.000000 0.000000
-0.302521 -0.631307 0.400586 0.500000 0.000000 0.500000
-0.090757 0.599718 -0.040747 0.000000 1.000000 0.000000
0.521297 0.130612 0.308016 0.000000 1.000000 0.000000
-0.058324 0.165905 -0.438634 0.000000 1.000000 0.000000
-0.101887 -0.425010 -0.381665 0.000000 1.000000 0.000000
0.464920 0.352114 -0.006313 0.000000 1.000000 0.000000
-0.455716 0.531315 0.452290 0.600000 0.000000 0.300000
-0.207643 -0.743858 0.281880 1.000000 0.000000 0.000000
0.392938 -0.743858 -0.358925 1.000000 0.000000 0.000000
-0.592761 -0.352924 -0.245195 0.000000 1.000000 0.000000
0.532123 -0.110340 -0.438633 0.000000 1.000000 0.000000
0.391646 0.424888 0.452748 0.600000 0.000000 0.300000
0.091291 -0.686890 -0.174690 0.000000 1.000000 0.000000
0.382155 -0.678361 -0.337599 0.000000 1.000000 0.000000
0.468209 -0.388210 -0.438634 0.000000 1.000000 0.000000
-0.188980 -0.250687 -0.438634 0.000000 1.000000 0.000000
0.521297 -0.158310 0.023785 0.000000 1.000000 0.000000
0.352955 -0.743858 -0.048831 1.000000 0.000000 0.000000
-0.213468 -0.556786 -0.438634 0.000000 1.000000 0.000000
0.586642 -0.304358 0.210925 0.000000 1.000000 0.000000
-0.530967 -0.081724 0.452871 0.500000 0.000000 0.500000
0.518309 -0.548343 0.452385 0.500000 0.000000 0.500000
0.533719 0.397234 0.405142 0.000000 1.000000 0.000000
0.586642 -0.164131 -0.150268 0.000000 1.000000 0.000000
0.536182 0.557836 0.007726 0.000000 1.000000 0.000000
-0.468511 -0.241647 -0.380395 0.000000 1.000000 0.000000
0.585850 -0.581744 -0.027295 0.000000 1.000000 0.000000
-0.128824 -0.743858 0.239599 1.000000 0.000000 0.000000
0.586228 -0.584394 0.381215 0.000000 1.000000 0.000000
0.586642 -0.368766 -0.348631 0.000000 1.000000 0.000000
-0.528335 0.051632 0.033809 0.000000 1.000000 0.000000
-0.224809 0.599718 -0.165348 0.000000 1.000000 0.000000
0.441475 -0.743858 0.088817 1.000000 0.000000 0.000000
-0.017697 0.599718 0.344576 0.000000 1.000000 0.000000
0.342650 0.599718 -0.091449 0.000000 1.000000 0.000000
0.173969 -0.743858 -0.140018 1.000000 0.000000 0.000000
0.389848 -0.743858 0.334080 1.000000 0.000000 0.000000
-0.424011 -0.521825 0.400586 0.500000 0.000000 0.500000
0.008277 0.453241 0.452711 0.300000 0.000000 0.600000
-0.468497 0.202885 -0.379497 0.000000 1.000000 0.000000
0.037183 -0.687889 0.319877 0.000000 1.000000 0.000000
0.107747 -0.540457 -0.438634 0.000000 1.000000 0.000000
-0.592761 -0.391080 0.071135 0.000000 1.000000 0.000000
-0.078608 0.599718 -0.207002 0.000000 1.000000 0.000000
0.142846 0.354287 -0.065939 0.000000 1.000000 0.000000
-0.464942 0.353294 0.281888 0.000000 1.000000 0.000000
-0.392288 0.270965 0.400586 0.500000 0.000000 0.500000
0.483101 -0.617925 0.452385 0.500000 0.000000 0.500000
0.573327 0.556227 0.073564 0.000000 1.000000 0.000000
-0.106691 0.541549 0.402227 0.000000 1.000000 0.000000
0.141706 0.071613 -0.438634 0.000000 1.000000 0.000000
0.521297 -0.458465 0.110400 0.000000 1.000000 0.000000
0.240079 -0.554848 0.400586 0.500000 0.000000 0.500000
0.546397 0.437726 0.452748 0.600000 0.000000 0.300000
-0.592727 -0.694537 0.248865 1.000000 0.000000 0.000000
0.521297 -0.383318 -0.054450 0.000000 1.000000 0.000000
0.491730 -0.116830 0.452384 0.500000 0.000000 0.500000
0.521456 -0.631571 -0.119354 0.000000 1.000000 0.000000
0.181442 -0.517722 0.400586 0.500000 0.000000 0.500000
-0.527416 -0.163911 0.313687 0.000000 1.000000 0.000000
-0.388373 -0.015770 0.452385 0.500000 0.000000 0.500000
0.409601 -0.685912 0.452738 0.500000 0.000000 0.500000
-0.049106 -0.241572 -0.438634 0.000000 1.000000 0.000000
-0.277828 0.599718 -0.339031 0.000000 1.000000 0.000000
0.054129 -0.125774 0.400586 0.500000 0.000000 0.500000
-0.092054 0.148028 0.452385 0.500000 0.000000 0.500000
-0.151239 0.557836 0.134025 0.000000 1.000000 0.000000
0.037519 0.074569 -0.438634 0.000000 1.000000 0.000000
0.521297 -0.173173 0.135487 0.000000 1.000000 0.000000
0.278693 -0.332399 -0.381665 0.000000 1.000000 0.000000
-0.592761 -0.247901 -0.010566 0.000000 1.000000 0.000000
0.585643 -0.398039 -0.089027 0.000000 1.000000 0.000000
0.586642 -0.473974 0.309891 0.000000 1.000000 0.000000
-0.547087 0.385671 0.405253 0.000000 1.000000 0.000000
-0.536586 -0.559992 -0.438633 0.000000 1.000000 0.000000
0.026117 0.020443 -0.381665 0.000000 1.000000 0.000000
-0.570328 -0.704223 0.433173 0.500000 0.000000 0.500000
-0.527416 -0.047481 -0.046425 0.000000 1.000000 0.000000
-0.527416 -0.005734 0.185995 0.000000 1.000000 0.000000
-0.133610 0.557836 -0.326850 0.000000 1.000000 0.000000
0.226181 0.599718 -0.130092 0.000000 1.000000 0.000000
-0.033670 0.557836 0.231780 0.000000 1.000000 0.000000
-0.266224 0.599718 0.436593 0.000000 1.000000 0.000000
0.585643 -0.552616 -0.125102 0.000000 1.000000 0.000000
-0.257641 -0.743858 0.112379 1.000000 0.000000 0.000000
-0.592761 -0.241640 -0.262867 0.000000 1.000000 0.000000
-0.585528 0.546811 -0.426617 0.000000 1.000000 0.000000
0.249428 0.360137 -0.438634 0.000000 1.000000 0.000000
-0.589406 0.584377 -0.146406 0.000000 1.000000 0.000000
0.210970 0.131513 -0.381665 0.000000 1.000000 0.000000
0.246365 0.291242 -0.379008 0.000000 1.000000 0.000000
-0.340483 0.599718 -0.093944 0.000000 1.000000 0.000000
-0.371709 0.557836 -0.175569 0.000000 1.000000 0.000000
-0.382095 0.192393 -0.381665 0.000000 1.000000 0.000000
0.524885 0.557836 -0.104410 0.000000 1.000000 0.000000
0.440006 0.557836 0.407458 0.000000 1.000000 0.000000
-0.426666 -0.418190 0.400586 0.500000 0.000000 0.500000
0.583287 0.589752 0.471526 0.000000 1.000000 0.000000
0.586642 -0.120878 0.212623 0.000000 1.000000 0.000000
-0.160622 -0.743858 -0.185516 1.000000 0.000000 0.000000
-0.547134 -0.054031 0.400586 0.500000 0.000000 0.500000
-0.123797 -0.025353 0.400586 0.500000 0.000000 0.500000
0.245348 -0.064770 -0.382667 0.000000 1.000000 0.000000
0.306086 -0.686905 -0.288767 0.000000 1.000000 0.000000
0.412476 0.557836 -0.253936 0.000000 1.000000 0.000000
0.279727 -0.743858 -0.335908 1.000000 0.000000 0.000000
-0.258084 -0.403644 0.400586 0.500000 0.000000 0.500000
-0.003113 0.527374 -0.438450 0.000000 1.000000 0.000000
0.021975 0.599718 -0.078596 0.000000 1.000000 0.000000
0.521297 -0.522763 -0.093640 0.000000 1.000000 0.000000
0.586642 -0.180719 -0.255717 0.000000 1.000000 0.000000
0.586642 -0.184252 0.081080 0.000000 1.000000 0.000000
-0.006970 -0.743858 -0.308737 1.000000 0.000000 0.000000
0.214898 0.483945 0.401222 0.600000 0.000000 0.300000
0.333060 0.354287 0.061382 0.000000 1.000000 0.000000
0.091103 -0.215881 0.400586 0.500000 0.000000 0.500000
-0.564763 -0.509925 0.400598 0.500000 0.000000 0.500000
0.012741 0.557836 0.147856 0.000000 1.000000 0.000000
-0.580633 -0.562110 0.449639 0.500000 0.000000 0.500000
-0.100382 0.599718 0.071994 0.000000 1.000000 0.000000
0.003242 -0.322730 0.400586 0.500000 0.000000 0.500000
0.036447 0.557836 -0.308320 0.000000 1.000000 0.000000
-0.099633 0.354287 -0.075605 0.000000 1.000000 0.000000
0.523757 -0.192038 -0.438633 0.000000 1.000000 0.000000
0.437888 0.557836 -0.064146 0.000000 1.000000 0.000000
0.327824 0.557836 0.086515 0.000000 1.000000 0.000000
-0.126974 -0.457357 0.400586 0.500000 0.000000 0.500000
-0.414422 -0.149642 0.400586 0.500000 0.000000 0.500000
0.092412 0.557836 -0.202171 0.000000 1.000000 0.000000
-0.235839 -0.160114 -0.382137 0.000000 1.000000 0.000000
-0.592761 -0.532760 -0.355224 0.000000 1.000000 0.000000
-0.468118 0.677624 -0.435279 0.000000 1.000000 0.000000
-0.266711 0.599718 0.182355 0.000000 1.000000 0.000000
-0.200875 0.557836 -0.202299 0.000000 1.000000 0.000000
0.569618 0.213035 0.451921 0.500000 0.000000 0.500000
-0.378098 0.463455 -0.438634 0.000000 1.000000 0.000000
0.521608 0.308320 -0.138978 0.000000 1.000000 0.000000
0.532533 -0.686650 0.452740 0.500000 0.000000 0.500000
-0.531583 -0.134220 0.391281 0.000000 1.000000 0.000000
0.521297 0.164651 -0.289998 0.000000 1.000000 0.000000
-0.427032 -0.743858 -0.038872 1.000000 0.000000 0.000000
-0.424209 0.434017 0.401222 0.600000 0.000000 0.300000
0.105180 -0.407008 -0.381665 0.000000 1.000000 0.000000
-0.369368 0.557836 0.289011 0.000000 1.000000 0.000000
-0.173479 0.204363 -0.438634 0.000000 1.000000 0.000000
-0.178940 -0.170567 -0.438634 0.000000 1.000000 0.000000
-0.164791 0.289208 0.400586 0.500000 0.000000 0.500000
-0.467920 0.324508 0.453362 0.500000 0.000000 0.500000
-0.056494 -0.313528 -0.381665 0.000000 1.000000 0.000000
0.586642 -0.070877 -0.185881 0.000000 1.000000 0.000000
-0.201711 0.557836 -0.376420 0.000000 1.000000 0.000000
-0.421834 0.557836 0.388578 0.000000 1.000000 0.000000
-0.327710 0.489022 0.401222 0.600000 0.000000 0.300000
-0.546724 0.091406 -0.438620 0.000000 1.000000 0.000000
-0.295113 -0.034307 -0.381665 0.000000 1.000000 0.000000
0.585643 -0.639637 -0.255320 0.000000 1.000000 0.000000
0.482900 0.590474 -0.435279 0.000000 1.000000 0.000000
-0.437659 0.239002 -0.438634 0.000000 1.000000 0.000000
0.524620 0.664462 -0.385021 0.000000 1.000000 0.000000
0.245017 -0.686912 -0.296665 0.000000 1.000000 0.000000
0.428770 0.269510 -0.438634 0.000000 1.000000 0.000000
-0.527486 0.018399 -0.312198 0.000000 1.000000 0.000000
0.292716 -0.308725 0.452385 0.500000 0.000000 0.500000
0.067347 -0.743858 0.307110 1.000000 0.000000 0.000000
-0.176363 0.354287 0.232481 0.000000 1.000000 0.000000
0.585643 -0.339763 -0.068856 0.000000 1.000000 0.000000
0.385729 0.546056 0.442945 0.600000 0.000000 0.300000
0.271417 0.444682 0.404969 0.000000 1.000000 0.000000
-0.472901 0.210616 0.452385 0.500000 0.000000 0.500000
0.195642 0.336917 -0.358022 0.000000 1.000000 0.000000
0.351268 0.358285 -0.438634 0.000000 1.000000 0.000000
0.278906 -0.252225 -0.438634 0.000000 1.000000 0.000000
0.255219 -0.417327 0.400586 0.500000 0.000000 0.500000
0.586642 -0.300320 0.120074 0.000000 1.000000 0.000000
0.521297 -0.039084 -0.246510 0.000000 1.000000 0.000000
-0.332428 -0.464572 0.453385 0.500000 0.000000 0.500000
-0.119770 0.557836 -0.174141 0.000000 1.000000 0.000000
-0.527487 -0.339682 -0.312464 0.000000 1.000000 0.000000
-0.219531 -0.686890 0.023694 0.000000 1.000000 0.000000
0.236667 0.666244 -0.435279 0.000000 1.000000 0.000000
-0.287644 0.599718 0.095472 0.000000 1.000000 0.000000
-0.063432 0.379452 -0.438634 0.000000 1.000000 0.000000
0.422151 -0.350322 -0.381665 0.000000 1.000000 0.000000
-0.254504 0.557836 0.292456 0.000000 1.000000 0.000000
-0.172413 0.354287 0.348484 0.000000 1.000000 0.000000
-0.355445 -0.350824 0.452385 0.500000 0.000000 0.500000
-0.233510 0.354287 -0.274215 0.000000 1.000000 0.000000
0.229284 -0.104995 0.452385 0.500000 0.000000 0.500000
0.312958 -0.543433 0.400586 0.500000 0.000000 0.500000
-0.592761 -0.454250 0.244384 0.000000 1.000000 0.000000
-0.529153 0.187924 -0.438634 0.000000 1.000000 0.000000
0.305163 0.599718 -0.332134 0.000000 1.000000 0.000000
0.500759 -0.666480 -0.287420 0.000000 1.000000 0.000000
-0.311456 -0.272021 -0.382667 0.000000 1.000000 0.000000
-0.424107 -0.040648 0.400586 0.500000 0.000000 0.500000
0.540003 -0.372404 0.400586 0.500000 0.000000 0.500000
-0.467712 -0.684761 0.070375 0.000000 1.000000 0.000000
-0.592761 0.336276 0.210967 0.000000 1.000000 0.000000
-0.278352 0.160805 -0.438634 0.000000 1.000000 0.000000
0.585643 -0.457071 -0.125933 0.000000 1.000000 0.000000
