ply
format ascii 1.0
element vertex 617
property float x
property float y
property float z
property float nx
property float ny
property float nz
property uchar red
property uchar green
property uchar blue
property float opacity
end_header
0.318393 -0.726830 -0.002774 -1.000000 -0.000000 0.000000 255 255 255 1.000000
-0.305207 -0.159480 0.127437 -1.000000 -0.000000 0.000000 250 192 124 1.000000
-0.045071 0.449000 0.300225 0.000000 0.000000 1.000000 251 196 127 1.000000
0.112215 0.036191 -0.279528 0.000000 0.000000 1.000000 255 255 255 1.000000
0.165680 0.881149 0.200577 0.000000 -1.000000 0.000000 255 255 255 1.000000
0.111198 -0.196822 0.319712 0.000000 0.000000 1.000000 253 196 128 1.000000
0.160794 -0.834568 -0.253867 -0.000000 1.000000 -0.000000 255 255 255 1.000000
0.316769 0.405948 0.318390 -1.000000 0.000000 0.000000 248 193 125 1.000000
0.101578 0.106880 0.273254 0.000000 1.000000 0.000000 255 255 255 1.000000
-0.060731 0.268583 0.319712 0.000000 0.000000 -1.000000 248 192 120 1.000000
0.270839 0.106880 0.040805 0.000000 1.000000 0.000000 255 255 255 1.000000
-0.019649 0.907133 0.045140 0.000000 -1.000000 0.000000 255 255 255 1.000000
0.161582 0.881149 -0.004802 0.000000 -1.000000 0.000000 255 255 255 1.000000
0.066029 0.907133 0.088705 -0.000000 1.000000 -0.000000 255 255 255 1.000000
0.032581 0.324459 0.319712 0.000000 0.000000 1.000000 251 196 127 1.000000
0.298906 -0.444442 -0.098207 1.000000 0.000000 0.000000 255 255 255 1.000000
-0.305207 -0.248180 -0.243971 1.000000 0.000000 0.000000 255 255 255 1.000000
0.252602 -0.165312 0.300225 0.000000 0.000000 1.000000 250 196 127 1.000000
-0.134518 -0.817360 0.319712 0.000000 0.000000 1.000000 245 188 119 1.000000
0.100936 -0.529287 0.319712 0.000000 0.000000 1.000000 247 187 118 1.000000
-0.305207 0.319679 -0.190106 -1.000000 -0.000000 0.000000 250 195 124 1.000000
0.298906 0.169657 0.055368 -1.000000 -0.000000 0.000000 255 255 255 1.000000
0.195065 0.132863 0.124312 -0.000000 -1.000000 0.000000 255 255 255 1.000000
-0.166561 -0.563014 0.319712 0.000000 0.000000 1.000000 249 194 125 1.000000
0.103828 -0.066004 -0.279528 0.000000 -0.000000 -1.000000 255 255 255 1.000000
-0.305207 -0.086381 -0.290332 -1.000000 -0.000000 0.000000 250 196 125 1.000000
0.044206 -0.354913 0.171945 -0.000000 -1.000000 0.000000 255 255 255 1.000000
0.254793 -0.860552 -0.042058 -0.000000 1.000000 -0.000000 255 255 255 1.000000
-0.305207 0.269621 -0.094643 -1.000000 -0.000000 0.000000 249 198 125 1.000000
0.298906 0.626063 0.061867 1.000000 0.000000 0.000000 255 255 255 1.000000
-0.051764 0.528930 -0.088150 -0.000000 -1.000000 0.000000 255 255 255 1.000000
-0.223314 0.907133 0.160607 -0.000000 1.000000 -0.000000 255 255 255 1.000000
0.318393 0.481551 0.031988 -1.000000 -0.000000 0.000000 255 255 255 1.000000
-0.102297 -0.860552 0.115963 0.000000 -1.000000 0.000000 255 255 255 1.000000
0.212799 -0.380896 -0.229325 0.000000 1.000000 0.000000 255 255 255 1.000000
0.027495 0.106880 0.041069 0.000000 1.000000 0.000000 255 255 255 1.000000
0.318393 0.600063 0.206347 1.000000 0.000000 0.000000 249 200 130 1.000000
-0.182574 -0.684292 -0.273032 0.000000 0.000000 1.000000 255 255 255 1.000000
0.043478 0.132863 0.234118 0.000000 1.000000 0.000000 255 255 255 1.000000
-0.077635 0.907133 0.157977 -0.000000 1.000000 -0.000000 255 255 255 1.000000
0.059795 0.096314 0.319712 0.000000 0.000000 1.000000 239 184 115 1.000000
-0.257129 0.132863 -0.040305 -0.000000 -1.000000 0.000000 255 255 255 1.000000
0.226918 0.106880 -0.133928 0.000000 1.000000 0.000000 255 255 255 1.000000
0.019197 0.899792 -0.299015 0.000000 -0.000000 -1.000000 255 255 255 1.000000
-0.165701 0.528930 -0.125296 -0.000000 -1.000000 0.000000 255 255 255 1.000000
-0.255234 -0.736544 -0.279528 0.000000 0.000000 1.000000 255 255 255 1.000000
-0.234174 0.907133 -0.161651 -0.000000 1.000000 -0.000000 255 255 255 1.000000
0.303983 0.245031 0.298601 0.000000 0.000000 1.000000 242 181 112 1.000000
0.054271 0.152852 0.300225 0.000000 0.000000 1.000000 250 183 116 1.000000
-0.207956 -0.408746 0.300225 0.000000 0.000000 1.000000 246 190 119 1.000000
0.272689 0.907133 -0.155258 0.000000 -1.000000 0.000000 255 255 255 1.000000
-0.305207 0.556231 -0.058323 -1.000000 -0.000000 0.000000 252 197 128 1.000000
0.298906 0.859264 0.193802 1.000000 0.000000 0.000000 255 255 255 1.000000
-0.298379 0.495368 -0.299015 0.000000 0.000000 1.000000 255 255 255 1.000000
-0.100701 0.004652 -0.273032 0.000000 0.000000 1.000000 255 255 255 1.000000
0.298906 -0.805205 0.261966 1.000000 0.000000 0.000000 255 255 255 1.000000
0.298906 0.090232 -0.000929 -1.000000 -0.000000 0.000000 255 255 255 1.000000
0.298906 -0.814679 -0.179207 -1.000000 -0.000000 0.000000 255 255 255 1.000000
-0.256526 -0.354913 0.246101 -0.000000 -1.000000 0.000000 255 255 255 1.000000
-0.305207 -0.206857 0.223514 1.000000 0.000000 0.000000 255 255 255 1.000000
0.148869 -0.380896 0.035618 -0.000000 -1.000000 0.000000 255 255 255 1.000000
-0.160264 -0.146944 0.319712 0.000000 0.000000 -1.000000 250 195 123 1.000000
0.196157 -0.520507 -0.279528 0.000000 0.000000 1.000000 255 255 255 1.000000
-0.107990 0.132863 0.058484 -0.000000 -1.000000 0.000000 255 255 255 1.000000
-0.211990 0.881149 -0.243004 -0.000000 1.000000 -0.000000 255 255 255 1.000000
0.164756 0.502946 -0.020083 -0.000000 -1.000000 0.000000 255 255 255 1.000000
0.144833 -0.380896 0.225905 0.000000 1.000000 0.000000 255 255 255 1.000000
-0.014047 -0.860552 0.122666 0.000000 -1.000000 0.000000 255 255 255 1.000000
0.075671 0.231049 0.319712 0.000000 0.000000 1.000000 243 183 114 1.000000
0.002432 -0.354913 -0.081283 0.000000 1.000000 0.000000 255 255 255 1.000000
-0.305207 -0.122231 0.230191 1.000000 0.000000 0.000000 255 255 255 1.000000
-0.175268 0.504262 -0.279528 0.000000 -0.000000 -1.000000 255 255 255 1.000000
0.124218 -0.119484 -0.273032 0.000000 -0.000000 -1.000000 255 255 255 1.000000
0.206846 -0.612514 -0.273032 0.000000 0.000000 1.000000 255 255 255 1.000000
0.318393 0.109727 -0.121790 -1.000000 -0.000000 0.000000 255 255 255 1.000000
-0.232779 0.502946 0.170013 -0.000000 -1.000000 0.000000 255 255 255 1.000000
-0.073254 -0.058942 0.300225 0.000000 0.000000 -1.000000 255 255 255 1.000000
-0.075263 -0.759193 0.319712 0.000000 0.000000 1.000000 251 190 121 1.000000
0.212638 -0.834568 0.179736 -0.000000 1.000000 -0.000000 255 255 255 1.000000
-0.305207 0.737059 -0.242065 -1.000000 -0.000000 0.000000 252 193 123 1.000000
-0.285719 0.794466 0.129843 1.000000 0.000000 0.000000 255 255 255 1.000000
-0.151155 -0.003299 0.319712 0.000000 0.000000 -1.000000 248 191 120 1.000000
0.008443 0.502946 -0.036283 0.000000 1.000000 0.000000 255 255 255 1.000000
-0.285719 0.232592 0.271232 1.000000 0.000000 0.000000 255 255 255 1.000000
-0.256732 -0.860552 0.142631 -0.000000 1.000000 -0.000000 255 255 255 1.000000
0.318393 -0.593692 -0.251557 -1.000000 -0.000000 0.000000 255 255 255 1.000000
0.318393 0.764109 0.165960 1.000000 0.000000 0.000000 249 198 129 1.000000
-0.005211 0.528930 0.140619 -0.000000 -1.000000 0.000000 255 255 255 1.000000
-0.305207 -0.318772 0.095461 1.000000 0.000000 0.000000 255 255 255 1.000000
0.115332 -0.209714 -0.279528 0.000000 -0.000000 -1.000000 255 255 255 1.000000
0.217175 0.502946 0.136542 0.000000 1.000000 0.000000 255 255 255 1.000000
-0.250680 -0.246801 -0.273032 0.000000 -0.000000 -1.000000 255 255 255 1.000000
0.315552 0.061551 0.319712 0.000000 0.000000 1.000000 250 195 127 1.000000
0.318393 0.720550 -0.102201 -1.000000 -0.000000 0.000000 255 255 255 1.000000
0.180777 -0.609534 0.319712 0.000000 0.000000 1.000000 250 193 125 1.000000
-0.294635 -0.799498 0.319712 0.000000 0.000000 1.000000 250 193 126 1.000000
0.230755 0.907133 0.199848 0.000000 -1.000000 0.000000 255 255 255 1.000000
-0.074870 0.656230 0.300225 0.000000 0.000000 -1.000000 255 255 255 1.000000
-0.058213 -0.354913 0.015446 -0.000000 -1.000000 0.000000 255 255 255 1.000000
0.298906 0.016208 -0.103496 -1.000000 -0.000000 0.000000 255 255 255 1.000000
-0.079554 0.137561 -0.279528 0.000000 0.000000 1.000000 255 255 255 1.000000
-0.240739 0.645995 -0.279528 0.000000 -0.000000 -1.000000 255 255 255 1.000000
-0.285719 -0.654697 -0.071820 1.000000 0.000000 0.000000 255 255 255 1.000000
0.085272 -0.380896 0.243990 -0.000000 -1.000000 0.000000 255 255 255 1.000000
-0.030417 -0.447475 0.319712 0.000000 0.000000 -1.000000 251 193 124 1.000000
-0.305207 0.320412 0.209401 -1.000000 -0.000000 0.000000 245 190 119 1.000000
-0.285719 0.230550 -0.231959 1.000000 0.000000 0.000000 255 255 255 1.000000
-0.305207 0.427086 0.200359 1.000000 0.000000 0.000000 255 255 255 1.000000
-0.305207 0.442452 -0.283470 1.000000 0.000000 0.000000 255 255 255 1.000000
0.103329 0.789508 0.300225 0.000000 0.000000 1.000000 251 192 124 1.000000
0.298906 -0.051980 -0.160598 1.000000 0.000000 0.000000 255 255 255 1.000000
0.162709 0.132863 -0.021535 -0.000000 -1.000000 0.000000 255 255 255 1.000000
0.055411 0.881149 -0.157376 -0.000000 1.000000 -0.000000 255 255 255 1.000000
0.318393 0.900521 0.287445 1.000000 0.000000 0.000000 248 195 127 1.000000
0.091613 -0.503836 -0.273032 0.000000 -0.000000 -1.000000 255 255 255 1.000000
-0.166760 -0.630160 -0.273032 0.000000 0.000000 1.000000 255 255 255 1.000000
0.036016 0.132863 0.141761 0.000000 1.000000 0.000000 255 255 255 1.000000
0.318393 -0.516132 0.018646 -1.000000 -0.000000 0.000000 255 255 255 1.000000
0.296229 -0.354913 -0.105394 -0.000000 -1.000000 0.000000 255 255 255 1.000000
-0.165491 0.865492 -0.299015 0.000000 -0.000000 -1.000000 255 255 255 1.000000
0.223610 0.881149 -0.072253 0.000000 -1.000000 0.000000 255 255 255 1.000000
0.318393 -0.213092 -0.262352 -1.000000 -0.000000 0.000000 255 255 255 1.000000
-0.098690 0.132863 0.266165 -0.000000 -1.000000 0.000000 255 255 255 1.000000
-0.305207 0.364934 0.061302 -1.000000 -0.000000 0.000000 249 193 126 1.000000
-0.285719 -0.125669 0.160300 -1.000000 -0.000000 0.000000 255 255 255 1.000000
0.263399 0.306084 -0.273032 0.000000 0.000000 1.000000 255 255 255 1.000000
0.036084 0.502946 0.024491 0.000000 1.000000 0.000000 255 255 255 1.000000
-0.036100 0.575089 -0.273032 0.000000 -0.000000 -1.000000 255 255 255 1.000000
0.109197 0.132863 -0.167313 0.000000 1.000000 0.000000 255 255 255 1.000000
-0.114292 0.502946 -0.163995 0.000000 1.000000 0.000000 255 255 255 1.000000
0.137938 0.052472 0.300225 0.000000 0.000000 -1.000000 255 255 255 1.000000
0.298906 -0.738270 0.179522 -1.000000 -0.000000 0.000000 255 255 255 1.000000
-0.305207 -0.371498 0.280385 1.000000 0.000000 0.000000 255 255 255 1.000000
-0.077964 0.907133 0.050155 -0.000000 1.000000 -0.000000 255 255 255 1.000000
-0.263683 0.502946 -0.112053 0.000000 1.000000 0.000000 255 255 255 1.000000
-0.035438 0.528930 -0.191904 0.000000 1.000000 0.000000 255 255 255 1.000000
-0.285719 -0.070880 0.242499 1.000000 0.000000 0.000000 255 255 255 1.000000
-0.184836 0.301599 -0.273032 0.000000 -0.000000 -1.000000 255 255 255 1.000000
0.145949 0.857866 -0.299015 0.000000 -0.000000 -1.000000 255 255 255 1.000000
-0.295877 -0.188552 -0.299015 0.000000 -0.000000 -1.000000 255 255 255 1.000000
0.318393 0.529253 -0.268528 -1.000000 -0.000000 0.000000 255 255 255 1.000000
0.318393 -0.819120 0.124378 -1.000000 -0.000000 0.000000 255 255 255 1.000000
0.270380 0.502946 -0.227824 -0.000000 -1.000000 0.000000 255 255 255 1.000000
-0.285719 -0.793721 0.162444 -1.000000 -0.000000 0.000000 255 255 255 1.000000
-0.285719 0.605615 0.118227 1.000000 0.000000 0.000000 255 255 255 1.000000
-0.051081 -0.354913 -0.189245 0.000000 1.000000 0.000000 255 255 255 1.000000
0.262665 -0.740098 0.300225 0.000000 0.000000 -1.000000 255 255 255 1.000000
0.298906 0.692368 -0.224919 1.000000 0.000000 0.000000 255 255 255 1.000000
0.076548 -0.751742 0.300225 0.000000 0.000000 -1.000000 255 255 255 1.000000
-0.305207 -0.674415 -0.235598 -1.000000 -0.000000 0.000000 251 191 121 1.000000
-0.041874 0.502946 0.230564 0.000000 1.000000 0.000000 255 255 255 1.000000
-0.196304 0.177402 0.319712 0.000000 0.000000 -1.000000 250 190 121 1.000000
-0.283737 -0.060566 0.319712 0.000000 0.000000 1.000000 249 197 127 1.000000
-0.301906 0.907133 0.271317 -0.000000 1.000000 -0.000000 255 255 255 1.000000
-0.305207 0.027267 0.215101 1.000000 0.000000 0.000000 255 255 255 1.000000
0.172956 -0.053661 0.319712 0.000000 0.000000 1.000000 248 191 123 1.000000
-0.191129 0.119902 0.319712 0.000000 0.000000 -1.000000 248 193 124 1.000000
-0.285719 -0.534895 0.200753 -1.000000 -0.000000 0.000000 255 255 255 1.000000
0.115275 0.380864 0.319712 0.000000 0.000000 -1.000000 250 200 129 1.000000
0.164282 0.528930 -0.065706 0.000000 1.000000 0.000000 255 255 255 1.000000
-0.061800 0.039711 -0.273032 0.000000 0.000000 1.000000 255 255 255 1.000000
-0.102623 0.881149 -0.100663 -0.000000 1.000000 -0.000000 255 255 255 1.000000
0.205567 -0.860552 0.095743 -0.000000 1.000000 -0.000000 255 255 255 1.000000
-0.168481 -0.834568 -0.111032 -0.000000 1.000000 -0.000000 255 255 255 1.000000
0.035977 0.061090 -0.273032 0.000000 0.000000 1.000000 255 255 255 1.000000
0.318393 -0.859720 -0.095862 -1.000000 -0.000000 0.000000 255 255 255 1.000000
-0.251222 0.106875 0.319712 0.000000 0.000000 -1.000000 253 195 127 1.000000
0.283244 -0.380896 -0.168278 0.000000 1.000000 0.000000 255 255 255 1.000000
0.174988 0.502946 0.040980 0.000000 1.000000 0.000000 255 255 255 1.000000
-0.248943 -0.354913 -0.012601 -0.000000 -1.000000 0.000000 255 255 255 1.000000
-0.158508 -0.834568 0.275099 -0.000000 1.000000 -0.000000 255 255 255 1.000000
-0.303583 0.846220 0.317568 -1.000000 0.000000 0.000000 249 195 128 1.000000
0.234015 0.902960 0.298601 0.000000 -0.000000 -1.000000 255 255 255 1.000000
0.272882 0.837176 0.300225 0.000000 0.000000 -1.000000 255 255 255 1.000000
-0.011892 0.132863 0.253762 -0.000000 -1.000000 0.000000 255 255 255 1.000000
0.318393 -0.477312 -0.268189 -1.000000 -0.000000 0.000000 255 255 255 1.000000
0.162263 0.502946 0.196554 0.000000 1.000000 0.000000 255 255 255 1.000000
0.298906 -0.430276 0.238537 1.000000 0.000000 0.000000 255 255 255 1.000000
0.013539 -0.183454 -0.279528 0.000000 -0.000000 -1.000000 255 255 255 1.000000
-0.009726 0.015254 0.300225 0.000000 0.000000 -1.000000 255 255 255 1.000000
0.318393 0.324298 -0.275540 -1.000000 -0.000000 0.000000 255 255 255 1.000000
0.177807 -0.851938 0.319712 0.000000 0.000000 1.000000 250 193 126 1.000000
0.229415 0.881149 0.046703 -0.000000 1.000000 -0.000000 255 255 255 1.000000
0.275965 -0.698893 -0.273032 0.000000 -0.000000 -1.000000 255 255 255 1.000000
0.089247 0.881149 0.263807 0.000000 -1.000000 0.000000 255 255 255 1.000000
-0.305207 0.674238 0.050475 1.000000 0.000000 0.000000 255 255 255 1.000000
0.016595 -0.834568 -0.246292 0.000000 -1.000000 0.000000 255 255 255 1.000000
0.040324 0.548991 -0.279528 0.000000 0.000000 1.000000 255 255 255 1.000000
-0.094150 -0.361828 -0.279528 0.000000 0.000000 1.000000 255 255 255 1.000000
-0.285719 -0.603445 -0.092284 1.000000 0.000000 0.000000 255 255 255 1.000000
-0.272599 0.167466 -0.279528 0.000000 -0.000000 -1.000000 255 255 255 1.000000
0.041615 -0.474816 -0.279528 0.000000 -0.000000 -1.000000 255 255 255 1.000000
0.090982 0.672797 0.300225 0.000000 0.000000 1.000000 248 191 123 1.000000
-0.097917 -0.139799 0.300225 0.000000 0.000000 -1.000000 255 255 255 1.000000
0.269464 0.003351 -0.279528 0.000000 0.000000 1.000000 255 255 255 1.000000
0.151035 0.881149 0.141829 -0.000000 1.000000 -0.000000 255 255 255 1.000000
-0.163685 -0.380896 0.251233 0.000000 1.000000 0.000000 255 255 255 1.000000
-0.127047 0.224903 -0.279528 0.000000 -0.000000 -1.000000 255 255 255 1.000000
0.226046 0.132863 -0.233121 0.000000 1.000000 0.000000 255 255 255 1.000000
-0.150494 0.528930 0.122167 -0.000000 -1.000000 0.000000 255 255 255 1.000000
-0.131936 -0.533831 -0.279528 0.000000 0.000000 1.000000 255 255 255 1.000000
-0.301667 0.067169 -0.299015 0.000000 -0.000000 -1.000000 255 255 255 1.000000
-0.161034 0.072196 -0.279528 0.000000 0.000000 1.000000 255 255 255 1.000000
-0.305207 -0.537421 0.109231 1.000000 0.000000 0.000000 255 255 255 1.000000
0.107802 0.223643 -0.279528 0.000000 0.000000 1.000000 255 255 255 1.000000
0.171917 -0.354913 -0.240735 -0.000000 -1.000000 0.000000 255 255 255 1.000000
0.298906 -0.561156 0.252930 1.000000 0.000000 0.000000 255 255 255 1.000000
0.247901 -0.003278 0.319712 0.000000 0.000000 -1.000000 249 192 124 1.000000
-0.048594 -0.834568 -0.195956 0.000000 -1.000000 0.000000 255 255 255 1.000000
-0.171882 0.881149 0.074545 -0.000000 1.000000 -0.000000 255 255 255 1.000000
-0.265338 0.587896 0.300225 0.000000 0.000000 -1.000000 255 255 255 1.000000
0.175796 0.907133 -0.246413 0.000000 -1.000000 0.000000 255 255 255 1.000000
0.318393 -0.148713 0.253171 1.000000 0.000000 0.000000 251 196 125 1.000000
0.298906 0.278301 -0.063124 -1.000000 -0.000000 0.000000 255 255 255 1.000000
-0.176427 0.528930 0.022022 -0.000000 -1.000000 0.000000 255 255 255 1.000000
-0.256997 -0.209048 0.319712 0.000000 0.000000 -1.000000 251 200 127 1.000000
-0.156711 -0.354913 -0.101112 -0.000000 -1.000000 0.000000 255 255 255 1.000000
-0.014039 -0.748488 -0.299015 0.000000 0.000000 1.000000 255 255 255 1.000000
0.065076 -0.378318 -0.279528 0.000000 0.000000 1.000000 255 255 255 1.000000
0.318393 -0.839286 0.207332 -1.000000 -0.000000 0.000000 255 255 255 1.000000
0.056144 0.011265 0.319712 0.000000 0.000000 1.000000 251 199 129 1.000000
0.318393 0.641551 0.262075 -1.000000 -0.000000 0.000000 255 255 255 1.000000
-0.136138 0.498113 0.319712 0.000000 0.000000 1.000000 250 195 126 1.000000
0.298906 0.904880 -0.017222 1.000000 0.000000 0.000000 255 255 255 1.000000
-0.094473 -0.834568 0.230969 -0.000000 1.000000 -0.000000 255 255 255 1.000000
0.242822 0.780422 -0.299015 0.000000 0.000000 1.000000 255 255 255 1.000000
0.161894 -0.860552 -0.295744 -0.000000 1.000000 -0.000000 255 255 255 1.000000
0.198599 0.132863 0.224168 0.000000 1.000000 0.000000 255 255 255 1.000000
0.318393 -0.733578 0.234619 1.000000 0.000000 0.000000 249 198 128 1.000000
0.024621 0.502946 -0.124281 -0.000000 -1.000000 0.000000 255 255 255 1.000000
-0.305207 -0.078744 -0.026928 -1.000000 -0.000000 0.000000 248 192 123 1.000000
-0.195545 -0.380896 0.104933 -0.000000 -1.000000 0.000000 255 255 255 1.000000
-0.127461 -0.815896 -0.273032 0.000000 0.000000 1.000000 255 255 255 1.000000
0.318393 -0.611919 0.275525 -1.000000 -0.000000 0.000000 255 255 255 1.000000
0.298906 -0.282976 0.080464 -1.000000 -0.000000 0.000000 255 255 255 1.000000
0.318393 0.442224 0.285260 -1.000000 -0.000000 0.000000 255 255 255 1.000000
0.149207 -0.458504 -0.279528 0.000000 0.000000 1.000000 255 255 255 1.000000
0.318393 0.525404 -0.119825 1.000000 0.000000 0.000000 249 196 127 1.000000
-0.075404 0.132863 0.193565 -0.000000 -1.000000 0.000000 255 255 255 1.000000
-0.305207 -0.833377 0.204200 1.000000 0.000000 0.000000 255 255 255 1.000000
-0.199596 0.422983 0.319712 0.000000 0.000000 -1.000000 251 196 126 1.000000
0.298906 -0.551926 -0.040297 1.000000 0.000000 0.000000 255 255 255 1.000000
0.026937 -0.354913 -0.169947 -0.000000 -1.000000 0.000000 255 255 255 1.000000
0.028128 -0.828895 0.319712 0.000000 0.000000 1.000000 252 199 131 1.000000
-0.285719 0.010662 0.155139 -1.000000 -0.000000 0.000000 255 255 255 1.000000
0.238026 0.881149 -0.240272 -0.000000 1.000000 -0.000000 255 255 255 1.000000
0.298906 -0.512306 0.177232 -1.000000 -0.000000 0.000000 255 255 255 1.000000
0.126553 0.132863 0.201680 -0.000000 -1.000000 0.000000 255 255 255 1.000000
-0.305207 0.524828 0.248647 -1.000000 -0.000000 0.000000 245 194 124 1.000000
0.133354 0.132863 0.057814 -0.000000 -1.000000 0.000000 255 255 255 1.000000
-0.178797 -0.088803 -0.279528 0.000000 -0.000000 -1.000000 255 255 255 1.000000
0.298906 -0.298938 0.276449 1.000000 0.000000 0.000000 255 255 255 1.000000
-0.267728 0.243395 -0.279528 0.000000 0.000000 1.000000 255 255 255 1.000000
0.267532 -0.860552 0.269779 -0.000000 1.000000 -0.000000 255 255 255 1.000000
-0.305207 -0.005921 -0.070565 -1.000000 -0.000000 0.000000 249 195 126 1.000000
0.002745 0.249401 0.300225 0.000000 0.000000 1.000000 249 192 125 1.000000
0.191236 0.282310 -0.279528 0.000000 0.000000 1.000000 255 255 255 1.000000
0.298906 -0.439319 -0.232674 1.000000 0.000000 0.000000 255 255 255 1.000000
-0.170967 0.106880 -0.081656 0.000000 1.000000 0.000000 255 255 255 1.000000
-0.285719 0.760285 -0.127728 1.000000 0.000000 0.000000 255 255 255 1.000000
-0.087855 -0.539830 0.319712 0.000000 0.000000 1.000000 250 190 121 1.000000
0.238883 0.106880 0.210253 0.000000 1.000000 0.000000 255 255 255 1.000000
-0.004263 -0.740557 0.319712 0.000000 0.000000 1.000000 246 189 119 1.000000
-0.011234 -0.860552 -0.086708 -0.000000 1.000000 -0.000000 255 255 255 1.000000
-0.108438 0.881149 0.022320 -0.000000 1.000000 -0.000000 255 255 255 1.000000
-0.056942 0.549541 0.300225 0.000000 0.000000 1.000000 253 196 128 1.000000
-0.032529 0.132863 -0.220111 0.000000 1.000000 0.000000 255 255 255 1.000000
-0.301889 -0.652953 -0.299015 0.000000 -0.000000 -1.000000 255 255 255 1.000000
0.298906 0.526380 0.019343 1.000000 0.000000 0.000000 255 255 255 1.000000
0.318393 0.544440 0.227281 1.000000 0.000000 0.000000 252 197 126 1.000000
0.298906 0.189433 -0.202878 -1.000000 -0.000000 0.000000 255 255 255 1.000000
0.051292 0.377927 -0.279528 0.000000 -0.000000 -1.000000 255 255 255 1.000000
-0.305207 -0.607624 0.194056 -1.000000 -0.000000 0.000000 250 189 122 1.000000
-0.199928 0.132863 0.221954 0.000000 1.000000 0.000000 255 255 255 1.000000
-0.122833 -0.051523 0.319712 0.000000 0.000000 1.000000 251 199 129 1.000000
-0.305207 -0.391459 -0.076569 1.000000 0.000000 0.000000 255 255 255 1.000000
-0.285719 -0.335180 -0.106111 -1.000000 -0.000000 0.000000 255 255 255 1.000000
0.045424 -0.495123 0.319712 0.000000 0.000000 -1.000000 254 197 126 1.000000
0.117832 -0.609105 -0.279528 0.000000 -0.000000 -1.000000 255 255 255 1.000000
0.139086 -0.834568 0.230997 0.000000 -1.000000 0.000000 255 255 255 1.000000
0.036849 -0.860552 -0.061468 -0.000000 1.000000 -0.000000 255 255 255 1.000000
-0.141422 0.528930 0.265688 -0.000000 -1.000000 0.000000 255 255 255 1.000000
-0.274452 0.866273 -0.279528 0.000000 0.000000 1.000000 255 255 255 1.000000
-0.120558 0.448837 -0.273032 0.000000 -0.000000 -1.000000 255 255 255 1.000000
0.229155 -0.470027 0.300225 0.000000 0.000000 1.000000 245 190 119 1.000000
0.156440 -0.444036 0.300225 0.000000 0.000000 1.000000 249 197 127 1.000000
-0.111415 0.135169 0.319712 0.000000 0.000000 1.000000 245 190 119 1.000000
-0.285719 -0.753794 -0.084609 1.000000 0.000000 0.000000 255 255 255 1.000000
0.102805 0.181252 0.319712 0.000000 0.000000 -1.000000 249 194 124 1.000000
-0.142655 0.543457 -0.279528 0.000000 0.000000 1.000000 255 255 255 1.000000
0.318393 -0.771913 -0.167494 -1.000000 -0.000000 0.000000 255 255 255 1.000000
-0.217579 0.106880 -0.098144 -0.000000 -1.000000 0.000000 255 255 255 1.000000
-0.213195 0.286643 0.319712 0.000000 0.000000 -1.000000 245 182 115 1.000000
0.231039 -0.380896 0.176597 0.000000 1.000000 0.000000 255 255 255 1.000000
0.033544 0.106880 -0.017804 -0.000000 -1.000000 0.000000 255 255 255 1.000000
0.298906 0.181274 0.118813 1.000000 0.000000 0.000000 255 255 255 1.000000
0.318393 0.090719 -0.177038 1.000000 0.000000 0.000000 249 196 128 1.000000
-0.083846 0.132863 -0.193751 0.000000 1.000000 0.000000 255 255 255 1.000000
-0.014606 -0.834568 0.218698 -0.000000 1.000000 -0.000000 255 255 255 1.000000
0.283209 0.405227 -0.279528 0.000000 0.000000 1.000000 255 255 255 1.000000
-0.305207 0.855542 0.213424 1.000000 0.000000 0.000000 255 255 255 1.000000
-0.285719 -0.218045 0.176637 1.000000 0.000000 0.000000 255 255 255 1.000000
-0.184772 -0.380896 -0.060352 0.000000 1.000000 0.000000 255 255 255 1.000000
-0.202561 0.596169 -0.279528 0.000000 -0.000000 -1.000000 255 255 255 1.000000
-0.305207 0.428916 0.070392 1.000000 0.000000 0.000000 255 255 255 1.000000
-0.257162 -0.469482 -0.273032 0.000000 0.000000 1.000000 255 255 255 1.000000
-0.071040 -0.195394 -0.273032 0.000000 0.000000 1.000000 255 255 255 1.000000
-0.305207 0.441754 -0.029982 1.000000 0.000000 0.000000 255 255 255 1.000000
0.298906 0.215097 0.249379 1.000000 0.000000 0.000000 255 255 255 1.000000
-0.285719 -0.507156 0.022365 1.000000 0.000000 0.000000 255 255 255 1.000000
0.298906 0.375837 0.048575 -1.000000 -0.000000 0.000000 255 255 255 1.000000
-0.305207 -0.488508 -0.074066 -1.000000 -0.000000 0.000000 252 189 121 1.000000
0.144728 -0.694915 0.300225 0.000000 0.000000 -1.000000 255 255 255 1.000000
-0.197484 0.502946 -0.072841 -0.000000 -1.000000 0.000000 255 255 255 1.000000
-0.285719 -0.501337 -0.217635 -1.000000 -0.000000 0.000000 255 255 255 1.000000
0.107734 -0.354913 -0.187106 -0.000000 -1.000000 0.000000 255 255 255 1.000000
0.111722 0.528930 -0.085114 -0.000000 -1.000000 0.000000 255 255 255 1.000000
0.211781 -0.769854 0.300225 0.000000 0.000000 -1.000000 255 255 255 1.000000
0.318393 -0.015015 -0.251670 1.000000 0.000000 0.000000 252 193 123 1.000000
0.298906 0.007352 0.012459 -1.000000 -0.000000 0.000000 255 255 255 1.000000
0.058733 0.106880 -0.107581 0.000000 1.000000 0.000000 255 255 255 1.000000
-0.305207 -0.856563 0.250306 -1.000000 -0.000000 0.000000 250 197 127 1.000000
0.089689 0.534439 0.300225 0.000000 0.000000 1.000000 248 189 119 1.000000
0.044533 -0.860552 -0.166362 -0.000000 1.000000 -0.000000 255 255 255 1.000000
-0.082098 -0.671555 -0.273032 0.000000 -0.000000 -1.000000 255 255 255 1.000000
0.003828 -0.562012 0.300225 0.000000 0.000000 1.000000 251 197 127 1.000000
0.298906 -0.771926 -0.100138 1.000000 0.000000 0.000000 255 255 255 1.000000
-0.305207 -0.541184 -0.168898 -1.000000 -0.000000 0.000000 249 194 126 1.000000
-0.032744 -0.054723 -0.279528 0.000000 -0.000000 -1.000000 255 255 255 1.000000
-0.285719 -0.614870 -0.000776 1.000000 0.000000 0.000000 255 255 255 1.000000
-0.056722 -0.834568 0.088534 0.000000 -1.000000 0.000000 255 255 255 1.000000
0.318393 0.902871 0.227397 -1.000000 -0.000000 0.000000 255 255 255 1.000000
0.082066 0.502946 0.171874 0.000000 1.000000 0.000000 255 255 255 1.000000
-0.249676 0.337479 0.345312 0.346293 0.000000 -0.938126 198 198 198 1.000000
-0.285719 -0.228225 0.007316 1.000000 0.000000 0.000000 255 255 255 1.000000
0.191732 0.132863 0.076062 -0.000000 -1.000000 0.000000 255 255 255 1.000000
0.298906 0.364309 -0.056339 -1.000000 -0.000000 0.000000 255 255 255 1.000000
0.038162 -0.575615 -0.279528 0.000000 0.000000 1.000000 255 255 255 1.000000
0.116738 0.528930 -0.147335 -0.000000 -1.000000 0.000000 255 255 255 1.000000
0.147863 -0.785965 -0.273032 0.000000 -0.000000 -1.000000 255 255 255 1.000000
-0.305207 -0.588295 -0.192825 1.000000 0.000000 0.000000 255 255 255 1.000000
-0.285719 -0.398945 0.127130 -1.000000 -0.000000 0.000000 255 255 255 1.000000
-0.088341 0.317816 -0.273032 0.000000 0.000000 1.000000 255 255 255 1.000000
-0.077331 -0.834568 -0.234235 -0.000000 1.000000 -0.000000 255 255 255 1.000000
-0.145733 0.109344 0.298601 0.000000 0.000000 1.000000 250 191 120 1.000000
0.236659 -0.256146 -0.279528 0.000000 0.000000 1.000000 255 255 255 1.000000
0.314608 -0.073976 -0.299015 0.000000 -0.000000 -1.000000 255 255 255 1.000000
-0.087660 -0.834568 0.008201 -0.000000 1.000000 -0.000000 255 255 255 1.000000
0.134257 -0.832180 0.319712 0.000000 0.000000 1.000000 240 180 114 1.000000
-0.305207 0.378217 -0.177114 -1.000000 -0.000000 0.000000 248 189 117 1.000000
-0.305207 -0.432064 -0.254522 1.000000 0.000000 0.000000 255 255 255 1.000000
-0.115749 0.907133 -0.198971 0.000000 -1.000000 0.000000 255 255 255 1.000000
-0.020358 -0.260375 -0.273032 0.000000 -0.000000 -1.000000 255 255 255 1.000000
-0.003059 0.094002 0.319712 0.000000 0.000000 -1.000000 249 196 124 1.000000
0.025450 0.655259 0.319712 0.000000 0.000000 1.000000 248 196 126 1.000000
-0.057764 -0.354913 0.081661 0.000000 1.000000 0.000000 255 255 255 1.000000
-0.305207 0.124145 0.048511 -1.000000 -0.000000 0.000000 251 191 123 1.000000
-0.055878 -0.476425 -0.273032 0.000000 0.000000 1.000000 255 255 255 1.000000
0.109575 0.625291 0.319712 0.000000 0.000000 -1.000000 248 189 122 1.000000
-0.201013 -0.834568 0.211760 0.000000 -1.000000 0.000000 255 255 255 1.000000
0.318393 0.022564 0.065853 -1.000000 -0.000000 0.000000 255 255 255 1.000000
0.310240 0.160926 -0.299015 0.000000 0.000000 1.000000 255 255 255 1.000000
0.070205 0.881149 -0.209354 -0.000000 1.000000 -0.000000 255 255 255 1.000000
0.308135 0.633826 -0.299015 0.000000 0.000000 1.000000 255 255 255 1.000000
0.166184 0.866435 0.300225 0.000000 0.000000 -1.000000 255 255 255 1.000000
-0.305207 -0.852839 -0.183183 -1.000000 -0.000000 0.000000 242 187 116 1.000000
-0.305207 0.105821 0.197909 -1.000000 -0.000000 0.000000 242 185 117 1.000000
0.298906 0.785423 -0.174946 1.000000 0.000000 0.000000 255 255 255 1.000000
-0.174028 0.255236 0.319712 0.000000 0.000000 1.000000 250 195 124 1.000000
0.216149 0.737091 0.319712 0.000000 0.000000 1.000000 251 194 126 1.000000
0.024023 -0.231687 -0.279528 0.000000 0.000000 1.000000 255 255 255 1.000000
-0.176724 0.870773 0.300225 0.000000 0.000000 -1.000000 255 255 255 1.000000
0.318393 -0.613664 0.104510 -1.000000 -0.000000 0.000000 255 255 255 1.000000
-0.100221 0.132863 0.128338 0.000000 1.000000 0.000000 255 255 255 1.000000
0.016828 0.528930 0.237680 -0.000000 -1.000000 0.000000 255 255 255 1.000000
0.318393 -0.151294 -0.049371 1.000000 0.000000 0.000000 249 192 124 1.000000
-0.285719 0.608806 0.205762 1.000000 0.000000 0.000000 255 255 255 1.000000
0.298906 -0.460022 -0.010665 1.000000 0.000000 0.000000 255 255 255 1.000000
0.091166 0.502946 0.003500 -0.000000 -1.000000 0.000000 255 255 255 1.000000
0.318393 -0.169233 0.018394 1.000000 0.000000 0.000000 248 193 122 1.000000
-0.285719 -0.758724 -0.186795 -1.000000 -0.000000 0.000000 255 255 255 1.000000
-0.009649 -0.380896 0.224036 -0.000000 -1.000000 0.000000 255 255 255 1.000000
-0.234638 -0.354913 -0.127748 -0.000000 -1.000000 0.000000 255 255 255 1.000000
-0.288661 0.024025 0.319712 0.000000 0.000000 -1.000000 254 196 128 1.000000
0.298906 -0.093588 -0.129560 -1.000000 -0.000000 0.000000 255 255 255 1.000000
-0.285719 -0.658874 0.152351 -1.000000 -0.000000 0.000000 255 255 255 1.000000
0.201059 -0.380896 0.119574 0.000000 1.000000 0.000000 255 255 255 1.000000
-0.305207 -0.513378 0.240397 1.000000 0.000000 0.000000 255 255 255 1.000000
-0.285719 0.862466 -0.153267 -1.000000 -0.000000 0.000000 255 255 255 1.000000
0.186839 -0.860552 -0.170410 0.000000 -1.000000 0.000000 255 255 255 1.000000
-0.285719 -0.678917 -0.179132 1.000000 0.000000 0.000000 255 255 255 1.000000
-0.063291 -0.860552 -0.275605 0.000000 -1.000000 0.000000 255 255 255 1.000000
0.080232 0.528930 0.213191 0.000000 1.000000 0.000000 255 255 255 1.000000
0.249079 -0.834568 -0.137698 -0.000000 1.000000 -0.000000 255 255 255 1.000000
-0.079287 0.416107 -0.279528 0.000000 -0.000000 -1.000000 255 255 255 1.000000
-0.103264 -0.302535 -0.273032 0.000000 0.000000 1.000000 255 255 255 1.000000
0.050617 -0.033111 -0.299015 0.000000 -0.000000 -1.000000 255 255 255 1.000000
0.298906 -0.284454 -0.052105 -1.000000 -0.000000 0.000000 255 255 255 1.000000
-0.000302 -0.707223 -0.273032 0.000000 0.000000 1.000000 255 255 255 1.000000
0.298906 0.077308 -0.269412 1.000000 0.000000 0.000000 255 255 255 1.000000
-0.130816 0.768757 -0.299015 0.000000 -0.000000 -1.000000 255 255 255 1.000000
-0.285719 0.026164 0.014871 1.000000 0.000000 0.000000 255 255 255 1.000000
0.192370 0.648366 0.300225 0.000000 0.000000 1.000000 247 197 126 1.000000
-0.303583 -0.651096 0.309418 1.000000 0.000000 0.000000 245 193 121 1.000000
0.318393 -0.125326 0.202815 -1.000000 -0.000000 0.000000 255 255 255 1.000000
0.298906 -0.025562 -0.051065 1.000000 0.000000 0.000000 255 255 255 1.000000
0.016488 0.702720 -0.273032 0.000000 0.000000 1.000000 255 255 255 1.000000
-0.000153 -0.016931 -0.299015 0.000000 0.000000 1.000000 255 255 255 1.000000
0.027146 0.106880 -0.178105 0.000000 1.000000 0.000000 255 255 255 1.000000
0.298906 0.561883 -0.033749 -1.000000 -0.000000 0.000000 255 255 255 1.000000
-0.285719 -0.073519 0.138218 -1.000000 -0.000000 0.000000 255 255 255 1.000000
0.304464 0.907133 0.128740 -0.000000 1.000000 -0.000000 255 255 255 1.000000
-0.175643 -0.860552 -0.256944 -0.000000 1.000000 -0.000000 255 255 255 1.000000
0.318393 -0.671340 0.158164 -1.000000 -0.000000 0.000000 255 255 255 1.000000
0.318393 0.003010 0.215090 -1.000000 -0.000000 0.000000 255 255 255 1.000000
0.123347 -0.357944 0.319712 0.000000 0.000000 -1.000000 254 197 129 1.000000
-0.214752 0.881149 0.103440 -0.000000 1.000000 -0.000000 255 255 255 1.000000
-0.264176 0.305773 -0.279528 0.000000 -0.000000 -1.000000 255 255 255 1.000000
0.298906 -0.308170 -0.210076 1.000000 0.000000 0.000000 255 255 255 1.000000
-0.285719 -0.829545 -0.050017 1.000000 0.000000 0.000000 255 255 255 1.000000
-0.204060 0.881149 -0.194743 0.000000 -1.000000 0.000000 255 255 255 1.000000
0.128743 -0.380896 0.156406 -0.000000 -1.000000 0.000000 255 255 255 1.000000
-0.039932 0.502946 -0.035772 -0.000000 -1.000000 0.000000 255 255 255 1.000000
-0.071368 -0.354913 -0.101893 0.000000 1.000000 0.000000 255 255 255 1.000000
-0.305207 -0.037540 -0.105301 1.000000 0.000000 0.000000 255 255 255 1.000000
-0.148024 0.907133 0.009795 0.000000 -1.000000 0.000000 255 255 255 1.000000
-0.269490 -0.834568 -0.261002 -0.000000 1.000000 -0.000000 255 255 255 1.000000
-0.252104 0.376739 0.300225 0.000000 0.000000 -1.000000 255 255 255 1.000000
-0.004010 -0.787910 -0.273032 0.000000 -0.000000 -1.000000 255 255 255 1.000000
-0.285719 -0.803177 0.105092 -1.000000 -0.000000 0.000000 255 255 255 1.000000
0.123807 0.528930 0.137127 0.000000 1.000000 0.000000 255 255 255 1.000000
-0.285719 -0.430473 -0.008814 -1.000000 -0.000000 0.000000 255 255 255 1.000000
-0.189114 -0.302694 -0.273032 0.000000 0.000000 1.000000 255 255 255 1.000000
0.318393 0.249791 0.203777 1.000000 0.000000 0.000000 250 195 124 1.000000
0.067147 -0.305449 0.300225 0.000000 0.000000 -1.000000 255 255 255 1.000000
-0.305207 0.181096 0.271673 -1.000000 -0.000000 0.000000 246 188 115 1.000000
-0.137977 -0.380896 0.088907 0.000000 1.000000 0.000000 255 255 255 1.000000
-0.139903 -0.342146 0.300225 0.000000 0.000000 -1.000000 255 255 255 1.000000
-0.165479 -0.092547 0.319712 0.000000 0.000000 -1.000000 249 193 125 1.000000
0.008895 0.881149 0.275995 -0.000000 1.000000 -0.000000 255 255 255 1.000000
-0.271627 0.353424 -0.273032 0.000000 -0.000000 -1.000000 255 255 255 1.000000
0.215241 -0.654738 0.300225 0.000000 0.000000 1.000000 250 195 126 1.000000
-0.102218 -0.380896 0.226259 0.000000 1.000000 0.000000 255 255 255 1.000000
-0.285719 0.155736 -0.010022 1.000000 0.000000 0.000000 255 255 255 1.000000
0.218024 0.132863 -0.069650 0.000000 1.000000 0.000000 255 255 255 1.000000
0.175211 0.106880 -0.064616 0.000000 1.000000 0.000000 255 255 255 1.000000
0.298906 -0.679341 0.039367 1.000000 0.000000 0.000000 255 255 255 1.000000
0.298906 -0.313868 0.130136 1.000000 0.000000 0.000000 255 255 255 1.000000
0.143512 0.907133 0.065810 0.000000 -1.000000 0.000000 255 255 255 1.000000
-0.303583 -0.508609 0.312963 -1.000000 0.000000 0.000000 251 196 125 1.000000
-0.305207 -0.857443 0.086468 -1.000000 -0.000000 0.000000 255 202 132 1.000000
0.318393 0.734099 0.026446 1.000000 0.000000 0.000000 248 191 123 1.000000
0.277570 -0.051728 -0.273032 0.000000 -0.000000 -1.000000 255 255 255 1.000000
-0.305207 0.414324 -0.130999 1.000000 0.000000 0.000000 255 255 255 1.000000
-0.305207 -0.632779 0.091831 1.000000 0.000000 0.000000 255 255 255 1.000000
-0.256138 0.907133 0.089196 0.000000 -1.000000 0.000000 255 255 255 1.000000
-0.126459 -0.459657 -0.279528 0.000000 0.000000 1.000000 255 255 255 1.000000
0.317827 0.436516 -0.299015 0.000000 0.000000 1.000000 255 255 255 1.000000
0.318393 -0.474370 -0.056403 -1.000000 -0.000000 0.000000 255 255 255 1.000000
0.318393 0.792305 -0.252335 -1.000000 -0.000000 0.000000 255 255 255 1.000000
0.041092 -0.354913 0.259036 0.000000 1.000000 0.000000 255 255 255 1.000000
-0.305207 0.650799 -0.107002 -1.000000 -0.000000 0.000000 251 196 127 1.000000
0.298906 0.244177 0.116728 1.000000 0.000000 0.000000 255 255 255 1.000000
-0.012752 0.533462 0.319712 0.000000 0.000000 1.000000 247 195 125 1.000000
-0.268664 0.106880 0.255228 -0.000000 -1.000000 0.000000 255 255 255 1.000000
-0.285719 -0.569010 -0.046279 -1.000000 -0.000000 0.000000 255 255 255 1.000000
0.202664 0.502946 -0.092872 0.000000 1.000000 0.000000 255 255 255 1.000000
-0.098065 0.502946 -0.084064 -0.000000 -1.000000 0.000000 255 255 255 1.000000
0.034808 -0.354913 -0.022288 -0.000000 -1.000000 0.000000 255 255 255 1.000000
-0.259530 0.106880 0.107238 -0.000000 -1.000000 0.000000 255 255 255 1.000000
-0.093522 0.106880 -0.021748 -0.000000 -1.000000 0.000000 255 255 255 1.000000
-0.305207 -0.173710 -0.135319 1.000000 0.000000 0.000000 255 255 255 1.000000
-0.285719 -0.351895 -0.253141 1.000000 0.000000 0.000000 255 255 255 1.000000
0.318393 -0.075936 0.207652 1.000000 0.000000 0.000000 249 198 127 1.000000
-0.305207 0.869933 0.104491 -1.000000 -0.000000 0.000000 246 192 123 1.000000
0.318393 0.313386 0.173803 1.000000 0.000000 0.000000 251 196 127 1.000000
-0.076997 0.813318 -0.273032 0.000000 -0.000000 -1.000000 255 255 255 1.000000
-0.067343 0.881149 0.250951 -0.000000 1.000000 -0.000000 255 255 255 1.000000
-0.206477 0.106880 -0.254507 0.000000 1.000000 0.000000 255 255 255 1.000000
-0.298071 -0.270855 0.319712 0.000000 0.000000 1.000000 252 198 129 1.000000
-0.285719 -0.017779 -0.143209 -1.000000 -0.000000 0.000000 255 255 255 1.000000
0.219236 0.563669 -0.273032 0.000000 -0.000000 -1.000000 255 255 255 1.000000
0.001272 -0.309705 -0.279528 0.000000 -0.000000 -1.000000 255 255 255 1.000000
-0.305207 0.776083 -0.042401 -1.000000 -0.000000 0.000000 251 197 128 1.000000
0.080955 0.881149 0.000207 -0.000000 1.000000 -0.000000 255 255 255 1.000000
0.026454 -0.834568 0.140174 0.000000 -1.000000 0.000000 255 255 255 1.000000
0.153515 -0.860552 0.087343 0.000000 -1.000000 0.000000 255 255 255 1.000000
0.225514 0.578030 0.300225 0.000000 0.000000 -1.000000 255 255 255 1.000000
0.136133 0.528930 0.083442 -0.000000 -1.000000 0.000000 255 255 255 1.000000
0.298906 -0.232181 -0.061428 -1.000000 -0.000000 0.000000 255 255 255 1.000000
-0.285719 -0.713683 -0.030789 1.000000 0.000000 0.000000 255 255 255 1.000000
-0.305207 0.342994 0.101882 -1.000000 -0.000000 0.000000 244 188 119 1.000000
0.082115 -0.860552 -0.131208 -0.000000 1.000000 -0.000000 255 255 255 1.000000
-0.175567 0.907133 0.170788 0.000000 -1.000000 0.000000 255 255 255 1.000000
0.221809 0.514924 0.319712 0.000000 0.000000 1.000000 242 185 117 1.000000
-0.305207 0.741849 0.278429 -1.000000 -0.000000 0.000000 248 199 129 1.000000
0.064091 0.028003 -0.299015 0.000000 0.000000 1.000000 255 255 255 1.000000
-0.285719 -0.275118 -0.056567 1.000000 0.000000 0.000000 255 255 255 1.000000
0.307345 0.762755 0.300225 0.000000 0.000000 1.000000 251 188 119 1.000000
-0.078544 0.593529 0.300225 0.000000 0.000000 -1.000000 255 255 255 1.000000
-0.229960 0.106880 -0.009172 0.000000 1.000000 0.000000 255 255 255 1.000000
0.061784 -0.860552 0.269972 0.000000 -1.000000 0.000000 255 255 255 1.000000
-0.111929 0.858221 -0.279528 0.000000 0.000000 1.000000 255 255 255 1.000000
-0.150599 0.626704 0.300225 0.000000 0.000000 1.000000 251 194 127 1.000000
0.072440 0.582232 0.300225 0.000000 0.000000 -1.000000 255 255 255 1.000000
0.115156 0.132863 0.100042 0.000000 1.000000 0.000000 255 255 255 1.000000
-0.088952 -0.834568 -0.065707 -0.000000 1.000000 -0.000000 255 255 255 1.000000
-0.081211 0.872703 0.319712 0.000000 0.000000 -1.000000 246 191 120 1.000000
0.318393 0.070278 0.213946 1.000000 0.000000 0.000000 251 199 132 1.000000
0.298906 -0.450470 0.141361 1.000000 0.000000 0.000000 255 255 255 1.000000
0.318393 0.593242 0.146813 -1.000000 -0.000000 0.000000 255 255 255 1.000000
0.211289 0.089863 0.319712 0.000000 0.000000 1.000000 245 188 120 1.000000
0.298906 0.456705 -0.207836 1.000000 0.000000 0.000000 255 255 255 1.000000
0.110467 0.115618 -0.269771 0.000000 0.000000 1.000000 255 255 255 1.000000
-0.162362 0.132863 -0.176780 0.000000 1.000000 0.000000 255 255 255 1.000000
-0.102949 0.881149 0.079008 -0.000000 1.000000 -0.000000 255 255 255 1.000000
0.318393 0.293216 -0.241748 1.000000 0.000000 0.000000 253 198 129 1.000000
-0.143183 0.641585 -0.279528 0.000000 0.000000 1.000000 255 255 255 1.000000
-0.285719 -0.583370 0.276174 -1.000000 -0.000000 0.000000 255 255 255 1.000000
0.318393 0.675485 0.180857 1.000000 0.000000 0.000000 250 198 129 1.000000
-0.144772 -0.147254 -0.279528 0.000000 0.000000 1.000000 255 255 255 1.000000
0.102084 -0.117295 0.319712 0.000000 0.000000 1.000000 250 195 130 1.000000
-0.285719 -0.761767 0.258808 -1.000000 -0.000000 0.000000 255 255 255 1.000000
0.020754 0.140811 -0.273032 0.000000 -0.000000 -1.000000 255 255 255 1.000000
0.060083 0.615205 -0.273032 0.000000 0.000000 1.000000 255 255 255 1.000000
-0.066529 -0.586389 0.319712 0.000000 0.000000 1.000000 244 189 118 1.000000
0.311983 -0.752467 -0.299015 0.000000 0.000000 1.000000 255 255 255 1.000000
0.226214 0.502946 -0.239971 0.000000 1.000000 0.000000 255 255 255 1.000000
-0.255428 0.047467 -0.273032 0.000000 0.000000 1.000000 255 255 255 1.000000
0.318393 0.250291 -0.263948 -1.000000 -0.000000 0.000000 255 255 255 1.000000
0.299236 -0.564194 -0.299015 0.000000 0.000000 1.000000 255 255 255 1.000000
-0.199128 -0.207857 -0.279528 0.000000 0.000000 1.000000 255 255 255 1.000000
-0.204286 -0.834568 -0.145279 -0.000000 1.000000 -0.000000 255 255 255 1.000000
-0.305207 0.754245 0.142535 1.000000 0.000000 0.000000 255 255 255 1.000000
0.280282 -0.217015 0.319712 0.000000 0.000000 1.000000 246 195 126 1.000000
0.250206 0.802582 0.319712 0.000000 0.000000 -1.000000 249 194 125 1.000000
0.279360 0.907133 0.080527 -0.000000 1.000000 -0.000000 255 255 255 1.000000
0.279195 0.907133 -0.090059 0.000000 -1.000000 0.000000 255 255 255 1.000000
-0.293921 0.335591 0.300225 0.000000 0.000000 1.000000 247 190 119 1.000000
0.279879 0.106880 0.094574 0.000000 1.000000 0.000000 255 255 255 1.000000
0.031371 0.439912 0.300225 0.000000 0.000000 -1.000000 255 255 255 1.000000
0.040790 -0.429160 0.300225 0.000000 0.000000 -1.000000 255 255 255 1.000000
0.300251 -0.662147 -0.299015 0.000000 0.000000 1.000000 255 255 255 1.000000
-0.305207 0.063384 -0.003294 1.000000 0.000000 0.000000 255 255 255 1.000000
0.133634 0.132863 -0.092083 -0.000000 -1.000000 0.000000 255 255 255 1.000000
-0.132278 0.315476 0.319712 0.000000 0.000000 -1.000000 251 202 131 1.000000
0.166227 0.106880 0.205166 0.000000 1.000000 0.000000 255 255 255 1.000000
-0.305207 -0.030819 -0.275161 -1.000000 -0.000000 0.000000 250 198 125 1.000000
-0.078558 -0.670862 0.319712 0.000000 0.000000 1.000000 243 187 116 1.000000
-0.197374 0.773432 0.300225 0.000000 0.000000 -1.000000 255 255 255 1.000000
-0.305207 0.508610 0.100314 -1.000000 -0.000000 0.000000 248 193 124 1.000000
-0.041499 -0.402935 0.319712 0.000000 0.000000 1.000000 250 194 123 1.000000
-0.086213 0.528930 0.236312 -0.000000 -1.000000 0.000000 255 255 255 1.000000
-0.285719 -0.575070 0.042934 -1.000000 -0.000000 0.000000 255 255 255 1.000000
-0.285719 -0.021972 0.094148 1.000000 0.000000 0.000000 255 255 255 1.000000
0.130622 0.502946 0.278382 -0.000000 -1.000000 0.000000 255 255 255 1.000000
-0.285719 -0.621757 -0.229420 -1.000000 -0.000000 0.000000 255 255 255 1.000000
0.318393 -0.008211 0.287617 1.000000 0.000000 0.000000 248 191 123 1.000000
-0.005847 -0.354913 0.080191 0.000000 1.000000 0.000000 255 255 255 1.000000
-0.199597 0.528930 -0.191206 0.000000 1.000000 0.000000 255 255 255 1.000000
0.256017 0.280492 0.319712 0.000000 0.000000 1.000000 255 197 131 1.000000
0.064634 -0.834568 0.027788 0.000000 -1.000000 0.000000 255 255 255 1.000000
0.318393 -0.628127 0.002966 -1.000000 -0.000000 0.000000 255 255 255 1.000000
0.298906 -0.823970 -0.262691 -1.000000 -0.000000 0.000000 255 255 255 1.000000
-0.305207 0.501630 0.019617 -1.000000 -0.000000 0.000000 250 198 128 1.000000
-0.239480 0.502946 -0.229871 0.000000 1.000000 0.000000 255 255 255 1.000000
-0.006989 0.182847 0.300225 0.000000 0.000000 -1.000000 255 255 255 1.000000
0.134758 -0.038880 -0.299015 0.000000 -0.000000 -1.000000 255 255 255 1.000000
0.121083 0.132863 -0.003117 0.000000 1.000000 0.000000 255 255 255 1.000000
0.316769 -0.471725 0.303975 -1.000000 0.000000 0.000000 248 186 117 1.000000
-0.269695 -0.618685 0.300225 0.000000 0.000000 1.000000 254 196 129 1.000000
0.302998 -0.299080 -0.299015 0.000000 -0.000000 -1.000000 255 255 255 1.000000
-0.180422 0.132863 0.121761 0.000000 1.000000 0.000000 255 255 255 1.000000
-0.305207 -0.050084 0.180388 1.000000 0.000000 0.000000 255 255 255 1.000000
0.298906 0.516087 0.165090 1.000000 0.000000 0.000000 255 255 255 1.000000
0.010224 -0.380896 0.006615 0.000000 1.000000 0.000000 255 255 255 1.000000
0.298906 -0.327887 0.198038 -1.000000 -0.000000 0.000000 255 255 255 1.000000
-0.141187 0.703122 0.319712 0.000000 0.000000 1.000000 241 181 114 1.000000
-0.210495 -0.834568 -0.003957 -0.000000 1.000000 -0.000000 255 255 255 1.000000
0.013843 0.881149 0.162083 -0.000000 1.000000 -0.000000 255 255 255 1.000000
-0.217836 0.579741 0.319712 0.000000 0.000000 -1.000000 254 198 127 1.000000
-0.285719 -0.714049 0.100451 1.000000 0.000000 0.000000 255 255 255 1.000000
0.058131 0.390156 0.319712 0.000000 0.000000 -1.000000 245 194 122 1.000000
-0.023701 0.838974 -0.299015 0.000000 0.000000 1.000000 255 255 255 1.000000
0.318393 0.714339 -0.190368 -1.000000 -0.000000 0.000000 255 255 255 1.000000
-0.305207 0.083853 0.130108 1.000000 0.000000 0.000000 255 255 255 1.000000
-0.285719 0.458614 -0.149242 1.000000 0.000000 0.000000 255 255 255 1.000000
0.318393 -0.689515 0.081409 1.000000 0.000000 0.000000 246 195 125 1.000000
-0.305207 0.685584 -0.185527 1.000000 0.000000 0.000000 255 255 255 1.000000
-0.221918 0.675259 0.300225 0.000000 0.000000 1.000000 245 185 116 1.000000
-0.156185 -0.666440 0.300225 0.000000 0.000000 -1.000000 255 255 255 1.000000
-0.271937 -0.546393 0.319712 0.000000 0.000000 1.000000 243 187 116 1.000000
-0.257895 -0.834568 0.253998 -0.000000 1.000000 -0.000000 255 255 255 1.000000
-0.245639 0.881149 0.289481 0.000000 -1.000000 0.000000 255 255 255 1.000000
0.082252 -0.834568 -0.244939 0.000000 -1.000000 0.000000 255 255 255 1.000000
-0.285719 0.694706 0.095535 1.000000 0.000000 0.000000 255 255 255 1.000000
0.318393 -0.401155 -0.091107 1.000000 0.000000 0.000000 251 195 124 1.000000
0.217147 0.088249 -0.298152 0.000000 -1.000000 0.000000 255 255 255 1.000000
-0.186469 0.336354 0.319712 0.000000 0.000000 -1.000000 249 194 123 1.000000
0.318393 0.209688 -0.034432 1.000000 0.000000 0.000000 253 194 124 1.000000
0.028546 -0.102064 -0.279528 0.000000 -0.000000 -1.000000 255 255 255 1.000000
0.298906 0.626351 -0.160371 -1.000000 -0.000000 0.000000 255 255 255 1.000000
0.014016 -0.370049 0.319712 0.000000 0.000000 1.000000 246 194 124 1.000000
-0.305207 0.039232 -0.071193 1.000000 0.000000 0.000000 255 255 255 1.000000
-0.285719 -0.669686 0.245774 1.000000 0.000000 0.000000 255 255 255 1.000000
-0.159436 -0.426949 0.300225 0.000000 0.000000 1.000000 251 194 124 1.000000
-0.020124 -0.380896 -0.244348 -0.000000 -1.000000 0.000000 255 255 255 1.000000
-0.305207 -0.341164 0.184650 1.000000 0.000000 0.000000 255 255 255 1.000000
-0.285556 -0.352120 0.319712 0.000000 0.000000 -1.000000 251 196 127 1.000000
-0.285719 0.461637 0.221748 -1.000000 -0.000000 0.000000 255 255 255 1.000000
-0.069588 0.907133 -0.259520 0.000000 -1.000000 0.000000 255 255 255 1.000000
-0.305207 0.195750 0.139494 1.000000 0.000000 0.000000 255 255 255 1.000000
-0.305207 0.306431 -0.010692 1.000000 0.000000 0.000000 255 255 255 1.000000
-0.285719 0.311605 -0.100487 1.000000 0.000000 0.000000 255 255 255 1.000000
0.011051 -0.860552 -0.292361 -0.000000 1.000000 -0.000000 255 255 255 1.000000
0.202814 -0.380896 0.291923 -0.000000 -1.000000 0.000000 255 255 255 1.000000
0.318393 -0.798361 -0.026278 -1.000000 -0.000000 0.000000 255 255 255 1.000000
