ply
format ascii 1.0
element vertex 1269
property float x
property float y
property float z
property uchar red
property uchar green
property uchar blue
end_header
0.137692 0.083845 0.252279 153 0 76
-0.229840 -0.006206 -0.284378 153 0 76
0.608967 0.088770 0.139665 76 0 153
-0.282994 0.048589 -0.023791 76 0 153
0.585669 0.126780 0.025420 127 127 0
-0.146877 0.080770 0.331850 153 76 0
0.330367 -0.006597 0.067897 255 0 0
0.271819 0.040084 0.020931 127 0 127
-0.561790 -0.055232 -0.256734 76 0 153
0.272965 0.101164 0.204673 153 0 76
-0.559692 0.104550 0.284751 153 0 76
-0.599696 -0.434952 0.256877 153 0 76
-0.009829 0.015632 -0.091655 0 0 255
0.013470 0.126780 0.187192 127 127 0
0.466417 -0.006597 0.251612 76 0 153
-0.378973 0.104550 0.037265 127 127 0
-0.279635 0.051755 -0.161697 76 0 153
-0.607093 -0.590941 0.293801 153 0 76
-0.528912 -0.006053 0.114151 153 0 76
0.355151 -0.014007 -0.073881 255 0 0
0.271819 -0.009158 -0.044204 127 0 127
0.582038 0.063796 -0.226100 76 0 153
-0.471728 -0.013904 0.304553 127 127 0
0.092154 0.126780 -0.097088 127 127 0
-0.457491 -0.006053 0.159285 153 0 76
-0.345228 -0.013463 0.083851 153 0 76
-0.016805 0.023042 -0.006538 0 0 255
0.491877 0.104550 -0.226484 127 127 0
0.407004 -0.004510 -0.308460 153 0 76
0.308868 0.081933 -0.146046 153 0 76
0.559061 -0.281060 -0.294666 0 0 255
0.247937 0.023042 0.225855 0 0 255
0.109867 0.015632 -0.126547 0 0 255
0.305058 0.082321 -0.060682 153 0 76
-0.243393 -0.014007 0.195096 76 0 153
-0.126522 -0.014007 0.235242 76 0 153
0.109658 0.044124 0.330423 153 76 0
-0.010424 0.065412 0.306394 153 76 0
0.089406 0.104550 -0.007195 127 127 0
0.271819 0.001651 -0.215030 127 0 127
0.163325 0.095206 0.184295 153 0 76
-0.533240 0.126780 0.163815 127 127 0
0.181968 0.104550 -0.222076 127 127 0
-0.586645 -0.501596 0.294328 153 0 76
0.484675 0.085896 -0.308460 153 0 76
0.441829 -0.035956 -0.284378 153 0 76
-0.534089 0.126780 -0.075486 127 127 0
-0.075393 0.023042 0.038160 0 0 255
-0.108006 0.023042 0.300998 0 0 255
-0.518011 0.022798 -0.284378 153 0 76
-0.294643 0.126780 0.093531 127 127 0
0.379105 0.126780 0.146755 127 127 0
-0.591429 0.033274 -0.180548 153 76 0
0.107742 -0.014007 0.189658 76 0 153
0.369629 0.003155 0.269273 76 0 153
-0.259465 0.126780 0.241755 127 127 0
-0.261691 0.043394 0.298803 76 0 153
0.247552 0.104550 -0.151542 127 127 0
0.592401 -0.262013 0.252612 204 51 127
-0.613659 0.033458 -0.029437 153 76 0
-0.263209 0.008222 -0.099794 76 0 153
-0.561750 -0.020271 -0.190660 127 0 127
0.359560 -0.006597 0.132953 255 0 0
0.221667 0.104550 0.017462 127 127 0
-0.561750 0.002099 0.317641 127 127 0
0.552308 -0.021417 0.152765 204 51 127
0.041399 -0.012372 -0.308460 153 0 76
-0.054609 0.008222 -0.188103 204 51 127
-0.570153 -0.504564 -0.298812 76 0 153
0.560283 -0.338778 -0.299334 0 0 255
0.557098 0.045956 -0.074253 153 0 76
-0.322855 -0.006053 0.210911 153 0 76
0.557593 -0.176331 -0.302574 0 0 255
0.544338 0.094743 -0.308460 127 127 0
0.430978 0.104550 -0.145722 127 127 0
0.602420 -0.229351 -0.263566 0 0 255
0.090109 0.023042 -0.011526 0 0 255
0.152928 0.023042 0.106010 0 0 255
0.106778 0.104550 0.276349 127 127 0
-0.363671 0.104550 -0.059598 127 127 0
0.256999 0.027150 -0.123882 0 0 255
0.396989 0.104550 0.225528 127 127 0
0.126899 0.023042 0.243306 0 0 255
0.158817 0.023042 -0.056581 0 0 255
0.535288 0.126780 -0.263276 127 127 0
0.567198 0.104550 0.319991 127 127 0
-0.313520 0.031404 -0.223387 0 127 127
-0.603004 -0.440034 -0.262650 76 0 153
0.569536 -0.494092 -0.299832 0 0 255
-0.276360 0.045309 0.339561 153 76 0
-0.233994 0.015632 0.132768 0 0 255
-0.054152 0.015632 -0.045826 0 0 255
-0.276511 -0.027679 -0.207283 0 127 127
-0.560232 0.082865 0.169545 127 0 127
-0.364105 -0.006053 -0.220802 153 0 76
-0.026079 0.126780 -0.019241 127 127 0
-0.299864 0.104550 0.168981 127 127 0
0.542279 0.022629 0.028826 204 51 127
-0.290599 0.018053 -0.299198 0 127 127
-0.503512 0.050039 -0.246000 76 153 0
-0.580895 -0.725631 -0.307085 76 0 153
0.350638 0.082321 0.266921 153 0 76
-0.487450 0.049756 -0.284378 153 0 76
-0.607175 -0.008393 -0.269431 76 0 153
0.027083 0.126780 -0.078523 127 127 0
-0.381714 0.096135 0.270031 127 127 0
-0.267764 0.008222 -0.047083 0 127 127
0.031595 0.015632 -0.040756 0 0 255
0.566989 -0.542413 0.261451 204 51 127
-0.518407 0.082321 0.246273 153 0 76
0.023530 0.015632 -0.118475 0 0 255
0.182325 -0.043647 -0.285837 153 0 76
-0.501910 -0.006053 0.270267 153 0 76
0.265752 0.038788 -0.234001 127 0 127
0.328177 0.126780 0.187904 127 127 0
0.278518 0.104550 -0.038858 127 127 0
-0.238047 0.104550 0.047390 127 127 0
0.600623 -0.514790 0.260372 204 51 127
0.365911 0.126780 -0.079730 127 127 0
-0.033694 0.025402 0.328964 0 0 255
-0.464031 0.126780 -0.031248 127 127 0
0.033370 0.126780 0.058614 127 127 0
-0.096429 0.104550 0.013229 127 127 0
-0.349696 0.104550 -0.239410 127 127 0
-0.638899 0.126780 0.298896 127 127 0
-0.577735 0.063851 0.085386 76 153 0
-0.416804 0.126780 0.254791 127 127 0
0.098385 0.104550 -0.304726 153 0 76
0.646016 0.104784 0.209031 127 127 0
0.004652 0.126780 0.116078 127 127 0
-0.591192 -0.367231 0.254879 153 0 76
-0.042101 0.015632 0.067093 0 0 255
0.232966 0.075866 -0.186479 204 51 127
-0.566188 -0.338318 -0.259765 76 0 153
-0.208177 0.126780 -0.022811 127 127 0
-0.574859 -0.612689 -0.270187 76 0 153
0.294048 0.069067 -0.019667 127 0 127
-0.258468 -0.042767 -0.284378 153 0 76
0.449274 -0.014007 -0.211836 255 0 0
-0.298740 0.016611 0.066047 0 127 127
-0.245364 0.126780 -0.186539 127 127 0
-0.313520 -0.016617 0.120075 153 0 76
-0.613961 0.126780 0.251470 127 127 0
0.310673 0.104550 -0.178181 127 127 0
0.194748 0.015632 -0.175282 0 0 255
-0.011004 0.015632 0.159005 0 0 255
-0.546931 0.025713 -0.069755 127 0 127
0.570703 -0.549404 -0.300834 0 0 255
0.271819 -0.003612 0.028811 127 0 127
0.374275 0.126780 -0.262294 127 127 0
-0.452153 0.126780 0.105248 127 127 0
0.259445 0.126780 0.065797 127 127 0
-0.388960 -0.041812 0.270775 76 0 153
-0.269106 0.126780 0.153041 127 127 0
0.569119 -0.590777 0.294161 204 51 127
0.174025 0.023042 0.027658 0 0 255
0.287565 0.030248 -0.077646 127 0 127
-0.127788 0.126780 -0.283879 127 127 0
0.125469 0.023042 0.026740 0 0 255
0.527671 0.082321 0.222270 153 0 76
0.205229 0.029710 -0.308460 153 0 76
-0.148434 0.104550 -0.037196 127 127 0
0.278302 0.047692 0.198634 127 0 127
0.173500 0.126780 0.139607 127 127 0
0.133177 0.104550 -0.152255 127 127 0
0.557098 0.073798 -0.274789 0 0 255
-0.098727 0.077682 -0.308460 153 0 76
-0.654631 0.104550 -0.209719 127 127 0
0.202837 0.126780 -0.138140 127 127 0
0.580092 0.020183 -0.256591 0 0 255
0.416765 0.033983 0.250909 76 0 153
0.308868 0.063903 -0.246104 153 0 76
-0.350262 0.013178 0.265566 127 127 0
-0.313520 0.021436 -0.148724 0 127 127
-0.561750 -0.010617 -0.022618 127 0 127
-0.649413 0.104550 -0.067781 127 127 0
0.127059 0.008222 -0.200240 204 51 127
-0.578895 -0.113749 -0.306421 76 0 153
0.070618 0.104550 0.141336 127 127 0
-0.157325 0.104550 0.151077 127 127 0
0.372693 0.126780 -0.123916 127 127 0
-0.590123 0.048097 0.250984 76 153 0
0.602213 -0.621413 -0.270078 0 0 255
-0.603538 -0.530899 -0.300411 76 0 153
-0.243133 0.024777 0.337129 153 76 0
0.299933 0.024018 -0.284378 153 0 76
-0.088963 0.015632 0.162544 0 0 255
0.420090 -0.014007 -0.147096 255 0 0
0.547543 0.082321 -0.132176 204 51 127
-0.043230 0.126780 -0.137547 127 127 0
0.486161 -0.014007 -0.139425 255 0 0
0.200526 -0.014007 0.249132 76 0 153
0.438832 0.104550 0.155647 127 127 0
-0.403687 -0.013463 -0.044084 153 0 76
0.133144 0.126780 -0.119019 127 127 0
0.528771 0.104550 0.044679 127 127 0
-0.387003 0.104550 0.148778 127 127 0
-0.370774 0.041228 -0.308460 153 0 76
0.056781 0.047025 -0.308460 153 0 76
0.172166 0.126780 0.082974 127 127 0
0.619422 0.104550 -0.127762 127 127 0
0.494031 0.126780 -0.122862 127 127 0
-0.567875 0.027728 0.063951 76 153 0
0.425298 0.054458 -0.308460 153 0 76
-0.298740 0.053856 0.093634 0 127 127
-0.608499 -0.653289 0.266088 153 0 76
-0.569200 0.030059 0.153298 76 153 0
-0.561750 0.068082 -0.225628 76 153 0
0.563782 -0.459110 0.291519 204 51 127
0.210949 0.104550 0.217885 153 0 76
-0.168997 0.008222 0.315010 153 76 0
0.357153 0.104550 -0.230753 127 127 0
0.427101 0.126780 -0.307321 127 127 0
-0.164529 0.067990 -0.284378 153 0 76
0.392206 -0.014007 -0.062456 255 0 0
-0.101453 0.097470 0.250580 127 127 0
-0.298740 -0.014953 -0.276167 0 127 127
-0.448108 0.126780 0.057753 127 127 0
0.429914 0.126780 0.039387 127 127 0
-0.657616 0.104550 0.148716 127 127 0
-0.495335 0.126780 -0.121749 127 127 0
0.601618 -0.561464 -0.281866 0 0 255
-0.260032 0.126780 -0.115666 127 127 0
-0.480331 0.079705 0.305690 127 127 0
-0.513487 0.101356 -0.284378 153 0 76
-0.617626 0.109479 -0.312165 127 127 0
0.085131 0.015632 -0.157257 0 0 255
0.542280 0.025597 0.212761 204 51 127
-0.405416 -0.013463 0.132004 153 0 76
-0.607984 0.126780 0.135332 127 127 0
-0.611659 -0.707904 -0.291826 76 0 153
-0.335618 0.126780 0.262132 127 127 0
0.018567 0.040687 0.306582 153 76 0
-0.229637 0.043203 -0.308460 153 0 76
-0.567260 -0.422039 -0.291884 76 0 153
-0.294073 0.126780 -0.279061 127 127 0
-0.313520 0.058056 0.222387 0 127 127
-0.335100 0.080344 0.288733 127 127 0
0.579754 0.063796 0.072504 153 0 76
-0.591429 0.098012 -0.150996 153 76 0
-0.515129 0.104550 -0.003737 127 127 0
-0.578812 0.125621 0.320450 127 127 0
-0.126016 0.015632 0.171030 0 0 255
-0.604193 -0.376246 -0.299354 76 0 153
-0.450360 0.126780 -0.164961 127 127 0
-0.054843 0.104550 0.154241 127 127 0
0.604472 -0.651040 -0.298469 0 0 255
0.018669 0.039202 -0.201299 204 51 127
0.105011 0.104550 0.058974 127 127 0
0.522267 0.009886 0.263993 76 0 153
-0.567975 -0.443879 0.278564 153 0 76
0.271819 -0.024669 0.176400 127 0 127
0.308868 0.024602 0.021138 153 0 76
0.570721 0.126780 -0.222031 127 127 0
-0.587697 0.082985 0.298645 153 0 76
0.250875 0.104550 -0.266054 127 127 0
-0.030091 0.023042 0.247566 0 0 255
-0.613659 0.064278 0.200222 153 76 0
-0.282886 0.126780 -0.042291 127 127 0
-0.417089 0.104550 -0.209871 127 127 0
-0.385037 0.023224 -0.246000 76 153 0
0.455112 0.126780 -0.276127 127 127 0
-0.277849 0.038788 0.148001 76 0 153
0.046598 0.023042 0.236840 0 0 255
-0.396224 0.104550 0.103561 127 127 0
0.229286 0.015632 0.139124 0 0 255
-0.286926 -0.043647 0.242459 0 127 127
0.325902 -0.006597 0.197296 255 0 0
-0.120614 0.126780 0.217444 127 127 0
-0.605777 -0.282670 0.260916 153 0 76
-0.415078 0.052525 -0.308460 153 0 76
-0.276511 0.085718 0.126651 0 127 127
-0.545896 -0.006053 0.267577 127 0 127
-0.591429 0.099513 -0.083470 127 127 0
0.413138 -0.043647 0.233298 153 76 0
0.445298 -0.014007 0.081162 255 0 0
0.322264 -0.014007 -0.027818 255 0 0
0.549505 -0.021417 0.002893 204 51 127
-0.499423 -0.006053 -0.170322 153 0 76
-0.190467 0.023042 -0.160642 0 0 255
-0.206530 0.107463 0.284022 127 127 0
0.569537 0.126780 0.269956 127 127 0
-0.515128 -0.006053 0.215269 153 0 76
-0.604041 -0.671380 0.299197 153 0 76
0.425676 -0.035580 0.275596 153 76 0
-0.016099 0.104550 0.175973 127 127 0
0.564619 -0.426701 -0.262214 0 0 255
-0.028331 0.126780 -0.263882 127 127 0
0.365760 -0.043647 -0.293064 153 0 76
-0.032518 0.042898 -0.308460 153 0 76
-0.298427 0.040640 -0.071976 0 127 127
-0.488024 0.126780 0.124310 127 127 0
-0.005941 0.126780 -0.099738 127 127 0
0.084685 0.104550 -0.175418 127 127 0
-0.585869 0.101603 0.250984 127 127 0
-0.123937 0.092829 0.184295 127 127 0
-0.155338 0.023042 0.247456 0 0 255
0.173723 0.082321 0.313078 153 76 0
0.276783 0.126780 0.125076 127 127 0
-0.583269 0.004572 -0.084361 153 76 0
-0.573285 -0.350467 0.293900 153 0 76
-0.613659 0.037427 0.017602 153 76 0
0.265368 0.038779 -0.284378 153 0 76
0.174096 0.079810 -0.308460 153 0 76
-0.206060 0.104550 0.136141 127 127 0
-0.054317 0.126780 0.122519 127 127 0
-0.379516 0.126780 -0.242650 127 127 0
-0.344193 -0.006053 -0.080595 153 0 76
-0.591429 0.095046 -0.027517 153 76 0
0.599852 -0.378340 -0.272194 0 0 255
0.609198 0.126780 -0.304575 127 127 0
-0.546931 0.013814 0.188956 127 0 127
0.542279 0.026928 -0.198418 204 51 127
-0.143281 0.104550 0.279312 127 127 0
0.421206 0.126780 -0.112844 127 127 0
-0.313520 0.023903 0.032864 0 127 127
0.128324 0.104550 -0.216259 127 127 0
-0.610282 -0.142715 0.256214 153 0 76
0.599685 -0.080578 0.251002 204 51 127
-0.053165 0.015632 0.102420 0 0 255
-0.346351 0.074615 -0.308460 153 0 76
-0.384899 0.126780 0.007236 127 127 0
-0.600292 0.041489 -0.308460 76 0 153
-0.553531 0.104550 -0.248821 127 127 0
-0.295700 0.082321 0.261212 0 127 127
0.608967 0.056744 0.112237 76 0 153
-0.043358 0.104550 -0.069281 127 127 0
0.296787 -0.021417 0.052001 127 0 127
0.586738 0.058194 -0.055958 76 0 153
-0.292256 -0.003503 0.190417 0 127 127
0.278302 0.049847 0.159687 127 0 127
-0.276511 0.002678 -0.243647 0 127 127
-0.597706 -0.190809 0.297541 153 0 76
-0.457937 0.126780 -0.089945 127 127 0
0.586738 0.033916 0.184863 153 0 76
0.582873 0.063796 0.022514 153 0 76
0.541962 -0.006597 0.074974 255 0 0
0.542279 0.015713 0.133379 204 51 127
0.078214 0.126780 -0.272381 127 127 0
-0.417519 0.126780 -0.281257 127 127 0
-0.503916 -0.006053 -0.132698 153 0 76
-0.604930 -0.486773 0.260985 153 0 76
-0.613659 -0.036079 -0.173720 153 76 0
0.542278 0.002243 -0.259573 0 0 255
0.338207 0.126780 -0.285584 127 127 0
-0.108626 0.015632 -0.082511 0 0 255
-0.007409 0.067997 -0.186479 204 51 127
0.608967 0.006605 0.172345 76 0 153
0.016797 0.104550 -0.178170 127 127 0
-0.592728 -0.594894 -0.302021 76 0 153
-0.591429 0.071597 -0.198231 153 76 0
0.605541 -0.706264 -0.306378 0 0 255
0.555484 -0.021417 -0.102539 204 51 127
-0.186858 0.104550 -0.238614 127 127 0
0.366878 -0.040563 0.225829 153 76 0
0.436776 -0.006597 0.229850 255 0 0
-0.362568 0.083259 0.184295 153 0 76
0.379938 -0.014007 0.202249 255 0 0
0.600377 -0.496843 -0.271267 0 0 255
0.608967 -0.008044 -0.116268 76 0 153
0.157315 0.037347 0.332513 153 76 0
-0.071774 0.093359 -0.284378 153 0 76
-0.546931 0.074854 0.106896 127 0 127
0.323595 0.104550 0.022349 127 127 0
0.620007 0.126780 -0.068310 127 127 0
0.547921 0.126780 -0.029377 127 127 0
0.468556 0.035499 0.290491 76 0 153
-0.598030 -0.224892 -0.257650 76 0 153
-0.613659 0.090629 0.274244 153 0 76
0.233142 0.023042 -0.000947 0 0 255
-0.445654 0.104550 -0.254771 127 127 0
-0.149789 0.023042 -0.118091 0 0 255
-0.357112 -0.007201 -0.260820 76 153 0
-0.613659 -0.028186 0.271783 153 0 76
0.429172 0.126780 0.093489 127 127 0
-0.246166 0.104550 0.215653 127 127 0
0.218658 0.126780 0.249735 127 127 0
0.059210 0.126780 -0.112409 127 127 0
-0.079461 0.051011 -0.284378 153 0 76
-0.298740 0.064020 -0.268746 0 127 127
0.015381 0.015632 0.275954 0 0 255
0.573262 0.082321 0.231839 153 0 76
-0.231703 0.104550 -0.249290 127 127 0
-0.070478 0.038804 -0.201299 204 51 127
0.165007 0.023042 0.178650 0 0 255
-0.355616 0.126780 0.209212 127 127 0
0.504715 0.126780 -0.185256 127 127 0
0.586738 0.024496 -0.175180 153 0 76
-0.252582 0.023042 0.254036 76 0 153
-0.574432 0.004572 -0.254287 76 153 0
0.597552 -0.451320 -0.263020 0 0 255
0.294048 0.008390 -0.165301 127 0 127
0.395568 0.060753 -0.269482 0 0 255
0.511578 -0.014007 0.124711 255 0 0
0.308868 0.039939 0.222712 153 0 76
-0.205265 0.023042 0.249485 0 0 255
0.565592 -0.503944 0.294360 204 51 127
-0.313520 0.074364 0.187353 0 127 127
0.617470 0.104550 0.031132 127 127 0
-0.186789 0.092245 0.184295 153 0 76
0.586738 -0.041239 0.164161 76 0 153
-0.352258 0.126780 -0.085705 127 127 0
-0.606523 -0.570769 0.262405 153 0 76
-0.346607 0.104550 -0.027756 127 127 0
-0.613659 0.046314 0.097457 153 76 0
0.607753 0.087117 0.302656 204 51 127
0.199415 0.082321 -0.199584 204 51 127
-0.546931 0.050052 0.224589 127 0 127
-0.302980 0.015320 0.284751 127 127 0
-0.591429 0.062834 -0.138767 76 153 0
0.600450 -0.318674 0.292259 204 51 127
-0.533886 0.126780 -0.186899 127 127 0
0.488238 0.104550 0.146461 127 127 0
0.489445 0.104550 0.085782 127 127 0
0.618708 0.104550 -0.024342 127 127 0
-0.600054 0.104550 0.009991 127 127 0
0.542279 0.076209 -0.088160 204 51 127
0.069935 0.104550 0.230108 153 0 76
0.133548 -0.014007 0.214974 76 0 153
-0.395704 -0.018075 -0.284378 153 0 76
-0.546931 0.022315 -0.187164 127 0 127
-0.473417 -0.013463 -0.243415 76 153 0
0.294048 -0.014444 -0.101313 153 0 76
-0.223866 0.023042 -0.115744 0 0 255
-0.519618 -0.020061 0.311097 127 127 0
0.345333 0.082321 0.185858 153 0 76
0.341208 0.005759 -0.269482 0 0 255
0.037678 -0.014007 0.196687 76 0 153
0.088059 -0.014007 0.220507 76 0 153
0.271819 0.001930 -0.272449 127 0 127
-0.591429 -0.029077 -0.240323 153 76 0
0.301458 0.029483 0.141397 153 0 76
-0.638801 0.104550 -0.005828 127 127 0
0.416323 -0.007356 -0.269482 255 0 0
-0.500441 0.092631 0.184295 153 0 76
0.608967 0.021426 0.090555 76 0 153
0.646016 0.114118 0.091525 127 127 0
-0.106305 0.015632 -0.153962 0 0 255
-0.609729 -0.156122 -0.274678 76 0 153
0.580553 0.063796 0.136970 153 0 76
0.020366 0.023042 0.119027 0 0 255
0.557098 -0.065534 -0.270608 0 0 255
0.271819 0.070240 -0.173475 127 0 127
-0.142147 0.023042 0.290593 0 0 255
0.376070 0.032272 -0.308460 153 0 76
-0.055673 -0.007655 -0.308460 153 0 76
-0.017967 -0.014007 0.215836 76 0 153
0.567572 0.104550 -0.093241 127 127 0
0.187447 0.126780 -0.034519 127 127 0
-0.276511 -0.004011 -0.171115 76 0 153
0.445134 0.087202 -0.308460 153 0 76
0.033316 0.104550 -0.047331 127 127 0
0.271819 -0.017840 -0.134631 127 0 127
-0.331599 -0.043647 0.222004 76 0 153
-0.344598 0.104550 0.046473 127 127 0
0.542280 0.054169 -0.006052 204 51 127
-0.298740 0.000346 -0.111965 0 127 127
-0.607445 -0.043647 0.201402 153 76 0
0.306816 -0.021417 -0.244464 255 0 0
0.124215 0.104550 0.223957 127 127 0
0.332554 0.062051 0.240466 76 0 153
-0.063219 0.126780 -0.092085 127 127 0
-0.179068 -0.014007 0.220092 76 0 153
-0.129403 0.104550 -0.146238 127 127 0
0.079262 0.074520 -0.308460 153 0 76
0.002148 0.104550 0.223284 153 0 76
-0.313792 0.126780 0.009690 127 127 0
-0.331217 0.126780 0.109700 127 127 0
0.251113 0.126780 -0.042554 127 127 0
0.487716 0.082321 0.217325 153 0 76
0.124713 0.126780 -0.278430 127 127 0
0.279719 -0.021417 0.231661 127 0 127
-0.483985 0.082321 0.221430 153 0 76
-0.089327 0.104550 -0.184328 127 127 0
-0.576918 -0.118341 0.251098 153 0 76
0.542280 0.046548 0.177615 204 51 127
-0.583059 0.004572 -0.127355 153 76 0
-0.276511 -0.018698 0.057425 0 127 127
0.567005 -0.201938 0.251754 204 51 127
0.599859 -0.444049 0.266026 204 51 127
-0.213642 0.082321 -0.189109 204 51 127
0.384989 0.104550 -0.183962 127 127 0
-0.571296 -0.533420 0.292710 153 0 76
0.537805 0.104550 0.175889 153 0 76
-0.613659 0.061724 -0.266439 76 0 153
-0.143796 0.005446 -0.308460 153 0 76
0.575227 0.004517 -0.022829 153 0 76
-0.613659 0.012915 0.075823 153 76 0
-0.180173 0.015632 -0.088551 0 0 255
-0.436533 -0.006053 0.008622 153 0 76
-0.562401 -0.189306 -0.290745 76 0 153
0.314319 0.126780 -0.109391 127 127 0
-0.552962 0.126780 -0.145410 127 127 0
-0.164432 0.104550 0.251134 127 127 0
0.227389 0.023042 -0.164288 0 0 255
-0.061109 0.015632 0.225088 0 0 255
-0.613659 0.078836 0.031702 153 76 0
0.155047 0.126780 -0.015236 127 127 0
0.100004 0.023042 0.171404 0 0 255
0.579819 0.126780 0.093471 127 127 0
0.477627 -0.006597 0.023437 255 0 0
0.176275 0.003159 -0.284378 153 0 76
0.572157 -0.652434 0.297064 204 51 127
0.322793 0.126780 -0.046231 127 127 0
0.020419 0.023042 0.080820 0 0 255
0.314315 0.104550 0.074547 127 127 0
0.478687 -0.006597 -0.229692 255 0 0
0.586284 0.126780 -0.052243 127 127 0
-0.569019 0.040695 -0.247761 76 153 0
0.030152 0.104550 -0.223979 127 127 0
-0.260828 0.104550 -0.003364 127 127 0
0.034781 0.104550 0.091272 127 127 0
-0.575042 -0.572917 -0.267788 76 0 153
-0.277235 -0.043647 -0.149347 0 127 127
-0.093920 0.104550 0.166737 127 127 0
0.424198 0.082321 0.211802 153 0 76
0.596370 -0.567515 0.295642 204 51 127
-0.288000 0.104550 -0.132512 127 127 0
-0.396142 -0.006053 0.091851 153 0 76
-0.518123 0.082865 -0.252249 76 153 0
-0.494887 0.104550 0.278110 153 0 76
0.475987 0.104550 -0.175204 127 127 0
-0.461347 0.051347 -0.260820 76 153 0
-0.034987 0.015632 -0.159699 0 0 255
0.219388 0.015632 0.206391 0 0 255
0.313364 0.045516 -0.308460 153 0 76
0.608967 -0.014285 0.251101 76 0 153
-0.314020 0.110380 0.290909 127 127 0
-0.555734 0.065002 -0.308460 153 0 76
0.399110 0.104550 -0.129754 127 127 0
-0.299126 0.126780 -0.209497 127 127 0
0.256999 0.026255 0.050358 0 0 255
0.256999 0.042985 -0.023030 153 0 76
-0.396235 0.126780 0.215979 127 127 0
0.599928 -0.361746 0.256288 204 51 127
-0.561790 0.017523 0.121212 76 153 0
0.586738 0.072354 0.178292 76 0 153
0.608967 0.027988 -0.238113 76 0 153
-0.574494 -0.605051 0.294916 153 0 76
-0.345319 -0.025169 -0.308460 153 0 76
0.586738 0.051660 0.222211 76 0 153
-0.393461 0.126780 0.281679 127 127 0
0.031877 0.043499 -0.284378 153 0 76
0.542279 0.014796 -0.109413 204 51 127
-0.567203 -0.216904 0.295323 153 0 76
0.353461 -0.031983 0.267613 76 0 153
-0.550990 0.126780 -0.275465 127 127 0
0.186416 0.015632 0.299133 0 0 255
0.276939 0.126780 0.249836 127 127 0
0.124528 0.091172 -0.284378 153 0 76
0.584710 0.104550 -0.283131 0 0 255
-0.534332 0.048108 0.288393 127 127 0
0.411290 0.126780 -0.070924 127 127 0
-0.307265 -0.020873 0.004454 0 127 127
-0.626606 0.104550 -0.167803 127 127 0
0.405133 0.104550 0.294988 127 127 0
-0.279905 -0.043647 0.091652 0 127 127
0.479526 -0.014007 0.137915 255 0 0
-0.371704 0.031728 0.292489 127 127 0
0.621182 0.126780 0.219534 127 127 0
0.149239 0.104550 0.277516 127 127 0
0.349434 -0.006597 0.000632 255 0 0
-0.044949 0.101058 -0.308460 153 0 76
-0.191628 -0.020625 -0.284378 153 0 76
0.435277 0.126780 -0.174513 127 127 0
-0.600699 -0.080516 -0.256609 76 0 153
-0.454747 -0.006053 -0.183667 153 0 76
-0.458073 -0.013463 0.073639 153 0 76
-0.110489 0.042691 0.330254 153 76 0
-0.341652 0.078717 -0.260820 76 153 0
0.472949 -0.021417 -0.281170 153 0 76
-0.131634 0.023042 0.043307 0 0 255
-0.103358 0.023042 -0.016125 0 0 255
-0.159727 0.015632 0.139502 0 0 255
0.061134 0.104550 -0.208853 127 127 0
-0.550952 0.104550 0.197516 127 127 0
-0.576104 0.126780 -0.213301 127 127 0
-0.313377 0.082865 0.082130 0 127 127
-0.298740 0.097439 -0.050994 0 127 127
-0.470186 -0.006053 0.108230 153 0 76
-0.189220 0.104477 -0.308460 153 0 76
0.297486 0.126780 0.013164 127 127 0
-0.135591 0.104550 0.078074 127 127 0
-0.264393 0.082321 0.049112 76 0 153
0.326935 0.082321 -0.275715 0 0 255
-0.277283 0.038788 -0.108164 0 127 127
-0.296732 -0.043647 -0.079374 0 127 127
0.223153 0.126780 -0.278693 127 127 0
-0.581002 0.063851 -0.009670 153 76 0
-0.591429 0.097755 0.189518 153 0 76
-0.234173 0.008222 -0.188233 204 51 127
0.613258 0.126780 0.004666 127 127 0
0.364159 0.104550 -0.292175 127 127 0
-0.099801 0.126780 -0.055694 127 127 0
-0.338240 -0.013463 0.240688 76 0 153
-0.413443 -0.013463 0.269661 153 0 76
-0.613659 -0.024655 -0.071488 153 76 0
0.179999 0.104550 -0.159933 127 127 0
-0.173151 0.009980 -0.284378 153 0 76
0.371160 0.104550 -0.011540 127 127 0
0.222605 0.008222 0.332203 153 76 0
-0.579844 0.004572 0.228716 76 153 0
0.007431 0.105699 0.278956 127 127 0
0.304994 0.091380 -0.308460 153 0 76
-0.351036 -0.006053 -0.156459 153 0 76
-0.082738 0.015632 -0.104937 0 0 255
-0.368450 0.126780 -0.128481 127 127 0
-0.547442 0.126780 0.131167 127 127 0
-0.488671 0.126780 -0.004713 127 127 0
0.333041 -0.014007 -0.193403 255 0 0
0.250579 0.126780 0.024082 127 127 0
0.290838 0.090365 0.234312 76 0 153
0.546500 -0.021417 -0.146409 204 51 127
-0.010434 0.104550 -0.130709 127 127 0
-0.334223 -0.020873 0.286584 127 127 0
0.531347 0.104550 -0.190102 127 127 0
-0.613659 -0.022199 0.023272 153 76 0
-0.658118 0.107630 -0.275619 127 127 0
0.557098 0.009936 0.102948 204 51 127
0.477608 -0.006597 -0.041437 255 0 0
-0.038442 0.104550 0.247781 153 0 76
-0.611903 -0.108136 0.296815 153 0 76
-0.591429 -0.018804 0.092437 153 76 0
-0.489553 0.104550 -0.180371 127 127 0
-0.049854 0.023042 0.298340 153 76 0
-0.101112 0.015632 0.229488 0 0 255
0.608721 0.111882 0.326829 127 127 0
0.521488 -0.019517 0.288673 76 0 153
-0.596966 -0.266896 0.295332 153 0 76
-0.222504 0.126780 0.105299 127 127 0
-0.604440 -0.400857 0.264055 153 0 76
0.533677 0.066112 0.265408 76 0 153
0.645667 0.104550 -0.066262 127 127 0
0.154678 -0.010366 -0.308460 153 0 76
-0.011289 0.014988 -0.308460 153 0 76
-0.450001 0.082321 0.221957 153 0 76
-0.591429 -0.001860 -0.194536 153 76 0
-0.279606 0.027415 0.184295 0 127 127
0.070459 0.023042 0.068044 0 0 255
0.608967 0.092674 0.080403 76 0 153
-0.602986 -0.401079 -0.261423 76 0 153
-0.376526 0.104550 -0.288362 153 0 76
-0.169596 0.126780 -0.133852 127 127 0
-0.276511 0.085511 -0.163128 0 127 127
0.608967 -0.002703 0.114399 76 0 153
-0.512021 0.104550 -0.226358 127 127 0
-0.221993 0.023042 -0.041012 0 0 255
-0.124843 0.032236 -0.201299 204 51 127
0.473686 0.126780 -0.000534 127 127 0
0.618666 0.104550 -0.176514 127 127 0
0.599793 -0.429697 -0.299102 0 0 255
-0.299149 0.126780 0.194520 127 127 0
-0.444943 0.012047 -0.284378 153 0 76
-0.577280 -0.660583 -0.276225 76 0 153
0.207491 0.126780 0.092521 127 127 0
-0.546931 0.038712 0.256951 76 153 0
0.183305 0.082321 0.253745 153 0 76
0.646016 0.111182 0.161478 127 127 0
-0.071519 0.126780 -0.246272 127 127 0
-0.546931 -0.000180 0.050059 127 0 127
-0.276511 0.036020 0.007615 0 127 127
-0.067133 0.104550 0.210798 153 0 76
-0.406755 0.104550 0.056502 127 127 0
0.255033 0.076464 -0.284378 153 0 76
-0.397782 -0.013463 0.196823 153 0 76
-0.023142 0.126780 0.068821 127 127 0
-0.589836 -0.489873 -0.264399 76 0 153
0.282069 0.126780 -0.292464 127 127 0
-0.400568 -0.043647 -0.306835 153 0 76
-0.602705 -0.333483 0.294133 153 0 76
-0.298701 0.002636 -0.205753 0 127 127
0.152967 0.015632 0.209261 0 0 255
-0.613659 0.033833 0.129008 153 76 0
0.608274 -0.733824 0.270916 204 51 127
-0.484620 -0.013463 0.027827 153 0 76
-0.546931 0.051833 -0.126451 127 0 127
-0.607593 -0.606547 0.264005 153 0 76
0.091438 0.126780 0.082444 127 127 0
-0.484342 0.104550 -0.053799 127 127 0
0.608967 -0.016726 -0.287966 0 0 255
-0.185464 0.053722 0.333542 153 76 0
-0.562068 -0.147637 0.291150 153 0 76
-0.625157 0.126780 -0.240122 127 127 0
-0.313520 0.034250 -0.037773 0 127 127
0.338482 0.015386 0.266076 76 0 153
0.294048 0.098780 0.131962 127 127 0
-0.309929 0.126780 -0.078165 127 127 0
0.466376 0.126780 0.050158 127 127 0
0.271819 0.037101 0.310521 153 0 76
0.062143 0.126780 0.041259 127 127 0
0.586738 -0.008482 0.222982 76 0 153
-0.414161 0.006534 -0.246000 76 153 0
-0.487094 -0.007853 -0.284378 153 0 76
0.219079 0.023042 -0.082634 0 0 255
-0.586432 -0.741283 -0.276603 76 0 153
-0.554499 0.082865 -0.053322 127 0 127
-0.076278 0.104550 0.064107 127 127 0
-0.436123 0.126780 0.006817 127 127 0
-0.260985 0.126780 -0.069177 127 127 0
0.570042 -0.604701 -0.302335 0 0 255
-0.546536 0.005179 -0.284378 153 0 76
-0.516995 -0.043647 0.280207 76 0 153
0.608967 0.056007 -0.149549 76 0 153
0.197533 0.126780 0.029601 127 127 0
0.437354 0.104550 0.270503 127 127 0
-0.261691 0.051044 0.236214 0 127 127
-0.580737 0.126780 -0.012631 127 127 0
0.013648 0.075068 -0.284378 153 0 76
-0.466836 -0.006053 -0.114603 153 0 76
-0.298740 0.073301 0.032563 0 127 127
0.586738 -0.015285 -0.052568 76 0 153
-0.613340 -0.043647 -0.119765 153 76 0
0.598380 0.126780 0.163645 127 127 0
0.482455 0.104550 0.192161 127 127 0
-0.450823 0.104550 0.299632 127 127 0
-0.244663 -0.014007 0.233244 76 0 153
-0.424572 0.104550 0.150791 127 127 0
0.110160 0.126780 -0.067320 127 127 0
-0.269101 0.047853 -0.193081 0 127 127
-0.495535 0.027822 -0.308460 153 0 76
-0.245999 0.023042 0.039568 0 0 255
0.591988 -0.045014 0.300101 204 51 127
0.531270 -0.021417 0.252570 255 0 0
-0.485476 -0.013463 0.242131 153 0 76
0.148306 0.126780 0.039844 127 127 0
-0.028661 0.082321 0.222006 153 0 76
-0.583151 -0.458579 -0.299418 76 0 153
-0.032483 -0.020678 -0.284378 153 0 76
-0.559061 -0.020873 0.110245 127 0 127
-0.576886 -0.653140 0.293363 153 0 76
0.331710 0.126780 -0.216104 127 127 0
0.602157 -0.237549 0.281537 204 51 127
-0.404008 0.082321 0.238063 153 0 76
0.173926 0.041601 -0.201299 204 51 127
0.609419 0.126780 0.269582 127 127 0
0.001584 0.023042 0.188786 0 0 255
-0.553605 0.104550 -0.171265 127 127 0
0.233727 -0.014007 0.210125 76 0 153
0.222594 0.104550 -0.047372 127 127 0
0.026611 0.126780 0.006852 127 127 0
-0.591429 0.033774 0.195390 76 153 0
-0.101305 -0.007310 -0.308460 153 0 76
-0.549869 0.104550 0.253143 127 127 0
-0.613659 0.029341 -0.204752 153 76 0
-0.601820 -0.716790 0.269576 153 0 76
0.586738 0.026888 0.152286 76 0 153
0.405823 0.104550 0.153312 127 127 0
-0.613659 0.087845 -0.234992 127 127 0
-0.000582 0.126780 0.251891 127 127 0
-0.588200 0.037245 0.298726 153 0 76
-0.298701 0.064483 -0.203964 0 127 127
0.603604 -0.647965 0.265806 204 51 127
-0.070836 0.104550 -0.213611 127 127 0
0.601369 -0.550605 0.261239 204 51 127
0.138486 0.104550 0.164451 127 127 0
-0.579426 -0.170802 -0.257044 76 0 153
-0.613659 -0.005163 -0.015919 153 76 0
0.374376 0.104550 -0.151596 127 127 0
0.079977 0.104550 -0.235942 127 127 0
-0.606401 -0.565471 -0.296041 76 0 153
-0.257915 0.023042 -0.167901 0 0 255
0.294048 0.079064 0.041101 127 0 127
0.412493 0.104550 -0.039029 127 127 0
0.051761 0.008222 0.307170 0 0 255
0.308868 0.043728 -0.127403 153 0 76
-0.591429 0.067687 0.165746 153 76 0
-0.265476 0.126780 0.116271 127 127 0
0.573757 0.028527 0.297146 204 51 127
-0.580281 0.003367 -0.292714 76 0 153
-0.276511 0.029466 0.098294 76 0 153
-0.561750 -0.018438 -0.142712 127 0 127
-0.546931 0.077367 0.035188 127 0 127
0.271819 -0.015273 0.074723 127 0 127
-0.379228 -0.037369 0.226841 76 0 153
0.305627 -0.021417 -0.172871 255 0 0
0.256999 0.078887 0.095557 153 0 76
-0.591429 0.009567 -0.041620 76 153 0
-0.371493 -0.006053 0.015298 153 0 76
0.058109 0.023042 -0.018655 0 0 255
-0.504055 0.035165 0.284639 127 127 0
0.375142 0.104550 0.032815 127 127 0
-0.207994 0.015632 0.153680 0 0 255
0.339258 0.104550 0.122216 127 127 0
-0.298701 -0.014274 0.232439 0 127 127
0.239589 0.104550 0.199158 127 127 0
0.504609 -0.014007 0.074492 255 0 0
0.343384 0.104550 0.216265 127 127 0
0.271819 -0.021909 -0.011485 127 0 127
-0.298740 -0.026660 0.154053 0 127 127
-0.017844 0.104550 -0.193608 127 127 0
-0.571730 0.063851 -0.104064 76 153 0
0.248930 0.082321 0.231824 153 0 76
0.562209 -0.411074 0.271526 204 51 127
0.289167 0.011232 0.184295 127 0 127
0.120830 -0.021804 -0.308460 153 0 76
0.418453 0.104550 0.071696 127 127 0
-0.039633 0.126780 0.017910 127 127 0
-0.052644 0.104550 -0.164054 127 127 0
-0.191269 0.042928 -0.186479 204 51 127
0.308868 0.033191 -0.224553 153 0 76
0.012626 0.073038 0.328725 153 76 0
0.485589 0.051640 -0.284378 0 0 255
-0.159785 0.104550 -0.072074 127 127 0
-0.269101 0.049760 -0.258182 0 127 127
0.557075 0.082321 -0.197462 204 51 127
-0.368240 0.076408 0.292134 127 127 0
0.617830 0.126780 -0.234179 127 127 0
-0.358715 0.104550 0.079670 127 127 0
0.494704 0.126780 0.270251 127 127 0
0.171329 0.124753 -0.312165 127 127 0
-0.251700 0.082321 0.189742 153 0 76
-0.591429 -0.017066 0.162686 153 76 0
-0.206913 0.091740 -0.284378 153 0 76
-0.179203 0.104550 0.054678 127 127 0
0.221049 0.044671 -0.284378 153 0 76
-0.224329 0.008222 0.314587 153 76 0
0.167093 0.023042 0.239002 0 0 255
0.572013 -0.131617 -0.256748 0 0 255
-0.621642 0.104550 0.060293 153 76 0
0.453322 0.004175 0.279252 76 0 153
-0.433391 0.104550 -0.135714 127 127 0
-0.216467 0.025952 -0.284378 153 0 76
0.348978 -0.013197 -0.308460 153 0 76
0.528103 0.104550 -0.071133 127 127 0
0.557918 -0.205901 -0.289309 0 0 255
-0.527849 0.104550 0.055616 127 127 0
0.625500 0.104550 -0.278121 127 127 0
-0.276511 0.073138 -0.074013 76 0 153
0.597876 0.050764 -0.308460 0 0 255
0.530728 0.126780 0.098726 127 127 0
0.600476 -0.504096 0.292342 204 51 127
0.271819 0.093070 -0.217091 127 0 127
0.462902 0.126780 -0.234511 127 127 0
0.601026 -0.285247 -0.262268 0 0 255
0.504666 -0.029619 -0.308460 153 0 76
-0.561158 0.108047 -0.312165 127 127 0
0.271819 0.023950 -0.044577 153 0 76
0.437053 -0.006597 0.000377 255 0 0
0.388586 -0.006597 0.107246 255 0 0
0.606494 -0.698511 0.270342 204 51 127
0.378581 0.033260 -0.269482 0 0 255
0.127879 0.034060 -0.308460 153 0 76
-0.045370 0.023042 0.025905 0 0 255
-0.006731 0.104550 -0.289983 153 0 76
0.497812 -0.014007 0.254332 255 0 0
0.599337 -0.294726 0.253188 204 51 127
-0.121259 0.104550 -0.090439 127 127 0
-0.266016 0.104550 -0.197508 127 127 0
0.586738 0.088136 -0.036460 76 0 153
0.564455 0.040640 0.045709 153 0 76
0.576954 0.028170 -0.292714 0 0 255
0.028331 0.126780 -0.198984 127 127 0
0.263997 0.008222 -0.151899 127 0 127
0.586738 -0.023378 -0.147306 76 0 153
-0.267812 0.104550 0.264002 153 0 76
-0.431814 0.104550 -0.084601 127 127 0
0.440499 0.126780 -0.087032 127 127 0
-0.637701 0.104550 0.206097 127 127 0
0.537358 -0.014007 -0.190677 255 0 0
0.140931 0.126780 -0.056610 127 127 0
-0.630617 0.126780 0.166970 127 127 0
-0.278958 0.126780 0.065441 127 127 0
-0.339997 0.104550 0.226418 127 127 0
0.564508 0.034743 0.008996 153 0 76
0.600120 -0.478127 0.258360 204 51 127
-0.607260 -0.744317 0.302689 153 0 76
-0.306699 0.110412 -0.312165 127 127 0
0.576485 0.104550 0.135103 127 127 0
0.057443 0.104550 0.271004 127 127 0
0.435493 0.126780 -0.212669 127 127 0
0.337881 0.104550 -0.077774 127 127 0
-0.323755 -0.043059 0.264083 76 0 153
0.502391 -0.006597 -0.095369 255 0 0
0.384318 0.055736 0.246885 76 0 153
0.314300 0.126780 0.258205 127 127 0
-0.418306 -0.013463 -0.078000 153 0 76
0.215010 0.015632 0.093744 0 0 255
-0.404184 0.005319 0.295823 127 127 0
0.386494 0.104550 -0.064710 127 127 0
-0.213752 0.104550 0.227978 153 0 76
0.243710 0.104550 -0.008430 127 127 0
0.608967 0.052442 -0.078304 76 0 153
-0.347238 0.104550 -0.119327 127 127 0
0.249644 0.126780 -0.192987 127 127 0
-0.412720 0.082865 -0.257396 76 153 0
-0.013819 0.104550 -0.233859 127 127 0
0.518719 0.104550 -0.020172 127 127 0
-0.039922 0.126780 -0.218224 127 127 0
0.179293 0.126780 -0.255666 127 127 0
0.608967 -0.058715 -0.288026 0 0 255
-0.642982 0.126780 0.088194 127 127 0
-0.379659 0.104550 -0.179954 127 127 0
-0.169074 0.104550 0.095895 127 127 0
0.112726 0.047924 -0.186479 204 51 127
0.583178 0.077160 -0.256591 0 0 255
-0.488494 0.126780 0.069520 127 127 0
-0.392671 0.058757 -0.284378 153 0 76
0.160917 0.126780 0.169313 127 127 0
-0.591429 0.062970 -0.045620 153 76 0
0.265855 0.082321 0.315358 153 76 0
0.380634 0.022573 0.246428 76 0 153
-0.292039 0.126780 -0.105204 127 127 0
0.557098 0.044943 0.149392 153 0 76
0.542279 0.011966 -0.144049 204 51 127
-0.082355 0.082321 0.186502 153 0 76
-0.554477 0.038505 0.316748 127 127 0
0.575893 -0.720279 0.297360 204 51 127
-0.542806 0.104550 0.094340 127 127 0
0.212230 0.073115 -0.308460 153 0 76
-0.304287 0.058498 0.284918 127 127 0
-0.625060 0.126780 -0.112376 127 127 0
-0.605654 -0.288045 -0.285992 76 0 153
0.037891 0.096052 0.184295 153 0 76
0.578122 0.101283 0.287332 153 0 76
0.586738 0.098402 -0.118757 76 0 153
0.408066 -0.006597 0.033281 255 0 0
-0.434968 0.104550 0.037609 127 127 0
0.547192 0.104550 -0.154945 127 127 0
0.129792 0.023042 0.274987 0 0 255
0.542279 0.008356 -0.006289 204 51 127
0.081276 0.104550 0.180575 153 0 76
0.294048 -0.019791 0.131243 127 0 127
-0.321176 0.104550 -0.215028 127 127 0
-0.613659 0.026464 -0.095290 153 76 0
0.294077 0.017065 0.246686 76 0 153
0.523431 0.104550 -0.243893 127 127 0
0.408041 0.104550 -0.241629 127 127 0
-0.493467 0.126780 -0.153477 127 127 0
0.594292 -0.034604 -0.256591 0 0 255
0.595340 -0.394350 -0.299271 0 0 255
0.303361 0.003582 -0.308460 153 0 76
0.271819 -0.014124 -0.078627 127 0 127
0.622626 0.104550 -0.094177 127 127 0
0.608967 0.097007 0.170335 76 0 153
-0.462719 0.126780 0.188644 127 127 0
-0.536991 0.126780 0.004416 127 127 0
0.069293 0.126780 -0.057080 127 127 0
0.308868 0.073295 -0.183420 153 0 76
0.129888 0.082321 0.330842 153 76 0
-0.591333 0.104550 0.112113 153 76 0
0.542279 0.021319 -0.059636 204 51 127
0.068014 -0.018206 -0.284378 153 0 76
0.308868 0.050302 -0.065420 153 0 76
0.586738 0.019724 0.061423 153 0 76
-0.572580 -0.284203 -0.258609 76 0 153
-0.019923 0.011414 -0.201299 204 51 127
0.564541 -0.348240 0.293930 204 51 127
0.236896 -0.016340 -0.308460 153 0 76
0.619177 0.104550 0.111516 127 127 0
0.608967 -0.030818 0.090208 76 0 153
0.102933 0.126780 0.134761 127 127 0
0.529538 0.126780 -0.131743 127 127 0
-0.326076 0.104550 0.135258 127 127 0
0.248269 0.126780 0.263152 127 127 0
-0.641789 0.104550 0.035130 127 127 0
-0.188027 0.023042 -0.058227 0 0 255
0.491484 -0.043027 0.242307 153 76 0
-0.580315 -0.041690 0.284834 153 0 76
0.049509 0.126780 0.151490 127 127 0
-0.471543 0.062706 0.280607 127 127 0
0.338837 0.126780 -0.013048 127 127 0
-0.052791 0.015632 -0.118308 0 0 255
0.646016 0.125599 -0.131647 127 127 0
-0.528204 0.104550 0.286606 127 127 0
-0.415011 0.104550 -0.307299 153 0 76
-0.567636 -0.433523 -0.262513 76 0 153
0.586738 0.019290 -0.051272 153 0 76
0.271819 0.100484 0.157564 127 127 0
0.557184 -0.107269 0.263459 204 51 127
-0.613659 0.032607 -0.158205 153 76 0
-0.116153 0.091834 -0.284378 153 0 76
0.020096 0.104550 0.038091 127 127 0
0.274573 0.067936 -0.308460 153 0 76
-0.272157 0.104550 -0.283336 153 0 76
0.211407 0.046216 0.312921 153 76 0
-0.262148 0.047669 -0.308460 153 0 76
-0.518147 0.104550 -0.059521 127 127 0
-0.107836 0.114972 0.280166 127 127 0
-0.358131 0.126780 0.028742 127 127 0
0.087502 0.023042 0.200295 0 0 255
-0.562427 0.104550 -0.107209 127 127 0
0.175682 0.126780 0.205961 127 127 0
0.331099 0.104550 -0.142360 127 127 0
-0.276511 0.086393 -0.222609 0 127 127
-0.411252 -0.013463 0.029784 153 0 76
0.209109 0.104550 0.068776 127 127 0
-0.084083 0.126780 -0.118956 127 127 0
-0.591429 0.031949 0.039168 153 76 0
0.289841 0.126780 0.073858 127 127 0
-0.124670 0.023042 -0.049798 0 0 255
0.566001 0.048271 -0.256591 0 0 255
0.590049 -0.660062 -0.272053 0 0 255
0.284997 0.126780 -0.209173 127 127 0
0.112783 0.126780 -0.232103 127 127 0
0.600653 -0.747583 0.302492 204 51 127
0.064482 0.082321 0.321481 153 76 0
0.382460 0.126780 0.115424 127 127 0
0.147300 0.096136 -0.308460 127 127 0
-0.376204 0.126780 0.127278 127 127 0
-0.122196 0.104550 -0.238816 127 127 0
0.308868 0.080401 0.093817 153 0 76
-0.348482 0.049815 0.265346 127 127 0
0.586738 0.034616 -0.092555 76 0 153
-0.393011 0.021816 0.270868 127 127 0
0.604648 -0.165555 0.287941 204 51 127
0.032101 0.023432 -0.308460 153 0 76
0.293906 0.040640 -0.006468 153 0 76
0.586738 -0.028090 0.035563 76 0 153
-0.225202 0.126780 0.147128 127 127 0
0.301458 0.037780 0.081207 153 0 76
-0.056708 0.015632 0.178418 0 0 255
-0.276511 0.078467 -0.010655 0 127 127
0.205011 0.126780 -0.212292 127 127 0
0.545393 0.126780 0.029508 127 127 0
0.444109 0.063590 -0.284301 153 0 76
-0.247497 0.015632 -0.071675 0 0 255
-0.313520 0.078175 -0.019653 0 127 127
0.551871 0.104550 0.226701 153 0 76
0.586738 -0.042303 -0.089559 76 0 153
-0.434342 0.090715 0.184295 153 0 76
0.392669 -0.006597 -0.032095 255 0 0
-0.355011 0.126780 -0.218102 127 127 0
0.234828 0.122485 -0.312165 127 127 0
-0.561750 0.080270 -0.193845 127 0 127
0.158942 0.023042 -0.173372 204 51 127
0.540162 0.104550 0.291521 153 0 76
0.497813 0.104550 0.024029 127 127 0
0.176581 0.023042 0.149693 0 0 255
0.569398 0.104550 0.073027 127 127 0
0.251299 0.015632 0.301021 0 0 255
0.484524 0.104550 -0.103173 127 127 0
0.464390 0.008217 -0.269482 0 0 255
-0.313520 0.069712 -0.172332 0 127 127
0.504564 0.106739 0.311949 127 127 0
-0.103642 0.012294 0.329986 0 0 255
0.430054 0.096001 0.184295 153 0 76
-0.562330 -0.182258 0.255118 153 0 76
0.606420 -0.123817 0.298334 204 51 127
0.404754 0.099276 -0.308460 127 127 0
0.088130 0.026646 -0.308460 153 0 76
-0.193286 0.052288 -0.284378 153 0 76
-0.561790 0.056742 0.053125 76 153 0
0.271819 0.095778 0.066344 127 127 0
-0.467619 0.104550 -0.109678 127 127 0
0.019421 0.126780 -0.139310 127 127 0
-0.038893 0.059847 0.329040 153 76 0
0.287565 0.039510 -0.185508 127 0 127
0.467578 0.104550 -0.059810 127 127 0
-0.313520 0.019728 0.165294 0 127 127
0.450487 -0.014007 -0.153541 255 0 0
-0.002432 0.035645 -0.284378 153 0 76
-0.332198 0.104550 -0.077488 127 127 0
-0.079394 0.082321 0.308079 153 76 0
-0.171545 -0.009545 -0.308460 153 0 76
-0.346217 0.098412 -0.284378 153 0 76
0.366894 -0.014007 -0.250431 255 0 0
0.142211 0.104550 -0.257242 127 127 0
0.268731 0.126780 -0.156014 127 127 0
-0.457721 -0.024074 -0.284378 153 0 76
0.258217 0.065638 -0.201299 204 51 127
0.419990 -0.006597 -0.218859 255 0 0
0.594329 -0.123530 -0.305928 0 0 255
0.295772 0.104550 0.287257 127 127 0
0.058761 0.104550 -0.263005 127 127 0
-0.249123 -0.009149 -0.308460 153 0 76
-0.561790 0.018598 -0.042221 127 0 127
-0.419261 0.126780 -0.046605 127 127 0
-0.494432 0.104550 0.019326 127 127 0
-0.391483 -0.006053 -0.206287 153 0 76
-0.552311 -0.020873 0.233112 153 0 76
-0.202351 0.023042 0.197681 0 0 255
0.339481 0.126780 0.037038 127 127 0
-0.312898 -0.020521 -0.308460 153 0 76
-0.405014 -0.013463 0.227097 153 0 76
-0.568565 0.126780 0.263812 127 127 0
-0.344912 0.017461 -0.246000 76 153 0
0.567741 -0.463213 -0.299439 0 0 255
0.646016 0.125100 0.305725 127 127 0
-0.563127 -0.245540 0.264926 153 0 76
-0.585477 0.126780 0.210750 127 127 0
-0.431898 0.040810 -0.284378 153 0 76
0.577377 -0.080736 0.297732 204 51 127
0.572366 -0.611241 -0.269591 0 0 255
-0.246842 0.104550 -0.094655 127 127 0
0.304674 0.104550 0.186103 153 0 76
0.349530 0.126780 0.281200 127 127 0
-0.298701 0.070993 -0.112952 0 127 127
-0.518131 -0.013463 -0.045453 153 0 76
0.061963 0.015632 -0.092996 0 0 255
-0.440885 -0.006053 -0.135088 153 0 76
-0.443701 0.071891 -0.246000 76 153 0
-0.501988 0.108323 -0.312165 127 127 0
-0.491051 0.104550 0.145809 127 127 0
0.580312 0.063796 -0.170231 76 0 153
0.077371 0.104550 0.024227 127 127 0
-0.168138 0.126780 0.020039 127 127 0
-0.195957 0.015632 0.003312 0 0 255
0.548476 -0.015704 -0.308460 153 0 76
0.216927 0.104550 -0.155707 127 127 0
-0.505284 0.009775 -0.246000 76 153 0
-0.613659 0.022509 0.289481 153 0 76
0.019318 0.023042 0.032395 0 0 255
0.294048 0.097013 0.005999 127 127 0
0.562186 0.040640 0.100976 153 0 76
-0.069406 0.104550 0.101654 127 127 0
-0.613068 0.126780 -0.184240 127 127 0
-0.590959 0.104550 -0.273347 127 127 0
-0.613659 0.008427 0.174100 153 76 0
-0.561750 0.009757 0.088162 76 153 0
0.105432 0.023042 0.134146 0 0 255
-0.075996 0.126780 0.152024 127 127 0
-0.579362 -0.699185 0.298458 153 0 76
0.203342 -0.043647 -0.308287 153 0 76
-0.463263 0.126780 0.157679 127 127 0
0.294048 -0.042923 0.162265 127 0 127
-0.104649 0.045129 -0.308460 153 0 76
-0.207390 0.126780 -0.055613 127 127 0
-0.451589 0.126780 -0.283149 127 127 0
0.489639 0.022979 0.259946 76 0 153
-0.576470 -0.393678 -0.299274 76 0 153
-0.380616 -0.006053 -0.022258 153 0 76
0.587162 0.104550 0.003279 127 127 0
-0.500654 0.104550 0.234513 153 0 76
-0.437971 0.126780 -0.213445 127 127 0
0.536456 0.064627 -0.308460 153 0 76
0.294048 0.062940 0.256728 127 0 127
0.586738 0.035495 -0.012164 76 0 153
-0.276511 0.002019 0.003200 0 127 127
-0.097266 0.040830 -0.186479 204 51 127
0.331966 -0.014007 0.034377 255 0 0
-0.546931 0.004206 -0.091622 127 0 127
0.586738 0.055047 -0.128272 153 0 76
0.488950 0.082321 0.265954 76 0 153
0.075453 0.050436 -0.284378 153 0 76
0.047674 0.015632 0.021571 0 0 255
0.608967 -0.021434 -0.229232 76 0 153
0.256999 0.038634 0.252851 0 0 255
0.241677 0.021491 -0.308460 153 0 76
0.586738 -0.020953 -0.008282 76 0 153
0.124380 0.079194 -0.186479 204 51 127
-0.298701 -0.019200 -0.234409 0 127 127
0.586738 -0.007985 -0.095157 76 0 153
-0.607471 -0.218133 0.267312 153 0 76
-0.628967 0.104550 0.134590 127 127 0
0.375235 0.104550 0.174992 127 127 0
-0.539415 -0.020873 -0.259399 127 0 127
0.585965 -0.086896 -0.256625 0 0 255
0.137728 0.082321 0.197347 153 0 76
-0.051437 0.126780 0.264577 127 127 0
0.168800 0.023042 -0.027264 0 0 255
0.574838 -0.397937 -0.261336 0 0 255
0.594187 0.104550 0.217032 76 0 153
0.587728 -0.692269 0.300065 204 51 127
-0.343013 -0.013463 0.186916 153 0 76
0.274211 0.038788 -0.154764 127 0 127
-0.634762 0.104550 0.249568 127 127 0
-0.002725 0.104550 -0.079109 127 127 0
-0.423792 0.003504 -0.308460 153 0 76
-0.276511 -0.021763 0.209082 0 127 127
0.032248 0.073156 -0.308460 153 0 76
0.300107 -0.021417 -0.047502 127 0 127
0.559331 0.126780 0.194063 127 127 0
-0.007122 0.010473 0.328576 153 76 0
0.058681 0.023042 0.168922 0 0 255
0.333949 0.126780 0.067120 127 127 0
0.317606 -0.025953 0.219313 153 76 0
0.560175 0.004517 0.198971 153 0 76
0.353782 0.053034 -0.308460 153 0 76
-0.128895 0.058186 0.308832 153 76 0
0.596890 -0.591463 -0.268644 0 0 255
-0.591429 -0.014254 -0.153070 153 76 0
0.380846 0.083827 0.270424 153 0 76
0.608967 0.020975 -0.269206 0 0 255
-0.456121 0.069874 -0.284378 153 0 76
0.116652 0.126780 -0.000121 127 127 0
0.599820 -0.385292 0.292138 204 51 127
0.308868 0.039417 0.049547 127 0 127
0.207953 0.126780 0.124692 127 127 0
-0.500993 -0.042114 -0.308460 153 0 76
-0.261691 0.042258 -0.044535 76 0 153
0.226733 0.104550 -0.079305 127 127 0
0.589476 0.126780 0.061839 127 127 0
-0.289152 -0.043647 -0.279117 0 127 127
-0.491347 0.080530 -0.284378 153 0 76
0.103290 0.126780 0.243296 127 127 0
0.603144 -0.614121 0.266792 204 51 127
-0.613659 0.002363 0.221785 153 76 0
-0.563756 -0.281249 0.286617 153 0 76
-0.489055 0.126780 -0.256867 127 127 0
-0.276511 -0.017271 -0.124976 0 127 127
0.308868 0.019656 -0.102504 153 0 76
0.295728 0.126780 -0.023954 127 127 0
-0.531112 0.010852 0.287994 127 127 0
-0.326179 0.126780 -0.286341 127 127 0
-0.192993 0.104550 -0.189166 127 127 0
0.160828 0.126780 0.111109 127 127 0
0.608967 0.043907 0.241319 76 0 153
-0.585008 -0.693914 -0.305755 76 0 153
0.575933 -0.184505 -0.257148 0 0 255
-0.355452 0.104550 0.256630 153 0 76
-0.070040 0.009172 -0.284378 153 0 76
0.152008 0.126780 -0.206705 127 127 0
-0.282994 0.047714 0.036278 0 127 127
0.551620 0.082321 -0.012086 204 51 127
-0.613659 -0.009117 0.110534 153 76 0
0.288120 -0.043647 -0.183820 127 0 127
-0.567651 -0.048069 -0.308460 153 0 76
-0.411829 0.055363 0.273201 127 127 0
-0.140903 0.104550 0.228488 153 0 76
0.642628 0.126780 -0.179987 127 127 0
-0.554380 0.037084 -0.279510 76 153 0
-0.187816 0.023042 0.049993 0 0 255
0.565437 0.104550 -0.055199 127 127 0
0.489215 0.104550 -0.282001 127 127 0
-0.581110 -0.729339 0.300854 153 0 76
0.587944 -0.233838 -0.301769 0 0 255
-0.440520 -0.034808 0.234947 76 0 153
-0.150472 -0.043647 -0.307040 153 0 76
-0.448673 0.126780 0.230734 127 127 0
0.256999 0.033875 0.174588 153 0 76
-0.517338 -0.013463 0.065600 153 0 76
0.165708 -0.014007 0.214010 76 0 153
0.112492 0.067021 0.308318 153 76 0
0.323295 0.016191 0.239318 76 0 153
0.290228 0.040640 -0.260739 127 0 127
0.447526 -0.006597 -0.069669 255 0 0
-0.605312 -0.514544 0.274534 153 0 76
0.154337 0.126780 -0.142033 127 127 0
0.516473 0.049325 -0.269482 0 0 255
-0.519281 0.052880 -0.284378 153 0 76
0.394947 0.040411 0.271871 76 0 153
0.097192 0.072435 -0.284378 153 0 76
-0.561790 0.011759 0.020078 76 153 0
0.542280 0.049979 0.230393 204 51 127
-0.176679 0.126780 0.189896 127 127 0
0.358094 -0.014007 -0.129302 255 0 0
0.262816 -0.024175 -0.284378 153 0 76
0.514675 0.104550 0.132113 127 127 0
0.271819 -0.010360 0.204832 76 0 153
-0.458493 0.126780 0.029533 127 127 0
-0.452828 -0.013463 -0.216746 153 0 76
0.294048 -0.004634 -0.022006 127 0 127
-0.613659 0.049994 -0.061563 153 76 0
0.608967 0.073395 0.033874 76 0 153
0.352576 0.123735 -0.312165 127 127 0
-0.121300 -0.021864 -0.284378 153 0 76
0.114285 0.126780 0.102209 127 127 0
-0.162284 0.015632 -0.043742 0 0 255
-0.298740 0.099116 0.109166 0 127 127
-0.516681 -0.013463 -0.075428 153 0 76
0.145771 0.034501 -0.284378 153 0 76
0.242944 0.104550 0.053862 127 127 0
0.608661 -0.741514 -0.278632 0 0 255
-0.613659 -0.062387 -0.289992 76 0 153
0.575623 -0.023472 0.284276 204 51 127
0.476766 -0.014007 0.173502 255 0 0
0.452280 0.104550 0.300142 127 127 0
-0.572578 -0.563377 0.292109 153 0 76
0.271819 0.079921 -0.081700 153 0 76
0.608967 0.068036 -0.036635 76 0 153
0.287788 -0.043647 0.114220 127 0 127
-0.143891 0.126780 -0.187301 127 127 0
0.425898 -0.027955 -0.308460 153 0 76
-0.530758 0.037869 -0.308460 153 0 76
-0.136181 0.104550 -0.265289 127 127 0
-0.077686 0.104550 -0.056325 127 127 0
0.153630 0.104550 0.066767 127 127 0
-0.583853 0.004572 0.139920 153 76 0
0.072047 0.082488 0.250219 153 0 76
