ply
format ascii 1.0
element vertex 1296
property float x
property float y
property float z
property uchar red
property uchar green
property uchar blue
end_header
-0.745902 -0.346171 0.043975 0 255 0
0.452811 0.478732 0.244815 0 255 0
0.420521 -0.417068 -0.378208 0 255 0
0.610889 -0.088975 0.391106 255 0 0
0.539673 -0.482859 -0.085802 0 255 0
0.840681 -0.092879 -0.014583 0 255 0
0.430257 -0.217285 -0.378208 0 255 0
0.542600 0.478728 0.213550 0 255 0
-0.482963 -0.250663 0.391106 0 127 127
-0.745902 0.081160 -0.211411 0 255 0
0.840642 -0.031415 -0.318019 0 255 0
-0.745902 0.226039 -0.181505 0 255 0
0.184232 0.478664 -0.332682 0 255 0
0.386655 -0.482877 0.026530 0 255 0
0.703952 0.478682 -0.180275 0 255 0
0.465034 -0.023627 -0.378208 0 255 0
-0.218520 0.454701 0.342695 127 0 127
0.132442 0.478703 0.000910 0 255 0
0.840642 0.039724 -0.364949 0 255 0
0.840642 0.299950 0.067087 0 255 0
0.840724 0.133898 0.385762 0 255 0
-0.448569 -0.215342 -0.378208 0 255 0
0.791559 -0.254878 -0.378208 0 255 0
0.526306 0.478742 0.377830 0 255 0
0.771366 0.066950 -0.378208 0 255 0
0.061543 0.429334 0.391106 127 0 127
-0.236240 -0.482852 0.317934 0 255 0
0.840642 -0.036668 -0.051682 0 255 0
0.840710 -0.294634 0.255089 0 255 0
0.156704 0.478720 0.283019 0 255 0
-0.745902 0.018790 0.077635 0 255 0
-0.352940 0.478685 -0.108688 0 255 0
-0.634918 -0.464686 0.331003 0 255 0
-0.745902 0.168812 0.200657 0 255 0
0.373876 -0.482869 -0.067789 0 255 0
-0.583234 0.478669 0.134275 0 255 0
-0.745763 0.461799 0.103710 0 255 0
-0.411290 0.308633 -0.378208 0 255 0
-0.445953 -0.482895 -0.263370 0 255 0
0.506851 0.027601 0.391106 0 255 0
0.152512 0.392109 -0.378208 0 255 0
-0.001205 0.205416 -0.378208 0 255 0
0.245153 -0.203381 -0.378208 0 255 0
-0.745364 -0.294530 0.343023 127 0 127
0.710620 -0.482846 -0.107290 0 255 0
0.712748 0.165177 0.391106 0 255 0
-0.745902 -0.264967 0.249424 0 255 0
0.346466 -0.482885 0.086171 0 255 0
0.808032 -0.073012 0.391106 0 255 0
-0.312652 0.370302 -0.378208 0 255 0
0.527978 -0.482839 -0.303236 0 255 0
-0.745902 -0.219845 0.114041 0 255 0
0.197638 -0.185987 0.391106 0 127 127
0.617296 0.478717 0.185505 0 255 0
0.621096 0.431140 -0.378208 0 255 0
0.480109 -0.391591 0.356354 0 255 0
-0.745902 0.457497 0.055185 0 255 0
0.545079 -0.482876 0.105667 0 255 0
0.271458 0.478666 -0.317559 0 255 0
0.013017 -0.482864 -0.327559 0 255 0
-0.591870 0.109837 0.391106 0 127 127
0.520826 -0.269080 0.391106 0 255 0
-0.025870 -0.482873 0.265281 0 255 0
0.391667 0.162274 0.391106 127 0 127
0.463843 0.356249 -0.378208 0 255 0
-0.224118 0.191057 0.391106 0 127 127
0.083280 0.054906 0.391106 0 127 127
-0.508961 0.478674 -0.201384 0 255 0
0.392684 -0.344934 0.391106 127 0 127
0.154211 0.478681 -0.193943 0 255 0
-0.745902 -0.303725 -0.018906 0 255 0
0.391779 0.385472 0.391106 127 0 127
-0.034817 0.478707 0.198142 0 255 0
-0.464329 0.478677 0.084604 0 255 0
-0.745902 0.343126 -0.274817 0 255 0
-0.212176 -0.482866 0.207371 0 255 0
-0.745902 -0.348708 -0.352775 0 255 0
-0.707663 0.478660 -0.017287 0 255 0
-0.095844 -0.482887 -0.139458 0 255 0
-0.520710 -0.243206 -0.378208 0 255 0
0.840659 -0.426187 -0.224311 0 255 0
0.273496 -0.233188 0.391106 0 127 127
0.075854 0.454701 0.340295 127 0 127
-0.330661 0.212526 0.391106 0 127 127
-0.745902 -0.278331 -0.312132 0 255 0
0.569011 -0.187907 -0.378208 0 255 0
0.795005 0.368676 -0.378208 0 255 0
0.397298 0.351469 -0.378208 0 255 0
-0.371983 0.478683 0.044317 0 255 0
0.734819 0.156161 -0.378208 0 255 0
-0.239439 0.087369 -0.378208 0 255 0
0.380248 -0.206455 0.391106 127 0 127
0.152970 0.478675 -0.243601 0 255 0
0.447287 0.053813 -0.378208 0 255 0
-0.062711 -0.482880 0.180883 0 255 0
-0.632155 0.478666 0.301076 0 255 0
-0.161998 0.313176 0.391106 0 127 127
0.840642 0.092433 0.011714 0 255 0
0.297398 0.017586 0.391106 0 127 127
0.840642 0.188748 0.084526 0 255 0
-0.437522 -0.482885 -0.090243 0 255 0
-0.446669 -0.482857 0.152003 0 255 0
-0.475652 -0.056625 -0.378208 0 255 0
-0.391919 -0.213010 0.391106 0 127 127
-0.307796 -0.406438 -0.378208 0 255 0
0.840642 0.377900 -0.158670 0 255 0
-0.745902 -0.206224 -0.095610 0 255 0
-0.012541 -0.090194 -0.378208 0 255 0
0.840642 0.096886 -0.235429 0 255 0
-0.489428 -0.383420 0.391106 127 0 127
-0.189582 -0.482900 0.388936 127 0 127
0.431530 0.478671 -0.278295 0 255 0
0.362052 -0.435568 0.391106 127 0 127
-0.627502 -0.482868 -0.057064 0 255 0
-0.572598 -0.482854 0.098683 0 255 0
-0.745902 0.147310 -0.124577 0 255 0
-0.745902 -0.430925 0.166730 0 255 0
-0.071701 0.478679 -0.210648 0 255 0
-0.008757 -0.482876 -0.216413 0 255 0
0.246806 -0.482881 -0.016715 0 255 0
-0.216825 -0.265560 0.391106 0 127 127
-0.745902 -0.054463 -0.165951 0 255 0
0.207732 0.253797 -0.378208 0 255 0
0.840642 0.345786 0.215261 0 255 0
-0.238878 -0.482877 -0.334206 0 255 0
-0.609927 0.360871 0.391106 127 0 127
-0.600508 0.183049 -0.378208 0 255 0
-0.056520 0.478705 0.129865 0 255 0
0.840722 -0.159529 0.363974 0 255 0
-0.088373 -0.218923 0.391106 0 127 127
0.154099 -0.356930 -0.378208 0 255 0
-0.083542 0.145870 0.391106 0 127 127
0.421225 -0.482845 -0.309028 0 255 0
-0.721943 -0.097891 0.338185 127 0 127
0.002781 -0.317245 0.391106 127 0 127
0.604779 -0.482839 -0.263022 0 255 0
0.177850 -0.482888 0.023304 0 255 0
0.691738 0.039355 -0.378208 0 255 0
-0.125941 -0.086213 0.391106 0 127 127
0.353608 -0.482852 -0.269702 0 255 0
-0.745902 0.087641 0.237170 0 255 0
-0.594298 0.460481 -0.378208 0 255 0
0.016342 -0.467815 0.331003 0 255 0
0.320235 0.442105 0.391106 127 0 127
0.548614 0.102386 -0.378208 0 255 0
-0.366875 -0.304863 -0.378208 0 255 0
0.840642 0.230791 -0.219925 0 255 0
-0.228706 -0.482899 -0.092894 0 255 0
-0.572177 -0.078210 -0.378208 0 255 0
-0.527162 -0.174393 -0.378208 0 255 0
0.056482 -0.360621 -0.378208 0 255 0
0.270608 0.459038 0.343023 127 0 127
-0.190411 -0.290178 -0.378208 0 255 0
-0.367677 0.478684 0.281040 0 255 0
-0.745902 -0.078157 0.229418 0 255 0
-0.745902 -0.247517 0.378572 127 0 127
0.079415 -0.482894 0.144790 0 255 0
0.803704 0.021686 0.391106 0 255 0
0.480109 0.157096 0.376024 0 255 0
0.247394 -0.482899 0.203189 0 255 0
-0.308052 -0.173556 -0.378208 0 255 0
-0.306099 -0.482852 0.276906 0 255 0
-0.745902 -0.268643 -0.060383 0 255 0
0.840702 -0.418360 0.178189 0 255 0
-0.464207 -0.041684 0.391106 0 127 127
-0.418726 0.159052 0.391106 0 127 127
0.840642 0.435487 -0.145861 0 255 0
0.468089 -0.203534 0.368545 127 0 127
0.338259 -0.353543 -0.378208 0 255 0
0.285689 -0.325658 0.391106 127 0 127
0.478904 -0.462579 -0.378208 0 255 0
-0.574982 -0.482835 0.263163 0 255 0
-0.728097 0.140301 0.343023 127 0 127
-0.558298 0.196893 0.391106 0 127 127
-0.745902 0.049737 -0.325225 0 255 0
0.840642 0.045964 -0.161138 0 255 0
-0.301910 -0.312962 -0.378208 0 255 0
-0.636547 -0.355813 0.391106 127 0 127
0.324447 0.152740 -0.378208 0 255 0
-0.086892 0.468804 -0.378208 0 255 0
-0.206520 -0.482881 -0.271413 0 255 0
0.505033 -0.482868 -0.002993 0 255 0
0.005595 0.115462 0.391106 0 127 127
0.804507 0.478679 -0.075198 0 255 0
-0.157237 0.478690 -0.109625 0 255 0
0.840642 0.264884 0.149442 0 255 0
0.480109 0.221056 0.355141 0 255 0
0.815617 -0.422841 0.391106 0 255 0
-0.425852 0.034184 0.391106 0 127 127
0.123543 0.478689 -0.122475 0 255 0
0.840688 -0.140234 0.044854 0 255 0
0.787263 -0.186338 -0.378208 0 255 0
0.621268 0.478678 -0.216405 0 255 0
0.138731 -0.098445 -0.378208 0 255 0
-0.424277 -0.482897 -0.220577 0 255 0
0.703906 -0.122987 -0.378208 0 255 0
-0.224235 0.478694 0.049069 0 255 0
0.692979 0.110668 -0.378208 0 255 0
0.442789 0.449069 0.391106 127 0 127
0.505400 -0.482896 0.351641 0 255 0
-0.268761 0.478691 0.121418 0 255 0
-0.528336 0.440265 -0.378208 0 255 0
0.789053 -0.482836 -0.200224 0 255 0
0.480109 -0.026009 0.361137 0 255 0
0.050136 -0.278674 0.391106 0 127 127
0.192010 -0.445963 -0.378208 0 255 0
0.140507 -0.453223 -0.378208 0 255 0
-0.069439 0.478669 -0.294624 0 255 0
0.840705 -0.253606 0.202385 0 255 0
0.312496 0.332007 -0.378208 0 255 0
0.436945 0.147122 -0.378208 0 255 0
-0.190752 0.075337 -0.378208 0 255 0
-0.455668 0.478678 -0.004442 0 255 0
0.492050 -0.360844 0.391106 0 255 0
0.245945 0.437991 -0.378208 0 255 0
0.840692 0.035222 0.083948 0 255 0
-0.661624 0.082671 0.391106 127 0 127
0.840081 -0.281263 -0.378208 0 255 0
0.840725 0.341985 0.388176 0 255 0
-0.357069 0.366935 0.391106 127 0 127
-0.493525 -0.482840 0.261781 0 255 0
0.734160 -0.482876 0.165502 0 255 0
-0.176031 -0.223288 -0.378208 0 255 0
0.007625 0.251733 -0.378208 0 255 0
-0.741936 0.470439 0.257546 0 255 0
-0.469084 0.370067 -0.378208 0 255 0
0.672288 -0.482854 -0.042312 0 255 0
-0.214462 0.191700 -0.378208 0 255 0
-0.566915 -0.458859 0.340111 127 0 127
-0.492046 -0.084638 0.391106 0 127 127
-0.590319 -0.482843 0.185391 0 255 0
-0.065454 -0.482872 -0.290659 0 255 0
0.648841 0.075630 0.391106 0 255 0
-0.431342 0.454701 0.341511 127 0 127
-0.618813 -0.305935 -0.378208 0 255 0
0.122793 0.036249 0.391106 0 127 127
0.829805 -0.480518 0.321750 0 255 0
0.840713 -0.255519 0.284215 0 255 0
0.106055 0.473043 -0.378208 0 255 0
0.840712 -0.202495 0.270754 0 255 0
-0.504606 0.478674 0.182378 0 255 0
-0.724150 -0.482877 -0.189608 0 255 0
-0.366056 0.283152 0.391106 0 127 127
0.661155 0.478731 0.347914 0 255 0
-0.309763 -0.482877 0.057477 0 255 0
0.095805 0.478667 -0.313577 0 255 0
-0.130607 0.478699 -0.039243 0 255 0
0.684523 -0.233719 -0.378208 0 255 0
-0.745902 0.348517 -0.227118 0 255 0
0.009386 -0.482869 -0.283998 0 255 0
-0.745902 -0.042577 -0.108492 0 255 0
-0.655336 0.177337 0.391106 127 0 127
0.385309 -0.218127 -0.378208 0 255 0
0.359450 0.220271 0.391106 0 127 127
0.643122 -0.482877 0.180125 0 255 0
-0.745902 -0.406574 -0.133740 0 255 0
-0.443897 -0.482876 -0.009880 0 255 0
-0.346848 0.265080 -0.378208 0 255 0
0.391387 -0.482898 0.296943 0 255 0
0.361915 0.478670 -0.283199 0 255 0
-0.440357 0.478679 0.169108 0 255 0
-0.744708 -0.218022 0.343023 127 0 127
0.840673 -0.383373 -0.092299 0 255 0
0.530599 0.192716 0.391106 0 255 0
0.092449 -0.482860 -0.326685 0 255 0
-0.648145 0.478665 0.248183 0 255 0
0.463486 -0.293163 -0.378208 0 255 0
-0.515580 -0.482845 0.205581 0 255 0
0.619207 0.478711 0.088721 0 255 0
-0.201344 -0.124862 -0.378208 0 255 0
0.840717 0.227507 0.319868 0 255 0
0.676345 -0.391210 0.391106 0 255 0
-0.491000 0.092258 0.391106 0 127 127
0.597705 0.016831 -0.378208 0 255 0
-0.002367 0.189139 0.391106 0 127 127
0.738151 0.478684 -0.127392 0 255 0
-0.491874 0.079314 -0.378208 0 255 0
0.783458 -0.482854 -0.035799 0 255 0
-0.028090 0.435808 -0.378208 0 255 0
-0.529222 0.001004 0.391106 0 127 127
-0.545954 0.340802 -0.378208 0 255 0
0.006110 -0.376128 -0.378208 0 255 0
0.468089 0.292192 0.360888 127 0 127
0.397154 -0.119139 -0.378208 0 255 0
0.343616 0.307440 0.391106 0 127 127
0.284504 0.478729 0.224875 0 255 0
-0.361017 0.478684 -0.013531 0 255 0
0.840677 -0.339628 -0.056200 0 255 0
0.839487 -0.469440 0.083046 0 255 0
-0.065837 -0.016603 -0.378208 0 255 0
-0.745902 0.189468 0.105721 0 255 0
0.449560 0.478701 -0.017049 0 255 0
0.840642 0.307508 -0.116397 0 255 0
-0.745902 0.298081 -0.291639 0 255 0
0.840664 -0.462783 -0.174341 0 255 0
0.840642 0.438377 0.344595 0 255 0
0.840715 -0.349277 0.299168 0 255 0
0.273236 -0.026169 0.391106 0 127 127
0.819190 0.478672 -0.169110 0 255 0
0.573182 0.478671 -0.275944 0 255 0
0.051785 0.478679 -0.203486 0 255 0
-0.664859 -0.346396 -0.378208 0 255 0
-0.258090 0.434849 -0.378208 0 255 0
0.461581 -0.096998 0.391106 127 0 127
0.840683 0.380951 0.346921 0 255 0
-0.301223 0.440763 0.391106 127 0 127
-0.558738 0.241718 -0.378208 0 255 0
0.340135 0.082322 0.391106 0 127 127
-0.070277 -0.006421 0.391106 0 127 127
0.840642 -0.211017 -0.210845 0 255 0
0.526121 0.330670 -0.378208 0 255 0
0.059029 0.365887 -0.378208 0 255 0
0.840642 0.367669 0.068146 0 255 0
0.840675 -0.226238 -0.069496 0 255 0
0.840642 0.211935 -0.015975 0 255 0
-0.163149 0.464083 0.391106 127 0 127
-0.322638 0.092889 -0.378208 0 255 0
-0.553426 -0.039206 0.391106 0 127 127
0.020863 0.013709 -0.378208 0 255 0
-0.052477 -0.074724 0.391106 0 127 127
-0.009433 0.267489 0.391106 0 127 127
0.840703 -0.124019 0.186079 0 255 0
0.187720 -0.294920 -0.378208 0 255 0
0.311038 0.478706 0.019208 0 255 0
-0.745902 -0.278988 0.120024 0 255 0
0.230979 -0.124038 -0.378208 0 255 0
-0.717840 -0.482895 -0.342085 0 255 0
0.464442 0.031567 0.391106 127 0 127
0.597974 0.054489 0.391106 153 76 0
-0.611605 0.478667 -0.256478 0 255 0
0.678746 0.478709 0.188453 0 255 0
0.838678 -0.471360 0.259053 0 255 0
-0.216633 -0.323847 -0.378208 0 255 0
0.201947 0.478703 -0.005679 0 255 0
0.335197 -0.482891 0.343159 127 0 127
-0.726571 0.478659 -0.339976 0 255 0
0.542980 0.478712 0.072061 0 255 0
-0.705348 -0.482832 0.204489 0 255 0
0.618885 0.478740 0.353151 0 255 0
0.840642 -0.073811 -0.132365 0 255 0
-0.745902 0.103303 0.091419 0 255 0
0.134906 -0.482892 0.048101 0 255 0
0.543935 -0.378319 0.391106 0 255 0
-0.020094 -0.482863 -0.359776 0 255 0
-0.463821 -0.482887 -0.355593 0 255 0
0.698198 0.478699 0.041766 0 255 0
-0.735644 -0.480159 0.278605 0 255 0
-0.606102 -0.473285 0.391106 127 0 127
-0.120068 -0.132096 0.391106 0 127 127
0.768431 0.478698 0.179188 0 255 0
0.027374 -0.422314 0.391106 127 0 127
-0.727781 -0.163760 0.391106 127 0 127
0.645334 -0.261392 -0.378208 0 255 0
0.840642 0.143082 -0.057767 0 255 0
-0.745902 0.401496 0.217112 0 255 0
-0.574586 -0.482893 -0.234252 0 255 0
0.840642 -0.165480 -0.271028 0 255 0
0.782637 -0.135670 -0.378208 0 255 0
0.840642 0.245503 -0.354440 0 255 0
0.275743 -0.482860 -0.221327 0 255 0
-0.745902 -0.166828 0.151608 0 255 0
-0.741856 -0.474692 0.148119 0 255 0
-0.745902 0.184883 -0.344027 0 255 0
-0.486717 0.478676 -0.086071 0 255 0
0.105060 -0.482887 -0.030936 0 255 0
0.216527 0.478724 0.288031 0 255 0
-0.166075 -0.098297 -0.378208 0 255 0
-0.287205 0.241883 0.391106 0 127 127
-0.588183 0.478681 0.355580 127 0 127
-0.062364 -0.482873 0.239262 0 255 0
-0.290860 -0.116033 -0.378208 0 255 0
0.387511 -0.147996 0.391106 127 0 127
0.148913 -0.482897 0.102867 0 255 0
-0.364286 0.430275 0.391106 127 0 127
-0.686173 -0.479492 0.391106 127 0 127
0.480109 0.113128 0.378134 0 255 0
-0.516916 0.294290 -0.378208 0 255 0
0.013205 0.478665 -0.325929 0 255 0
-0.185309 -0.385063 -0.378208 0 255 0
-0.372016 0.110255 0.391106 0 127 127
0.840690 -0.039275 0.067571 0 255 0
-0.745902 -0.138629 0.018583 0 255 0
-0.737047 0.475134 0.353528 127 0 127
0.225495 0.478725 0.371334 127 0 127
0.181665 0.196585 -0.378208 0 255 0
0.213652 0.296466 0.391106 0 127 127
-0.745902 -0.115693 0.248231 0 255 0
0.834575 -0.078649 -0.378208 0 255 0
0.210859 0.478673 -0.255009 0 255 0
-0.712668 0.478660 -0.091201 0 255 0
-0.745902 0.011730 -0.215136 0 255 0
-0.745902 -0.439519 0.373947 127 0 127
-0.569062 -0.172420 -0.378208 0 255 0
-0.105536 -0.482869 0.249812 0 255 0
-0.144039 -0.482870 0.214184 0 255 0
-0.151289 0.478679 -0.205199 0 255 0
-0.275082 0.478678 -0.218868 0 255 0
0.536661 -0.048045 -0.378208 0 255 0
-0.745902 0.303624 0.289765 0 255 0
0.590567 0.478696 -0.062633 0 255 0
0.375340 0.478714 0.091307 0 255 0
0.434804 -0.161835 -0.378208 0 255 0
0.722502 0.431321 -0.378208 0 255 0
-0.148293 -0.482897 -0.061637 0 255 0
-0.428974 -0.482852 0.204106 0 255 0
0.362006 0.478704 0.007098 0 255 0
-0.706683 -0.128600 -0.378208 0 255 0
-0.428239 -0.482839 0.310126 0 255 0
0.669555 -0.482839 -0.228075 0 255 0
-0.307098 -0.102444 0.391106 0 127 127
-0.745902 -0.456640 -0.034760 0 255 0
-0.451616 -0.482866 0.071821 0 255 0
0.685170 0.478696 -0.026003 0 255 0
-0.304693 0.478688 0.054336 0 255 0
0.726610 0.074082 -0.378208 0 255 0
0.574836 0.266011 0.391106 76 153 0
-0.342237 -0.235251 0.391106 0 127 127
0.360776 0.454701 0.342852 127 0 127
-0.745902 -0.376807 -0.040804 0 255 0
-0.010686 -0.482883 -0.133913 0 255 0
0.467350 -0.482858 -0.133713 0 255 0
-0.278377 0.284327 -0.378208 0 255 0
0.228476 0.478664 -0.339229 0 255 0
-0.235811 -0.482860 0.244904 0 255 0
-0.032860 -0.482900 0.382245 127 0 127
-0.284831 0.478689 0.235103 0 255 0
-0.103459 0.274563 0.391106 0 127 127
-0.042219 0.191888 -0.378208 0 255 0
-0.536808 0.478668 -0.304648 0 255 0
0.336621 0.478694 -0.077898 0 255 0
0.514720 -0.482892 0.264069 0 255 0
0.243483 0.105371 0.391106 0 127 127
-0.098657 -0.482868 -0.349737 0 255 0
-0.194401 -0.014282 -0.378208 0 255 0
0.840697 -0.396708 0.127490 0 255 0
0.011270 -0.482878 0.243580 0 255 0
-0.555977 -0.351039 -0.378208 0 255 0
-0.703384 -0.245500 0.391106 127 0 127
0.784989 -0.345401 -0.378208 0 255 0
-0.745902 -0.147901 -0.021938 0 255 0
-0.179049 -0.460356 -0.378208 0 255 0
-0.554269 0.008219 -0.378208 0 255 0
-0.528825 -0.283738 -0.378208 0 255 0
0.840706 -0.463035 0.211365 0 255 0
0.840642 0.414074 0.158818 0 255 0
-0.115071 -0.013067 -0.378208 0 255 0
-0.165460 0.447984 -0.378208 0 255 0
0.393256 -0.003356 -0.378208 0 255 0
0.675560 -0.482869 0.105221 0 255 0
-0.268854 0.478691 0.278630 0 255 0
0.574767 -0.482859 -0.061210 0 255 0
0.766175 0.478702 0.246537 0 255 0
-0.113182 -0.303926 0.391106 0 127 127
0.796111 -0.051098 -0.378208 0 255 0
-0.156013 -0.482857 0.350999 127 0 127
0.642867 -0.482829 -0.350997 0 255 0
0.294785 -0.482900 0.381508 127 0 127
0.840697 -0.200073 0.129837 0 255 0
-0.527358 0.400951 0.391106 127 0 127
0.052513 0.478713 0.220340 0 255 0
-0.465215 0.322504 -0.378208 0 255 0
-0.739243 0.255163 0.331003 0 255 0
0.077218 0.478675 -0.245258 0 255 0
0.145963 -0.482863 -0.265720 0 255 0
-0.519895 0.059126 0.391106 0 127 127
-0.745902 0.119229 0.283364 0 255 0
-0.745902 -0.043605 -0.295491 0 255 0
0.274702 -0.482883 0.022747 0 255 0
0.840694 -0.054833 0.107469 0 255 0
0.274709 -0.482853 -0.300450 0 255 0
0.771644 -0.482868 0.093261 0 255 0
0.489761 -0.482863 -0.073495 0 255 0
0.291494 -0.384922 -0.378208 0 255 0
0.840642 0.307179 -0.272506 0 255 0
0.176811 -0.417463 0.391106 127 0 127
-0.149409 0.164316 0.391106 0 127 127
-0.721943 -0.012280 0.338575 127 0 127
0.669688 -0.082823 -0.378208 0 255 0
-0.225887 -0.195710 -0.378208 0 255 0
0.624872 -0.463705 0.391106 0 255 0
-0.745902 0.162194 -0.001624 0 255 0
0.111270 -0.482887 0.224209 0 255 0
0.423521 0.478719 0.133610 0 255 0
0.193207 0.004025 0.391106 0 127 127
-0.134361 -0.482890 0.051319 0 255 0
-0.430557 0.230831 -0.378208 0 255 0
0.840703 0.077387 0.187625 0 255 0
0.840688 0.188270 0.189510 0 255 0
-0.097265 0.113235 -0.378208 0 255 0
0.713722 -0.386902 -0.378208 0 255 0
-0.503547 -0.155707 0.391106 0 127 127
0.011323 0.478679 -0.209438 0 255 0
0.840721 -0.413292 0.350772 0 255 0
-0.745194 0.277305 -0.378208 0 255 0
-0.015593 0.478693 -0.090917 0 255 0
0.248418 0.110399 -0.378208 0 255 0
0.840706 -0.377491 0.216286 0 255 0
-0.745902 0.355287 0.070800 0 255 0
-0.248630 0.322431 0.391106 0 127 127
-0.172659 -0.430591 0.391106 127 0 127
-0.745902 -0.123232 0.157321 0 255 0
0.718289 -0.375599 0.391106 0 255 0
-0.533988 -0.228342 0.391106 0 127 127
0.122840 0.478717 0.173170 0 255 0
-0.397289 -0.205741 -0.378208 0 255 0
-0.179462 0.478697 0.034224 0 255 0
-0.600042 -0.482864 -0.002712 0 255 0
-0.745902 -0.057057 0.104500 0 255 0
0.303618 -0.060362 0.391106 0 127 127
-0.344306 -0.388381 -0.378208 0 255 0
0.683288 -0.117052 0.391106 76 0 153
0.113203 0.478709 0.051275 0 255 0
0.071557 -0.482876 0.296390 0 255 0
-0.745902 -0.259620 -0.268943 0 255 0
-0.039444 0.409692 0.391106 127 0 127
0.840642 0.204791 -0.159408 0 255 0
-0.000761 0.065114 -0.378208 0 255 0
0.434248 -0.482882 0.107236 0 255 0
0.840642 0.426676 -0.348804 0 255 0
0.372811 -0.482861 -0.155898 0 255 0
-0.252442 0.057591 0.391106 0 127 127
-0.514769 -0.088566 -0.378208 0 255 0
0.615027 0.215029 0.391106 0 255 0
0.182749 0.478695 -0.070529 0 255 0
-0.567136 0.478670 -0.044186 0 255 0
-0.352539 0.478681 -0.189510 0 255 0
0.244289 0.478726 0.237811 0 255 0
-0.262019 -0.094737 0.391106 0 127 127
0.518464 0.478723 0.168990 0 255 0
0.840642 0.217251 0.124916 0 255 0
0.501813 -0.216331 -0.378208 0 255 0
-0.120208 -0.163329 -0.378208 0 255 0
-0.389229 0.368070 -0.378208 0 255 0
-0.502500 0.456088 0.331003 0 255 0
-0.745902 0.120665 -0.186974 0 255 0
-0.293920 0.478660 -0.372483 0 255 0
0.554983 -0.332713 0.391106 0 255 0
0.342976 0.357830 0.391106 127 0 127
0.303080 -0.482874 -0.054339 0 255 0
-0.416567 0.478680 0.274595 0 255 0
0.451562 -0.482855 -0.173463 0 255 0
0.840642 -0.059416 -0.170072 0 255 0
0.840700 -0.091437 0.155761 0 255 0
-0.061654 0.334796 0.391106 127 0 127
0.455587 0.478678 -0.216014 0 255 0
0.393760 0.203346 -0.378208 0 255 0
-0.745902 0.250774 0.211728 0 255 0
-0.080248 0.478736 0.387767 127 0 127
-0.002319 0.308927 0.391106 0 127 127
-0.360383 0.053896 0.391106 0 127 127
-0.745902 -0.429675 -0.364969 0 255 0
-0.432062 -0.321315 0.391106 127 0 127
0.052854 -0.482860 -0.356035 0 255 0
0.840642 -0.127631 -0.196409 0 255 0
-0.306132 -0.482858 0.225963 0 255 0
0.495279 0.478663 -0.340649 0 255 0
-0.426263 -0.130208 -0.378208 0 255 0
-0.745902 -0.434375 0.082960 0 255 0
-0.745902 -0.440273 0.020405 0 255 0
-0.745902 0.254285 -0.342230 0 255 0
0.138817 -0.482900 0.367556 127 0 127
0.644862 -0.482837 -0.260557 0 255 0
-0.373532 -0.172410 -0.378208 0 255 0
0.046767 -0.482881 -0.128125 0 255 0
-0.439974 0.311911 0.391106 0 127 127
-0.297969 -0.482896 -0.095807 0 255 0
0.758396 0.280272 0.391106 0 255 0
0.637366 0.478691 -0.102229 0 255 0
0.087594 0.104893 0.391106 0 127 127
-0.562177 0.478670 -0.158085 0 255 0
0.693689 0.357789 0.391106 76 153 0
0.660600 0.001719 0.391106 0 127 127
-0.422417 -0.482838 0.373356 127 0 127
-0.562302 -0.482884 -0.152753 0 255 0
-0.365224 -0.482884 -0.332326 0 255 0
0.806180 -0.405276 -0.378208 0 255 0
0.801656 -0.482888 0.276064 0 255 0
0.611549 0.096692 -0.378208 0 255 0
0.330073 0.478685 -0.154663 0 255 0
-0.745902 0.105866 0.201513 0 255 0
-0.703508 0.309674 0.391106 127 0 127
0.641146 0.241123 -0.378208 0 255 0
0.593512 -0.242353 -0.378208 0 255 0
0.840681 -0.191044 -0.019583 0 255 0
-0.523454 -0.467599 0.391106 127 0 127
-0.745902 -0.183837 -0.373874 0 255 0
0.353771 -0.298438 0.391106 0 127 127
0.053708 0.478697 -0.053538 0 255 0
-0.637915 0.478741 0.390532 127 0 127
0.074543 0.100739 -0.378208 0 255 0
-0.697436 -0.474171 -0.378208 0 255 0
0.840642 0.263934 0.201521 0 255 0
0.840642 -0.099717 -0.275427 0 255 0
0.164783 0.478719 0.135997 0 255 0
-0.300708 -0.431015 0.391106 127 0 127
0.580184 0.422627 0.391106 0 255 0
0.279952 -0.021187 -0.378208 0 255 0
-0.708724 -0.366593 0.391106 127 0 127
0.840705 0.034259 0.202004 0 255 0
-0.544867 0.478672 0.081831 0 255 0
-0.228979 0.478693 -0.046414 0 255 0
0.838304 -0.472043 -0.090502 0 255 0
-0.514970 0.360027 0.391106 127 0 127
-0.671430 -0.482832 0.229961 0 255 0
-0.478266 0.478669 -0.293492 0 255 0
-0.069624 0.264310 -0.378208 0 255 0
0.325492 -0.010774 -0.378208 0 255 0
-0.606154 -0.019550 0.391106 0 127 127
0.184408 0.455060 0.343023 127 0 127
0.729191 0.330917 -0.378208 0 255 0
0.840642 0.000772 -0.347480 0 255 0
0.827320 -0.480745 -0.378208 0 255 0
0.495022 0.102613 -0.378208 0 255 0
-0.638217 0.362195 -0.378208 0 255 0
0.840687 -0.193811 0.042395 0 255 0
-0.126546 0.236372 0.391106 0 127 127
0.282095 0.478700 -0.032002 0 255 0
0.294114 -0.462893 -0.378208 0 255 0
-0.137528 -0.341033 -0.378208 0 255 0
-0.109020 0.002420 0.391106 0 127 127
0.049929 -0.444507 -0.378208 0 255 0
0.130553 -0.192873 -0.378208 0 255 0
-0.745902 -0.303646 0.240428 0 255 0
-0.224714 0.113852 0.391106 0 127 127
-0.612297 0.478667 -0.174829 0 255 0
0.667896 -0.482857 -0.002733 0 255 0
0.548951 0.396391 0.391106 0 255 0
0.325938 0.119373 0.391106 0 127 127
-0.745902 -0.013072 -0.167425 0 255 0
0.803731 0.320709 -0.378208 0 255 0
-0.589724 -0.250093 -0.378208 0 255 0
0.840682 -0.397585 -0.008596 0 255 0
0.422198 0.360031 0.391106 127 0 127
0.493370 -0.482874 0.054881 0 255 0
0.411176 0.427220 -0.378208 0 255 0
-0.483457 -0.482873 -0.012432 0 255 0
0.769082 -0.105592 0.391106 0 255 0
-0.745902 0.189120 -0.289829 0 255 0
-0.394396 -0.100173 0.391106 0 127 127
-0.685202 0.097622 -0.378208 0 255 0
-0.058773 -0.433097 -0.378208 0 255 0
0.840708 0.222840 0.237156 0 255 0
0.159051 0.163460 0.391106 0 127 127
0.468405 0.396161 -0.378208 0 255 0
-0.745902 -0.183225 0.285600 0 255 0
-0.549322 0.136475 0.391106 0 127 127
-0.745902 0.016852 0.207708 0 255 0
-0.745902 0.423734 -0.056975 0 255 0
-0.745902 0.185229 0.272645 0 255 0
0.042937 -0.283831 -0.378208 0 255 0
0.539429 0.478682 -0.182730 0 255 0
0.337870 -0.482879 0.021270 0 255 0
-0.034174 -0.289707 0.391106 0 127 127
0.188745 -0.482881 0.353717 127 0 127
-0.055463 0.348357 -0.378208 0 255 0
0.075222 0.161020 0.391106 0 127 127
0.370705 0.478727 0.203940 0 255 0
0.840690 -0.416348 0.063612 0 255 0
0.645739 -0.023647 -0.378208 0 255 0
0.115744 -0.313599 -0.378208 0 255 0
-0.745902 -0.350557 0.131903 0 255 0
-0.528913 -0.070745 0.391106 0 127 127
0.707313 0.478742 0.371459 0 255 0
-0.399393 0.353073 0.391106 127 0 127
0.429042 -0.482861 -0.124692 0 255 0
-0.356403 -0.482895 -0.210877 0 255 0
-0.319578 0.147960 -0.378208 0 255 0
-0.175648 -0.035332 0.391106 0 127 127
-0.600836 0.478668 -0.000791 0 255 0
-0.534144 0.478672 -0.232291 0 255 0
-0.078972 -0.429672 0.391106 127 0 127
0.446506 0.285274 -0.378208 0 255 0
-0.745902 -0.014688 0.173444 0 255 0
-0.745902 -0.416999 -0.221260 0 255 0
0.540408 -0.482884 0.193563 0 255 0
-0.643349 -0.445334 0.391106 127 0 127
-0.745902 0.402335 -0.301330 0 255 0
-0.037374 -0.482897 0.045870 0 255 0
-0.145395 0.478666 -0.322297 0 255 0
-0.466894 -0.177027 0.391106 0 127 127
0.294201 0.478729 0.318630 0 255 0
-0.391461 0.007838 0.391106 0 127 127
0.317874 0.208538 0.391106 0 127 127
0.558077 0.478691 -0.103711 0 255 0
-0.684939 -0.032760 0.391106 127 0 127
0.797246 0.206859 -0.378208 0 255 0
-0.745902 0.381618 0.306760 0 255 0
-0.694032 -0.482857 0.002699 0 255 0
-0.166920 0.106422 -0.378208 0 255 0
-0.638272 -0.482897 -0.349605 0 255 0
0.840724 0.177787 0.377660 0 255 0
-0.253162 0.015794 0.391106 0 127 127
-0.745227 -0.468106 0.229207 0 255 0
0.236667 0.381511 -0.378208 0 255 0
0.251261 0.028195 -0.378208 0 255 0
0.406444 0.478735 0.269686 0 255 0
0.132954 -0.287160 0.391106 0 127 127
0.634959 -0.119780 0.391106 153 76 0
-0.337290 0.439720 -0.378208 0 255 0
0.779548 -0.443292 0.391106 0 255 0
0.728677 -0.284188 0.391106 153 0 76
0.168006 0.274197 -0.378208 0 255 0
0.840642 0.063973 -0.025513 0 255 0
0.723456 -0.482855 -0.023440 0 255 0
0.317297 0.478679 -0.203828 0 255 0
0.055482 0.257096 0.391106 0 127 127
-0.439085 -0.271545 -0.378208 0 255 0
-0.115585 -0.482877 -0.269322 0 255 0
-0.054942 0.478705 0.293800 0 255 0
-0.701398 -0.482822 0.297058 0 255 0
0.210336 -0.482889 0.058334 0 255 0
0.153716 0.000728 0.391106 0 127 127
-0.313643 0.001264 0.391106 0 127 127
-0.188323 -0.118823 0.391106 0 127 127
0.834004 0.473340 -0.018273 0 255 0
-0.745902 -0.339691 -0.269955 0 255 0
0.767704 -0.482844 -0.131558 0 255 0
0.388873 -0.063356 -0.378208 0 255 0
0.224448 0.327789 -0.378208 0 255 0
0.357667 -0.366853 0.391106 127 0 127
-0.207671 0.478695 0.172533 0 255 0
-0.676883 0.478663 0.164173 0 255 0
-0.294652 0.478684 -0.163438 0 255 0
0.840677 -0.421535 -0.054599 0 255 0
0.840655 -0.462118 -0.260851 0 255 0
-0.251645 0.478687 -0.138698 0 255 0
0.197678 0.478689 -0.125818 0 255 0
0.745035 0.478662 -0.349674 0 255 0
-0.174812 0.037589 0.391106 0 127 127
0.694274 0.296654 -0.378208 0 255 0
0.840685 -0.081834 0.022665 0 255 0
0.253259 0.478689 -0.121460 0 255 0
-0.307905 0.478688 -0.091689 0 255 0
0.733765 -0.027609 0.391106 76 153 0
0.840642 0.295006 0.013265 0 255 0
0.500091 0.478676 -0.229165 0 255 0
-0.339606 0.337524 -0.378208 0 255 0
-0.683235 -0.380752 -0.378208 0 255 0
0.550459 -0.029439 0.391106 0 255 0
-0.339663 0.173669 0.391106 0 127 127
0.840642 -0.297371 -0.296963 0 255 0
-0.015385 0.478704 0.004785 0 255 0
-0.543051 -0.482865 0.020706 0 255 0
-0.113081 0.478680 -0.198799 0 255 0
0.804079 0.123182 -0.378208 0 255 0
-0.721943 -0.136616 0.337374 127 0 127
0.559309 0.478701 -0.021096 0 255 0
0.675550 0.478671 -0.273333 0 255 0
0.019325 0.441134 0.391106 127 0 127
-0.512203 -0.482895 -0.216631 0 255 0
-0.607178 0.247517 -0.378208 0 255 0
0.737550 -0.482830 -0.282928 0 255 0
0.194845 0.413020 -0.378208 0 255 0
0.840663 -0.333203 -0.186486 0 255 0
0.743288 0.478709 0.317703 0 255 0
0.020022 -0.482891 -0.037351 0 255 0
-0.745902 -0.214084 -0.164153 0 255 0
-0.617298 -0.482894 -0.273455 0 255 0
0.455958 -0.482891 0.223663 0 255 0
0.318716 -0.482894 0.176433 0 255 0
0.480109 -0.155538 0.362948 0 255 0
-0.364426 -0.482842 0.350583 127 0 127
0.840720 -0.106318 0.343358 0 255 0
-0.310193 -0.482175 0.331003 0 255 0
0.738304 0.478697 0.100999 0 255 0
-0.364676 0.088571 -0.378208 0 255 0
-0.266704 -0.074291 -0.378208 0 255 0
0.466940 -0.324820 0.391106 127 0 127
-0.227983 -0.482900 0.390011 127 0 127
0.212249 -0.482863 -0.230243 0 255 0
0.275195 0.436447 0.391106 127 0 127
-0.471777 0.225350 -0.378208 0 255 0
0.309261 -0.192779 0.391106 0 127 127
0.019927 -0.028975 -0.378208 0 255 0
-0.045830 -0.206875 0.391106 0 127 127
-0.454061 -0.165051 -0.378208 0 255 0
0.689869 0.373290 -0.378208 0 255 0
-0.293016 0.037544 -0.378208 0 255 0
-0.352070 0.005998 -0.378208 0 255 0
-0.223366 -0.400327 0.391106 127 0 127
-0.503730 -0.442709 -0.378208 0 255 0
-0.292131 0.478664 -0.334225 0 255 0
0.674187 0.265514 0.391106 76 153 0
0.840691 -0.341263 0.074534 0 255 0
-0.672718 0.478662 -0.348906 0 255 0
-0.395643 0.478671 -0.278064 0 255 0
-0.093737 -0.116693 -0.378208 0 255 0
0.840701 -0.179358 0.170897 0 255 0
0.112829 0.478717 0.344696 127 0 127
-0.721991 0.333493 0.343023 127 0 127
0.411807 0.473171 0.391106 127 0 127
0.351710 -0.064540 0.391106 0 127 127
-0.242519 0.145967 -0.378208 0 255 0
-0.745902 0.287400 0.138594 0 255 0
-0.223854 -0.482890 -0.190991 0 255 0
0.411827 0.478730 0.228407 0 255 0
0.840678 -0.152176 -0.041451 0 255 0
0.142330 -0.246804 -0.378208 0 255 0
0.536532 0.421451 -0.378208 0 255 0
0.840712 0.076227 0.275253 0 255 0
0.840642 -0.140265 -0.144684 0 255 0
0.568836 -0.448680 0.391106 0 255 0
0.153489 0.314403 0.391106 0 127 127
0.602394 -0.383251 -0.378208 0 255 0
-0.014782 -0.482868 0.307820 0 255 0
-0.745902 0.341982 -0.353176 0 255 0
-0.310335 -0.482888 -0.035354 0 255 0
0.268695 -0.332371 -0.378208 0 255 0
-0.558081 -0.101527 0.391106 0 127 127
0.489248 -0.291986 0.391106 0 255 0
0.144494 -0.482882 -0.055302 0 255 0
0.069742 0.478714 0.095958 0 255 0
-0.708642 0.196064 0.391106 127 0 127
0.468089 0.437084 0.359538 127 0 127
0.600992 -0.482846 -0.191877 0 255 0
-0.266990 -0.476928 -0.378208 0 255 0
0.760123 0.478686 -0.043450 0 255 0
0.233942 0.478711 0.070130 0 255 0
-0.485607 -0.004419 0.391106 0 127 127
-0.516754 0.478674 0.267197 0 255 0
-0.421859 0.478675 -0.239820 0 255 0
0.144226 0.349310 -0.378208 0 255 0
-0.608424 -0.243277 0.391106 0 127 127
0.840676 0.129704 0.134574 0 255 0
-0.653173 0.478664 0.194594 0 255 0
-0.166506 -0.482857 0.313191 0 255 0
-0.745902 -0.385665 0.002732 0 255 0
0.608539 -0.482833 -0.327991 0 255 0
0.088764 -0.482891 0.004085 0 255 0
0.176750 -0.482875 -0.123049 0 255 0
-0.403057 -0.482870 0.066040 0 255 0
-0.745902 -0.001079 0.365796 127 0 127
0.240658 0.143215 0.391106 0 127 127
0.617032 -0.337036 0.391106 0 255 0
0.840705 -0.338555 0.204702 0 255 0
-0.745902 -0.225560 -0.248341 0 255 0
-0.278532 0.454701 0.336392 127 0 127
-0.745902 0.207859 0.306802 0 255 0
0.741407 0.478681 -0.174363 0 255 0
-0.416792 0.121184 0.391106 0 127 127
-0.745902 0.084303 0.168120 0 255 0
0.840693 -0.134402 0.091578 0 255 0
-0.452199 -0.482845 0.244946 0 255 0
-0.289006 0.322505 0.391106 0 127 127
-0.288111 0.405206 0.391106 127 0 127
-0.366698 -0.482881 -0.012978 0 255 0
0.057985 0.022562 0.391106 0 127 127
-0.561518 0.478670 0.263585 0 255 0
0.543166 -0.482842 -0.268571 0 255 0
0.385386 0.074135 0.391106 127 0 127
0.447506 -0.482847 -0.270403 0 255 0
-0.143581 -0.038471 -0.378208 0 255 0
0.069590 0.327001 -0.378208 0 255 0
0.068276 -0.482867 -0.265011 0 255 0
-0.745902 0.390555 -0.152664 0 255 0
0.267951 -0.435806 0.391106 127 0 127
0.098965 -0.470641 0.343023 127 0 127
-0.274913 -0.482893 -0.176704 0 255 0
-0.702924 -0.482819 0.357443 127 0 127
0.840681 -0.464298 -0.013327 0 255 0
-0.649963 -0.309237 0.391106 127 0 127
-0.745902 -0.356920 -0.187266 0 255 0
-0.745902 -0.062850 0.153485 0 255 0
-0.745902 -0.041220 0.371856 127 0 127
0.808304 -0.482832 -0.235117 0 255 0
-0.643409 0.027287 -0.378208 0 255 0
0.528779 -0.482850 -0.185553 0 255 0
0.607540 -0.389583 0.391106 0 255 0
0.840720 0.066995 0.342137 0 255 0
0.590658 -0.482873 0.125051 0 255 0
0.840709 -0.034368 0.245649 0 255 0
-0.635819 0.478665 -0.023828 0 255 0
-0.645692 -0.148802 0.391106 127 0 127
0.184962 -0.336290 0.391106 127 0 127
-0.197588 -0.207713 0.391106 0 127 127
-0.447643 -0.398923 -0.378208 0 255 0
0.840642 0.160478 -0.278913 0 255 0
0.840642 -0.013948 -0.266990 0 255 0
0.106831 -0.445204 0.391106 127 0 127
-0.745902 -0.320592 -0.227538 0 255 0
-0.610464 -0.482831 0.275575 0 255 0
-0.371099 0.226274 -0.378208 0 255 0
0.840642 0.404826 0.113408 0 255 0
0.070332 0.291572 0.391106 0 127 127
-0.237152 0.268700 0.391106 0 127 127
0.325717 0.478713 0.084348 0 255 0
-0.137165 0.223992 -0.378208 0 255 0
-0.395251 0.256662 0.391106 0 127 127
-0.204010 -0.010287 0.391106 0 127 127
0.004030 -0.165566 -0.378208 0 255 0
-0.067429 -0.482892 -0.074399 0 255 0
-0.253254 -0.337209 0.391106 127 0 127
-0.349942 -0.080149 -0.378208 0 255 0
0.840642 0.094767 0.061154 0 255 0
0.602185 -0.482877 0.175394 0 255 0
0.038504 0.478711 0.064453 0 255 0
-0.391254 -0.435946 -0.378208 0 255 0
0.365843 -0.401752 -0.378208 0 255 0
0.480109 0.402386 0.370022 0 255 0
-0.744795 0.217397 0.391106 127 0 127
0.840679 -0.226708 -0.030928 0 255 0
-0.139902 -0.051493 0.391106 0 127 127
-0.621962 -0.482883 -0.177303 0 255 0
0.498734 0.478706 0.025347 0 255 0
0.048273 0.472720 0.391106 127 0 127
0.333855 -0.482847 -0.329483 0 255 0
-0.745902 0.430571 -0.163050 0 255 0
-0.588442 0.423574 -0.378208 0 255 0
0.050349 -0.142732 -0.378208 0 255 0
0.645990 0.478705 0.045498 0 255 0
-0.502368 -0.482877 -0.054489 0 255 0
0.357431 0.135209 -0.378208 0 255 0
-0.401693 -0.359967 -0.378208 0 255 0
-0.444844 0.398481 -0.378208 0 255 0
-0.316158 -0.208524 0.391106 0 127 127
-0.425567 0.478680 -0.026537 0 255 0
0.104852 -0.482880 0.275534 0 255 0
-0.058255 -0.482878 -0.219185 0 255 0
-0.568361 -0.374604 0.391106 127 0 127
0.370340 0.386199 -0.378208 0 255 0
-0.516100 -0.391903 -0.378208 0 255 0
0.506380 -0.482889 0.221808 0 255 0
0.762665 0.348669 0.391106 0 255 0
0.305851 0.385936 0.391106 127 0 127
0.335028 -0.442168 -0.378208 0 255 0
-0.291774 0.206624 -0.378208 0 255 0
0.424585 -0.429411 0.391106 127 0 127
0.669273 -0.482847 -0.144350 0 255 0
0.564883 0.379755 -0.378208 0 255 0
-0.745902 0.354047 0.140468 0 255 0
-0.590364 -0.482827 0.356328 127 0 127
0.201032 -0.221260 -0.378208 0 255 0
-0.098125 0.478663 -0.344096 0 255 0
0.240539 -0.440346 -0.378208 0 255 0
-0.145610 0.478699 0.301074 0 255 0
-0.135423 -0.482880 0.134967 0 255 0
-0.745902 -0.151189 0.192274 0 255 0
0.751260 -0.482852 -0.057905 0 255 0
-0.387223 -0.482889 -0.295669 0 255 0
-0.745902 -0.318292 0.108302 0 255 0
0.660233 0.478708 0.115952 0 255 0
-0.243675 -0.182238 0.391106 0 127 127
0.685065 0.041491 0.391106 76 0 153
0.108796 0.369379 0.391106 127 0 127
-0.642796 0.478665 0.053467 0 255 0
0.623168 -0.198438 0.391106 153 76 0
0.806385 0.209748 0.391106 0 255 0
-0.657084 -0.482878 -0.154835 0 255 0
-0.158056 -0.482885 -0.207021 0 255 0
0.550860 -0.482854 -0.136242 0 255 0
0.840642 0.023996 -0.191020 0 255 0
0.693338 -0.482885 0.247986 0 255 0
0.468089 -0.062665 0.366909 127 0 127
0.840642 0.281467 -0.345523 0 255 0
-0.465453 0.478677 -0.177726 0 255 0
0.743628 0.075172 0.391106 153 0 76
0.840642 0.129014 -0.142912 0 255 0
0.814774 -0.271303 0.391106 0 255 0
-0.137148 0.478700 0.358214 127 0 127
0.200080 0.478682 -0.179908 0 255 0
0.508040 0.478698 -0.048809 0 255 0
0.840648 -0.457876 -0.320665 0 255 0
0.244762 0.244777 0.391106 0 127 127
0.119898 0.222784 0.391106 0 127 127
-0.294763 -0.031931 -0.378208 0 255 0
0.356770 0.005514 0.391106 0 127 127
-0.745902 0.134344 -0.357388 0 255 0
0.280711 -0.091636 0.391106 0 127 127
0.820795 0.416386 -0.378208 0 255 0
0.743034 -0.482892 0.312783 0 255 0
-0.177942 0.478682 -0.179634 0 255 0
0.023116 -0.130698 0.391106 0 127 127
0.712912 0.209477 0.391106 0 255 0
-0.469182 -0.245926 -0.378208 0 255 0
0.495594 0.302276 0.391106 0 255 0
0.455319 0.478712 0.078888 0 255 0
-0.745902 0.124600 0.130889 0 255 0
0.722355 0.289098 0.391106 76 153 0
0.840668 -0.271240 -0.132416 0 255 0
0.013088 -0.482886 0.173941 0 255 0
0.840721 -0.222887 0.350817 0 255 0
-0.187160 0.295785 -0.378208 0 255 0
0.028729 -0.482895 0.015228 0 255 0
-0.179791 -0.314237 0.391106 0 127 127
0.389338 -0.254680 -0.378208 0 255 0
0.840642 -0.018467 -0.095750 0 255 0
-0.487772 -0.450153 0.391106 127 0 127
0.096538 -0.292192 0.391106 0 127 127
-0.745902 0.044457 0.011747 0 255 0
-0.079680 -0.482888 0.100399 0 255 0
-0.424023 -0.132406 0.391106 0 127 127
0.110668 -0.123266 -0.378208 0 255 0
0.840642 0.448336 0.264609 0 255 0
0.266198 -0.482886 0.350007 127 0 127
-0.745902 -0.122756 -0.152455 0 255 0
-0.530580 -0.308486 0.391106 0 127 127
-0.037608 0.118070 0.391106 0 127 127
-0.046266 0.262872 0.391106 0 127 127
0.590656 -0.437051 -0.378208 0 255 0
-0.662495 -0.227785 -0.378208 0 255 0
-0.244549 -0.482851 0.357260 127 0 127
-0.740729 0.471850 -0.125906 0 255 0
0.840697 0.005880 0.134311 0 255 0
0.090700 0.478702 -0.011179 0 255 0
0.055234 -0.459593 0.391106 127 0 127
0.331280 0.478723 0.168118 0 255 0
-0.745902 0.252097 0.256761 0 255 0
-0.355869 0.478663 -0.347684 0 255 0
0.093043 0.478693 -0.084410 0 255 0
-0.099064 0.478702 0.141543 0 255 0
-0.745902 0.186891 -0.124113 0 255 0
0.513705 -0.482876 0.086749 0 255 0
0.690074 0.446591 0.391106 0 255 0
-0.386364 0.144997 -0.378208 0 255 0
-0.521833 0.478663 -0.345427 0 255 0
0.840642 0.433265 -0.080676 0 255 0
-0.745902 0.237645 -0.055642 0 255 0
-0.576655 0.478669 -0.107610 0 255 0
-0.745902 0.023980 -0.375191 0 255 0
0.087914 0.431636 -0.378208 0 255 0
-0.745902 0.293734 0.388361 127 0 127
-0.050403 0.465004 -0.378208 0 255 0
0.063219 0.478713 0.297131 0 255 0
-0.703206 0.478661 0.245013 0 255 0
0.300829 0.478710 0.054283 0 255 0
0.011346 0.237465 0.391106 0 127 127
-0.745902 -0.189295 -0.230864 0 255 0
-0.745902 -0.354988 -0.085119 0 255 0
-0.522934 -0.482858 0.090363 0 255 0
-0.353884 -0.157106 0.391106 0 127 127
0.404170 -0.312573 -0.378208 0 255 0
0.542090 -0.209195 0.391106 0 255 0
-0.495182 -0.482890 -0.336961 0 255 0
0.642261 0.311675 0.391106 76 153 0
0.750606 0.478671 -0.279218 0 255 0
0.840701 -0.017730 0.166259 0 255 0
-0.296948 0.087621 0.391106 0 127 127
-0.083775 -0.279842 0.391106 0 127 127
-0.648655 -0.427442 -0.378208 0 255 0
0.194476 -0.482879 -0.061401 0 255 0
-0.745902 -0.172584 0.221728 0 255 0
0.082633 -0.482882 -0.099058 0 255 0
-0.004305 -0.174278 0.391106 0 127 127
-0.110526 0.041010 -0.378208 0 255 0
0.489165 0.478732 0.246364 0 255 0
-0.745902 -0.056601 -0.230274 0 255 0
-0.460889 -0.315920 -0.378208 0 255 0
0.197858 -0.482859 -0.281995 0 255 0
0.408412 0.478680 -0.196516 0 255 0
-0.745902 -0.463309 -0.260430 0 255 0
0.840642 -0.131256 -0.346353 0 255 0
-0.323302 -0.482871 0.098353 0 255 0
0.217349 -0.372851 -0.378208 0 255 0
-0.484398 -0.482896 -0.275693 0 255 0
0.157953 0.478720 0.232198 0 255 0
0.155010 -0.065973 -0.378208 0 255 0
-0.338395 -0.482846 0.304600 0 255 0
-0.167262 -0.137318 -0.378208 0 255 0
0.840686 -0.307673 0.030229 0 255 0
0.169999 -0.172496 -0.378208 0 255 0
0.656445 -0.185829 -0.378208 0 255 0
-0.189106 -0.482874 0.153149 0 255 0
0.468478 0.183214 -0.378208 0 255 0
0.126256 -0.482875 -0.149047 0 255 0
0.302360 0.478689 -0.125573 0 255 0
0.442314 0.224377 0.391106 127 0 127
-0.356926 -0.445297 0.391106 127 0 127
-0.642201 0.175323 -0.378208 0 255 0
0.840667 -0.391642 -0.144481 0 255 0
-0.745902 -0.464697 -0.326256 0 255 0
0.163139 0.433822 -0.378208 0 255 0
0.224345 0.478659 -0.376151 0 255 0
0.476922 -0.352423 -0.378208 0 255 0
-0.745902 0.051780 0.232693 0 255 0
0.065526 0.240458 -0.378208 0 255 0
-0.745902 -0.103817 -0.332779 0 255 0
0.371191 -0.144244 -0.378208 0 255 0
-0.274716 -0.482850 0.311148 0 255 0
0.840642 0.343228 -0.368265 0 255 0
-0.438112 -0.451626 0.391106 127 0 127
-0.689091 0.310315 -0.378208 0 255 0
0.374304 0.103234 -0.378208 0 255 0
-0.644190 -0.187102 0.391106 127 0 127
0.512531 0.268415 -0.378208 0 255 0
0.012803 0.478710 0.351061 127 0 127
-0.745902 0.366981 -0.188648 0 255 0
0.840642 0.438593 0.077250 0 255 0
0.840642 0.175972 -0.089921 0 255 0
0.070570 -0.164549 0.391106 0 127 127
-0.266731 -0.482871 0.137275 0 255 0
0.480109 0.335047 0.375607 0 255 0
-0.544865 0.478672 0.031055 0 255 0
-0.498769 -0.328416 0.391106 127 0 127
0.717373 0.478668 -0.302167 0 255 0
0.480109 -0.220845 0.338116 0 255 0
0.020269 0.176560 -0.378208 0 255 0
-0.231857 0.478693 0.104562 0 255 0
0.046755 0.478712 0.184853 0 255 0
-0.745902 0.423230 0.375034 127 0 127
0.770168 0.250651 -0.378208 0 255 0
-0.745902 -0.326645 0.268001 0 255 0
-0.745902 0.354174 -0.093663 0 255 0
0.431610 -0.482897 0.274577 0 255 0
0.314426 0.477516 0.391106 127 0 127
0.551627 0.314888 0.391106 0 255 0
0.067169 -0.208912 -0.378208 0 255 0
0.340113 0.441690 -0.378208 0 255 0
-0.745902 -0.259089 0.315320 0 255 0
0.365016 -0.482887 0.117186 0 255 0
0.546935 0.478732 0.307301 0 255 0
0.074278 0.225976 0.391106 0 127 127
0.199724 -0.482900 0.390796 127 0 127
-0.310913 -0.211184 -0.378208 0 255 0
0.636585 0.147279 0.391106 204 51 127
-0.369673 0.478684 -0.143887 0 255 0
-0.431773 0.478679 -0.094307 0 255 0
0.282082 0.313155 -0.378208 0 255 0
-0.292557 0.478689 0.020680 0 255 0
0.752286 -0.359891 -0.378208 0 255 0
0.105727 -0.117065 0.391106 0 127 127
0.326518 0.478673 -0.260273 0 255 0
-0.006591 0.102697 -0.378208 0 255 0
0.569806 0.478727 0.261094 0 255 0
0.780619 0.478704 0.301332 0 255 0
0.609153 -0.269910 0.391106 0 0 255
0.651341 0.131828 -0.378208 0 255 0
0.670875 0.478684 -0.162983 0 255 0
0.422762 -0.482878 0.059771 0 255 0
0.840642 0.304019 -0.314237 0 255 0
-0.331256 -0.333295 -0.378208 0 255 0
-0.264624 -0.382127 -0.378208 0 255 0
-0.372383 0.446226 -0.378208 0 255 0
0.009412 0.478697 -0.050578 0 255 0
-0.590356 -0.392133 -0.378208 0 255 0
-0.017776 0.478708 0.056131 0 255 0
0.689541 -0.214160 0.391106 76 0 153
-0.101575 0.148624 -0.378208 0 255 0
0.189472 0.478710 0.060302 0 255 0
0.712826 0.478689 -0.099305 0 255 0
0.840642 0.080383 -0.170334 0 255 0
-0.745902 0.097677 -0.242976 0 255 0
-0.604134 0.417455 0.391106 127 0 127
-0.191069 0.478673 -0.262879 0 255 0
0.840712 0.157438 0.270023 0 255 0
0.181768 -0.482900 0.157393 0 255 0
0.688939 -0.341039 0.391106 0 255 0
0.749093 0.454959 -0.378208 0 255 0
-0.711862 0.347847 -0.378208 0 255 0
-0.128050 0.478688 -0.129955 0 255 0
-0.667527 0.478663 0.312380 0 255 0
-0.741660 -0.218880 -0.378208 0 255 0
0.575683 -0.482887 0.267448 0 255 0
0.840715 -0.034356 0.297073 0 255 0
0.809552 0.478689 0.119971 0 255 0
0.490886 -0.148387 -0.378208 0 255 0
0.242105 -0.482888 0.291100 0 255 0
0.674914 0.169654 0.391106 127 127 0
0.061147 -0.372556 0.391106 127 0 127
0.726177 -0.200641 -0.378208 0 255 0
-0.557940 -0.482875 -0.071764 0 255 0
-0.733254 0.477196 -0.217539 0 255 0
-0.221984 -0.048263 -0.378208 0 255 0
0.626027 -0.482852 -0.112620 0 255 0
-0.483610 -0.482882 -0.088476 0 255 0
0.157783 0.128582 -0.378208 0 255 0
0.840720 -0.297194 0.345862 0 255 0
0.120349 -0.482856 -0.358559 0 255 0
0.241996 -0.377096 0.391106 127 0 127
-0.523893 0.378894 -0.378208 0 255 0
0.752313 -0.252480 0.391106 153 0 76
-0.108545 0.085169 0.391106 0 127 127
-0.367419 0.332025 0.391106 0 127 127
0.005993 0.314318 -0.378208 0 255 0
0.805995 -0.326297 0.391106 0 255 0
-0.432990 0.166598 -0.378208 0 255 0
-0.745902 0.334749 -0.044793 0 255 0
-0.607615 0.460303 0.331003 0 255 0
0.429500 0.454701 0.331186 127 0 127
0.651447 -0.482884 0.243490 0 255 0
0.685298 -0.482850 -0.081739 0 255 0
0.146094 -0.482882 0.287497 0 255 0
-0.745902 -0.398054 0.346437 127 0 127
0.767645 -0.482883 0.233580 0 255 0
0.739309 0.478692 0.020345 0 255 0
-0.150778 -0.114598 0.391106 0 127 127
-0.181695 -0.482886 0.057834 0 255 0
-0.745902 0.432236 0.295108 0 255 0
-0.371361 -0.482888 -0.073720 0 255 0
-0.436915 -0.479663 -0.378208 0 255 0
0.347994 -0.196540 -0.378208 0 255 0
-0.745902 0.257347 -0.306803 0 255 0
-0.130762 -0.482889 -0.144438 0 255 0
-0.397337 -0.286906 0.391106 0 127 127
-0.745902 0.009993 -0.275390 0 255 0
-0.415172 0.478681 -0.144190 0 255 0
0.840642 0.303475 0.216774 0 255 0
-0.084307 -0.142091 0.391106 0 127 127
0.366710 -0.332765 -0.378208 0 255 0
0.813427 -0.482875 0.161954 0 255 0
0.729149 -0.001024 -0.378208 0 255 0
-0.516911 -0.125842 -0.378208 0 255 0
0.620542 0.339368 0.391106 76 153 0
0.840725 -0.232404 0.389753 0 255 0
0.840722 0.301975 0.359279 0 255 0
0.408397 -0.458859 0.336316 127 0 127
-0.745902 0.045413 -0.204986 0 255 0
0.245015 -0.161741 0.391106 0 127 127
0.600908 -0.482860 -0.035850 0 255 0
0.425853 -0.376065 -0.378208 0 255 0
-0.699572 0.125216 0.391106 127 0 127
0.498798 0.264429 0.391106 0 255 0
-0.135751 0.025551 0.391106 0 127 127
-0.221307 0.478694 0.206008 0 255 0
0.346814 0.478733 0.314732 0 255 0
0.840642 0.405643 0.320680 0 255 0
-0.115762 0.478701 0.257364 0 255 0
0.692021 0.224431 -0.378208 0 255 0
0.600532 0.478687 -0.138944 0 255 0
-0.442691 -0.387534 0.391106 127 0 127
0.093072 -0.482870 -0.219155 0 255 0
0.150556 -0.060751 0.391106 0 127 127
-0.322289 0.039664 0.391106 0 127 127
0.329500 -0.482875 -0.031302 0 255 0
-0.066096 -0.353669 0.391106 127 0 127
-0.536072 0.478672 0.116171 0 255 0
0.102922 0.172404 -0.378208 0 255 0
-0.460075 0.143639 -0.378208 0 255 0
0.410107 0.478662 -0.350908 0 255 0
0.327753 0.039885 0.391106 0 127 127
-0.003165 -0.403916 0.391106 127 0 127
-0.227121 -0.482885 0.042681 0 255 0
0.840709 0.026314 0.241128 0 255 0
0.042151 -0.082711 0.391106 0 127 127
-0.745902 0.174915 0.348736 127 0 127
0.366587 -0.482881 0.056273 0 255 0
0.015020 0.478688 -0.129486 0 255 0
0.817909 -0.482896 0.354540 0 255 0
-0.508539 0.478674 -0.113380 0 255 0
-0.718247 -0.161583 -0.378208 0 255 0
-0.489535 0.037375 -0.378208 0 255 0
-0.745902 0.317263 0.159815 0 255 0
-0.560845 -0.482867 -0.009368 0 255 0
-0.066865 0.391014 -0.378208 0 255 0
-0.502138 0.478675 0.232573 0 255 0
0.091967 -0.031516 0.391106 0 127 127
0.262254 -0.053121 -0.378208 0 255 0
-0.019351 0.478708 0.235665 0 255 0
0.539529 -0.328301 -0.378208 0 255 0
0.256166 -0.482869 -0.138435 0 255 0
-0.648569 -0.482854 0.056841 0 255 0
0.525240 -0.083014 -0.378208 0 255 0
0.703833 -0.482899 0.380191 0 255 0
-0.045787 0.478706 0.361915 127 0 127
0.682875 0.478707 0.148220 0 255 0
0.494431 0.478669 -0.292030 0 255 0
0.186067 0.090185 0.391106 0 127 127
0.777956 0.478680 -0.111776 0 255 0
-0.113045 0.478701 0.182853 0 255 0
-0.552476 -0.258156 -0.378208 0 255 0
-0.299306 0.478688 0.104667 0 255 0
0.160868 -0.482885 -0.017193 0 255 0
0.510611 -0.176508 0.391106 0 255 0
-0.015869 -0.130625 -0.378208 0 255 0
-0.045345 -0.109669 0.391106 0 127 127
-0.110390 -0.220505 -0.378208 0 255 0
0.703406 0.478700 0.083236 0 255 0
0.474109 0.478691 -0.101295 0 255 0
-0.239052 -0.267953 -0.378208 0 255 0
0.121887 -0.417158 -0.378208 0 255 0
0.840680 -0.324526 -0.024935 0 255 0
0.840696 0.050256 0.126643 0 255 0
-0.084045 0.478689 -0.122335 0 255 0
0.840642 -0.209797 -0.317393 0 255 0
0.015472 -0.039131 0.391106 0 127 127
0.338114 -0.286621 -0.378208 0 255 0
-0.597245 0.478668 -0.295673 0 255 0
-0.425095 -0.051818 0.391106 0 127 127
-0.745902 0.086299 -0.114704 0 255 0
0.555168 -0.482871 0.056443 0 255 0
0.353246 -0.482866 -0.118997 0 255 0
-0.410973 -0.250644 0.391106 0 127 127
-0.609309 -0.212681 -0.378208 0 255 0
-0.207219 0.435933 0.391106 127 0 127
0.217935 -0.055962 0.391106 0 127 127
-0.151856 0.478699 0.223321 0 255 0
0.483286 -0.124782 0.391106 0 255 0
0.573243 -0.038171 -0.378208 0 255 0
0.290038 0.478672 -0.270933 0 255 0
0.840642 -0.386380 -0.345058 0 255 0
-0.305969 0.374396 0.391106 127 0 127
0.120340 0.478715 0.098344 0 255 0
-0.717681 0.478660 0.195685 0 255 0
0.747169 0.421167 0.391106 0 255 0
0.752531 0.478738 0.374015 0 255 0
-0.240883 -0.482894 -0.049540 0 255 0
-0.534185 -0.482849 0.165748 0 255 0
