ply
format ascii 1.0
element vertex 1272
property float x
property float y
property float z
property uchar red
property uchar green
property uchar blue
end_header
-0.334412 0.422833 -0.028510 153 0 76
-0.123615 0.072604 0.252372 127 127 0
-0.334412 0.169636 0.223368 127 127 0
-0.334412 -0.433641 0.078801 153 0 76
-0.154413 -0.614240 0.242392 127 127 0
0.288416 0.165215 0.263360 127 127 0
-0.092428 0.360661 0.242392 0 255 0
0.069429 0.868046 -0.324526 153 0 76
0.274149 -0.562357 -0.355773 153 0 76
0.285455 0.620088 0.262525 255 0 0
0.325611 -0.151801 0.242392 127 127 0
0.269466 -0.921161 -0.035147 153 0 76
-0.032609 0.673635 -0.355773 153 0 76
0.101063 0.868046 -0.147154 153 0 76
-0.198279 0.868046 0.005023 153 0 76
0.015482 0.333023 -0.355773 153 0 76
-0.002822 0.217178 0.245925 127 127 0
-0.230603 -0.827601 0.252372 127 127 0
0.161750 0.587807 0.242392 255 0 0
0.349274 -0.159020 0.244609 127 127 0
0.286820 -0.921161 -0.085225 153 0 76
0.044012 -0.482724 0.242392 127 127 0
0.197855 0.314817 -0.355773 153 0 76
0.117287 -0.027766 -0.355773 153 0 76
-0.262749 -0.835658 0.259905 127 127 0
-0.117560 -0.740493 -0.355773 153 0 76
0.349938 0.320124 0.081823 153 0 76
0.204867 0.868046 -0.077894 153 0 76
-0.260418 0.318137 -0.355773 153 0 76
0.211441 0.307291 0.255611 0 255 0
0.105707 0.868046 0.218444 255 0 0
0.349938 -0.047829 -0.166204 153 0 76
-0.236026 0.224779 0.252372 127 127 0
-0.047284 -0.584179 0.252372 127 127 0
0.327388 -0.665782 0.242392 127 127 0
-0.334412 -0.552787 0.122230 153 0 76
-0.323999 0.868046 0.184864 255 0 0
0.190165 -0.921161 -0.184734 153 0 76
0.191008 -0.145580 0.252372 127 127 0
0.162851 -0.771229 -0.355773 153 0 76
-0.334412 0.349867 -0.158288 153 0 76
0.265514 -0.599161 0.242392 127 127 0
-0.324233 0.868046 -0.206514 153 0 76
-0.184465 -0.391704 -0.355773 153 0 76
-0.161106 0.763582 -0.355773 153 0 76
0.349938 0.658153 -0.141063 153 0 76
-0.060387 -0.721568 -0.355773 153 0 76
-0.334412 0.147885 -0.342765 153 0 76
-0.254374 0.084412 0.248173 127 127 0
-0.082376 -0.919140 0.272186 127 127 0
-0.334412 0.473917 -0.092457 153 0 76
0.348307 -0.745557 -0.355773 153 0 76
0.269239 0.214486 0.254994 127 127 0
0.292685 0.183829 0.242392 127 127 0
-0.334412 0.281790 -0.301663 153 0 76
-0.311765 -0.573151 0.263900 127 127 0
0.106593 0.383265 0.242392 0 255 0
-0.302482 0.544684 0.242392 255 0 0
0.090762 0.868046 0.091602 153 0 76
0.078402 -0.609593 0.242392 127 127 0
0.134823 -0.938842 0.242392 127 127 0
0.272530 -0.897682 0.272186 127 127 0
0.072329 -0.652367 0.252372 127 127 0
0.164173 0.729037 0.242392 255 0 0
-0.110096 0.451156 -0.355773 153 0 76
0.212225 -0.050652 -0.355773 153 0 76
-0.184001 -0.877845 0.272186 127 127 0
0.081480 -0.486525 0.242392 127 127 0
0.349938 0.644888 -0.287675 153 0 76
0.349938 -0.698547 -0.297861 153 0 76
-0.166551 0.868046 -0.344620 153 0 76
-0.274500 -0.921161 -0.003526 153 0 76
0.227546 0.072283 -0.355773 153 0 76
0.349938 0.804752 0.055234 153 0 76
-0.334412 -0.699216 0.234927 127 127 0
-0.334412 -0.652467 -0.334054 153 0 76
0.177644 -0.138362 -0.355773 153 0 76
0.349938 0.195590 -0.214905 153 0 76
-0.211943 -0.312934 0.252372 127 127 0
0.043066 0.684787 -0.355773 153 0 76
0.250445 -0.842144 -0.355773 153 0 76
-0.334412 0.424545 -0.331386 153 0 76
0.349938 -0.623030 0.037777 153 0 76
-0.188265 0.052630 0.242392 127 127 0
-0.334412 -0.466653 -0.253923 153 0 76
-0.181976 0.724598 -0.355773 153 0 76
0.229852 -0.921161 0.230781 127 127 0
-0.334412 0.755516 0.231717 255 0 0
-0.334412 -0.006258 0.219113 127 127 0
0.245011 0.868046 0.050720 153 0 76
0.349938 -0.168836 -0.226718 153 0 76
-0.141132 -0.220607 -0.355773 153 0 76
-0.334412 0.536798 -0.341039 153 0 76
0.349938 -0.352423 -0.130530 153 0 76
0.347108 0.233987 -0.355773 153 0 76
-0.245065 0.307845 0.242392 0 255 0
-0.003645 0.063302 0.242392 127 127 0
0.116640 -0.077599 0.242392 127 127 0
-0.132244 -0.868868 0.242392 153 0 76
0.171006 0.219805 -0.355773 153 0 76
0.135120 -0.922995 0.272186 127 127 0
0.075727 -0.130593 -0.355773 153 0 76
0.349938 0.232105 0.028064 153 0 76
-0.003128 0.392055 0.252372 255 0 0
0.025064 0.226891 0.252372 127 127 0
-0.334412 0.526090 0.163467 153 0 76
0.266738 0.868046 -0.075528 153 0 76
-0.059377 0.258331 0.261590 127 0 127
-0.334412 0.812434 0.015137 153 0 76
-0.334412 -0.076167 0.026723 153 0 76
0.349938 0.195903 -0.284200 153 0 76
-0.293442 -0.399496 -0.355773 153 0 76
0.349938 -0.299749 0.190125 153 0 76
-0.244765 0.688768 0.242392 255 0 0
-0.145709 0.172539 0.252372 127 127 0
0.228166 -0.891133 -0.355773 153 0 76
0.291874 0.810643 0.272186 255 0 0
-0.334412 0.585543 0.022795 153 0 76
0.303591 0.301996 -0.355773 153 0 76
0.297839 -0.921161 0.236431 153 0 76
0.096956 0.868046 -0.056193 153 0 76
-0.334412 -0.470542 0.119474 153 0 76
-0.224820 0.368238 0.242392 0 255 0
-0.312521 -0.094866 0.242392 127 127 0
0.349938 0.264059 -0.202995 153 0 76
-0.105249 0.868046 -0.188441 153 0 76
-0.155691 0.135866 0.252372 127 127 0
-0.085399 0.270897 -0.355773 153 0 76
0.055912 -0.513275 0.242392 127 127 0
-0.082194 -0.841502 -0.355773 153 0 76
-0.216017 -0.582715 0.252372 127 127 0
0.244646 0.761084 0.252372 255 0 0
0.196764 -0.399723 0.252372 127 127 0
0.171128 -0.627029 0.242392 127 127 0
-0.023309 0.089934 -0.355773 153 0 76
-0.321534 0.112444 0.260747 127 127 0
-0.228370 -0.534935 -0.355773 153 0 76
0.167637 -0.921161 -0.056885 153 0 76
-0.197279 -0.921161 -0.173104 153 0 76
0.329327 -0.712274 0.242392 127 127 0
0.097303 0.104062 0.242392 127 127 0
-0.334412 0.421796 -0.138168 153 0 76
-0.034106 0.276266 0.242392 127 0 127
0.334454 0.113082 0.262028 127 127 0
-0.304974 0.868046 0.079740 153 0 76
0.336081 0.868046 0.159787 153 0 76
0.349938 0.849915 -0.149603 153 0 76
-0.334412 0.764837 0.133037 153 0 76
0.261181 -0.232839 0.252372 127 127 0
-0.261169 -0.187676 0.242392 127 127 0
-0.334412 0.489816 0.168636 153 0 76
-0.294433 -0.824466 0.266173 127 127 0
0.237715 -0.055242 0.242392 127 127 0
0.349938 0.156771 -0.270195 153 0 76
0.349938 0.273581 0.089062 153 0 76
-0.129116 0.300588 0.262981 127 0 127
0.086585 -0.459440 -0.355773 153 0 76
-0.225374 0.185330 0.252372 127 127 0
-0.278339 -0.148301 0.242392 127 127 0
-0.334412 0.128705 0.017216 153 0 76
-0.197559 -0.908283 0.242392 153 0 76
0.089411 0.868046 -0.086228 153 0 76
-0.080663 0.868046 -0.191747 153 0 76
-0.334412 -0.255616 -0.064310 153 0 76
0.194722 0.868046 -0.001745 153 0 76
0.087489 0.026846 0.252372 127 127 0
0.191597 -0.401964 -0.355773 153 0 76
0.279379 0.241985 0.260218 127 127 0
0.262852 -0.810911 -0.355773 153 0 76
-0.334412 -0.597687 0.219468 127 127 0
0.073976 0.067198 -0.355773 153 0 76
0.349938 -0.102263 0.116114 153 0 76
0.179983 -0.049710 0.252372 127 127 0
-0.214789 -0.921161 -0.233815 153 0 76
-0.334412 0.261207 0.226777 127 127 0
0.349938 -0.882986 0.149503 153 0 76
0.349938 0.005227 0.071425 153 0 76
-0.334412 0.390030 -0.339299 153 0 76
0.273753 0.448330 -0.355773 153 0 76
0.349938 0.702708 -0.119925 153 0 76
0.073829 0.809200 0.272404 255 0 0
-0.291535 -0.921161 0.023979 153 0 76
-0.334412 -0.830050 -0.205906 153 0 76
-0.334412 0.183265 0.005490 153 0 76
0.142398 -0.657070 0.243614 127 127 0
-0.316098 0.583389 0.262715 255 0 0
-0.152921 0.095377 -0.355773 153 0 76
0.116017 -0.560480 0.252372 127 127 0
-0.314201 0.700845 0.242392 255 0 0
0.018587 0.868046 -0.071043 153 0 76
0.007871 0.312418 0.256640 0 255 0
0.332823 0.201602 0.242392 127 127 0
-0.334412 0.450572 0.081768 153 0 76
-0.045225 0.849412 -0.355773 153 0 76
-0.334412 -0.524652 -0.036424 153 0 76
0.349938 -0.694602 0.021516 153 0 76
0.304768 -0.774827 0.266152 127 127 0
-0.334412 0.561777 0.138904 153 0 76
-0.334412 0.073056 -0.300489 153 0 76
-0.214413 0.736740 -0.355773 153 0 76
0.349938 0.705863 -0.157950 153 0 76
-0.201049 0.376328 -0.355773 153 0 76
-0.334412 0.847214 0.048669 153 0 76
0.104610 -0.817165 -0.355773 153 0 76
0.349938 -0.884405 0.069475 153 0 76
-0.075729 -0.573859 -0.355773 153 0 76
0.066226 0.868046 0.260394 255 0 0
0.128677 0.868046 0.067170 153 0 76
-0.164001 -0.875541 -0.355773 153 0 76
-0.334412 0.867203 0.021178 153 0 76
0.208917 0.349207 -0.355773 153 0 76
0.007787 -0.477119 -0.355773 153 0 76
0.349938 -0.044951 -0.089963 153 0 76
-0.239281 -0.921161 0.090913 153 0 76
-0.334412 -0.540664 -0.252295 153 0 76
-0.334412 -0.702835 0.116407 153 0 76
0.167159 -0.413333 0.242392 127 127 0
0.349938 0.448333 0.073209 153 0 76
-0.334412 -0.810371 -0.319757 153 0 76
0.349938 -0.040668 -0.023890 153 0 76
0.033731 0.868046 0.236608 255 0 0
0.349938 -0.105157 0.089064 153 0 76
0.349938 -0.028168 0.211611 127 127 0
-0.030147 -0.654976 0.242392 127 127 0
-0.100820 0.853366 0.272186 255 0 0
0.349938 -0.709363 0.208591 127 127 0
0.081564 0.434843 -0.355773 153 0 76
-0.334412 0.734026 -0.069245 153 0 76
-0.114252 0.841265 -0.355773 153 0 76
-0.197660 -0.060908 -0.355773 153 0 76
-0.134008 0.598513 0.252372 255 0 0
0.073975 -0.733741 0.252372 127 127 0
-0.163820 -0.678765 -0.355773 153 0 76
-0.105152 -0.233139 0.242392 127 127 0
-0.278123 -0.001434 -0.355773 153 0 76
-0.120885 0.376621 0.266154 0 255 0
-0.334412 0.851554 -0.243492 153 0 76
0.110944 0.868046 -0.341874 153 0 76
-0.026644 -0.921161 0.085809 153 0 76
0.256797 0.868046 -0.190952 153 0 76
0.243113 -0.942386 0.242392 127 127 0
0.131050 0.779560 0.242392 153 0 76
0.333589 -0.058764 0.242392 127 127 0
0.235641 0.265551 0.242392 127 0 127
-0.334412 -0.042093 -0.307337 153 0 76
-0.133988 0.868046 -0.293091 153 0 76
0.278829 -0.902523 -0.355773 153 0 76
-0.334412 -0.025451 0.083035 153 0 76
-0.320559 0.006727 0.242392 153 0 76
0.055630 -0.797832 0.242392 127 127 0
-0.334412 0.256123 0.067225 153 0 76
-0.262766 0.435777 0.242392 255 0 0
-0.334412 0.190197 0.099360 153 0 76
0.349938 -0.388219 -0.278076 153 0 76
0.009350 0.559556 0.252372 255 0 0
0.349938 -0.544503 0.038521 153 0 76
0.349938 0.612876 -0.189348 153 0 76
-0.334412 0.340424 0.171197 153 0 76
0.069301 -0.411655 0.252372 127 127 0
0.166845 0.804609 0.242392 153 0 76
0.001213 -0.740793 -0.355773 153 0 76
-0.334412 -0.134522 -0.002099 153 0 76
0.349938 -0.053122 0.031106 153 0 76
-0.076553 -0.921161 0.185503 153 0 76
0.181605 0.868046 -0.118206 153 0 76
0.349938 0.465665 -0.168575 153 0 76
-0.334412 0.248644 -0.262160 153 0 76
-0.261691 -0.801947 0.242392 127 127 0
-0.022543 0.781267 -0.355773 153 0 76
0.128431 0.850897 0.242392 153 0 76
0.259292 -0.191372 0.242392 127 127 0
-0.106404 0.249140 -0.355773 153 0 76
0.343088 -0.858297 0.270422 127 127 0
-0.199183 0.662630 0.242392 255 0 0
-0.116905 0.528718 -0.355773 153 0 76
0.349938 -0.165301 -0.025765 153 0 76
0.101344 0.200192 -0.355773 153 0 76
-0.334412 -0.869437 -0.037441 153 0 76
0.349938 0.027457 -0.073191 153 0 76
0.146772 -0.099927 0.242392 127 127 0
0.349938 -0.631422 -0.031977 153 0 76
0.107408 -0.794965 0.242392 127 127 0
0.334891 -0.415822 0.261841 127 127 0
0.022771 0.411264 -0.355773 153 0 76
0.349938 0.087093 -0.069883 153 0 76
0.029974 -0.244240 0.252372 127 127 0
-0.318988 0.781117 0.244818 153 0 76
0.013338 -0.639774 0.242392 127 127 0
0.206854 -0.108599 -0.355773 153 0 76
0.349938 -0.385003 0.183524 153 0 76
-0.288656 -0.595256 0.242392 127 127 0
0.349938 -0.137561 -0.137675 153 0 76
0.329114 0.149930 0.263508 127 127 0
-0.016637 0.868046 0.070907 153 0 76
-0.334412 -0.865272 -0.343299 153 0 76
0.314161 0.648528 -0.355773 153 0 76
-0.305056 0.249795 0.265264 127 0 127
0.025046 0.631576 0.242392 255 0 0
0.144499 -0.406990 0.252372 127 127 0
-0.318578 0.277282 0.242392 153 0 76
0.349938 0.271935 -0.042752 153 0 76
-0.334412 -0.580716 0.183137 153 0 76
-0.141635 0.518806 0.252372 255 0 0
0.089519 0.868046 -0.197954 153 0 76
-0.130812 -0.520270 0.252372 127 127 0
-0.325051 -0.491905 0.242392 127 127 0
-0.224476 -0.018151 0.242392 127 127 0
0.349938 0.806572 -0.082496 153 0 76
-0.334412 -0.086291 -0.060691 153 0 76
0.224859 0.383327 -0.355773 153 0 76
-0.243445 -0.552620 -0.355773 153 0 76
0.032780 -0.733562 -0.355773 153 0 76
-0.069775 -0.356578 -0.355773 153 0 76
-0.334412 -0.498764 0.184327 153 0 76
0.329730 0.520643 0.242392 255 0 0
-0.334412 0.486972 0.231887 255 0 0
-0.045978 0.398150 0.242392 255 0 0
0.269134 -0.921161 -0.275470 153 0 76
-0.239677 -0.780450 0.252372 127 127 0
-0.334412 0.839939 -0.288286 153 0 76
0.281116 -0.542429 0.242392 127 127 0
0.207478 0.198695 -0.355773 153 0 76
-0.262542 0.644861 0.259814 255 0 0
-0.334412 -0.562561 -0.105063 153 0 76
0.348586 -0.468934 0.242399 127 127 0
-0.139109 0.153103 0.242392 127 127 0
-0.111863 -0.070647 -0.355773 153 0 76
0.171000 0.010192 -0.355773 153 0 76
0.083938 -0.086264 0.242392 127 127 0
-0.227079 0.868046 0.107449 153 0 76
0.073977 -0.855867 0.261972 127 127 0
0.000014 0.693049 -0.355773 153 0 76
0.349938 0.809080 0.201864 153 0 76
0.134062 0.861260 -0.355773 153 0 76
-0.250759 0.261932 0.266149 127 0 127
-0.334412 0.629628 -0.229476 153 0 76
0.131775 0.868046 -0.215746 153 0 76
0.076511 0.366027 0.266158 0 255 0
0.156066 0.278841 -0.355773 153 0 76
-0.334412 0.028459 -0.164636 153 0 76
-0.136935 -0.809006 0.242392 127 127 0
-0.334412 -0.662159 0.053296 153 0 76
-0.320445 0.030859 0.261213 127 127 0
0.345337 -0.270670 0.256853 127 127 0
-0.334412 -0.165115 0.029392 153 0 76
-0.334412 -0.880342 -0.125422 153 0 76
-0.116615 0.302752 -0.355773 153 0 76
-0.253379 0.105746 0.255027 127 127 0
0.334251 -0.552973 0.262103 127 127 0
-0.311004 0.174162 -0.355773 153 0 76
-0.220634 0.772221 0.252372 255 0 0
-0.049342 0.417946 -0.355773 153 0 76
0.017214 -0.921161 0.001479 153 0 76
0.349938 0.579236 -0.277341 153 0 76
-0.147122 0.868046 0.101131 153 0 76
0.327437 0.474994 0.242392 255 0 0
0.291191 -0.532037 0.264143 127 127 0
-0.278019 0.222551 0.264811 127 127 0
0.349938 0.730102 -0.193161 153 0 76
-0.334412 0.667866 -0.122765 153 0 76
-0.116110 -0.083459 0.242392 127 127 0
-0.334412 -0.723990 0.196892 127 127 0
0.271425 0.691739 0.256335 255 0 0
0.105777 -0.322078 0.252372 127 127 0
0.266094 0.603884 -0.355773 153 0 76
-0.207303 -0.272550 0.245978 127 127 0
0.349938 0.563670 -0.306883 153 0 76
0.040393 0.589682 -0.355773 153 0 76
0.109491 0.512664 -0.355773 153 0 76
0.251070 0.857359 -0.355773 153 0 76
0.349938 -0.647187 -0.089709 153 0 76
-0.334412 0.751341 -0.339266 153 0 76
-0.082028 -0.673485 0.242392 127 127 0
-0.304349 -0.921161 -0.281447 153 0 76
0.023674 -0.855867 0.253112 127 127 0
-0.130579 0.002823 0.242392 127 127 0
-0.068808 0.183090 0.242392 127 127 0
-0.334412 0.312935 0.135985 153 0 76
-0.334412 0.347766 -0.011810 153 0 76
-0.334412 0.477929 -0.285556 153 0 76
0.231999 -0.388223 -0.355773 153 0 76
0.349938 0.133047 -0.174942 153 0 76
-0.156942 -0.921161 -0.158665 153 0 76
0.203863 0.121332 -0.355773 153 0 76
0.349938 0.488790 0.031926 153 0 76
-0.004559 -0.921161 0.010314 153 0 76
0.116551 -0.679982 -0.355773 153 0 76
-0.334412 0.473267 0.213898 255 0 0
-0.078574 -0.779775 -0.355773 153 0 76
-0.334412 -0.653692 0.176302 153 0 76
-0.334412 -0.410178 -0.050884 153 0 76
0.349938 -0.406346 0.057484 153 0 76
0.349938 0.744869 -0.061141 153 0 76
0.349938 0.104797 0.043752 153 0 76
0.045637 -0.637173 0.242392 127 127 0
-0.261939 0.042877 -0.355773 153 0 76
-0.243622 0.331454 0.242392 0 255 0
0.349938 -0.368164 0.209536 127 127 0
-0.033141 -0.366930 -0.355773 153 0 76
0.271722 -0.921161 -0.299343 153 0 76
-0.334412 -0.767609 0.208305 127 127 0
-0.334412 -0.713026 -0.254799 153 0 76
-0.230831 -0.150843 0.252372 127 127 0
0.124950 -0.921161 0.072505 153 0 76
-0.314903 0.802752 0.250667 153 0 76
0.320786 -0.573415 -0.355773 153 0 76
0.017699 -0.777049 0.242392 127 127 0
-0.309383 0.078401 0.264552 127 127 0
0.349938 0.335174 0.127700 153 0 76
0.271671 -0.255421 -0.355773 153 0 76
-0.279227 0.045772 0.242392 127 127 0
-0.204294 -0.431113 -0.355773 153 0 76
-0.178562 0.868046 -0.266257 153 0 76
0.349774 -0.279912 -0.355773 153 0 76
-0.334412 0.171338 0.168583 153 0 76
-0.100350 -0.279583 0.242392 127 127 0
-0.333053 0.868046 -0.323205 153 0 76
-0.334412 -0.167560 -0.295186 153 0 76
0.349938 0.544625 0.067264 153 0 76
0.349938 0.347453 0.090809 153 0 76
-0.334412 -0.752262 -0.316133 153 0 76
-0.190411 -0.503114 0.242392 127 127 0
0.107867 -0.921161 0.210736 153 0 76
0.064570 0.698282 0.252372 255 0 0
-0.261871 0.379043 0.242392 0 255 0
-0.192265 0.072906 -0.355773 153 0 76
0.260383 0.634615 0.252372 255 0 0
-0.324465 0.043040 0.242392 127 127 0
0.320651 0.868046 0.215514 255 0 0
0.349938 0.221522 -0.022782 153 0 76
-0.334412 0.563364 0.056657 153 0 76
-0.334412 0.542546 -0.221034 153 0 76
0.058711 -0.921161 0.218022 153 0 76
-0.334412 -0.773388 -0.030117 153 0 76
-0.155966 -0.579683 0.242392 127 127 0
0.005755 -0.435702 0.252372 127 127 0
-0.316769 0.473505 0.242392 255 0 0
0.349938 -0.176382 -0.324127 153 0 76
-0.016672 -0.559660 0.252372 127 127 0
0.349938 -0.442863 -0.221358 153 0 76
-0.114009 -0.858507 0.270622 127 127 0
0.349938 -0.737195 -0.307560 153 0 76
-0.334412 0.017978 -0.089148 153 0 76
-0.056719 -0.921161 -0.304432 153 0 76
-0.108185 -0.832812 0.252372 127 127 0
-0.238567 0.868046 -0.069219 153 0 76
0.349938 0.389683 -0.254012 153 0 76
0.328097 0.549333 -0.355773 153 0 76
0.232179 0.150673 0.242392 127 127 0
-0.334412 -0.001498 0.119171 153 0 76
0.096572 0.351020 0.269501 0 255 0
0.157585 0.755576 -0.355773 153 0 76
0.169065 0.722065 -0.355773 153 0 76
-0.315025 0.786454 0.266155 255 0 0
0.349938 -0.820481 -0.351276 153 0 76
-0.043541 0.566357 0.252372 255 0 0
-0.087502 0.515949 -0.355773 153 0 76
-0.041844 -0.921161 -0.133713 153 0 76
0.035197 -0.603558 0.243943 127 127 0
0.323937 0.868046 -0.079607 153 0 76
-0.158775 -0.896147 0.242392 153 0 76
0.349938 -0.015470 -0.085210 153 0 76
-0.334412 -0.114418 -0.296618 153 0 76
0.349938 -0.542047 -0.060552 153 0 76
0.203131 -0.921161 0.153707 153 0 76
-0.183224 -0.750812 0.242392 127 127 0
-0.016084 -0.447788 0.244901 127 127 0
0.349938 -0.451074 0.057134 153 0 76
0.279863 0.489372 -0.355773 153 0 76
0.242969 -0.369613 0.242392 127 127 0
-0.334412 0.744123 0.053468 153 0 76
-0.317110 0.780335 -0.355773 153 0 76
-0.334412 -0.776966 -0.102728 153 0 76
0.349938 -0.739616 -0.107018 153 0 76
0.182657 -0.921161 0.144596 153 0 76
-0.280065 -0.919599 -0.315476 76 153 0
0.212158 -0.308063 0.252372 127 127 0
0.349938 0.375392 -0.048621 153 0 76
-0.266951 -0.353278 0.261742 127 127 0
-0.262408 -0.411030 0.242392 127 127 0
0.349938 -0.273270 -0.301891 153 0 76
0.274057 0.868046 -0.032347 153 0 76
-0.334412 -0.265192 0.191379 153 0 76
-0.234847 -0.907941 -0.355773 153 0 76
0.035719 0.868046 0.161623 153 0 76
-0.146727 0.340227 -0.355773 153 0 76
0.188592 -0.003110 0.252372 127 127 0
0.349938 -0.402721 -0.193243 153 0 76
0.330916 0.493778 0.263015 255 0 0
0.223616 0.868046 0.193598 255 0 0
-0.334412 0.321465 0.054743 153 0 76
0.159102 -0.842975 -0.355773 153 0 76
-0.119265 0.868046 0.019837 153 0 76
0.346210 -0.414952 -0.355773 153 0 76
-0.101935 0.868046 -0.325850 153 0 76
0.349938 -0.823166 -0.246863 153 0 76
-0.334412 -0.306665 -0.293448 153 0 76
-0.270665 0.582512 0.262842 255 0 0
-0.324358 -0.921161 0.021610 153 0 76
-0.334412 0.752511 -0.240000 153 0 76
0.246713 0.192262 0.252372 127 127 0
0.289135 0.659622 0.242392 255 0 0
-0.334412 0.779751 -0.320532 153 0 76
0.349938 0.172289 -0.019105 153 0 76
-0.334412 -0.362221 0.156084 153 0 76
-0.266094 -0.019535 0.261368 127 127 0
-0.185956 -0.005513 -0.355773 153 0 76
0.069117 -0.712160 -0.355773 153 0 76
0.060752 0.868046 -0.246183 153 0 76
0.349938 0.355287 0.060515 153 0 76
-0.175256 -0.474977 -0.355773 153 0 76
-0.100368 0.868046 -0.272567 153 0 76
0.174892 0.868046 -0.193292 153 0 76
0.269218 -0.440107 -0.355773 153 0 76
-0.334412 0.202394 0.232574 127 127 0
0.300571 0.258331 0.244025 153 0 76
-0.105726 -0.867688 0.242392 153 0 76
0.293947 -0.667513 0.242392 127 127 0
-0.334412 -0.316255 0.068046 153 0 76
0.101675 -0.921161 -0.112765 153 0 76
0.009834 0.797887 -0.355773 153 0 76
-0.183753 -0.567741 -0.355773 153 0 76
0.087158 -0.380257 0.252372 127 127 0
-0.334412 -0.260563 -0.043725 153 0 76
-0.082805 0.440611 -0.355773 153 0 76
0.181668 0.749624 0.252372 255 0 0
-0.221024 -0.588740 -0.355773 153 0 76
-0.334412 0.729820 -0.200304 153 0 76
0.186544 0.615069 0.252372 255 0 0
0.145917 -0.808532 0.252372 127 127 0
-0.334412 0.797136 -0.093589 153 0 76
0.349938 -0.299942 0.039758 153 0 76
0.016429 -0.079557 0.242392 127 127 0
0.349938 -0.431890 0.224264 127 127 0
-0.334412 0.690545 0.123223 153 0 76
0.307726 0.868046 -0.120397 153 0 76
-0.286517 0.868046 -0.337012 153 0 76
-0.334412 0.398704 -0.067784 153 0 76
-0.172442 0.853538 0.272186 255 0 0
-0.159126 -0.491546 0.242392 127 127 0
0.079085 -0.688327 -0.355773 153 0 76
0.349938 -0.501366 -0.038572 153 0 76
0.349938 -0.371826 -0.241682 153 0 76
-0.334412 -0.765587 0.108275 153 0 76
0.349938 0.336529 -0.069779 153 0 76
-0.309588 -0.773497 0.242392 127 127 0
0.097356 0.592742 0.242392 255 0 0
0.349938 -0.152463 -0.288768 153 0 76
0.342768 0.251241 0.242392 127 127 0
0.349938 0.284255 -0.328381 153 0 76
0.349938 0.158835 -0.117966 153 0 76
-0.264946 0.493661 0.260865 255 0 0
-0.332733 0.160601 0.242392 127 127 0
0.001619 -0.626180 -0.355773 153 0 76
0.349938 0.424915 -0.149355 153 0 76
0.288672 0.868046 0.253322 255 0 0
0.040065 -0.921161 -0.213373 153 0 76
-0.047442 0.748694 0.242392 255 0 0
0.349938 -0.425424 -0.110506 153 0 76
-0.334412 -0.252345 -0.253568 153 0 76
-0.243548 -0.658182 -0.355773 153 0 76
0.081119 0.868046 0.195225 255 0 0
0.329275 -0.104223 0.242392 127 127 0
-0.334412 0.043692 -0.300170 153 0 76
0.029203 0.037258 -0.355773 153 0 76
-0.197340 0.399486 0.242392 255 0 0
0.045185 -0.663401 -0.355773 153 0 76
-0.008338 -0.107347 0.242392 127 127 0
-0.334412 -0.287149 -0.247474 153 0 76
-0.149308 0.868046 -0.195700 153 0 76
0.078304 0.590483 0.252372 255 0 0
-0.145633 -0.921161 0.109962 153 0 76
-0.334412 0.255790 -0.042865 153 0 76
0.349938 -0.781566 -0.338564 153 0 76
-0.334412 0.412803 -0.108564 153 0 76
-0.334412 0.111952 0.124579 153 0 76
0.039629 0.310965 0.242392 0 255 0
-0.334412 0.576100 -0.017590 153 0 76
0.273614 0.091093 0.257678 127 127 0
-0.060708 -0.317086 0.252372 127 127 0
-0.075769 -0.110365 0.252372 127 127 0
-0.334412 -0.756360 -0.282631 153 0 76
0.349938 -0.325075 -0.315629 153 0 76
0.349938 -0.003679 -0.156265 153 0 76
-0.260050 -0.921161 -0.251206 153 0 76
0.349938 0.172377 0.103386 153 0 76
0.349938 0.056828 -0.047374 153 0 76
0.116305 -0.594778 -0.355773 153 0 76
0.130071 -0.184644 0.252372 127 127 0
0.056722 0.741498 0.242392 255 0 0
-0.213148 -0.039796 0.247409 127 127 0
0.225691 0.507558 0.252372 255 0 0
0.349938 0.561432 0.087401 153 0 76
0.288797 0.859784 -0.355773 153 0 76
-0.254160 -0.762960 0.255506 127 127 0
0.267215 0.446585 0.253752 255 0 0
0.349938 -0.196737 0.014022 153 0 76
-0.334412 0.340579 -0.241543 153 0 76
-0.334412 -0.331803 -0.322360 153 0 76
-0.334412 -0.249695 0.232845 127 127 0
0.248252 -0.897703 0.242392 153 0 76
-0.334412 0.252723 -0.300078 153 0 76
-0.334412 -0.132633 -0.061796 153 0 76
0.183121 -0.696314 -0.355773 153 0 76
-0.051741 -0.539053 -0.355773 153 0 76
0.349938 0.389646 -0.294991 153 0 76
0.156706 -0.767049 0.242392 127 127 0
-0.334412 0.557849 -0.179202 153 0 76
0.234362 0.549690 -0.355773 153 0 76
0.084321 -0.696217 0.242392 127 127 0
-0.088143 0.032909 -0.355773 153 0 76
-0.027815 -0.208828 0.252372 127 127 0
0.060674 0.421947 0.242392 255 0 0
-0.100463 0.178669 -0.355773 153 0 76
0.093710 -0.921161 -0.140547 153 0 76
0.242968 -0.866117 0.242392 153 0 76
0.349938 -0.185867 -0.062361 153 0 76
0.349938 0.253555 0.097576 153 0 76
0.247334 -0.334542 -0.355773 153 0 76
0.349938 -0.510097 -0.343893 153 0 76
0.095606 -0.248952 0.252372 127 127 0
0.146767 -0.921161 0.019983 153 0 76
0.244804 -0.459891 0.242392 127 127 0
-0.273608 -0.857339 -0.355773 153 0 76
0.054376 0.868046 0.199439 255 0 0
-0.128753 -0.921161 0.126690 153 0 76
-0.131766 -0.218693 0.246309 127 127 0
0.344993 0.021168 -0.355773 153 0 76
0.233477 0.848582 0.242392 153 0 76
0.061910 -0.921161 -0.134275 153 0 76
-0.334412 -0.761609 -0.237504 153 0 76
0.316959 0.399311 -0.355773 153 0 76
-0.223499 -0.855867 0.262029 127 127 0
-0.263528 0.679365 0.242392 255 0 0
-0.073547 -0.921161 -0.199439 153 0 76
0.047110 -0.291747 -0.355773 153 0 76
0.341264 -0.940891 0.269921 127 127 0
-0.334412 -0.503242 0.146364 153 0 76
-0.334412 -0.213150 -0.125930 153 0 76
-0.334412 0.809927 0.141477 153 0 76
-0.334412 -0.503042 0.012856 153 0 76
0.204882 -0.714561 0.252372 127 127 0
-0.323348 -0.828202 -0.355773 153 0 76
0.293455 -0.126265 0.242392 127 127 0
-0.207914 0.210021 -0.355773 153 0 76
0.349938 -0.749527 -0.239576 153 0 76
-0.237051 0.446234 0.252372 255 0 0
0.303066 0.744718 -0.355773 153 0 76
-0.171142 -0.285430 -0.355773 153 0 76
-0.115293 -0.433038 0.242392 127 127 0
-0.334412 0.744853 -0.296880 153 0 76
-0.240861 -0.335175 -0.355773 153 0 76
0.349938 -0.206917 0.145381 153 0 76
-0.056493 -0.921161 -0.036474 153 0 76
0.099812 -0.921161 -0.218597 153 0 76
0.349938 0.676159 -0.329768 153 0 76
-0.334412 0.558596 0.228002 255 0 0
-0.284293 -0.921161 0.093970 153 0 76
0.272215 -0.769391 -0.355773 153 0 76
-0.006072 -0.921161 0.214913 153 0 76
0.349938 0.342783 0.222729 255 0 0
0.270501 0.002248 0.242392 127 127 0
-0.330694 0.467815 -0.355773 153 0 76
-0.075636 0.304135 0.263225 0 255 0
0.084824 -0.921161 0.041074 153 0 76
0.349938 -0.273162 -0.020238 153 0 76
0.169278 -0.877159 0.272186 127 127 0
-0.334412 0.479768 0.149882 153 0 76
0.303088 -0.921161 -0.203152 153 0 76
-0.334412 0.839163 0.151358 153 0 76
0.159773 0.215804 0.242392 127 127 0
0.349938 0.028672 -0.158124 153 0 76
0.349938 0.434294 0.028267 153 0 76
0.278310 0.128511 0.242392 127 127 0
0.164721 -0.921161 -0.150076 153 0 76
-0.079861 -0.427503 -0.355773 153 0 76
0.349938 0.743555 -0.038970 153 0 76
-0.334412 -0.237665 0.155765 153 0 76
-0.184546 -0.602232 0.242392 127 127 0
0.180014 -0.650021 0.242392 127 127 0
0.349938 -0.742067 0.026223 153 0 76
0.349938 -0.904691 -0.133095 153 0 76
-0.234934 -0.921161 -0.028133 153 0 76
0.349938 -0.677867 -0.126368 153 0 76
0.064708 0.208774 0.242392 127 127 0
0.270102 -0.705208 -0.355773 153 0 76
0.238815 0.261719 0.266151 127 0 127
0.165330 -0.373888 0.242392 127 127 0
0.146127 0.868046 0.140221 153 0 76
0.190414 -0.331313 -0.355773 153 0 76
-0.015941 0.725623 0.242392 255 0 0
0.026319 0.091715 0.252372 127 127 0
0.343384 0.868046 -0.186858 153 0 76
0.103882 -0.661008 0.242392 127 127 0
-0.334412 0.651932 -0.156791 153 0 76
0.019422 -0.349717 0.242392 127 127 0
-0.078695 -0.556520 0.242392 127 127 0
-0.334412 0.314101 -0.232422 153 0 76
-0.067822 0.868046 -0.140396 153 0 76
-0.332511 0.647236 0.253034 255 0 0
0.077415 0.868046 0.117059 153 0 76
-0.283336 0.405481 0.265552 0 255 0
0.283315 0.108023 -0.355773 153 0 76
-0.334412 0.132565 -0.159634 153 0 76
0.349938 -0.350188 -0.108189 153 0 76
-0.062206 0.868046 0.264251 255 0 0
-0.313596 -0.399323 0.242392 127 127 0
0.349938 -0.021436 -0.331270 153 0 76
-0.057708 0.044090 -0.355773 153 0 76
-0.334412 0.285110 0.098239 153 0 76
0.349938 -0.328950 0.236063 127 127 0
-0.297597 -0.691256 0.266183 127 127 0
0.045209 -0.912240 0.272186 127 127 0
0.349938 0.339936 -0.207542 153 0 76
0.144145 0.453392 0.242392 255 0 0
-0.321388 -0.629842 0.260810 127 127 0
-0.233221 0.027055 0.252372 127 127 0
0.336307 -0.921161 0.179570 153 0 76
0.289768 -0.916100 0.207294 76 0 153
-0.056077 0.586481 -0.355773 153 0 76
-0.245461 0.779021 -0.355773 153 0 76
-0.242164 -0.088295 0.252372 127 127 0
-0.334412 -0.200610 0.222405 127 127 0
0.078919 0.216809 -0.355773 153 0 76
0.316396 -0.056186 -0.355773 153 0 76
0.349938 -0.525591 0.225527 127 127 0
-0.115192 -0.921161 -0.079134 153 0 76
-0.194674 -0.431432 0.245001 127 127 0
-0.330412 0.713994 0.256086 255 0 0
0.050709 0.162714 0.252372 127 127 0
-0.085007 0.868046 0.062581 153 0 76
0.328485 -0.921513 0.272186 127 127 0
0.349938 0.248813 -0.066639 153 0 76
-0.334412 0.371334 -0.177595 153 0 76
-0.334412 -0.330305 0.235465 127 127 0
0.349938 -0.695949 -0.015560 153 0 76
-0.085024 -0.294398 -0.355773 153 0 76
-0.334412 0.008573 -0.335024 153 0 76
-0.265166 0.868046 0.097447 153 0 76
0.323805 -0.921161 -0.116229 153 0 76
0.349938 0.574787 -0.035575 153 0 76
0.120453 0.575009 0.252372 255 0 0
-0.334412 0.081464 -0.226281 153 0 76
0.349938 0.653637 -0.349684 153 0 76
-0.236494 -0.921161 -0.290885 153 0 76
-0.106279 0.002842 0.242392 127 127 0
0.064218 -0.672511 0.252372 127 127 0
0.072230 -0.921161 0.142754 153 0 76
0.349938 0.298623 -0.241902 153 0 76
-0.208195 0.868046 -0.243600 153 0 76
-0.206146 0.868046 -0.134524 153 0 76
-0.258081 0.596966 0.242392 255 0 0
0.073781 -0.551776 0.244262 127 127 0
0.349938 0.187946 -0.184378 153 0 76
0.349938 -0.203522 -0.308417 153 0 76
0.349938 0.266557 -0.171221 153 0 76
0.278102 0.868046 -0.109070 153 0 76
-0.294571 -0.662429 0.266171 127 127 0
-0.334412 -0.184804 -0.119178 153 0 76
-0.334412 -0.712093 0.034626 153 0 76
-0.026496 -0.066704 -0.355773 153 0 76
-0.129529 -0.374813 0.242392 127 127 0
0.349938 0.366241 0.125410 153 0 76
0.261848 -0.439411 0.242392 127 127 0
0.349938 0.866826 0.091161 153 0 76
-0.313031 -0.646150 -0.355773 153 0 76
0.093481 0.822833 0.273152 255 0 0
-0.334412 0.646902 -0.020339 153 0 76
-0.334412 0.339598 0.082250 153 0 76
-0.226403 0.138908 0.252372 127 127 0
-0.008523 0.868046 0.148550 153 0 76
0.294046 -0.568278 -0.355773 153 0 76
-0.271533 0.613934 0.242392 255 0 0
-0.334412 0.537306 -0.002456 153 0 76
-0.334412 -0.304946 0.000498 153 0 76
0.349938 -0.066438 0.118381 153 0 76
-0.334412 0.719426 -0.103591 153 0 76
0.349938 -0.490441 -0.142100 153 0 76
-0.334412 0.153623 -0.281121 153 0 76
0.008468 -0.239712 0.252372 127 127 0
-0.252760 -0.622931 0.254647 127 127 0
0.333239 0.868046 0.185392 255 0 0
-0.078603 0.121424 0.242392 127 127 0
0.021557 0.361932 0.266158 0 255 0
0.313352 -0.063338 0.242392 127 127 0
0.355658 0.303526 0.245643 153 0 76
-0.334412 -0.314495 -0.170453 153 0 76
-0.124794 0.282619 0.242392 127 0 127
-0.334412 -0.303335 -0.055704 153 0 76
0.349938 -0.692554 -0.049457 153 0 76
0.340031 0.868046 -0.290244 153 0 76
0.070444 -0.163607 0.242392 127 127 0
0.130507 -0.269478 0.242392 127 127 0
0.207126 -0.016965 -0.355773 153 0 76
0.249476 -0.178045 -0.355773 153 0 76
-0.334412 0.160214 0.123778 153 0 76
-0.334412 0.222429 0.047646 153 0 76
-0.107589 0.348943 0.266155 0 255 0
0.338816 -0.560965 -0.355773 153 0 76
-0.191885 0.119589 0.252372 127 127 0
-0.148066 -0.921161 -0.310787 153 0 76
-0.334412 0.499177 -0.155359 153 0 76
-0.334412 -0.572224 -0.067744 153 0 76
0.349938 0.781454 -0.321205 153 0 76
-0.334412 -0.280558 0.004383 153 0 76
-0.320623 -0.013800 -0.355773 153 0 76
0.228267 0.242103 -0.355773 153 0 76
0.349938 0.588783 0.033514 153 0 76
0.004638 0.621737 -0.355773 153 0 76
0.283630 -0.674130 0.262010 127 127 0
0.291414 -0.921161 0.046374 153 0 76
0.166308 -0.797870 -0.355773 153 0 76
0.161870 0.868046 0.065870 153 0 76
0.349938 0.303506 0.001824 153 0 76
-0.051127 -0.089437 0.242392 127 127 0
0.264381 0.868046 0.220303 255 0 0
0.188352 -0.512139 0.252372 127 127 0
0.155600 -0.048405 -0.355773 153 0 76
-0.334412 -0.822063 0.157067 153 0 76
-0.278966 0.781117 0.246467 153 0 76
-0.245236 -0.433005 -0.355773 153 0 76
0.160301 -0.554155 -0.355773 153 0 76
0.349938 -0.919487 -0.280368 153 0 76
-0.043150 0.868046 0.064818 153 0 76
-0.280305 0.450826 0.265130 255 0 0
0.190451 -0.817984 -0.355773 153 0 76
-0.087603 -0.367225 -0.355773 153 0 76
-0.150827 0.664411 -0.355773 153 0 76
0.349938 0.188745 0.056380 153 0 76
0.129343 0.299442 0.266158 127 0 127
-0.334412 0.412221 0.206619 255 0 0
-0.334412 -0.029222 -0.019681 153 0 76
-0.334412 -0.689576 0.093251 153 0 76
-0.306658 0.205697 0.265052 127 127 0
0.349938 0.614993 0.154790 153 0 76
-0.334412 0.829680 -0.119622 153 0 76
-0.295204 0.830815 -0.355773 153 0 76
0.349938 -0.857180 -0.050518 153 0 76
0.349938 0.434087 0.104744 153 0 76
-0.334412 -0.305668 0.144403 153 0 76
0.343141 -0.615123 -0.355773 153 0 76
-0.185756 0.802752 0.265450 255 0 0
-0.333377 -0.599126 -0.355773 153 0 76
-0.109351 0.868046 0.139087 153 0 76
0.349938 -0.717418 0.087238 153 0 76
0.349938 0.849344 -0.221809 153 0 76
0.319254 0.868046 -0.037073 153 0 76
0.270608 -0.075600 0.242392 127 127 0
0.206390 0.868046 0.234752 153 0 76
0.247515 0.277837 -0.355773 153 0 76
0.130539 -0.887193 0.242392 153 0 76
-0.295962 -0.863398 0.242392 153 0 76
0.295922 -0.508352 0.265088 127 127 0
-0.334412 -0.464882 0.201899 127 127 0
-0.119762 -0.921161 0.031317 153 0 76
0.349938 0.140057 0.201863 127 127 0
-0.100360 0.868046 -0.118858 153 0 76
-0.031272 0.868046 -0.145521 153 0 76
0.015879 0.020045 -0.355773 153 0 76
0.138802 0.868046 0.247224 255 0 0
0.349938 0.662022 -0.021048 153 0 76
0.010422 0.777287 -0.355773 153 0 76
-0.334412 -0.138334 -0.114760 153 0 76
-0.334412 0.200597 -0.092426 153 0 76
0.114999 0.868046 -0.118721 153 0 76
-0.176059 -0.357071 0.242392 127 127 0
-0.313462 0.597450 -0.355773 153 0 76
0.280690 -0.800007 0.260791 127 127 0
0.149574 0.493888 -0.355773 153 0 76
-0.131011 0.868046 -0.079365 153 0 76
0.078048 -0.821272 0.252372 127 127 0
0.301629 -0.891165 0.242392 153 0 76
0.349938 -0.309010 -0.216001 153 0 76
-0.022214 0.868046 -0.191915 153 0 76
-0.161116 0.816483 0.242392 153 0 76
-0.334412 -0.375578 0.020481 153 0 76
0.206216 -0.705441 -0.355773 153 0 76
-0.224710 0.817130 0.242392 153 0 76
-0.315805 -0.172257 -0.355773 153 0 76
-0.256118 -0.921161 -0.057837 153 0 76
-0.065392 -0.476639 -0.355773 153 0 76
0.349274 0.722370 0.243953 255 0 0
0.077192 -0.314079 0.242392 127 127 0
0.028205 0.061091 0.252372 127 127 0
-0.334412 0.303202 0.221653 127 127 0
0.205305 -0.780358 -0.355773 153 0 76
-0.046074 0.728132 0.252372 255 0 0
-0.191081 0.275381 0.242392 127 0 127
0.209571 0.784445 0.242392 153 0 76
-0.277960 -0.367549 -0.355773 153 0 76
-0.334412 0.580162 -0.117890 153 0 76
-0.284780 -0.911581 0.242392 153 0 76
-0.249011 -0.585770 0.252372 127 127 0
0.349938 -0.596845 -0.058482 153 0 76
0.347874 -0.676520 0.242392 127 127 0
-0.334412 -0.603770 0.075646 153 0 76
-0.082559 0.603849 -0.355773 153 0 76
0.062553 -0.024780 0.242392 127 127 0
-0.334412 -0.605113 -0.078987 153 0 76
-0.175207 0.868046 -0.021037 153 0 76
-0.334412 -0.803634 0.223025 127 127 0
0.349938 -0.549525 0.133678 153 0 76
-0.282833 0.486841 -0.355773 153 0 76
0.085077 -0.656153 -0.355773 153 0 76
0.349938 0.613280 -0.011048 153 0 76
-0.268299 -0.650688 -0.355773 153 0 76
0.298315 0.868046 0.090604 153 0 76
-0.334412 0.444437 -0.198341 153 0 76
-0.253989 0.474206 -0.355773 153 0 76
0.063906 0.277295 0.242392 127 0 127
0.349938 0.110598 0.145929 153 0 76
-0.179010 0.461198 0.242392 255 0 0
-0.334412 0.524209 0.127819 153 0 76
0.349938 0.039607 -0.255530 153 0 76
-0.256565 -0.914344 0.272186 127 127 0
-0.042325 -0.921161 0.039789 153 0 76
0.349938 0.866977 -0.115184 153 0 76
0.091393 0.675890 0.242392 255 0 0
-0.329738 -0.325072 0.256608 127 127 0
0.256700 0.658107 0.242392 255 0 0
0.349938 -0.326263 -0.283373 153 0 76
-0.334412 0.260110 -0.339110 153 0 76
0.105439 0.005165 0.242392 127 127 0
-0.176320 0.142514 -0.355773 153 0 76
0.272167 -0.212529 -0.355773 153 0 76
0.165352 0.068138 -0.355773 153 0 76
-0.334412 0.693385 -0.145094 153 0 76
-0.014091 -0.195341 -0.355773 153 0 76
0.349938 -0.013671 0.052574 153 0 76
-0.334191 0.334024 -0.355773 153 0 76
-0.334412 -0.255172 -0.099445 153 0 76
0.008717 -0.551504 -0.355773 153 0 76
-0.334412 -0.606000 0.146694 153 0 76
-0.334412 -0.672294 -0.237931 153 0 76
-0.305569 0.617769 -0.355773 153 0 76
-0.334412 -0.828627 -0.272400 153 0 76
-0.038344 0.622370 -0.355773 153 0 76
0.263083 -0.936716 0.242392 127 127 0
0.004385 -0.672762 0.252372 127 127 0
-0.163451 0.242331 0.242392 127 127 0
0.334977 -0.801770 0.242392 127 127 0
-0.334412 0.779073 -0.077998 153 0 76
0.046788 0.837564 0.273152 255 0 0
-0.334412 0.231249 -0.334386 153 0 76
0.349938 0.832246 0.166783 153 0 76
0.056815 0.110855 0.252372 127 127 0
0.177268 0.802752 0.259942 255 0 0
0.349938 -0.683272 -0.221639 153 0 76
-0.334412 0.446372 0.057078 153 0 76
0.222616 0.105662 -0.355773 153 0 76
0.067196 -0.921161 -0.005861 153 0 76
0.294708 0.471399 0.264919 255 0 0
-0.102985 0.511213 0.242392 255 0 0
-0.018132 0.632841 0.252372 255 0 0
-0.100134 -0.619033 0.252372 127 127 0
0.349938 0.738069 -0.148041 153 0 76
-0.334412 0.440165 0.119060 153 0 76
0.012480 0.286935 -0.355773 153 0 76
0.090392 0.367238 -0.355773 153 0 76
0.349938 0.676254 0.081936 153 0 76
0.349938 0.660542 -0.100728 153 0 76
0.349938 0.429757 0.064587 153 0 76
-0.289709 -0.888768 0.272186 127 127 0
-0.042944 -0.758555 0.242392 127 127 0
0.088853 -0.930034 0.242392 153 0 76
-0.002388 0.254484 0.242392 127 127 0
0.349938 0.646508 0.204754 255 0 0
-0.334412 -0.917390 0.130863 153 0 76
-0.010691 -0.855540 0.242392 153 0 76
-0.334412 -0.851265 0.239809 127 127 0
-0.049789 -0.921161 -0.160165 153 0 76
0.349938 -0.500557 0.072629 153 0 76
0.349938 0.635503 0.129892 153 0 76
-0.334412 -0.253803 -0.341832 153 0 76
0.248467 0.344905 0.262229 0 255 0
-0.334412 0.312016 0.099855 153 0 76
0.349938 -0.798634 -0.172498 153 0 76
0.207165 -0.011709 0.242392 127 127 0
-0.305744 -0.912670 -0.355773 153 0 76
-0.334412 -0.357771 -0.157077 153 0 76
-0.329530 0.420351 0.242392 255 0 0
0.287482 0.252209 -0.355773 153 0 76
-0.334412 0.589975 0.164530 153 0 76
-0.196538 -0.637151 -0.355773 153 0 76
0.015512 -0.545450 0.242392 127 127 0
0.062293 -0.921161 0.022987 153 0 76
-0.169532 -0.929934 0.242392 153 0 76
0.349938 0.646921 0.064680 153 0 76
0.063017 -0.921161 -0.212389 153 0 76
-0.334412 0.829478 -0.065129 153 0 76
0.349938 -0.452373 0.130918 153 0 76
0.274470 -0.293506 0.242392 127 127 0
0.035321 0.000572 0.242392 127 127 0
-0.203265 -0.818787 -0.355773 153 0 76
0.132347 -0.584938 0.252372 127 127 0
0.209056 0.868046 -0.167416 153 0 76
-0.015990 0.151153 0.242392 127 127 0
0.349938 0.367788 -0.302079 153 0 76
-0.086304 -0.353093 0.252372 127 127 0
-0.010357 -0.921161 0.188106 153 0 76
0.062404 0.691349 -0.355773 153 0 76
-0.334412 -0.148507 0.237864 127 127 0
-0.078757 -0.460007 0.242392 127 127 0
0.349938 -0.575487 0.033659 153 0 76
0.349938 -0.348375 -0.019884 153 0 76
-0.334412 -0.394956 -0.001800 153 0 76
-0.093639 -0.320387 -0.355773 153 0 76
-0.057699 -0.347192 0.252372 127 127 0
0.321157 -0.636304 0.242674 127 127 0
-0.144449 -0.668120 0.252372 127 127 0
0.240558 -0.788463 0.242392 127 127 0
-0.130548 -0.631907 -0.355773 153 0 76
0.349938 0.420977 -0.093874 153 0 76
0.349938 0.247795 -0.230964 153 0 76
-0.327258 -0.190585 0.258299 127 127 0
-0.066488 0.460194 0.242392 255 0 0
-0.333360 -0.660971 0.242806 127 127 0
0.127247 -0.302783 0.242392 127 127 0
-0.208573 0.225160 0.252372 127 127 0
0.183395 0.868046 -0.160210 153 0 76
-0.020353 -0.365984 0.242392 127 127 0
0.342543 -0.080181 0.258569 127 127 0
-0.244296 -0.886126 0.272186 127 127 0
-0.226365 0.807759 0.271920 255 0 0
-0.114329 0.400693 0.252372 255 0 0
-0.334412 -0.812544 -0.012386 153 0 76
0.173837 0.668700 0.252372 255 0 0
-0.178089 0.319491 0.242392 0 255 0
-0.103513 -0.896030 0.272186 127 127 0
0.194147 0.537675 -0.355773 153 0 76
0.349938 -0.162724 0.223120 127 127 0
0.245941 -0.921161 -0.246864 153 0 76
0.183881 -0.439782 0.242392 127 127 0
0.349938 0.118988 -0.045424 153 0 76
0.329155 -0.006216 -0.355773 153 0 76
0.349938 0.620958 -0.099750 153 0 76
-0.034835 -0.898338 -0.355773 153 0 76
-0.222856 -0.235026 -0.355773 153 0 76
0.349938 0.792777 -0.122250 153 0 76
-0.334412 -0.293220 -0.351916 153 0 76
0.349938 -0.631761 0.078174 153 0 76
0.128786 0.868046 0.018611 153 0 76
-0.266897 0.868029 0.264830 255 0 0
-0.269806 -0.328740 0.242392 127 127 0
0.106740 0.520513 0.242392 255 0 0
-0.276424 -0.895192 -0.355773 153 0 76
-0.107992 -0.299365 0.252372 127 127 0
0.081500 -0.921161 0.068420 153 0 76
0.068260 -0.192423 0.242392 127 127 0
-0.045332 -0.850069 -0.355773 153 0 76
0.349938 -0.629603 -0.006705 153 0 76
-0.044972 -0.735096 -0.355773 153 0 76
0.349938 0.594318 -0.321021 153 0 76
0.113179 0.552699 0.242392 255 0 0
0.163851 0.868046 0.199436 255 0 0
0.234124 -0.855867 0.262035 127 127 0
0.349938 -0.340214 0.173588 153 0 76
0.023547 0.868046 -0.204726 153 0 76
-0.240601 -0.368057 0.242392 127 127 0
0.349938 -0.895586 -0.038394 153 0 76
0.298654 -0.110115 0.265469 127 127 0
-0.154913 -0.070071 -0.355773 153 0 76
0.327124 0.196849 -0.355773 153 0 76
0.089302 -0.128252 0.242392 127 127 0
-0.197413 0.105872 -0.355773 153 0 76
0.349938 0.778641 -0.147363 153 0 76
0.349938 -0.864788 -0.190974 153 0 76
0.128949 0.527207 0.242392 255 0 0
-0.334412 0.863606 -0.277742 153 0 76
-0.334412 -0.263248 0.158175 153 0 76
0.247533 -0.653626 -0.355773 153 0 76
0.153673 -0.511573 0.252372 127 127 0
-0.295718 0.830112 0.272186 255 0 0
-0.334412 -0.367800 -0.020007 153 0 76
0.279873 -0.405980 0.260434 127 127 0
-0.146527 -0.921161 -0.235919 153 0 76
-0.285457 0.868046 -0.187139 153 0 76
-0.334412 0.673223 -0.175298 153 0 76
0.305319 -0.729448 -0.355773 153 0 76
-0.334412 -0.884266 -0.157187 153 0 76
-0.334412 0.831907 0.186167 153 0 76
0.349938 0.846883 -0.336853 153 0 76
-0.327026 -0.118263 -0.355773 153 0 76
-0.205309 0.021622 0.242392 127 127 0
0.259316 -0.777062 0.242392 127 127 0
0.349938 0.084570 -0.337094 153 0 76
0.143699 -0.921161 -0.180080 153 0 76
0.349938 0.437561 -0.325957 153 0 76
-0.158068 0.088444 0.242392 127 127 0
-0.071088 0.858728 -0.355773 153 0 76
0.240400 -0.081320 0.242392 127 127 0
-0.235354 0.723031 -0.355773 153 0 76
-0.103608 -0.843358 -0.355773 153 0 76
0.242240 -0.539165 0.242392 127 127 0
0.349938 -0.470159 0.182989 153 0 76
-0.093694 0.814490 0.273152 255 0 0
-0.334412 0.793426 0.093430 153 0 76
0.163082 0.394674 0.252372 255 0 0
0.308384 -0.703312 0.242392 127 127 0
-0.194761 0.362352 0.266152 0 255 0
-0.120240 0.817067 0.242392 153 0 76
0.336623 -0.364942 0.242392 127 127 0
0.280814 0.539425 0.260845 255 0 0
-0.054742 -0.921161 0.073468 153 0 76
-0.334412 -0.295266 -0.329408 153 0 76
0.349938 -0.158128 0.006848 153 0 76
-0.060909 0.068527 -0.355773 153 0 76
0.258098 0.821635 -0.355773 153 0 76
0.018082 -0.257528 -0.355773 153 0 76
0.145987 -0.211333 0.252372 127 127 0
-0.029776 -0.267320 0.252372 127 127 0
-0.271519 0.868046 0.185635 255 0 0
-0.334412 0.330760 -0.199689 153 0 76
0.349938 -0.208668 -0.080802 153 0 76
-0.334412 -0.070864 0.092050 153 0 76
0.349938 0.725627 0.136583 153 0 76
-0.143255 -0.481773 -0.355773 153 0 76
-0.213241 -0.122467 0.242392 127 127 0
0.079062 0.526176 0.252372 255 0 0
0.184675 -0.120613 0.242392 127 127 0
0.349938 -0.037845 0.076385 153 0 76
-0.175199 0.617289 0.242392 255 0 0
-0.334412 -0.618424 -0.153549 153 0 76
-0.073312 -0.071974 0.252372 127 127 0
-0.334412 0.707983 0.079398 153 0 76
-0.131627 -0.684622 0.242392 127 127 0
-0.332155 0.329151 0.264336 255 0 0
-0.334412 0.296170 0.058080 153 0 76
-0.043418 0.067381 0.242392 127 127 0
0.207523 0.868046 0.072075 153 0 76
-0.105377 0.039561 0.252372 127 127 0
-0.334412 0.605418 -0.249285 153 0 76
-0.233118 -0.271957 -0.355773 153 0 76
-0.299371 -0.921161 -0.194824 153 0 76
-0.235446 0.602104 -0.355773 153 0 76
0.349938 -0.615527 -0.189054 153 0 76
0.349938 0.311541 -0.280449 153 0 76
0.060247 -0.229588 -0.355773 153 0 76
0.349938 -0.836696 -0.330997 153 0 76
0.349938 0.323255 -0.298620 153 0 76
-0.107234 -0.126556 0.246876 127 127 0
0.213383 0.868046 0.145130 153 0 76
0.184432 0.868046 -0.306592 153 0 76
-0.066767 -0.921161 -0.341038 153 0 76
0.349938 -0.619912 -0.235719 153 0 76
0.349938 -0.718043 -0.059439 153 0 76
0.349938 0.686565 0.123709 153 0 76
0.349938 -0.740307 -0.138625 153 0 76
-0.334412 0.389545 0.174065 153 0 76
-0.291673 -0.244079 0.246153 127 127 0
0.084646 0.194515 0.252372 127 127 0
0.349938 0.225742 0.151514 153 0 76
0.051143 -0.342546 0.252372 127 127 0
-0.162444 0.868046 0.213068 255 0 0
-0.286702 0.123017 0.266022 127 127 0
-0.260194 -0.253016 0.258788 127 127 0
0.281384 0.509916 0.242392 255 0 0
0.065716 -0.587923 0.252372 127 127 0
0.107745 -0.152179 0.242392 127 127 0
-0.180278 -0.679247 0.243478 127 127 0
0.062682 -0.825673 -0.355773 153 0 76
-0.334412 -0.535442 0.074630 153 0 76
-0.334412 -0.794616 0.054833 153 0 76
0.221979 0.632927 0.252372 255 0 0
0.220124 0.868046 -0.312998 153 0 76
-0.288441 0.409271 -0.355773 153 0 76
0.349938 -0.530418 -0.309502 153 0 76
-0.233897 -0.921161 -0.193490 153 0 76
0.337024 -0.921161 -0.007160 153 0 76
0.349938 0.230234 -0.041093 153 0 76
0.348479 0.868046 -0.009286 153 0 76
-0.334412 -0.887010 0.205951 127 127 0
-0.312799 0.623674 0.242392 255 0 0
0.330254 -0.446765 0.242392 127 127 0
0.262172 0.531219 -0.355773 153 0 76
0.017812 0.180619 0.245718 127 127 0
0.211537 -0.822184 0.252372 127 127 0
-0.334412 -0.627239 -0.322825 153 0 76
0.349938 -0.109556 -0.162101 153 0 76
-0.141832 0.865339 -0.355773 153 0 76
0.349938 0.607421 -0.299897 153 0 76
0.126878 0.308799 -0.355773 153 0 76
0.086851 0.387383 0.242392 255 0 0
0.209601 0.868046 -0.197964 153 0 76
-0.117840 -0.898055 0.242392 153 0 76
0.349938 -0.087230 0.223244 127 127 0
-0.334412 -0.355432 -0.055992 153 0 76
-0.334412 -0.137249 0.105128 153 0 76
-0.089613 0.560608 -0.355773 153 0 76
0.349938 0.040529 -0.289583 153 0 76
-0.334412 0.815726 -0.045955 153 0 76
0.349938 0.724200 0.003434 153 0 76
-0.103859 -0.789064 0.252372 127 127 0
-0.322665 0.868046 0.119938 153 0 76
0.330194 -0.300289 -0.355773 153 0 76
-0.147384 -0.921161 0.156419 153 0 76
0.349938 0.646272 0.106423 153 0 76
0.295475 -0.739403 0.242392 127 127 0
0.349938 0.514556 -0.049635 153 0 76
0.327588 0.531138 0.263925 255 0 0
-0.145613 -0.921161 0.221916 127 127 0
-0.194160 0.868046 0.263092 255 0 0
0.141397 0.868046 -0.314178 153 0 76
0.164014 0.868046 -0.241001 153 0 76
0.133009 -0.921161 -0.134602 153 0 76
-0.334412 -0.907293 -0.211319 153 0 76
-0.334412 0.494493 0.011090 153 0 76
-0.334412 -0.808451 -0.075842 153 0 76
-0.039777 -0.384155 0.242392 127 127 0
-0.334412 0.066491 -0.013721 153 0 76
0.347927 -0.178261 0.253839 127 127 0
-0.140473 0.173313 -0.355773 153 0 76
-0.272827 0.431765 -0.355773 153 0 76
0.002921 0.461973 0.252372 255 0 0
0.260414 0.411688 -0.355773 153 0 76
0.349938 -0.677624 -0.174498 153 0 76
-0.104900 0.475926 -0.355773 153 0 76
0.141605 0.734176 0.242392 255 0 0
0.293513 -0.257467 0.242392 127 127 0
0.113893 0.710943 -0.355773 153 0 76
-0.293619 -0.921161 -0.229329 153 0 76
-0.084941 -0.921161 -0.048754 153 0 76
0.021840 0.208851 0.242392 127 127 0
-0.334412 -0.152504 0.189963 153 0 76
0.349938 -0.621739 0.170766 153 0 76
-0.041057 -0.576254 -0.355773 153 0 76
0.209950 -0.622855 0.252372 127 127 0
-0.334412 -0.868640 0.089414 153 0 76
-0.310099 -0.632439 0.242392 127 127 0
-0.334412 -0.410028 -0.128807 153 0 76
0.349938 0.370352 -0.138822 153 0 76
-0.259001 -0.719033 -0.355773 153 0 76
0.044100 -0.921161 0.070424 153 0 76
0.317820 0.708853 0.265679 255 0 0
0.131007 -0.777435 -0.355773 153 0 76
-0.334412 0.722872 -0.141350 153 0 76
-0.140531 -0.921161 0.020617 153 0 76
-0.334412 -0.594599 -0.299135 153 0 76
0.291541 -0.725853 0.264241 127 127 0
0.281153 -0.841057 0.260993 127 127 0
-0.269001 0.838935 0.272186 255 0 0
-0.307234 0.024316 0.242392 127 127 0
-0.107901 -0.921161 -0.221245 153 0 76
-0.095016 -0.732719 0.242392 127 127 0
-0.309790 0.765226 0.264441 255 0 0
-0.027169 0.419548 -0.355773 153 0 76
-0.096440 -0.498825 0.252372 127 127 0
-0.053155 0.868046 -0.297843 153 0 76
0.349938 0.117007 -0.002279 153 0 76
0.349938 0.473608 -0.339488 153 0 76
0.139362 0.207796 0.242392 127 127 0
-0.240877 -0.591705 -0.355773 153 0 76
-0.245907 0.868046 -0.196339 153 0 76
0.349938 -0.253202 -0.081748 153 0 76
0.311706 0.783032 -0.355773 153 0 76
-0.011762 -0.759027 -0.355773 153 0 76
-0.008597 0.819912 -0.355773 153 0 76
-0.020250 0.012067 0.252372 127 127 0
0.349938 -0.505166 0.048516 153 0 76
-0.211341 -0.765744 0.242392 127 127 0
-0.237562 0.498840 0.242392 255 0 0
0.290694 -0.418835 -0.355773 153 0 76
0.255572 0.484715 0.242392 255 0 0
0.349938 -0.604404 0.003896 153 0 76
0.001639 -0.882980 -0.355773 153 0 76
-0.080269 -0.643391 0.252372 127 127 0
-0.007982 -0.921161 0.161721 153 0 76
0.061632 -0.921161 0.189749 153 0 76
0.062651 0.520423 0.242392 255 0 0
-0.332827 0.868046 0.226792 255 0 0
-0.279553 0.251598 -0.355773 153 0 76
-0.334412 -0.678703 -0.310563 153 0 76
