ply
format ascii 1.0
element vertex 1263
property float x
property float y
property float z
property uchar red
property uchar green
property uchar blue
end_header
-0.762309 -0.101749 0.124050 76 0 153
0.352702 0.288172 0.097135 0 127 127
-0.638317 -0.109152 0.331093 76 0 153
-0.762629 -0.256499 0.090560 127 127 0
0.586295 -0.374801 0.153531 255 0 0
0.772910 -0.058182 0.210812 153 0 76
0.235213 0.340643 0.377982 0 127 127
-0.372893 -0.344412 0.168298 76 0 153
-0.656073 -0.017604 -0.074460 76 153 0
-0.798306 0.363131 -0.139186 0 127 127
0.141771 -0.255430 -0.314613 76 153 0
-0.334404 0.110824 -0.280574 76 153 0
0.055035 0.065494 -0.280574 76 153 0
-0.248088 0.363131 -0.223331 0 127 127
-0.203208 0.308518 0.246130 127 127 0
-0.834253 0.335332 0.436469 0 127 127
-0.384364 0.326870 0.436469 0 127 127
-0.455444 0.288172 0.190798 0 127 127
0.306116 0.363131 -0.391915 0 127 127
0.772910 -0.327615 0.235062 153 0 76
-0.194746 -0.073195 -0.314613 76 153 0
0.599060 -0.254926 0.306216 76 0 153
0.301891 0.171735 -0.311630 76 153 0
0.255434 0.027214 -0.314613 76 153 0
0.711986 -0.219553 0.322295 127 0 127
-0.521722 -0.209693 0.128262 204 51 127
0.383617 -0.004233 -0.207817 76 0 153
0.680771 0.363131 0.078730 0 127 127
-0.784224 -0.319062 0.047952 153 76 0
0.372160 0.363131 -0.146385 0 127 127
-0.409355 -0.337069 -0.023627 0 255 0
0.602985 -0.129132 -0.203413 153 0 76
-0.186027 0.195856 -0.314613 76 153 0
0.771972 0.072386 -0.177970 153 0 76
0.571995 0.043134 -0.217382 204 51 127
-0.414743 0.288172 -0.163274 0 127 127
0.785042 0.288172 0.307103 0 127 127
-0.330836 0.003131 -0.312218 76 153 0
-0.285375 0.363131 -0.033296 0 127 127
-0.713660 -0.395194 -0.151514 0 127 127
-0.372893 -0.222198 0.010914 76 0 153
0.505827 0.288172 0.050696 0 127 127
-0.555835 0.136048 0.042449 0 127 127
0.387676 -0.208428 0.020762 76 0 153
-0.484298 0.363131 -0.144624 0 127 127
-0.467596 0.288446 0.309989 255 0 0
0.559681 -0.209693 0.168357 76 0 153
-0.744473 -0.410082 0.227238 153 76 0
-0.408930 0.052516 0.194524 127 127 0
0.757789 0.016957 -0.028936 153 0 76
0.490409 -0.223788 0.316560 76 0 153
-0.441414 0.136048 -0.032778 0 127 127
0.556388 0.289691 -0.224490 0 0 255
0.693028 -0.434600 0.145429 153 0 76
-0.006302 0.340643 0.137434 0 127 127
0.559700 0.122063 0.330145 153 76 0
-0.453552 -0.462428 -0.272238 204 51 127
0.415185 0.201908 0.319716 76 0 153
0.720169 -0.410015 0.177383 153 0 76
-0.437592 0.288172 -0.260529 0 127 127
0.479866 -0.209693 -0.188454 76 0 153
-0.164401 0.026410 -0.312630 76 153 0
0.093767 0.363131 -0.352033 0 127 127
-0.054618 0.288172 0.384216 127 127 0
-0.533349 -0.125707 0.330374 76 0 153
-0.769508 -0.173359 0.225487 153 76 0
0.025439 0.288172 0.024069 0 127 127
0.516076 -0.137055 -0.203737 153 0 76
0.079828 0.288172 0.137739 127 127 0
-0.710290 0.288172 0.041584 0 127 127
0.692447 0.263204 0.200292 0 0 255
-0.360142 -0.273408 -0.293430 76 153 0
-0.784224 -0.361466 -0.111750 153 76 0
0.455799 -0.209693 0.078489 76 0 153
0.757818 0.100167 -0.064997 153 0 76
-0.473529 -0.031220 0.158145 76 153 0
0.076624 0.340643 0.289841 0 127 127
-0.388012 -0.151167 -0.047567 76 0 153
-0.022192 0.308518 0.194494 127 127 0
-0.372994 -0.390057 -0.140517 76 0 153
0.058584 0.298880 0.193847 127 127 0
0.772910 -0.261536 -0.070331 153 0 76
0.451597 -0.263020 0.331409 76 0 153
0.772910 -0.284173 0.118532 153 0 76
0.428815 0.007097 0.331093 153 76 0
-0.762309 0.060832 0.084169 127 0 127
0.271257 -0.085836 -0.283557 76 153 0
-0.783263 0.100511 -0.213052 153 76 0
-0.097686 0.298880 0.203593 127 127 0
-0.703761 -0.468633 -0.252852 204 51 127
-0.454128 -0.298248 -0.202760 127 0 127
0.383036 -0.264479 -0.161287 153 0 76
-0.047903 0.363131 0.124260 0 127 127
-0.432332 -0.195690 -0.079287 153 76 0
0.368330 0.089596 0.328749 153 76 0
-0.784224 -0.298651 0.198250 153 76 0
0.628662 -0.195927 -0.102489 76 0 153
0.363842 0.194662 0.285006 76 0 153
0.670830 0.288172 -0.185875 0 127 127
0.633467 -0.373902 -0.131940 255 0 0
0.536226 -0.180913 -0.200216 153 0 76
-0.769589 0.288172 -0.057645 0 127 127
0.397154 0.029362 0.026944 76 0 153
0.074500 0.363131 -0.322790 0 127 127
0.138707 0.032270 -0.311630 76 153 0
-0.758235 -0.239326 -0.228445 153 76 0
0.740168 -0.209615 -0.126406 76 0 153
0.446361 -0.083590 0.306261 127 0 127
0.136879 0.288172 -0.262776 0 127 127
-0.204797 0.363131 -0.359484 0 127 127
-0.018078 -0.118928 -0.283557 76 153 0
0.718085 0.071309 0.304886 153 76 0
-0.372893 -0.124111 0.120244 76 0 153
-0.536358 -0.132097 -0.315326 0 127 127
-0.711967 -0.415014 0.023378 153 76 0
-0.748185 -0.148437 -0.102709 76 0 153
0.497847 -0.495749 -0.136067 153 0 76
-0.667385 -0.316520 0.331590 255 0 0
-0.751539 -0.347157 0.331365 255 0 0
0.737053 0.103717 0.097312 153 0 76
0.392193 0.363131 0.238849 0 127 127
-0.461787 -0.275368 -0.311701 0 127 127
-0.682609 0.363131 0.371846 0 127 127
-0.394309 -0.349154 0.192933 0 255 0
-0.114741 0.340643 0.121378 0 127 127
0.635699 -0.388665 0.154479 255 0 0
-0.418100 -0.012792 -0.028151 127 127 0
0.108395 0.340643 0.262100 0 127 127
0.361578 0.050925 0.234624 76 0 153
0.077364 0.288172 -0.030044 0 127 127
-0.755852 0.169894 0.331590 153 76 0
0.598533 0.022211 -0.217382 204 51 127
0.441894 -0.429916 -0.267828 153 0 76
-0.703895 0.207257 -0.248978 255 0 0
0.656769 -0.495749 0.283584 153 0 76
-0.552435 -0.195927 -0.063442 204 51 127
0.598451 -0.031220 0.238165 0 0 255
-0.255733 0.235682 -0.311630 76 153 0
-0.427490 -0.394998 0.189511 0 127 127
0.396343 0.133105 -0.109908 76 0 153
-0.713386 0.300715 -0.419785 0 127 127
-0.054364 -0.134397 -0.280574 76 153 0
0.111137 -0.109815 -0.314613 76 153 0
0.159149 -0.137354 -0.280574 76 153 0
0.236005 0.267314 -0.311067 76 153 0
-0.176880 -0.044872 -0.314613 76 153 0
0.322232 0.072446 -0.281574 76 153 0
0.025958 0.336044 0.436469 127 127 0
0.501732 -0.280500 0.305762 76 0 153
-0.141226 0.363131 0.290291 0 127 127
0.015311 0.363131 -0.339481 0 127 127
0.025302 0.285485 -0.299810 76 153 0
0.751269 -0.320969 -0.208161 204 51 127
-0.384385 -0.319583 0.319239 76 0 153
-0.110513 0.363131 -0.158571 0 127 127
-0.641765 -0.249251 -0.315326 0 127 127
0.665131 -0.209693 0.242664 76 0 153
0.390997 0.107184 -0.216998 204 51 127
0.050313 0.363131 -0.131262 0 127 127
-0.115465 0.363131 0.231389 0 127 127
-0.736834 0.136175 -0.166950 0 127 127
0.372739 -0.409722 0.103794 76 0 153
0.733486 -0.007202 0.254590 153 0 76
0.448709 0.363131 0.371638 0 127 127
-0.769719 -0.029933 -0.077610 153 76 0
0.602135 -0.200642 -0.216973 76 0 153
-0.546137 -0.394963 0.047764 0 127 127
-0.741840 -0.344993 0.286926 255 0 0
0.451102 0.264389 -0.311989 0 0 255
-0.034034 0.319937 0.436469 127 127 0
0.115149 -0.241431 -0.314613 76 153 0
0.744877 -0.390284 0.299322 76 0 153
-0.651932 -0.373902 0.031364 0 127 127
0.730383 -0.331179 0.288780 204 51 127
-0.173535 0.288172 -0.366845 0 127 127
-0.319361 0.363131 0.217679 0 127 127
-0.246597 0.297602 0.261586 127 127 0
-0.372893 -0.137562 0.178881 76 0 153
-0.784224 0.034805 0.082701 153 76 0
-0.373536 -0.073977 0.030392 76 0 153
0.673040 -0.195927 0.178505 76 0 153
0.384666 -0.326413 -0.202013 76 0 153
-0.678711 -0.495671 -0.009914 204 51 127
-0.739157 0.033940 0.330092 0 255 0
-0.853962 0.357913 -0.210788 0 127 127
-0.436849 -0.412171 -0.198082 76 0 153
-0.451584 0.099437 -0.245677 0 127 127
0.640312 -0.307610 -0.213469 153 0 76
0.751003 -0.374172 0.039223 204 51 127
0.202017 0.263983 -0.314613 0 255 0
-0.703910 -0.046965 -0.273345 0 127 127
-0.256567 -0.212514 -0.311630 76 153 0
0.383652 -0.266117 -0.195650 153 0 76
0.608056 0.363131 -0.081697 0 127 127
-0.453206 -0.459931 0.003289 204 51 127
0.684599 0.363131 0.404401 0 127 127
-0.365262 0.288172 -0.268447 0 127 127
0.040066 0.363131 0.158892 0 127 127
-0.388002 -0.350574 0.092718 76 0 153
0.739117 0.204710 -0.195331 153 0 76
0.361578 -0.286471 -0.147757 76 0 153
0.653377 -0.240428 -0.315326 153 0 76
-0.784224 -0.103654 -0.085617 153 76 0
0.716995 0.363131 0.031889 0 127 127
0.843727 0.290820 -0.079567 0 127 127
-0.368451 -0.099462 -0.314613 76 153 0
0.656372 -0.495749 0.079462 153 0 76
0.466082 -0.394963 0.093856 153 0 76
0.680250 0.136048 0.084075 153 0 76
-0.402585 0.115891 -0.129636 127 127 0
-0.510943 0.288172 0.092885 0 127 127
0.519350 -0.483268 0.328901 153 0 76
-0.495632 0.136048 0.250053 0 127 127
-0.766870 -0.138205 -0.188611 153 76 0
-0.722776 -0.031134 0.290371 76 153 0
-0.382998 0.267830 -0.314613 0 255 0
0.397616 0.059424 -0.016617 76 0 153
0.749679 0.123030 -0.007959 153 0 76
-0.372893 -0.355488 -0.103691 76 0 153
-0.267549 -0.265310 -0.308951 76 153 0
-0.271848 0.346208 0.435737 0 127 127
0.202437 0.202820 -0.311630 76 153 0
-0.567819 -0.017823 -0.064370 76 153 0
-0.703684 -0.472558 -0.039060 204 51 127
0.449091 -0.195927 -0.027658 76 0 153
0.530194 0.288172 0.217742 0 127 127
-0.753834 0.288172 0.233481 0 127 127
0.843846 0.290899 0.157855 0 127 127
-0.437086 0.083786 -0.217382 0 127 127
0.376259 -0.227482 0.188442 76 0 153
-0.156618 0.363131 -0.255428 0 127 127
-0.769104 -0.324218 0.251158 153 76 0
0.439730 -0.373925 0.059974 255 0 0
-0.275500 0.259141 -0.314613 0 255 0
-0.428837 -0.135912 -0.283557 76 153 0
-0.666531 0.288172 0.130650 0 127 127
-0.599725 0.363131 -0.360868 0 127 127
-0.730963 0.069129 0.304517 76 153 0
0.552370 0.288172 0.083467 0 127 127
0.650754 -0.081295 -0.217381 153 0 76
0.681720 -0.195927 -0.071682 76 0 153
0.480094 -0.495749 0.210720 153 0 76
0.387589 -0.241363 -0.132944 153 0 76
-0.244815 0.340643 0.296681 0 127 127
-0.557001 -0.307247 -0.315326 0 127 127
-0.048128 0.320634 -0.420205 0 127 127
-0.059267 0.267215 -0.314613 0 255 0
-0.698836 -0.031220 -0.164070 76 153 0
0.060081 -0.147271 -0.280574 76 153 0
0.521746 -0.394963 0.062635 153 0 76
0.361578 -0.347771 0.258009 76 0 153
-0.408930 -0.146099 0.153254 153 76 0
-0.688624 -0.075270 -0.314505 0 127 127
0.652001 0.002423 0.304179 153 76 0
-0.464582 -0.143029 -0.313268 0 127 127
-0.388012 -0.053033 0.207863 76 0 153
-0.363412 0.363131 0.130264 0 127 127
-0.065565 0.340643 0.343962 0 127 127
-0.399176 0.304214 -0.420204 0 127 127
-0.130662 0.340643 0.146627 0 127 127
-0.398209 -0.208130 -0.034915 153 76 0
0.668879 -0.017453 0.171279 0 0 255
-0.372893 -0.252750 -0.085073 76 0 153
0.696878 -0.047925 -0.238913 153 0 76
-0.136080 -0.224111 -0.283557 76 153 0
0.069960 0.288172 -0.324221 0 127 127
0.800422 0.363131 0.174989 0 127 127
-0.561996 -0.211146 0.302801 76 0 153
0.632520 0.363131 0.085074 0 127 127
-0.699134 0.360403 -0.408272 0 127 127
0.764904 0.363131 -0.108660 0 127 127
0.646065 0.136048 -0.105057 153 0 76
0.742201 -0.241918 0.152321 204 51 127
-0.739946 -0.187760 0.293177 76 0 153
0.369567 0.137915 -0.281574 76 153 0
0.361578 -0.236057 -0.072514 76 0 153
0.694883 0.288172 0.431081 0 127 127
0.536662 -0.394963 0.191717 153 0 76
0.582902 0.136048 0.109937 153 0 76
0.691926 -0.454825 -0.076124 153 0 76
-0.784224 -0.022017 -0.141812 153 76 0
-0.009909 0.340643 0.346444 0 127 127
-0.501899 0.319081 -0.420205 0 127 127
0.349309 -0.085972 -0.314613 76 153 0
0.606727 0.136048 -0.157130 153 0 76
-0.401005 0.363131 -0.213854 0 127 127
0.229021 0.288172 -0.281132 0 127 127
0.528696 0.290378 0.002818 0 0 255
0.397616 0.055734 -0.086509 76 0 153
0.739131 0.288172 0.012552 0 127 127
-0.489726 -0.034228 -0.213469 0 127 127
-0.632975 0.079655 -0.217382 0 127 127
0.738760 -0.067696 -0.077594 76 153 0
0.179005 0.288172 -0.374235 0 127 127
0.308632 0.072097 -0.314613 76 153 0
-0.746503 -0.181688 0.245473 76 0 153
0.415937 -0.395767 0.213606 76 0 153
-0.426685 0.087757 0.330093 0 255 0
0.569146 -0.209693 0.094270 76 0 153
-0.671247 -0.195927 0.208893 204 51 127
-0.763269 -0.159951 0.290354 76 0 153
-0.784224 0.049697 0.240601 153 76 0
0.421081 -0.369303 -0.003696 255 0 0
-0.211976 0.288172 -0.056958 0 127 127
0.328592 0.288172 0.392332 0 127 127
-0.818370 0.312266 0.436469 0 127 127
0.443541 -0.031220 0.123340 0 0 255
0.433315 -0.388665 0.141923 255 0 0
0.448572 0.363131 -0.055780 0 127 127
-0.166556 0.072710 -0.283557 76 153 0
0.734731 -0.198014 -0.217150 76 0 153
-0.437069 0.068509 -0.283557 76 153 0
0.705981 -0.370696 -0.018896 255 0 0
0.146848 0.063682 -0.283557 76 153 0
-0.691502 -0.493352 -0.230451 204 51 127
0.382994 -0.292421 0.156158 153 0 76
-0.744791 0.122535 0.308755 0 255 0
-0.481866 -0.388665 0.257598 0 127 127
0.382004 -0.124870 -0.228157 76 0 153
0.796529 0.288172 -0.165985 0 127 127
0.561538 -0.394963 0.206988 153 0 76
0.105890 0.363131 0.185354 0 127 127
0.403463 -0.010329 0.092225 76 0 153
0.383492 -0.156944 0.054210 0 127 127
0.458056 -0.325956 -0.315152 153 0 76
-0.344455 0.363131 -0.300735 0 127 127
-0.090571 0.288172 -0.100005 0 127 127
0.658488 0.136048 0.237269 153 0 76
-0.737186 -0.359816 -0.002475 0 127 127
-0.769273 -0.064728 -0.069083 153 76 0
-0.176169 -0.246882 -0.280574 76 153 0
0.386336 -0.226274 -0.203702 76 0 153
0.640712 -0.494862 -0.299246 153 0 76
0.601354 -0.317196 -0.202760 0 0 255
0.736935 -0.078864 -0.124581 76 153 0
0.008482 -0.051643 -0.283557 76 153 0
0.524200 0.001826 -0.315326 153 0 76
0.417943 0.363131 0.065627 0 127 127
-0.300085 0.288172 -0.049933 0 127 127
0.413531 0.115502 -0.311630 76 153 0
-0.749007 -0.390913 0.008756 0 127 127
-0.321728 -0.244597 -0.283556 76 153 0
0.727103 -0.191706 0.140918 76 153 0
-0.702389 -0.105115 -0.300785 0 127 127
0.505660 0.136048 -0.090106 153 0 76
0.452098 0.079578 0.306260 153 76 0
-0.432596 0.363131 0.336211 0 127 127
0.393761 -0.125585 -0.280574 76 153 0
-0.089243 0.308518 0.288414 127 127 0
-0.634103 -0.196926 -0.092882 204 51 127
0.757789 0.058856 0.221876 153 0 76
-0.784224 -0.208213 0.089508 153 76 0
0.407570 -0.050917 -0.228488 153 0 76
0.693047 0.229089 -0.180778 0 0 255
-0.862331 0.305376 -0.202027 0 127 127
0.281976 0.004025 -0.283557 76 153 0
0.606650 -0.099751 -0.203258 153 0 76
-0.818458 0.288172 -0.038615 0 127 127
-0.748186 0.047767 0.172200 127 0 127
0.556947 0.363131 -0.131545 0 127 127
0.629147 0.269328 0.331454 0 0 255
0.564291 -0.305472 0.305762 76 0 153
0.736871 0.071352 -0.164277 153 0 76
0.493739 -0.373902 -0.005854 255 0 0
0.501715 -0.394963 0.209238 153 0 76
-0.741801 -0.078266 -0.228588 153 76 0
-0.517273 -0.364164 0.288926 255 0 0
-0.583624 -0.069227 0.331025 76 0 153
0.799782 0.292242 -0.414777 0 127 127
-0.748288 0.100945 0.001770 127 0 127
0.208543 0.363131 -0.061552 0 127 127
0.519076 -0.495749 0.253049 153 0 76
-0.041073 0.363131 -0.092843 0 127 127
-0.388012 0.045420 -0.106777 76 0 153
0.452758 0.136048 -0.120318 153 0 76
0.400499 0.288172 -0.219930 0 127 127
0.392667 -0.209453 0.070563 76 0 153
0.671822 0.363131 0.258304 0 127 127
0.361578 -0.070657 -0.193620 76 0 153
0.376643 -0.065787 -0.027339 76 0 153
0.058535 0.139660 -0.311630 76 153 0
0.724933 0.363131 0.111799 0 127 127
-0.408930 -0.118147 -0.034117 153 76 0
0.691987 -0.474789 0.003967 153 0 76
0.692240 -0.144645 -0.263523 153 0 76
-0.712239 -0.060643 -0.234476 153 76 0
-0.523716 -0.460387 -0.315326 204 51 127
0.559475 0.290003 0.227295 0 0 255
0.708027 -0.395071 0.302684 153 0 76
0.361578 -0.198321 0.199635 76 0 153
0.633177 -0.006817 -0.197511 204 51 127
0.705682 0.363131 0.161475 0 127 127
0.474162 0.363131 0.154013 0 127 127
0.361578 0.093500 -0.098962 76 0 153
0.411433 0.077880 0.303726 153 76 0
0.692160 -0.471336 0.292361 153 0 76
0.533748 -0.209693 -0.132302 76 0 153
0.683429 0.017851 -0.217382 204 51 127
0.604952 -0.347195 0.331590 76 0 153
0.737000 0.099848 -0.180116 153 0 76
-0.372893 -0.213078 -0.124265 76 0 153
-0.568934 0.136048 -0.118897 0 127 127
-0.324725 0.288172 -0.081207 0 127 127
0.400866 0.204710 -0.078306 76 0 153
-0.646253 -0.374179 -0.075462 0 127 127
-0.373601 0.112712 -0.099790 76 0 153
-0.182502 0.288172 -0.115381 0 127 127
0.750377 -0.022278 -0.012775 0 0 255
-0.448351 0.242527 -0.281017 0 255 0
-0.404858 0.363131 0.288199 0 127 127
0.832442 0.362615 0.297212 0 127 127
-0.224490 0.009284 -0.312425 76 153 0
0.467052 -0.209693 0.049511 76 0 153
-0.390238 0.203853 0.089059 76 0 153
-0.372893 -0.122866 0.054802 76 0 153
-0.211173 0.288172 -0.287221 0 127 127
-0.568580 0.288172 -0.014356 0 127 127
0.647762 -0.342346 -0.315326 153 0 76
0.271788 0.084164 -0.311630 76 153 0
-0.373006 -0.197287 -0.200962 76 0 153
-0.372895 0.103810 0.288325 76 0 153
-0.590339 -0.495749 -0.035996 204 51 127
-0.219537 0.308518 0.137216 127 127 0
-0.142244 -0.259895 -0.314612 76 153 0
-0.769104 -0.204127 -0.101101 153 76 0
0.439396 0.363131 0.203467 0 127 127
0.410427 -0.209693 0.199719 76 0 153
0.453818 -0.373904 -0.016764 255 0 0
0.029151 0.340643 0.254520 0 127 127
0.550134 -0.303926 0.331284 76 0 153
0.361578 -0.157477 0.264138 76 0 153
0.772768 -0.129501 -0.053238 153 0 76
0.607975 -0.154707 0.331093 127 0 127
-0.143402 0.354503 0.431449 0 127 127
-0.439108 0.303962 0.436469 0 127 127
0.361578 0.126981 -0.181555 76 0 153
0.373665 0.203282 0.162592 76 0 153
0.436255 0.051474 -0.239612 153 0 76
0.736640 -0.258795 0.218804 204 51 127
-0.252888 0.361368 -0.405942 0 127 127
0.012781 0.294071 0.115216 0 127 127
-0.549573 -0.158841 0.331093 76 0 153
-0.760952 0.158399 -0.228239 153 76 0
-0.453412 -0.472257 -0.062653 204 51 127
0.285622 -0.265375 -0.308912 76 153 0
0.444348 -0.483682 -0.284556 153 0 76
0.588343 0.363131 -0.371589 0 127 127
-0.394953 -0.004789 0.060922 127 127 0
-0.531882 -0.071175 0.331093 76 0 153
-0.254554 0.288172 -0.383691 0 127 127
0.397616 -0.125176 0.195263 0 127 127
-0.414092 0.135636 -0.078375 0 127 127
0.295835 0.196923 -0.280575 76 153 0
0.500121 -0.373902 0.029326 255 0 0
0.757789 0.044967 -0.138641 153 0 76
0.637842 -0.263831 -0.315326 153 0 76
0.837465 0.288391 0.323419 0 127 127
-0.456970 -0.487240 0.041336 204 51 127
0.360820 0.363131 -0.248077 0 127 127
0.080376 0.288172 0.052593 0 127 127
-0.373892 0.025765 -0.161214 76 0 153
-0.595993 0.363131 -0.256070 0 127 127
0.254761 0.288172 0.348091 0 127 127
-0.784224 0.131496 -0.061506 153 76 0
-0.472106 -0.256452 0.305958 255 0 0
-0.382543 -0.379120 0.324404 76 0 153
0.661830 0.041650 0.330722 153 76 0
-0.465347 0.363131 -0.252860 0 127 127
0.573580 0.136048 0.177438 153 0 76
0.361578 0.112243 -0.076877 76 0 153
-0.451921 -0.334433 -0.246206 0 127 127
0.704332 0.136048 0.098958 153 0 76
0.361578 0.122855 0.041245 76 0 153
-0.400218 -0.061645 -0.028502 153 76 0
0.396916 0.108036 0.164446 76 0 153
0.757789 -0.108510 0.265134 153 0 76
-0.348657 0.288172 -0.360358 0 127 127
0.736372 -0.280111 -0.090643 204 51 127
-0.206027 0.363131 0.181069 0 127 127
-0.394429 -0.297218 -0.204884 255 0 0
0.371535 -0.025207 -0.314613 76 153 0
-0.747973 -0.342376 0.037572 127 127 0
0.599132 -0.209693 0.159405 76 0 153
-0.250180 -0.141254 -0.314613 76 153 0
-0.202195 0.363131 -0.329592 0 127 127
-0.504568 -0.481328 0.329781 204 51 127
-0.395684 0.363131 0.180876 0 127 127
-0.107449 0.363131 0.197145 0 127 127
0.653195 0.363131 0.296910 0 127 127
0.666736 -0.038778 -0.315257 153 0 76
0.677000 -0.393427 0.307962 76 0 153
0.640601 -0.143240 0.330950 127 0 127
0.665780 0.288172 -0.275984 0 127 127
-0.454148 0.120481 -0.267556 0 127 127
-0.637290 -0.309288 -0.315326 0 127 127
-0.546582 -0.374904 0.211597 0 127 127
0.574171 -0.276583 0.305762 76 0 153
-0.514110 -0.196974 0.282425 204 51 127
-0.762309 0.061053 0.194537 127 0 127
0.691993 -0.384081 -0.276147 153 0 76
0.554950 0.092661 -0.315326 153 0 76
-0.106700 0.331410 -0.420205 0 127 127
0.716024 0.288172 -0.031314 0 127 127
0.161252 0.363131 0.036670 0 127 127
0.534247 0.363131 -0.227884 0 127 127
-0.493581 0.363131 0.330518 0 127 127
0.698384 -0.417258 -0.091838 153 0 76
0.720017 0.202177 0.318808 153 0 76
0.383493 -0.084436 0.217484 0 127 127
-0.640446 -0.491325 -0.306014 204 51 127
-0.458968 -0.212430 0.306658 76 0 153
-0.765116 0.203978 0.041166 153 76 0
0.361578 0.151212 0.137684 76 0 153
0.697784 0.098808 -0.236596 153 0 76
0.643757 0.363131 0.150807 0 127 127
-0.173354 0.363131 -0.184814 0 127 127
0.720210 -0.346990 -0.213545 153 0 76
0.770744 0.363131 0.140090 0 127 127
0.847696 0.352288 -0.057507 0 127 127
0.692191 0.250623 -0.259436 0 0 255
-0.620706 -0.433633 0.331591 204 51 127
0.062730 0.340643 0.144258 0 127 127
-0.853597 0.358192 0.421199 0 127 127
-0.394343 -0.352569 -0.197703 0 255 0
-0.261069 0.288172 0.390157 0 127 127
-0.652589 -0.088690 -0.203258 153 0 76
0.532494 -0.242143 0.330980 76 0 153
0.746960 0.288172 0.195571 0 127 127
-0.393948 0.182991 -0.280574 76 153 0
0.100660 0.177043 -0.314613 76 153 0
0.824572 0.288172 0.393614 0 127 127
0.305736 0.363131 -0.156046 0 127 127
0.757789 -0.124780 -0.006158 153 0 76
-0.418581 -0.135497 -0.198972 153 76 0
0.383492 0.010427 -0.146031 76 0 153
0.525356 -0.034222 0.330463 153 76 0
0.436477 -0.388665 0.243698 255 0 0
0.443261 -0.088725 -0.300922 153 0 76
0.405016 -0.410071 -0.124105 76 0 153
-0.388012 -0.296957 0.182877 76 0 153
0.376690 -0.324844 -0.001456 76 0 153
0.355254 0.363131 0.110809 0 127 127
-0.706850 -0.395312 0.300248 0 127 127
-0.765503 -0.082777 -0.194788 153 76 0
-0.680527 0.290279 0.190065 255 0 0
0.545463 -0.316367 -0.212576 0 0 255
0.438183 -0.096880 0.331093 127 0 127
0.389521 0.288172 -0.395725 0 127 127
-0.619908 -0.437013 -0.315326 204 51 127
-0.745612 -0.185503 0.002380 76 0 153
0.557231 -0.495749 -0.063126 153 0 76
-0.506189 -0.394963 0.031309 0 127 127
-0.704078 0.235038 0.239242 255 0 0
-0.651059 0.288172 0.088458 0 127 127
0.699280 -0.415957 -0.004328 153 0 76
0.675135 0.086352 -0.213469 153 0 76
-0.850840 0.288860 0.227689 0 127 127
-0.619767 -0.394963 -0.045748 0 127 127
0.386992 0.363131 -0.073072 0 127 127
-0.490557 0.288172 -0.380945 0 127 127
0.751300 -0.354909 -0.111135 204 51 127
0.772862 -0.381630 0.139375 153 0 76
-0.295912 -0.105636 -0.311630 76 153 0
-0.701882 0.056049 -0.301877 0 127 127
0.255825 0.363131 -0.192289 0 127 127
0.442126 0.268129 -0.112149 0 0 255
-0.663128 -0.495749 -0.278897 204 51 127
-0.212811 0.340643 0.292702 0 127 127
-0.742587 -0.010146 0.085122 76 153 0
-0.399261 -0.386805 0.014928 76 0 153
0.099795 0.340643 0.374624 0 127 127
-0.756064 -0.410082 0.150413 153 76 0
-0.768858 0.102909 0.282888 153 76 0
-0.556206 -0.018452 0.271697 76 153 0
-0.036388 0.288172 -0.022649 0 127 127
0.757789 -0.179777 -0.135579 153 0 76
0.235282 0.332818 0.250265 127 127 0
0.598369 0.363131 -0.023427 0 127 127
0.383167 -0.374831 0.035099 153 0 76
-0.278666 0.154536 -0.312213 76 153 0
0.650119 0.043862 -0.315326 153 0 76
-0.216374 0.077898 -0.280574 76 153 0
-0.252800 0.363131 -0.360006 0 127 127
-0.373490 0.186161 0.147270 76 0 153
0.653805 -0.318342 0.305762 76 0 153
0.757789 0.059544 0.192408 153 0 76
-0.497327 -0.371262 -0.174055 0 127 127
-0.502507 0.288172 -0.006369 0 127 127
-0.551888 -0.374897 0.152991 0 127 127
0.597380 -0.394963 -0.157377 153 0 76
0.106140 0.363131 0.331412 0 127 127
-0.517940 -0.033098 0.304079 0 255 0
-0.520794 -0.388665 0.123392 0 127 127
-0.518053 0.363131 -0.038527 0 127 127
-0.748204 0.010722 0.273562 127 0 127
-0.388012 -0.327407 0.275575 76 0 153
-0.769104 0.008719 0.090343 153 76 0
-0.585895 0.363131 -0.040993 0 127 127
0.279434 0.153902 -0.283557 76 153 0
-0.762806 -0.294927 -0.044390 127 127 0
0.577817 -0.374170 -0.076904 255 0 0
0.692918 0.226721 0.011005 0 0 255
-0.784224 0.024296 -0.014526 153 76 0
0.772910 -0.119662 0.099215 153 0 76
-0.297063 -0.264704 -0.285868 76 153 0
-0.696687 0.285183 -0.018959 255 0 0
-0.300144 0.363131 -0.335821 0 127 127
0.470930 0.363131 -0.367903 0 127 127
0.378507 0.013197 -0.227840 76 0 153
0.179572 0.363131 -0.308006 0 127 127
0.616598 -0.388665 0.002888 255 0 0
0.230659 0.288172 -0.011073 0 127 127
-0.703911 -0.460709 0.220964 204 51 127
-0.769104 0.072693 0.235705 153 76 0
-0.372894 -0.227791 0.290714 76 0 153
0.361578 0.148891 0.002959 76 0 153
-0.218146 0.363131 -0.066977 0 127 127
-0.762309 -0.174816 -0.069950 76 0 153
-0.379066 -0.177729 0.317135 76 0 153
0.456492 -0.420579 0.331165 153 0 76
0.673281 -0.373902 0.027522 255 0 0
-0.408764 0.103143 0.147807 127 127 0
0.014161 -0.246000 -0.314613 76 153 0
0.494174 -0.322614 -0.315326 153 0 76
0.696209 0.288172 0.175531 0 127 127
-0.448222 -0.421580 0.282969 204 51 127
0.731663 -0.349936 -0.167810 204 51 127
0.522868 -0.224346 -0.315326 153 0 76
-0.656832 -0.394963 -0.162254 0 127 127
-0.752862 -0.222062 -0.208401 153 76 0
-0.680770 -0.031220 0.272684 76 153 0
0.665955 -0.031220 0.214845 0 0 255
-0.715899 0.126076 -0.209455 0 127 127
-0.172482 -0.196646 -0.280574 76 153 0
0.078286 0.288172 -0.057666 0 127 127
-0.394865 0.057466 -0.205981 127 127 0
0.604723 0.290378 0.062863 0 0 255
-0.602645 -0.195928 0.223398 204 51 127
0.771942 0.288172 -0.370734 0 127 127
-0.412185 0.024682 0.294402 127 127 0
-0.539534 -0.394964 -0.167153 0 127 127
-0.000298 0.340643 0.398411 127 127 0
0.086119 0.298880 0.199228 127 127 0
-0.372893 0.007851 0.148449 76 0 153
-0.695912 -0.017453 -0.109102 76 153 0
-0.009902 0.213329 -0.311630 76 153 0
0.749576 -0.381592 0.228318 204 51 127
0.547975 -0.495749 -0.242774 153 0 76
-0.414551 0.363131 -0.084725 0 127 127
-0.661973 -0.495749 -0.050413 204 51 127
0.615437 0.115340 0.308661 153 76 0
0.620583 -0.196926 0.170381 76 0 153
-0.388012 -0.163911 0.176868 76 0 153
-0.540148 0.288172 0.094133 0 127 127
0.289938 0.288172 0.250474 0 127 127
-0.394807 0.057577 -0.059238 127 127 0
0.361578 0.150096 -0.150476 76 0 153
0.817048 0.288172 -0.317495 0 127 127
0.481429 0.362778 0.416661 0 127 127
-0.143930 0.106362 -0.283557 76 153 0
0.605731 0.005312 0.331093 153 76 0
-0.036437 0.168663 -0.283557 76 153 0
-0.471205 -0.017453 -0.115851 76 153 0
0.795295 0.363131 0.304335 0 127 127
-0.703735 0.264720 -0.093187 255 0 0
-0.063736 0.363131 0.180236 0 127 127
0.361578 -0.003486 -0.094009 76 0 153
0.518893 -0.031220 -0.071314 0 0 255
0.603947 -0.113323 0.330692 127 0 127
0.738065 0.204710 0.156626 153 0 76
-0.784224 0.053861 0.136168 153 76 0
0.040112 0.363131 0.116386 0 127 127
-0.124165 0.288172 0.075362 0 127 127
0.374395 0.084740 -0.283557 76 153 0
-0.390228 -0.369241 -0.162696 76 0 153
0.489362 -0.119957 0.331022 127 0 127
-0.131908 0.275413 -0.314543 0 255 0
-0.727271 0.288172 -0.068866 0 127 127
-0.784154 -0.323116 0.303009 153 76 0
-0.427358 -0.325520 -0.228494 76 0 153
-0.603808 -0.394963 0.277612 0 127 127
0.560099 -0.495749 -0.148396 153 0 76
0.800662 0.363131 0.096195 0 127 127
0.782650 0.288172 0.178793 0 127 127
0.201027 0.363131 0.346962 0 127 127
-0.210318 0.308518 0.331067 127 127 0
0.040983 -0.080946 -0.280574 76 153 0
-0.024899 0.363131 0.189574 0 127 127
-0.373488 -0.394443 -0.005094 76 0 153
-0.650753 0.363131 0.206110 0 127 127
0.397527 0.200236 -0.281574 76 153 0
0.376294 0.069234 0.123502 76 0 153
-0.625033 -0.017453 0.163845 76 153 0
-0.577946 -0.055930 -0.213469 0 127 127
0.718782 -0.194708 -0.081233 76 0 153
0.361578 -0.134622 0.249908 76 0 153
-0.584327 0.288172 0.338892 0 127 127
-0.649227 0.363131 -0.351796 0 127 127
-0.762309 0.030014 -0.149002 127 0 127
-0.715760 -0.195932 0.114186 204 51 127
0.632481 0.363131 -0.327545 0 127 127
0.724090 -0.209693 0.065594 76 0 153
0.801424 0.288172 -0.045327 0 127 127
-0.728620 -0.395015 -0.121491 0 127 127
0.620991 0.087302 0.306260 153 76 0
-0.584877 -0.031220 -0.115644 76 153 0
0.560270 -0.023872 -0.315326 153 0 76
0.712811 -0.017338 0.023942 0 0 255
-0.679579 0.255992 -0.315233 255 0 0
0.251475 0.363131 -0.120698 0 127 127
0.096999 0.363131 0.123583 0 127 127
0.466327 0.104429 0.331093 153 76 0
-0.486265 -0.288103 -0.202760 127 0 127
-0.827952 0.288172 0.311796 0 127 127
-0.762806 -0.310206 0.139046 127 127 0
0.419404 0.178368 -0.283557 76 153 0
-0.638095 -0.037996 0.328738 0 255 0
-0.761248 0.204301 0.192504 153 76 0
0.203797 0.363131 0.126792 0 127 127
-0.410234 -0.018331 -0.281574 76 153 0
-0.117348 0.000545 -0.312131 76 153 0
-0.748185 -0.148138 -0.065651 76 0 153
-0.671283 -0.018230 -0.128554 76 153 0
-0.142708 0.308518 0.332514 127 127 0
-0.514241 0.288172 -0.071443 0 127 127
0.009309 0.149504 -0.280574 76 153 0
0.772910 -0.212858 0.240708 153 0 76
-0.394807 0.081043 -0.153175 127 127 0
0.233700 0.340643 0.340403 0 127 127
-0.170738 0.340643 0.178044 0 127 127
-0.372893 -0.034854 0.234374 76 0 153
-0.394373 -0.301391 0.105787 0 255 0
0.459875 0.363131 0.002039 0 127 127
-0.096086 0.363131 -0.222233 0 127 127
-0.769614 -0.298422 0.069003 153 76 0
0.193270 0.134549 -0.314613 76 153 0
-0.175687 0.363131 -0.376173 0 127 127
-0.195538 0.288172 0.198183 127 127 0
0.185785 0.308518 0.197720 127 127 0
0.649458 -0.373902 -0.031897 255 0 0
-0.135744 0.258025 -0.283555 76 153 0
-0.861626 0.346002 0.101502 0 127 127
-0.418177 -0.195474 -0.311630 76 153 0
-0.495820 0.363131 -0.207192 0 127 127
0.341895 0.288172 0.182124 0 127 127
0.695363 -0.031220 0.130081 0 0 255
0.689315 0.183688 -0.304187 153 0 76
-0.469249 0.136048 0.172229 0 127 127
0.562583 0.136048 0.213196 153 0 76
0.497585 0.290018 0.436469 0 127 127
0.221122 0.288172 0.126769 127 127 0
0.397196 0.015463 0.053687 76 0 153
-0.558053 -0.196926 0.211544 204 51 127
0.755971 0.203799 -0.121976 153 0 76
-0.071350 0.288172 0.287845 127 127 0
-0.497101 0.288172 -0.325309 0 127 127
0.370656 -0.408287 0.279376 76 0 153
-0.718792 0.288172 -0.196440 0 127 127
0.336794 0.363131 -0.291191 0 127 127
0.394035 -0.064728 -0.082209 0 127 127
-0.580920 -0.457966 -0.315326 204 51 127
-0.694673 0.053456 -0.217382 0 127 127
0.643620 -0.031220 0.269767 0 0 255
0.692942 -0.031220 -0.156364 0 0 255
-0.762806 -0.354456 0.240650 127 127 0
0.757789 -0.268655 0.001759 153 0 76
0.772851 -0.382960 -0.191183 153 0 76
0.383492 -0.168475 0.118636 0 127 127
-0.638840 0.363131 0.295366 0 127 127
0.219352 0.340643 0.203338 0 127 127
0.508204 -0.011947 0.295838 0 0 255
0.565352 -0.196645 -0.044254 76 0 153
0.614504 -0.388665 -0.073897 255 0 0
-0.270520 0.363131 0.145679 0 127 127
0.473110 0.288172 0.248063 0 127 127
-0.597292 0.288172 0.434652 0 127 127
-0.587075 -0.017884 0.249478 76 153 0
-0.506706 0.202071 -0.315326 255 0 0
0.435764 -0.394777 -0.186187 153 0 76
-0.595547 0.026776 0.306260 0 255 0
0.300022 0.288172 0.299943 0 127 127
0.619253 0.139557 -0.315326 153 0 76
0.443486 -0.275570 -0.295838 76 153 0
-0.509822 0.288172 0.051751 0 127 127
0.689490 -0.209693 0.161365 76 0 153
-0.784224 -0.260581 -0.133887 153 76 0
-0.664148 -0.017453 0.238345 76 153 0
0.086246 -0.002914 -0.283557 76 153 0
-0.503953 -0.031220 0.202543 76 153 0
-0.394807 -0.148218 0.078256 153 76 0
0.481794 0.067439 0.306260 153 76 0
0.626107 0.288172 -0.280547 0 127 127
0.586555 -0.209693 -0.130873 76 0 153
-0.103375 0.363131 -0.303183 0 127 127
0.438616 -0.031220 -0.001324 0 0 255
-0.430123 -0.388664 0.074516 0 127 127
-0.620072 -0.384613 -0.203604 255 0 0
0.832001 0.288172 0.434372 0 127 127
0.750995 -0.102988 0.203170 76 153 0
-0.762309 0.078700 0.169848 127 0 127
0.224900 0.340643 0.285764 127 127 0
0.545242 0.362435 0.419265 0 127 127
0.772910 -0.267883 -0.145241 153 0 76
-0.769390 -0.025705 0.056481 153 76 0
-0.453427 0.267204 0.258979 255 0 0
0.129410 0.363131 0.075957 0 127 127
0.681379 -0.195927 0.100758 76 0 153
-0.734151 0.363131 0.280105 0 127 127
0.006489 0.308518 0.227783 127 127 0
-0.388012 0.019835 -0.131384 76 0 153
-0.166230 0.363131 0.355642 0 127 127
0.458370 0.288172 0.306201 0 127 127
0.361578 -0.130148 -0.035618 76 0 153
-0.258177 -0.025166 -0.283557 76 153 0
0.230442 0.163558 -0.283557 76 153 0
-0.662434 -0.286486 -0.315326 0 127 127
-0.554613 0.331587 0.436469 0 127 127
0.851017 0.327472 0.293926 0 127 127
-0.352547 0.288172 -0.329124 0 127 127
0.608016 -0.392364 0.303974 76 0 153
-0.498803 -0.388665 -0.123518 0 127 127
0.659868 -0.243224 -0.204988 0 0 255
-0.420816 0.353204 0.432446 0 127 127
0.644848 -0.270538 0.327790 76 0 153
-0.769131 -0.283995 -0.176246 153 76 0
-0.719400 -0.031220 0.109151 76 153 0
-0.553048 -0.495749 0.173948 204 51 127
-0.737771 0.182993 -0.228252 153 76 0
0.329216 0.175432 -0.281574 76 153 0
-0.607063 -0.205750 0.330974 76 0 153
-0.408660 -0.071710 0.162541 153 76 0
-0.372893 0.016954 0.107228 76 0 153
0.772910 -0.181147 0.032671 153 0 76
0.612514 -0.257935 -0.202918 0 0 255
-0.566780 0.290064 -0.282174 255 0 0
-0.395076 -0.110996 0.042459 153 76 0
0.568596 0.363131 -0.158591 0 127 127
0.757789 -0.100515 0.111339 153 0 76
0.361578 -0.303156 0.105295 76 0 153
-0.572320 0.289972 -0.148381 255 0 0
0.534834 -0.482912 -0.312740 153 0 76
-0.332595 0.363131 0.044244 0 127 127
0.665805 0.290317 -0.216579 0 0 255
0.772241 0.160779 0.098861 153 0 76
-0.070889 0.288172 -0.004305 0 127 127
0.634755 -0.017490 0.127022 0 0 255
0.335618 0.363131 0.045705 0 127 127
-0.388011 -0.019620 0.283761 76 0 153
-0.264603 0.363131 0.068161 0 127 127
-0.728299 -0.366179 0.255531 0 127 127
-0.105483 -0.267613 -0.314555 76 153 0
-0.769104 -0.061324 0.138168 153 76 0
-0.778326 0.034987 0.319212 153 76 0
0.389186 0.363131 0.152614 0 127 127
0.851017 0.329058 -0.020821 0 127 127
-0.488259 0.132655 0.316199 0 255 0
0.508223 0.363131 0.097620 0 127 127
-0.240712 0.288172 -0.124925 0 127 127
0.353628 0.348274 -0.418689 0 127 127
0.844130 0.291089 0.105354 0 127 127
-0.279871 -0.238182 -0.314613 76 153 0
0.361578 -0.206699 -0.169096 76 0 153
0.648012 0.014384 -0.203264 204 51 127
0.435471 -0.031220 0.260463 0 0 255
0.508598 -0.040374 -0.315326 153 0 76
-0.338715 -0.079434 -0.311630 76 153 0
0.235282 0.309986 0.430257 127 127 0
-0.061692 -0.011380 -0.283557 76 153 0
0.350400 0.043853 -0.311630 76 153 0
0.351079 0.206573 -0.281305 76 153 0
0.439097 0.288172 0.189772 0 127 127
0.736637 0.083068 0.286936 153 0 76
-0.188149 0.363131 -0.237923 0 127 127
0.082806 -0.096067 -0.314613 76 153 0
-0.612650 -0.495749 0.099807 204 51 127
-0.670111 -0.261132 -0.315326 0 127 127
0.087560 0.288172 0.337332 127 127 0
-0.496579 -0.495749 -0.080502 204 51 127
0.757789 -0.108406 -0.142966 153 0 76
-0.372893 -0.240153 -0.040831 76 0 153
-0.134636 0.363131 0.211657 0 127 127
0.692198 0.240098 0.070601 0 0 255
0.782211 0.337282 0.436469 0 127 127
-0.530249 0.137128 0.318710 0 255 0
-0.080248 -0.135604 -0.314613 76 153 0
-0.514827 0.363131 -0.169649 0 127 127
-0.445263 0.211475 0.128214 255 0 0
0.373688 0.011161 -0.312106 76 153 0
-0.486744 -0.373902 -0.043846 0 127 127
0.765554 -0.297757 0.328386 76 0 153
-0.692211 0.049878 0.306260 0 255 0
-0.632959 0.134048 -0.200031 0 127 127
-0.099998 0.234047 -0.283557 76 153 0
-0.561483 -0.394963 -0.138845 0 127 127
-0.769104 -0.210699 -0.058683 153 76 0
0.435032 0.363131 -0.171371 0 127 127
0.325533 0.274069 -0.314585 0 255 0
0.066486 -0.261506 -0.280575 76 153 0
0.713636 -0.388601 -0.189128 255 0 0
-0.629178 -0.394963 -0.150540 0 127 127
-0.782405 0.288172 0.105391 0 127 127
0.064687 0.340643 0.432246 0 127 127
-0.762806 -0.302829 -0.003126 127 127 0
-0.762308 -0.010372 0.109575 127 0 127
0.663431 -0.347269 0.331589 76 0 153
-0.340471 0.187129 -0.280574 76 153 0
0.566585 -0.374416 0.184205 255 0 0
-0.473064 0.312749 -0.420205 0 127 127
0.375734 -0.104539 -0.135991 76 0 153
0.583634 -0.495749 -0.062365 153 0 76
0.722866 -0.209693 0.258460 76 0 153
0.751492 -0.308328 -0.135902 204 51 127
-0.015612 0.363131 -0.187612 0 127 127
-0.373892 0.073219 0.009893 76 0 153
-0.086597 0.056654 -0.280574 76 153 0
0.300581 -0.159145 -0.312631 76 153 0
0.772521 0.115760 -0.173320 153 0 76
0.377016 0.288172 0.285716 0 127 127
-0.105720 0.363131 0.405368 0 127 127
0.361578 -0.208834 0.024758 76 0 153
0.334085 0.288172 -0.119680 0 127 127
-0.703910 -0.454171 0.064659 204 51 127
-0.397519 -0.029291 0.027200 76 153 0
0.385636 -0.410066 -0.159309 76 0 153
-0.818480 0.363131 0.158292 0 127 127
0.410717 -0.276749 -0.284306 76 153 0
0.361578 -0.368157 -0.153716 76 0 153
0.635879 -0.446466 -0.315326 153 0 76
0.316516 -0.122783 -0.280574 76 153 0
0.355725 0.288172 -0.175759 0 127 127
-0.748322 0.204710 0.005526 153 76 0
0.271999 0.363131 -0.397636 0 127 127
-0.170182 0.111275 -0.280574 76 153 0
0.697430 -0.351318 0.331589 76 0 153
-0.677362 -0.495685 0.288719 204 51 127
-0.861864 0.344193 0.050158 0 127 127
-0.214194 0.363131 0.153563 0 127 127
-0.660592 -0.031220 0.076532 76 153 0
-0.763110 -0.378416 0.301771 153 76 0
0.376695 -0.265061 0.286759 76 0 153
0.383492 0.086822 -0.085910 76 0 153
-0.661245 -0.373902 0.066156 0 127 127
0.549817 -0.121896 -0.315326 153 0 76
-0.513057 -0.080720 -0.217376 153 0 76
-0.405149 -0.064352 0.255169 153 76 0
0.587689 -0.018290 0.281676 0 0 255
-0.388012 -0.009808 -0.143645 76 0 153
-0.511094 -0.394963 0.079994 0 127 127
0.101883 0.363131 -0.136062 0 127 127
-0.501994 -0.031220 0.018833 76 153 0
0.746175 0.363131 0.183944 0 127 127
-0.594233 -0.286485 -0.315326 0 127 127
-0.762309 0.059327 0.042271 127 0 127
0.693216 0.224833 -0.020226 0 0 255
-0.136170 0.217566 -0.314613 0 255 0
-0.438542 -0.251312 0.305561 255 0 0
0.606169 0.136048 -0.043060 153 0 76
0.757789 -0.222742 0.273027 153 0 76
0.772639 -0.238849 0.307325 153 0 76
-0.274252 -0.012346 -0.314613 76 153 0
-0.575570 0.363131 -0.085552 0 127 127
-0.668266 -0.278335 -0.202760 127 0 127
0.295917 0.288172 -0.166923 0 127 127
0.578248 0.136048 0.289170 153 0 76
0.695729 -0.209693 0.204503 76 0 153
0.546188 0.063717 -0.315326 153 0 76
-0.280120 0.288172 0.040493 0 127 127
-0.158249 0.298880 0.177031 127 127 0
0.758153 0.203618 -0.030895 153 0 76
0.140596 0.363131 0.171619 0 127 127
-0.193666 0.288172 -0.189028 0 127 127
-0.748186 -0.141140 0.201345 76 0 153
0.851017 0.321325 -0.282706 0 127 127
-0.086313 0.017193 -0.314613 76 153 0
-0.784224 -0.271498 -0.101272 153 76 0
-0.443206 0.037446 0.306263 0 255 0
0.456687 0.165901 -0.315135 153 0 76
-0.479669 -0.031220 0.215824 76 153 0
0.602137 0.085977 -0.203258 204 51 127
0.389200 -0.251037 -0.283552 76 153 0
-0.115770 0.100183 -0.314613 76 153 0
0.520975 -0.066581 0.307654 127 0 127
-0.693048 -0.395060 0.131389 0 127 127
0.378618 0.363131 0.004919 0 127 127
0.666569 -0.388663 0.270295 255 0 0
0.571263 -0.031220 0.238874 0 0 255
-0.528335 0.003034 -0.201616 0 127 127
-0.734133 -0.209693 -0.063795 204 51 127
0.772910 -0.159539 0.228555 153 0 76
0.516168 0.136048 0.144836 153 0 76
0.772910 0.080958 0.157523 153 0 76
-0.372895 -0.114731 0.290272 76 0 153
0.570222 -0.149173 -0.203258 153 0 76
-0.748739 0.100125 0.200775 127 0 127
-0.311526 0.363131 -0.014787 0 127 127
0.646592 0.288172 0.375046 0 127 127
0.407335 -0.410049 0.050256 76 0 153
0.423849 -0.209693 0.222257 76 0 153
-0.670515 0.288172 0.353872 0 127 127
-0.451810 0.288172 0.238026 0 127 127
0.122966 0.363131 -0.334524 0 127 127
0.369670 0.200981 0.241221 76 0 153
-0.748186 -0.150575 0.126480 76 0 153
0.644883 -0.195927 0.114323 76 0 153
-0.227738 0.288172 0.343309 127 127 0
0.394001 -0.209510 0.098415 76 0 153
0.027108 0.104055 -0.311630 76 153 0
0.434266 0.111017 0.331093 153 76 0
-0.428131 -0.388637 -0.184863 0 127 127
-0.394523 -0.264627 -0.093938 0 255 0
-0.390967 0.115612 0.074542 76 0 153
-0.519349 0.009081 0.331093 0 255 0
-0.422779 0.117810 0.309029 0 255 0
0.464946 0.363131 0.294845 0 127 127
-0.546303 -0.031220 0.178639 76 153 0
0.132969 0.340643 0.350885 0 127 127
0.850689 0.301181 0.348838 0 127 127
0.632833 -0.388665 0.054189 255 0 0
0.589214 0.070415 0.331039 153 76 0
-0.394807 -0.169631 0.114362 153 76 0
-0.784224 -0.185533 0.257070 153 76 0
-0.747693 -0.313477 -0.155299 127 127 0
0.726073 -0.053851 0.312504 127 0 127
-0.706953 0.288172 0.327886 0 127 127
-0.408930 0.059209 0.164446 127 127 0
-0.456981 -0.017453 -0.010228 76 153 0
0.441011 0.288172 0.089638 0 127 127
0.362123 -0.095242 -0.212143 76 0 153
-0.112349 0.063128 -0.280574 76 153 0
-0.669922 0.136048 -0.008729 0 127 127
0.772055 0.138978 0.140241 153 0 76
-0.676367 0.363131 0.016915 0 127 127
0.532535 -0.195927 0.070174 76 0 153
-0.736109 -0.105531 -0.200587 76 0 153
0.785353 0.363131 -0.062344 0 127 127
-0.049165 0.363131 0.239757 0 127 127
0.383204 -0.037035 -0.199775 76 0 153
0.376698 0.077683 -0.036186 76 0 153
-0.200581 0.023369 -0.280640 76 153 0
0.850309 0.299604 0.014552 0 127 127
0.523891 -0.374332 -0.054084 255 0 0
0.590467 0.136048 0.057805 153 0 76
-0.582051 0.360540 -0.407943 0 127 127
0.514701 -0.097958 -0.213469 153 0 76
-0.697636 -0.371366 0.271502 0 127 127
0.496708 0.042931 -0.203759 204 51 127
-0.417294 -0.012197 0.107129 127 127 0
-0.549101 0.363131 -0.003968 0 127 127
-0.106059 0.288172 0.230939 127 127 0
0.706848 0.288172 -0.179892 0 127 127
0.664090 -0.147161 -0.315283 153 0 76
0.822642 0.288172 -0.176553 0 127 127
0.319471 -0.043899 -0.280574 76 153 0
-0.352732 0.363131 0.409453 0 127 127
0.757789 -0.232391 -0.110850 153 0 76
-0.762309 0.039507 0.215729 127 0 127
-0.645261 -0.373920 0.260213 0 127 127
0.440621 -0.031220 -0.098229 0 0 255
0.581954 0.288172 -0.187097 0 127 127
-0.703799 -0.004244 -0.251081 0 127 127
0.682623 0.109898 0.307186 153 76 0
-0.693503 -0.394963 -0.016282 0 127 127
0.126355 0.288172 -0.382060 0 127 127
0.437897 -0.200063 -0.314545 76 153 0
0.058399 0.295537 0.436469 127 127 0
0.616076 0.363131 0.269314 0 127 127
-0.641992 -0.495749 0.110987 204 51 127
-0.423581 0.268901 -0.314612 0 255 0
-0.295607 0.178161 -0.311992 76 153 0
-0.663357 -0.069860 0.331093 76 0 153
-0.718493 0.007257 0.305156 0 255 0
-0.318811 0.167595 -0.283557 76 153 0
0.582325 0.363131 -0.205749 0 127 127
-0.378184 0.099615 -0.312630 76 153 0
0.396953 -0.079339 0.136861 0 127 127
-0.433637 -0.162592 -0.203266 153 76 0
-0.451661 -0.427950 0.208259 204 51 127
-0.019941 0.288172 -0.329673 0 127 127
-0.118271 -0.161688 -0.283557 76 153 0
-0.853149 0.296916 -0.418404 0 127 127
-0.738042 0.047108 -0.228653 153 76 0
-0.121884 0.363131 0.062429 0 127 127
-0.762806 -0.281448 0.240350 127 127 0
-0.408930 0.075357 0.122294 127 127 0
-0.664095 -0.186919 -0.217382 153 0 76
0.706314 0.206930 -0.000940 153 0 76
0.760326 0.288172 -0.230469 0 127 127
-0.644304 -0.394963 0.074777 0 127 127
0.698354 -0.031220 0.215641 0 0 255
-0.121635 0.340643 0.386015 127 127 0
-0.642414 -0.394963 0.019366 0 127 127
-0.388012 -0.104748 0.067310 76 0 153
0.244366 0.185536 -0.314613 76 153 0
0.691624 0.078184 -0.265774 153 0 76
0.299752 0.288172 -0.080335 0 127 127
0.414366 0.136714 -0.281574 76 153 0
0.505236 -0.031220 0.270942 0 0 255
0.765951 0.199536 -0.059057 153 0 76
0.286957 0.288172 0.389994 0 127 127
-0.235417 0.363131 0.170739 0 127 127
-0.035252 0.288172 0.255826 127 127 0
0.361578 -0.052909 0.236095 76 0 153
0.441166 0.231048 -0.119461 0 0 255
-0.610256 -0.394963 0.078658 0 127 127
-0.689704 -0.114210 -0.217382 153 0 76
-0.424654 -0.364134 -0.157067 255 0 0
-0.327648 0.288172 0.050852 0 127 127
-0.628466 -0.246197 0.307834 255 0 0
-0.411336 -0.345944 0.255539 0 255 0
0.499712 -0.098354 0.306260 127 0 127
-0.670238 -0.495749 0.073045 204 51 127
-0.703851 -0.238447 -0.284339 0 127 127
-0.762796 -0.272089 0.042261 127 127 0
-0.696488 -0.388665 0.082415 0 127 127
0.477656 0.363131 -0.340543 0 127 127
-0.044685 0.363131 0.319247 0 127 127
-0.369365 0.164757 -0.312630 76 153 0
-0.464272 -0.380440 -0.313094 0 127 127
0.361754 0.183296 -0.148922 76 0 153
0.615085 0.288172 -0.202099 0 127 127
-0.762284 -0.195167 0.208815 76 0 153
0.442069 0.053167 -0.290986 153 0 76
0.751134 -0.289521 0.073389 204 51 127
0.361578 0.145527 -0.042312 76 0 153
-0.676421 0.288172 -0.384390 0 127 127
-0.388012 -0.277340 0.239683 76 0 153
-0.131463 0.288172 -0.121601 0 127 127
-0.595789 -0.394963 0.211482 0 127 127
0.383538 -0.021237 0.224789 76 0 153
-0.442718 0.043319 -0.233838 76 0 153
0.678943 0.061419 -0.313677 153 0 76
0.405216 0.288172 -0.270718 0 127 127
0.383499 -0.149011 0.281630 0 127 127
-0.475653 0.136048 -0.006240 0 127 127
-0.409428 -0.277228 0.077996 0 255 0
0.851017 0.316011 0.203880 0 127 127
0.376698 0.042353 -0.156798 76 0 153
0.772910 -0.201506 0.102045 153 0 76
-0.372893 -0.081166 0.200086 76 0 153
0.441480 -0.066067 -0.259840 153 0 76
0.750176 -0.203054 -0.003482 76 153 0
0.612342 0.136048 0.096025 153 0 76
-0.713929 -0.185711 -0.197874 153 0 76
-0.642991 -0.394963 -0.017583 0 127 127
0.749140 0.123645 0.084379 153 0 76
-0.747327 -0.180535 -0.091412 76 0 153
-0.726803 0.316589 0.436469 0 127 127
-0.478071 -0.394963 0.285593 0 127 127
0.361578 -0.269893 -0.175324 76 0 153
0.562425 0.136093 -0.184252 153 0 76
-0.409333 -0.340795 0.055859 0 255 0
-0.769127 -0.355117 0.284246 153 76 0
-0.637400 0.363131 -0.057714 0 127 127
0.376698 -0.217612 -0.009326 76 0 153
-0.534562 -0.039551 0.324582 76 0 153
0.388587 0.129323 -0.140568 76 0 153
-0.784224 0.122431 0.002359 153 76 0
0.672165 0.363131 -0.237529 0 127 127
0.078173 0.363131 0.316448 0 127 127
0.699964 0.036894 0.330761 153 76 0
-0.095978 -0.028313 -0.314613 76 153 0
-0.623013 0.288172 0.131124 0 127 127
-0.142321 0.340643 0.169762 0 127 127
-0.491144 0.363131 -0.364581 0 127 127
-0.674971 0.122586 -0.315286 0 127 127
0.401095 -0.284185 -0.184482 153 0 76
-0.224359 0.363131 0.074213 0 127 127
0.757789 -0.242882 0.194376 153 0 76
0.731614 -0.247618 -0.190779 204 51 127
-0.691354 0.354614 0.431363 0 127 127
-0.745597 -0.006013 -0.100928 127 0 127
-0.408930 -0.093147 -0.098158 153 76 0
-0.576606 -0.495596 0.314283 204 51 127
0.659134 0.234697 -0.315326 0 0 255
-0.234235 0.288172 -0.156886 0 127 127
-0.650326 -0.041393 -0.315326 0 127 127
0.597918 -0.388665 0.038891 255 0 0
-0.124795 0.363131 0.260698 0 127 127
0.602328 -0.056529 -0.315326 153 0 76
0.824877 0.363131 -0.121210 0 127 127
-0.121537 0.340643 0.281498 0 127 127
-0.209613 0.363131 -0.214209 0 127 127
0.235282 0.302880 0.235234 0 127 127
-0.680013 0.288172 -0.125213 0 127 127
0.242895 0.288172 -0.256914 0 127 127
-0.547797 -0.388665 -0.025212 0 127 127
-0.271715 -0.189591 -0.280574 76 153 0
-0.746375 0.204710 -0.046666 153 76 0
0.686981 -0.372734 -0.168965 255 0 0
-0.705302 -0.373842 0.192557 0 127 127
-0.141197 0.340643 0.303029 0 127 127
0.376694 -0.345351 -0.093445 76 0 153
0.361578 -0.066436 -0.061972 76 0 153
-0.080982 0.363131 -0.112336 0 127 127
0.772375 -0.128774 -0.209010 153 0 76
-0.583254 -0.394963 -0.074689 0 127 127
0.566592 -0.210329 0.300837 127 0 127
0.257817 0.363131 0.325578 0 127 127
0.757789 -0.319735 0.158369 153 0 76
-0.427225 0.115884 -0.280574 76 153 0
0.654811 0.363131 0.348944 0 127 127
0.574354 0.290043 -0.040314 0 0 255
0.406416 0.363131 -0.278440 0 127 127
0.757789 -0.094928 -0.095185 153 0 76
0.669262 -0.141027 0.306260 127 0 127
-0.748185 0.041609 -0.168741 127 0 127
0.376698 0.017444 -0.081064 76 0 153
-0.063941 0.298880 0.175072 127 127 0
-0.742884 0.134742 0.242107 153 76 0
0.545058 0.363131 0.226458 0 127 127
-0.408930 -0.095007 0.114681 153 76 0
0.131500 0.288172 0.377233 127 127 0
0.650598 0.288172 -0.332283 0 127 127
-0.374606 0.190088 0.287947 76 0 153
0.361578 -0.349316 0.031337 76 0 153
0.398970 -0.343734 0.200425 153 0 76
0.721745 0.352341 0.433108 0 127 127
-0.518018 0.136048 0.063138 0 127 127
-0.456114 -0.394963 0.087354 0 127 127
-0.373295 0.118813 0.313240 76 0 153
0.294862 0.363131 0.250852 0 127 127
0.757789 -0.207206 0.043755 153 0 76
0.383535 -0.020607 0.138888 76 0 153
-0.784224 -0.030390 0.222070 153 76 0
0.436566 -0.292404 0.305487 255 0 0
0.207405 0.363131 -0.188260 0 127 127
0.619257 -0.374903 0.239784 255 0 0
-0.614645 -0.154954 -0.213469 0 127 127
0.525500 0.055026 0.331093 153 76 0
0.704071 -0.388665 0.226054 255 0 0
-0.741750 -0.388591 -0.032373 0 127 127
0.730114 -0.394041 0.205661 153 0 76
-0.400078 -0.387645 0.146492 76 0 153
0.736372 -0.324122 0.070938 204 51 127
0.464786 0.180348 0.331520 153 0 76
0.225650 -0.171551 -0.280574 76 153 0
-0.700988 0.136048 0.059165 0 127 127
0.566454 -0.394963 -0.120756 153 0 76
0.094001 -0.211816 -0.283557 76 153 0
0.722055 0.288172 -0.257768 0 127 127
-0.431028 -0.044514 -0.314613 76 153 0
0.390084 -0.095963 0.331092 127 0 127
-0.698472 -0.031220 -0.023789 76 153 0
0.736808 -0.209678 0.124731 76 0 153
0.019413 0.340643 0.138676 0 127 127
0.482793 0.288172 -0.169568 0 127 127
-0.784224 -0.265686 0.195097 153 76 0
0.681808 -0.492494 0.245053 153 0 76
0.383015 -0.362578 0.112364 153 0 76
-0.747798 -0.259629 -0.135390 127 127 0
0.732114 -0.188013 -0.026339 76 153 0
-0.533741 -0.062407 -0.208193 153 0 76
-0.481805 0.288172 0.243980 0 127 127
-0.784224 -0.325300 -0.039692 153 76 0
-0.409479 -0.256124 0.280059 0 255 0
-0.484823 0.363131 0.045842 0 127 127
0.032838 0.168788 -0.311630 76 153 0
-0.555647 -0.487441 0.327005 204 51 127
0.243566 0.288172 0.146941 0 127 127
-0.315064 0.291952 -0.414447 0 127 127
-0.792639 0.363131 0.358474 0 127 127
-0.065419 0.288172 -0.212346 0 127 127
0.621761 -0.017453 0.098754 0 0 255
