ply
format ascii 1.0
element vertex 1281
property float x
property float y
property float z
property uchar red
property uchar green
property uchar blue
end_header
-0.494981 -0.556780 0.014726 204 51 127
-0.612194 -0.376783 -0.203280 76 153 0
0.644520 0.135875 -0.115689 255 0 0
-0.068274 0.183791 0.076992 153 0 76
-0.353040 0.080585 0.172888 127 127 0
0.355020 0.183791 0.107222 153 0 76
-0.533003 0.158143 0.017183 153 0 76
-0.279288 0.024118 -0.194271 0 0 255
-0.026114 0.026812 0.196547 127 127 0
0.707129 0.183791 0.115565 153 0 76
-0.628255 -0.005276 0.191909 153 0 76
-0.581343 -0.463973 0.181695 153 0 76
0.696506 0.183791 -0.074986 153 0 76
-0.056687 0.072650 0.025745 0 127 127
-0.042313 0.093397 0.206921 0 255 0
0.671236 -0.349527 0.181086 127 0 127
-0.387881 0.158143 0.037233 153 0 76
0.329740 0.183791 0.237340 153 0 76
-0.008228 -0.550429 0.014726 204 51 127
0.102559 0.064101 -0.148440 0 127 127
0.214755 0.158143 0.073569 153 0 76
0.642346 -0.115599 -0.203280 0 127 127
0.638108 0.130342 0.081044 255 0 0
-0.243568 0.123946 0.006670 127 0 127
-0.600410 -0.359351 0.155191 153 0 76
0.644369 -0.284625 0.207085 127 0 127
-0.189217 0.158143 -0.200389 153 0 76
0.583241 0.183791 0.265673 153 0 76
0.638108 0.094083 0.076882 255 0 0
-0.421900 0.180948 -0.262956 153 0 76
-0.651973 0.158143 -0.206401 153 0 76
-0.239294 0.133766 -0.194731 0 0 255
-0.217889 0.043541 -0.012586 153 76 0
0.132313 0.183791 -0.042162 153 0 76
-0.568115 -0.186181 0.179053 153 0 76
0.602842 0.011434 -0.174423 0 127 127
0.173818 0.183791 -0.115757 153 0 76
-0.529318 0.183791 -0.255856 153 0 76
-0.627341 0.183791 -0.059728 153 0 76
0.357031 0.106278 -0.169083 0 0 255
0.652444 0.183791 0.244274 153 0 76
0.606353 -0.009961 -0.134886 0 127 127
-0.595128 -0.652559 -0.165349 76 153 0
0.637039 -0.574166 0.106691 76 0 153
0.120305 0.117399 -0.194731 0 0 255
-0.746803 0.158143 0.202476 153 0 76
0.084826 0.183791 0.134864 153 0 76
0.294161 0.029904 0.099484 76 0 153
-0.469241 -0.534925 0.014726 204 51 127
0.502113 -0.525800 0.010996 204 51 127
0.054104 0.158143 -0.203594 153 0 76
0.094033 0.072650 -0.066719 0 127 127
-0.117569 0.158143 0.123170 153 0 76
0.156949 0.183791 0.081426 153 0 76
0.113645 0.158143 -0.194984 153 0 76
0.643629 0.118783 -0.203280 0 127 127
0.418835 -0.577328 0.007026 204 51 127
0.389398 0.021354 -0.192605 0 0 255
0.037308 0.183791 -0.040566 153 0 76
0.410751 0.183791 0.256420 153 0 76
-0.422758 0.183791 0.210333 153 0 76
0.386067 0.048396 0.172888 127 127 0
-0.581738 0.039472 0.138691 153 0 76
-0.582451 -0.242605 0.207085 153 0 76
-0.208171 0.072650 0.018949 0 127 127
-0.093301 0.158143 0.217878 153 0 76
-0.090841 0.183791 -0.040606 153 0 76
0.472568 -0.540894 0.014726 204 51 127
0.283862 0.021354 -0.194094 0 0 255
0.760803 0.158143 0.205207 153 0 76
-0.205249 0.072650 -0.094937 0 127 127
-0.509435 0.076882 -0.194731 0 0 255
0.183273 0.072650 -0.080433 0 127 127
0.828993 0.179320 -0.169099 153 0 76
-0.656005 0.164764 0.258466 153 0 76
0.024150 0.072650 -0.126251 0 127 127
0.493848 0.183791 0.145231 153 0 76
-0.628255 -0.577014 0.197127 153 0 76
-0.002718 0.158143 0.006989 153 0 76
-0.495431 0.183791 -0.173313 153 0 76
0.671236 -0.112178 0.143789 127 0 127
-0.188211 0.158143 0.134166 153 0 76
-0.157766 -0.529921 0.014573 204 51 127
0.469359 -0.553654 -0.010922 204 51 127
-0.761634 0.183791 0.017273 153 0 76
0.053297 0.093229 0.207085 0 255 0
0.638108 0.082727 -0.019199 255 0 0
0.769348 0.158143 0.232634 153 0 76
0.641405 -0.151106 -0.203280 0 127 127
-0.349481 0.024351 0.172888 127 127 0
0.351177 0.158287 -0.240066 153 0 76
0.299171 0.029904 -0.016042 76 0 153
-0.587551 0.175019 0.265370 153 0 76
-0.562471 0.158143 0.120854 153 0 76
-0.687432 0.164068 -0.253852 153 0 76
0.051865 -0.533654 -0.010922 204 51 127
-0.306401 0.158143 0.140881 153 0 76
0.638108 0.108068 -0.082789 255 0 0
0.567286 0.183791 0.232140 153 0 76
-0.472983 0.158143 0.045039 153 0 76
-0.584221 0.102139 0.179300 153 0 76
0.641297 -0.188717 0.207085 127 0 127
0.300128 0.029904 0.152669 76 0 153
0.585879 0.158143 -0.153451 153 0 76
0.631424 0.054819 -0.134886 0 127 127
-0.030596 0.023939 -0.194327 0 0 255
-0.391490 0.094112 0.198536 127 127 0
0.646486 -0.476886 -0.203280 0 127 127
0.082357 0.158143 -0.131929 153 0 76
-0.107356 -0.551062 0.014726 204 51 127
0.719723 0.183791 -0.140412 153 0 76
0.190999 0.158143 -0.112048 153 0 76
-0.137068 0.048531 -0.194731 0 0 255
-0.089385 0.135366 0.179300 127 127 0
0.130528 0.183791 -0.130213 153 0 76
0.765311 0.183791 -0.096259 153 0 76
-0.619706 0.082390 -0.011976 0 255 0
-0.229926 -0.544329 -0.010922 204 51 127
0.603324 -0.022964 -0.192965 0 127 127
0.772753 0.183791 0.181862 153 0 76
-0.118698 0.183791 -0.132731 153 0 76
-0.601570 -0.311839 -0.203280 76 153 0
-0.351731 0.183791 -0.005046 153 0 76
-0.477215 0.158143 -0.151803 153 0 76
0.475322 0.158143 0.032005 153 0 76
0.641412 0.183791 0.182990 153 0 76
0.220196 0.183791 -0.241036 153 0 76
0.049903 0.021354 -0.194532 0 0 255
0.619030 -0.557782 -0.010922 204 51 127
-0.094791 0.105647 -0.169083 0 0 255
-0.022536 0.183791 -0.185351 153 0 76
-0.623360 0.183791 0.051394 153 0 76
-0.294387 0.183791 -0.055070 153 0 76
0.663756 0.121486 0.060654 255 0 0
-0.001289 0.158143 -0.064230 153 0 76
-0.243537 0.069878 -0.067588 0 127 127
-0.317867 0.091515 0.172888 127 127 0
0.170049 0.183791 -0.074538 153 0 76
-0.720671 0.158143 0.039653 153 0 76
-0.189862 0.165921 0.259667 153 0 76
0.171122 0.158143 -0.056418 153 0 76
0.220457 -0.532225 -0.010922 204 51 127
0.081544 0.158143 0.091701 153 0 76
0.654650 0.158143 0.013129 153 0 76
-0.695745 0.158143 0.178112 153 0 76
0.637039 -0.528550 -0.048601 76 0 153
-0.594163 -0.155513 0.145485 153 0 76
0.348859 0.158143 0.011842 153 0 76
0.295068 0.092586 0.059724 127 127 0
-0.777707 0.181039 0.217593 153 0 76
-0.259162 0.158143 -0.105561 153 0 76
0.602617 0.183791 0.050717 153 0 76
0.028884 0.158143 -0.124041 153 0 76
-0.416554 0.158143 0.163543 153 0 76
0.311170 0.158143 -0.111547 153 0 76
0.805919 0.183791 0.171541 153 0 76
0.293565 0.158143 0.135566 153 0 76
0.320730 0.183791 -0.151337 153 0 76
0.530006 0.083738 -0.169083 0 0 255
-0.259688 0.183791 -0.073201 153 0 76
0.607129 -0.102871 -0.173773 0 127 127
0.653399 -0.589404 -0.162342 0 127 127
-0.594058 0.106268 0.023207 0 255 0
0.439468 0.081962 0.198536 127 127 0
-0.594058 0.057048 0.030202 0 255 0
-0.250375 0.055552 -0.116415 153 76 0
-0.046740 0.183791 -0.003803 153 0 76
0.490252 0.028974 0.193824 127 127 0
-0.608908 -0.516460 0.207085 153 0 76
0.255848 0.158143 0.000104 153 0 76
0.669254 0.158143 0.109159 153 0 76
0.570865 0.183791 -0.146231 153 0 76
-0.614877 0.021354 0.037671 0 255 0
-0.405135 0.183791 0.092286 153 0 76
0.170956 0.183791 -0.153432 153 0 76
0.644566 -0.522090 -0.203280 0 127 127
0.573813 0.158143 -0.213459 153 0 76
0.605168 0.183791 -0.234296 153 0 76
-0.479614 0.183791 0.087933 153 0 76
-0.214087 0.076612 -0.169083 0 0 255
0.531779 0.158143 0.231898 153 0 76
-0.176250 0.064101 0.103860 0 127 127
-0.733810 0.158143 -0.085343 153 0 76
0.602842 0.132290 0.162955 127 0 127
-0.158503 0.183791 -0.003233 153 0 76
0.784118 0.158143 -0.179601 153 0 76
0.428984 0.158143 -0.172086 153 0 76
0.330378 0.158143 0.089933 153 0 76
0.818055 0.175261 0.265461 153 0 76
-0.135279 0.158143 -0.218465 153 0 76
0.623431 0.024918 0.207085 127 0 127
-0.619706 0.090949 0.057838 0 255 0
0.163006 0.183791 0.024205 153 0 76
-0.611513 -0.117012 0.207085 153 0 76
-0.602381 -0.297583 0.152250 153 0 76
-0.073007 0.183791 0.183553 153 0 76
0.762370 0.158143 0.006985 153 0 76
-0.459344 0.183791 -0.019213 153 0 76
-0.252921 0.029904 0.086690 153 76 0
-0.495388 0.134566 -0.194731 0 0 255
-0.494987 0.021671 0.172888 127 127 0
-0.411247 0.024653 -0.169083 0 0 255
-0.594058 -0.545364 -0.070955 153 0 76
0.626029 0.148662 0.207085 127 0 127
0.207420 0.158143 -0.001234 153 0 76
-0.350976 0.047984 0.198536 127 127 0
-0.276579 0.183791 0.162783 153 0 76
-0.274083 0.183791 0.055092 153 0 76
-0.628255 -0.145121 -0.177742 76 153 0
-0.011846 0.158143 -0.197449 153 0 76
-0.082443 0.029904 -0.174743 0 0 255
0.488057 0.158143 -0.125678 153 0 76
-0.415689 0.183791 0.242678 153 0 76
0.663756 0.046287 -0.121701 255 0 0
0.375393 0.104130 0.172888 127 127 0
0.018483 0.110819 -0.194731 0 0 255
-0.283384 0.183791 -0.213376 153 0 76
0.405277 0.143109 0.198536 127 127 0
0.637827 -0.687394 0.170812 127 0 127
0.116435 -0.537853 0.014726 204 51 127
0.488661 0.087264 0.172888 127 127 0
0.516317 0.132254 0.198536 127 127 0
0.298436 0.183791 0.111818 153 0 76
-0.129451 0.072650 0.155488 0 127 127
0.628485 0.141044 -0.179434 0 127 127
-0.766236 0.162320 -0.192745 153 0 76
0.454992 0.090334 0.172888 127 127 0
0.600980 0.158143 0.218296 153 0 76
0.457356 0.130154 -0.194731 0 0 255
0.802794 0.158143 0.199904 153 0 76
-0.384780 0.183791 -0.101828 153 0 76
0.631152 0.023286 -0.134886 0 127 127
0.671236 -0.107890 -0.150277 0 127 127
0.664749 -0.012883 -0.134888 0 127 127
-0.224682 0.183791 -0.138780 153 0 76
0.276350 0.183791 0.004085 153 0 76
-0.201576 0.108862 0.181438 0 255 0
0.685495 0.158483 -0.241558 153 0 76
0.482477 -0.566337 0.014726 204 51 127
0.034998 0.183791 -0.146306 153 0 76
-0.642498 0.183791 -0.118513 153 0 76
0.583733 0.183791 -0.018451 153 0 76
-0.319676 0.183791 -0.072039 153 0 76
-0.535827 -0.563323 -0.010922 204 51 127
-0.458331 0.158143 0.152680 153 0 76
0.663756 0.118621 0.112058 255 0 0
-0.239889 0.183791 0.138509 153 0 76
0.091809 0.158143 -0.045437 153 0 76
-0.191220 0.183791 -0.157255 153 0 76
-0.505024 0.183791 -0.095709 153 0 76
0.222318 0.183791 0.033950 153 0 76
0.235991 0.095439 0.181438 0 255 0
0.702750 0.183791 0.190230 153 0 76
0.541649 0.183791 -0.092458 153 0 76
-0.168282 0.183791 -0.240722 153 0 76
-0.269729 0.158143 0.116369 153 0 76
-0.047989 0.072650 0.075232 0 127 127
0.360015 0.183791 0.206529 153 0 76
-0.605663 0.158143 0.052104 153 0 76
-0.203336 0.158143 -0.124812 153 0 76
-0.594772 -0.232334 -0.145338 76 153 0
-0.213456 0.158143 0.040262 153 0 76
-0.628255 -0.708187 0.182596 153 0 76
0.638108 0.024889 -0.007627 255 0 0
-0.225507 0.055552 0.191788 0 255 0
0.293114 0.158143 -0.209879 153 0 76
-0.520088 0.108870 -0.194731 0 0 255
-0.081103 0.183791 -0.237107 153 0 76
0.553500 -0.529547 -0.010922 204 51 127
-0.681410 0.183791 -0.068701 153 0 76
-0.233244 0.183791 -0.020075 153 0 76
0.354272 0.158143 0.229111 153 0 76
-0.436501 0.158143 -0.018925 153 0 76
-0.325985 0.106828 0.198536 127 127 0
-0.619706 0.075541 0.031618 0 255 0
-0.214125 0.158143 -0.080501 153 0 76
-0.371708 -0.534617 0.014726 204 51 127
0.644950 -0.054450 -0.136867 0 127 127
-0.452800 0.062557 -0.194731 0 0 255
0.503116 0.158143 0.182596 127 127 0
-0.252087 0.094328 -0.051494 127 0 127
0.614149 0.183791 -0.206631 153 0 76
0.671236 -0.466119 -0.175279 0 127 127
0.103181 0.158143 0.058396 153 0 76
-0.306287 0.183791 -0.181728 153 0 76
0.121110 0.103414 -0.169083 0 0 255
-0.376910 0.158143 -0.216078 153 0 76
0.647136 -0.555078 -0.160707 76 0 153
0.188628 0.072650 0.162633 0 127 127
-0.330637 0.183791 0.049810 153 0 76
-0.290223 0.158143 -0.133286 153 0 76
0.318923 -0.574464 0.013316 204 51 127
-0.747699 0.183791 0.239342 153 0 76
0.124304 0.183791 0.055587 153 0 76
0.613398 -0.577328 0.013024 204 51 127
-0.629139 0.183791 0.223075 153 0 76
0.679994 0.183791 -0.020638 153 0 76
-0.231834 -0.570216 0.014726 204 51 127
0.774926 0.183791 -0.158565 153 0 76
-0.217889 0.046889 0.049093 153 76 0
-0.068609 0.158143 -0.204287 153 0 76
0.671236 -0.460089 0.174048 127 0 127
0.262745 -0.563412 0.014726 204 51 127
-0.594058 -0.554165 0.144728 153 0 76
0.662687 -0.554534 0.065420 76 0 153
-0.538763 0.088165 -0.169083 0 0 255
0.351281 0.085635 0.172888 127 127 0
-0.506948 0.158143 0.174292 153 0 76
-0.438223 0.183791 0.038318 153 0 76
-0.002551 0.183791 -0.152611 153 0 76
0.657434 -0.513685 -0.158736 0 127 127
0.007860 0.183791 -0.016019 153 0 76
0.637039 -0.532065 0.024250 76 0 153
-0.181756 0.127392 -0.194731 0 0 255
0.618585 0.183791 -0.064413 153 0 76
0.210547 0.183791 -0.136263 153 0 76
0.622876 0.042398 0.179300 127 0 127
0.487159 0.183791 0.239227 153 0 76
-0.234988 0.094603 0.144549 127 0 127
-0.722309 0.158143 0.009280 153 0 76
-0.619706 0.127931 -0.074557 0 255 0
0.187024 -0.565108 0.014726 204 51 127
-0.536902 0.183791 -0.142634 153 0 76
-0.214275 0.084678 0.181438 0 255 0
0.168530 0.158143 0.196591 153 0 76
0.130676 0.158143 -0.161239 153 0 76
0.039971 0.072650 -0.076020 0 127 127
0.613682 -0.240492 -0.188244 0 127 127
0.307665 0.158143 0.041311 153 0 76
0.384911 0.158143 0.088187 153 0 76
0.156525 0.158143 -0.193337 0 0 255
-0.607718 -0.543824 -0.184565 76 153 0
-0.619706 0.039612 -0.103502 0 255 0
-0.181194 0.183791 0.160131 153 0 76
-0.231615 0.158143 -0.171362 0 0 255
-0.628255 -0.533785 0.179298 153 0 76
0.324380 0.183791 -0.234983 153 0 76
-0.128387 -0.552989 -0.010922 204 51 127
0.097479 0.183791 -0.229677 153 0 76
-0.555136 0.158143 0.064251 153 0 76
0.181756 0.183791 0.246873 153 0 76
-0.769368 0.164730 0.182298 153 0 76
-0.728173 0.183791 -0.262035 153 0 76
-0.595169 -0.166307 -0.203280 76 153 0
-0.120794 0.064101 -0.065952 0 127 127
0.295068 0.085912 0.164985 127 127 0
-0.098951 0.163688 0.257195 153 0 76
0.220636 0.021480 -0.194727 0 0 255
-0.602995 -0.311546 -0.149110 76 153 0
0.618893 -0.349909 -0.178389 0 127 127
-0.594356 0.183791 -0.049195 153 0 76
-0.694048 0.183791 0.220219 153 0 76
-0.595274 -0.730983 -0.200707 76 153 0
0.286805 0.029904 -0.042733 76 0 153
-0.594058 0.108847 -0.096674 0 255 0
0.398541 0.183791 -0.092078 153 0 76
-0.133278 0.065973 -0.169083 0 0 255
0.545865 0.183791 -0.059980 153 0 76
0.562408 0.171426 -0.259934 153 0 76
0.286401 0.158143 -0.183016 0 0 255
-0.512606 0.183791 0.115866 153 0 76
0.449855 0.158143 -0.211255 153 0 76
0.127086 0.164688 -0.254580 153 0 76
0.669121 -0.526253 0.207085 127 0 127
-0.597092 -0.548789 0.011463 204 51 127
0.641217 0.132495 -0.072419 255 0 0
0.393725 -0.546659 -0.010922 204 51 127
-0.430176 0.183791 -0.173455 153 0 76
0.518823 0.183791 0.154683 153 0 76
-0.049886 -0.525800 0.003331 204 51 127
0.470096 0.095481 -0.169083 0 0 255
-0.628255 0.035183 -0.173342 76 153 0
-0.551076 0.023701 -0.194399 0 0 255
0.736540 0.158143 0.090169 153 0 76
-0.607372 -0.561964 0.188370 153 0 76
-0.275991 0.110940 0.172888 127 127 0
0.726489 0.183791 0.240884 153 0 76
-0.256180 -0.558871 0.014726 204 51 127
-0.311144 0.080973 -0.169083 0 0 255
-0.269185 0.051315 0.032855 153 76 0
0.623683 -0.450514 0.166022 127 0 127
-0.743929 0.183791 -0.064906 153 0 76
0.657404 0.183791 0.095401 153 0 76
0.423447 0.132495 0.179042 127 127 0
-0.493655 0.183791 0.180777 153 0 76
-0.615822 0.021354 0.117812 0 255 0
-0.726950 0.158143 0.226268 153 0 76
-0.355542 0.029904 -0.169237 0 0 255
0.045264 0.047062 0.199517 0 255 0
-0.282130 -0.548825 -0.010922 204 51 127
-0.602777 0.095656 -0.203280 76 153 0
-0.596143 0.158143 0.234565 153 0 76
-0.752655 0.183791 -0.164819 153 0 76
0.538166 0.183791 -0.145743 153 0 76
-0.526832 0.183791 -0.011564 153 0 76
0.511927 -0.577328 0.013079 204 51 127
0.506772 0.123923 -0.169083 0 0 255
-0.599772 -0.427682 0.158445 153 0 76
0.241546 -0.576742 -0.006656 204 51 127
-0.619706 0.042889 -0.056163 0 255 0
-0.591423 -0.489201 -0.203280 76 153 0
-0.025260 0.183791 -0.036204 153 0 76
0.081517 0.183791 -0.179913 153 0 76
0.710676 0.158143 0.058679 153 0 76
-0.148582 0.151110 0.172888 127 127 0
0.641113 -0.074017 0.207085 127 0 127
-0.132431 0.106951 0.206921 0 255 0
-0.107818 0.158143 -0.006336 153 0 76
0.035265 -0.530035 0.014687 204 51 127
0.326803 0.057426 0.198536 127 127 0
0.190275 0.183791 -0.027717 153 0 76
0.797594 0.158143 -0.126270 153 0 76
0.295068 0.103229 -0.047275 127 127 0
0.745667 0.158143 -0.089240 153 0 76
-0.377100 0.149594 -0.171311 0 0 255
0.671236 -0.245522 -0.170812 0 127 127
-0.628255 0.106495 0.179019 153 0 76
-0.232553 0.108135 -0.194731 0 0 255
0.671236 0.115328 0.206507 127 0 127
0.380608 0.128706 0.198536 127 127 0
0.552589 0.158143 0.146164 153 0 76
0.043157 0.165177 0.258907 153 0 76
-0.129092 0.072650 0.182714 0 255 0
-0.023708 0.183791 -0.117542 153 0 76
0.004873 0.085835 0.207085 0 255 0
0.051577 0.064101 0.069402 0 127 127
-0.295588 0.158143 -0.076450 153 0 76
0.023582 -0.573053 -0.009225 204 51 127
0.486970 0.183791 -0.109044 153 0 76
-0.574442 -0.319039 0.165720 153 0 76
0.671236 0.103056 -0.179437 0 127 127
-0.046081 0.072650 -0.079575 0 127 127
-0.252087 0.073770 0.018081 127 0 127
-0.056410 0.183791 -0.156312 153 0 76
0.510110 0.045211 -0.194731 0 0 255
-0.615406 -0.087084 -0.203280 76 153 0
0.083041 -0.574124 0.013655 204 51 127
0.139788 0.183791 0.240951 153 0 76
0.124243 0.038453 0.176391 127 127 0
0.257581 0.183791 -0.212490 153 0 76
-0.739980 0.183791 -0.122507 153 0 76
-0.221506 0.158143 0.158217 153 0 76
0.623679 -0.028002 0.207085 127 0 127
0.054640 0.183791 0.175286 153 0 76
-0.118592 0.183791 -0.165427 153 0 76
0.434033 0.158143 0.223717 153 0 76
0.663756 0.076897 0.091157 255 0 0
0.051917 0.158143 -0.231018 153 0 76
-0.594058 0.087525 0.084422 0 255 0
-0.378546 0.183791 0.070445 153 0 76
0.044910 0.125382 -0.169083 0 0 255
0.608897 -0.139994 -0.185964 0 127 127
0.357276 0.100343 -0.194731 0 0 255
-0.619706 0.089304 0.118159 0 255 0
-0.597343 -0.327987 0.153698 153 0 76
-0.524201 0.158143 -0.167293 153 0 76
0.058553 0.158143 -0.157762 153 0 76
0.313526 0.055552 0.059305 76 0 153
-0.259139 0.065968 -0.169083 0 0 255
0.210414 0.158143 0.047643 153 0 76
-0.433861 0.158284 0.243839 153 0 76
-0.426836 -0.561507 -0.010922 204 51 127
-0.565980 -0.141347 0.158653 153 0 76
0.614826 0.158143 -0.201088 0 127 127
0.663756 0.118083 -0.112506 255 0 0
-0.350797 -0.554863 0.014726 204 51 127
0.055669 0.064101 0.006523 0 127 127
-0.628255 -0.471467 -0.181537 76 153 0
0.302860 0.183791 0.008248 153 0 76
-0.166206 0.158143 0.091327 153 0 76
0.265825 0.145946 -0.194731 0 0 255
0.408759 0.129529 -0.169083 0 0 255
-0.196207 0.183791 -0.088772 153 0 76
0.092789 0.129192 -0.169083 0 0 255
0.091718 0.183791 -0.122632 153 0 76
0.639261 0.158143 -0.067462 153 0 76
0.188248 0.029904 0.173213 127 127 0
-0.080291 0.085329 0.207085 0 255 0
-0.586311 0.183791 -0.258021 153 0 76
-0.628255 0.087193 0.203525 153 0 76
0.618755 0.183791 -0.153000 153 0 76
-0.560624 -0.028864 -0.146359 76 153 0
-0.002232 0.096900 0.181438 0 255 0
0.100398 0.035714 0.198066 127 127 0
0.041100 0.183791 0.198043 153 0 76
0.663756 0.056038 -0.009083 255 0 0
-0.196567 0.064101 -0.146817 0 127 127
0.007923 0.099492 0.229173 255 0 0
-0.136263 0.183791 0.075664 153 0 76
0.645646 -0.605174 0.207085 127 0 127
0.372877 0.158143 0.027303 153 0 76
-0.391391 0.114869 -0.194731 0 0 255
0.375692 0.183791 -0.152234 153 0 76
-0.234988 0.098579 0.090646 127 0 127
0.071136 0.158143 0.025737 153 0 76
0.579783 0.183791 0.108706 153 0 76
0.414314 0.183791 -0.147002 153 0 76
0.173103 0.072650 0.038501 0 127 127
-0.624213 0.158143 -0.154108 76 153 0
0.625749 0.158143 0.007797 153 0 76
-0.286494 0.183791 0.115290 153 0 76
-0.174960 0.183791 0.233135 153 0 76
0.272219 0.132495 -0.172594 0 0 255
-0.325261 -0.530074 -0.009796 204 51 127
0.710128 0.158143 0.213427 153 0 76
0.469002 0.183791 -0.208735 153 0 76
0.060459 0.183791 -0.054583 153 0 76
0.663756 0.088993 0.114616 255 0 0
-0.108719 0.158143 -0.113326 153 0 76
0.224305 0.183791 -0.092477 153 0 76
-0.617068 0.183791 0.092683 153 0 76
-0.699599 0.183791 0.157446 153 0 76
-0.230679 0.029904 -0.157947 153 76 0
-0.628255 -0.172147 -0.177395 76 153 0
0.180478 0.099312 0.207085 0 255 0
0.577737 -0.525800 0.003444 204 51 127
-0.245789 0.055552 0.103287 127 0 127
-0.619706 0.069035 -0.063342 0 255 0
-0.559861 0.002720 0.182396 153 0 76
0.461800 0.183791 0.075498 153 0 76
-0.385537 0.158143 0.233413 153 0 76
-0.571236 -0.239861 -0.203280 76 153 0
-0.416062 0.158143 -0.224039 153 0 76
-0.177035 0.023357 -0.169083 0 0 255
-0.594058 0.128330 0.118853 0 255 0
0.316335 0.021354 0.173035 127 127 0
0.628490 0.130969 0.184455 127 127 0
0.648584 -0.252092 0.207085 127 0 127
0.090052 -0.530930 0.014726 204 51 127
0.340554 0.183791 -0.090681 153 0 76
0.518370 0.158143 -0.193648 0 0 255
0.744070 0.158143 0.173889 153 0 76
0.573950 0.158143 -0.096422 153 0 76
-0.640706 0.158143 0.072887 153 0 76
-0.606054 0.015927 -0.203280 76 153 0
0.671236 -0.329897 -0.193253 0 127 127
0.591114 0.115233 -0.169083 0 0 255
0.285219 0.183791 -0.091254 153 0 76
-0.166278 0.158143 -0.069238 153 0 76
0.628157 0.091096 0.179300 127 0 127
-0.628255 -0.366935 0.196357 153 0 76
0.638108 0.071839 0.106325 255 0 0
0.358381 0.055552 0.173518 127 127 0
0.671236 -0.673522 -0.197733 0 127 127
0.671236 -0.083284 0.181569 127 0 127
-0.178712 -0.560655 0.014726 204 51 127
0.657979 -0.642806 -0.164884 0 127 127
-0.234988 0.091712 0.037061 127 0 127
0.358502 0.183791 0.262390 153 0 76
-0.383774 0.149594 0.175212 127 127 0
0.271537 0.022335 0.172888 127 127 0
-0.084047 0.183791 0.126020 153 0 76
-0.577935 -0.392395 0.182380 153 0 76
-0.602293 -0.156559 0.207085 153 0 76
0.735389 0.183791 -0.004319 153 0 76
0.378984 0.073299 0.198536 127 127 0
0.523433 0.183791 0.038943 153 0 76
-0.578507 0.085564 0.138691 153 0 76
-0.395947 0.183791 -0.042369 153 0 76
-0.612548 -0.500954 0.161934 153 0 76
0.569200 0.077223 -0.194731 0 0 255
0.372014 0.158143 -0.040140 153 0 76
-0.078196 -0.540682 -0.010922 204 51 127
0.645552 -0.367329 -0.151766 0 127 127
0.229011 0.072650 0.108840 0 127 127
-0.614974 0.158143 -0.114008 0 255 0
0.266440 0.158143 -0.043419 153 0 76
0.730652 0.183791 0.198197 153 0 76
-0.088426 0.183791 0.244210 153 0 76
-0.663570 0.158143 0.053335 153 0 76
-0.103397 -0.525903 0.010555 204 51 127
-0.211654 0.121585 0.206921 0 255 0
-0.610982 0.144336 0.138691 0 255 0
-0.597124 -0.577096 -0.136511 153 0 76
-0.246001 0.158143 -0.040896 153 0 76
0.264349 0.033818 0.000910 76 0 153
-0.600600 -0.568585 -0.183297 76 153 0
-0.593918 -0.728051 0.175507 153 0 76
0.213101 0.158143 -0.126757 153 0 76
0.556012 0.183791 0.026117 153 0 76
-0.594521 -0.034331 -0.203280 76 153 0
0.256054 0.149594 0.178556 127 127 0
-0.628255 -0.112233 0.164736 153 0 76
-0.558112 0.183791 0.090512 153 0 76
-0.628255 -0.326534 -0.186042 76 153 0
0.407161 0.158143 -0.080856 153 0 76
0.327277 0.138772 -0.194731 0 0 255
-0.211731 0.047465 -0.169083 0 0 255
0.217532 0.183791 -0.045714 153 0 76
-0.369038 0.183791 0.222315 153 0 76
0.637039 -0.559674 0.024463 76 0 153
-0.178439 0.158143 -0.132235 153 0 76
-0.137821 0.161617 0.254168 153 0 76
0.154384 0.072650 -0.074606 0 127 127
-0.180304 0.158143 0.195841 127 127 0
-0.753682 0.162155 0.255034 153 0 76
-0.031276 0.158143 -0.141375 153 0 76
0.668648 0.183791 -0.063048 153 0 76
0.173243 0.064101 -0.114511 0 127 127
-0.498202 0.183791 -0.236495 153 0 76
0.717294 0.158143 -0.105690 153 0 76
0.806310 0.183791 0.001097 153 0 76
0.451192 0.183791 -0.037700 153 0 76
0.165368 0.159625 0.249849 153 0 76
0.513533 -0.551002 -0.010922 204 51 127
-0.239912 0.183791 0.194413 153 0 76
-0.130789 -0.577328 -0.000891 204 51 127
0.662687 -0.553097 -0.029823 76 0 153
-0.504779 0.158143 -0.115583 153 0 76
0.180470 0.029904 -0.172935 0 0 255
0.401992 0.158143 -0.208658 153 0 76
0.800600 0.158143 0.065730 153 0 76
0.663308 0.158143 0.189707 127 0 127
-0.130401 0.183791 -0.087312 153 0 76
-0.600470 0.123352 -0.158483 76 153 0
-0.517200 0.160959 0.252947 153 0 76
-0.123939 0.157562 0.198536 127 127 0
-0.003408 0.183791 0.239462 153 0 76
0.655384 -0.568789 -0.182176 0 127 127
0.602842 0.057936 0.159824 127 0 127
0.586145 0.158143 0.197485 153 0 76
0.227680 0.064101 -0.150176 0 127 127
0.728574 0.183791 -0.036388 153 0 76
-0.135501 0.064101 -0.089770 0 127 127
0.315961 0.183791 0.074891 153 0 76
-0.596354 -0.573714 0.165399 153 0 76
0.662657 0.158143 -0.040480 255 0 0
0.627556 0.183791 0.141321 153 0 76
-0.533737 -0.538164 0.014726 204 51 127
0.364156 0.130781 -0.169083 0 0 255
0.056232 0.064101 -0.126136 0 127 127
0.341698 -0.557855 0.014726 204 51 127
-0.588026 -0.335522 0.207085 153 0 76
-0.368908 0.158143 -0.019261 153 0 76
0.313780 0.158143 0.166418 153 0 76
-0.628255 0.045720 0.189045 153 0 76
0.622182 0.183791 -0.002542 153 0 76
0.399821 0.164657 -0.254547 153 0 76
-0.034304 0.079366 -0.194731 0 0 255
0.174320 0.072650 0.135164 0 127 127
-0.592233 0.090811 -0.134886 76 153 0
0.795451 0.158143 -0.204631 153 0 76
-0.591820 -0.566624 -0.010922 204 51 127
0.648687 0.183791 -0.156210 153 0 76
-0.322711 0.158143 -0.125434 153 0 76
0.637039 -0.551697 0.144392 76 0 153
-0.196736 0.132495 0.173319 127 127 0
0.663756 0.131218 0.010320 255 0 0
0.004954 0.064101 0.104695 0 127 127
-0.172145 0.183791 0.018903 153 0 76
0.195496 0.123946 0.174356 127 127 0
0.652632 -0.604582 -0.203280 0 127 127
0.140952 0.183791 -0.066078 153 0 76
-0.436450 0.070845 -0.169083 0 0 255
-0.161829 0.158143 0.030419 153 0 76
0.376956 0.149649 0.172888 127 127 0
-0.524807 0.103548 0.172888 127 127 0
-0.215574 0.072650 -0.071748 0 127 127
0.440532 0.078456 -0.194731 0 0 255
-0.163372 0.072650 -0.014674 0 127 127
0.395594 0.080054 -0.169083 0 0 255
-0.343688 0.158143 0.072191 153 0 76
0.230091 0.108207 0.207085 0 255 0
0.164980 0.048230 0.172888 127 127 0
-0.365080 0.183791 0.134263 153 0 76
-0.030793 0.064388 0.206921 0 255 0
0.678016 0.158143 0.022974 153 0 76
0.631604 -0.616858 -0.191573 0 127 127
0.075016 0.024773 -0.194013 0 0 255
-0.619706 -0.550482 0.027889 153 0 76
-0.132476 0.021354 -0.190213 0 0 255
-0.592965 -0.706021 -0.167894 76 153 0
-0.237491 0.183791 0.034071 153 0 76
0.283714 0.123946 0.104876 127 127 0
0.671236 -0.413256 0.172683 127 0 127
0.671236 0.038010 -0.161623 0 127 127
-0.174116 0.091187 0.206921 0 255 0
0.610538 -0.174468 0.156963 127 0 127
-0.628255 0.058434 -0.152737 76 153 0
0.425847 0.183791 -0.233729 153 0 76
-0.711359 0.176225 0.265775 153 0 76
-0.596173 0.158143 0.025097 0 255 0
0.251921 0.021354 -0.172290 0 0 255
0.560540 -0.550510 0.014726 204 51 127
-0.247800 0.183791 0.071963 153 0 76
0.273660 0.055552 -0.069981 76 0 153
0.445121 0.158143 -0.152658 153 0 76
-0.356388 -0.573053 -0.007086 204 51 127
-0.265219 0.128405 -0.169083 0 0 255
-0.467421 0.123265 -0.194731 0 0 255
0.376139 -0.546295 0.014726 204 51 127
-0.425214 0.183791 -0.097907 153 0 76
-0.628255 -0.391720 0.175354 153 0 76
0.602842 0.024490 -0.200248 0 127 127
-0.610888 -0.618292 -0.203280 76 153 0
0.639619 0.149594 0.098090 255 0 0
0.194097 -0.532776 -0.010922 204 51 127
-0.424035 0.158143 0.189709 127 127 0
-0.460354 0.158143 -0.173544 153 0 76
0.555810 0.183791 0.074157 153 0 76
-0.520732 0.183791 -0.200253 153 0 76
-0.056182 0.183791 0.208000 153 0 76
0.441277 0.158143 -0.095846 153 0 76
0.295068 0.100593 -0.001023 127 127 0
-0.619706 -0.552733 -0.023040 153 0 76
0.547019 -0.554300 -0.010922 204 51 127
0.044414 0.040235 -0.169083 0 0 255
0.032543 0.158143 0.108492 153 0 76
-0.584370 -0.527541 -0.192528 76 153 0
0.558263 -0.577328 0.009438 204 51 127
-0.020325 0.183791 0.108382 153 0 76
-0.368727 0.021354 -0.194124 0 0 255
-0.332158 0.158143 -0.182146 0 0 255
-0.597501 0.132495 0.017367 0 255 0
-0.594058 0.051720 -0.092091 0 255 0
0.145286 0.064101 0.148040 0 127 127
0.264349 0.036010 -0.052646 76 0 153
0.699392 0.183791 0.032819 153 0 76
-0.159655 0.158143 0.143157 153 0 76
-0.268744 0.158143 0.003286 153 0 76
0.210520 0.064101 -0.085905 0 127 127
0.395948 0.183791 0.170219 153 0 76
0.263677 0.158143 -0.099126 153 0 76
0.671236 0.095383 0.160032 127 0 127
0.386661 0.183791 0.199118 153 0 76
0.311501 0.021354 -0.190995 0 0 255
-0.479652 0.183791 -0.034738 153 0 76
0.635549 0.183791 -0.029982 153 0 76
0.036160 0.183791 0.020993 153 0 76
0.638108 0.022213 0.045200 255 0 0
0.635651 -0.701840 -0.201685 0 127 127
0.344901 0.158143 0.198377 153 0 76
0.179013 0.158143 -0.209157 153 0 76
-0.053926 0.072650 -0.129752 0 127 127
-0.515988 0.183791 0.194094 153 0 76
0.197977 0.160704 -0.248636 153 0 76
0.535887 0.183791 -0.010143 153 0 76
-0.001720 -0.528781 -0.006647 204 51 127
-0.531528 0.158143 0.164042 153 0 76
-0.234988 0.091163 0.114544 127 0 127
-0.564711 -0.545886 -0.010922 204 51 127
0.663756 0.074611 0.017683 255 0 0
-0.598936 -0.453038 -0.155848 76 153 0
-0.178920 0.072650 0.147116 0 127 127
-0.628255 0.134702 -0.187822 76 153 0
0.673518 0.158143 -0.154788 153 0 76
-0.435384 0.070490 0.198536 127 127 0
0.352651 0.021354 -0.193594 0 0 255
0.671236 0.053515 0.187065 127 0 127
0.644491 -0.538893 -0.184565 0 127 127
0.703959 0.183791 0.057707 153 0 76
0.225511 0.072650 0.068240 0 127 127
0.619492 -0.042846 0.140120 127 0 127
0.087836 0.057796 0.206921 0 255 0
-0.671357 0.158143 0.239925 153 0 76
-0.004464 0.064101 0.171101 0 127 127
-0.062635 0.106488 0.198536 0 255 0
0.441118 0.121944 0.198536 127 127 0
0.546897 0.158143 0.095966 153 0 76
0.526776 0.158143 -0.082574 153 0 76
0.146613 0.158143 -0.085023 153 0 76
0.264349 0.046405 0.084068 76 0 153
-0.701012 0.182830 -0.263093 153 0 76
0.127755 0.158143 0.096670 153 0 76
-0.616707 -0.626041 0.207085 153 0 76
-0.353002 0.183791 -0.030443 153 0 76
-0.257791 0.158143 -0.206498 153 0 76
0.475731 0.158143 0.136805 153 0 76
-0.602787 0.158143 -0.226916 153 0 76
0.640813 -0.276491 0.151246 127 0 127
0.250332 0.072650 0.186349 0 127 127
-0.241054 0.183791 0.249485 153 0 76
0.665073 -0.451723 -0.155785 0 127 127
-0.317745 -0.563578 0.014726 204 51 127
0.522083 0.158143 0.020672 153 0 76
0.638108 0.078509 0.057480 255 0 0
-0.299278 0.155538 0.172888 127 127 0
0.138596 0.167741 0.261272 153 0 76
-0.261076 0.055552 0.140420 153 76 0
0.181990 0.158143 0.094311 153 0 76
0.295068 0.065343 0.014088 127 127 0
0.070853 0.073853 -0.194731 0 0 255
0.820639 0.164490 -0.214638 153 0 76
-0.151769 0.183791 -0.213255 153 0 76
0.639629 0.132495 0.031508 255 0 0
0.541635 0.158143 -0.035223 153 0 76
0.520013 0.050766 0.172888 127 127 0
-0.600195 -0.514288 -0.158764 76 153 0
0.193364 0.144318 0.198536 127 127 0
-0.594058 0.054020 -0.041956 0 255 0
0.366412 0.183791 0.080028 153 0 76
-0.311918 0.158143 0.201913 153 0 76
-0.628255 0.040955 0.161921 153 0 76
0.353921 0.024649 0.197874 127 127 0
-0.148203 0.158143 -0.173206 0 0 255
-0.582088 0.183791 -0.233579 153 0 76
0.498787 0.158143 -0.001765 153 0 76
-0.162572 0.023743 0.172888 127 127 0
0.122592 0.158143 0.223180 153 0 76
0.295068 0.079227 0.112128 127 127 0
0.214232 0.082526 0.181438 0 255 0
-0.236169 0.029904 -0.001147 153 76 0
0.122569 0.067134 -0.194731 0 0 255
-0.267797 -0.528167 -0.009015 204 51 127
0.638108 0.049515 0.121781 255 0 0
0.828116 0.175807 0.216047 153 0 76
0.301389 0.051663 -0.169103 76 0 153
-0.170750 0.072650 0.068116 0 127 127
-0.628255 -0.439115 0.190179 153 0 76
0.086515 0.112640 0.207085 0 255 0
-0.269185 0.046928 -0.155850 153 76 0
0.661529 -0.080612 -0.203280 0 127 127
-0.236589 0.055552 0.067833 127 0 127
0.518873 0.162623 -0.251948 153 0 76
0.638108 0.105364 0.023383 255 0 0
-0.504593 0.183791 0.142010 153 0 76
-0.409681 0.158143 0.104074 153 0 76
-0.590453 0.183791 -0.173398 153 0 76
-0.561184 0.183791 0.121033 153 0 76
0.346636 0.158143 -0.049037 153 0 76
0.471175 0.109944 0.198536 127 127 0
-0.093489 0.158143 -0.027911 153 0 76
-0.183800 0.183791 -0.036066 153 0 76
-0.305485 0.132503 0.198536 127 127 0
0.657191 0.074445 -0.134886 0 127 127
-0.128217 0.183791 0.135529 153 0 76
-0.670016 0.158143 -0.156665 153 0 76
0.671236 -0.440571 -0.186776 0 127 127
0.275007 0.055552 0.183336 127 127 0
-0.239367 0.029904 0.052918 153 76 0
0.671357 0.158143 -0.119574 153 0 76
-0.530228 0.183791 -0.093738 153 0 76
-0.619706 -0.546289 -0.113583 153 0 76
-0.297681 0.183791 0.004725 153 0 76
-0.169438 0.158143 0.115821 153 0 76
-0.591339 -0.673886 -0.196216 76 153 0
0.641055 0.183791 -0.257990 153 0 76
0.494156 0.102462 -0.194731 0 0 255
-0.288822 0.025484 0.197463 127 127 0
0.458753 0.183791 0.008646 153 0 76
-0.598597 -0.525800 0.093330 153 0 76
0.145548 0.118838 -0.194731 0 0 255
-0.234988 0.102462 -0.108155 127 0 127
-0.086422 0.072650 0.107643 0 127 127
-0.413179 0.081067 -0.169083 0 0 255
0.284102 0.029904 -0.137734 76 0 153
0.047647 0.054388 0.172888 127 127 0
0.389162 0.183791 -0.054338 153 0 76
-0.172132 0.104731 -0.194731 0 0 255
0.085652 0.183791 0.224344 153 0 76
0.316133 0.183791 0.187907 153 0 76
0.294996 0.123946 -0.127014 127 127 0
-0.298132 0.183791 -0.147249 153 0 76
-0.502552 0.158143 -0.221964 153 0 76
0.096095 0.064101 0.094599 0 127 127
-0.021595 0.158143 -0.118758 153 0 76
0.822361 0.183791 0.035141 153 0 76
-0.528781 0.024022 0.172888 127 127 0
0.671236 -0.264894 0.175956 127 0 127
0.242257 0.162322 0.255302 153 0 76
-0.288321 0.079457 -0.194731 0 0 255
0.264236 0.181548 -0.263015 153 0 76
0.497434 0.183791 -0.202537 153 0 76
0.671236 -0.628771 0.181678 127 0 127
-0.318511 0.158143 0.000990 153 0 76
0.639109 -0.526032 0.047953 76 0 153
-0.628255 -0.659755 -0.187589 76 153 0
-0.263760 0.095644 -0.169083 0 0 255
-0.628255 -0.182117 -0.152040 76 153 0
-0.428070 0.042731 -0.169083 0 0 255
-0.146677 0.048164 0.198536 0 255 0
-0.628255 -0.281249 0.156817 153 0 76
0.639627 0.183791 0.040559 153 0 76
0.652533 -0.475616 0.207085 127 0 127
0.056126 0.158143 0.208353 153 0 76
0.671236 -0.596536 -0.177743 0 127 127
-0.285153 0.158143 -0.170489 153 0 76
0.726174 0.183791 0.151912 153 0 76
-0.382429 0.183791 -0.231488 153 0 76
-0.409235 0.058619 -0.194731 0 0 255
0.711123 0.158143 0.004496 153 0 76
0.109884 -0.560810 -0.010922 204 51 127
-0.285959 0.135770 0.179300 127 127 0
-0.439169 0.183791 -0.241511 153 0 76
-0.456580 0.158141 0.198536 127 127 0
-0.041506 0.123128 0.181438 0 255 0
0.441850 0.183791 0.120554 153 0 76
0.030670 0.183791 -0.255802 153 0 76
-0.042417 0.048574 -0.194731 0 0 255
0.643844 0.069989 0.164339 127 0 127
0.289598 0.055552 0.092668 127 127 0
-0.641643 0.183791 0.097724 153 0 76
-0.172638 0.064101 -0.136805 0 127 127
-0.572404 -0.276257 -0.149151 76 153 0
0.455811 -0.532534 -0.010922 204 51 127
-0.290963 0.046751 -0.194731 0 0 255
-0.103926 0.183791 0.046008 153 0 76
0.150150 0.025664 0.197368 127 127 0
0.602842 0.134609 -0.179020 0 0 255
-0.313945 0.021354 0.178892 127 127 0
0.279199 0.055552 -0.038003 127 127 0
-0.024231 0.128994 0.205431 0 255 0
-0.217378 0.158143 -0.104669 153 0 76
0.669015 -0.228836 -0.203280 0 127 127
-0.428605 0.159921 -0.246830 153 0 76
-0.619706 0.054892 0.122577 0 255 0
0.231067 0.183791 0.211256 153 0 76
0.734576 0.158143 0.065472 153 0 76
-0.252087 0.103835 -0.138424 127 0 127
0.021799 0.183791 0.092622 153 0 76
-0.559861 0.042515 0.148963 153 0 76
0.633823 0.158143 -0.224319 153 0 76
0.424842 -0.555017 0.014726 204 51 127
-0.065370 0.130304 -0.194731 0 0 255
-0.152068 0.158143 0.221934 153 0 76
-0.773849 0.170031 -0.051797 153 0 76
-0.573888 0.183791 0.244371 153 0 76
-0.584189 -0.526672 0.014726 204 51 127
-0.120389 0.041483 -0.169083 0 0 255
0.454646 0.158143 0.206039 153 0 76
0.295068 0.108320 0.148852 127 127 0
0.112446 0.158143 -0.002007 153 0 76
0.148300 0.087117 0.181438 0 255 0
0.356419 0.161262 0.253513 153 0 76
0.378305 0.183791 -0.105536 153 0 76
-0.011373 0.158143 -0.015706 153 0 76
-0.194254 0.183791 0.107311 153 0 76
0.610812 0.183791 -0.257912 153 0 76
-0.563715 -0.093787 -0.147318 76 153 0
-0.288674 0.066985 0.198536 127 127 0
-0.443594 0.183791 -0.144181 153 0 76
-0.513359 0.038453 -0.172265 0 0 255
0.120873 0.078642 0.207085 0 255 0
0.615726 -0.283409 -0.176173 0 127 127
0.621558 0.009362 0.138691 127 0 127
0.264565 0.055552 -0.092992 76 0 153
0.223515 0.064101 -0.041971 0 127 127
0.593440 0.071375 -0.169083 0 0 255
-0.516265 0.138116 0.198536 127 127 0
0.434468 0.132495 -0.170614 0 0 255
-0.190864 0.158143 -0.224571 153 0 76
-0.219304 0.055552 -0.112980 153 76 0
0.427213 0.183791 0.173387 153 0 76
-0.390538 0.021522 0.198525 127 127 0
0.781447 0.158143 -0.043326 153 0 76
-0.559861 0.087438 -0.148939 76 153 0
0.701479 0.183791 -0.156355 153 0 76
-0.480240 0.158143 0.167920 153 0 76
0.332588 0.183791 -0.062685 153 0 76
0.626277 0.092072 0.138691 127 0 127
-0.589798 -0.609308 0.207085 153 0 76
0.059502 0.158143 0.152608 153 0 76
-0.271901 0.158143 0.092273 153 0 76
0.082121 0.064101 0.048868 0 127 127
-0.230290 0.160279 0.251505 153 0 76
-0.619706 0.122703 0.049386 0 255 0
-0.607630 -0.424808 -0.154503 76 153 0
-0.050697 0.183791 -0.126203 153 0 76
0.119364 0.072650 0.119885 0 127 127
-0.563442 -0.000440 0.138691 153 0 76
0.802190 0.183791 0.139538 153 0 76
0.481376 0.183791 -0.245547 153 0 76
-0.627344 0.183791 0.142211 153 0 76
0.381282 0.183791 -0.002064 153 0 76
0.724044 0.183791 -0.064006 153 0 76
0.671236 -0.065104 0.153809 127 0 127
-0.117646 0.127476 0.172888 127 127 0
-0.417440 0.158143 -0.148746 153 0 76
-0.480018 0.123946 0.174025 127 127 0
0.568936 0.133999 0.179300 127 127 0
0.281622 0.038453 -0.173200 76 0 153
-0.195407 0.183791 -0.244210 153 0 76
0.671236 -0.619699 -0.188451 0 127 127
0.077076 0.183791 0.162686 153 0 76
0.228087 0.183791 0.243706 153 0 76
-0.224757 0.133969 -0.175495 0 0 255
0.404578 0.158143 0.179703 153 0 76
0.280411 -0.554442 -0.010922 204 51 127
0.656059 -0.577328 0.014971 76 0 153
-0.005993 0.072650 0.057619 0 127 127
-0.456861 0.021354 0.195856 127 127 0
0.548502 0.160709 0.252452 153 0 76
-0.594058 0.025831 -0.031164 0 255 0
0.400652 0.183791 0.018588 153 0 76
0.662687 -0.526552 0.009180 76 0 153
0.585030 0.183791 0.033272 153 0 76
0.032253 0.183791 0.141901 153 0 76
0.127339 0.064101 -0.041382 0 127 127
-0.636571 0.158143 -0.003156 153 0 76
-0.619706 0.128507 0.025674 0 255 0
0.462542 0.021354 -0.171937 0 0 255
-0.431489 -0.525800 -0.007856 204 51 127
0.030179 0.021354 0.173773 127 127 0
0.739555 0.158143 0.018281 153 0 76
-0.005975 0.026682 -0.192863 0 0 255
-0.259551 0.127919 0.198536 127 127 0
-0.221310 0.072650 -0.022295 0 127 127
-0.770973 0.166314 0.003727 153 0 76
-0.260316 0.029904 0.162479 153 76 0
-0.737593 0.183791 0.027874 153 0 76
-0.713151 0.183791 -0.229182 153 0 76
-0.458257 -0.554573 -0.010922 204 51 127
-0.286751 0.183791 0.185797 153 0 76
-0.471064 0.021354 0.174560 127 127 0
-0.217889 0.053034 0.145828 153 76 0
0.004652 0.158143 -0.160715 153 0 76
-0.073658 0.158143 0.089724 153 0 76
-0.605919 -0.451410 -0.203280 76 153 0
-0.232904 0.183791 0.090732 153 0 76
0.131926 0.072650 -0.088597 0 127 127
0.707098 0.158143 0.143458 153 0 76
-0.248417 0.055552 -0.140280 153 76 0
0.170913 0.066535 0.189987 0 255 0
-0.220858 0.029904 -0.100615 153 76 0
-0.234988 0.095366 0.003505 127 0 127
0.350978 0.183791 -0.025817 153 0 76
0.303029 0.158143 -0.069719 153 0 76
-0.007107 0.051253 -0.169083 0 0 255
-0.559861 -0.006655 -0.197736 76 153 0
-0.666704 0.158143 -0.057216 153 0 76
-0.319766 0.183791 0.199711 153 0 76
-0.585509 0.058330 -0.184637 0 0 255
-0.484568 0.080883 -0.194731 0 0 255
-0.084843 0.158143 0.172185 153 0 76
-0.490282 0.115930 -0.169083 0 0 255
-0.589828 0.183791 -0.099626 153 0 76
-0.584639 -0.533173 0.191284 153 0 76
-0.302303 0.158143 -0.221110 153 0 76
0.034231 0.132482 0.198937 0 255 0
-0.180858 0.183791 0.209612 153 0 76
0.638108 0.055644 -0.077635 255 0 0
0.481327 0.158143 0.209567 153 0 76
0.319809 0.183791 0.036822 153 0 76
0.355219 0.183791 -0.256514 153 0 76
0.568485 0.028010 0.195336 127 127 0
0.683447 0.158143 0.154156 153 0 76
-0.278309 0.183791 -0.100234 153 0 76
0.689605 0.175366 -0.261696 153 0 76
0.514378 0.183791 0.099663 153 0 76
-0.285480 0.119480 -0.194731 0 0 255
0.323086 0.023334 -0.169083 0 0 255
0.616906 -0.308185 0.184344 127 0 127
0.609637 -0.155530 -0.157501 0 127 127
0.030724 0.072650 0.053472 0 127 127
-0.622786 -0.576706 -0.203280 76 153 0
0.153368 0.064101 0.100677 0 127 127
0.631946 -0.091463 -0.138630 0 127 127
-0.098241 0.158143 0.109344 153 0 76
-0.211528 0.158143 0.123033 153 0 76
0.178698 0.058200 -0.194731 0 0 255
0.671236 0.025393 -0.190077 0 127 127
0.669735 0.183791 -0.145245 153 0 76
0.443338 0.158143 0.066419 153 0 76
-0.546637 0.129310 0.172888 127 127 0
-0.563651 -0.092435 -0.198551 76 153 0
-0.349347 0.183791 0.084599 153 0 76
-0.048730 0.158143 0.232340 153 0 76
0.105879 0.075284 -0.169083 0 0 255
-0.734986 0.183791 0.204924 153 0 76
0.201428 0.072650 0.002240 0 127 127
0.338070 -0.555693 -0.010922 204 51 127
0.704750 0.158143 -0.216947 153 0 76
0.242968 0.054999 -0.169083 0 0 255
0.022401 0.183791 0.221350 153 0 76
0.150719 0.160854 -0.248944 153 0 76
-0.628255 0.058144 -0.187661 76 153 0
0.671236 -0.406706 -0.153708 0 127 127
-0.578189 0.158143 0.174236 153 0 76
0.612881 0.158143 -0.013755 153 0 76
0.037393 0.183791 -0.212467 153 0 76
-0.588414 -0.612465 -0.188397 76 153 0
-0.303965 0.183791 -0.230937 153 0 76
-0.243537 0.070873 0.197571 127 0 127
0.655590 0.158143 0.223690 153 0 76
0.605478 -0.068205 0.192959 127 0 127
0.200206 0.133063 -0.175495 0 0 255
-0.096347 0.183791 0.179860 153 0 76
0.742942 0.158143 -0.215368 153 0 76
-0.494650 -0.526279 -0.010922 204 51 127
0.531746 0.158143 0.068479 153 0 76
0.323842 0.058316 -0.194731 0 0 255
-0.584667 -0.177497 -0.142727 76 153 0
-0.268609 0.029904 -0.058039 153 76 0
-0.771460 0.166835 0.140979 153 0 76
-0.012243 0.183791 0.056819 153 0 76
0.608479 -0.131226 0.153461 127 0 127
0.643451 0.072236 -0.158643 0 127 127
0.277969 0.091152 0.035298 127 127 0
0.334323 0.183791 -0.213583 153 0 76
0.798329 0.183791 0.246268 153 0 76
0.291234 0.138700 0.179300 127 127 0
0.048331 0.158143 -0.180720 153 0 76
0.665841 -0.228365 0.148954 127 0 127
-0.208111 0.114277 -0.169083 0 0 255
0.007827 0.037212 0.198438 127 127 0
0.578013 0.183791 0.163989 153 0 76
-0.204766 0.183791 0.002671 153 0 76
-0.173805 0.052962 0.172888 127 127 0
0.466379 0.162448 -0.251700 153 0 76
0.264762 0.183791 0.244560 153 0 76
-0.416366 0.158143 -0.072469 153 0 76
-0.318342 0.183791 0.244830 153 0 76
0.263995 0.075641 0.207085 0 255 0
-0.563236 0.112292 -0.188319 0 0 255
-0.628255 -0.506276 -0.192729 76 153 0
-0.610918 -0.438852 0.207085 153 0 76
0.438018 -0.565940 -0.010922 204 51 127
0.392201 0.158143 -0.125009 153 0 76
-0.598137 -0.525800 0.146418 153 0 76
0.429436 0.021354 0.192965 127 127 0
0.486411 0.158143 -0.077274 153 0 76
0.219253 0.072650 0.147418 0 127 127
0.619641 -0.365624 0.174972 127 0 127
0.451530 0.158143 -0.047614 153 0 76
0.183010 0.158143 -0.183125 0 0 255
-0.594058 0.109049 0.046533 0 255 0
0.829295 0.181627 -0.011707 153 0 76
0.295068 0.073675 -0.010944 127 127 0
0.482455 0.162670 0.255818 153 0 76
0.671236 -0.032839 0.181479 127 0 127
0.647046 -0.331608 -0.203280 0 127 127
-0.675494 0.158143 0.126969 153 0 76
0.152734 -0.561833 -0.010922 204 51 127
0.817748 0.162309 -0.090160 153 0 76
-0.619706 0.040343 0.078567 0 255 0
0.266467 0.158143 0.113391 153 0 76
-0.217889 0.052613 0.097932 153 76 0
-0.411494 -0.543644 -0.010922 204 51 127
0.490915 0.158143 0.085168 153 0 76
0.080212 0.158143 -0.108595 153 0 76
0.043400 0.158143 0.029112 153 0 76
-0.628255 -0.053307 0.142492 153 0 76
-0.559861 0.140004 -0.141201 76 153 0
-0.571806 0.158143 -0.065973 153 0 76
0.397537 0.119571 -0.194731 0 0 255
-0.457634 0.045882 0.172888 127 127 0
0.168857 0.104222 -0.169083 0 0 255
-0.193014 0.055552 0.186315 127 127 0
0.478383 0.183791 0.182734 153 0 76
0.652999 -0.365695 0.155493 127 0 127
0.201292 0.050655 0.198536 127 127 0
-0.493280 0.041122 0.198536 127 127 0
-0.419484 0.158143 0.063220 153 0 76
0.151098 0.158143 0.076654 153 0 76
0.210435 0.072650 -0.125545 0 127 127
-0.128747 0.033271 0.196784 127 127 0
-0.619706 -0.541393 0.006355 153 0 76
0.370950 -0.574098 -0.009881 204 51 127
0.425957 0.026192 -0.193227 0 0 255
0.621141 0.158143 -0.083613 153 0 76
0.656285 -0.653462 -0.203280 0 127 127
0.618429 0.107979 -0.203280 0 127 127
0.663756 0.046202 0.063867 255 0 0
-0.675658 0.183791 -0.223390 153 0 76
0.671236 0.143333 -0.188445 0 127 127
0.795006 0.158143 0.155727 153 0 76
-0.145568 0.183791 0.192611 153 0 76
-0.411407 0.158143 0.028160 153 0 76
0.598203 0.164498 -0.254376 153 0 76
-0.490635 0.034183 -0.193589 0 0 255
-0.003520 0.064101 0.130648 0 127 127
-0.109052 0.158143 -0.062982 153 0 76
0.246759 0.158155 -0.237833 153 0 76
-0.633389 0.183791 -0.261541 153 0 76
-0.057388 0.072650 -0.100029 0 127 127
-0.352431 0.158143 0.101826 153 0 76
0.392799 0.183791 -0.031328 153 0 76
0.671236 -0.138375 0.152437 127 0 127
-0.545361 0.158143 -0.205947 153 0 76
-0.359175 0.183791 -0.230433 153 0 76
0.537989 0.133336 -0.194731 0 0 255
-0.410139 0.183791 -0.008026 153 0 76
0.766631 0.165817 0.259569 153 0 76
-0.568358 -0.191291 0.156357 153 0 76
-0.227566 0.158143 0.058759 153 0 76
-0.659825 0.183791 -0.172296 153 0 76
-0.275158 0.158143 0.226882 153 0 76
-0.613593 -0.698023 -0.203280 76 153 0
0.506394 0.021354 -0.172382 0 0 255
-0.616247 0.158143 -0.048888 0 255 0
0.272341 0.105927 0.181438 0 255 0
-0.483682 0.183791 0.018285 153 0 76
0.641204 -0.476487 -0.156964 0 127 127
-0.628255 -0.594875 -0.164172 76 153 0
0.110964 0.107131 0.207085 0 255 0
0.395624 0.183791 0.041259 153 0 76
-0.569731 -0.220108 -0.155136 76 153 0
0.671236 -0.133963 -0.182602 0 127 127
-0.605354 0.158143 0.075313 153 0 76
-0.610739 -0.549915 0.164266 153 0 76
0.023370 0.149594 -0.174947 0 0 255
-0.017367 -0.546587 -0.010922 204 51 127
0.094383 0.064101 -0.007947 0 127 127
0.670840 0.065198 0.207085 127 0 127
0.092210 0.046703 -0.194731 0 0 255
-0.093428 0.064101 0.045247 0 127 127
0.671236 -0.147958 0.179621 127 0 127
-0.173330 0.072650 -0.059142 0 127 127
-0.153375 0.021354 -0.178518 0 0 255
0.602903 0.109078 0.207085 127 0 127
0.663756 0.134929 -0.034815 255 0 0
0.132865 0.183791 0.149612 153 0 76
-0.617304 -0.631024 0.168128 153 0 76
0.644520 0.135967 0.056359 255 0 0
0.421199 0.183791 -0.211038 153 0 76
0.826065 0.183791 -0.136981 153 0 76
-0.572766 -0.283847 0.180464 153 0 76
0.317452 0.158143 0.128090 153 0 76
-0.050204 0.183791 0.256314 153 0 76
0.259491 0.103123 -0.194731 0 0 255
0.638108 0.116452 -0.056044 255 0 0
-0.773632 0.169682 0.068161 153 0 76
0.671699 0.175908 0.265678 153 0 76
-0.333186 0.183791 0.166993 153 0 76
0.667325 -0.413511 -0.203280 0 127 127
0.671236 -0.208227 0.190235 127 0 127
0.581889 0.120958 -0.194731 0 0 255
-0.559861 0.040795 -0.158201 76 153 0
0.756191 0.158143 -0.015290 153 0 76
-0.233940 0.183791 -0.115277 153 0 76
0.560954 0.158143 -0.183663 0 0 255
0.211165 0.072650 0.041723 0 127 127
0.174397 0.183791 -0.243692 153 0 76
-0.581200 0.183791 0.024972 153 0 76
-0.568199 0.055194 -0.203280 76 153 0
0.519768 0.158143 -0.044402 153 0 76
0.425937 0.158143 0.103509 153 0 76
-0.269594 0.160340 -0.247833 153 0 76
0.802403 0.183791 -0.167205 153 0 76
-0.138471 0.183791 0.015713 153 0 76
0.485210 0.053956 -0.194731 0 0 255
0.637185 -0.189909 -0.143318 0 127 127
-0.429861 0.087738 0.172888 127 127 0
0.755054 0.158143 -0.067445 153 0 76
-0.570107 -0.183504 -0.203280 76 153 0
-0.619353 0.035976 0.012816 0 255 0
0.315645 0.054488 -0.131084 76 0 153
0.648947 0.169148 0.262326 153 0 76
-0.344561 0.151675 0.198536 127 127 0
0.207702 0.064101 0.110985 0 127 127
-0.129958 0.158143 -0.150949 153 0 76
-0.549126 0.183791 0.169576 153 0 76
0.569701 0.183791 0.195384 153 0 76
0.637039 -0.540832 -0.140689 76 0 153
-0.482365 0.159954 0.250724 153 0 76
0.181954 0.183791 0.223826 153 0 76
-0.628255 -0.017965 0.161770 153 0 76
0.393701 0.105700 0.198536 127 127 0
-0.734728 0.158143 0.137059 153 0 76
-0.261849 0.158143 0.026858 153 0 76
0.640115 -0.664300 0.207085 127 0 127
-0.076086 0.072650 -0.056022 0 127 127
-0.173913 0.183791 0.071641 153 0 76
0.671236 -0.077292 -0.155926 0 127 127
-0.614673 0.029041 -0.010853 0 255 0
-0.609011 -0.408646 0.207085 153 0 76
-0.690104 0.183791 -0.187174 153 0 76
-0.422638 0.158143 -0.125338 153 0 76
0.089334 0.183791 -0.079108 153 0 76
-0.594058 0.081616 0.024239 0 255 0
0.671236 -0.317198 0.176122 127 0 127
-0.250203 0.123946 -0.149364 127 0 127
0.525042 0.183791 0.185818 153 0 76
-0.121295 0.183791 0.180495 153 0 76
0.742235 0.183791 -0.110973 153 0 76
-0.480237 0.158143 -0.212786 153 0 76
0.519961 0.021777 0.198508 127 127 0
0.657929 0.096443 0.138691 255 0 0
0.500555 0.183791 0.218509 153 0 76
0.602604 0.166686 0.260384 153 0 76
-0.594058 0.038403 0.083565 0 255 0
0.815464 0.163377 -0.252998 153 0 76
-0.234988 0.092267 -0.070382 127 0 127
-0.108575 -0.573997 0.013782 204 51 127
-0.109515 0.115751 0.206921 0 255 0
-0.377975 0.183791 0.027497 153 0 76
0.147037 0.052670 0.206582 0 255 0
-0.594058 -0.550835 0.078636 153 0 76
0.272623 0.055552 -0.132117 76 0 153
0.558725 0.072652 0.172888 127 127 0
0.210166 0.158143 -0.071927 153 0 76
