ply
format ascii 1.0
element vertex 1281
property float x
property float y
property float z
property uchar red
property uchar green
property uchar blue
end_header
-0.353219 -0.344904 -0.396988 76 0 153
0.225585 -0.213498 0.632472 0 255 0
-0.462353 -0.334267 -0.189590 76 0 153
0.302313 0.131295 0.448958 0 0 255
-0.414533 0.187786 -0.447664 153 0 76
-0.012276 0.439161 0.065232 76 0 153
-0.370560 -0.388192 -0.030408 153 76 0
-0.099973 -0.075814 -0.390577 76 0 153
0.444382 -0.092623 0.839288 0 0 255
-0.489452 0.194393 -0.281368 76 0 153
-0.114225 -0.072350 -0.445763 153 76 0
-0.346452 0.054238 -0.382572 76 0 153
0.304886 0.183033 0.302424 0 0 255
0.441374 -0.314001 0.831025 0 0 255
0.228518 0.316972 0.676294 127 127 0
0.259378 0.195921 -0.018580 76 0 153
-0.369328 -0.363822 -0.248069 76 0 153
0.182931 0.273006 0.551044 127 127 0
0.393828 0.197290 0.700393 0 0 255
-0.182924 -0.161959 -0.431571 76 153 0
-0.487290 -0.115814 0.133835 76 0 153
0.031895 0.439161 -0.273638 76 0 153
-0.320222 -0.154391 -0.397067 153 0 76
-0.173509 -0.388192 -0.285677 153 76 0
0.278013 0.016891 0.382195 0 0 255
-0.423018 -0.388192 -0.363108 153 76 0
0.084957 -0.273709 0.257326 0 255 0
0.321241 -0.264029 0.816426 0 255 0
-0.357595 -0.388192 0.077031 153 76 0
0.238688 0.228327 0.004468 153 0 76
-0.029643 -0.362821 -0.061913 76 0 153
-0.464083 -0.199459 -0.174093 76 0 153
-0.007580 0.429613 -0.392919 76 0 153
-0.487576 0.430752 -0.244840 76 0 153
-0.197816 -0.388192 -0.013011 153 76 0
0.166378 -0.388192 -0.206824 153 76 0
-0.131412 -0.146230 -0.228755 127 0 127
0.399551 0.423665 0.562513 0 0 255
0.285131 -0.056162 0.248148 0 0 255
0.380324 0.073427 0.663292 0 0 255
-0.442969 -0.177403 -0.385665 76 0 153
0.107862 -0.160215 -0.462759 76 153 0
-0.282812 -0.388192 -0.237985 153 76 0
-0.489452 0.199625 -0.338878 76 0 153
-0.351506 -0.388106 -0.496427 153 76 0
0.381711 0.308809 0.513500 0 0 255
-0.149588 0.238845 -0.404600 76 0 153
-0.078910 -0.388192 -0.353896 153 76 0
0.329539 -0.289432 0.370157 0 0 255
0.296404 -0.294872 0.821232 0 255 0
0.326860 -0.325599 0.801637 0 255 0
0.236543 0.048357 -0.148015 76 0 153
0.226523 -0.126325 -0.195822 127 0 127
-0.489452 0.123966 0.074721 76 0 153
0.246241 -0.388127 -0.375549 153 76 0
0.026528 0.156695 -0.394821 76 0 153
0.200233 0.342454 0.586799 127 127 0
0.345100 0.199590 0.566515 0 0 255
0.180679 -0.363828 0.007582 76 0 153
0.405861 -0.005619 0.579850 0 0 255
0.296975 0.439086 0.409789 0 0 255
0.226285 0.135317 0.240071 0 0 255
-0.171688 -0.338472 -0.385770 76 0 153
0.183620 -0.388192 -0.316828 153 76 0
0.207739 0.282741 0.584097 127 127 0
0.328651 0.248341 0.576222 127 127 0
0.022871 0.439161 -0.017135 76 0 153
0.463843 0.309636 0.833677 0 0 255
-0.489452 -0.050982 -0.244352 76 0 153
-0.217061 0.062434 -0.374809 0 127 127
-0.311659 -0.388192 -0.052474 153 76 0
-0.123003 0.146602 -0.390060 76 0 153
0.284600 0.175851 0.246689 0 0 255
0.317635 0.315978 0.337451 0 0 255
-0.316834 0.438159 -0.240969 76 0 153
-0.184839 -0.036511 -0.389721 76 0 153
-0.327747 0.413790 -0.174428 76 0 153
0.413114 -0.229472 0.810310 0 255 0
0.401639 -0.029339 0.721854 0 0 255
0.417012 -0.041546 0.764092 0 0 255
-0.467572 -0.260342 -0.397129 76 0 153
0.027995 0.025773 -0.394821 76 0 153
-0.307675 0.439161 0.000550 76 0 153
0.419151 -0.226941 0.616364 0 0 255
0.299603 -0.285610 0.287910 0 0 255
0.045984 -0.146230 -0.086206 127 0 127
0.304457 0.008507 0.454849 0 0 255
-0.066307 0.138987 -0.338820 153 0 76
-0.489452 0.055757 -0.253502 76 0 153
-0.358756 0.439143 0.037368 76 0 153
0.294237 0.303895 0.273165 0 0 255
-0.143645 0.288844 -0.394822 76 0 153
0.113250 -0.249657 0.320920 0 255 0
-0.320362 0.413790 0.079796 76 0 153
-0.066226 0.381754 -0.108251 153 0 76
-0.212633 -0.136625 -0.315649 127 0 127
-0.256867 -0.305884 -0.394821 76 0 153
-0.350554 -0.388192 -0.256337 153 76 0
-0.307015 -0.380610 0.139223 153 76 0
0.292960 0.012570 0.423261 0 0 255
0.240783 -0.136469 0.029598 76 0 153
0.008108 -0.136626 -0.324057 127 0 127
-0.288287 -0.213894 -0.394821 76 0 153
-0.021090 0.351009 -0.013218 153 0 76
-0.145838 -0.126816 -0.374086 127 0 127
-0.167961 -0.201276 -0.432661 153 76 0
0.462028 -0.239752 0.734168 0 0 255
-0.348326 0.122399 -0.432597 153 0 76
-0.465082 0.195742 -0.095300 76 0 153
0.189713 0.265442 0.191981 127 127 0
0.289682 -0.084944 0.414253 0 0 255
-0.455677 -0.348199 0.002044 76 0 153
0.257901 0.417636 -0.072984 76 0 153
0.438723 -0.155679 0.823742 0 0 255
0.190254 -0.157833 -0.415951 76 153 0
0.222760 -0.128992 -0.323786 127 0 127
-0.144741 -0.279234 -0.455119 153 76 0
0.267610 0.057323 0.200009 0 0 255
0.366713 -0.018448 0.625895 0 0 255
-0.423130 -0.388192 -0.032301 153 76 0
0.254785 -0.294052 0.164771 0 0 255
0.259678 0.030930 -0.023689 76 0 153
0.041727 0.438637 -0.071027 76 0 153
-0.441418 -0.382111 -0.476169 153 76 0
0.118443 -0.146230 -0.275247 127 0 127
0.042611 0.413883 0.112621 76 0 153
0.400627 -0.114481 0.719073 0 0 255
0.105465 0.308381 0.218090 127 127 0
-0.097065 -0.136638 -0.337542 127 0 127
-0.363126 0.275303 -0.389721 76 0 153
-0.380459 -0.362337 -0.346772 76 0 153
-0.199370 0.438419 -0.173427 76 0 153
-0.489284 -0.300136 -0.379764 76 0 153
0.205301 0.248341 0.531428 127 127 0
0.350187 0.121025 0.580492 0 0 255
-0.182611 0.439161 -0.249157 76 0 153
0.125665 -0.294749 0.355101 0 255 0
-0.423950 0.196414 -0.389282 76 0 153
0.246372 0.297934 -0.353301 76 0 153
0.175242 -0.316342 0.533453 0 255 0
0.233645 0.439086 0.212595 0 0 255
0.337238 0.432196 0.391311 0 0 255
-0.289946 0.413790 -0.013148 76 0 153
0.312547 -0.228052 0.813506 0 255 0
0.058048 -0.197319 -0.409324 153 76 0
-0.365499 -0.045890 -0.474162 153 0 76
-0.088330 0.091599 -0.189726 0 127 127
0.241287 0.248341 0.556494 127 127 0
0.240795 0.155784 0.127149 76 0 153
-0.464321 -0.092811 -0.230123 76 0 153
0.443840 -0.266533 0.684196 0 0 255
0.316261 0.309949 0.487279 0 0 255
0.085628 -0.362821 0.028879 76 0 153
0.424704 0.327798 0.631623 0 0 255
0.043280 -0.146230 -0.129860 127 0 127
0.258833 0.435437 0.011524 76 0 153
0.287650 0.339330 0.408671 0 0 255
-0.464502 0.233294 -0.215649 76 0 153
-0.163396 0.222814 -0.423566 153 0 76
-0.489452 0.193067 -0.054847 76 0 153
0.028496 -0.268663 -0.462759 76 153 0
0.391002 0.222341 0.803019 0 0 255
0.297327 0.439086 0.378747 0 0 255
0.263035 0.089429 0.059016 76 0 153
-0.003436 -0.362821 -0.271350 76 0 153
0.121393 -0.310619 0.221721 0 255 0
0.058195 0.438954 -0.122907 76 0 153
-0.130459 0.075463 -0.192705 0 127 127
0.388139 -0.184424 0.684762 0 0 255
-0.242200 0.075463 -0.307493 0 127 127
0.122515 0.271426 0.218998 127 127 0
-0.151568 0.412748 -0.353375 76 0 153
-0.234984 0.075463 -0.263586 0 127 127
0.154746 0.438893 0.019441 76 0 153
0.251078 -0.301673 0.699672 0 255 0
0.042819 -0.331123 -0.462748 76 153 0
-0.443894 -0.131534 -0.048017 76 0 153
-0.489452 -0.194095 -0.273007 76 0 153
0.197612 -0.362504 -0.212020 76 0 153
0.432171 0.150197 0.805740 0 0 255
-0.081360 0.331736 -0.394821 76 0 153
0.316114 0.115943 0.486875 0 0 255
-0.158984 -0.388192 -0.346726 153 76 0
-0.464791 0.231083 -0.243598 76 0 153
0.193899 0.248341 0.445662 127 127 0
0.189492 -0.388192 0.051720 153 76 0
-0.464236 0.386683 -0.062348 76 0 153
0.028184 -0.136625 -0.178132 127 0 127
0.416329 -0.257425 0.809135 0 255 0
0.438619 -0.225622 0.669854 0 0 255
-0.329495 -0.136625 -0.151626 127 0 127
0.336196 -0.010178 0.542050 0 0 255
0.006800 0.409858 0.001442 153 0 76
0.098456 -0.218947 0.268470 0 255 0
-0.282855 -0.146230 -0.275959 127 0 127
0.391358 0.249662 0.540005 0 0 255
-0.372427 0.283493 -0.445923 153 0 76
0.144973 -0.388192 -0.367835 153 76 0
-0.488814 0.149259 -0.382390 76 0 153
-0.279007 0.413790 -0.151913 76 0 153
0.164298 -0.256537 0.202513 0 255 0
0.253880 0.309071 -0.182279 76 0 153
-0.316673 0.438818 -0.118532 76 0 153
-0.488521 -0.372607 -0.200990 153 76 0
0.121949 0.399058 -0.394819 76 0 153
0.006660 -0.190514 -0.389728 76 0 153
-0.489451 0.392822 -0.319363 76 0 153
0.257864 0.199876 0.173232 0 0 255
0.182649 -0.388192 -0.097662 153 76 0
-0.489450 0.395160 0.026951 76 0 153
-0.384333 0.521076 0.104286 76 0 153
0.281598 -0.325618 0.625299 0 255 0
-0.362053 -0.363822 -0.215759 76 0 153
-0.142784 0.444115 0.115807 76 0 153
0.338921 -0.149928 0.549539 0 0 255
0.409656 0.034667 0.743881 0 0 255
0.311736 -0.235375 0.474846 0 0 255
0.413722 0.083089 0.601450 0 0 255
0.378273 0.430029 0.504054 0 0 255
0.065582 0.075463 -0.153086 0 127 127
-0.032452 -0.287823 -0.390359 76 0 153
0.336287 -0.307738 0.830558 0 255 0
-0.117339 0.439161 -0.014864 76 0 153
-0.251261 -0.145415 -0.033784 127 0 127
0.240782 -0.227263 -0.096313 76 0 153
-0.275068 -0.292563 -0.394821 76 0 153
0.300035 0.364430 0.442699 0 0 255
0.309336 -0.325619 0.500370 0 255 0
0.299254 0.204303 0.440554 0 0 255
-0.418291 0.114637 -0.481180 153 0 76
0.254118 -0.243046 0.750158 0 255 0
0.241353 -0.259600 0.281471 0 0 255
-0.307621 0.413795 -0.341634 76 0 153
-0.204295 0.503577 0.138640 76 0 153
-0.457500 -0.388191 -0.108350 153 76 0
0.259892 -0.276746 -0.002421 76 0 153
0.320035 0.402844 0.497648 0 0 255
0.259819 -0.360716 -0.065129 76 0 153
0.267438 0.059906 0.353138 0 0 255
0.434431 -0.345826 0.811949 0 0 255
-0.304029 -0.263027 -0.394821 76 0 153
-0.027877 -0.250903 -0.409324 153 76 0
-0.130543 0.084223 -0.282300 0 127 127
-0.341275 -0.217574 -0.389721 76 0 153
-0.000153 0.439161 -0.123111 76 0 153
0.213242 -0.133304 -0.043597 127 0 127
0.157672 -0.204489 -0.462671 76 153 0
0.411221 0.180032 0.811005 0 0 255
-0.030259 -0.165988 -0.462759 76 153 0
-0.110507 -0.362821 -0.047638 76 0 153
0.335089 0.057458 0.539011 0 0 255
0.225483 -0.388192 0.038236 153 76 0
0.342597 -0.126080 0.406035 0 0 255
0.395128 0.004114 0.703964 0 0 255
0.170098 -0.325686 0.193806 0 255 0
0.181039 -0.146230 -0.100479 127 0 127
0.424219 0.293124 0.792205 127 127 0
0.225409 -0.388192 -0.261031 153 76 0
-0.025621 0.134850 -0.020872 153 0 76
-0.489452 -0.102277 -0.259488 76 0 153
0.423382 -0.184449 0.791307 0 0 255
0.406262 0.114700 0.580952 0 0 255
-0.465013 0.265111 -0.063303 76 0 153
0.163596 0.538751 0.142291 76 0 153
0.258602 0.403767 0.328863 0 0 255
0.469870 -0.121441 0.831483 0 0 255
-0.182526 0.205597 -0.449614 153 0 76
-0.411163 0.083953 -0.114008 0 127 127
0.123431 0.083721 -0.017132 153 0 76
-0.165538 -0.318023 -0.425231 153 76 0
-0.033342 0.085320 -0.024487 153 0 76
0.127520 -0.388192 -0.246326 153 76 0
-0.204904 0.439161 0.007952 76 0 153
-0.064120 -0.212329 -0.457657 153 76 0
0.158394 -0.362821 -0.305628 76 0 153
-0.001872 0.439110 -0.075976 76 0 153
0.244626 -0.268877 0.681938 0 255 0
-0.167712 -0.136625 -0.223892 127 0 127
-0.331077 -0.388192 -0.300013 153 76 0
0.464999 -0.186081 0.742333 0 0 255
0.320188 0.150260 0.344467 0 0 255
0.227443 -0.148744 -0.034142 127 0 127
0.123310 -0.225209 0.220241 0 255 0
0.085780 -0.388192 0.037047 153 76 0
0.021680 -0.051047 -0.421435 76 153 0
-0.223385 0.233027 -0.390063 76 0 153
0.371506 0.364594 0.639064 0 0 255
0.296096 0.233576 0.431876 0 0 255
-0.211817 0.259828 -0.439689 153 0 76
-0.084426 -0.136625 -0.199928 127 0 127
0.261071 0.165039 0.020020 76 0 153
0.093148 -0.312957 0.288054 0 255 0
-0.489452 -0.198338 0.082032 76 0 153
-0.330033 -0.173945 -0.388423 76 0 153
0.295525 0.217663 0.276704 0 0 255
0.180701 -0.275580 -0.389722 76 0 153
0.370211 -0.250112 0.481903 0 0 255
-0.092209 0.411700 -0.188962 76 0 153
0.377925 -0.052711 0.503098 0 0 255
0.407077 0.207708 0.583192 0 0 255
0.163562 -0.068473 0.202778 0 0 255
-0.397757 0.084964 -0.275668 0 127 127
-0.288058 0.514722 0.146275 76 0 153
0.253772 -0.023390 -0.185711 76 0 153
0.240782 -0.071027 -0.034087 76 0 153
0.230018 -0.123848 -0.237124 127 0 127
-0.489452 0.316825 -0.052883 76 0 153
0.333668 0.127212 0.535104 0 0 255
-0.208312 0.416509 0.131277 76 0 153
0.239353 0.439086 0.255341 0 0 255
0.259410 0.248558 -0.020605 76 0 153
-0.144734 -0.388192 -0.171205 153 76 0
0.223995 0.248341 0.591450 127 127 0
-0.212755 -0.332367 -0.395929 76 0 153
0.456093 -0.179146 0.717864 0 0 255
0.242937 -0.325618 0.496048 0 255 0
-0.146250 -0.362821 -0.047480 76 0 153
0.062523 -0.388192 -0.111497 153 76 0
0.164674 -0.283931 0.504402 0 255 0
-0.278050 0.085068 -0.157815 0 127 127
0.030067 -0.388192 -0.292843 153 76 0
0.350360 -0.098164 0.580966 0 0 255
-0.195877 -0.136625 -0.210453 127 0 127
-0.465046 -0.087322 0.089385 76 0 153
0.317175 -0.328605 0.336188 0 0 255
-0.465082 0.010994 0.067264 76 0 153
-0.463574 0.388204 0.039807 76 0 153
0.211840 0.530659 0.117471 76 0 153
-0.342957 0.530632 0.130282 76 0 153
-0.489452 -0.138451 -0.012626 76 0 153
0.088890 -0.292582 0.295938 0 255 0
-0.086987 0.222066 -0.386129 76 0 153
-0.355114 0.413910 0.114099 76 0 153
-0.396405 -0.146085 -0.360689 127 0 127
0.352381 -0.375372 0.432915 0 0 255
0.110741 -0.362821 -0.162114 76 0 153
0.256397 -0.161328 -0.092929 76 0 153
0.379001 -0.290576 0.506054 0 0 255
0.401683 -0.153431 0.799120 0 0 255
-0.312262 0.075463 -0.221632 0 127 127
-0.304266 0.100368 -0.378540 0 127 127
-0.440119 0.090285 -0.307707 0 127 127
-0.072400 -0.362821 0.073805 76 0 153
-0.228576 0.413790 -0.193247 76 0 153
-0.059225 -0.180460 -0.409324 153 76 0
-0.489452 0.152227 -0.088681 76 0 153
-0.489452 0.322723 -0.217926 76 0 153
-0.314494 -0.363404 -0.133291 76 0 153
0.246312 0.344146 0.138525 76 0 153
-0.249750 -0.388192 -0.388289 153 76 0
-0.093707 -0.093243 -0.462758 76 153 0
-0.293527 -0.388192 -0.209365 153 76 0
-0.223072 -0.076109 -0.394777 76 0 153
0.088776 0.380009 -0.394821 76 0 153
-0.242155 0.537774 0.139694 76 0 153
0.336168 -0.090416 0.388372 0 0 255
-0.479852 -0.081938 -0.393323 76 0 153
0.205688 -0.204607 0.617022 0 255 0
0.250303 -0.104496 0.152460 0 0 255
-0.432683 0.152823 -0.446805 153 0 76
0.247297 0.361703 -0.339990 76 0 153
-0.451188 -0.151454 -0.144774 76 0 153
-0.445449 0.000429 -0.443767 153 0 76
0.184390 0.142071 0.195191 0 0 255
0.205265 0.065524 0.182321 0 0 255
-0.102905 0.294780 -0.388894 76 0 153
0.326622 -0.248601 0.362143 0 0 255
-0.489452 -0.117160 0.060743 76 0 153
0.002969 -0.234538 -0.462759 76 153 0
0.368406 -0.114285 0.630546 0 0 255
0.373550 0.099679 0.644679 0 0 255
0.036925 -0.312115 -0.409324 153 76 0
0.341253 0.236449 0.402341 0 0 255
0.406085 0.393805 0.580466 0 0 255
-0.147534 0.085033 -0.342942 0 127 127
0.270255 0.439086 0.354217 0 0 255
0.115507 -0.044042 -0.410876 76 153 0
0.028502 0.075463 -0.127110 0 127 127
-0.245730 0.395541 -0.385322 76 0 153
-0.289452 -0.363306 -0.127235 76 0 153
0.480481 0.244616 0.784867 0 0 255
0.000018 -0.009415 -0.390409 76 0 153
-0.173177 -0.388192 -0.200889 153 76 0
0.196085 0.307077 0.157100 0 0 255
-0.465082 -0.054279 -0.331514 76 0 153
0.271840 -0.063885 0.211631 0 0 255
0.470481 0.225516 0.831261 0 0 255
-0.373921 0.108562 -0.479040 153 0 76
0.185695 0.427616 0.145425 76 0 153
-0.360306 0.438234 -0.154437 76 0 153
0.181770 -0.234009 -0.437502 76 153 0
0.278631 -0.164305 0.230288 0 0 255
-0.083263 -0.388192 -0.299997 153 76 0
-0.489452 0.255879 -0.101924 76 0 153
-0.259204 0.139134 -0.394821 76 0 153
0.267804 -0.280485 0.354144 0 0 255
-0.401728 -0.388192 -0.063816 153 76 0
-0.125489 -0.188253 -0.409299 153 76 0
-0.464260 0.260891 0.011166 76 0 153
-0.172346 -0.094600 -0.460016 76 153 0
0.221605 -0.388192 -0.405856 153 76 0
-0.400539 0.443357 0.062255 76 0 153
0.239585 -0.172360 -0.322046 76 0 153
0.258290 -0.303103 -0.055429 76 0 153
-0.464081 0.316296 0.062050 76 0 153
0.455172 0.265051 0.715331 0 0 255
0.264522 -0.056108 0.130928 76 0 153
-0.464081 0.314182 -0.258034 76 0 153
0.375204 0.255711 0.495622 0 0 255
0.211461 0.352613 -0.013128 153 0 76
0.453670 0.096903 0.711205 0 0 255
-0.449863 0.193371 -0.394722 76 0 153
-0.215588 0.414433 -0.394747 76 0 153
-0.450017 -0.352207 0.053708 76 0 153
-0.489450 0.399325 0.094569 76 0 153
-0.220122 -0.377177 0.141144 153 76 0
0.124565 0.326800 -0.013970 153 0 76
0.367187 -0.222644 0.473593 0 0 255
-0.489452 0.055584 -0.277785 76 0 153
0.217547 -0.230123 0.649684 0 255 0
-0.454069 0.403773 -0.290489 76 0 153
0.277550 0.304052 0.227318 0 0 255
0.248780 0.107394 -0.316446 76 0 153
-0.422217 -0.294692 -0.389438 76 0 153
0.214930 0.070398 -0.138718 0 127 127
0.232113 -0.122365 -0.129110 127 0 127
0.297803 0.248631 0.820914 127 127 0
-0.066303 0.263632 -0.054380 153 0 76
-0.004840 0.413802 0.025785 76 0 153
0.011212 -0.388192 -0.214652 153 76 0
0.096522 0.401222 -0.008827 153 0 76
0.250257 -0.014827 -0.277749 76 0 153
-0.464540 0.133553 0.097624 76 0 153
0.281725 -0.328072 0.714685 0 255 0
0.448589 -0.235855 0.697245 0 0 255
-0.280315 -0.022170 -0.389919 76 0 153
-0.489452 -0.289907 -0.231960 76 0 153
-0.489452 -0.215952 -0.088741 76 0 153
0.190009 -0.040222 -0.403680 76 0 153
0.252733 0.271264 -0.203880 76 0 153
-0.080609 -0.388192 -0.040401 153 76 0
0.225730 -0.122741 0.238546 0 0 255
-0.192186 0.085068 -0.215402 0 127 127
0.250276 -0.361122 -0.388991 76 0 153
-0.345772 0.136261 -0.389758 76 0 153
0.233641 0.014468 0.260282 0 0 255
-0.449433 -0.296708 -0.394737 76 0 153
0.006378 -0.235572 -0.409324 153 76 0
0.078965 -0.272461 -0.457970 153 76 0
-0.464081 0.358201 -0.269366 76 0 153
0.242046 0.038690 0.283376 0 0 255
-0.489452 -0.244401 0.010331 76 0 153
0.135809 -0.362821 -0.252838 76 0 153
0.265236 0.106325 0.193486 0 0 255
0.388376 -0.378136 0.624923 0 0 255
-0.489442 0.055400 0.108208 76 0 153
0.247420 0.420618 -0.347281 76 0 153
-0.489307 0.303096 -0.377539 76 0 153
0.154697 -0.234162 -0.389721 76 0 153
-0.301982 0.413790 -0.294826 76 0 153
0.325495 -0.100304 0.359046 0 0 255
0.349061 -0.148492 0.423794 0 0 255
0.169714 0.270526 -0.012970 153 0 76
0.108090 0.106515 -0.013393 153 0 76
-0.384088 0.320483 -0.445872 153 0 76
0.177821 -0.146230 -0.309211 127 0 127
-0.362224 0.413790 -0.123875 76 0 153
0.142600 -0.362821 -0.181902 76 0 153
0.435493 -0.231035 0.814866 0 0 255
0.385925 0.154238 0.525077 0 0 255
-0.314672 0.010600 -0.394718 76 0 153
0.101056 -0.385135 -0.508183 153 76 0
0.157114 -0.212246 0.441506 0 255 0
0.182428 -0.363829 -0.063600 76 0 153
0.253387 -0.284274 0.731760 0 255 0
0.175884 -0.221593 0.535216 0 255 0
-0.275802 -0.362821 0.005311 76 0 153
-0.041088 -0.146192 -0.053406 127 0 127
0.091363 -0.266484 0.302980 0 255 0
-0.450970 0.038908 -0.424195 153 0 76
0.240782 -0.071157 0.034449 76 0 153
0.467164 0.251374 0.832468 0 0 255
0.253919 0.053191 -0.181850 76 0 153
0.205865 0.036857 0.182979 0 0 255
0.175577 0.322408 0.530840 127 127 0
0.238648 0.248341 0.353172 127 127 0
0.240782 -0.067715 -0.009738 76 0 153
-0.181643 -0.388192 -0.083300 153 76 0
0.151497 0.299359 0.429571 127 127 0
-0.464081 0.295539 -0.274597 76 0 153
-0.425829 0.413075 -0.244266 76 0 153
-0.103480 -0.146230 -0.186344 127 0 127
0.044856 0.439161 -0.228464 76 0 153
0.407024 -0.120604 0.797159 0 0 255
0.340977 -0.325618 0.730270 0 255 0
-0.042743 0.181795 -0.394821 76 0 153
-0.378229 -0.371670 -0.457689 76 0 153
0.412551 -0.198083 0.810517 0 0 255
0.225638 -0.353190 0.078285 76 0 153
0.108346 0.201821 -0.013275 153 0 76
0.466618 0.077617 0.746781 0 0 255
0.339543 0.171447 0.551247 0 0 255
-0.464800 -0.139747 0.104638 76 0 153
0.370763 -0.325498 0.483421 0 0 255
0.247953 0.084358 -0.338125 76 0 153
0.441694 -0.367790 0.678302 0 0 255
0.375378 -0.153850 0.808706 0 0 255
0.136854 -0.325618 0.321542 0 255 0
0.325696 -0.217999 0.832163 0 255 0
0.210276 0.413774 -0.394686 76 0 153
0.447518 -0.092411 0.694304 0 0 255
0.124371 -0.324099 -0.462758 76 153 0
0.240805 0.025008 -0.032639 76 0 153
0.298754 0.248341 0.573680 127 127 0
0.168825 0.412402 0.014330 76 0 153
0.090327 -0.068356 -0.441947 153 76 0
-0.001975 0.439161 -0.048483 76 0 153
-0.489452 -0.314192 0.010500 76 0 153
0.365080 -0.197097 0.467807 0 0 255
0.256693 0.262543 -0.106340 76 0 153
-0.131563 0.439161 -0.344318 76 0 153
-0.489452 0.195197 -0.167326 76 0 153
0.073917 -0.326293 -0.390467 76 0 153
0.404679 0.297237 0.730205 0 0 255
-0.464081 0.312470 -0.318395 76 0 153
-0.465082 -0.123692 0.076519 76 0 153
-0.159538 -0.146230 -0.267724 127 0 127
0.234021 0.248341 0.438109 127 127 0
0.240782 -0.045419 -0.318460 76 0 153
0.197155 0.438598 -0.123260 76 0 153
-0.457481 0.399886 -0.246121 76 0 153
0.145443 0.439278 0.066634 76 0 153
-0.350777 -0.083878 -0.441874 153 0 76
0.371515 0.439086 0.601321 0 0 255
-0.483212 -0.352463 0.140027 76 0 153
-0.040048 0.113941 -0.394821 76 0 153
0.249623 0.420434 -0.288658 76 0 153
0.381481 -0.015773 0.666471 0 0 255
0.115661 -0.210679 0.369801 0 255 0
-0.132418 -0.362821 -0.070615 76 0 153
0.155665 0.075466 -0.042155 153 0 76
-0.366939 0.233028 -0.401778 153 0 76
-0.462505 0.042491 -0.227529 76 0 153
-0.077909 -0.146230 -0.331767 127 0 127
0.240782 -0.203491 0.096007 76 0 153
-0.311582 -0.388192 -0.235116 153 76 0
-0.458515 0.282484 -0.374595 76 0 153
-0.378639 -0.146230 -0.323836 127 0 127
0.186002 0.075479 -0.072622 153 0 76
-0.346036 0.432501 0.150650 76 0 153
-0.092048 -0.315984 -0.462759 76 153 0
-0.376234 -0.136625 -0.281678 127 0 127
0.413010 0.137492 0.599494 0 0 255
0.240782 -0.272873 -0.236851 76 0 153
-0.215038 -0.360517 -0.355465 76 0 153
0.216017 -0.358881 0.113076 76 0 153
-0.082221 -0.134740 -0.353880 127 0 127
-0.183315 -0.275582 -0.429991 76 153 0
0.256875 -0.001180 -0.099172 76 0 153
0.398431 0.369267 0.713040 0 0 255
0.316244 -0.177132 0.487233 0 0 255
-0.228815 0.245043 -0.453069 153 0 76
0.060856 0.439161 -0.200767 76 0 153
-0.334767 0.026513 -0.406150 153 0 76
0.308867 0.248341 0.520672 127 127 0
0.234562 0.105638 -0.006069 153 0 76
-0.260598 0.413790 -0.219195 76 0 153
0.137245 -0.388161 -0.490346 153 76 0
-0.464085 0.263869 -0.141766 76 0 153
0.336897 -0.288617 0.390373 0 0 255
-0.430065 -0.145919 -0.357506 127 0 127
-0.304590 0.085068 -0.292922 0 127 127
0.418954 -0.327875 0.615823 0 0 255
0.393634 0.439086 0.670067 0 0 255
-0.430851 0.072357 -0.169092 0 127 127
-0.489452 -0.013475 0.095535 76 0 153
-0.471667 0.438435 -0.222082 76 0 153
-0.465177 0.195755 -0.357313 76 0 153
-0.248412 -0.134032 -0.357546 127 0 127
-0.167986 -0.363207 -0.121164 76 0 153
0.268672 0.220929 0.356530 0 0 255
0.377109 0.168723 0.654457 0 0 255
-0.114636 0.075463 -0.250471 0 127 127
0.039778 -0.388192 -0.029133 153 76 0
-0.083295 0.142602 -0.394821 76 0 153
-0.351541 -0.362821 0.004760 76 0 153
0.221686 0.267881 0.657524 127 127 0
0.251439 0.416927 -0.243812 76 0 153
0.460983 0.096794 0.834718 0 0 255
-0.217715 0.075463 -0.193726 0 127 127
0.224927 0.001813 0.236342 0 0 255
0.085924 -0.136625 -0.283771 127 0 127
0.365721 -0.371207 0.469567 0 0 255
0.099517 -0.363115 0.010577 76 0 153
0.288398 -0.219961 0.257123 0 0 255
0.095324 0.487036 0.145518 76 0 153
0.177830 -0.362823 -0.197387 76 0 153
-0.100434 0.439161 0.048706 76 0 153
-0.489452 0.126999 -0.234584 76 0 153
0.017560 0.122148 -0.013336 153 0 76
0.063420 -0.295501 -0.390014 76 0 153
-0.025142 0.071983 -0.356938 0 127 127
0.216883 -0.298484 -0.387720 76 0 153
-0.029246 -0.136625 -0.266676 127 0 127
0.237438 0.046289 -0.108202 76 0 153
-0.021299 0.505938 0.143736 76 0 153
-0.468103 0.324592 0.135823 76 0 153
0.252297 0.096102 -0.224331 76 0 153
-0.489392 0.413721 -0.067696 76 0 153
-0.030877 -0.203075 -0.462759 76 153 0
-0.040354 -0.362821 0.068728 76 0 153
-0.070109 0.369642 -0.371621 153 0 76
0.280787 -0.018374 0.389816 0 0 255
0.040269 -0.129531 -0.409324 153 76 0
0.240782 -0.149681 0.069178 76 0 153
-0.476654 -0.051264 -0.394652 76 0 153
0.241978 0.222078 0.129717 76 0 153
0.121431 -0.302349 -0.462759 76 153 0
-0.457589 -0.239193 -0.406790 153 0 76
-0.148994 0.413790 -0.041886 76 0 153
-0.062832 -0.362478 0.122720 76 0 153
0.195161 0.249086 0.154561 0 0 255
-0.358348 0.190388 -0.395352 153 0 76
0.156945 0.238870 -0.394821 76 0 153
-0.316351 0.537556 0.141896 76 0 153
0.173885 -0.317625 -0.459735 76 153 0
0.322467 0.248341 0.610922 127 127 0
0.416441 0.077337 0.808851 0 0 255
0.367984 -0.033407 0.826090 0 0 255
0.259682 0.414390 -0.026449 76 0 153
0.192460 -0.282107 -0.412852 76 153 0
-0.310838 0.413790 -0.224613 76 0 153
0.230133 0.059443 -0.316872 76 0 153
-0.266745 -0.071946 -0.389721 76 0 153
-0.332957 0.406491 -0.374990 76 0 153
-0.253424 0.313885 -0.403793 76 0 153
-0.174421 -0.136625 -0.135027 127 0 127
0.255272 -0.138808 -0.131970 76 0 153
0.188446 0.241351 0.193709 0 0 255
0.386900 0.122773 0.527757 0 0 255
0.249682 0.074386 -0.292824 76 0 153
0.371264 0.321786 0.824258 127 127 0
0.256283 -0.109626 0.322491 0 0 255
-0.066322 0.246656 -0.256755 153 0 76
0.267332 -0.306442 0.352848 0 0 255
-0.336329 -0.067515 -0.408498 153 0 76
0.261029 0.131837 0.181929 0 0 255
0.246181 0.082008 -0.376986 76 0 153
-0.272391 0.439161 -0.032650 76 0 153
0.183412 0.215160 -0.012969 153 0 76
0.339041 0.362126 0.396265 0 0 255
0.123379 -0.233998 0.390980 0 255 0
0.249408 0.441524 0.092580 76 0 153
-0.165139 0.439161 -0.234967 76 0 153
0.222580 -0.152024 -0.373732 76 0 153
0.249907 -0.217670 0.304973 0 0 255
-0.489452 -0.228515 -0.007500 76 0 153
0.183217 0.248341 0.502442 127 127 0
-0.126056 -0.360104 -0.467081 76 153 0
-0.395437 -0.362821 0.085335 76 0 153
-0.167693 0.151861 -0.390381 76 0 153
-0.241188 -0.140933 -0.394821 76 0 153
-0.066322 0.329131 -0.290694 153 0 76
0.073141 0.439141 0.057105 76 0 153
-0.101129 -0.362821 -0.261029 76 0 153
0.113883 0.037113 -0.389855 76 0 153
-0.288909 0.517589 0.108273 76 0 153
0.260892 0.210610 0.027032 76 0 153
-0.031496 -0.388192 -0.270747 153 76 0
-0.178275 -0.244301 -0.453732 76 153 0
0.039879 0.303383 -0.012969 153 0 76
0.457814 -0.272437 0.722590 0 0 255
0.306171 0.042099 0.305954 0 0 255
0.452259 0.071919 0.837893 0 0 255
0.240782 0.289283 0.065206 76 0 153
-0.359281 -0.272974 -0.396170 153 0 76
0.224127 0.439016 -0.229457 76 0 153
-0.489452 0.206321 -0.314570 76 0 153
0.392963 0.331779 0.698017 0 0 255
-0.273140 -0.257182 -0.389721 76 0 153
-0.186729 -0.363710 -0.157336 76 0 153
-0.090821 0.411551 -0.090779 76 0 153
0.025365 0.135712 -0.394821 76 0 153
0.213014 -0.271670 0.142275 0 0 255
0.148376 -0.362822 -0.324102 76 0 153
-0.402224 0.438160 -0.281005 76 0 153
0.257607 -0.049847 -0.085237 76 0 153
-0.489452 -0.022453 -0.278298 76 0 153
-0.277005 0.015246 -0.394821 76 0 153
0.279410 -0.378136 0.274619 0 0 255
0.183653 -0.111620 -0.429243 76 153 0
0.264393 -0.305332 0.191171 0 0 255
0.113714 -0.136625 -0.187759 127 0 127
-0.049392 -0.335655 -0.388066 76 0 153
0.433643 0.012239 0.656182 0 0 255
0.262813 0.296261 0.051116 76 0 153
0.176533 0.302890 0.196778 127 127 0
0.317407 0.366649 0.490429 0 0 255
0.201619 -0.388192 -0.381438 153 76 0
0.240782 -0.250152 -0.209801 76 0 153
-0.489312 0.218550 -0.377121 76 0 153
0.420621 -0.123364 0.774007 0 0 255
0.169177 0.082928 0.185400 0 0 255
0.297541 -0.378136 0.371585 0 0 255
0.419699 -0.327553 0.776492 0 255 0
0.216433 0.519832 0.153238 76 0 153
0.375696 -0.333466 0.650576 0 0 255
-0.179988 0.075463 -0.241391 0 127 127
0.256249 0.020117 -0.107273 76 0 153
0.259522 -0.094559 -0.030407 76 0 153
-0.128190 -0.054847 -0.436821 76 153 0
-0.413347 0.259927 -0.444084 153 0 76
-0.380644 0.012546 -0.389721 76 0 153
0.238449 -0.109213 0.273493 0 0 255
-0.060182 -0.275274 -0.462759 76 153 0
0.257587 -0.190700 -0.054806 76 0 153
0.218604 0.320785 0.613947 127 127 0
-0.464081 0.287544 0.087553 76 0 153
0.253231 0.333770 0.160503 0 0 255
0.082434 0.439161 -0.320325 76 0 153
-0.350599 -0.383234 -0.462247 76 0 153
0.102544 0.075463 -0.314019 0 127 127
-0.402160 -0.146230 -0.290829 127 0 127
0.092526 -0.242768 -0.409324 153 76 0
0.083085 -0.146230 -0.319429 127 0 127
0.204558 0.248341 0.560154 127 127 0
0.393373 0.146442 0.699142 0 0 255
-0.489451 -0.259817 -0.357961 76 0 153
-0.464227 0.036760 -0.171960 76 0 153
-0.172082 0.380333 -0.394821 76 0 153
-0.016367 0.439161 -0.339755 76 0 153
0.486719 -0.355783 0.802006 0 0 255
0.394067 -0.051055 0.701050 0 0 255
-0.260933 -0.108411 -0.394821 76 0 153
0.338335 0.353875 0.547928 0 0 255
-0.346586 -0.062226 -0.390385 76 0 153
0.363781 -0.265889 0.617841 0 0 255
-0.308272 0.433150 -0.391857 76 0 153
0.283976 -0.267509 0.398578 0 0 255
-0.421595 -0.388192 -0.328526 153 76 0
0.249656 -0.163374 -0.270563 76 0 153
0.412199 0.086305 0.750868 0 0 255
0.417504 0.298317 0.611839 0 0 255
0.425545 0.183962 0.787536 0 0 255
0.135808 -0.328014 0.363648 0 255 0
0.202107 -0.065561 0.173642 0 0 255
0.043855 -0.298238 -0.462759 76 153 0
-0.356176 0.378854 -0.394779 76 0 153
-0.358178 -0.362821 -0.051029 76 0 153
0.372369 -0.286186 0.641435 0 0 255
0.095673 -0.240110 0.314856 0 255 0
0.149102 -0.164776 -0.454607 153 76 0
0.121687 -0.086663 -0.414223 153 76 0
0.195517 0.301838 0.550518 127 127 0
0.442735 0.165987 0.834763 0 0 255
-0.066322 0.342903 -0.090253 153 0 76
0.018722 -0.383469 -0.499565 153 76 0
0.257098 -0.238643 0.324730 0 0 255
0.204846 0.281247 0.181168 0 0 255
-0.182532 0.413790 0.026666 76 0 153
-0.489452 0.387301 -0.249871 76 0 153
-0.387301 0.439136 0.045951 76 0 153
0.280982 -0.243710 0.808052 0 255 0
-0.465076 -0.186943 -0.249817 76 0 153
-0.108761 0.332509 -0.389447 76 0 153
0.032476 0.062552 -0.375185 0 127 127
-0.108569 -0.260302 -0.462759 76 153 0
-0.383636 -0.310799 -0.445307 153 0 76
0.083225 -0.096819 -0.411517 153 76 0
-0.267266 0.075463 -0.183802 0 127 127
0.129003 -0.388192 -0.225505 153 76 0
-0.025810 0.439161 0.024664 76 0 153
0.455929 0.325567 0.717410 0 0 255
0.265026 0.205746 0.123761 76 0 153
-0.164277 -0.133911 -0.462433 76 153 0
0.139602 0.241345 -0.013042 153 0 76
0.327377 -0.331945 0.364217 0 0 255
0.191270 0.182097 0.192599 0 0 255
-0.055302 -0.388192 -0.302381 153 76 0
0.255633 -0.324501 -0.136966 76 0 153
0.459359 0.109615 0.726836 0 0 255
-0.466065 0.006761 0.130918 76 0 153
0.369171 0.058716 0.816836 0 255 0
-0.489452 0.315026 0.055598 76 0 153
0.415421 -0.358052 0.759720 0 0 255
-0.060445 -0.003844 -0.390721 76 0 153
-0.464145 0.122767 0.035471 76 0 153
0.164187 -0.388188 0.108044 153 76 0
0.159834 0.115551 0.204134 0 0 255
0.195499 0.491171 0.094820 76 0 153
-0.143907 0.439161 -0.302947 76 0 153
0.275498 0.151050 0.221681 0 0 255
-0.161955 -0.012887 -0.394780 76 0 153
-0.489452 -0.048994 -0.043597 76 0 153
-0.202262 0.037405 -0.394821 76 0 153
-0.489452 -0.030952 -0.156800 76 0 153
-0.296237 -0.388192 0.043678 153 76 0
-0.100707 -0.234370 -0.457657 153 76 0
0.259517 0.347145 -0.030537 76 0 153
0.248131 0.148551 -0.333440 76 0 153
0.413229 -0.258328 0.753699 0 0 255
0.138293 0.274229 0.393295 127 127 0
0.247403 0.324872 0.298092 0 0 255
0.422705 0.419720 0.779731 0 0 255
0.175911 -0.136625 -0.071794 127 0 127
0.059156 0.075463 -0.269262 0 127 127
-0.282401 -0.146230 -0.320531 127 0 127
0.259255 0.287361 -0.037391 76 0 153
-0.408354 0.413793 -0.173444 76 0 153
-0.440580 -0.226064 -0.460473 153 0 76
-0.279070 0.162378 -0.394821 76 0 153
0.263299 0.405302 0.063931 76 0 153
0.256364 -0.139444 -0.103124 76 0 153
0.339321 0.248341 0.633616 127 127 0
-0.187097 -0.352440 -0.433187 76 153 0
-0.234578 -0.136694 -0.044686 127 0 127
-0.475981 0.471162 0.116195 76 0 153
-0.007584 -0.066263 -0.461234 76 153 0
-0.288438 0.477012 0.102708 76 0 153
0.189610 0.425127 -0.394378 76 0 153
0.276935 0.130546 0.225628 0 0 255
-0.269128 0.462060 0.126578 76 0 153
0.056412 -0.388192 -0.162607 153 76 0
0.042693 -0.146230 -0.337725 127 0 127
-0.230668 0.413790 0.054633 76 0 153
-0.047535 -0.112610 -0.462759 76 153 0
-0.059081 -0.362821 0.033088 76 0 153
0.069753 0.075463 -0.055928 153 0 76
0.223861 0.309895 0.233413 0 0 255
0.142058 0.248341 0.263825 127 127 0
0.417367 0.364982 0.765066 0 0 255
-0.309674 0.353423 -0.404049 153 0 76
0.361203 0.119080 0.457155 0 0 255
0.437804 0.029580 0.821216 0 0 255
0.300396 -0.159367 0.443691 0 0 255
0.299517 -0.114192 0.441276 0 0 255
0.134137 -0.388192 -0.321320 153 76 0
-0.432675 -0.360168 -0.097564 76 0 153
-0.066438 0.094366 -0.059517 153 0 76
-0.088543 0.091075 -0.246537 0 127 127
0.248297 0.060983 0.300548 0 0 255
0.259846 0.435514 0.158745 76 0 153
0.450727 0.439086 0.707047 0 0 255
0.132595 -0.146230 -0.063021 127 0 127
0.245683 -0.195572 -0.373277 76 0 153
-0.438406 -0.352308 -0.399435 153 0 76
0.199417 -0.325618 0.382122 0 255 0
0.263988 -0.286016 0.101991 76 0 153
-0.488145 0.428728 -0.118687 76 0 153
0.399620 0.236393 0.562703 0 0 255
0.025766 -0.356231 -0.369493 76 0 153
0.265196 -0.014882 0.115851 76 0 153
-0.380000 0.529925 0.144703 76 0 153
0.140966 -0.191304 -0.411210 153 76 0
-0.489452 -0.314827 -0.066713 76 0 153
0.098190 -0.289016 0.321741 0 255 0
0.239832 0.438109 -0.052970 76 0 153
-0.464149 0.296962 -0.095927 76 0 153
0.038787 -0.241414 -0.389721 76 0 153
0.071965 0.438978 -0.016918 76 0 153
0.240803 0.065115 0.013267 76 0 153
0.172029 0.261436 0.521093 127 127 0
0.193946 0.394836 0.151221 0 0 255
0.434876 -0.297393 0.659569 0 0 255
-0.280084 0.057619 -0.394821 76 0 153
0.341902 0.279713 0.557728 0 0 255
-0.361600 -0.155691 -0.470418 153 0 76
0.105475 -0.194877 -0.409324 153 76 0
0.203645 -0.222566 -0.402010 76 0 153
-0.282746 -0.363476 -0.246223 76 0 153
-0.346538 -0.035259 -0.426044 153 0 76
0.106464 0.157445 -0.013365 153 0 76
0.323756 -0.205939 0.507873 0 0 255
0.335097 -0.094914 0.539032 0 0 255
0.049275 0.075463 -0.300819 0 127 127
0.144246 -0.309207 0.448331 0 255 0
-0.208202 -0.388192 -0.141366 153 76 0
-0.441300 0.303245 -0.394794 76 0 153
0.181626 0.439161 -0.175365 76 0 153
-0.464868 -0.201727 -0.031925 76 0 153
0.252416 0.216691 -0.221230 76 0 153
-0.482751 0.440886 0.076671 76 0 153
-0.335158 -0.362821 -0.050618 76 0 153
-0.489413 0.391546 -0.367530 76 0 153
-0.461582 0.046346 -0.301992 76 0 153
-0.014023 -0.388192 0.006057 153 76 0
0.406182 -0.067948 0.734336 0 0 255
-0.192538 -0.309794 -0.410948 76 153 0
0.113086 -0.362821 -0.293161 76 0 153
-0.088382 -0.202692 -0.462759 76 153 0
0.009977 -0.388192 -0.237468 153 76 0
0.398097 -0.334262 0.712122 0 0 255
0.237206 0.025650 -0.370833 76 0 153
0.260038 0.116486 -0.019822 76 0 153
0.240782 0.043562 0.041537 76 0 153
0.368054 0.386855 0.475976 0 0 255
-0.370284 0.075463 -0.152237 0 127 127
0.421538 -0.017625 0.776527 0 0 255
-0.169890 0.075463 -0.271764 0 127 127
0.342508 0.067580 0.405789 0 0 255
-0.097755 -0.154411 -0.462759 76 153 0
-0.042278 -0.388186 -0.384814 153 76 0
-0.069090 -0.099710 -0.390833 76 0 153
0.099141 -0.146230 -0.246470 127 0 127
-0.387052 0.231838 -0.389721 76 0 153
0.380138 -0.179387 0.806962 0 0 255
0.492799 -0.008805 0.823138 0 0 255
0.146918 0.296459 0.452101 127 127 0
0.140734 -0.146230 -0.086631 127 0 127
-0.276030 -0.388192 -0.139162 153 76 0
0.320422 -0.325687 0.565733 0 255 0
-0.052213 0.439161 -0.140388 76 0 153
0.270210 0.248341 0.417440 127 127 0
0.383358 -0.209761 0.518023 0 0 255
0.460114 -0.138226 0.728910 0 0 255
0.283450 -0.289632 0.243527 0 0 255
-0.464125 -0.243312 -0.200219 76 0 153
0.423631 0.040007 0.782276 0 0 255
-0.444905 0.066452 -0.215244 76 0 153
0.465824 -0.236679 0.832956 0 0 255
-0.435300 -0.359645 -0.052177 76 0 153
0.392258 0.384319 0.696079 0 0 255
-0.318111 -0.146230 -0.242279 127 0 127
0.345836 0.144773 0.568536 0 0 255
0.257365 -0.054904 0.171860 0 0 255
-0.251589 0.415434 -0.394736 76 0 153
-0.308243 0.143808 -0.389721 76 0 153
-0.464081 0.187843 0.054678 76 0 153
0.387016 -0.359335 0.681677 0 0 255
0.445276 0.192736 0.688143 0 0 255
-0.489452 -0.114171 -0.110163 76 0 153
0.293969 -0.378136 0.329238 0 0 255
0.249987 0.220014 -0.284825 76 0 153
0.392994 -0.087999 0.698101 0 0 255
0.188274 0.098956 -0.013163 153 0 76
0.219450 -0.280734 0.612768 0 255 0
-0.139586 -0.388192 -0.310648 153 76 0
0.220220 -0.246226 0.631154 0 255 0
-0.340054 -0.156540 -0.381345 76 0 153
0.443528 -0.356529 0.836943 0 0 255
0.119211 -0.379048 -0.484778 76 153 0
0.286905 0.248341 0.470031 127 127 0
-0.046999 -0.136625 -0.277571 127 0 127
-0.489451 0.250820 -0.349622 76 0 153
0.207744 0.439086 0.181618 0 0 255
0.259859 -0.328072 0.624466 0 255 0
0.173381 -0.176518 -0.460069 76 153 0
-0.126044 0.413936 0.115568 76 0 153
-0.296671 -0.195144 -0.394818 76 0 153
-0.043594 0.439161 -0.111263 76 0 153
-0.066322 0.240140 -0.313937 153 0 76
-0.489452 -0.249944 -0.109447 76 0 153
-0.241853 -0.388146 0.111972 153 76 0
0.434586 0.219425 0.658772 0 0 255
-0.452752 -0.350269 0.033385 76 0 153
0.265239 0.303960 0.117428 76 0 153
-0.489452 -0.229341 -0.278366 76 0 153
0.413726 0.021388 0.809397 0 0 255
-0.424021 -0.388192 -0.235199 153 76 0
-0.464524 -0.061325 -0.041316 76 0 153
-0.066230 0.347733 -0.046124 153 0 76
-0.347820 0.473495 0.181756 76 0 153
0.136996 -0.136625 -0.220301 127 0 127
0.240858 0.029298 -0.154326 76 0 153
0.251559 -0.322728 0.742900 0 255 0
-0.489452 0.032909 -0.020274 76 0 153
0.156513 0.164732 0.205344 0 0 255
0.163070 0.439161 -0.318995 76 0 153
0.211313 0.023909 0.198936 0 0 255
0.058688 -0.362821 -0.264363 76 0 153
-0.074348 -0.080847 -0.462698 76 153 0
-0.222728 0.412608 -0.354685 76 0 153
-0.464081 0.218455 0.075752 76 0 153
0.254673 -0.200905 -0.135861 76 0 153
-0.028776 0.439161 -0.022274 76 0 153
0.024114 0.301299 -0.394821 76 0 153
0.170197 0.489873 0.142219 76 0 153
-0.440513 0.069485 -0.346426 0 127 127
0.161310 0.320366 0.456534 127 127 0
-0.244907 -0.362821 -0.052835 76 0 153
0.232458 0.452932 0.090910 76 0 153
-0.030996 -0.068696 -0.442268 153 76 0
0.016548 -0.089096 -0.390755 76 0 153
-0.489452 -0.308874 -0.201170 76 0 153
0.256479 0.384979 -0.114784 76 0 153
0.279184 0.047965 0.231808 0 0 255
0.406794 0.397347 0.736018 0 0 255
0.412290 0.424661 0.751118 0 0 255
0.219801 0.047056 -0.383369 76 0 153
-0.447520 -0.257930 -0.401307 76 0 153
-0.244379 0.439161 0.012510 76 0 153
-0.457365 -0.345106 -0.314409 76 0 153
0.244158 -0.109260 -0.386560 76 0 153
-0.334616 0.439130 -0.316595 76 0 153
0.078800 -0.317012 -0.409324 153 76 0
0.411500 -0.133018 0.595345 0 0 255
-0.464430 -0.030431 0.115770 76 0 153
-0.074309 -0.180051 -0.389059 76 0 153
0.240785 -0.205000 -0.343959 76 0 153
0.312843 0.267233 0.477889 0 0 255
0.225026 -0.128470 0.137903 0 0 255
0.160595 -0.098402 -0.449115 153 76 0
0.336055 -0.378136 0.466536 0 0 255
-0.344982 -0.146230 -0.335614 127 0 127
-0.198697 0.413790 -0.014396 76 0 153
0.313862 -0.378136 0.349489 0 0 255
-0.090654 0.367643 -0.387739 76 0 153
-0.489452 -0.056859 -0.066917 76 0 153
-0.031117 0.439161 -0.212626 76 0 153
0.017883 -0.358873 -0.409209 153 76 0
0.196819 -0.305668 -0.406726 76 153 0
-0.020614 -0.362821 -0.002667 76 0 153
-0.270765 -0.363823 -0.212502 76 0 153
0.262670 -0.229964 0.073589 76 0 153
-0.486411 0.434896 -0.006849 76 0 153
0.101703 -0.358115 -0.366737 76 0 153
-0.265767 -0.345623 -0.382244 76 0 153
-0.114109 0.413795 -0.190672 76 0 153
-0.181953 -0.136625 -0.169419 127 0 127
-0.311165 0.085068 -0.312794 0 127 127
0.487636 -0.051025 0.825017 0 0 255
0.304132 0.439086 0.358035 0 0 255
-0.345470 0.413790 0.039919 76 0 153
-0.066323 0.148391 -0.201876 153 0 76
-0.066307 0.327846 -0.054739 153 0 76
0.437521 -0.049280 0.666837 0 0 255
0.205104 -0.195236 0.184876 0 0 255
0.357989 0.020501 0.816859 0 0 255
0.055180 -0.388192 0.066481 153 76 0
-0.123601 0.303124 -0.394821 76 0 153
0.326263 0.093356 0.514760 0 0 255
0.222845 -0.354949 -0.143278 76 0 153
-0.378917 0.184875 -0.389721 76 0 153
0.207196 -0.388192 -0.215558 153 76 0
0.273041 0.248341 0.643121 127 127 0
-0.423765 -0.259861 -0.420233 153 0 76
0.169698 -0.232139 0.476011 0 255 0
-0.317049 0.475849 0.146762 76 0 153
0.209744 0.255227 0.194627 0 0 255
-0.154753 -0.146230 -0.090504 127 0 127
0.396653 0.356961 0.554551 0 0 255
-0.464076 -0.186132 -0.129042 76 0 153
-0.100041 -0.363829 0.131991 76 0 153
-0.489452 -0.067492 -0.192161 76 0 153
0.240782 0.337229 0.050012 76 0 153
0.253702 0.097125 -0.187551 76 0 153
0.270922 0.226450 0.209109 0 0 255
0.299522 -0.074722 0.441288 0 0 255
0.035690 -0.301641 -0.390250 76 0 153
-0.083073 -0.057563 -0.450120 76 153 0
0.462631 0.253761 0.735825 0 0 255
-0.419590 0.079650 -0.480454 153 0 76
-0.066001 0.400852 -0.018121 153 0 76
0.160773 -0.191994 0.470818 0 255 0
0.475682 -0.220484 0.771682 0 0 255
0.258770 -0.278028 -0.028075 76 0 153
-0.190703 0.412638 -0.354403 76 0 153
0.380904 0.131544 0.664885 0 0 255
-0.425007 0.203535 -0.408332 153 0 76
-0.066323 0.223755 -0.334531 153 0 76
0.373319 0.322696 0.490442 0 0 255
-0.230251 0.413790 -0.137555 76 0 153
0.254547 0.069467 -0.165414 76 0 153
-0.024093 -0.274468 -0.457746 153 76 0
0.091797 0.280083 0.237831 127 127 0
-0.489452 0.092741 -0.175564 76 0 153
0.218740 0.236697 -0.012970 153 0 76
-0.255274 0.085036 -0.203870 0 127 127
-0.341876 0.065695 -0.416832 153 0 76
-0.161180 -0.388192 -0.258433 153 76 0
0.281002 -0.196664 0.782011 0 255 0
-0.465014 0.227474 -0.307833 76 0 153
-0.364666 0.281550 -0.423346 153 0 76
0.256323 0.348060 0.322601 0 0 255
0.199289 0.269012 0.165903 0 0 255
0.344242 -0.242339 0.832625 0 255 0
0.257625 -0.325618 0.433399 0 255 0
-0.268757 -0.388153 0.111364 153 76 0
-0.489452 0.126485 -0.210592 76 0 153
-0.414849 -0.136659 -0.053119 127 0 127
-0.188273 0.413790 -0.114769 76 0 153
-0.489452 0.010546 -0.263308 76 0 153
-0.489452 -0.240060 -0.335138 76 0 153
-0.429728 -0.361587 -0.183411 76 0 153
-0.274405 -0.383596 -0.499433 153 76 0
-0.407147 0.152619 -0.470808 153 0 76
0.240782 -0.307435 -0.176565 76 0 153
0.240793 -0.311718 -0.010614 76 0 153
-0.283222 -0.362821 -0.072402 76 0 153
0.172184 -0.042240 0.199648 0 0 255
0.255635 0.004877 -0.128960 76 0 153
0.240523 -0.196518 0.120255 76 0 153
-0.489452 0.166808 -0.312936 76 0 153
-0.455386 -0.122664 -0.062200 76 0 153
-0.488074 0.428978 -0.357563 76 0 153
0.166800 0.075463 -0.083340 153 0 76
0.239105 0.437996 -0.092637 76 0 153
-0.271561 0.495976 0.145533 76 0 153
-0.006370 -0.207709 -0.389721 76 0 153
0.256652 0.056358 -0.101852 76 0 153
0.213666 -0.257405 0.205400 0 0 255
-0.475650 0.514294 0.156666 76 0 153
-0.325226 -0.388192 -0.427997 153 76 0
-0.271209 -0.146230 -0.184903 127 0 127
0.338961 -0.183202 0.549647 0 0 255
0.187963 -0.031496 0.188608 0 255 0
0.240872 -0.097219 -0.206121 76 0 153
0.384904 0.404295 0.675876 0 0 255
-0.489452 -0.261991 -0.153935 76 0 153
0.396129 0.085227 0.553113 0 0 255
-0.358452 0.413790 -0.313452 76 0 153
-0.380422 -0.388192 -0.140852 153 76 0
-0.174345 -0.321268 -0.458832 76 153 0
0.021134 0.439161 -0.177373 76 0 153
-0.213775 0.335491 -0.394792 76 0 153
0.077577 -0.136625 -0.233635 127 0 127
0.377515 -0.253285 0.807928 0 255 0
-0.194473 0.413790 -0.265034 76 0 153
-0.464198 0.003757 -0.032648 76 0 153
0.471963 -0.080447 0.761465 0 0 255
-0.064276 -0.136625 -0.165044 127 0 127
-0.269690 -0.373795 -0.410717 76 0 153
0.313396 -0.141733 0.479407 0 0 255
0.137091 -0.388192 0.075401 153 76 0
0.195178 -0.261519 0.546831 0 255 0
0.025519 -0.388192 0.016311 153 76 0
0.240526 0.108527 0.120132 76 0 153
0.173496 -0.266775 0.486477 0 255 0
-0.166826 -0.054716 -0.436093 76 153 0
0.422544 -0.152067 0.625686 0 0 255
-0.443913 0.091865 -0.161261 76 0 153
-0.066322 0.185214 -0.331174 153 0 76
0.165383 -0.304061 0.506352 0 255 0
0.231883 -0.326175 0.663217 0 255 0
0.312060 -0.084675 0.322134 0 0 255
-0.362024 0.085060 -0.328984 0 127 127
0.469839 0.433124 0.755630 0 0 255
-0.101235 0.439079 -0.132470 76 0 153
0.149156 -0.083872 0.192687 0 0 255
0.117834 0.250794 0.337082 127 127 0
0.296230 -0.330805 0.432245 0 0 255
0.220741 0.401989 0.224840 0 0 255
-0.316820 -0.146230 -0.108062 127 0 127
-0.134142 -0.136625 -0.109285 127 0 127
0.235859 -0.388191 -0.154592 153 76 0
-0.024731 -0.150339 -0.373292 76 0 153
-0.467674 0.134591 0.134725 76 0 153
0.260550 0.133542 -0.006314 76 0 153
0.490523 -0.102617 0.812457 0 0 255
-0.378672 -0.146230 -0.150369 127 0 127
0.232815 -0.258688 0.666877 0 255 0
-0.489452 0.063423 -0.318190 76 0 153
-0.234726 -0.146230 -0.212348 127 0 127
-0.227765 -0.363491 -0.203200 76 0 153
0.056682 0.439159 -0.360261 76 0 153
0.317112 -0.059020 0.336016 0 0 255
0.237176 0.322549 0.700083 127 127 0
0.240782 -0.021235 0.036268 76 0 153
0.170965 -0.110246 0.184751 0 0 255
0.457164 -0.349614 0.720806 0 0 255
-0.202175 -0.217335 -0.401691 76 0 153
-0.319309 0.413790 -0.258398 76 0 153
-0.287404 -0.362821 -0.297279 76 0 153
0.267162 -0.032488 0.352382 0 0 255
-0.228461 0.439161 0.071659 76 0 153
0.322633 -0.129589 0.351182 0 0 255
0.050405 -0.327747 -0.409324 153 76 0
0.179118 -0.136628 -0.152036 127 0 127
0.162882 -0.125310 -0.376482 127 0 127
0.235955 0.248341 0.632587 127 127 0
0.348839 0.165988 0.423184 0 0 255
-0.099805 0.413792 0.005508 76 0 153
0.183560 -0.224099 0.556308 0 255 0
0.406123 -0.288808 0.805780 0 255 0
0.390866 0.401434 0.538651 0 0 255
0.239503 -0.333220 -0.148057 76 0 153
0.444723 0.048399 0.840227 0 0 255
0.304850 0.439086 0.304340 0 0 255
-0.489452 -0.066948 -0.275794 76 0 153
-0.425359 -0.170221 -0.477875 153 0 76
-0.442560 0.489890 0.172690 76 0 153
0.047948 -0.099436 -0.390831 76 0 153
0.262407 -0.386602 -0.252207 153 76 0
0.236945 -0.273289 0.702964 0 255 0
-0.073787 0.107114 -0.367888 153 0 76
-0.442740 0.370297 -0.386716 76 0 153
0.240782 -0.264461 0.057740 76 0 153
0.232718 0.489148 0.157978 76 0 153
0.030734 -0.146230 -0.244044 127 0 127
0.261153 0.263787 0.016584 76 0 153
0.240782 -0.281888 -0.273114 76 0 153
0.229260 0.248341 0.371034 127 127 0
0.096356 -0.275708 -0.409324 153 76 0
0.152003 -0.052413 -0.427126 76 153 0
-0.034983 -0.136640 -0.340267 127 0 127
0.155998 -0.278853 -0.452533 153 76 0
0.053355 -0.110107 -0.457672 153 76 0
0.089702 -0.388192 0.085418 153 76 0
0.342750 -0.193709 0.406456 0 0 255
-0.347013 0.075463 -0.146840 0 127 127
-0.191041 0.075490 -0.341511 0 127 127
-0.281744 -0.388192 -0.280712 153 76 0
0.156951 -0.136625 -0.210316 127 0 127
0.231964 -0.325618 0.301227 0 255 0
-0.323940 -0.363822 -0.222833 76 0 153
-0.036239 -0.136625 -0.165295 127 0 127
0.144877 -0.016525 0.200404 0 255 0
0.204765 -0.087994 0.185719 0 0 255
0.240782 -0.213369 -0.278789 76 0 153
-0.245523 0.439161 -0.322763 76 0 153
0.014736 0.439159 -0.362925 76 0 153
-0.489452 -0.001205 -0.328331 76 0 153
0.417619 -0.378136 0.655738 0 0 255
0.349228 0.421933 0.577856 0 0 255
-0.245331 0.413790 -0.020571 76 0 153
-0.066322 0.202611 -0.130062 153 0 76
0.222369 -0.320060 0.229313 0 0 255
0.390803 0.106220 0.538479 0 0 255
0.123949 0.060836 -0.376811 0 127 127
0.440250 0.322527 0.674332 0 0 255
-0.205177 -0.291393 -0.400092 76 0 153
-0.145857 -0.098600 -0.414898 153 76 0
0.255915 0.194329 -0.129549 76 0 153
-0.478193 0.283986 -0.393881 76 0 153
0.435420 0.074210 0.814667 0 0 255
0.328898 0.390555 0.368398 0 0 255
0.397864 0.237709 0.711483 0 0 255
0.394220 -0.262262 0.701470 0 0 255
-0.217460 0.439161 -0.030980 76 0 153
0.483821 -0.144042 0.826406 0 0 255
0.284959 0.385813 0.247676 0 0 255
0.210763 -0.325618 0.423585 0 255 0
0.263823 0.050013 0.077568 76 0 153
0.455707 0.380040 0.716802 0 0 255
0.137561 -0.297391 0.429912 0 255 0
0.437122 0.247681 0.819343 0 0 255
0.212724 0.268938 0.597794 127 127 0
0.357379 0.414836 0.600249 0 0 255
-0.111104 -0.388192 -0.146767 153 76 0
0.481732 -0.378136 0.789033 0 0 255
-0.394690 -0.146230 -0.247402 127 0 127
0.419417 0.400066 0.617094 0 0 255
-0.362567 0.344025 -0.389997 76 0 153
0.143105 -0.363616 0.131140 76 0 153
0.251394 -0.057566 0.309058 0 0 255
-0.279828 0.439130 0.060003 76 0 153
0.179521 -0.146226 -0.344058 127 0 127
-0.443259 -0.098977 -0.456765 153 0 76
0.433295 0.335428 0.808829 0 0 255
0.240782 -0.205788 -0.017560 76 0 153
-0.019300 -0.221628 -0.457657 153 76 0
0.433343 -0.025118 0.655358 0 0 255
0.110675 -0.224430 0.356097 0 255 0
0.210813 -0.388158 -0.438792 153 76 0
0.236903 -0.235366 -0.371308 76 0 153
-0.398798 0.413790 -0.222404 76 0 153
0.200111 -0.017603 0.168161 0 0 255
0.421950 -0.351950 0.777657 0 0 255
-0.462465 -0.167231 -0.107560 76 0 153
0.096914 -0.195157 0.263770 0 255 0
-0.284814 -0.363822 -0.181734 76 0 153
0.133332 -0.190179 0.209470 0 0 255
0.427496 0.106543 0.792895 0 0 255
-0.153361 -0.146230 -0.291391 127 0 127
0.325569 -0.302466 0.512852 0 0 255
0.329187 -0.037648 0.522794 0 0 255
-0.263770 0.075463 -0.274002 0 127 127
0.329123 -0.187566 0.369015 0 0 255
0.412949 -0.184592 0.752927 0 0 255
-0.258671 -0.362821 -0.305454 76 0 153
-0.388975 0.118858 -0.388808 76 0 153
0.109604 -0.306508 0.353134 0 255 0
-0.464081 0.158968 0.037610 76 0 153
-0.464081 0.319349 -0.288563 76 0 153
-0.387141 0.180945 -0.451233 153 0 76
-0.102045 -0.146230 -0.128154 127 0 127
0.097257 -0.136681 -0.046882 127 0 127
-0.090358 0.089735 -0.272434 0 127 127
0.467033 0.280623 0.747921 0 0 255
-0.212838 -0.146230 -0.152665 127 0 127
0.156298 0.248341 0.213192 127 127 0
