ply
format ascii 1.0
element vertex 614
property float x
property float y
property float z
property float nx
property float ny
property float nz
property uchar red
property uchar green
property uchar blue
property float opacity
end_header
-0.615445 0.470153 -0.255561 1.000000 -0.000000 -0.000000 255 255 255 1.000000
0.662444 -0.457162 -0.205942 1.000000 -0.000000 -0.000000 255 255 255 1.000000
-0.441396 -0.262036 -0.313836 -0.000000 0.000000 -1.000000 255 255 255 1.000000
-0.144585 0.024753 -0.321038 0.000000 -0.000000 1.000000 255 255 255 1.000000
-0.433084 0.655915 0.295078 -0.000000 -1.000000 0.000000 255 255 255 1.000000
-0.259340 -0.705401 -0.337952 -0.000000 -1.000000 0.000000 249 202 129 1.000000
0.633633 0.501207 -0.257634 1.000000 -0.000000 -0.000000 255 255 255 1.000000
0.021699 0.132307 0.178849 1.000000 -0.000000 -0.000000 255 255 255 1.000000
-0.586086 -0.683793 0.128482 -0.000000 -1.000000 0.000000 255 255 255 1.000000
0.633633 0.441943 0.198845 -1.000000 0.000000 0.000000 255 255 255 1.000000
0.011981 0.677523 -0.005179 -0.000000 -1.000000 0.000000 255 255 255 1.000000
0.351975 0.485163 -0.178422 1.000000 -0.000000 -0.000000 255 255 255 1.000000
0.605627 0.153359 -0.342647 -0.000000 0.000000 -1.000000 255 255 255 1.000000
0.021699 0.522606 0.084496 1.000000 -0.000000 -0.000000 255 255 255 1.000000
0.662444 -0.686271 -0.281717 -1.000000 0.000000 0.000000 255 255 255 1.000000
-0.013434 -0.705401 -0.166871 0.000000 1.000000 0.000000 255 255 255 1.000000
-0.017343 0.677523 0.063076 0.000000 1.000000 0.000000 249 192 121 1.000000
0.351975 -0.157602 0.071777 1.000000 -0.000000 0.000000 255 255 255 1.000000
0.461174 -0.371973 -0.313836 0.000000 -0.000000 1.000000 255 255 255 1.000000
-0.504918 -0.024743 -0.137557 -0.000000 -1.000000 0.000000 255 255 255 1.000000
0.351975 -0.033384 -0.048404 1.000000 -0.000000 0.000000 255 255 255 1.000000
-0.615445 0.479479 0.045573 1.000000 -0.000000 -0.000000 255 255 255 1.000000
0.417909 0.655915 0.292634 0.000000 1.000000 0.000000 255 255 255 1.000000
-0.415985 0.137165 -0.313836 -0.000000 0.000000 -1.000000 255 255 255 1.000000
-0.261700 -0.495409 0.343413 0.000000 0.000000 -1.000000 251 202 132 1.000000
0.370530 -0.024743 0.265013 -0.000000 -1.000000 0.000000 255 255 255 1.000000
-0.301375 0.446721 -0.063120 1.000000 -0.000000 -0.000000 255 255 255 1.000000
0.021699 -0.603488 -0.210086 1.000000 -0.000000 0.000000 255 255 255 1.000000
-0.524020 -0.513838 0.321805 0.000000 0.000000 1.000000 249 192 124 1.000000
-0.272000 -0.261030 0.343413 0.000000 0.000000 1.000000 246 194 122 1.000000
0.323164 0.209822 -0.047073 1.000000 -0.000000 -0.000000 255 255 255 1.000000
0.633633 0.027776 0.092533 1.000000 -0.000000 -0.000000 255 255 255 1.000000
-0.330186 0.525473 -0.072861 1.000000 -0.000000 -0.000000 255 255 255 1.000000
-0.644256 -0.670691 -0.203242 1.000000 -0.000000 -0.000000 255 255 255 1.000000
-0.498308 -0.338255 0.321805 0.000000 0.000000 1.000000 251 199 129 1.000000
-0.535745 -0.649622 0.321805 0.000000 0.000000 1.000000 250 194 123 1.000000
-0.615445 -0.621530 -0.297200 1.000000 -0.000000 -0.000000 255 255 255 1.000000
0.243388 -0.204989 -0.313836 0.000000 -0.000000 1.000000 255 255 255 1.000000
0.261188 -0.450380 0.321805 0.000000 0.000000 -1.000000 255 255 255 1.000000
0.027958 -0.503813 0.343413 0.000000 0.000000 1.000000 250 194 126 1.000000
-0.644256 0.021836 -0.228923 -1.000000 0.000000 0.000000 255 255 255 1.000000
0.323164 0.356934 0.203636 1.000000 -0.000000 -0.000000 255 255 255 1.000000
-0.499726 0.132714 0.321805 -0.000000 0.000000 -1.000000 255 255 255 1.000000
0.662444 0.208135 -0.308677 -1.000000 0.000000 0.000000 255 255 255 1.000000
0.351975 0.478887 0.200819 -1.000000 0.000000 0.000000 255 255 255 1.000000
0.610656 -0.048643 -0.342647 -0.000000 0.000000 -1.000000 255 255 255 1.000000
-0.339739 -0.085482 -0.321038 -0.000000 0.000000 -1.000000 255 255 255 1.000000
-0.330186 -0.211229 0.130049 -1.000000 0.000000 0.000000 255 255 255 1.000000
-0.128219 -0.024743 -0.031659 0.000000 1.000000 0.000000 249 194 125 1.000000
-0.481239 -0.683793 0.083641 0.000000 1.000000 0.000000 255 255 255 1.000000
0.021699 -0.653438 0.015548 1.000000 -0.000000 0.000000 255 255 255 1.000000
0.615404 0.396608 -0.313836 -0.000000 0.000000 -1.000000 255 255 255 1.000000
-0.644256 0.630739 0.285747 1.000000 -0.000000 -0.000000 255 255 255 1.000000
-0.510586 0.558065 0.343413 -0.000000 0.000000 -1.000000 251 198 130 1.000000
0.662444 -0.651863 0.283522 -1.000000 0.000000 0.000000 255 255 255 1.000000
0.058122 0.525145 -0.321038 -0.000000 0.000000 -1.000000 255 255 255 1.000000
-0.330186 0.110600 0.176057 1.000000 -0.000000 -0.000000 255 255 255 1.000000
-0.007112 -0.447212 -0.273503 1.000000 -0.000000 0.000000 255 255 255 1.000000
-0.644256 0.154047 -0.037957 -1.000000 0.000000 0.000000 255 255 255 1.000000
-0.142004 -0.331392 -0.321038 0.000000 -0.000000 1.000000 255 255 255 1.000000
-0.594421 0.067378 0.321805 -0.000000 0.000000 -1.000000 255 255 255 1.000000
0.114643 -0.213968 0.343413 0.000000 0.000000 -1.000000 244 188 117 1.000000
0.325270 0.267327 0.343413 -0.000000 0.000000 -1.000000 247 200 129 1.000000
0.323164 0.367680 -0.198658 -1.000000 0.000000 0.000000 255 255 255 1.000000
0.662444 -0.630799 -0.341335 1.000000 -0.000000 -0.000000 255 255 255 1.000000
-0.223199 -0.186705 0.321805 0.000000 0.000000 1.000000 248 195 126 1.000000
0.351975 0.354894 0.002270 1.000000 -0.000000 -0.000000 255 255 255 1.000000
-0.330186 -0.652064 -0.271455 1.000000 -0.000000 0.000000 255 255 255 1.000000
-0.424612 0.623847 0.343413 -0.000000 0.000000 -1.000000 240 180 109 1.000000
0.282416 -0.024743 0.063537 0.000000 1.000000 0.000000 251 189 120 1.000000
0.323164 0.318328 -0.095856 -1.000000 0.000000 0.000000 255 255 255 1.000000
0.260659 -0.705401 -0.002774 -0.000000 -1.000000 0.000000 245 189 121 1.000000
0.351975 -0.524304 -0.209756 1.000000 -0.000000 0.000000 255 255 255 1.000000
-0.301375 -0.576928 -0.197407 1.000000 -0.000000 0.000000 255 255 255 1.000000
0.021699 -0.468604 -0.118605 -1.000000 0.000000 0.000000 255 255 255 1.000000
-0.209291 -0.547429 -0.321038 0.000000 -0.000000 1.000000 255 255 255 1.000000
0.109707 -0.072335 0.384083 0.000000 -0.157081 -0.987586 255 255 255 1.000000
-0.264710 0.677523 0.089793 0.000000 1.000000 0.000000 242 185 117 1.000000
0.056669 -0.024743 0.079524 -0.000000 -1.000000 0.000000 255 255 255 1.000000
0.339532 0.064583 0.343413 0.000000 0.000000 1.000000 250 195 126 1.000000
0.379350 -0.447864 -0.321038 0.000000 -0.000000 1.000000 255 255 255 1.000000
-0.048902 -0.278305 -0.321038 0.000000 -0.000000 1.000000 255 255 255 1.000000
-0.615445 0.205917 -0.070072 -1.000000 0.000000 0.000000 255 255 255 1.000000
-0.606632 -0.460327 -0.342647 0.000000 -0.000000 1.000000 255 255 255 1.000000
0.021699 0.302189 -0.140412 -1.000000 0.000000 0.000000 255 255 255 1.000000
-0.301375 0.101967 -0.095716 -1.000000 0.000000 0.000000 255 255 255 1.000000
-0.644256 0.000850 0.106463 -1.000000 0.000000 0.000000 255 255 255 1.000000
0.021699 -0.566651 0.287778 -1.000000 0.000000 0.000000 255 255 255 1.000000
0.308242 -0.531861 -0.313836 -0.000000 0.000000 -1.000000 255 255 255 1.000000
0.323164 -0.037278 -0.274297 1.000000 -0.000000 0.000000 255 255 255 1.000000
0.614102 -0.318364 -0.313836 0.000000 -0.000000 1.000000 255 255 255 1.000000
-0.126245 0.655915 0.196531 -0.000000 -1.000000 0.000000 255 255 255 1.000000
0.539114 -0.077391 0.343413 0.000000 0.000000 1.000000 247 190 122 1.000000
0.323164 -0.538203 -0.036573 -1.000000 0.000000 0.000000 255 255 255 1.000000
0.432155 -0.647021 -0.313836 0.000000 -0.000000 1.000000 255 255 255 1.000000
0.633633 0.415388 -0.080848 -1.000000 0.000000 0.000000 255 255 255 1.000000
-0.515217 0.677523 0.121803 -0.000000 -1.000000 0.000000 255 255 255 1.000000
0.090442 0.041755 0.321805 -0.000000 0.000000 -1.000000 255 255 255 1.000000
0.633633 0.091558 -0.289260 -1.000000 0.000000 0.000000 255 255 255 1.000000
-0.219572 0.293133 0.321805 0.000000 0.000000 1.000000 249 194 123 1.000000
-0.330186 -0.627361 0.311598 -1.000000 0.000000 0.000000 255 255 255 1.000000
-0.330186 0.194297 0.247247 1.000000 -0.000000 -0.000000 255 255 255 1.000000
0.662444 -0.178439 0.341062 -1.000000 0.000000 0.000000 250 195 124 1.000000
-0.007112 -0.392340 0.284469 -1.000000 0.000000 0.000000 255 255 255 1.000000
-0.007112 -0.268551 -0.076905 1.000000 -0.000000 0.000000 255 255 255 1.000000
0.351975 -0.450325 -0.140862 1.000000 -0.000000 0.000000 255 255 255 1.000000
-0.330186 -0.308751 -0.061503 -1.000000 0.000000 0.000000 255 255 255 1.000000
-0.313292 0.677523 0.153550 -0.000000 -1.000000 0.000000 255 255 255 1.000000
0.609742 -0.705401 -0.092132 -0.000000 -1.000000 0.000000 251 196 127 1.000000
-0.187861 -0.439579 -0.321038 -0.000000 0.000000 -1.000000 255 255 255 1.000000
0.633633 -0.204144 -0.281863 -1.000000 0.000000 0.000000 255 255 255 1.000000
-0.615445 0.573327 -0.275159 -1.000000 0.000000 0.000000 255 255 255 1.000000
0.633633 0.254421 0.287779 1.000000 -0.000000 -0.000000 255 255 255 1.000000
-0.330186 -0.329349 0.290241 -1.000000 0.000000 0.000000 255 255 255 1.000000
0.351975 -0.330933 -0.145262 1.000000 -0.000000 0.000000 255 255 255 1.000000
0.323164 0.205756 -0.303036 -1.000000 0.000000 0.000000 255 255 255 1.000000
0.590112 0.268640 -0.313836 0.000000 -0.000000 1.000000 255 255 255 1.000000
0.071406 -0.484884 -0.313836 -0.000000 0.000000 -1.000000 255 255 255 1.000000
0.413629 -0.263413 -0.321038 -0.000000 0.000000 -1.000000 255 255 255 1.000000
-0.644256 0.616302 0.110994 -1.000000 0.000000 0.000000 255 255 255 1.000000
0.642919 -0.705401 0.318104 -0.000000 -1.000000 0.000000 249 194 125 1.000000
0.012894 -0.383656 -0.321038 -0.000000 0.000000 -1.000000 255 255 255 1.000000
0.179644 0.479038 -0.313836 0.000000 -0.000000 1.000000 255 255 255 1.000000
0.633633 -0.338006 0.195633 -1.000000 0.000000 0.000000 255 255 255 1.000000
-0.550768 0.400750 0.321805 0.000000 0.000000 1.000000 252 197 126 1.000000
-0.437487 -0.655379 -0.313836 -0.000000 0.000000 -1.000000 255 255 255 1.000000
-0.301375 -0.385864 0.226132 -1.000000 0.000000 0.000000 255 255 255 1.000000
0.021699 -0.071287 -0.232312 1.000000 -0.000000 0.000000 255 255 255 1.000000
0.633633 0.199524 -0.129185 -1.000000 0.000000 0.000000 255 255 255 1.000000
0.320993 -0.516207 0.343413 0.000000 0.000000 -1.000000 249 194 126 1.000000
0.234093 -0.683793 0.284249 -0.000000 -1.000000 0.000000 255 255 255 1.000000
0.021699 0.336157 0.225045 1.000000 -0.000000 -0.000000 255 255 255 1.000000
-0.409265 0.655915 -0.002347 0.000000 1.000000 0.000000 255 255 255 1.000000
0.351975 0.448263 0.099033 -1.000000 0.000000 0.000000 255 255 255 1.000000
0.374385 -0.630955 -0.313836 -0.000000 0.000000 -1.000000 255 255 255 1.000000
-0.301375 0.378064 -0.272115 -1.000000 0.000000 0.000000 255 255 255 1.000000
-0.037249 0.090956 -0.321038 0.000000 -0.000000 1.000000 255 255 255 1.000000
-0.198298 0.073521 0.343413 -0.000000 0.000000 -1.000000 252 197 126 1.000000
0.259719 -0.003135 -0.205321 0.000000 1.000000 0.000000 255 255 255 1.000000
0.347950 -0.314313 -0.321038 -0.000000 0.000000 -1.000000 255 255 255 1.000000
0.484439 0.677523 0.200960 0.000000 1.000000 0.000000 249 197 128 1.000000
0.323164 -0.364863 0.000247 1.000000 -0.000000 0.000000 255 255 255 1.000000
-0.611937 0.455642 0.343413 0.000000 0.000000 1.000000 249 195 127 1.000000
-0.412012 -0.024743 0.143016 -0.000000 -1.000000 0.000000 255 255 255 1.000000
0.323164 0.622749 -0.140988 1.000000 -0.000000 -0.000000 255 255 255 1.000000
0.466048 0.631208 -0.321038 0.000000 -0.000000 1.000000 255 255 255 1.000000
0.515487 0.208736 0.343413 -0.000000 0.000000 -1.000000 253 197 128 1.000000
-0.615445 0.002895 -0.037017 1.000000 -0.000000 -0.000000 255 255 255 1.000000
0.193739 0.655915 0.061095 -0.000000 -1.000000 0.000000 255 255 255 1.000000
0.633633 -0.173499 -0.188810 -1.000000 0.000000 0.000000 255 255 255 1.000000
-0.007112 -0.084915 -0.009081 -1.000000 0.000000 0.000000 255 255 255 1.000000
0.036216 0.655915 -0.277661 0.000000 1.000000 0.000000 255 255 255 1.000000
0.208322 -0.652527 -0.313836 0.000000 -0.000000 1.000000 255 255 255 1.000000
-0.644256 0.078702 -0.109771 -1.000000 0.000000 0.000000 255 255 255 1.000000
0.351975 0.620802 0.228282 1.000000 -0.000000 -0.000000 255 255 255 1.000000
0.021699 0.377909 -0.208968 1.000000 -0.000000 -0.000000 255 255 255 1.000000
-0.042853 0.655915 0.117771 -0.000000 -1.000000 0.000000 255 255 255 1.000000
-0.262258 0.677523 0.197739 0.000000 1.000000 0.000000 249 194 126 1.000000
-0.220880 0.655915 0.024965 0.000000 1.000000 0.000000 255 255 255 1.000000
-0.176283 0.677523 -0.340248 -0.000000 -1.000000 0.000000 255 255 255 1.000000
-0.301375 -0.477006 -0.221593 1.000000 -0.000000 0.000000 255 255 255 1.000000
-0.615445 -0.295653 0.088367 1.000000 -0.000000 -0.000000 255 255 255 1.000000
0.662444 0.517451 0.278557 1.000000 -0.000000 -0.000000 255 255 255 1.000000
-0.291329 0.677523 -0.017161 -0.000000 -1.000000 0.000000 255 255 255 1.000000
-0.636972 0.677523 0.140156 0.000000 1.000000 0.000000 248 193 125 1.000000
0.630292 0.356493 0.321805 0.000000 0.000000 1.000000 249 197 126 1.000000
-0.644256 -0.075410 0.141967 1.000000 -0.000000 -0.000000 255 255 255 1.000000
-0.222459 -0.003135 0.126065 -0.000000 -1.000000 0.000000 252 197 128 1.000000
-0.314325 -0.003135 0.103878 -0.000000 -1.000000 0.000000 247 196 125 1.000000
0.173849 -0.003135 -0.073327 -0.000000 -1.000000 0.000000 246 190 119 1.000000
-0.325472 -0.003135 -0.283672 -0.000000 -1.000000 0.000000 255 255 255 1.000000
-0.301375 0.600013 -0.218270 1.000000 -0.000000 -0.000000 255 255 255 1.000000
0.376028 0.245459 0.343413 0.000000 0.000000 1.000000 247 197 126 1.000000
-0.301375 -0.314198 0.047075 -1.000000 0.000000 0.000000 255 255 255 1.000000
0.558509 -0.018579 0.343413 0.000000 0.000000 -1.000000 251 192 124 1.000000
0.432839 0.130661 0.343413 -0.000000 0.000000 -1.000000 250 196 128 1.000000
0.291911 -0.003135 0.178490 0.000000 1.000000 0.000000 255 255 255 1.000000
-0.330186 -0.298925 0.099925 1.000000 -0.000000 0.000000 255 255 255 1.000000
-0.644256 -0.270142 -0.066912 1.000000 -0.000000 -0.000000 255 255 255 1.000000
0.323164 -0.219712 -0.111717 -1.000000 0.000000 0.000000 255 255 255 1.000000
0.401101 -0.537872 -0.313836 0.000000 -0.000000 1.000000 255 255 255 1.000000
-0.118599 -0.683793 -0.153901 -0.000000 -1.000000 0.000000 255 255 255 1.000000
-0.213402 0.677523 0.130701 0.000000 1.000000 0.000000 252 194 124 1.000000
0.240296 0.311969 -0.313836 0.000000 -0.000000 1.000000 255 255 255 1.000000
0.662444 -0.487264 0.067390 -1.000000 0.000000 0.000000 255 255 255 1.000000
-0.644256 -0.563834 -0.057769 1.000000 -0.000000 -0.000000 255 255 255 1.000000
0.360463 0.058075 -0.321038 -0.000000 0.000000 -1.000000 255 255 255 1.000000
-0.330186 -0.046206 0.160618 -1.000000 0.000000 0.000000 255 255 255 1.000000
-0.644256 0.162749 0.135476 1.000000 -0.000000 -0.000000 255 255 255 1.000000
0.529758 -0.024743 -0.148715 -0.000000 -1.000000 0.000000 255 255 255 1.000000
-0.186224 -0.024743 -0.223851 -0.000000 -1.000000 0.000000 255 255 255 1.000000
-0.330186 0.105188 -0.283490 -1.000000 0.000000 0.000000 255 255 255 1.000000
0.633633 -0.246465 0.206587 1.000000 -0.000000 -0.000000 255 255 255 1.000000
0.633633 -0.259185 -0.203888 -1.000000 0.000000 0.000000 255 255 255 1.000000
0.108103 0.655915 -0.003511 -0.000000 -1.000000 0.000000 255 255 255 1.000000
-0.131919 -0.535996 -0.313836 0.000000 -0.000000 1.000000 255 255 255 1.000000
-0.529127 0.677523 0.208579 -0.000000 -1.000000 0.000000 255 255 255 1.000000
-0.330186 0.112977 0.060548 1.000000 -0.000000 -0.000000 255 255 255 1.000000
0.001412 0.037775 0.343413 -0.000000 0.000000 -1.000000 249 190 122 1.000000
0.503778 0.655915 -0.123347 0.000000 1.000000 0.000000 255 255 255 1.000000
0.424982 -0.705401 -0.157499 -0.000000 -1.000000 0.000000 246 194 124 1.000000
-0.343778 -0.410247 0.343413 0.000000 0.000000 1.000000 255 201 133 1.000000
0.021699 -0.524533 0.171479 -1.000000 0.000000 0.000000 255 255 255 1.000000
-0.007112 -0.667789 -0.104849 -1.000000 0.000000 0.000000 255 255 255 1.000000
0.237656 0.655915 0.123330 -0.000000 -1.000000 0.000000 255 255 255 1.000000
-0.642893 0.486351 -0.342647 0.000000 -0.000000 1.000000 255 255 255 1.000000
0.662444 0.224201 0.203959 1.000000 -0.000000 -0.000000 255 255 255 1.000000
0.254455 -0.175589 0.321805 0.000000 0.000000 1.000000 248 193 124 1.000000
-0.301375 0.358861 0.301601 1.000000 -0.000000 -0.000000 255 255 255 1.000000
0.021699 0.543541 -0.200215 1.000000 -0.000000 -0.000000 255 255 255 1.000000
-0.330186 0.167508 0.000898 1.000000 -0.000000 -0.000000 255 255 255 1.000000
0.615180 -0.602870 -0.342647 -0.000000 0.000000 -1.000000 255 255 255 1.000000
-0.644256 -0.145837 -0.282752 1.000000 -0.000000 -0.000000 255 255 255 1.000000
-0.242439 -0.703600 0.335928 -0.000000 -1.000000 0.000000 253 193 127 1.000000
-0.330186 -0.566656 -0.151979 1.000000 -0.000000 0.000000 255 255 255 1.000000
-0.167336 0.677523 -0.037848 -0.000000 -1.000000 0.000000 255 255 255 1.000000
-0.330186 -0.456181 0.165621 1.000000 -0.000000 0.000000 255 255 255 1.000000
-0.164578 -0.274063 -0.313836 -0.000000 0.000000 -1.000000 255 255 255 1.000000
-0.644256 0.506735 -0.286646 -1.000000 0.000000 0.000000 255 255 255 1.000000
-0.610603 -0.074777 0.382929 0.822706 0.127217 -0.554050 255 255 255 1.000000
0.633633 0.324156 0.201628 1.000000 -0.000000 -0.000000 255 255 255 1.000000
-0.237284 0.135680 -0.313836 0.000000 -0.000000 1.000000 255 255 255 1.000000
-0.644256 0.250113 0.295276 1.000000 -0.000000 -0.000000 255 255 255 1.000000
-0.206503 -0.683793 -0.130599 0.000000 1.000000 0.000000 255 255 255 1.000000
-0.625001 -0.705401 -0.311862 0.000000 1.000000 0.000000 255 255 255 1.000000
-0.644256 -0.597753 0.018481 1.000000 -0.000000 -0.000000 255 255 255 1.000000
0.021699 -0.575092 -0.266696 -1.000000 0.000000 0.000000 255 255 255 1.000000
-0.330186 -0.235017 -0.282971 1.000000 -0.000000 0.000000 255 255 255 1.000000
-0.113282 -0.121291 -0.321038 0.000000 -0.000000 1.000000 255 255 255 1.000000
-0.266465 -0.003135 -0.106346 0.000000 1.000000 0.000000 255 255 255 1.000000
-0.617429 0.677523 -0.111076 -0.000000 -1.000000 0.000000 255 255 255 1.000000
-0.615445 0.576718 -0.102247 -1.000000 0.000000 0.000000 255 255 255 1.000000
0.662444 0.404298 0.226603 -1.000000 0.000000 0.000000 255 255 255 1.000000
-0.174407 0.627284 0.343413 0.000000 0.000000 1.000000 248 198 125 1.000000
0.633633 -0.114048 0.039439 1.000000 -0.000000 -0.000000 255 255 255 1.000000
-0.644256 0.348633 -0.176352 1.000000 -0.000000 -0.000000 255 255 255 1.000000
-0.391978 0.255908 -0.321038 -0.000000 0.000000 -1.000000 255 255 255 1.000000
-0.615445 -0.567710 0.289205 -1.000000 0.000000 0.000000 255 255 255 1.000000
-0.229673 -0.116488 -0.321038 -0.000000 0.000000 -1.000000 255 255 255 1.000000
0.409657 0.557578 0.321805 0.000000 0.000000 1.000000 253 200 131 1.000000
0.633633 0.331171 0.103246 1.000000 -0.000000 -0.000000 255 255 255 1.000000
0.662444 0.555423 -0.012392 1.000000 -0.000000 -0.000000 255 255 255 1.000000
-0.007112 0.213665 0.235530 -1.000000 0.000000 0.000000 255 255 255 1.000000
-0.330186 -0.307122 0.199645 -1.000000 0.000000 0.000000 255 255 255 1.000000
-0.502517 -0.068809 0.381521 -0.000000 0.759856 0.650092 198 198 198 1.000000
0.662444 0.580708 0.294072 1.000000 -0.000000 -0.000000 255 255 255 1.000000
0.323164 -0.203349 0.063018 -1.000000 0.000000 0.000000 255 255 255 1.000000
-0.228731 -0.024743 -0.062528 -0.000000 -1.000000 0.000000 255 255 255 1.000000
-0.260727 -0.068180 0.381064 -0.000000 0.833279 0.552853 198 198 198 1.000000
-0.327917 -0.522399 0.343413 0.000000 0.000000 -1.000000 249 194 126 1.000000
0.351975 0.388009 -0.142234 -1.000000 0.000000 0.000000 255 255 255 1.000000
-0.602704 0.602279 0.343413 -0.000000 0.000000 -1.000000 247 195 125 1.000000
-0.358171 -0.003135 0.057955 0.000000 1.000000 0.000000 255 255 255 1.000000
0.662444 -0.578400 -0.255466 1.000000 -0.000000 -0.000000 255 255 255 1.000000
0.447032 -0.278466 0.321805 0.000000 0.000000 1.000000 247 192 120 1.000000
-0.532780 0.610976 0.343413 0.000000 0.000000 1.000000 250 194 126 1.000000
-0.088651 0.295518 0.321805 0.000000 0.000000 1.000000 249 200 129 1.000000
-0.272008 0.046297 0.343413 0.000000 0.000000 1.000000 247 192 123 1.000000
0.338268 -0.705401 0.008774 0.000000 1.000000 0.000000 255 255 255 1.000000
-0.644256 -0.552271 -0.286505 1.000000 -0.000000 -0.000000 255 255 255 1.000000
-0.045783 -0.398606 0.343413 0.000000 0.000000 -1.000000 246 195 126 1.000000
0.607216 0.677523 -0.080332 0.000000 1.000000 0.000000 249 194 124 1.000000
0.135471 -0.024743 0.288665 -0.000000 -1.000000 0.000000 255 255 255 1.000000
-0.615445 -0.563604 -0.108408 1.000000 -0.000000 -0.000000 255 255 255 1.000000
0.467817 -0.683793 0.118882 0.000000 1.000000 0.000000 255 255 255 1.000000
0.324238 0.532267 0.343413 -0.000000 0.000000 -1.000000 252 198 130 1.000000
-0.615445 -0.513512 0.019258 1.000000 -0.000000 -0.000000 255 255 255 1.000000
0.258696 -0.705401 -0.297836 -0.000000 -1.000000 0.000000 247 194 126 1.000000
0.064710 -0.683793 -0.084906 0.000000 1.000000 0.000000 255 255 255 1.000000
0.662444 0.458056 -0.292121 -1.000000 0.000000 0.000000 255 255 255 1.000000
-0.644256 -0.507249 -0.127882 1.000000 -0.000000 -0.000000 255 255 255 1.000000
-0.615445 -0.086687 -0.048575 1.000000 -0.000000 -0.000000 255 255 255 1.000000
0.223272 0.677523 0.226017 -0.000000 -1.000000 0.000000 255 255 255 1.000000
0.323164 0.116675 0.170165 -1.000000 0.000000 0.000000 255 255 255 1.000000
0.323164 -0.305824 0.159304 -1.000000 0.000000 0.000000 255 255 255 1.000000
0.329140 -0.397979 0.343413 0.000000 0.000000 1.000000 248 197 128 1.000000
-0.007112 0.167729 -0.085104 1.000000 -0.000000 -0.000000 255 255 255 1.000000
0.278505 -0.659270 0.343413 0.000000 0.000000 1.000000 254 195 126 1.000000
-0.007112 0.531710 0.272259 1.000000 -0.000000 -0.000000 255 255 255 1.000000
0.021699 0.050249 -0.284531 1.000000 -0.000000 -0.000000 255 255 255 1.000000
-0.007112 0.116972 0.059305 1.000000 -0.000000 -0.000000 255 255 255 1.000000
0.662444 0.112270 -0.029530 1.000000 -0.000000 -0.000000 255 255 255 1.000000
-0.377953 0.677523 0.208503 0.000000 1.000000 0.000000 239 180 110 1.000000
0.167086 -0.024743 -0.172692 0.000000 1.000000 0.000000 252 197 127 1.000000
0.270722 0.391101 0.321805 -0.000000 0.000000 -1.000000 255 255 255 1.000000
0.662444 -0.187090 -0.124167 1.000000 -0.000000 -0.000000 255 255 255 1.000000
-0.644256 -0.208627 0.231706 1.000000 -0.000000 -0.000000 255 255 255 1.000000
0.543528 -0.633399 -0.342647 0.000000 -0.000000 1.000000 255 255 255 1.000000
0.546700 -0.705401 0.162326 -0.000000 -1.000000 0.000000 248 195 125 1.000000
-0.184387 -0.077890 0.321805 0.000000 0.000000 1.000000 249 195 121 1.000000
-0.644256 0.632646 -0.276445 -1.000000 0.000000 0.000000 255 255 255 1.000000
-0.644256 -0.396865 -0.289898 -1.000000 0.000000 0.000000 255 255 255 1.000000
0.360095 0.655915 -0.213005 -0.000000 -1.000000 0.000000 255 255 255 1.000000
0.662444 0.564076 -0.090778 -1.000000 0.000000 0.000000 255 255 255 1.000000
-0.639694 0.677523 0.198836 0.000000 1.000000 0.000000 251 205 133 1.000000
0.195040 -0.683793 -0.051082 0.000000 1.000000 0.000000 255 255 255 1.000000
0.247016 0.655915 -0.222383 0.000000 1.000000 0.000000 255 255 255 1.000000
-0.242311 -0.345954 -0.313836 -0.000000 0.000000 -1.000000 255 255 255 1.000000
0.327144 -0.050055 0.343413 0.000000 0.000000 -1.000000 250 196 126 1.000000
-0.129486 -0.232247 -0.313836 -0.000000 0.000000 -1.000000 255 255 255 1.000000
0.556411 -0.187792 0.321805 0.000000 0.000000 -1.000000 255 255 255 1.000000
0.351975 0.225218 -0.150058 1.000000 -0.000000 -0.000000 255 255 255 1.000000
-0.039735 -0.683793 0.141382 -0.000000 -1.000000 0.000000 255 255 255 1.000000
-0.527103 0.631562 -0.321038 -0.000000 0.000000 -1.000000 255 255 255 1.000000
-0.330186 -0.140528 0.206398 -1.000000 0.000000 0.000000 255 255 255 1.000000
0.176004 -0.688136 -0.342647 0.000000 -0.000000 1.000000 255 255 255 1.000000
-0.408840 -0.563444 -0.313836 0.000000 -0.000000 1.000000 255 255 255 1.000000
-0.301375 0.182829 0.144450 -1.000000 0.000000 0.000000 255 255 255 1.000000
-0.099188 0.655915 -0.190806 0.000000 1.000000 0.000000 255 255 255 1.000000
0.089185 0.629902 0.343413 0.000000 0.000000 1.000000 245 194 124 1.000000
0.662444 -0.581537 0.035127 1.000000 -0.000000 -0.000000 255 255 255 1.000000
0.086068 -0.705401 -0.294466 -0.000000 -1.000000 0.000000 255 198 129 1.000000
-0.248359 -0.055624 -0.321038 -0.000000 0.000000 -1.000000 255 255 255 1.000000
0.077317 0.095720 -0.313836 -0.000000 0.000000 -1.000000 255 255 255 1.000000
-0.305552 -0.003135 -0.204806 -0.000000 -1.000000 0.000000 249 194 123 1.000000
0.659275 0.655915 -0.275368 -0.000000 -1.000000 0.000000 255 255 255 1.000000
0.057351 0.329061 -0.313836 -0.000000 0.000000 -1.000000 255 255 255 1.000000
0.633633 0.303233 -0.108063 -1.000000 0.000000 0.000000 255 255 255 1.000000
-0.277770 0.280501 -0.313836 0.000000 -0.000000 1.000000 255 255 255 1.000000
-0.007112 0.555963 -0.140104 -1.000000 0.000000 0.000000 255 255 255 1.000000
0.412172 -0.705401 -0.314693 0.000000 1.000000 0.000000 255 255 255 1.000000
0.633633 0.622821 0.141969 1.000000 -0.000000 -0.000000 255 255 255 1.000000
-0.301375 0.515379 0.156807 -1.000000 0.000000 0.000000 255 255 255 1.000000
0.388398 -0.003135 0.126694 -0.000000 -1.000000 0.000000 251 197 128 1.000000
-0.503621 0.655915 -0.040692 0.000000 1.000000 0.000000 255 255 255 1.000000
-0.635178 0.335165 -0.342647 -0.000000 0.000000 -1.000000 255 255 255 1.000000
-0.580516 -0.212871 -0.342647 -0.000000 0.000000 -1.000000 255 255 255 1.000000
0.662444 -0.366033 -0.208987 -1.000000 0.000000 0.000000 255 255 255 1.000000
-0.030448 0.271172 -0.321038 -0.000000 0.000000 -1.000000 255 255 255 1.000000
-0.524506 -0.176755 0.321805 0.000000 0.000000 -1.000000 255 255 255 1.000000
-0.615445 -0.268681 0.296895 -1.000000 0.000000 0.000000 255 255 255 1.000000
0.021699 -0.286175 0.194207 1.000000 -0.000000 0.000000 255 255 255 1.000000
0.662444 0.557648 -0.249962 1.000000 -0.000000 -0.000000 255 255 255 1.000000
-0.301375 0.084343 -0.166004 1.000000 -0.000000 -0.000000 255 255 255 1.000000
0.012752 0.677523 0.310517 -0.000000 -1.000000 0.000000 255 255 255 1.000000
-0.331375 -0.705401 0.195804 -0.000000 -1.000000 0.000000 249 196 128 1.000000
0.389456 0.560239 -0.321038 -0.000000 0.000000 -1.000000 255 255 255 1.000000
0.351975 -0.544972 0.246892 1.000000 -0.000000 0.000000 255 255 255 1.000000
-0.007112 -0.246538 -0.257958 1.000000 -0.000000 0.000000 255 255 255 1.000000
0.442848 -0.024743 -0.109606 0.000000 1.000000 0.000000 251 196 127 1.000000
0.376945 0.113686 -0.313836 -0.000000 0.000000 -1.000000 255 255 255 1.000000
-0.007112 0.485253 -0.193541 1.000000 -0.000000 -0.000000 255 255 255 1.000000
0.021699 0.582645 0.154859 1.000000 -0.000000 -0.000000 255 255 255 1.000000
0.186004 -0.273316 0.343413 0.000000 0.000000 -1.000000 244 189 118 1.000000
0.371617 -0.003135 -0.087997 0.000000 1.000000 0.000000 255 255 255 1.000000
0.633633 -0.304275 -0.236484 1.000000 -0.000000 -0.000000 255 255 255 1.000000
-0.209844 -0.290665 0.321805 0.000000 0.000000 1.000000 249 194 123 1.000000
0.437846 0.465937 -0.321038 -0.000000 0.000000 -1.000000 255 255 255 1.000000
-0.610197 0.440531 -0.342647 0.000000 -0.000000 1.000000 255 255 255 1.000000
0.063888 -0.003135 -0.017847 -0.000000 -1.000000 0.000000 253 196 128 1.000000
-0.229811 -0.602043 -0.321038 0.000000 -0.000000 1.000000 255 255 255 1.000000
-0.644256 -0.368406 0.160411 -1.000000 0.000000 0.000000 255 255 255 1.000000
-0.301375 0.430716 0.116076 1.000000 -0.000000 -0.000000 255 255 255 1.000000
-0.301375 0.616563 0.136042 1.000000 -0.000000 -0.000000 255 255 255 1.000000
-0.193635 -0.024743 0.039607 0.000000 1.000000 0.000000 252 198 126 1.000000
-0.644256 -0.412353 0.225895 -1.000000 0.000000 0.000000 255 255 255 1.000000
-0.235446 -0.606855 0.321805 0.000000 0.000000 1.000000 249 199 129 1.000000
-0.465545 -0.705401 -0.027470 0.000000 1.000000 0.000000 255 255 255 1.000000
-0.547664 0.655915 -0.141101 -0.000000 -1.000000 0.000000 255 255 255 1.000000
0.021699 0.069913 0.077545 1.000000 -0.000000 -0.000000 255 255 255 1.000000
-0.388477 -0.683793 0.301165 0.000000 1.000000 0.000000 255 255 255 1.000000
0.183531 -0.173710 0.321805 0.000000 0.000000 1.000000 249 194 125 1.000000
0.021699 0.294837 -0.216170 -1.000000 0.000000 0.000000 255 255 255 1.000000
0.609285 0.408775 0.343413 0.000000 0.000000 1.000000 247 196 126 1.000000
-0.007112 0.541411 0.130455 1.000000 -0.000000 -0.000000 255 255 255 1.000000
-0.513782 0.677523 0.019939 -0.000000 -1.000000 0.000000 255 255 255 1.000000
-0.301375 -0.565604 -0.255214 -1.000000 0.000000 0.000000 255 255 255 1.000000
0.323164 -0.317943 0.045581 1.000000 -0.000000 0.000000 255 255 255 1.000000
-0.644256 0.628732 0.050061 1.000000 -0.000000 -0.000000 255 255 255 1.000000
-0.519749 -0.304964 -0.313836 0.000000 -0.000000 1.000000 255 255 255 1.000000
0.601146 -0.115034 0.343413 0.000000 0.000000 1.000000 252 195 127 1.000000
-0.644256 -0.186342 -0.066251 -1.000000 0.000000 0.000000 255 255 255 1.000000
-0.302188 -0.705401 -0.193704 -0.000000 -1.000000 0.000000 247 195 125 1.000000
0.114633 0.445020 -0.313836 0.000000 -0.000000 1.000000 255 255 255 1.000000
0.427147 -0.038190 -0.321038 0.000000 -0.000000 1.000000 255 255 255 1.000000
-0.324602 0.677523 0.233790 -0.000000 -1.000000 0.000000 255 255 255 1.000000
0.633633 -0.089501 0.104677 -1.000000 0.000000 0.000000 255 255 255 1.000000
-0.330186 -0.130320 0.116018 1.000000 -0.000000 0.000000 255 255 255 1.000000
0.268641 -0.401105 -0.313836 0.000000 -0.000000 1.000000 255 255 255 1.000000
-0.644256 -0.653367 -0.121324 1.000000 -0.000000 -0.000000 255 255 255 1.000000
0.228518 -0.078186 0.373618 -0.000000 0.769215 0.638990 255 255 255 1.000000
-0.024346 -0.183107 -0.313836 0.000000 -0.000000 1.000000 255 255 255 1.000000
-0.301375 0.610759 0.011312 -1.000000 0.000000 0.000000 255 255 255 1.000000
0.309613 0.090218 -0.313836 0.000000 -0.000000 1.000000 255 255 255 1.000000
0.021699 -0.490097 0.077077 -1.000000 0.000000 0.000000 255 255 255 1.000000
-0.640159 -0.637424 0.343413 0.000000 0.000000 -1.000000 245 193 125 1.000000
0.624322 -0.154775 -0.321038 0.000000 -0.000000 1.000000 255 255 255 1.000000
-0.637721 -0.372083 0.343413 0.000000 0.000000 -1.000000 250 194 123 1.000000
-0.524219 -0.683793 0.258469 -0.000000 -1.000000 0.000000 255 255 255 1.000000
0.461682 0.677523 -0.225435 0.000000 1.000000 0.000000 255 205 135 1.000000
0.323164 0.471009 0.007991 1.000000 -0.000000 -0.000000 255 255 255 1.000000
-0.330186 0.213692 0.062767 -1.000000 0.000000 0.000000 255 255 255 1.000000
0.428749 0.046060 -0.313836 0.000000 -0.000000 1.000000 255 255 255 1.000000
-0.035032 0.474619 -0.321038 0.000000 -0.000000 1.000000 255 255 255 1.000000
0.047503 0.655915 0.069541 -0.000000 -1.000000 0.000000 255 255 255 1.000000
0.328484 0.148117 0.321805 -0.000000 0.000000 -1.000000 255 255 255 1.000000
-0.007112 -0.405158 -0.224416 1.000000 -0.000000 0.000000 255 255 255 1.000000
-0.301375 -0.413642 -0.211898 -1.000000 0.000000 0.000000 255 255 255 1.000000
0.351975 0.384211 -0.242598 1.000000 -0.000000 -0.000000 255 255 255 1.000000
0.351975 -0.436975 -0.207618 -1.000000 0.000000 0.000000 255 255 255 1.000000
0.147700 0.012060 -0.313836 -0.000000 0.000000 -1.000000 255 255 255 1.000000
-0.330186 -0.400273 0.123125 1.000000 -0.000000 0.000000 255 255 255 1.000000
0.662444 0.060043 -0.334189 -1.000000 0.000000 0.000000 255 255 255 1.000000
-0.007112 -0.359510 0.108719 -1.000000 0.000000 0.000000 255 255 255 1.000000
0.323164 -0.263866 -0.159985 -1.000000 0.000000 0.000000 255 255 255 1.000000
-0.514521 -0.116604 -0.342647 -0.000000 0.000000 -1.000000 255 255 255 1.000000
0.021699 0.154489 0.226897 -1.000000 0.000000 0.000000 255 255 255 1.000000
0.198200 0.655915 0.290832 -0.000000 -1.000000 0.000000 255 255 255 1.000000
0.351975 -0.360456 -0.201214 -1.000000 0.000000 0.000000 255 255 255 1.000000
-0.644256 0.662967 0.003541 -1.000000 0.000000 0.000000 255 255 255 1.000000
-0.256464 0.481923 0.321805 0.000000 0.000000 1.000000 250 194 127 1.000000
0.441298 0.325150 -0.313836 -0.000000 0.000000 -1.000000 255 255 255 1.000000
0.662444 -0.558145 0.221872 -1.000000 0.000000 0.000000 255 255 255 1.000000
0.351975 -0.445109 0.128173 1.000000 -0.000000 0.000000 255 255 255 1.000000
0.550969 -0.024743 -0.055217 -0.000000 -1.000000 0.000000 255 255 255 1.000000
-0.428610 -0.683793 -0.064296 0.000000 1.000000 0.000000 255 255 255 1.000000
0.031326 -0.395127 0.343413 0.000000 0.000000 -1.000000 255 199 131 1.000000
0.617284 0.061025 0.343413 0.000000 0.000000 1.000000 245 190 122 1.000000
-0.596505 -0.683793 -0.029246 -0.000000 -1.000000 0.000000 255 255 255 1.000000
-0.330186 0.349404 -0.049966 1.000000 -0.000000 -0.000000 255 255 255 1.000000
-0.438394 0.677523 0.045598 0.000000 1.000000 0.000000 247 194 124 1.000000
0.278601 -0.551989 0.321805 0.000000 0.000000 -1.000000 255 255 255 1.000000
0.662444 0.238274 -0.223662 -1.000000 0.000000 0.000000 255 255 255 1.000000
-0.007112 0.448746 -0.001128 -1.000000 0.000000 0.000000 255 255 255 1.000000
-0.007112 0.623685 0.085526 -1.000000 0.000000 0.000000 255 255 255 1.000000
-0.495416 -0.412613 -0.342647 0.000000 -0.000000 1.000000 255 255 255 1.000000
0.021699 0.009989 -0.184966 1.000000 -0.000000 -0.000000 255 255 255 1.000000
0.504136 0.239863 -0.313836 -0.000000 0.000000 -1.000000 255 255 255 1.000000
0.618099 -0.635465 0.321805 0.000000 0.000000 1.000000 251 197 127 1.000000
-0.330186 0.021525 -0.080143 -1.000000 0.000000 0.000000 255 255 255 1.000000
-0.576342 -0.683793 0.035531 0.000000 1.000000 0.000000 255 255 255 1.000000
-0.615445 0.599383 -0.188579 -1.000000 0.000000 0.000000 255 255 255 1.000000
0.308402 0.677523 0.293563 -0.000000 -1.000000 0.000000 255 255 255 1.000000
-0.007112 -0.620058 -0.164366 -1.000000 0.000000 0.000000 255 255 255 1.000000
0.587075 -0.229662 -0.342647 0.000000 -0.000000 1.000000 255 255 255 1.000000
0.633633 -0.493345 0.298149 1.000000 -0.000000 -0.000000 255 255 255 1.000000
-0.644256 -0.373598 -0.086532 -1.000000 0.000000 0.000000 255 255 255 1.000000
-0.301375 -0.659667 -0.117119 -1.000000 0.000000 0.000000 255 255 255 1.000000
0.662444 0.257206 -0.116996 1.000000 -0.000000 -0.000000 255 255 255 1.000000
-0.288952 -0.157484 -0.321038 0.000000 -0.000000 1.000000 255 255 255 1.000000
0.178018 0.448439 0.321805 -0.000000 0.000000 -1.000000 255 255 255 1.000000
0.049041 -0.617786 0.321805 0.000000 0.000000 1.000000 252 200 130 1.000000
-0.330186 -0.272099 -0.108744 -1.000000 0.000000 0.000000 255 255 255 1.000000
0.323164 0.289399 0.175055 -1.000000 0.000000 0.000000 255 255 255 1.000000
-0.276423 -0.683793 -0.075834 -0.000000 -1.000000 0.000000 255 255 255 1.000000
0.416523 0.230504 -0.321038 0.000000 -0.000000 1.000000 255 255 255 1.000000
-0.615445 -0.566083 0.207787 -1.000000 0.000000 0.000000 255 255 255 1.000000
-0.615445 -0.278798 -0.199660 -1.000000 0.000000 0.000000 255 255 255 1.000000
-0.426634 -0.476010 0.321805 0.000000 0.000000 -1.000000 255 255 255 1.000000
0.323164 0.224030 0.294020 -1.000000 0.000000 0.000000 255 255 255 1.000000
0.633633 0.483621 0.054554 1.000000 -0.000000 -0.000000 255 255 255 1.000000
-0.364242 -0.659990 -0.321038 0.000000 -0.000000 1.000000 255 255 255 1.000000
0.021699 -0.327736 -0.112559 -1.000000 0.000000 0.000000 255 255 255 1.000000
0.021699 -0.121717 -0.163061 1.000000 -0.000000 0.000000 255 255 255 1.000000
-0.007112 0.148807 -0.029237 1.000000 -0.000000 -0.000000 255 255 255 1.000000
0.417765 0.617278 0.343413 0.000000 0.000000 1.000000 248 194 125 1.000000
0.633633 0.145240 -0.202817 -1.000000 0.000000 0.000000 255 255 255 1.000000
0.188184 0.110995 -0.321038 0.000000 -0.000000 1.000000 255 255 255 1.000000
0.662444 -0.463352 0.020786 -1.000000 0.000000 0.000000 255 255 255 1.000000
-0.175272 0.191767 -0.313836 -0.000000 0.000000 -1.000000 255 255 255 1.000000
0.331701 -0.234314 0.312802 -0.000000 -0.000000 1.000000 255 255 255 1.000000
0.323164 -0.464181 0.297441 -1.000000 0.000000 0.000000 255 255 255 1.000000
0.633633 -0.229624 0.034318 -1.000000 0.000000 0.000000 255 255 255 1.000000
0.351975 0.208590 0.109843 1.000000 -0.000000 -0.000000 255 255 255 1.000000
-0.092174 0.655915 0.024629 0.000000 1.000000 0.000000 255 255 255 1.000000
0.662444 -0.180918 0.071967 1.000000 -0.000000 -0.000000 255 255 255 1.000000
-0.301375 -0.505620 0.081386 1.000000 -0.000000 0.000000 255 255 255 1.000000
0.523418 0.655915 0.305586 -0.000000 -1.000000 0.000000 255 255 255 1.000000
-0.331707 0.677523 0.047266 -0.000000 -1.000000 0.000000 255 255 255 1.000000
-0.322004 -0.381932 -0.313836 -0.000000 0.000000 -1.000000 255 255 255 1.000000
-0.330186 0.647838 -0.083617 1.000000 -0.000000 -0.000000 255 255 255 1.000000
-0.301375 -0.253100 -0.210762 1.000000 -0.000000 0.000000 255 255 255 1.000000
-0.330186 0.415472 0.223639 -1.000000 0.000000 0.000000 255 255 255 1.000000
0.618083 0.593702 -0.313836 0.000000 -0.000000 1.000000 255 255 255 1.000000
-0.644256 -0.433595 -0.025902 -1.000000 0.000000 0.000000 255 255 255 1.000000
0.113466 0.143810 0.321805 0.000000 0.000000 1.000000 248 196 126 1.000000
0.662444 -0.666440 0.064947 -1.000000 0.000000 0.000000 255 255 255 1.000000
0.286173 0.677523 0.016304 0.000000 1.000000 0.000000 253 196 128 1.000000
-0.455351 -0.019680 0.343413 0.000000 0.000000 1.000000 248 191 118 1.000000
0.614365 0.677349 0.320004 -0.000000 0.000000 -1.000000 255 255 255 1.000000
-0.244029 0.399466 0.321805 0.000000 0.000000 1.000000 247 192 123 1.000000
0.633633 0.437481 0.305946 -1.000000 0.000000 0.000000 255 255 255 1.000000
0.334483 -0.652727 0.343413 0.000000 0.000000 1.000000 251 193 126 1.000000
0.351975 -0.398013 -0.103920 -1.000000 0.000000 0.000000 255 255 255 1.000000
0.608749 -0.012089 0.321805 0.000000 0.000000 1.000000 247 191 121 1.000000
-0.502621 -0.024743 -0.228634 0.000000 1.000000 0.000000 244 191 123 1.000000
0.415845 0.023651 0.321805 0.000000 0.000000 1.000000 250 197 126 1.000000
0.662444 -0.002497 0.210701 1.000000 -0.000000 -0.000000 255 255 255 1.000000
0.350160 -0.705401 0.197371 -0.000000 -1.000000 0.000000 249 198 128 1.000000
0.633633 -0.653543 -0.066868 1.000000 -0.000000 -0.000000 255 255 255 1.000000
0.485378 -0.024743 0.300811 0.000000 1.000000 0.000000 246 197 123 1.000000
-0.462634 0.655915 -0.202339 -0.000000 -1.000000 0.000000 255 255 255 1.000000
-0.330186 -0.147682 -0.056902 -1.000000 0.000000 0.000000 255 255 255 1.000000
0.021699 -0.648901 0.273663 1.000000 -0.000000 0.000000 255 255 255 1.000000
0.402879 -0.003135 0.218323 -0.000000 -1.000000 0.000000 250 191 125 1.000000
-0.412353 -0.683793 0.149323 -0.000000 -1.000000 0.000000 255 255 255 1.000000
0.351975 -0.045891 0.221285 -1.000000 0.000000 0.000000 255 255 255 1.000000
0.327161 0.631473 -0.313836 -0.000000 -0.000000 -1.000000 255 255 255 1.000000
0.500051 -0.024743 0.030841 -0.000000 -1.000000 0.000000 255 255 255 1.000000
0.662444 -0.311483 0.007974 -1.000000 0.000000 0.000000 255 255 255 1.000000
-0.215238 -0.024743 0.297507 0.000000 1.000000 0.000000 247 195 125 1.000000
-0.420529 0.174067 0.343413 -0.000000 0.000000 -1.000000 249 194 125 1.000000
-0.188758 0.328951 0.343413 0.000000 0.000000 1.000000 247 195 125 1.000000
0.121462 0.466733 0.321805 0.000000 0.000000 1.000000 247 189 120 1.000000
0.087158 -0.024743 -0.282057 0.000000 1.000000 0.000000 244 191 125 1.000000
0.146901 0.553879 -0.313836 0.000000 -0.000000 1.000000 255 255 255 1.000000
0.502041 0.293027 -0.342647 -0.000000 0.000000 -1.000000 255 255 255 1.000000
-0.373871 0.316030 -0.321038 0.000000 -0.000000 1.000000 255 255 255 1.000000
-0.144445 -0.705401 0.036010 -0.000000 -1.000000 0.000000 245 188 121 1.000000
-0.425850 0.550090 -0.321038 -0.000000 0.000000 -1.000000 255 255 255 1.000000
0.202254 0.677523 -0.026500 -0.000000 -1.000000 0.000000 255 255 255 1.000000
0.021699 0.620089 -0.156044 1.000000 -0.000000 -0.000000 255 255 255 1.000000
-0.301375 0.361837 0.084246 -1.000000 0.000000 0.000000 255 255 255 1.000000
-0.570270 0.006880 0.343413 -0.000000 0.000000 -1.000000 249 194 126 1.000000
-0.471390 0.452456 -0.335761 -1.000000 0.000000 0.000000 255 255 255 1.000000
-0.007112 0.395777 -0.165875 1.000000 -0.000000 -0.000000 255 255 255 1.000000
-0.381435 -0.297866 0.321805 0.000000 0.000000 -1.000000 255 255 255 1.000000
0.351975 -0.353902 0.256922 1.000000 -0.000000 0.000000 255 255 255 1.000000
-0.308215 -0.121633 0.343413 0.000000 0.000000 1.000000 252 192 124 1.000000
0.351975 0.630128 -0.042197 -1.000000 0.000000 0.000000 255 255 255 1.000000
-0.644256 0.192411 0.222314 -1.000000 0.000000 0.000000 255 255 255 1.000000
-0.410531 0.080334 0.343413 0.000000 0.000000 1.000000 246 190 119 1.000000
0.059512 -0.003135 0.289197 -0.000000 -1.000000 0.000000 248 199 126 1.000000
0.286719 -0.024743 -0.308916 0.000000 1.000000 0.000000 251 201 128 1.000000
0.077197 0.199476 -0.321038 0.000000 -0.000000 1.000000 255 255 255 1.000000
0.524609 0.421519 -0.342647 0.000000 -0.000000 1.000000 255 255 255 1.000000
0.323164 -0.161435 -0.045897 1.000000 -0.000000 0.000000 255 255 255 1.000000
0.619930 0.128522 0.321805 -0.000000 0.000000 -1.000000 255 255 255 1.000000
0.158279 -0.536864 0.343413 0.000000 0.000000 -1.000000 252 197 128 1.000000
0.633633 0.302168 0.011941 -1.000000 0.000000 0.000000 255 255 255 1.000000
-0.615445 0.088930 0.201578 -1.000000 0.000000 0.000000 255 255 255 1.000000
0.351975 0.532898 0.051267 1.000000 -0.000000 -0.000000 255 255 255 1.000000
0.409711 -0.705401 0.086917 0.000000 1.000000 0.000000 255 255 255 1.000000
-0.550680 0.138429 -0.313836 -0.000000 0.000000 -1.000000 255 255 255 1.000000
-0.007112 0.207979 -0.159009 1.000000 -0.000000 -0.000000 255 255 255 1.000000
0.262948 0.674208 0.320004 0.000000 -0.000000 1.000000 246 189 120 1.000000
-0.301375 0.280458 0.110663 -1.000000 0.000000 0.000000 255 255 255 1.000000
0.273885 0.192741 0.343413 0.000000 0.000000 1.000000 241 191 120 1.000000
0.573378 0.655915 0.077947 -0.000000 -1.000000 0.000000 255 255 255 1.000000
0.618051 -0.705401 0.194209 -0.000000 -1.000000 0.000000 248 197 122 1.000000
0.662444 -0.292326 -0.044912 -1.000000 0.000000 0.000000 255 255 255 1.000000
-0.644256 0.362582 0.310616 1.000000 -0.000000 -0.000000 255 255 255 1.000000
-0.042390 0.655915 0.006728 -0.000000 -1.000000 0.000000 255 255 255 1.000000
-0.644256 0.067977 0.292358 -1.000000 0.000000 0.000000 255 255 255 1.000000
-0.330186 -0.057789 -0.072328 1.000000 -0.000000 0.000000 255 255 255 1.000000
-0.330186 -0.483509 0.258313 -1.000000 0.000000 0.000000 255 255 255 1.000000
-0.023129 0.677523 -0.107570 0.000000 1.000000 0.000000 247 197 124 1.000000
0.127194 0.366643 -0.321038 -0.000000 0.000000 -1.000000 255 255 255 1.000000
0.021699 -0.342545 -0.286786 1.000000 -0.000000 0.000000 255 255 255 1.000000
-0.058692 -0.568704 0.321805 0.000000 0.000000 1.000000 248 191 123 1.000000
0.662444 0.418009 -0.213060 1.000000 -0.000000 -0.000000 255 255 255 1.000000
-0.485495 -0.003135 0.301838 0.000000 1.000000 0.000000 255 255 255 1.000000
0.563450 -0.327861 -0.313836 0.000000 -0.000000 1.000000 255 255 255 1.000000
0.191816 0.541280 0.343413 -0.000000 0.000000 -1.000000 248 197 128 1.000000
-0.349107 0.611871 -0.321038 0.000000 -0.000000 1.000000 255 255 255 1.000000
0.590657 -0.705401 -0.334328 -0.000000 -1.000000 0.000000 247 196 123 1.000000
-0.301375 -0.127145 0.070222 1.000000 -0.000000 0.000000 255 255 255 1.000000
-0.635991 0.407007 0.343413 0.000000 0.000000 1.000000 249 194 124 1.000000
0.351975 0.537479 -0.285397 -1.000000 0.000000 0.000000 255 255 255 1.000000
-0.593288 -0.705401 -0.159115 -0.000000 -1.000000 0.000000 250 195 127 1.000000
-0.384784 -0.683793 -0.175664 0.000000 1.000000 0.000000 255 255 255 1.000000
-0.532861 0.506765 0.343413 -0.000000 0.000000 -1.000000 251 197 128 1.000000
0.193878 -0.024743 0.217620 0.000000 1.000000 0.000000 252 197 128 1.000000
0.633633 -0.357037 0.093297 1.000000 -0.000000 -0.000000 255 255 255 1.000000
0.633633 -0.019379 0.065266 1.000000 -0.000000 -0.000000 255 255 255 1.000000
0.351975 -0.084667 0.122445 1.000000 -0.000000 0.000000 255 255 255 1.000000
0.662444 0.106524 -0.171487 1.000000 -0.000000 -0.000000 255 255 255 1.000000
0.511911 0.655915 -0.023960 -0.000000 -1.000000 0.000000 255 255 255 1.000000
-0.403470 -0.024743 -0.268655 0.000000 1.000000 0.000000 245 184 115 1.000000
0.597451 -0.241433 0.321805 0.000000 0.000000 1.000000 248 194 126 1.000000
-0.081482 -0.683793 -0.274760 -0.000000 -1.000000 0.000000 255 255 255 1.000000
-0.644256 0.580033 0.022985 -1.000000 0.000000 0.000000 255 255 255 1.000000
-0.167740 -0.024743 -0.093851 -0.000000 -1.000000 0.000000 255 255 255 1.000000
0.323164 -0.038747 -0.003213 1.000000 -0.000000 0.000000 255 255 255 1.000000
-0.007112 -0.572648 -0.109723 -1.000000 0.000000 0.000000 255 255 255 1.000000
-0.644256 0.345064 0.206120 1.000000 -0.000000 -0.000000 255 255 255 1.000000
-0.009958 0.349253 0.321805 -0.000000 0.000000 -1.000000 255 255 255 1.000000
0.004358 -0.276311 -0.313836 0.000000 -0.000000 1.000000 255 255 255 1.000000
-0.414203 -0.683793 -0.244983 0.000000 1.000000 0.000000 255 255 255 1.000000
0.076216 0.655915 -0.143543 -0.000000 -1.000000 0.000000 255 255 255 1.000000
0.154528 -0.705401 0.214736 0.000000 1.000000 0.000000 255 255 255 1.000000
-0.141374 -0.363498 0.343413 0.000000 0.000000 -1.000000 251 196 127 1.000000
0.337899 -0.180853 -0.321038 0.000000 -0.000000 1.000000 255 255 255 1.000000
0.042792 -0.003135 0.144505 -0.000000 -1.000000 0.000000 248 191 123 1.000000
0.351975 -0.372716 0.107898 1.000000 -0.000000 0.000000 255 255 255 1.000000
-0.301375 0.526507 0.018950 -1.000000 0.000000 0.000000 255 255 255 1.000000
-0.261952 0.677523 -0.230764 -0.000000 -1.000000 0.000000 255 255 255 1.000000
0.633633 -0.104373 0.203943 1.000000 -0.000000 -0.000000 255 255 255 1.000000
-0.644256 -0.044616 0.293803 -1.000000 0.000000 0.000000 255 255 255 1.000000
-0.007112 0.415257 0.176585 -1.000000 0.000000 0.000000 255 255 255 1.000000
0.262335 0.257984 -0.313836 0.000000 -0.000000 1.000000 255 255 255 1.000000
-0.615445 0.409914 0.257036 -1.000000 0.000000 0.000000 255 255 255 1.000000
0.471531 -0.172214 -0.313836 -0.000000 0.000000 -1.000000 255 255 255 1.000000
0.633633 -0.003222 -0.130496 1.000000 -0.000000 -0.000000 255 255 255 1.000000
0.633633 -0.523765 -0.129292 -1.000000 0.000000 0.000000 255 255 255 1.000000
0.526429 -0.557039 -0.342647 -0.000000 0.000000 -1.000000 255 255 255 1.000000
0.662444 -0.323763 0.252731 -1.000000 0.000000 0.000000 255 255 255 1.000000
0.329689 -0.683793 0.062723 0.000000 1.000000 0.000000 255 255 255 1.000000
0.323164 -0.654466 -0.012134 1.000000 -0.000000 0.000000 255 255 255 1.000000
-0.615445 -0.406790 -0.138312 -1.000000 0.000000 0.000000 255 255 255 1.000000
-0.301375 0.261699 -0.087558 -1.000000 0.000000 0.000000 255 255 255 1.000000
0.621850 0.677523 0.103453 -0.000000 -1.000000 0.000000 255 255 255 1.000000
-0.413831 0.655915 -0.111102 -0.000000 -1.000000 0.000000 255 255 255 1.000000
0.000874 -0.705401 -0.222673 0.000000 1.000000 0.000000 255 255 255 1.000000
0.059779 0.410099 0.343413 0.000000 0.000000 1.000000 246 195 125 1.000000
-0.330186 0.174157 0.294078 -1.000000 0.000000 0.000000 255 255 255 1.000000
0.279176 -0.705401 0.303342 0.000000 1.000000 0.000000 255 255 255 1.000000
-0.636968 0.156399 0.343413 0.000000 0.000000 1.000000 247 188 112 1.000000
0.653934 0.606588 0.343413 0.000000 0.000000 1.000000 248 191 124 1.000000
0.100050 0.655915 0.291508 -0.000000 -1.000000 0.000000 255 255 255 1.000000
0.633633 -0.055643 -0.048873 -1.000000 0.000000 0.000000 255 255 255 1.000000
0.662444 0.306829 0.053675 1.000000 -0.000000 -0.000000 255 255 255 1.000000
0.662444 -0.405179 0.338664 -1.000000 0.000000 0.000000 247 195 124 1.000000
-0.536170 -0.662279 -0.321038 0.000000 -0.000000 1.000000 255 255 255 1.000000
