ply
format ascii 1.0
element vertex 616
property float x
property float y
property float z
property float nx
property float ny
property float nz
property uchar red
property uchar green
property uchar blue
property float opacity
end_header
0.155114 0.171518 0.606533 -0.000000 0.000000 -1.000000 247 192 120 1.000000
-0.024238 -0.586519 0.172093 0.000000 1.000000 0.000000 255 255 255 1.000000
0.601913 0.166275 0.035583 1.000000 0.000000 0.000000 244 194 123 1.000000
0.563694 0.000439 -0.285010 1.000000 0.000000 0.000000 255 255 255 1.000000
-0.468782 -0.298659 -0.505048 0.000000 0.000000 -1.000000 255 255 255 1.000000
0.601913 0.540166 -0.403378 1.000000 0.000000 0.000000 252 197 126 1.000000
-0.621116 -0.317683 -0.401341 -1.000000 0.000000 0.000000 250 195 124 1.000000
0.232351 0.349084 0.539623 0.000000 -0.000000 1.000000 255 255 255 1.000000
0.106407 -0.008337 0.565103 0.000000 -0.000000 1.000000 255 255 255 1.000000
-0.582897 -0.485153 -0.343527 -1.000000 0.000000 0.000000 255 255 255 1.000000
-0.342214 -0.502757 0.403465 0.000000 1.000000 0.000000 255 255 255 1.000000
-0.345920 0.280396 0.077818 0.000000 -1.000000 -0.000000 255 255 255 1.000000
-0.523503 0.518140 -0.218544 0.000000 -1.000000 -0.000000 255 255 255 1.000000
-0.292980 -0.586519 -0.077372 0.000000 -1.000000 -0.000000 255 255 255 1.000000
0.422659 -0.110650 -0.505048 0.000000 -0.000000 1.000000 255 255 255 1.000000
-0.013447 -0.502757 -0.468601 0.000000 -1.000000 -0.000000 255 255 255 1.000000
-0.195361 0.011555 -0.505048 0.000000 0.000000 -1.000000 255 255 255 1.000000
-0.199066 0.328391 0.565103 0.000000 -0.000000 1.000000 255 255 255 1.000000
-0.293743 0.413605 0.539623 0.000000 0.000000 -1.000000 255 255 255 1.000000
-0.403083 -0.502757 0.413810 0.000000 -1.000000 -0.000000 255 255 255 1.000000
0.466630 0.280396 -0.428041 0.000000 -1.000000 -0.000000 255 255 255 1.000000
0.601913 -0.138007 -0.214400 1.000000 0.000000 0.000000 248 199 129 1.000000
0.116007 -0.198628 -0.505048 0.000000 -0.000000 1.000000 255 255 255 1.000000
0.013643 0.096456 -0.568722 0.000000 -0.000000 1.000000 255 255 255 1.000000
-0.026282 -0.586519 0.487384 0.000000 -1.000000 -0.000000 255 255 255 1.000000
-0.198805 0.254916 -0.524453 0.000000 1.000000 0.000000 255 255 255 1.000000
-0.123441 0.518140 -0.306355 0.000000 -1.000000 -0.000000 255 255 255 1.000000
-0.498847 -0.490017 0.534985 0.000000 1.000000 0.000000 255 255 255 1.000000
-0.214401 0.569100 0.161573 0.000000 -1.000000 -0.000000 255 255 255 1.000000
0.601913 -0.356313 -0.507114 -1.000000 0.000000 0.000000 255 255 255 1.000000
0.029986 0.254916 -0.529163 0.000000 1.000000 0.000000 255 255 255 1.000000
-0.360060 0.267656 -0.430779 0.000000 -1.000000 -0.000000 255 255 255 1.000000
0.457091 -0.502757 -0.295018 0.000000 -1.000000 -0.000000 255 255 255 1.000000
-0.621116 0.508058 -0.399378 -1.000000 0.000000 0.000000 252 193 123 1.000000
0.554139 0.309061 0.491030 1.000000 0.000000 0.000000 198 198 198 1.000000
0.251415 -0.535559 0.430094 0.000000 -1.000000 -0.000000 255 255 255 1.000000
0.326460 -0.098007 -0.530528 0.000000 -0.000000 1.000000 255 255 255 1.000000
0.601913 -0.288786 0.096909 1.000000 0.000000 0.000000 248 189 122 1.000000
0.090340 -0.535559 -0.248308 0.000000 1.000000 0.000000 255 255 255 1.000000
0.450217 -0.264607 0.539623 0.000000 0.000000 -1.000000 255 255 255 1.000000
0.470391 -0.535559 -0.204773 0.000000 -1.000000 -0.000000 255 255 255 1.000000
-0.026003 -0.098961 0.539623 0.000000 0.000000 -1.000000 255 255 255 1.000000
0.486588 -0.572808 -0.606942 0.000000 -0.000000 1.000000 255 255 255 1.000000
0.174558 -0.490017 -0.102853 0.000000 1.000000 0.000000 255 255 255 1.000000
0.479415 -0.586519 -0.039871 0.000000 1.000000 0.000000 255 255 255 1.000000
0.257172 0.518140 0.391699 0.000000 1.000000 0.000000 255 255 255 1.000000
0.195304 0.094203 0.568313 0.000000 -0.000000 1.000000 244 189 120 1.000000
-0.147839 -0.262108 0.568313 -0.000000 0.000000 -1.000000 255 255 255 1.000000
-0.621116 -0.071140 0.010723 -1.000000 0.000000 0.000000 248 196 124 1.000000
-0.385672 0.262732 0.606533 0.000000 -0.000000 1.000000 244 186 117 1.000000
-0.557417 0.003548 -0.404349 -1.000000 0.000000 0.000000 255 255 255 1.000000
-0.621116 0.043352 0.076817 -1.000000 0.000000 0.000000 249 193 126 1.000000
0.563694 0.426631 0.350575 -1.000000 0.000000 0.000000 255 255 255 1.000000
0.077058 0.432948 0.606533 0.000000 -0.000000 1.000000 250 191 121 1.000000
-0.537158 -0.312052 -0.606942 0.000000 -0.000000 1.000000 255 255 255 1.000000
0.538214 -0.490849 0.402581 -1.000000 0.000000 0.000000 255 255 255 1.000000
0.563694 0.568713 -0.590480 1.000000 0.000000 0.000000 255 255 255 1.000000
0.480726 -0.490017 0.264414 0.000000 1.000000 0.000000 255 255 255 1.000000
-0.045919 0.267656 0.484999 0.000000 -1.000000 -0.000000 255 255 255 1.000000
-0.621116 -0.546432 -0.441126 1.000000 0.000000 0.000000 255 255 255 1.000000
-0.346855 0.285783 -0.530528 0.000000 0.000000 -1.000000 255 255 255 1.000000
0.485495 -0.320850 0.606533 0.000000 -0.000000 1.000000 250 195 126 1.000000
0.455443 -0.586519 0.073837 0.000000 1.000000 0.000000 255 255 255 1.000000
-0.058275 0.420422 0.565103 0.000000 0.000000 -1.000000 255 255 255 1.000000
0.601913 -0.165029 0.354352 -1.000000 0.000000 0.000000 255 255 255 1.000000
0.538214 -0.051667 -0.218975 1.000000 0.000000 0.000000 255 255 255 1.000000
0.256620 0.569100 0.013710 0.000000 -1.000000 -0.000000 255 255 255 1.000000
-0.582897 0.317705 0.203430 1.000000 0.000000 0.000000 255 255 255 1.000000
0.217776 -0.535559 -0.572698 0.000000 1.000000 0.000000 255 255 255 1.000000
0.563694 0.485365 -0.414027 -1.000000 0.000000 0.000000 255 255 255 1.000000
-0.112057 -0.586519 0.473110 0.000000 -1.000000 -0.000000 255 255 255 1.000000
-0.159335 -0.535559 0.228013 0.000000 1.000000 0.000000 255 255 255 1.000000
-0.508419 0.569100 0.539397 0.000000 1.000000 0.000000 255 255 255 1.000000
-0.278261 -0.248916 0.565103 0.000000 -0.000000 1.000000 255 255 255 1.000000
0.131464 0.489912 -0.606942 0.000000 -0.000000 1.000000 255 255 255 1.000000
0.146740 0.518140 0.282877 0.000000 1.000000 0.000000 255 255 255 1.000000
0.210279 -0.293900 -0.530528 0.000000 -0.000000 1.000000 255 255 255 1.000000
0.123707 -0.372405 -0.505048 0.000000 0.000000 -1.000000 255 255 255 1.000000
-0.546477 0.533020 0.568313 0.000000 -0.000000 1.000000 250 197 129 1.000000
-0.439932 0.267656 0.497473 0.000000 1.000000 0.000000 255 255 255 1.000000
-0.557417 0.317720 -0.228700 1.000000 0.000000 0.000000 255 255 255 1.000000
-0.461010 0.518140 0.304735 0.000000 -1.000000 -0.000000 255 255 255 1.000000
-0.582897 0.108717 -0.138793 1.000000 0.000000 0.000000 255 255 255 1.000000
-0.557417 0.360231 -0.165511 -1.000000 0.000000 0.000000 255 255 255 1.000000
0.538214 -0.095107 -0.493609 1.000000 0.000000 0.000000 255 255 255 1.000000
0.135064 0.124813 0.606533 -0.000000 0.000000 -1.000000 245 193 123 1.000000
0.522253 0.402727 -0.505048 0.000000 -0.000000 1.000000 255 255 255 1.000000
-0.497110 0.476707 0.647638 0.809569 -0.587025 0.000000 198 198 198 1.000000
-0.621116 -0.285539 0.301091 -1.000000 0.000000 0.000000 251 198 130 1.000000
-0.081310 -0.586519 0.260300 0.000000 1.000000 0.000000 255 255 255 1.000000
-0.621116 -0.050266 0.281644 -1.000000 0.000000 0.000000 249 196 127 1.000000
-0.174647 -0.502757 -0.016718 0.000000 1.000000 0.000000 255 255 255 1.000000
0.240410 0.518140 -0.257059 0.000000 -1.000000 -0.000000 255 255 255 1.000000
-0.582897 -0.322076 0.145939 -1.000000 0.000000 0.000000 255 255 255 1.000000
0.563694 0.088261 0.196580 -1.000000 0.000000 0.000000 255 255 255 1.000000
0.189350 0.267656 0.383380 0.000000 1.000000 0.000000 255 255 255 1.000000
0.127546 0.263342 -0.578419 0.000000 1.000000 0.000000 255 255 255 1.000000
0.563694 -0.043853 -0.028515 1.000000 0.000000 0.000000 255 255 255 1.000000
0.601913 -0.248934 0.499001 -1.000000 0.000000 0.000000 255 255 255 1.000000
0.131846 0.518140 0.212363 0.000000 1.000000 0.000000 255 255 255 1.000000
-0.502345 -0.007969 0.606533 0.000000 -0.000000 1.000000 249 196 128 1.000000
-0.474081 -0.502757 -0.372609 0.000000 -1.000000 -0.000000 255 255 255 1.000000
0.518990 -0.545633 -0.606942 0.000000 -0.000000 1.000000 255 255 255 1.000000
0.563694 0.194560 -0.372208 1.000000 0.000000 0.000000 255 255 255 1.000000
0.332815 0.038769 -0.555983 0.000000 0.000000 -1.000000 255 255 255 1.000000
-0.275687 0.033799 0.606533 -0.000000 0.000000 -1.000000 250 194 126 1.000000
-0.224498 0.280396 -0.465574 0.000000 1.000000 0.000000 255 255 255 1.000000
-0.041127 -0.502757 0.528277 0.000000 1.000000 0.000000 255 255 255 1.000000
-0.118258 -0.535559 -0.257003 0.000000 1.000000 0.000000 255 255 255 1.000000
-0.582897 0.177455 0.505144 -1.000000 0.000000 0.000000 255 255 255 1.000000
0.074488 0.267656 -0.121331 0.000000 1.000000 0.000000 255 255 255 1.000000
0.130749 0.481947 -0.530528 0.000000 0.000000 -1.000000 255 255 255 1.000000
0.315397 0.280396 -0.146494 0.000000 1.000000 0.000000 255 255 255 1.000000
-0.557417 -0.114473 0.383070 1.000000 0.000000 0.000000 255 255 255 1.000000
0.538214 -0.448467 0.149603 1.000000 0.000000 0.000000 255 255 255 1.000000
-0.568254 -0.426231 -0.353114 0.000000 -1.000000 -0.000000 198 198 198 1.000000
-0.236750 -0.535559 0.446027 0.000000 1.000000 0.000000 255 255 255 1.000000
0.482257 0.280396 0.110779 0.000000 1.000000 0.000000 255 255 255 1.000000
0.563694 -0.346936 -0.300867 -1.000000 0.000000 0.000000 255 255 255 1.000000
-0.125554 0.518140 0.087447 0.000000 1.000000 0.000000 255 255 255 1.000000
0.201103 -0.538150 0.606533 -0.000000 0.000000 -1.000000 252 195 129 1.000000
-0.344501 -0.030793 -0.530528 0.000000 0.000000 -1.000000 255 255 255 1.000000
0.154280 -0.490017 0.301537 0.000000 -1.000000 -0.000000 255 255 255 1.000000
0.323831 0.280396 -0.023238 0.000000 1.000000 0.000000 255 255 255 1.000000
-0.293810 -0.427691 0.565103 0.000000 -0.000000 1.000000 255 255 255 1.000000
0.445164 0.005398 -0.505048 0.000000 -0.000000 1.000000 255 255 255 1.000000
0.504074 -0.465982 -0.505048 0.000000 -0.000000 1.000000 255 255 255 1.000000
0.166551 0.234573 0.606533 -0.000000 0.000000 -1.000000 242 191 118 1.000000
0.538214 -0.490749 0.063728 -1.000000 0.000000 0.000000 255 255 255 1.000000
0.077220 0.518140 0.234818 0.000000 -1.000000 -0.000000 255 255 255 1.000000
0.029619 0.328525 0.539623 0.000000 0.000000 -1.000000 255 255 255 1.000000
-0.531937 -0.237470 0.305771 1.000000 0.000000 0.000000 255 255 255 1.000000
-0.282528 -0.310883 -0.568722 0.000000 0.000000 -1.000000 255 255 255 1.000000
0.110320 -0.310843 -0.606942 0.000000 -0.000000 1.000000 255 255 255 1.000000
-0.444611 -0.227955 0.568313 -0.000000 0.000000 -1.000000 255 255 255 1.000000
-0.103846 -0.374771 0.568313 0.000000 -0.000000 1.000000 247 190 123 1.000000
-0.531937 -0.167686 0.322655 1.000000 0.000000 0.000000 255 255 255 1.000000
0.474132 -0.529135 0.606533 -0.000000 0.000000 -1.000000 247 192 123 1.000000
-0.582897 0.348802 0.384963 1.000000 0.000000 0.000000 255 255 255 1.000000
-0.557417 -0.010843 0.456836 -1.000000 0.000000 0.000000 255 255 255 1.000000
0.110548 -0.047118 -0.568722 0.000000 -0.000000 1.000000 255 255 255 1.000000
0.490004 0.498204 -0.505048 0.000000 0.000000 -1.000000 255 255 255 1.000000
-0.088578 0.508730 0.539623 0.000000 0.000000 -1.000000 255 255 255 1.000000
-0.621116 0.518266 0.253171 1.000000 0.000000 0.000000 255 255 255 1.000000
0.351859 -0.586519 0.531204 0.000000 1.000000 0.000000 255 255 255 1.000000
-0.490776 -0.586519 0.441816 0.000000 1.000000 0.000000 255 255 255 1.000000
-0.539841 0.183894 0.571513 0.000000 1.000000 0.000000 251 197 128 1.000000
-0.337214 -0.369759 0.606533 -0.000000 0.000000 -1.000000 247 193 124 1.000000
-0.557417 -0.479822 -0.243504 1.000000 0.000000 0.000000 255 255 255 1.000000
0.138384 0.113225 0.568313 -0.000000 0.000000 -1.000000 255 255 255 1.000000
0.148859 -0.586519 0.382331 0.000000 -1.000000 -0.000000 255 255 255 1.000000
0.529352 -0.515497 -0.149350 0.000000 -1.000000 -0.000000 255 255 255 1.000000
0.068792 -0.535559 0.260871 0.000000 1.000000 0.000000 255 255 255 1.000000
0.500820 0.569100 0.374387 0.000000 -1.000000 -0.000000 255 255 255 1.000000
-0.471461 -0.027389 -0.530528 0.000000 0.000000 -1.000000 255 255 255 1.000000
-0.071148 -0.142717 -0.568722 0.000000 -0.000000 1.000000 255 255 255 1.000000
0.043187 -0.586519 0.224588 0.000000 -1.000000 -0.000000 255 255 255 1.000000
-0.503346 0.329092 -0.530528 0.000000 0.000000 -1.000000 255 255 255 1.000000
-0.195152 0.518140 0.196328 0.000000 -1.000000 -0.000000 255 255 255 1.000000
0.111546 -0.502757 0.052796 0.000000 -1.000000 -0.000000 255 255 255 1.000000
-0.343612 0.455686 -0.530528 0.000000 -0.000000 1.000000 255 255 255 1.000000
-0.183520 -0.361253 0.568313 -0.000000 0.000000 -1.000000 255 255 255 1.000000
-0.557417 -0.495963 -0.006918 1.000000 0.000000 0.000000 255 255 255 1.000000
-0.143128 0.339328 0.539623 0.000000 -0.000000 1.000000 255 255 255 1.000000
0.601913 -0.432231 -0.043979 -1.000000 0.000000 0.000000 255 255 255 1.000000
0.563694 0.560779 0.202266 -1.000000 0.000000 0.000000 255 255 255 1.000000
-0.568465 0.341262 0.536735 0.000000 -1.000000 -0.000000 198 198 198 1.000000
-0.181451 -0.502757 0.228938 0.000000 1.000000 0.000000 255 255 255 1.000000
-0.621116 -0.417588 0.264479 -1.000000 0.000000 0.000000 244 190 120 1.000000
0.279000 0.388897 -0.568722 0.000000 0.000000 -1.000000 255 255 255 1.000000
-0.140462 -0.373261 -0.505048 0.000000 0.000000 -1.000000 255 255 255 1.000000
0.273007 -0.026010 -0.530528 0.000000 0.000000 -1.000000 255 255 255 1.000000
-0.486782 -0.281940 -0.568722 0.000000 0.000000 -1.000000 255 255 255 1.000000
0.303172 0.098448 -0.568722 0.000000 0.000000 -1.000000 255 255 255 1.000000
0.309139 -0.054643 -0.530528 0.000000 -0.000000 1.000000 255 255 255 1.000000
-0.351519 -0.490017 -0.003074 0.000000 1.000000 0.000000 255 255 255 1.000000
-0.262867 0.533021 0.606533 0.000000 -0.000000 1.000000 252 196 128 1.000000
0.118630 -0.490017 -0.212770 0.000000 1.000000 0.000000 255 255 255 1.000000
0.379588 -0.535559 -0.415558 0.000000 -1.000000 -0.000000 255 255 255 1.000000
0.581767 0.226561 0.568313 0.000000 -0.000000 1.000000 250 195 126 1.000000
-0.354085 0.045941 0.606533 -0.000000 0.000000 -1.000000 249 195 126 1.000000
-0.531937 -0.270578 -0.401764 -1.000000 0.000000 0.000000 255 255 255 1.000000
0.176525 -0.396010 -0.555983 0.000000 -0.000000 1.000000 255 255 255 1.000000
0.182113 0.080779 0.656740 0.000000 -0.332684 -0.943038 198 198 198 1.000000
-0.181516 -0.129633 -0.505048 0.000000 0.000000 -1.000000 255 255 255 1.000000
0.538214 -0.242516 0.216933 1.000000 0.000000 0.000000 255 255 255 1.000000
0.538214 0.484174 -0.299650 -1.000000 0.000000 0.000000 255 255 255 1.000000
-0.320781 -0.058946 -0.505048 0.000000 -0.000000 1.000000 255 255 255 1.000000
-0.346699 -0.153288 -0.568722 0.000000 0.000000 -1.000000 255 255 255 1.000000
0.037015 0.439671 -0.555983 0.000000 0.000000 -1.000000 255 255 255 1.000000
0.401843 0.506224 0.568313 0.000000 -0.000000 1.000000 252 199 129 1.000000
0.385869 0.518140 0.158473 0.000000 1.000000 0.000000 255 255 255 1.000000
0.601913 -0.303982 -0.416583 -1.000000 0.000000 0.000000 255 255 255 1.000000
-0.557417 -0.463828 0.452053 -1.000000 0.000000 0.000000 255 255 255 1.000000
0.503767 -0.502757 0.490042 0.000000 1.000000 0.000000 255 255 255 1.000000
-0.196654 -0.586519 0.170906 0.000000 -1.000000 -0.000000 255 255 255 1.000000
0.563694 0.205528 0.527087 -1.000000 0.000000 0.000000 255 255 255 1.000000
-0.121027 -0.554147 -0.606942 0.000000 0.000000 -1.000000 255 255 255 1.000000
0.377925 -0.395693 -0.606942 0.000000 -0.000000 1.000000 255 255 255 1.000000
-0.140005 -0.535559 -0.018823 0.000000 -1.000000 -0.000000 255 255 255 1.000000
0.045044 -0.535559 0.061021 0.000000 -1.000000 -0.000000 255 255 255 1.000000
-0.192803 -0.586519 0.457210 0.000000 1.000000 0.000000 255 255 255 1.000000
0.188145 -0.502757 0.405737 0.000000 -1.000000 -0.000000 255 255 255 1.000000
-0.415644 0.408514 -0.568722 0.000000 -0.000000 1.000000 255 255 255 1.000000
0.245845 -0.369892 -0.505048 0.000000 -0.000000 1.000000 255 255 255 1.000000
-0.063404 -0.320954 -0.530528 0.000000 0.000000 -1.000000 255 255 255 1.000000
-0.547360 -0.219250 0.606533 -0.000000 0.000000 -1.000000 250 193 125 1.000000
0.326540 0.518140 0.005731 0.000000 1.000000 0.000000 255 255 255 1.000000
-0.013929 -0.535559 0.075140 0.000000 1.000000 0.000000 255 255 255 1.000000
-0.242568 0.267656 -0.186854 0.000000 1.000000 0.000000 255 255 255 1.000000
0.512734 -0.258438 0.479900 -1.000000 0.000000 0.000000 255 255 255 1.000000
-0.582897 0.391174 0.020895 -1.000000 0.000000 0.000000 255 255 255 1.000000
-0.621116 -0.250204 -0.257772 -1.000000 0.000000 0.000000 249 195 128 1.000000
-0.161570 0.569100 -0.357640 0.000000 1.000000 0.000000 255 255 255 1.000000
-0.094260 0.063062 0.568313 -0.000000 0.000000 -1.000000 255 255 255 1.000000
0.209967 -0.416578 -0.530528 0.000000 -0.000000 1.000000 255 255 255 1.000000
-0.590941 -0.376254 -0.606942 0.000000 -0.000000 1.000000 255 255 255 1.000000
-0.471247 0.104265 0.568313 -0.000000 0.000000 -1.000000 255 255 255 1.000000
-0.262860 -0.490017 0.504068 0.000000 1.000000 0.000000 255 255 255 1.000000
-0.111735 -0.143167 0.539623 0.000000 -0.000000 1.000000 255 255 255 1.000000
-0.621116 0.317499 -0.531810 1.000000 0.000000 0.000000 255 255 255 1.000000
0.512734 -0.434423 0.059449 -1.000000 0.000000 0.000000 255 255 255 1.000000
-0.050883 0.518140 0.029536 0.000000 1.000000 0.000000 255 255 255 1.000000
0.113587 0.518140 0.544195 0.000000 -1.000000 -0.000000 255 255 255 1.000000
-0.325840 0.091049 0.568313 0.000000 -0.000000 1.000000 250 198 128 1.000000
-0.097433 0.194087 -0.555983 0.000000 0.000000 -1.000000 255 255 255 1.000000
0.436498 -0.428777 -0.530528 0.000000 -0.000000 1.000000 255 255 255 1.000000
0.363692 0.562730 0.594713 0.000000 1.000000 0.000000 248 192 123 1.000000
0.512734 -0.250970 -0.164640 1.000000 0.000000 0.000000 255 255 255 1.000000
0.459738 -0.444148 -0.568722 0.000000 -0.000000 1.000000 255 255 255 1.000000
-0.582897 -0.173960 -0.130704 1.000000 0.000000 0.000000 255 255 255 1.000000
-0.621116 0.015355 -0.443536 1.000000 0.000000 0.000000 255 255 255 1.000000
-0.582897 0.528512 0.012375 1.000000 0.000000 0.000000 255 255 255 1.000000
0.601913 -0.267120 -0.108796 1.000000 0.000000 0.000000 247 193 125 1.000000
-0.554918 0.340096 -0.568722 0.000000 0.000000 -1.000000 255 255 255 1.000000
-0.106834 0.569100 -0.524258 0.000000 -1.000000 -0.000000 255 255 255 1.000000
-0.347537 -0.473783 -0.530528 0.000000 0.000000 -1.000000 255 255 255 1.000000
0.010570 -0.025061 0.539623 0.000000 0.000000 -1.000000 255 255 255 1.000000
0.339281 -0.502757 0.399767 0.000000 -1.000000 -0.000000 255 255 255 1.000000
-0.557417 -0.206742 -0.413699 1.000000 0.000000 0.000000 255 255 255 1.000000
0.430863 0.040773 0.539623 0.000000 -0.000000 1.000000 255 255 255 1.000000
0.563694 -0.443039 0.347499 1.000000 0.000000 0.000000 255 255 255 1.000000
0.416193 -0.586519 -0.146376 0.000000 -1.000000 -0.000000 255 255 255 1.000000
-0.405759 0.294043 0.568313 -0.000000 0.000000 -1.000000 255 255 255 1.000000
-0.466036 0.183894 0.570326 0.000000 -1.000000 -0.000000 249 194 126 1.000000
-0.062146 -0.535559 -0.078785 0.000000 1.000000 0.000000 255 255 255 1.000000
0.563694 -0.235874 -0.357718 -1.000000 0.000000 0.000000 255 255 255 1.000000
-0.621116 -0.059819 0.225538 1.000000 0.000000 0.000000 255 255 255 1.000000
-0.582897 0.234086 0.123983 1.000000 0.000000 0.000000 255 255 255 1.000000
-0.081987 0.459938 -0.505048 0.000000 -0.000000 1.000000 255 255 255 1.000000
0.257225 -0.535559 -0.198373 0.000000 -1.000000 -0.000000 255 255 255 1.000000
-0.242768 -0.202496 -0.555983 0.000000 0.000000 -1.000000 255 255 255 1.000000
0.030160 -0.502757 -0.367701 0.000000 -1.000000 -0.000000 255 255 255 1.000000
-0.226298 -0.490017 0.080497 0.000000 -1.000000 -0.000000 255 255 255 1.000000
0.567192 -0.379326 0.565128 0.000000 0.000000 -1.000000 255 255 255 1.000000
-0.557417 -0.282141 0.039769 -1.000000 0.000000 0.000000 255 255 255 1.000000
-0.110371 -0.038529 0.539623 0.000000 -0.000000 1.000000 255 255 255 1.000000
0.518276 0.002044 -0.555983 0.000000 0.000000 -1.000000 255 255 255 1.000000
-0.219254 -0.280762 -0.569459 0.000000 1.000000 0.000000 255 255 255 1.000000
-0.557417 0.486361 -0.170507 -1.000000 0.000000 0.000000 255 255 255 1.000000
0.563694 0.068274 0.531735 -1.000000 0.000000 0.000000 255 255 255 1.000000
-0.531937 -0.176637 -0.232766 -1.000000 0.000000 0.000000 255 255 255 1.000000
0.246980 -0.567628 -0.606942 0.000000 0.000000 -1.000000 255 255 255 1.000000
-0.352324 0.280396 -0.282002 0.000000 -1.000000 -0.000000 255 255 255 1.000000
-0.075795 -0.586519 -0.602055 0.000000 -1.000000 -0.000000 255 255 255 1.000000
0.538214 0.460700 0.311266 1.000000 0.000000 0.000000 255 255 255 1.000000
0.512734 -0.116446 0.191831 1.000000 0.000000 0.000000 255 255 255 1.000000
0.227330 0.267656 -0.062808 0.000000 1.000000 0.000000 255 255 255 1.000000
0.563693 0.536638 -0.143685 -1.000000 0.000000 0.000000 255 255 255 1.000000
-0.621116 0.521116 0.406729 -1.000000 0.000000 0.000000 251 194 127 1.000000
-0.464989 -0.490017 -0.274821 0.000000 1.000000 0.000000 255 255 255 1.000000
0.512734 0.408847 -0.361910 1.000000 0.000000 0.000000 255 255 255 1.000000
0.280744 0.144924 0.606533 0.000000 -0.000000 1.000000 252 197 128 1.000000
0.601913 0.198629 -0.097835 1.000000 0.000000 0.000000 249 193 122 1.000000
0.200031 -0.194647 0.568313 -0.000000 0.000000 -1.000000 255 255 255 1.000000
0.467130 0.337887 -0.530528 0.000000 -0.000000 1.000000 255 255 255 1.000000
-0.022402 0.261158 0.606533 -0.000000 0.000000 -1.000000 248 191 121 1.000000
-0.031833 -0.153518 0.565103 0.000000 0.000000 -1.000000 255 255 255 1.000000
-0.531937 -0.498215 -0.158967 1.000000 0.000000 0.000000 255 255 255 1.000000
0.113723 0.569100 -0.093686 0.000000 -1.000000 -0.000000 255 255 255 1.000000
0.563693 -0.557721 0.092002 1.000000 0.000000 0.000000 255 255 255 1.000000
-0.621116 -0.156843 0.409605 -1.000000 0.000000 0.000000 248 196 126 1.000000
-0.582897 -0.065737 -0.534782 -1.000000 0.000000 0.000000 255 255 255 1.000000
-0.511710 0.518140 0.524914 0.000000 -1.000000 -0.000000 255 255 255 1.000000
0.563694 -0.404805 0.537393 1.000000 0.000000 0.000000 255 255 255 1.000000
0.245424 0.280396 0.328495 0.000000 1.000000 0.000000 255 255 255 1.000000
-0.132671 -0.365256 0.539623 0.000000 0.000000 -1.000000 255 255 255 1.000000
-0.621116 0.480696 -0.177611 1.000000 0.000000 0.000000 255 255 255 1.000000
-0.264624 0.074694 0.672724 0.000000 0.863532 -0.504294 198 198 198 1.000000
-0.111576 -0.502757 0.097218 0.000000 -1.000000 -0.000000 255 255 255 1.000000
-0.267246 -0.010703 0.565103 0.000000 -0.000000 1.000000 255 255 255 1.000000
-0.315927 -0.483398 -0.555983 0.000000 0.000000 -1.000000 255 255 255 1.000000
0.236547 -0.030074 0.606533 0.000000 -0.000000 1.000000 245 195 122 1.000000
0.263511 0.569100 0.048474 0.000000 1.000000 0.000000 255 255 255 1.000000
0.424790 -0.580804 0.606533 -0.000000 0.000000 -1.000000 250 183 121 1.000000
-0.229122 0.479884 0.568313 -0.000000 0.000000 -1.000000 255 255 255 1.000000
-0.345955 -0.490017 0.129687 0.000000 -1.000000 -0.000000 255 255 255 1.000000
-0.582897 -0.245777 -0.602391 1.000000 0.000000 0.000000 255 255 255 1.000000
0.118268 -0.502757 0.328778 0.000000 1.000000 0.000000 255 255 255 1.000000
0.019790 -0.369825 -0.530528 0.000000 0.000000 -1.000000 255 255 255 1.000000
0.512734 -0.022007 0.008345 -1.000000 0.000000 0.000000 255 255 255 1.000000
-0.582897 -0.350210 -0.013133 1.000000 0.000000 0.000000 255 255 255 1.000000
-0.530278 -0.182627 0.568313 -0.000000 0.000000 -1.000000 255 255 255 1.000000
-0.531937 -0.052695 -0.003496 -1.000000 0.000000 0.000000 255 255 255 1.000000
-0.531937 0.452919 0.112001 -1.000000 0.000000 0.000000 255 255 255 1.000000
-0.132596 -0.457460 0.606533 -0.000000 0.000000 -1.000000 252 196 126 1.000000
0.451224 -0.240420 0.568313 0.000000 -0.000000 1.000000 248 193 124 1.000000
0.325151 0.405021 0.568313 0.000000 -0.000000 1.000000 247 193 125 1.000000
0.208390 0.518140 0.445046 0.000000 -1.000000 -0.000000 255 255 255 1.000000
-0.557417 -0.082809 -0.379175 -1.000000 0.000000 0.000000 255 255 255 1.000000
0.141865 -0.535559 0.044891 0.000000 -1.000000 -0.000000 255 255 255 1.000000
0.491286 0.518140 -0.357249 0.000000 1.000000 0.000000 255 255 255 1.000000
0.601913 -0.544063 -0.032361 1.000000 0.000000 0.000000 249 194 126 1.000000
-0.366906 0.267656 0.498610 0.000000 -1.000000 -0.000000 255 255 255 1.000000
-0.448782 -0.586519 -0.057095 0.000000 1.000000 0.000000 255 255 255 1.000000
0.467824 -0.488152 0.539623 0.000000 -0.000000 1.000000 255 255 255 1.000000
0.020797 -0.041373 -0.555983 0.000000 0.000000 -1.000000 255 255 255 1.000000
0.538214 -0.217722 -0.098687 -1.000000 0.000000 0.000000 255 255 255 1.000000
0.026914 -0.423744 -0.505048 0.000000 -0.000000 1.000000 255 255 255 1.000000
-0.531937 -0.035879 -0.229939 1.000000 0.000000 0.000000 255 255 255 1.000000
0.027954 -0.586519 -0.370905 0.000000 1.000000 0.000000 255 255 255 1.000000
-0.380946 0.569100 -0.472953 0.000000 1.000000 0.000000 255 255 255 1.000000
0.336752 0.278584 -0.530528 0.000000 0.000000 -1.000000 255 255 255 1.000000
-0.449333 0.569100 0.444875 0.000000 -1.000000 -0.000000 255 255 255 1.000000
0.026218 0.569100 -0.146817 0.000000 -1.000000 -0.000000 255 255 255 1.000000
0.106162 0.569100 -0.210844 0.000000 -1.000000 -0.000000 255 255 255 1.000000
0.538214 -0.474031 -0.033204 -1.000000 0.000000 0.000000 255 255 255 1.000000
-0.486910 -0.368180 0.606533 -0.000000 0.000000 -1.000000 246 192 123 1.000000
-0.336179 -0.502757 -0.220606 0.000000 1.000000 0.000000 255 255 255 1.000000
0.449565 -0.013331 0.539623 0.000000 -0.000000 1.000000 255 255 255 1.000000
-0.424410 0.267656 -0.128020 0.000000 -1.000000 -0.000000 255 255 255 1.000000
-0.467795 -0.141277 -0.505048 0.000000 -0.000000 1.000000 255 255 255 1.000000
0.601913 -0.162671 -0.142352 -1.000000 0.000000 0.000000 255 255 255 1.000000
-0.124387 0.412431 0.606533 -0.000000 0.000000 -1.000000 247 191 123 1.000000
-0.200095 -0.140324 0.539623 0.000000 0.000000 -1.000000 255 255 255 1.000000
-0.582897 -0.153450 -0.227419 1.000000 0.000000 0.000000 255 255 255 1.000000
-0.546724 0.254916 0.096394 0.000000 1.000000 0.000000 255 255 255 1.000000
0.376780 -0.502757 -0.168047 0.000000 -1.000000 -0.000000 255 255 255 1.000000
-0.546382 -0.416475 -0.606942 0.000000 0.000000 -1.000000 255 255 255 1.000000
0.266265 -0.165458 0.606533 -0.000000 0.000000 -1.000000 252 198 130 1.000000
-0.557417 0.407853 -0.435964 1.000000 0.000000 0.000000 255 255 255 1.000000
-0.531937 0.447819 0.184556 1.000000 0.000000 0.000000 255 255 255 1.000000
0.145561 -0.586519 0.070899 0.000000 1.000000 0.000000 255 255 255 1.000000
-0.209356 0.267656 0.376429 0.000000 -1.000000 -0.000000 255 255 255 1.000000
0.538214 0.404634 -0.099569 1.000000 0.000000 0.000000 255 255 255 1.000000
0.140945 -0.279624 0.568313 0.000000 -0.000000 1.000000 247 195 127 1.000000
-0.374980 -0.586519 -0.090227 0.000000 1.000000 0.000000 255 255 255 1.000000
-0.064182 -0.502757 -0.019061 0.000000 1.000000 0.000000 255 255 255 1.000000
-0.557417 -0.307078 0.217283 1.000000 0.000000 0.000000 255 255 255 1.000000
0.206301 -0.386582 0.539623 0.000000 0.000000 -1.000000 255 255 255 1.000000
-0.621116 -0.013300 0.382176 -1.000000 0.000000 0.000000 251 197 129 1.000000
0.601913 0.295482 0.320367 -1.000000 0.000000 0.000000 255 255 255 1.000000
0.538214 -0.509130 -0.330589 -1.000000 0.000000 0.000000 255 255 255 1.000000
-0.582897 -0.090931 0.176906 -1.000000 0.000000 0.000000 255 255 255 1.000000
0.152121 0.569100 -0.376024 0.000000 1.000000 0.000000 255 255 255 1.000000
0.225402 0.280396 -0.126960 0.000000 1.000000 0.000000 255 255 255 1.000000
0.172267 -0.362791 -0.606942 0.000000 0.000000 -1.000000 255 255 255 1.000000
-0.416935 0.267656 0.140854 0.000000 1.000000 0.000000 255 255 255 1.000000
0.538214 0.286296 0.388389 1.000000 0.000000 0.000000 255 255 255 1.000000
0.195222 -0.586519 -0.059528 0.000000 -1.000000 -0.000000 255 255 255 1.000000
0.175761 0.267656 0.137409 0.000000 1.000000 0.000000 255 255 255 1.000000
0.053646 0.326985 -0.606942 0.000000 -0.000000 1.000000 255 255 255 1.000000
-0.621116 -0.214289 0.245820 -1.000000 0.000000 0.000000 248 198 128 1.000000
0.085264 0.518140 -0.030589 0.000000 1.000000 0.000000 255 255 255 1.000000
0.563694 0.192792 0.128150 1.000000 0.000000 0.000000 255 255 255 1.000000
-0.390853 -0.509609 -0.505048 0.000000 -0.000000 1.000000 255 255 255 1.000000
-0.477481 -0.586519 -0.010868 0.000000 1.000000 0.000000 255 255 255 1.000000
0.601913 -0.022541 -0.564693 1.000000 0.000000 0.000000 249 196 128 1.000000
0.387649 0.518140 -0.166676 0.000000 1.000000 0.000000 255 255 255 1.000000
0.538214 0.398988 0.182980 1.000000 0.000000 0.000000 255 255 255 1.000000
-0.479783 0.020829 0.568313 0.000000 -0.000000 1.000000 249 198 128 1.000000
-0.547506 0.518140 0.003882 0.000000 -1.000000 -0.000000 255 255 255 1.000000
-0.063136 0.267656 0.275535 0.000000 1.000000 0.000000 255 255 255 1.000000
0.601913 -0.373006 0.140480 -1.000000 0.000000 0.000000 255 255 255 1.000000
0.407778 0.569100 0.103283 0.000000 -1.000000 -0.000000 255 255 255 1.000000
0.337348 -0.586519 0.593515 0.000000 1.000000 0.000000 253 195 120 1.000000
-0.353804 0.569100 0.109253 0.000000 -1.000000 -0.000000 255 255 255 1.000000
0.428483 -0.259517 -0.530528 0.000000 0.000000 -1.000000 255 255 255 1.000000
-0.412514 0.267656 -0.317967 0.000000 1.000000 0.000000 255 255 255 1.000000
0.563694 -0.336938 -0.076555 -1.000000 0.000000 0.000000 255 255 255 1.000000
0.512734 0.008002 -0.454379 -1.000000 0.000000 0.000000 255 255 255 1.000000
0.601913 0.096016 -0.199002 1.000000 0.000000 0.000000 248 198 125 1.000000
-0.557417 0.371071 -0.001473 -1.000000 0.000000 0.000000 255 255 255 1.000000
-0.242008 -0.302494 -0.505048 0.000000 -0.000000 1.000000 255 255 255 1.000000
0.601913 -0.503521 0.223805 -1.000000 0.000000 0.000000 255 255 255 1.000000
-0.220828 0.169960 -0.568722 0.000000 0.000000 -1.000000 255 255 255 1.000000
-0.262035 -0.535559 0.185311 0.000000 1.000000 0.000000 255 255 255 1.000000
0.437560 -0.387306 -0.530528 0.000000 0.000000 -1.000000 255 255 255 1.000000
0.374490 0.442536 0.568313 -0.000000 0.000000 -1.000000 255 255 255 1.000000
0.538214 0.365978 0.004102 -1.000000 0.000000 0.000000 255 255 255 1.000000
0.060404 -0.211030 -0.530528 0.000000 0.000000 -1.000000 255 255 255 1.000000
-0.621116 -0.284098 0.159706 1.000000 0.000000 0.000000 255 255 255 1.000000
0.542586 -0.314024 0.606533 -0.000000 0.000000 -1.000000 245 190 121 1.000000
-0.557417 -0.090664 -0.152481 -1.000000 0.000000 0.000000 255 255 255 1.000000
0.441186 -0.214813 -0.505048 0.000000 0.000000 -1.000000 255 255 255 1.000000
-0.174236 0.280396 -0.111741 0.000000 -1.000000 -0.000000 255 255 255 1.000000
0.538214 -0.189947 0.199338 -1.000000 0.000000 0.000000 255 255 255 1.000000
0.569743 -0.586519 0.454804 0.000000 1.000000 0.000000 255 255 255 1.000000
0.383940 -0.238682 0.568313 0.000000 -0.000000 1.000000 248 195 126 1.000000
-0.362344 0.080186 0.606533 -0.000000 0.000000 -1.000000 247 192 123 1.000000
0.601913 0.528572 0.147025 -1.000000 0.000000 0.000000 255 255 255 1.000000
-0.258494 -0.586519 0.423055 0.000000 -1.000000 -0.000000 255 255 255 1.000000
0.460513 0.304936 -0.505048 0.000000 -0.000000 1.000000 255 255 255 1.000000
0.126373 0.267656 0.388215 0.000000 1.000000 0.000000 255 255 255 1.000000
0.475741 -0.301129 0.568313 -0.000000 0.000000 -1.000000 255 255 255 1.000000
0.563694 -0.518382 0.248281 1.000000 0.000000 0.000000 255 255 255 1.000000
-0.446344 0.280396 0.078823 0.000000 -1.000000 -0.000000 255 255 255 1.000000
-0.100780 0.153001 0.568313 -0.000000 0.000000 -1.000000 255 255 255 1.000000
-0.415773 0.569100 0.514076 0.000000 -1.000000 -0.000000 255 255 255 1.000000
0.512734 -0.162745 0.406718 -1.000000 0.000000 0.000000 255 255 255 1.000000
0.512734 -0.351929 0.246614 -1.000000 0.000000 0.000000 255 255 255 1.000000
-0.499515 -0.028688 0.539623 0.000000 -0.000000 1.000000 255 255 255 1.000000
0.039890 -0.078235 0.565103 0.000000 0.000000 -1.000000 255 255 255 1.000000
-0.166257 0.267656 0.220382 0.000000 -1.000000 -0.000000 255 255 255 1.000000
0.276115 0.569100 -0.340488 0.000000 -1.000000 -0.000000 255 255 255 1.000000
0.434775 0.267656 0.008161 0.000000 1.000000 0.000000 255 255 255 1.000000
0.050574 -0.502757 0.253321 0.000000 -1.000000 -0.000000 255 255 255 1.000000
-0.115056 -0.535559 -0.141560 0.000000 1.000000 0.000000 255 255 255 1.000000
0.172739 0.439439 0.606533 0.000000 -0.000000 1.000000 254 201 131 1.000000
-0.057527 0.330240 -0.530528 0.000000 0.000000 -1.000000 255 255 255 1.000000
0.512734 0.411453 -0.322432 -1.000000 0.000000 0.000000 255 255 255 1.000000
0.286283 0.280396 -0.271120 0.000000 -1.000000 -0.000000 255 255 255 1.000000
0.304094 0.329683 -0.505048 0.000000 0.000000 -1.000000 255 255 255 1.000000
0.538214 0.373051 -0.399072 -1.000000 0.000000 0.000000 255 255 255 1.000000
0.521196 0.254916 -0.101562 0.000000 -1.000000 -0.000000 255 255 255 1.000000
-0.059788 0.458465 0.568313 -0.000000 0.000000 -1.000000 255 255 255 1.000000
0.324515 -0.586519 0.552195 0.000000 -1.000000 -0.000000 255 255 255 1.000000
-0.557417 -0.135554 0.066231 1.000000 0.000000 0.000000 255 255 255 1.000000
0.601913 -0.580599 -0.566333 1.000000 0.000000 0.000000 249 194 125 1.000000
0.459309 0.280396 -0.373104 0.000000 1.000000 0.000000 255 255 255 1.000000
0.563694 -0.442316 0.223241 1.000000 0.000000 0.000000 255 255 255 1.000000
-0.582897 -0.466071 -0.573141 -1.000000 0.000000 0.000000 255 255 255 1.000000
0.480686 0.267656 0.215568 0.000000 1.000000 0.000000 255 255 255 1.000000
-0.090224 -0.440821 0.539623 0.000000 0.000000 -1.000000 255 255 255 1.000000
-0.072495 0.569100 0.474996 0.000000 -1.000000 -0.000000 255 255 255 1.000000
-0.265770 -0.432821 0.539623 0.000000 0.000000 -1.000000 255 255 255 1.000000
-0.500203 -0.502757 0.128890 0.000000 1.000000 0.000000 255 255 255 1.000000
-0.582897 0.235577 -0.562791 1.000000 0.000000 0.000000 255 255 255 1.000000
0.523191 0.509714 0.362810 0.000000 1.000000 0.000000 255 255 255 1.000000
0.462842 -0.586519 0.302736 0.000000 1.000000 0.000000 255 255 255 1.000000
-0.582897 0.228916 0.443964 1.000000 0.000000 0.000000 255 255 255 1.000000
-0.037798 -0.586519 -0.437443 0.000000 1.000000 0.000000 255 255 255 1.000000
0.538214 -0.111142 -0.357320 1.000000 0.000000 0.000000 255 255 255 1.000000
0.429465 -0.163566 -0.555983 0.000000 0.000000 -1.000000 255 255 255 1.000000
0.593457 0.169641 0.606533 -0.000000 0.000000 -1.000000 249 197 127 1.000000
-0.531937 -0.455566 0.118237 1.000000 0.000000 0.000000 255 255 255 1.000000
0.563694 0.241191 -0.452601 -1.000000 0.000000 0.000000 255 255 255 1.000000
0.357451 0.265604 0.539623 0.000000 -0.000000 1.000000 255 255 255 1.000000
-0.231393 -0.490017 -0.042520 0.000000 1.000000 0.000000 255 255 255 1.000000
-0.096417 0.479702 0.664712 0.000000 -0.974199 0.225691 198 198 198 1.000000
-0.582897 -0.376625 -0.236565 1.000000 0.000000 0.000000 255 255 255 1.000000
0.071895 -0.586519 -0.446063 0.000000 -1.000000 -0.000000 255 255 255 1.000000
-0.418703 0.267656 0.008441 0.000000 1.000000 0.000000 255 255 255 1.000000
-0.025743 -0.084040 -0.505048 0.000000 0.000000 -1.000000 255 255 255 1.000000
-0.035760 0.267656 -0.299868 0.000000 -1.000000 -0.000000 255 255 255 1.000000
0.512734 0.285628 0.319057 -1.000000 0.000000 0.000000 255 255 255 1.000000
0.184723 -0.299863 0.568313 0.000000 -0.000000 1.000000 246 193 125 1.000000
0.114023 0.210920 0.606533 0.000000 -0.000000 1.000000 250 191 120 1.000000
-0.169001 -0.507748 -0.530528 0.000000 -0.000000 1.000000 255 255 255 1.000000
0.176690 0.297475 -0.606942 0.000000 -0.000000 1.000000 255 255 255 1.000000
-0.582897 -0.518282 0.357853 1.000000 0.000000 0.000000 255 255 255 1.000000
-0.621116 0.056335 -0.307300 1.000000 0.000000 0.000000 255 255 255 1.000000
-0.456103 0.322486 -0.505048 0.000000 0.000000 -1.000000 255 255 255 1.000000
0.601913 0.435927 -0.007766 -1.000000 0.000000 0.000000 255 255 255 1.000000
0.358118 0.267656 -0.064248 0.000000 1.000000 0.000000 255 255 255 1.000000
-0.585075 -0.352706 0.568313 0.000000 -0.000000 1.000000 246 198 128 1.000000
0.179519 0.569100 -0.339867 0.000000 1.000000 0.000000 255 255 255 1.000000
0.040497 0.308087 0.606533 -0.000000 0.000000 -1.000000 252 197 128 1.000000
0.020568 0.569100 -0.227795 0.000000 -1.000000 -0.000000 255 255 255 1.000000
0.601913 -0.154076 -0.329296 -1.000000 0.000000 0.000000 255 255 255 1.000000
0.533989 0.569100 -0.345539 0.000000 -1.000000 -0.000000 255 255 255 1.000000
0.062473 0.360173 -0.606942 0.000000 -0.000000 1.000000 255 255 255 1.000000
-0.531937 0.478103 -0.030752 1.000000 0.000000 0.000000 255 255 255 1.000000
0.339322 -0.488381 0.568313 -0.000000 0.000000 -1.000000 255 255 255 1.000000
-0.281277 0.376658 0.565103 0.000000 0.000000 -1.000000 255 255 255 1.000000
-0.563024 -0.391998 -0.568722 0.000000 -0.000000 1.000000 255 255 255 1.000000
0.085243 -0.066423 0.539623 0.000000 -0.000000 1.000000 255 255 255 1.000000
-0.434672 0.518140 0.377550 0.000000 -1.000000 -0.000000 255 255 255 1.000000
0.563694 -0.136702 0.516454 -1.000000 0.000000 0.000000 255 255 255 1.000000
-0.384660 -0.459297 -0.568722 0.000000 -0.000000 1.000000 255 255 255 1.000000
0.162733 -0.405881 0.565103 0.000000 0.000000 -1.000000 255 255 255 1.000000
0.406964 -0.490017 -0.450206 0.000000 1.000000 0.000000 255 255 255 1.000000
-0.151814 0.280557 -0.606942 0.000000 0.000000 -1.000000 255 255 255 1.000000
0.495387 0.389412 0.539623 0.000000 0.000000 -1.000000 255 255 255 1.000000
0.601913 -0.207261 -0.281951 1.000000 0.000000 0.000000 246 194 124 1.000000
0.342609 -0.346980 -0.505048 0.000000 -0.000000 1.000000 255 255 255 1.000000
-0.531937 -0.209023 0.003344 1.000000 0.000000 0.000000 255 255 255 1.000000
0.214865 -0.046787 0.568313 -0.000000 0.000000 -1.000000 255 255 255 1.000000
0.563694 -0.209680 -0.572932 1.000000 0.000000 0.000000 255 255 255 1.000000
0.280331 -0.498738 -0.568722 0.000000 -0.000000 1.000000 255 255 255 1.000000
0.538214 -0.131409 -0.116897 -1.000000 0.000000 0.000000 255 255 255 1.000000
0.563694 -0.467408 -0.508854 -1.000000 0.000000 0.000000 255 255 255 1.000000
0.538214 -0.301105 -0.450430 1.000000 0.000000 0.000000 255 255 255 1.000000
0.000096 0.344358 -0.530528 0.000000 -0.000000 1.000000 255 255 255 1.000000
-0.621116 0.214789 0.123118 -1.000000 0.000000 0.000000 252 193 123 1.000000
-0.349788 0.569100 -0.235322 0.000000 1.000000 0.000000 255 255 255 1.000000
0.512734 -0.061943 0.475310 -1.000000 0.000000 0.000000 255 255 255 1.000000
-0.353930 0.569100 0.290483 0.000000 -1.000000 -0.000000 255 255 255 1.000000
-0.470073 -0.586519 0.105017 0.000000 -1.000000 -0.000000 255 255 255 1.000000
-0.457770 0.331845 0.568313 -0.000000 0.000000 -1.000000 255 255 255 1.000000
-0.582897 0.198962 0.247138 1.000000 0.000000 0.000000 255 255 255 1.000000
-0.621116 0.404611 -0.354210 -1.000000 0.000000 0.000000 249 188 117 1.000000
-0.565019 -0.586519 0.490563 0.000000 1.000000 0.000000 255 255 255 1.000000
0.133259 0.530155 0.606533 0.000000 -0.000000 1.000000 248 193 123 1.000000
-0.084459 0.569100 -0.083064 0.000000 -1.000000 -0.000000 255 255 255 1.000000
-0.120396 -0.062383 0.568313 -0.000000 0.000000 -1.000000 255 255 255 1.000000
0.601913 -0.173218 0.517542 -1.000000 0.000000 0.000000 255 255 255 1.000000
-0.070197 -0.586519 -0.506474 0.000000 1.000000 0.000000 255 255 255 1.000000
0.601913 0.032597 -0.508674 -1.000000 0.000000 0.000000 255 255 255 1.000000
0.563694 -0.054302 0.449656 -1.000000 0.000000 0.000000 255 255 255 1.000000
-0.531937 -0.041969 -0.161975 1.000000 0.000000 0.000000 255 255 255 1.000000
-0.430199 -0.535559 -0.079913 0.000000 -1.000000 -0.000000 255 255 255 1.000000
0.563694 0.167067 -0.155635 1.000000 0.000000 0.000000 255 255 255 1.000000
0.230969 -0.261482 -0.530528 0.000000 0.000000 -1.000000 255 255 255 1.000000
-0.140762 -0.586519 -0.203996 0.000000 1.000000 0.000000 255 255 255 1.000000
-0.621116 -0.066864 -0.311038 1.000000 0.000000 0.000000 255 255 255 1.000000
0.601913 0.010697 0.551933 -1.000000 0.000000 0.000000 255 255 255 1.000000
0.450907 -0.178792 -0.530528 0.000000 0.000000 -1.000000 255 255 255 1.000000
0.352998 0.427750 -0.505048 0.000000 0.000000 -1.000000 255 255 255 1.000000
-0.340404 -0.333335 -0.555983 0.000000 0.000000 -1.000000 255 255 255 1.000000
-0.487081 0.562686 0.606533 -0.000000 0.000000 -1.000000 248 193 124 1.000000
-0.335801 0.186547 -0.568722 0.000000 -0.000000 1.000000 255 255 255 1.000000
-0.114381 0.518140 -0.182809 0.000000 -1.000000 -0.000000 255 255 255 1.000000
0.441924 0.278009 -0.568722 0.000000 0.000000 -1.000000 255 255 255 1.000000
-0.537842 -0.586519 -0.209360 0.000000 1.000000 0.000000 255 255 255 1.000000
-0.033153 -0.535559 0.130418 0.000000 -1.000000 -0.000000 255 255 255 1.000000
0.538406 -0.488724 0.143051 0.000000 -1.000000 -0.000000 198 198 198 1.000000
0.227520 -0.354092 -0.568722 0.000000 0.000000 -1.000000 255 255 255 1.000000
-0.621116 -0.061615 -0.051470 1.000000 0.000000 0.000000 255 255 255 1.000000
-0.621116 0.101492 0.311149 1.000000 0.000000 0.000000 255 255 255 1.000000
0.601913 0.227119 -0.488491 -1.000000 0.000000 0.000000 255 255 255 1.000000
0.512734 -0.374681 -0.061915 -1.000000 0.000000 0.000000 255 255 255 1.000000
-0.621116 -0.489642 0.547170 1.000000 0.000000 0.000000 255 255 255 1.000000
-0.057225 -0.535559 0.389255 0.000000 1.000000 0.000000 255 255 255 1.000000
0.297537 -0.474868 0.568313 -0.000000 0.000000 -1.000000 255 255 255 1.000000
0.372259 0.569100 -0.560171 0.000000 1.000000 0.000000 255 255 255 1.000000
0.317712 -0.402929 -0.568722 0.000000 0.000000 -1.000000 255 255 255 1.000000
-0.515875 -0.371543 -0.505048 0.000000 0.000000 -1.000000 255 255 255 1.000000
-0.582897 -0.191744 -0.178000 1.000000 0.000000 0.000000 255 255 255 1.000000
-0.107852 -0.303383 0.568313 0.000000 -0.000000 1.000000 250 198 128 1.000000
-0.531937 -0.097192 -0.497887 1.000000 0.000000 0.000000 255 255 255 1.000000
0.538214 -0.254204 0.038409 -1.000000 0.000000 0.000000 255 255 255 1.000000
0.563694 0.448686 0.545398 -1.000000 0.000000 0.000000 255 255 255 1.000000
0.563693 0.539093 0.109331 -1.000000 0.000000 0.000000 255 255 255 1.000000
0.132970 -0.317832 0.606533 -0.000000 0.000000 -1.000000 249 192 123 1.000000
0.246939 -0.586519 -0.089395 0.000000 -1.000000 -0.000000 255 255 255 1.000000
-0.557417 0.003400 -0.262770 1.000000 0.000000 0.000000 255 255 255 1.000000
0.091383 -0.535559 0.146951 0.000000 -1.000000 -0.000000 255 255 255 1.000000
-0.567199 0.518140 0.236244 0.000000 1.000000 0.000000 255 255 255 1.000000
0.135556 0.432616 -0.530528 0.000000 -0.000000 1.000000 255 255 255 1.000000
0.340415 0.385240 0.606533 0.000000 -0.000000 1.000000 247 193 124 1.000000
-0.440830 0.569100 -0.207386 0.000000 -1.000000 -0.000000 255 255 255 1.000000
-0.476645 -0.457913 -0.505048 0.000000 0.000000 -1.000000 255 255 255 1.000000
0.150235 -0.502757 -0.018602 0.000000 -1.000000 -0.000000 255 255 255 1.000000
0.225039 -0.586519 0.091781 0.000000 1.000000 0.000000 255 255 255 1.000000
-0.395566 0.280396 -0.421370 0.000000 -1.000000 -0.000000 255 255 255 1.000000
-0.120039 -0.535559 0.433586 0.000000 -1.000000 -0.000000 255 255 255 1.000000
-0.582897 0.278294 0.067844 1.000000 0.000000 0.000000 255 255 255 1.000000
0.014985 -0.256967 -0.530528 0.000000 -0.000000 1.000000 255 255 255 1.000000
-0.582897 0.357276 -0.131608 -1.000000 0.000000 0.000000 255 255 255 1.000000
0.525852 -0.086901 0.568313 0.000000 -0.000000 1.000000 252 197 128 1.000000
-0.222954 -0.063563 -0.505048 0.000000 0.000000 -1.000000 255 255 255 1.000000
-0.573342 -0.453610 -0.489862 -1.000000 0.000000 0.000000 198 198 198 1.000000
0.420064 -0.295329 -0.505048 0.000000 -0.000000 1.000000 255 255 255 1.000000
0.538214 0.369454 0.391079 1.000000 0.000000 0.000000 255 255 255 1.000000
0.378282 -0.066563 -0.568722 0.000000 0.000000 -1.000000 255 255 255 1.000000
-0.038352 -0.265888 -0.555983 0.000000 -0.000000 1.000000 255 255 255 1.000000
-0.096032 -0.561198 0.568313 0.000000 -0.000000 1.000000 246 190 120 1.000000
-0.582897 -0.047384 0.163277 1.000000 0.000000 0.000000 255 255 255 1.000000
-0.530056 0.403248 0.568313 -0.000000 0.000000 -1.000000 255 255 255 1.000000
-0.621116 0.298354 -0.571289 1.000000 0.000000 0.000000 255 255 255 1.000000
-0.365073 0.261919 0.565103 0.000000 -0.000000 1.000000 255 255 255 1.000000
-0.023754 -0.490017 -0.083514 0.000000 1.000000 0.000000 255 255 255 1.000000
0.563694 0.188160 -0.283127 1.000000 0.000000 0.000000 255 255 255 1.000000
0.563694 0.443806 -0.402428 -1.000000 0.000000 0.000000 255 255 255 1.000000
-0.531937 0.497357 -0.360310 1.000000 0.000000 0.000000 255 255 255 1.000000
-0.557417 -0.302237 0.267087 1.000000 0.000000 0.000000 255 255 255 1.000000
0.512734 0.384521 0.086931 -1.000000 0.000000 0.000000 255 255 255 1.000000
0.269073 -0.586519 0.329874 0.000000 -1.000000 -0.000000 255 255 255 1.000000
-0.531937 -0.372917 -0.014368 1.000000 0.000000 0.000000 255 255 255 1.000000
0.512734 0.412999 0.039464 1.000000 0.000000 0.000000 255 255 255 1.000000
0.179940 -0.502757 -0.159753 0.000000 1.000000 0.000000 255 255 255 1.000000
0.512734 -0.160001 0.152545 1.000000 0.000000 0.000000 255 255 255 1.000000
-0.316998 -0.502757 -0.081879 0.000000 -1.000000 -0.000000 255 255 255 1.000000
-0.223327 -0.535559 0.248208 0.000000 1.000000 0.000000 255 255 255 1.000000
-0.432587 0.518140 0.068624 0.000000 1.000000 0.000000 255 255 255 1.000000
0.286940 0.310244 -0.606942 0.000000 -0.000000 1.000000 255 255 255 1.000000
0.015168 -0.535559 -0.525772 0.000000 1.000000 0.000000 255 255 255 1.000000
0.538214 -0.377312 -0.358536 -1.000000 0.000000 0.000000 255 255 255 1.000000
-0.538466 0.466410 0.606533 0.000000 -0.000000 1.000000 244 180 113 1.000000
0.590524 0.260421 0.568313 0.000000 -0.000000 1.000000 248 194 123 1.000000
-0.531937 -0.110013 0.113940 -1.000000 0.000000 0.000000 255 255 255 1.000000
0.362032 0.569100 0.161340 0.000000 1.000000 0.000000 255 255 255 1.000000
-0.310327 0.518140 0.370004 0.000000 1.000000 0.000000 255 255 255 1.000000
0.327490 -0.586519 -0.015088 0.000000 -1.000000 -0.000000 255 255 255 1.000000
-0.557417 -0.292314 0.379307 1.000000 0.000000 0.000000 255 255 255 1.000000
0.092514 -0.502757 0.394279 0.000000 1.000000 0.000000 255 255 255 1.000000
0.601913 0.549439 0.513562 1.000000 0.000000 0.000000 242 181 114 1.000000
-0.219073 -0.535559 -0.206600 0.000000 -1.000000 -0.000000 255 255 255 1.000000
-0.496976 0.518140 0.294476 0.000000 1.000000 0.000000 255 255 255 1.000000
0.131469 0.267656 0.230717 0.000000 1.000000 0.000000 255 255 255 1.000000
-0.586735 0.467968 0.565128 0.000000 -0.000000 1.000000 252 197 123 1.000000
0.563694 -0.001118 -0.534501 -1.000000 0.000000 0.000000 255 255 255 1.000000
-0.531937 0.041466 -0.188819 1.000000 0.000000 0.000000 255 255 255 1.000000
-0.536212 -0.013383 0.606533 0.000000 -0.000000 1.000000 245 186 117 1.000000
-0.156939 -0.476082 0.539623 0.000000 -0.000000 1.000000 255 255 255 1.000000
-0.159057 -0.332603 0.568313 -0.000000 0.000000 -1.000000 255 255 255 1.000000
0.601913 0.458506 0.175845 -1.000000 0.000000 0.000000 255 255 255 1.000000
0.563693 -0.315936 -0.569205 1.000000 0.000000 0.000000 255 255 255 1.000000
0.538214 -0.072375 0.502639 1.000000 0.000000 0.000000 255 255 255 1.000000
0.563693 0.550097 -0.208610 -1.000000 0.000000 0.000000 255 255 255 1.000000
0.147062 0.398307 0.568313 0.000000 -0.000000 1.000000 247 195 126 1.000000
-0.548941 -0.515497 0.234174 0.000000 -1.000000 -0.000000 255 255 255 1.000000
-0.557417 -0.047654 0.228757 1.000000 0.000000 0.000000 255 255 255 1.000000
-0.365421 0.569100 -0.096063 0.000000 -1.000000 -0.000000 255 255 255 1.000000
0.512734 0.482905 -0.465631 1.000000 0.000000 0.000000 255 255 255 1.000000
