0.063435 0.774848 0.002938 0.600000 0.000000 0.300000
0.051437 -0.684641 -0.054620 0.300000 0.600000 0.000000
-0.123474 -0.150342 0.165670 0.300000 0.600000 0.000000
-0.165811 -0.393745 -0.125216 0.300000 0.600000 0.000000
0.191793 -0.669407 0.011683 0.300000 0.600000 0.000000
0.004918 -0.047193 -0.207403 0.300000 0.600000 0.000000
-0.083178 0.226975 0.188925 0.300000 0.600000 0.000000
0.097042 -0.339077 -0.183239 0.300000 0.600000 0.000000
0.172431 -0.261990 0.113640 0.300000 0.600000 0.000000
0.000579 0.822121 -0.068408 0.300000 0.000000 0.600000
-0.055732 0.941764 0.038033 0.300000 0.000000 0.600000
0.207574 -0.604409 0.007952 0.300000 0.600000 0.000000
0.073973 0.740647 -0.011011 0.600000 0.000000 0.300000
-0.063078 -0.144791 0.197531 0.300000 0.600000 0.000000
0.002271 0.674642 -0.092093 0.600000 0.000000 0.300000
0.016024 0.060101 0.206264 0.300000 0.600000 0.000000
-0.077162 -0.358516 -0.192603 0.300000 0.600000 0.000000
-0.025380 0.441872 -0.119509 0.600000 0.000000 0.300000
0.114777 -0.093196 0.171796 0.300000 0.600000 0.000000
-0.047940 0.044124 0.201738 0.300000 0.600000 0.000000
-0.058881 -0.456137 -0.199659 0.300000 0.600000 0.000000
0.084259 -0.104881 0.188636 0.300000 0.600000 0.000000
-0.198624 0.307530 0.060200 0.300000 0.600000 0.000000
0.174707 -0.399464 0.110441 0.300000 0.600000 0.000000
0.121074 -0.606396 0.168593 0.300000 0.600000 0.000000
0.190104 -0.040818 -0.079276 0.300000 0.600000 0.000000
-0.090576 0.682248 -0.015179 0.600000 0.000000 0.300000
0.097542 -0.416410 0.182360 0.300000 0.600000 0.000000
0.130527 0.427857 0.009305 0.600000 0.000000 0.300000
-0.032756 0.515463 0.087970 0.600000 0.000000 0.300000
-0.207776 -0.271515 -0.011041 0.300000 0.600000 0.000000
-0.173070 0.381736 -0.035003 0.600000 0.000000 0.300000
-0.172610 -0.479462 -0.116005 0.300000 0.600000 0.000000
-0.106925 -0.299654 -0.178534 0.300000 0.600000 0.000000
0.085157 0.705427 0.002848 0.600000 0.000000 0.300000
0.006564 0.559973 -0.093153 0.600000 0.000000 0.300000
-0.040373 0.495804 0.088992 0.600000 0.000000 0.300000
0.158714 0.198279 0.131924 0.300000 0.600000 0.000000
0.121793 0.325494 0.163125 0.300000 0.600000 0.000000
-0.199592 0.045102 -0.060104 0.300000 0.600000 0.000000
0.151876 -0.543756 0.141971 0.300000 0.600000 0.000000
-0.181639 -0.434149 0.101979 0.300000 0.600000 0.000000
0.114536 -0.002767 -0.172346 0.300000 0.600000 0.000000
0.084425 0.214782 -0.188945 0.300000 0.600000 0.000000
-0.022891 0.454810 -0.112421 0.600000 0.000000 0.300000
0.147558 -0.508722 0.145196 0.300000 0.600000 0.000000
0.106574 -0.684641 -0.090643 0.300000 0.600000 0.000000
0.067398 -0.086144 -0.195992 0.300000 0.600000 0.000000
0.205537 -0.368189 -0.016774 0.300000 0.600000 0.000000
0.043759 0.437200 0.116707 0.600000 0.000000 0.300000
0.172999 -0.461563 0.112844 0.300000 0.600000 0.000000
0.056181 -0.490448 0.198992 0.300000 0.600000 0.000000
0.114132 -0.208827 -0.172633 0.300000 0.600000 0.000000
-0.152527 -0.622749 -0.141320 0.300000 0.600000 0.000000
0.027088 0.822062 -0.062868 0.300000 0.000000 0.600000
0.138578 -0.132605 0.153345 0.300000 0.600000 0.000000
0.102393 -0.680230 -0.153180 0.300000 0.600000 0.000000
0.205963 -0.299237 -0.008739 0.300000 0.600000 0.000000
-0.051531 -0.655423 -0.193589 0.300000 0.600000 0.000000
0.016042 0.286756 0.206180 0.300000 0.600000 0.000000
-0.197890 0.322133 0.058041 0.300000 0.600000 0.000000
-0.189751 -0.275710 -0.084927 0.300000 0.600000 0.000000
-0.026941 -0.684039 0.170332 0.300000 0.600000 0.000000
-0.115861 0.404119 -0.101295 0.600000 0.000000 0.300000
-0.008100 0.387444 -0.170400 0.600000 0.000000 0.300000
-0.119624 -0.533320 -0.170408 0.300000 0.600000 0.000000
-0.207427 -0.177634 -0.016899 0.300000 0.600000 0.000000
-0.015583 0.392178 -0.165021 0.600000 0.000000 0.300000
0.045924 -0.315363 0.201771 0.300000 0.600000 0.000000
-0.010784 -0.055059 0.206831 0.300000 0.600000 0.000000
-0.127027 -0.334002 0.162799 0.300000 0.600000 0.000000
-0.047357 0.627863 -0.085253 0.600000 0.000000 0.300000
-0.029447 0.953435 -0.064945 0.300000 0.000000 0.600000
0.028163 0.981048 -0.060555 0.300000 0.000000 0.600000
0.205337 0.256994 0.018178 0.300000 0.600000 0.000000
-0.204618 -0.225610 0.036507 0.300000 0.600000 0.000000
-0.206991 -0.132562 -0.020212 0.300000 0.600000 0.000000
0.206290 -0.143566 0.001181 0.300000 0.600000 0.000000
-0.126980 -0.104749 0.162906 0.300000 0.600000 0.000000
-0.045012 0.493641 -0.088811 0.600000 0.000000 0.300000
0.181552 0.028626 -0.098895 0.300000 0.600000 0.000000
0.019053 0.317506 -0.204560 0.300000 0.600000 0.000000
0.056440 0.578604 -0.076895 0.600000 0.000000 0.300000
-0.016920 -0.483405 0.206347 0.300000 0.600000 0.000000
-0.030108 0.894576 0.060031 0.300000 0.000000 0.600000
0.204509 -0.041942 0.022792 0.300000 0.600000 0.000000
-0.026594 -0.684641 0.006587 0.300000 0.600000 0.000000
0.042751 -0.353820 0.202242 0.300000 0.600000 0.000000
-0.126518 0.358935 -0.145361 0.300000 0.600000 0.000000
-0.080902 0.722399 0.015031 0.600000 0.000000 0.300000
-0.040945 -0.684606 0.158528 0.300000 0.600000 0.000000
0.070673 0.060189 0.194262 0.300000 0.600000 0.000000
0.142471 0.036689 -0.150667 0.300000 0.600000 0.000000
0.005279 -0.092386 -0.207387 0.300000 0.600000 0.000000
-0.062800 0.864728 0.035104 0.300000 0.000000 0.600000
-0.153107 -0.519505 -0.141550 0.300000 0.600000 0.000000
-0.201009 -0.055321 0.054755 0.300000 0.600000 0.000000
-0.171170 0.143023 0.117643 0.300000 0.600000 0.000000
0.094514 -0.152197 -0.184467 0.300000 0.600000 0.000000
0.202493 -0.499076 -0.040133 0.300000 0.600000 0.000000
-0.027329 0.123303 0.205150 0.300000 0.600000 0.000000
0.091061 0.665247 -0.017151 0.600000 0.000000 0.300000
0.043292 0.755125 -0.055416 0.600000 0.000000 0.300000
0.102124 0.242981 0.179856 0.300000 0.600000 0.000000
0.065851 -0.579674 -0.198927 0.300000 0.600000 0.000000
0.195528 -0.110427 0.066459 0.300000 0.600000 0.000000
0.163650 0.125681 -0.125696 0.300000 0.600000 0.000000
-0.081751 -0.050148 0.189921 0.300000 0.600000 0.000000
-0.128611 0.086385 0.161946 0.300000 0.600000 0.000000
-0.166779 0.056802 -0.123950 0.300000 0.600000 0.000000
-0.109139 0.033710 0.175974 0.300000 0.600000 0.000000
-0.142625 0.293544 0.151383 0.300000 0.600000 0.000000
-0.196693 -0.358733 -0.068132 0.300000 0.600000 0.000000
-0.126331 0.152727 -0.164816 0.300000 0.600000 0.000000
0.073409 -0.141761 0.193129 0.300000 0.600000 0.000000
0.027348 -0.612010 0.205600 0.300000 0.600000 0.000000
0.052474 0.716001 0.064559 0.600000 0.000000 0.300000
0.009877 -0.684641 -0.012477 0.300000 0.600000 0.000000
-0.004511 -0.151404 0.207103 0.300000 0.600000 0.000000
0.014200 -0.684641 0.013968 0.300000 0.600000 0.000000
0.037137 0.223597 0.203332 0.300000 0.600000 0.000000
-0.034839 -0.453471 0.203896 0.300000 0.600000 0.000000
-0.193362 0.312765 0.072691 0.300000 0.600000 0.000000
-0.062815 -0.491105 -0.198250 0.300000 0.600000 0.000000
-0.065483 0.000515 -0.197246 0.300000 0.600000 0.000000
0.038251 -0.663660 0.191718 0.300000 0.600000 0.000000
0.000441 0.433045 -0.127850 0.600000 0.000000 0.300000
-0.140117 0.237041 -0.154208 0.300000 0.600000 0.000000
-0.092803 -0.138791 -0.186065 0.300000 0.600000 0.000000
-0.036415 0.715050 -0.075539 0.600000 0.000000 0.300000
-0.206475 0.191522 0.023680 0.300000 0.600000 0.000000
-0.069221 0.610564 0.068809 0.600000 0.000000 0.300000
0.076053 -0.684621 -0.142526 0.300000 0.600000 0.000000
0.078464 -0.684641 -0.036332 0.300000 0.600000 0.000000
0.109420 0.383084 -0.134890 0.600000 0.000000 0.300000
-0.170756 -0.191804 0.118224 0.300000 0.600000 0.000000
-0.163416 -0.635895 0.123866 0.300000 0.600000 0.000000
-0.060687 0.125398 0.198562 0.300000 0.600000 0.000000
-0.044351 -0.083939 -0.202876 0.300000 0.600000 0.000000
0.200972 -0.173130 0.048077 0.300000 0.600000 0.000000
-0.044649 -0.567112 0.204494 0.300000 0.600000 0.000000
-0.030391 -0.026688 -0.205125 0.300000 0.600000 0.000000
0.016790 -0.609131 0.207179 0.300000 0.600000 0.000000
0.048722 0.903918 -0.051424 0.300000 0.000000 0.600000
-0.013733 0.529979 0.091257 0.600000 0.000000 0.300000
-0.017074 0.138403 -0.206873 0.300000 0.600000 0.000000
-0.186737 -0.030183 0.091696 0.300000 0.600000 0.000000
0.118134 0.429088 0.054658 0.600000 0.000000 0.300000
0.004292 0.997990 0.013933 0.300000 0.000000 0.600000
-0.190787 -0.065210 -0.082432 0.300000 0.600000 0.000000
-0.012807 0.426221 0.132322 0.600000 0.000000 0.300000
0.078967 0.307103 0.189733 0.300000 0.600000 0.000000
-0.048195 0.111722 -0.202169 0.300000 0.600000 0.000000
-0.165703 -0.626029 -0.123819 0.300000 0.600000 0.000000
0.006771 0.113843 0.206941 0.300000 0.600000 0.000000
-0.100984 0.455948 0.053741 0.600000 0.000000 0.300000
0.198512 -0.597728 0.063491 0.300000 0.600000 0.000000
0.126034 -0.684577 -0.116122 0.300000 0.600000 0.000000
-0.019797 0.101159 0.206104 0.300000 0.600000 0.000000
-0.194761 -0.286815 0.072456 0.300000 0.600000 0.000000
0.048595 -0.443765 -0.201697 0.300000 0.600000 0.000000
-0.194091 0.285391 -0.074350 0.300000 0.600000 0.000000
-0.054352 0.031710 0.200340 0.300000 0.600000 0.000000
-0.104291 -0.431196 0.179292 0.300000 0.600000 0.000000
-0.189738 0.061806 -0.084957 0.300000 0.600000 0.000000
-0.123514 0.041537 -0.166969 0.300000 0.600000 0.000000
0.180756 -0.613942 0.101828 0.300000 0.600000 0.000000
0.081560 -0.684628 0.129530 0.300000 0.600000 0.000000
-0.155433 0.226479 0.138381 0.300000 0.600000 0.000000
0.182461 -0.657547 0.077151 0.300000 0.600000 0.000000
0.048539 0.557438 0.079530 0.600000 0.000000 0.300000
-0.092578 0.650540 -0.024508 0.600000 0.000000 0.300000
-0.188259 -0.295379 0.088159 0.300000 0.600000 0.000000
-0.189129 -0.543944 -0.088749 0.300000 0.600000 0.000000
0.192118 0.020568 -0.074017 0.300000 0.600000 0.000000
0.156595 -0.210383 -0.134618 0.300000 0.600000 0.000000
-0.206858 -0.036803 0.020756 0.300000 0.600000 0.000000
0.203488 0.106972 0.031705 0.300000 0.600000 0.000000
0.040654 0.898955 0.052273 0.300000 0.000000 0.600000
0.062681 0.216350 0.197120 0.300000 0.600000 0.000000
0.010479 0.162085 -0.207150 0.300000 0.600000 0.000000
0.076123 0.640481 0.057569 0.600000 0.000000 0.300000
0.133629 -0.673484 -0.134669 0.300000 0.600000 0.000000
-0.105358 -0.564681 -0.182205 0.300000 0.600000 0.000000
-0.141452 -0.676074 0.124715 0.300000 0.600000 0.000000
-0.037217 -0.056629 0.203687 0.300000 0.600000 0.000000
-0.200884 0.102616 0.055292 0.300000 0.600000 0.000000
0.188783 -0.647050 0.069848 0.300000 0.600000 0.000000
0.099574 -0.497027 -0.182009 0.300000 0.600000 0.000000
0.152633 -0.442141 -0.139863 0.300000 0.600000 0.000000
0.076562 -0.623954 -0.191313 0.300000 0.600000 0.000000
0.084194 0.155756 0.188304 0.300000 0.600000 0.000000
-0.034272 -0.083335 -0.204554 0.300000 0.600000 0.000000
0.174480 0.346031 0.093285 0.300000 0.600000 0.000000
0.064577 -0.684641 -0.078317 0.300000 0.600000 0.000000
-0.044668 -0.222536 0.202107 0.300000 0.600000 0.000000
-0.035062 0.520351 -0.086850 0.600000 0.000000 0.300000
0.118426 -0.684641 -0.003260 0.300000 0.600000 0.000000
-0.104978 0.124128 -0.179763 0.300000 0.600000 0.000000
0.111368 -0.684641 -0.074789 0.300000 0.600000 0.000000
-0.054668 0.956221 0.039420 0.300000 0.000000 0.600000
-0.202907 -0.108710 -0.047032 0.300000 0.600000 0.000000
-0.037077 0.820322 -0.049129 0.600000 0.000000 0.300000
0.042132 -0.125478 0.202482 0.300000 0.600000 0.000000
-0.196867 -0.446668 -0.067689 0.300000 0.600000 0.000000
-0.109189 0.397764 -0.117440 0.600000 0.000000 0.300000
0.048409 -0.094277 -0.201740 0.300000 0.600000 0.000000
0.053882 -0.574188 -0.202657 0.300000 0.600000 0.000000
-0.136488 -0.347146 0.155388 0.300000 0.600000 0.000000
0.153258 -0.674191 -0.110707 0.300000 0.600000 0.000000
0.003546 -0.452895 0.206874 0.300000 0.600000 0.000000
0.188475 -0.168314 0.083773 0.300000 0.600000 0.000000
-0.050243 0.266377 0.201428 0.300000 0.600000 0.000000
0.015880 0.882676 0.069019 0.300000 0.000000 0.600000
-0.057230 0.663601 0.074671 0.600000 0.000000 0.300000
0.133047 -0.379024 0.157661 0.300000 0.600000 0.000000
-0.069893 -0.107963 -0.195613 0.300000 0.600000 0.000000
0.008069 -0.536456 0.207477 0.300000 0.600000 0.000000
0.118037 0.282049 -0.169848 0.300000 0.600000 0.000000
-0.148494 0.379168 -0.100153 0.600000 0.000000 0.300000
-0.066808 -0.141404 -0.196767 0.300000 0.600000 0.000000
-0.188110 -0.137286 -0.088878 0.300000 0.600000 0.000000
0.079167 0.085207 -0.191121 0.300000 0.600000 0.000000
0.145594 0.320433 -0.144529 0.300000 0.600000 0.000000
-0.110135 -0.384202 0.175730 0.300000 0.600000 0.000000
0.154996 -0.328116 -0.137246 0.300000 0.600000 0.000000
0.147097 -0.455370 0.145459 0.300000 0.600000 0.000000
-0.043799 -0.684641 0.030457 0.300000 0.600000 0.000000
0.017711 -0.181529 0.205877 0.300000 0.600000 0.000000
0.175454 -0.113739 -0.109317 0.300000 0.600000 0.000000
-0.207932 -0.388089 -0.007650 0.300000 0.600000 0.000000
0.184287 -0.302985 0.093463 0.300000 0.600000 0.000000
-0.017819 -0.038411 -0.206775 0.300000 0.600000 0.000000
-0.057247 0.784647 0.028870 0.600000 0.000000 0.300000
0.067810 -0.684641 0.102964 0.300000 0.600000 0.000000
0.123197 -0.684641 0.044513 0.300000 0.600000 0.000000
0.050794 -0.534600 -0.201711 0.300000 0.600000 0.000000
-0.126140 0.255000 -0.164962 0.300000 0.600000 0.000000
0.101719 -0.396312 0.180175 0.300000 0.600000 0.000000
-0.052543 0.806122 0.033776 0.600000 0.000000 0.300000
-0.068886 0.846667 -0.020789 0.300000 0.000000 0.600000
-0.208851 -0.556115 -0.017757 0.300000 0.600000 0.000000
-0.027034 0.980014 0.061304 0.300000 0.000000 0.600000
-0.111032 -0.253750 -0.175941 0.300000 0.600000 0.000000
0.179921 -0.645055 0.092173 0.300000 0.600000 0.000000
0.204740 -0.303749 0.023586 0.300000 0.600000 0.000000
-0.203471 -0.517781 0.043803 0.300000 0.600000 0.000000
0.166540 0.345373 0.107009 0.300000 0.600000 0.000000
0.154744 0.382615 0.080700 0.600000 0.000000 0.300000
0.192335 0.120802 -0.073933 0.300000 0.600000 0.000000
0.035514 0.734884 -0.069480 0.600000 0.000000 0.300000
-0.171920 -0.282691 -0.116972 0.300000 0.600000 0.000000
0.141075 -0.684172 0.083946 0.300000 0.600000 0.000000
-0.145146 -0.459698 0.148291 0.300000 0.600000 0.000000
0.013176 0.997990 -0.061213 0.300000 0.000000 0.600000
-0.208228 0.215900 -0.001238 0.300000 0.600000 0.000000
0.070156 0.423265 0.115078 0.600000 0.000000 0.300000
-0.194884 0.077379 0.072158 0.300000 0.600000 0.000000
0.029532 -0.583355 -0.207284 0.300000 0.600000 0.000000
0.049470 0.185736 0.201113 0.300000 0.600000 0.000000
-0.207699 0.139722 -0.012720 0.300000 0.600000 0.000000
0.155361 -0.118561 0.135587 0.300000 0.600000 0.000000
-0.207780 0.122340 -0.010967 0.300000 0.600000 0.000000
-0.186033 -0.506000 -0.093526 0.300000 0.600000 0.000000
0.033890 0.011605 0.203884 0.300000 0.600000 0.000000
0.201302 0.102712 -0.045424 0.300000 0.600000 0.000000
0.090076 -0.235147 -0.186605 0.300000 0.600000 0.000000
-0.041546 0.679989 -0.082432 0.600000 0.000000 0.300000
0.079303 -0.382637 -0.191065 0.300000 0.600000 0.000000
-0.025513 0.235235 -0.205765 0.300000 0.600000 0.000000
0.073066 -0.308411 -0.193648 0.300000 0.600000 0.000000
-0.203300 -0.477988 -0.045599 0.300000 0.600000 0.000000
-0.091261 0.309412 -0.185815 0.300000 0.600000 0.000000
0.010349 -0.231659 -0.207156 0.300000 0.600000 0.000000
-0.159615 -0.116015 -0.133305 0.300000 0.600000 0.000000
0.200925 0.023563 -0.047130 0.300000 0.600000 0.000000
-0.108642 0.389166 -0.129702 0.600000 0.000000 0.300000
0.104920 0.471512 -0.013152 0.600000 0.000000 0.300000
-0.204616 -0.126183 -0.036933 0.300000 0.600000 0.000000
-0.008437 -0.684641 -0.050985 0.300000 0.600000 0.000000
-0.203252 -0.493119 0.044719 0.300000 0.600000 0.000000
-0.207655 -0.105293 0.013299 0.300000 0.600000 0.000000
-0.055784 0.909970 0.037966 0.300000 0.000000 0.600000
-0.034048 0.655135 0.088464 0.600000 0.000000 0.300000
-0.026385 0.400142 -0.154978 0.600000 0.000000 0.300000
-0.037080 0.232357 0.203723 0.300000 0.600000 0.000000
-0.028367 -0.066616 0.205014 0.300000 0.600000 0.000000
0.097932 0.195221 0.182010 0.300000 0.600000 0.000000
0.087673 0.637809 0.038041 0.600000 0.000000 0.300000
-0.059896 0.896588 -0.032202 0.300000 0.000000 0.600000
0.004697 -0.426936 -0.207413 0.300000 0.600000 0.000000
0.015593 -0.144718 0.206428 0.300000 0.600000 0.000000
-0.074822 0.451511 0.089797 0.600000 0.000000 0.300000
-0.208226 -0.405252 0.000702 0.300000 0.600000 0.000000
0.175450 -0.245211 0.109265 0.300000 0.600000 0.000000
0.057031 -0.400240 0.198988 0.300000 0.600000 0.000000
0.076053 0.674852 0.051403 0.600000 0.000000 0.300000
0.079248 -0.218429 0.190711 0.300000 0.600000 0.000000
0.179868 0.283459 0.102269 0.300000 0.600000 0.000000
-0.054878 0.400010 0.147202 0.600000 0.000000 0.300000
-0.092819 0.673569 0.003516 0.600000 0.000000 0.300000
0.105110 0.085868 -0.178675 0.300000 0.600000 0.000000
-0.168443 0.286097 0.121312 0.300000 0.600000 0.000000
0.103504 -0.609981 0.180473 0.300000 0.600000 0.000000
-0.184169 -0.147619 -0.097346 0.300000 0.600000 0.000000
0.060179 0.514913 0.071032 0.600000 0.000000 0.300000
-0.120748 -0.587360 0.171391 0.300000 0.600000 0.000000
0.065511 -0.627143 0.194905 0.300000 0.600000 0.000000
-0.116403 0.451860 -0.002692 0.600000 0.000000 0.300000
0.084781 -0.580745 -0.191252 0.300000 0.600000 0.000000
-0.074149 0.305908 0.192368 0.300000 0.600000 0.000000
-0.189910 -0.187478 -0.084544 0.300000 0.600000 0.000000
-0.149335 -0.079406 -0.145605 0.300000 0.600000 0.000000
-0.039980 0.635829 0.087997 0.600000 0.000000 0.300000
-0.153981 -0.487370 0.139516 0.300000 0.600000 0.000000
-0.189143 -0.519334 0.086290 0.300000 0.600000 0.000000
0.188984 0.155865 -0.082906 0.300000 0.600000 0.000000
-0.208264 -0.317802 -0.000153 0.300000 0.600000 0.000000
0.062219 -0.081343 0.197478 0.300000 0.600000 0.000000
0.153718 0.095767 0.137509 0.300000 0.600000 0.000000
-0.010965 -0.262815 -0.207201 0.300000 0.600000 0.000000
0.142726 -0.203225 -0.150181 0.300000 0.600000 0.000000
0.004878 0.997990 -0.012797 0.300000 0.000000 0.600000
0.063307 -0.215907 -0.197465 0.300000 0.600000 0.000000
0.195468 -0.430982 -0.067063 0.300000 0.600000 0.000000
-0.207443 -0.427226 -0.016777 0.300000 0.600000 0.000000
-0.062553 0.531204 -0.068994 0.600000 0.000000 0.300000
-0.140435 0.256955 -0.153866 0.300000 0.600000 0.000000
0.177304 -0.404042 -0.106703 0.300000 0.600000 0.000000
-0.198868 -0.643489 -0.046566 0.300000 0.600000 0.000000
0.205376 0.284417 0.017598 0.300000 0.600000 0.000000
-0.181237 -0.323874 -0.103000 0.300000 0.600000 0.000000
-0.155265 -0.345695 -0.138965 0.300000 0.600000 0.000000
0.028895 0.587015 -0.091373 0.600000 0.000000 0.300000
0.181316 -0.006366 0.098056 0.300000 0.600000 0.000000
0.181209 -0.440346 -0.100154 0.300000 0.600000 0.000000
-0.105929 -0.461612 -0.179163 0.300000 0.600000 0.000000
0.085225 -0.449497 0.187976 0.300000 0.600000 0.000000
0.080218 0.507804 -0.050541 0.600000 0.000000 0.300000
0.076983 0.687297 0.045857 0.600000 0.000000 0.300000
0.196747 -0.606197 -0.066810 0.300000 0.600000 0.000000
0.197182 0.096724 -0.060341 0.300000 0.600000 0.000000
0.173359 -0.331896 0.112339 0.300000 0.600000 0.000000
-0.062266 0.989989 0.035988 0.300000 0.000000 0.600000
0.080619 -0.031225 -0.190521 0.300000 0.600000 0.000000
-0.188113 -0.676255 -0.015591 0.300000 0.600000 0.000000
-0.034315 0.756617 -0.061607 0.600000 0.000000 0.300000
0.065263 0.934247 -0.010614 0.300000 0.000000 0.600000
-0.145687 -0.410341 0.147834 0.300000 0.600000 0.000000
-0.083113 -0.011213 -0.190138 0.300000 0.600000 0.000000
0.159605 -0.542747 -0.132703 0.300000 0.600000 0.000000
-0.035881 -0.115653 -0.204286 0.300000 0.600000 0.000000
-0.162401 0.295022 0.129039 0.300000 0.600000 0.000000
0.202608 -0.237121 -0.039442 0.300000 0.600000 0.000000
0.186695 0.200616 0.087466 0.300000 0.600000 0.000000
-0.067428 0.916273 0.005862 0.300000 0.000000 0.600000
0.103246 -0.190147 -0.179852 0.300000 0.600000 0.000000
-0.045140 0.504857 -0.085629 0.600000 0.000000 0.300000
0.069707 -0.189588 -0.195040 0.300000 0.600000 0.000000
-0.196796 -0.028118 -0.067844 0.300000 0.600000 0.000000
-0.096607 0.594626 0.007238 0.600000 0.000000 0.300000
-0.132519 -0.667221 0.144340 0.300000 0.600000 0.000000
-0.107641 -0.665444 0.163767 0.300000 0.600000 0.000000
0.118663 -0.245248 0.168614 0.300000 0.600000 0.000000
-0.207747 0.096484 0.011264 0.300000 0.600000 0.000000
0.068192 0.854572 0.018163 0.300000 0.000000 0.600000
-0.016844 0.544313 -0.091261 0.600000 0.000000 0.300000
0.032674 0.679135 0.084956 0.600000 0.000000 0.300000
-0.092093 0.495353 0.034548 0.600000 0.000000 0.300000
-0.042886 -0.245749 -0.203120 0.300000 0.600000 0.000000
-0.122452 -0.164566 -0.167782 0.300000 0.600000 0.000000
-0.197789 0.258215 0.064737 0.300000 0.600000 0.000000
0.157583 0.320872 0.130036 0.300000 0.600000 0.000000
0.032255 0.768897 -0.057941 0.600000 0.000000 0.300000
-0.201075 -0.654419 0.010605 0.300000 0.600000 0.000000
-0.194189 -0.420034 0.073836 0.300000 0.600000 0.000000
-0.002539 0.388361 0.169442 0.600000 0.000000 0.300000
-0.010501 0.943582 -0.066341 0.300000 0.000000 0.600000
-0.010633 -0.409297 -0.207216 0.300000 0.600000 0.000000
-0.068013 0.003268 0.195952 0.300000 0.600000 0.000000
0.145323 -0.440370 -0.148025 0.300000 0.600000 0.000000
-0.089579 -0.495016 0.186491 0.300000 0.600000 0.000000
-0.049816 -0.252812 0.201276 0.300000 0.600000 0.000000
0.024174 0.429447 -0.127858 0.600000 0.000000 0.300000
-0.206805 -0.478736 0.021162 0.300000 0.600000 0.000000
0.116598 0.350675 -0.157314 0.300000 0.600000 0.000000
0.191203 0.058227 -0.076407 0.300000 0.600000 0.000000
0.091898 0.499097 0.027850 0.600000 0.000000 0.300000
0.206483 -0.520556 0.005810 0.300000 0.600000 0.000000
0.194024 0.240340 -0.070036 0.300000 0.600000 0.000000
-0.207355 -0.546321 0.025026 0.300000 0.600000 0.000000
-0.048377 0.822660 0.051800 0.300000 0.000000 0.600000
-0.018112 0.475294 -0.104039 0.600000 0.000000 0.300000
-0.036109 0.000790 -0.204248 0.300000 0.600000 0.000000
0.140022 0.361685 -0.128717 0.300000 0.600000 0.000000
-0.124255 -0.519021 -0.166510 0.300000 0.600000 0.000000
0.126375 -0.571948 -0.166240 0.300000 0.600000 0.000000
-0.006808 -0.476943 -0.207391 0.300000 0.600000 0.000000
-0.202513 0.056902 -0.048715 0.300000 0.600000 0.000000
-0.146657 0.408705 -0.026342 0.600000 0.000000 0.300000
-0.004916 -0.030422 0.207100 0.300000 0.600000 0.000000
-0.171598 0.100279 -0.117425 0.300000 0.600000 0.000000
-0.117976 -0.090234 0.169885 0.300000 0.600000 0.000000
-0.063435 -0.349036 -0.197984 0.300000 0.600000 0.000000
0.141840 0.047279 0.150195 0.300000 0.600000 0.000000
-0.125493 0.358884 0.145914 0.300000 0.600000 0.000000
-0.203038 -0.642850 0.020022 0.300000 0.600000 0.000000
0.073178 -0.369063 -0.193602 0.300000 0.600000 0.000000
-0.132870 0.281413 -0.159788 0.300000 0.600000 0.000000
0.168313 0.252242 -0.119795 0.300000 0.600000 0.000000
-0.048892 0.154630 0.201626 0.300000 0.600000 0.000000
-0.192536 0.185254 -0.078217 0.300000 0.600000 0.000000
0.188267 -0.216271 -0.084639 0.300000 0.600000 0.000000
-0.048154 0.131490 0.201800 0.300000 0.600000 0.000000
-0.176114 0.201022 -0.111096 0.300000 0.600000 0.000000
-0.042062 0.866027 -0.057755 0.300000 0.000000 0.600000
-0.092096 0.550236 0.015708 0.600000 0.000000 0.300000
0.106126 -0.684637 -0.116823 0.300000 0.600000 0.000000
0.134875 -0.400723 -0.157057 0.300000 0.600000 0.000000
0.190927 -0.441859 0.077845 0.300000 0.600000 0.000000
0.113968 0.368968 0.145893 0.600000 0.000000 0.300000
-0.003479 0.202015 -0.207544 0.300000 0.600000 0.000000
0.000744 0.290244 -0.207487 0.300000 0.600000 0.000000
0.149692 0.383478 -0.088870 0.600000 0.000000 0.300000
-0.161360 -0.342623 -0.131035 0.300000 0.600000 0.000000
-0.207508 -0.605793 -0.025186 0.300000 0.600000 0.000000
0.132206 -0.533919 -0.159714 0.300000 0.600000 0.000000
0.116579 0.414482 0.081090 0.600000 0.000000 0.300000
0.065938 0.232655 0.195837 0.300000 0.600000 0.000000
0.018813 -0.208479 -0.206431 0.300000 0.600000 0.000000
0.089444 0.467019 -0.060535 0.600000 0.000000 0.300000
-0.198512 -0.503098 0.062706 0.300000 0.600000 0.000000
0.145633 -0.575207 -0.150656 0.300000 0.600000 0.000000
0.200475 -0.458171 0.050475 0.300000 0.600000 0.000000
0.194120 0.099133 0.069980 0.300000 0.600000 0.000000
0.154578 -0.684634 -0.006589 0.300000 0.600000 0.000000
-0.030004 0.830247 0.064337 0.300000 0.000000 0.600000
-0.184567 -0.131557 0.096164 0.300000 0.600000 0.000000
0.057993 -0.684641 0.024216 0.300000 0.600000 0.000000
0.121674 -0.233515 0.166358 0.300000 0.600000 0.000000
0.086758 -0.508951 -0.187988 0.300000 0.600000 0.000000
0.067879 0.871159 -0.019385 0.300000 0.000000 0.600000
-0.000150 -0.010061 0.207188 0.300000 0.600000 0.000000
0.046769 -0.525641 0.201917 0.300000 0.600000 0.000000
0.024134 -0.100289 -0.205733 0.300000 0.600000 0.000000
0.066923 0.991810 0.021314 0.300000 0.000000 0.600000
-0.156366 0.395723 -0.044648 0.600000 0.000000 0.300000
-0.000688 0.927981 -0.071577 0.300000 0.000000 0.600000
0.037392 -0.501274 -0.203766 0.300000 0.600000 0.000000
0.025442 -0.684641 0.091302 0.300000 0.600000 0.000000
-0.200676 0.133864 0.056197 0.300000 0.600000 0.000000
-0.204984 0.306132 -0.029883 0.300000 0.600000 0.000000
-0.150955 0.088373 0.142883 0.300000 0.600000 0.000000
-0.094642 0.380496 -0.149997 0.600000 0.000000 0.300000
0.189239 -0.224088 0.081923 0.300000 0.600000 0.000000
0.078704 0.168289 0.190530 0.300000 0.600000 0.000000
0.207993 -0.556457 -0.005259 0.300000 0.600000 0.000000
-0.044591 0.963179 0.055436 0.300000 0.000000 0.600000
0.022400 0.686505 -0.087038 0.600000 0.000000 0.300000
-0.204097 0.109297 -0.040049 0.300000 0.600000 0.000000
-0.206637 0.273894 0.022444 0.300000 0.600000 0.000000
0.205799 -0.138108 0.011962 0.300000 0.600000 0.000000
-0.194470 -0.550848 -0.076909 0.300000 0.600000 0.000000
-0.200940 -0.269645 0.055052 0.300000 0.600000 0.000000
0.145436 0.396606 -0.065983 0.600000 0.000000 0.300000
0.126482 -0.684494 0.102955 0.300000 0.600000 0.000000
0.176472 0.192898 -0.107899 0.300000 0.600000 0.000000
-0.022746 0.364945 0.186975 0.600000 0.000000 0.300000
0.083621 -0.488410 0.188729 0.300000 0.600000 0.000000
0.024067 0.558725 0.089637 0.600000 0.000000 0.300000
0.033295 0.893897 -0.058297 0.300000 0.000000 0.600000
0.016660 0.997990 0.030758 0.300000 0.000000 0.600000
-0.143060 0.409645 0.037034 0.600000 0.000000 0.300000
-0.033931 0.010904 0.204235 0.300000 0.600000 0.000000
0.043828 -0.244418 0.202166 0.300000 0.600000 0.000000
0.040831 0.301231 -0.202789 0.300000 0.600000 0.000000
0.174125 -0.487033 -0.111645 0.300000 0.600000 0.000000
0.031745 -0.613188 -0.205277 0.300000 0.600000 0.000000
-0.060003 0.996350 -0.039315 0.300000 0.000000 0.600000
-0.055779 -0.382476 -0.200385 0.300000 0.600000 0.000000
-0.078432 0.205127 0.191040 0.300000 0.600000 0.000000
0.197074 -0.448563 -0.062613 0.300000 0.600000 0.000000
0.182941 -0.322448 0.096235 0.300000 0.600000 0.000000
-0.207429 -0.021064 0.016388 0.300000 0.600000 0.000000
0.144648 -0.680259 -0.112791 0.300000 0.600000 0.000000
-0.205466 -0.382024 0.031399 0.300000 0.600000 0.000000
0.095944 -0.083186 -0.183772 0.300000 0.600000 0.000000
0.063202 0.473418 -0.083988 0.600000 0.000000 0.300000
-0.052807 0.976050 0.042772 0.300000 0.000000 0.600000
0.091690 0.553480 -0.006181 0.600000 0.000000 0.300000
0.199085 0.127205 0.054684 0.300000 0.600000 0.000000
-0.131567 0.319637 -0.158060 0.300000 0.600000 0.000000
0.113189 0.432339 -0.058833 0.600000 0.000000 0.300000
0.175410 0.025514 -0.109078 0.300000 0.600000 0.000000
-0.077963 -0.175184 -0.192271 0.300000 0.600000 0.000000
-0.093685 -0.684641 0.061791 0.300000 0.600000 0.000000
0.037630 -0.253387 0.203225 0.300000 0.600000 0.000000
0.198681 -0.200756 0.057765 0.300000 0.600000 0.000000
0.023598 -0.684641 -0.035578 0.300000 0.600000 0.000000
0.149645 0.403512 -0.030140 0.600000 0.000000 0.300000
0.177108 -0.253589 -0.107013 0.300000 0.600000 0.000000
0.159108 0.076994 -0.131898 0.300000 0.600000 0.000000
-0.209757 -0.577079 0.015498 0.300000 0.600000 0.000000
0.111588 -0.085457 -0.174448 0.300000 0.600000 0.000000
0.173298 -0.164018 0.111851 0.300000 0.600000 0.000000
0.027937 -0.173039 -0.205235 0.300000 0.600000 0.000000
-0.102741 0.199785 -0.181175 0.300000 0.600000 0.000000
-0.207173 -0.149504 0.018349 0.300000 0.600000 0.000000
-0.180202 0.377684 0.007054 0.600000 0.000000 0.300000
-0.195303 -0.295702 -0.071536 0.300000 0.600000 0.000000
0.004758 -0.217986 0.206913 0.300000 0.600000 0.000000
-0.147689 0.405838 -0.036344 0.600000 0.000000 0.300000
-0.131712 0.254430 0.159965 0.300000 0.600000 0.000000
-0.208004 0.180053 -0.006084 0.300000 0.600000 0.000000
-0.147931 0.119257 -0.147165 0.300000 0.600000 0.000000
0.173789 -0.625369 0.110080 0.300000 0.600000 0.000000
-0.032505 -0.512451 0.204314 0.300000 0.600000 0.000000
0.205946 -0.097849 -0.005044 0.300000 0.600000 0.000000
-0.052199 0.608122 0.082344 0.600000 0.000000 0.300000
0.091499 -0.684641 -0.104911 0.300000 0.600000 0.000000
-0.015648 0.886404 -0.069635 0.300000 0.000000 0.600000
-0.207966 0.026845 -0.006928 0.300000 0.600000 0.000000
-0.067230 0.965711 0.007363 0.300000 0.000000 0.600000
0.063588 -0.243687 -0.197364 0.300000 0.600000 0.000000
-0.207347 -0.225225 0.017017 0.300000 0.600000 0.000000
-0.052207 -0.400581 -0.201225 0.300000 0.600000 0.000000
-0.105593 0.230537 -0.179375 0.300000 0.600000 0.000000
-0.042105 0.300645 0.202511 0.300000 0.600000 0.000000
-0.099838 0.416463 0.100270 0.600000 0.000000 0.300000
-0.011503 0.713129 0.083171 0.600000 0.000000 0.300000
-0.186679 -0.675352 0.032298 0.300000 0.600000 0.000000
0.055963 0.393257 -0.153995 0.600000 0.000000 0.300000
0.117709 -0.676255 -0.145759 0.300000 0.600000 0.000000
0.197083 -0.137258 0.062206 0.300000 0.600000 0.000000
0.104973 -0.300630 -0.178762 0.300000 0.600000 0.000000
0.058648 0.923279 -0.039010 0.300000 0.000000 0.600000
-0.097769 0.411861 -0.108926 0.600000 0.000000 0.300000
0.206022 0.259025 0.007069 0.300000 0.600000 0.000000
-0.090796 -0.148259 -0.186956 0.300000 0.600000 0.000000
0.015515 0.274628 -0.206863 0.300000 0.600000 0.000000
-0.045985 0.721316 0.068590 0.600000 0.000000 0.300000
-0.206932 -0.276698 0.020186 0.300000 0.600000 0.000000
0.179701 -0.367306 0.102532 0.300000 0.600000 0.000000
-0.120524 -0.082697 -0.169213 0.300000 0.600000 0.000000
-0.166989 0.186633 0.123294 0.300000 0.600000 0.000000
-0.055772 0.795676 0.028905 0.600000 0.000000 0.300000
-0.085568 0.691889 0.026826 0.600000 0.000000 0.300000
-0.000463 0.881085 -0.071547 0.300000 0.000000 0.600000
-0.092531 0.030197 -0.186198 0.300000 0.600000 0.000000
0.114892 -0.131192 0.171714 0.300000 0.600000 0.000000
0.015383 0.591234 -0.095027 0.600000 0.000000 0.300000
0.189652 0.356552 0.031901 0.300000 0.600000 0.000000
-0.202739 -0.153031 0.047325 0.300000 0.600000 0.000000
0.119935 -0.388282 0.167489 0.300000 0.600000 0.000000
-0.197128 -0.661672 0.020482 0.300000 0.600000 0.000000
0.087772 -0.268057 -0.187559 0.300000 0.600000 0.000000
0.192290 0.251112 -0.074602 0.300000 0.600000 0.000000
0.122198 0.166532 0.166378 0.300000 0.600000 0.000000
-0.120005 -0.503728 0.168826 0.300000 0.600000 0.000000
0.162279 -0.150202 -0.127376 0.300000 0.600000 0.000000
0.116346 -0.398329 -0.171054 0.300000 0.600000 0.000000
0.001995 -0.684639 0.150799 0.300000 0.600000 0.000000
0.077090 -0.037294 0.191605 0.300000 0.600000 0.000000
-0.126189 -0.452337 -0.164924 0.300000 0.600000 0.000000
-0.054413 -0.684641 0.022863 0.300000 0.600000 0.000000
-0.136551 0.081726 0.155883 0.300000 0.600000 0.000000
-0.165791 0.196064 -0.125242 0.300000 0.600000 0.000000
-0.126183 -0.298248 0.163481 0.300000 0.600000 0.000000
-0.118466 -0.618939 0.170277 0.300000 0.600000 0.000000
-0.006875 0.967626 -0.066818 0.300000 0.000000 0.600000
0.024379 0.511224 -0.090998 0.600000 0.000000 0.300000
0.188989 0.069879 -0.082189 0.300000 0.600000 0.000000
-0.017607 -0.687541 -0.161851 0.300000 0.600000 0.000000
0.129411 0.053092 0.160873 0.300000 0.600000 0.000000
0.138288 -0.580111 -0.157271 0.300000 0.600000 0.000000
0.144643 0.247036 -0.148714 0.300000 0.600000 0.000000
-0.172233 -0.545345 0.117889 0.300000 0.600000 0.000000
0.203725 -0.276008 0.032308 0.300000 0.600000 0.000000
0.200626 0.118061 -0.048283 0.300000 0.600000 0.000000
0.112493 -0.684640 0.087655 0.300000 0.600000 0.000000
0.138707 0.226587 -0.154052 0.300000 0.600000 0.000000
0.008223 0.820390 -0.058086 0.600000 0.000000 0.300000
0.073350 0.464925 -0.080729 0.600000 0.000000 0.300000
0.065067 0.997990 0.001682 0.300000 0.000000 0.600000
0.157555 0.085190 0.132816 0.300000 0.600000 0.000000
0.123042 -0.684634 0.074728 0.300000 0.600000 0.000000
-0.145945 -0.162627 0.147616 0.300000 0.600000 0.000000
0.205747 -0.169555 0.013119 0.300000 0.600000 0.000000
-0.101381 0.348779 -0.169824 0.300000 0.600000 0.000000
0.100451 -0.000933 0.181203 0.300000 0.600000 0.000000
-0.106799 -0.605573 0.179998 0.300000 0.600000 0.000000
-0.203051 -0.585031 -0.056002 0.300000 0.600000 0.000000
-0.105087 -0.194456 -0.179694 0.300000 0.600000 0.000000
0.072643 -0.658714 0.184741 0.300000 0.600000 0.000000
-0.071828 0.478672 0.074951 0.600000 0.000000 0.300000
0.117486 0.253703 0.169539 0.300000 0.600000 0.000000
-0.197998 -0.158667 -0.064518 0.300000 0.600000 0.000000
0.027363 0.352151 -0.193396 0.300000 0.600000 0.000000
0.124289 -0.461682 -0.165160 0.300000 0.600000 0.000000
0.141302 -0.394540 -0.151718 0.300000 0.600000 0.000000
-0.030780 0.997990 0.005149 0.300000 0.000000 0.600000
0.018367 -0.463138 0.205635 0.300000 0.600000 0.000000
-0.060563 -0.684641 0.112892 0.300000 0.600000 0.000000
-0.131552 -0.603471 0.162142 0.300000 0.600000 0.000000
0.180516 -0.277162 0.101228 0.300000 0.600000 0.000000
-0.093819 0.516598 -0.007504 0.600000 0.000000 0.300000
0.022035 -0.631812 0.203725 0.300000 0.600000 0.000000
-0.137509 -0.242879 -0.156246 0.300000 0.600000 0.000000
-0.053460 0.440034 -0.111695 0.600000 0.000000 0.300000
-0.067603 0.901371 0.004531 0.300000 0.000000 0.600000
-0.178363 -0.400230 -0.107553 0.300000 0.600000 0.000000
-0.182611 -0.656013 0.082449 0.300000 0.600000 0.000000
0.201898 0.139204 0.041286 0.300000 0.600000 0.000000
0.205056 -0.408001 -0.021126 0.300000 0.600000 0.000000
-0.182141 0.026179 -0.101516 0.300000 0.600000 0.000000
-0.085262 -0.365460 0.188311 0.300000 0.600000 0.000000
0.073665 0.644608 -0.060933 0.600000 0.000000 0.300000
0.060849 -0.010440 -0.198350 0.300000 0.600000 0.000000
0.059852 0.878569 0.037062 0.300000 0.000000 0.600000
-0.030901 0.976050 -0.063283 0.300000 0.000000 0.600000
-0.113959 -0.231588 -0.173895 0.300000 0.600000 0.000000
0.012499 0.217380 0.206641 0.300000 0.600000 0.000000
0.005135 0.520716 0.092536 0.600000 0.000000 0.300000
-0.205556 0.210496 -0.031121 0.300000 0.600000 0.000000
-0.075075 -0.428860 -0.193467 0.300000 0.600000 0.000000
0.205173 -0.276934 -0.020063 0.300000 0.600000 0.000000
0.198976 0.236857 -0.055834 0.300000 0.600000 0.000000
-0.030988 -0.035551 0.204670 0.300000 0.600000 0.000000
-0.104423 0.385856 0.136789 0.600000 0.000000 0.300000
-0.165153 -0.145157 -0.126076 0.300000 0.600000 0.000000
0.138967 -0.086999 -0.153818 0.300000 0.600000 0.000000
0.191937 -0.368874 0.075403 0.300000 0.600000 0.000000
-0.146487 -0.596390 0.150544 0.300000 0.600000 0.000000
-0.169056 0.164015 -0.120971 0.300000 0.600000 0.000000
-0.208230 -0.256309 0.000611 0.300000 0.600000 0.000000
0.050529 0.427371 -0.121706 0.600000 0.000000 0.300000
-0.086486 -0.401499 0.187750 0.300000 0.600000 0.000000
-0.155255 -0.390300 -0.138979 0.300000 0.600000 0.000000
-0.205667 0.240193 -0.030279 0.300000 0.600000 0.000000
0.201485 0.258372 -0.045275 0.300000 0.600000 0.000000
0.205983 0.299528 -0.005672 0.300000 0.600000 0.000000
-0.044787 0.440113 0.114857 0.600000 0.000000 0.300000
-0.092836 -0.684605 -0.132127 0.300000 0.600000 0.000000
0.123861 0.346328 0.153685 0.300000 0.600000 0.000000
0.124956 -0.271529 0.163853 0.300000 0.600000 0.000000
0.063707 0.839859 -0.029457 0.300000 0.000000 0.600000
0.176595 -0.545554 0.109447 0.300000 0.600000 0.000000
0.015993 -0.642309 -0.202951 0.300000 0.600000 0.000000
0.052822 0.849452 0.046223 0.300000 0.000000 0.600000
0.082684 -0.481285 -0.189666 0.300000 0.600000 0.000000
0.024302 -0.685116 -0.158919 0.300000 0.600000 0.000000
-0.043730 0.887519 -0.056278 0.300000 0.000000 0.600000
0.197590 -0.364363 -0.061181 0.300000 0.600000 0.000000
-0.130129 0.396744 0.094430 0.600000 0.000000 0.300000
0.205270 0.160821 -0.019191 0.300000 0.600000 0.000000
0.183947 -0.114932 0.093586 0.300000 0.600000 0.000000
0.164395 -0.457600 -0.124986 0.300000 0.600000 0.000000
-0.064676 0.845141 -0.030953 0.300000 0.000000 0.600000
0.049866 0.264861 0.201020 0.300000 0.600000 0.000000
0.024355 -0.278726 -0.205704 0.300000 0.600000 0.000000
-0.141085 0.100537 0.152345 0.300000 0.600000 0.000000
0.066298 0.822660 0.014073 0.300000 0.000000 0.600000
0.027973 -0.469841 0.204682 0.300000 0.600000 0.000000
-0.095111 0.437197 0.082214 0.600000 0.000000 0.300000
0.045317 0.854570 -0.054037 0.300000 0.000000 0.600000
-0.158706 -0.654711 -0.123080 0.300000 0.600000 0.000000
-0.118294 0.447698 -0.015124 0.600000 0.000000 0.300000
0.066045 -0.246036 0.196100 0.300000 0.600000 0.000000
0.052255 0.929090 -0.046905 0.300000 0.000000 0.600000
0.010882 0.380887 0.176240 0.600000 0.000000 0.300000
0.205845 -0.455820 -0.011302 0.300000 0.600000 0.000000
0.125086 0.209110 -0.164552 0.300000 0.600000 0.000000
0.205754 0.178084 0.012954 0.300000 0.600000 0.000000
0.188509 0.345914 0.058477 0.300000 0.600000 0.000000
0.075918 0.396231 0.141704 0.600000 0.000000 0.300000
-0.198287 -0.018307 -0.063718 0.300000 0.600000 0.000000
0.175466 -0.673328 0.069887 0.300000 0.600000 0.000000
0.055775 -0.308350 -0.200021 0.300000 0.600000 0.000000
0.060031 0.974413 0.036830 0.300000 0.000000 0.600000
-0.070621 0.739070 0.030869 0.600000 0.000000 0.300000
0.205950 0.113814 0.008655 0.300000 0.600000 0.000000
0.205831 -0.319474 -0.011606 0.300000 0.600000 0.000000
0.161442 -0.159811 0.127928 0.300000 0.600000 0.000000
0.049217 0.102215 -0.201551 0.300000 0.600000 0.000000
-0.021911 -0.225858 0.205626 0.300000 0.600000 0.000000
-0.190395 0.363359 0.001301 0.300000 0.600000 0.000000
0.002237 0.986936 0.070815 0.300000 0.000000 0.600000
0.148219 0.088591 0.143713 0.300000 0.600000 0.000000
0.027141 -0.247563 -0.205339 0.300000 0.600000 0.000000
-0.099968 -0.286444 0.182117 0.300000 0.600000 0.000000
-0.149352 0.152570 0.144720 0.300000 0.600000 0.000000
-0.160044 -0.363712 0.132245 0.300000 0.600000 0.000000
-0.017484 0.660844 -0.092787 0.600000 0.000000 0.300000
-0.141135 0.396494 0.078329 0.600000 0.000000 0.300000
-0.208189 -0.276314 -0.002067 0.300000 0.600000 0.000000
0.192620 0.223333 -0.073676 0.300000 0.600000 0.000000
-0.049747 -0.684405 -0.157182 0.300000 0.600000 0.000000
0.166634 -0.298135 -0.122055 0.300000 0.600000 0.000000
-0.206538 -0.419076 -0.023660 0.300000 0.600000 0.000000
-0.094688 -0.055346 0.184034 0.300000 0.600000 0.000000
-0.191847 0.350558 0.043381 0.300000 0.600000 0.000000
-0.110092 0.054742 0.175370 0.300000 0.600000 0.000000
0.069605 0.301033 0.194202 0.300000 0.600000 0.000000
0.016132 -0.200695 0.206070 0.300000 0.600000 0.000000
-0.119688 -0.684641 -0.026815 0.300000 0.600000 0.000000
-0.042574 -0.234637 0.202531 0.300000 0.600000 0.000000
0.147005 -0.011095 -0.146426 0.300000 0.600000 0.000000
-0.208154 -0.199525 -0.002836 0.300000 0.600000 0.000000
-0.015492 0.559353 -0.092646 0.600000 0.000000 0.300000
-0.208121 -0.065654 -0.003557 0.300000 0.600000 0.000000
0.024216 0.886369 0.066076 0.300000 0.000000 0.600000
0.205715 0.070790 -0.010204 0.300000 0.600000 0.000000
-0.015095 0.997990 -0.062890 0.300000 0.000000 0.600000
-0.146661 -0.004508 -0.148326 0.300000 0.600000 0.000000
-0.009021 0.401249 0.155416 0.600000 0.000000 0.300000
0.106684 0.049836 0.177304 0.300000 0.600000 0.000000
-0.034231 0.803400 0.052145 0.600000 0.000000 0.300000
-0.197789 0.204100 -0.065093 0.300000 0.600000 0.000000
-0.011647 0.835778 -0.070162 0.300000 0.000000 0.600000
-0.058698 -0.237283 0.199312 0.300000 0.600000 0.000000
-0.078764 -0.225647 0.191202 0.300000 0.600000 0.000000
-0.000400 -0.684641 -0.036924 0.300000 0.600000 0.000000
-0.156012 -0.218118 0.137178 0.300000 0.600000 0.000000
-0.066167 0.756146 0.025944 0.600000 0.000000 0.300000
-0.044515 -0.193585 -0.202848 0.300000 0.600000 0.000000
0.204385 -0.248366 -0.027191 0.300000 0.600000 0.000000
-0.200255 -0.522887 0.058411 0.300000 0.600000 0.000000
-0.074529 0.213475 -0.193694 0.300000 0.600000 0.000000
0.084055 0.531285 0.036813 0.600000 0.000000 0.300000
-0.204680 -0.406973 -0.036552 0.300000 0.600000 0.000000
-0.199666 0.222695 -0.059895 0.300000 0.600000 0.000000
0.137362 0.066518 -0.155147 0.300000 0.600000 0.000000
-0.190933 -0.088493 -0.082083 0.300000 0.600000 0.000000
-0.184388 -0.675323 0.044099 0.300000 0.600000 0.000000
-0.169294 0.183042 -0.120652 0.300000 0.600000 0.000000
0.167396 0.144236 -0.120507 0.300000 0.600000 0.000000
-0.082329 0.411694 0.120009 0.600000 0.000000 0.300000
-0.103348 -0.519883 0.180250 0.300000 0.600000 0.000000
0.017423 -0.581351 -0.208766 0.300000 0.600000 0.000000
-0.207832 -0.260784 0.009377 0.300000 0.600000 0.000000
0.027254 0.288509 -0.205247 0.300000 0.600000 0.000000
0.075941 0.375564 0.163916 0.600000 0.000000 0.300000
0.188276 -0.303642 0.084253 0.300000 0.600000 0.000000
-0.000691 0.034565 -0.207658 0.300000 0.600000 0.000000
0.022368 0.669381 0.089546 0.600000 0.000000 0.300000
0.092963 -0.536942 0.185433 0.300000 0.600000 0.000000
-0.207935 -0.002471 0.007124 0.300000 0.600000 0.000000
-0.050608 -0.010451 0.201222 0.300000 0.600000 0.000000
0.195708 -0.522773 0.066441 0.300000 0.600000 0.000000
-0.095225 0.651504 -0.009023 0.600000 0.000000 0.300000
0.139655 0.103998 0.152285 0.300000 0.600000 0.000000
0.085233 0.245335 0.187514 0.300000 0.600000 0.000000
0.198444 0.033654 0.057420 0.300000 0.600000 0.000000
0.057807 0.911319 0.033028 0.300000 0.000000 0.600000
0.169957 0.335029 -0.107599 0.300000 0.600000 0.000000
-0.161463 -0.608630 -0.132535 0.300000 0.600000 0.000000
0.141359 0.079153 -0.151667 0.300000 0.600000 0.000000
-0.112038 -0.316802 -0.175265 0.300000 0.600000 0.000000
0.029273 0.997990 0.049983 0.300000 0.000000 0.600000
-0.012751 0.169307 0.206741 0.300000 0.600000 0.000000
0.004054 -0.315397 0.206639 0.300000 0.600000 0.000000
-0.149864 -0.684642 0.047017 0.300000 0.600000 0.000000
0.002704 -0.684637 -0.112063 0.300000 0.600000 0.000000
0.127862 -0.684623 -0.103693 0.300000 0.600000 0.000000
0.048876 0.960653 0.045162 0.300000 0.000000 0.600000
-0.040764 -0.371716 -0.203473 0.300000 0.600000 0.000000
-0.170862 -0.478944 0.118074 0.300000 0.600000 0.000000
-0.149091 0.149011 -0.145876 0.300000 0.600000 0.000000
-0.146854 0.038129 0.146881 0.300000 0.600000 0.000000
-0.203196 -0.120665 -0.045452 0.300000 0.600000 0.000000
0.103932 -0.431994 0.178503 0.300000 0.600000 0.000000
0.155163 -0.286562 -0.137029 0.300000 0.600000 0.000000
0.090690 0.535346 -0.011631 0.600000 0.000000 0.300000
0.019409 0.915596 0.063804 0.300000 0.000000 0.600000
0.183759 0.125322 -0.094669 0.300000 0.600000 0.000000
0.086606 0.443604 0.083460 0.600000 0.000000 0.300000
0.056599 0.252070 0.199449 0.300000 0.600000 0.000000
0.030358 0.915578 -0.059646 0.300000 0.000000 0.600000
-0.025389 -0.372989 -0.205782 0.300000 0.600000 0.000000
0.145730 0.367698 0.115825 0.600000 0.000000 0.300000
-0.127844 0.130813 -0.163659 0.300000 0.600000 0.000000
-0.181925 0.248625 -0.101912 0.300000 0.600000 0.000000
-0.185409 0.144738 -0.094797 0.300000 0.600000 0.000000
0.075123 0.270260 0.191815 0.300000 0.600000 0.000000
-0.015284 -0.214010 -0.207003 0.300000 0.600000 0.000000
-0.205862 0.302912 0.024518 0.300000 0.600000 0.000000
-0.144873 0.200027 0.149234 0.300000 0.600000 0.000000
0.061387 -0.182758 0.197774 0.300000 0.600000 0.000000
-0.174927 -0.036948 -0.112759 0.300000 0.600000 0.000000
0.117769 -0.572071 -0.172881 0.300000 0.600000 0.000000
0.091691 0.497730 -0.030671 0.600000 0.000000 0.300000
0.191012 -0.525371 -0.078660 0.300000 0.600000 0.000000
0.023166 -0.601678 -0.207361 0.300000 0.600000 0.000000
-0.133567 -0.684590 -0.087835 0.300000 0.600000 0.000000
0.078631 -0.662181 -0.180342 0.300000 0.600000 0.000000
0.137010 -0.152554 0.154670 0.300000 0.600000 0.000000
0.060867 0.594657 -0.074733 0.600000 0.000000 0.300000
-0.016812 -0.586339 0.208692 0.300000 0.600000 0.000000
-0.145766 -0.165499 -0.149131 0.300000 0.600000 0.000000
-0.008010 -0.652264 0.200721 0.300000 0.600000 0.000000
0.127351 -0.624630 0.161495 0.300000 0.600000 0.000000
0.054789 -0.002610 -0.200251 0.300000 0.600000 0.000000
-0.203576 0.303574 0.039325 0.300000 0.600000 0.000000
-0.177264 -0.174348 -0.109292 0.300000 0.600000 0.000000
0.203465 -0.045075 -0.032251 0.300000 0.600000 0.000000
-0.061506 -0.222119 -0.198681 0.300000 0.600000 0.000000
0.127572 0.115094 0.162276 0.300000 0.600000 0.000000
-0.148302 0.262950 -0.146656 0.300000 0.600000 0.000000
0.062823 -0.684641 0.015768 0.300000 0.600000 0.000000
-0.012194 -0.684641 -0.075469 0.300000 0.600000 0.000000
0.015044 0.618282 -0.095789 0.600000 0.000000 0.300000
0.190699 0.130906 -0.078562 0.300000 0.600000 0.000000
-0.047872 -0.537475 -0.202900 0.300000 0.600000 0.000000
-0.061752 -0.325222 0.198105 0.300000 0.600000 0.000000
-0.082903 0.484272 0.059924 0.600000 0.000000 0.300000
0.092955 0.565917 0.003655 0.600000 0.000000 0.300000
0.121042 0.399195 0.100315 0.600000 0.000000 0.300000
-0.178566 -0.588082 -0.111935 0.300000 0.600000 0.000000
0.200373 -0.545360 0.055005 0.300000 0.600000 0.000000
0.047366 0.870200 0.052086 0.300000 0.000000 0.600000
-0.014282 0.350732 0.195921 0.300000 0.600000 0.000000
0.088251 -0.562326 -0.189285 0.300000 0.600000 0.000000
0.197813 0.267876 0.060178 0.300000 0.600000 0.000000
0.152849 0.156814 0.138808 0.300000 0.600000 0.000000
0.157375 0.213140 -0.134152 0.300000 0.600000 0.000000
0.073405 0.259553 -0.193510 0.300000 0.600000 0.000000
-0.007341 0.413308 0.143578 0.600000 0.000000 0.300000
0.063249 0.675788 -0.066702 0.600000 0.000000 0.300000
0.191322 0.155057 0.076884 0.300000 0.600000 0.000000
0.043832 0.079379 -0.202693 0.300000 0.600000 0.000000
-0.059475 0.715584 0.059117 0.600000 0.000000 0.300000
0.155715 0.299263 0.135225 0.300000 0.600000 0.000000
0.057908 0.460583 0.094588 0.600000 0.000000 0.300000
0.160855 -0.430009 -0.129620 0.300000 0.600000 0.000000
0.009883 -0.568028 0.208710 0.300000 0.600000 0.000000
0.204378 -0.373364 0.026855 0.300000 0.600000 0.000000
-0.161897 -0.382064 0.129967 0.300000 0.600000 0.000000
0.206065 0.120716 -0.006536 0.300000 0.600000 0.000000
0.205865 0.061946 0.006328 0.300000 0.600000 0.000000
-0.162078 0.110353 -0.130098 0.300000 0.600000 0.000000
-0.145141 -0.667962 -0.130865 0.300000 0.600000 0.000000
0.031186 0.329667 0.200594 0.300000 0.600000 0.000000
-0.186701 -0.409129 -0.092143 0.300000 0.600000 0.000000
-0.146124 0.131061 0.147986 0.300000 0.600000 0.000000
-0.047305 0.282930 0.202078 0.300000 0.600000 0.000000
-0.189928 0.029778 -0.084502 0.300000 0.600000 0.000000
0.121328 -0.152833 0.167042 0.300000 0.600000 0.000000
0.064354 0.901877 -0.027390 0.300000 0.000000 0.600000
0.048956 0.584345 0.082149 0.600000 0.000000 0.300000
-0.000500 0.944252 0.067202 0.300000 0.000000 0.600000
-0.187492 0.358985 0.045217 0.300000 0.600000 0.000000
-0.193171 0.269785 0.076296 0.300000 0.600000 0.000000
-0.204261 -0.413637 0.038650 0.300000 0.600000 0.000000
-0.205660 -0.508411 0.029979 0.300000 0.600000 0.000000
0.178139 -0.658255 -0.087403 0.300000 0.600000 0.000000
-0.189166 0.146688 -0.086336 0.300000 0.600000 0.000000
-0.026391 -0.573181 0.207425 0.300000 0.600000 0.000000
0.201118 -0.517072 0.047589 0.300000 0.600000 0.000000
-0.195056 -0.327929 0.071744 0.300000 0.600000 0.000000
0.087414 0.680127 -0.022942 0.600000 0.000000 0.300000
-0.108358 -0.519049 -0.177692 0.300000 0.600000 0.000000
0.199160 -0.485850 -0.056173 0.300000 0.600000 0.000000
-0.090152 -0.682217 0.155845 0.300000 0.600000 0.000000
0.150746 0.279521 0.141143 0.300000 0.600000 0.000000
