-0.056520 0.584137 0.459294 0.000000 0.500000 0.500000
-0.106879 0.496999 -0.187646 0.000000 0.500000 0.500000
0.034980 -0.062669 -0.270533 0.000000 0.500000 0.500000
-0.162520 -0.586340 -0.137565 0.600000 0.000000 0.300000
0.159931 -0.011081 -0.235770 0.000000 1.000000 0.000000
-0.067547 -0.586340 -0.091620 0.600000 0.000000 0.300000
-0.114151 0.134256 -0.054639 0.000000 0.500000 0.500000
-0.148168 0.051017 -0.220078 0.000000 0.500000 0.500000
0.041521 0.563469 -0.145662 0.000000 0.500000 0.500000
-0.135376 0.667456 0.373580 0.000000 0.500000 0.500000
-0.082046 0.358792 -0.250884 0.000000 0.500000 0.500000
-0.175044 -0.410663 -0.023361 0.300000 0.000000 0.600000
0.056346 0.540206 0.047308 0.000000 0.500000 0.500000
0.235095 -0.261219 -0.277722 0.000000 1.000000 0.000000
0.048127 0.633134 0.241675 0.000000 0.500000 0.500000
-0.206175 -0.440398 -0.066993 0.300000 0.000000 0.600000
-0.098155 0.271303 -0.248065 0.000000 0.500000 0.500000
0.315085 -0.280816 -0.406097 0.000000 1.000000 0.000000
0.045229 -0.586340 -0.255747 0.600000 0.000000 0.300000
-0.071779 -0.448794 -0.349559 0.300000 0.000000 0.600000
-0.113323 0.413337 -0.211039 0.000000 0.500000 0.500000
0.119309 -0.586340 0.086522 0.600000 0.000000 0.300000
0.256414 -0.250073 -0.438744 0.000000 1.000000 0.000000
0.235688 -0.261219 -0.185930 0.000000 1.000000 0.000000
0.178324 -0.576012 0.091311 0.600000 0.000000 0.300000
-0.112367 0.683495 -0.028616 0.000000 0.500000 0.500000
-0.040397 -0.026254 -0.288528 0.000000 0.500000 0.500000
0.089540 -0.042078 -0.269710 0.600000 0.300000 0.000000
0.135268 -0.496045 -0.275679 0.300000 0.000000 0.600000
-0.191679 -0.586340 0.090322 0.600000 0.000000 0.300000
-0.034884 -0.586340 0.074691 0.600000 0.000000 0.300000
0.002384 0.611722 0.286134 0.000000 0.500000 0.500000
0.414191 0.077706 0.006455 0.000000 1.000000 0.000000
-0.150927 -0.197068 -0.214299 0.000000 0.500000 0.500000
0.076544 0.467946 0.797547 0.000000 0.500000 0.500000
0.064415 -0.065487 -0.283567 0.600000 0.300000 0.000000
-0.098245 0.816174 0.382198 0.000000 0.500000 0.500000
-0.132938 -0.336036 0.010462 0.300000 0.000000 0.600000
-0.349321 -0.557804 -0.079794 0.600000 0.000000 0.300000
0.055341 0.634054 0.212301 0.000000 0.500000 0.500000
-0.077835 -0.087805 -0.034460 0.000000 0.500000 0.500000
0.268151 -0.012533 -0.314552 0.000000 1.000000 0.000000
-0.139813 0.682289 0.324612 0.000000 0.500000 0.500000
-0.000321 0.481772 -0.217312 0.000000 0.500000 0.500000
-0.122009 0.599395 0.748301 0.000000 0.500000 0.500000
0.059939 0.280741 -0.221797 0.000000 0.500000 0.500000
-0.010591 -0.041696 -0.286873 0.000000 0.500000 0.500000
0.128136 -0.048845 -0.285897 0.600000 0.300000 0.000000
0.079107 0.459789 0.721321 0.000000 0.500000 0.500000
-0.246223 -0.528074 -0.358183 0.600000 0.000000 0.300000
-0.051591 0.675136 0.732999 0.000000 0.500000 0.500000
-0.137032 0.559256 0.615177 0.000000 0.500000 0.500000
-0.174985 -0.501069 -0.004225 0.300000 0.000000 0.600000
-0.282330 -0.586340 0.010768 0.600000 0.000000 0.300000
0.128053 -0.586340 -0.211372 0.600000 0.000000 0.300000
-0.219944 -0.476830 -0.218599 0.300000 0.000000 0.600000
-0.124177 -0.308828 -0.306467 0.300000 0.000000 0.600000
-0.025098 0.181727 -0.277200 0.000000 0.500000 0.500000
0.177508 -0.586246 -0.391135 0.600000 0.000000 0.300000
-0.139927 0.733066 0.136004 0.000000 0.500000 0.500000
0.066966 0.598808 0.096047 0.000000 0.500000 0.500000
0.239577 0.001459 -0.298747 0.000000 1.000000 0.000000
0.002768 0.600726 0.427141 0.000000 0.500000 0.500000
-0.009014 0.250009 -0.266799 0.000000 0.500000 0.500000
-0.095871 -0.586340 0.055294 0.600000 0.000000 0.300000
0.022266 -0.527839 -0.453088 0.600000 0.000000 0.300000
0.296166 -0.120652 -0.321299 0.000000 1.000000 0.000000
0.250430 -0.528023 -0.042150 0.600000 0.000000 0.300000
0.019860 0.101945 -0.278520 0.000000 0.500000 0.500000
-0.069699 0.499402 0.592708 0.000000 0.500000 0.500000
-0.023659 0.078690 -0.027127 0.000000 0.500000 0.500000
-0.141560 -0.586340 -0.031825 0.600000 0.000000 0.300000
0.149473 -0.527970 -0.393988 0.600000 0.000000 0.300000
-0.140876 0.476496 0.693884 0.000000 0.500000 0.500000
-0.077207 0.769307 0.584879 0.000000 0.500000 0.500000
0.098805 -0.524899 0.039667 0.600000 0.000000 0.300000
-0.195466 -0.426130 -0.048955 0.300000 0.000000 0.600000
0.043938 0.270847 -0.239985 0.000000 0.500000 0.500000
0.020412 -0.528004 -0.429527 0.600000 0.000000 0.300000
-0.145539 0.236488 -0.128769 0.000000 0.500000 0.500000
-0.147317 -0.052816 -0.094058 0.000000 0.500000 0.500000
-0.167806 -0.586340 0.055053 0.600000 0.000000 0.300000
-0.064678 -0.411901 0.034912 0.300000 0.000000 0.600000
-0.157011 -0.475920 -0.310884 0.300000 0.000000 0.600000
-0.130324 -0.071706 -0.070193 0.000000 0.500000 0.500000
-0.159938 0.166393 -0.185683 0.000000 0.500000 0.500000
-0.163548 -0.143705 -0.154312 0.000000 0.500000 0.500000
-0.025218 0.840405 0.356180 0.000000 0.500000 0.500000
0.046032 -0.226520 -0.052872 0.000000 0.500000 0.500000
0.040026 0.786411 0.141265 0.000000 0.500000 0.500000
0.168012 -0.039832 -0.307574 0.000000 1.000000 0.000000
-0.158730 -0.138961 -0.193917 0.000000 0.500000 0.500000
0.324741 -0.043386 -0.191142 0.000000 1.000000 0.000000
0.059832 0.392392 0.808920 0.300000 0.600000 0.000000
0.292872 -0.569355 -0.192999 0.600000 0.000000 0.300000
0.062897 -0.586340 -0.326011 0.600000 0.000000 0.300000
-0.121783 0.781897 0.469535 0.000000 0.500000 0.500000
0.306687 -0.111629 -0.089450 0.000000 1.000000 0.000000
0.015343 0.470874 0.027082 0.000000 0.500000 0.500000
-0.144643 0.687055 0.241223 0.000000 0.500000 0.500000
0.032703 -0.452142 0.025392 0.300000 0.000000 0.600000
0.073302 0.104354 -0.235636 0.000000 0.500000 0.500000
0.063271 0.529298 0.022175 0.000000 0.500000 0.500000
-0.070920 -0.586340 -0.364296 0.600000 0.000000 0.300000
0.073498 0.612257 0.702844 0.000000 0.500000 0.500000
-0.135616 0.779838 0.330013 0.000000 0.500000 0.500000
-0.025658 -0.357141 0.037522 0.300000 0.000000 0.600000
-0.037112 0.607609 0.294410 0.000000 0.500000 0.500000
0.230094 -0.092521 -0.082907 0.000000 1.000000 0.000000
-0.004244 0.517031 -0.204557 0.000000 0.500000 0.500000
-0.148211 0.534511 -0.066546 0.000000 0.500000 0.500000
-0.130416 0.223037 -0.092627 0.000000 0.500000 0.500000
0.172011 -0.586340 -0.276985 0.600000 0.000000 0.300000
-0.332553 -0.574857 -0.290034 0.600000 0.000000 0.300000
-0.018031 0.842833 0.321268 0.000000 0.500000 0.500000
0.080530 0.715961 0.141919 0.000000 0.500000 0.500000
0.230690 -0.527824 -0.163366 0.600000 0.000000 0.300000
0.365584 -0.152674 -0.224689 0.000000 1.000000 0.000000
-0.075940 0.614449 0.362069 0.000000 0.500000 0.500000
0.312656 -0.174756 -0.108720 0.000000 1.000000 0.000000
-0.149233 0.197670 -0.175520 0.000000 0.500000 0.500000
-0.068355 -0.232159 -0.031680 0.000000 0.500000 0.500000
0.405040 -0.002524 -0.056638 0.000000 1.000000 0.000000
0.151896 -0.238347 -0.292585 0.000000 1.000000 0.000000
-0.044385 0.594116 0.803058 0.000000 0.500000 0.500000
-0.039617 -0.066861 -0.288579 0.000000 0.500000 0.500000
0.023732 0.045143 -0.038979 0.000000 0.500000 0.500000
0.054614 0.794335 0.405731 0.000000 0.500000 0.500000
0.060777 -0.507843 0.034845 0.300000 0.000000 0.600000
0.085711 -0.097161 -0.066163 0.600000 0.300000 0.000000
0.104277 -0.245009 -0.218952 0.600000 0.300000 0.000000
0.051215 0.316489 -0.068747 0.000000 0.500000 0.500000
-0.179506 -0.523784 -0.331860 0.300000 0.000000 0.600000
-0.207206 -0.586340 -0.122808 0.600000 0.000000 0.300000
0.090821 0.019370 -0.203120 0.000000 0.500000 0.500000
-0.003933 0.086129 -0.029647 0.000000 0.500000 0.500000
-0.016518 -0.201437 -0.258488 0.600000 0.300000 0.000000
0.041092 -0.182540 -0.283786 0.600000 0.300000 0.000000
-0.147734 0.698195 0.500752 0.000000 0.500000 0.500000
-0.001201 -0.013234 -0.194427 0.600000 0.300000 0.000000
0.072797 0.370441 0.760172 0.000000 0.500000 0.500000
-0.164928 -0.546463 -0.456766 0.600000 0.000000 0.300000
-0.037454 0.704454 0.700100 0.000000 0.500000 0.500000
-0.132814 0.770207 0.202535 0.000000 0.500000 0.500000
0.005552 -0.208770 -0.078310 0.600000 0.300000 0.000000
0.122059 -0.527869 0.071273 0.600000 0.000000 0.300000
-0.309496 -0.577283 -0.329197 0.600000 0.000000 0.300000
-0.198346 -0.443950 -0.262203 0.300000 0.000000 0.600000
0.184416 -0.091716 -0.342118 0.000000 1.000000 0.000000
0.128717 -0.234014 -0.418558 0.000000 1.000000 0.000000
0.154181 -0.364664 -0.099300 0.300000 0.000000 0.600000
-0.200113 -0.466778 -0.056206 0.300000 0.000000 0.600000
-0.143978 0.688049 0.378786 0.000000 0.500000 0.500000
-0.145090 0.518759 0.682365 0.000000 0.500000 0.500000
0.058592 -0.019173 -0.252767 0.000000 0.500000 0.500000
0.150302 -0.090539 -0.083220 0.600000 0.300000 0.000000
-0.154384 0.093945 -0.206437 0.000000 0.500000 0.500000
0.313565 -0.181591 -0.430429 0.000000 1.000000 0.000000
0.125331 -0.199016 -0.094748 0.600000 0.300000 0.000000
0.107299 -0.248469 -0.182157 0.600000 0.300000 0.000000
-0.225299 -0.469624 -0.119444 0.300000 0.000000 0.600000
-0.186948 -0.586340 -0.272175 0.600000 0.000000 0.300000
-0.067953 0.318536 -0.037600 0.000000 0.500000 0.500000
-0.057628 0.793609 0.101794 0.000000 0.500000 0.500000
-0.039245 -0.586327 0.147542 0.600000 0.000000 0.300000
-0.199573 -0.317396 -0.058031 0.300000 0.000000 0.600000
-0.047929 0.166572 -0.284108 0.000000 0.500000 0.500000
0.001643 -0.086345 -0.092486 0.600000 0.300000 0.000000
-0.127032 0.539500 0.782241 0.000000 0.500000 0.500000
0.041367 -0.171065 -0.049056 0.000000 0.500000 0.500000
0.080580 0.517539 0.744921 0.000000 0.500000 0.500000
0.089075 -0.586340 -0.154580 0.600000 0.000000 0.300000
-0.006412 0.630538 0.775062 0.000000 0.500000 0.500000
-0.211875 -0.586340 -0.264176 0.600000 0.000000 0.300000
0.195663 -0.234959 -0.433668 0.000000 1.000000 0.000000
-0.310970 -0.586096 -0.296067 0.600000 0.000000 0.300000
-0.302670 -0.586340 -0.081558 0.600000 0.000000 0.300000
0.229482 -0.171649 -0.449409 0.000000 1.000000 0.000000
0.260519 -0.071375 -0.102480 0.000000 1.000000 0.000000
0.052038 -0.063017 -0.057432 0.000000 0.500000 0.500000
-0.090787 0.778561 0.548000 0.000000 0.500000 0.500000
-0.212263 -0.527491 0.052046 0.600000 0.000000 0.300000
0.128832 -0.162371 -0.392479 0.000000 1.000000 0.000000
0.029453 -0.586340 -0.083963 0.600000 0.000000 0.300000
-0.148246 0.697135 0.181576 0.000000 0.500000 0.500000
0.138668 -0.248525 -0.191779 0.600000 0.300000 0.000000
0.152440 -0.342595 -0.094078 0.300000 0.000000 0.600000
-0.321899 -0.527756 -0.060546 0.600000 0.000000 0.300000
-0.102931 -0.422419 -0.339702 0.300000 0.000000 0.600000
-0.093603 0.127198 -0.273995 0.000000 0.500000 0.500000
0.320603 -0.074860 -0.243716 0.000000 1.000000 0.000000
-0.217366 -0.469095 -0.092168 0.300000 0.000000 0.600000
-0.237934 -0.501306 -0.113564 0.300000 0.000000 0.600000
-0.044862 -0.586340 -0.330769 0.600000 0.000000 0.300000
-0.208878 -0.528044 0.088557 0.600000 0.000000 0.300000
-0.080718 -0.097207 -0.279881 0.000000 0.500000 0.500000
0.062395 0.119041 -0.066954 0.000000 0.500000 0.500000
0.195666 -0.261386 -0.278216 0.000000 1.000000 0.000000
-0.075202 -0.134747 -0.033482 0.000000 0.500000 0.500000
-0.099438 0.391315 0.782771 0.300000 0.600000 0.000000
0.001711 0.422580 0.821958 0.300000 0.600000 0.000000
0.061009 0.477949 0.660830 0.000000 0.500000 0.500000
-0.120432 -0.312036 0.010847 0.300000 0.000000 0.600000
-0.295554 -0.527839 -0.285679 0.600000 0.000000 0.300000
0.063432 0.682489 0.647486 0.000000 0.500000 0.500000
0.403127 -0.067910 -0.048539 0.000000 1.000000 0.000000
0.391413 -0.009252 -0.115390 0.000000 1.000000 0.000000
-0.063980 -0.188550 -0.030519 0.000000 0.500000 0.500000
-0.148238 0.476149 -0.105519 0.000000 0.500000 0.500000
-0.066449 0.780120 0.076965 0.000000 0.500000 0.500000
0.282266 -0.169400 -0.098332 0.000000 1.000000 0.000000
-0.163633 -0.055378 -0.162513 0.000000 0.500000 0.500000
0.081634 0.433984 0.793537 0.000000 0.500000 0.500000
0.279341 -0.545996 -0.255473 0.600000 0.000000 0.300000
0.008909 -0.586340 -0.183796 0.600000 0.000000 0.300000
0.407609 0.020200 0.084834 0.000000 1.000000 0.000000
0.017962 0.545342 -0.176504 0.000000 0.500000 0.500000
0.308555 -0.224462 -0.136996 0.000000 1.000000 0.000000
0.067068 0.381451 0.739394 0.000000 0.500000 0.500000
-0.147710 0.698348 0.202419 0.000000 0.500000 0.500000
-0.075587 0.597423 -0.144282 0.000000 0.500000 0.500000
-0.351299 -0.539010 -0.120666 0.600000 0.000000 0.300000
0.037087 0.006987 -0.269220 0.000000 0.500000 0.500000
-0.077044 0.611939 0.262236 0.000000 0.500000 0.500000
0.322976 -0.199025 -0.166816 0.000000 1.000000 0.000000
0.135172 -0.219508 -0.364924 0.000000 1.000000 0.000000
-0.177678 -0.586335 -0.403102 0.600000 0.000000 0.300000
-0.134468 0.317485 -0.093633 0.000000 0.500000 0.500000
-0.100009 -0.006336 -0.045095 0.000000 0.500000 0.500000
-0.034645 0.362738 0.682625 0.000000 0.500000 0.500000
-0.088137 0.750026 0.616354 0.000000 0.500000 0.500000
0.136406 -0.586340 -0.014365 0.600000 0.000000 0.300000
-0.217716 -0.387394 -0.093444 0.300000 0.000000 0.600000
0.065654 0.778882 0.410623 0.000000 0.500000 0.500000
-0.017592 -0.308987 0.001997 0.300000 0.000000 0.600000
0.024410 -0.310028 0.003953 0.300000 0.000000 0.600000
-0.092218 0.814801 0.420694 0.000000 0.500000 0.500000
-0.146666 0.476225 0.764759 0.000000 0.500000 0.500000
-0.267060 -0.586340 -0.027799 0.600000 0.000000 0.300000
0.001388 0.391747 0.668700 0.000000 0.500000 0.500000
-0.096642 0.000016 -0.272364 0.000000 0.500000 0.500000
-0.132339 0.777583 0.250374 0.000000 0.500000 0.500000
-0.005370 0.416002 0.649313 0.000000 0.500000 0.500000
-0.124251 0.153328 -0.063691 0.000000 0.500000 0.500000
-0.128263 0.632850 -0.060653 0.000000 0.500000 0.500000
0.077201 0.421013 0.828763 0.000000 0.500000 0.500000
0.337090 -0.068061 -0.234867 0.000000 1.000000 0.000000
0.185958 -0.030233 -0.131419 0.600000 0.300000 0.000000
-0.105523 -0.465193 -0.338554 0.300000 0.000000 0.600000
0.161064 -0.531619 0.097247 0.600000 0.000000 0.300000
-0.102623 0.420250 0.862562 0.300000 0.600000 0.000000
-0.061206 0.759748 0.620956 0.000000 0.500000 0.500000
0.082658 0.295349 -0.162818 0.000000 0.500000 0.500000
0.042911 0.533032 0.059359 0.000000 0.500000 0.500000
0.067540 0.706263 0.605957 0.000000 0.500000 0.500000
0.054532 -0.586340 0.017426 0.600000 0.000000 0.300000
-0.125360 0.387792 -0.205380 0.000000 0.500000 0.500000
0.233446 -0.056309 -0.332473 0.000000 1.000000 0.000000
0.081116 0.277424 -0.128961 0.000000 0.500000 0.500000
-0.135652 0.724664 0.093986 0.000000 0.500000 0.500000
-0.120902 -0.586340 -0.270840 0.600000 0.000000 0.300000
-0.102158 0.370542 0.760579 0.300000 0.600000 0.000000
-0.111227 -0.060172 -0.262993 0.000000 0.500000 0.500000
0.077794 0.669971 0.617278 0.000000 0.500000 0.500000
0.014893 0.403466 0.794156 0.300000 0.600000 0.000000
-0.019092 -0.121088 -0.182064 0.600000 0.300000 0.000000
-0.104733 0.510785 0.039624 0.000000 0.500000 0.500000
-0.077449 0.751171 0.021547 0.000000 0.500000 0.500000
0.379271 -0.053029 -0.166921 0.000000 1.000000 0.000000
0.056151 0.645978 0.274316 0.000000 0.500000 0.500000
0.083088 0.468655 -0.113047 0.000000 0.500000 0.500000
-0.162446 0.088060 -0.140995 0.000000 0.500000 0.500000
-0.102127 0.277629 -0.058904 0.000000 0.500000 0.500000
0.079504 0.621526 0.664768 0.000000 0.500000 0.500000
0.076373 0.424479 0.733609 0.000000 0.500000 0.500000
0.337544 -0.219156 -0.347154 0.000000 1.000000 0.000000
0.201934 -0.286847 -0.334485 0.000000 1.000000 0.000000
0.179642 -0.214885 -0.441851 0.000000 1.000000 0.000000
0.060694 0.439377 0.686518 0.000000 0.500000 0.500000
-0.147952 0.637134 0.027782 0.000000 0.500000 0.500000
-0.017295 0.211817 -0.270441 0.000000 0.500000 0.500000
0.036013 0.814419 0.384143 0.000000 0.500000 0.500000
0.363604 -0.124990 -0.140276 0.000000 1.000000 0.000000
0.146267 -0.200946 -0.300997 0.000000 1.000000 0.000000
-0.037138 -0.586340 -0.217094 0.600000 0.000000 0.300000
-0.103598 0.319663 -0.241370 0.000000 0.500000 0.500000
0.081680 -0.530013 -0.455491 0.600000 0.000000 0.300000
-0.163059 -0.579609 -0.456613 0.600000 0.000000 0.300000
-0.058727 0.063662 -0.286300 0.000000 0.500000 0.500000
0.210411 -0.527569 -0.098187 0.600000 0.000000 0.300000
0.083548 0.659242 0.075041 0.000000 0.500000 0.500000
0.053857 -0.528202 0.080114 0.600000 0.000000 0.300000
-0.161531 -0.585210 0.134368 0.600000 0.000000 0.300000
-0.099623 -0.044263 -0.044854 0.000000 0.500000 0.500000
0.059727 0.687234 -0.002824 0.000000 0.500000 0.500000
0.198538 -0.148726 -0.083490 0.000000 1.000000 0.000000
0.172728 -0.260652 -0.211232 0.000000 1.000000 0.000000
-0.024829 -0.069058 -0.206903 0.600000 0.300000 0.000000
0.376776 0.031242 -0.048544 0.000000 1.000000 0.000000
0.351413 -0.128617 -0.285525 0.000000 1.000000 0.000000
0.291562 -0.261219 -0.238043 0.000000 1.000000 0.000000
-0.021729 0.369512 -0.016509 0.000000 0.500000 0.500000
-0.145940 -0.528114 0.091476 0.600000 0.000000 0.300000
-0.116591 0.562482 -0.134809 0.000000 0.500000 0.500000
-0.010261 0.033837 -0.028656 0.000000 0.500000 0.500000
0.049172 0.716166 0.014256 0.000000 0.500000 0.500000
0.010862 -0.586337 -0.454664 0.600000 0.000000 0.300000
0.159679 -0.081290 -0.330218 0.000000 1.000000 0.000000
0.011526 0.820589 0.207984 0.000000 0.500000 0.500000
0.027911 0.626199 0.309195 0.000000 0.500000 0.500000
-0.226646 -0.584849 -0.410547 0.600000 0.000000 0.300000
-0.111168 -0.586340 -0.004754 0.600000 0.000000 0.300000
-0.143367 0.593388 0.599156 0.000000 0.500000 0.500000
0.280410 -0.585057 -0.149320 0.600000 0.000000 0.300000
0.052834 0.520749 0.809283 0.000000 0.500000 0.500000
-0.191538 -0.312906 -0.266224 0.300000 0.000000 0.600000
0.024288 0.676743 -0.063387 0.000000 0.500000 0.500000
0.033664 0.372344 -0.036443 0.000000 0.500000 0.500000
0.209099 -0.527675 -0.282594 0.600000 0.000000 0.300000
-0.090628 -0.586340 0.119546 0.600000 0.000000 0.300000
0.063349 0.140769 -0.068062 0.000000 0.500000 0.500000
0.065232 0.785472 0.367325 0.000000 0.500000 0.500000
-0.073103 0.735309 0.650769 0.000000 0.500000 0.500000
-0.181729 -0.375198 -0.285146 0.300000 0.000000 0.600000
-0.117081 -0.354826 0.018628 0.300000 0.000000 0.600000
0.310945 -0.239295 -0.331311 0.000000 1.000000 0.000000
-0.310245 -0.586340 -0.197050 0.600000 0.000000 0.300000
-0.181862 -0.528324 -0.404108 0.600000 0.000000 0.300000
0.259277 -0.586153 -0.073677 0.600000 0.000000 0.300000
0.224066 -0.156688 -0.421550 0.000000 1.000000 0.000000
0.036037 0.763885 0.082531 0.000000 0.500000 0.500000
-0.021078 0.543082 0.114371 0.000000 0.500000 0.500000
0.004154 -0.051314 -0.031837 0.000000 0.500000 0.500000
-0.086166 0.444663 -0.220850 0.000000 0.500000 0.500000
0.061289 0.732369 0.072727 0.000000 0.500000 0.500000
0.043055 -0.586340 0.094190 0.600000 0.000000 0.300000
-0.074983 -0.586340 -0.001151 0.600000 0.000000 0.300000
0.061703 -0.224542 -0.252535 0.600000 0.300000 0.000000
-0.053739 0.841503 0.323885 0.000000 0.500000 0.500000
-0.111143 -0.126987 -0.263052 0.000000 0.500000 0.500000
-0.206331 -0.586176 -0.410427 0.600000 0.000000 0.300000
0.139370 -0.586340 0.020786 0.600000 0.000000 0.300000
0.086006 -0.072162 -0.076836 0.600000 0.300000 0.000000
0.074783 0.679999 0.361511 0.000000 0.500000 0.500000
-0.090876 -0.384308 0.028986 0.300000 0.000000 0.600000
-0.229707 -0.586292 0.086809 0.600000 0.000000 0.300000
-0.111528 -0.196877 -0.262781 0.000000 0.500000 0.500000
-0.083540 -0.290052 -0.282536 0.000000 0.500000 0.500000
-0.027931 0.102362 -0.288764 0.000000 0.500000 0.500000
-0.022169 0.003810 -0.288372 0.000000 0.500000 0.500000
-0.048529 0.813639 0.503485 0.000000 0.500000 0.500000
0.280843 -0.255199 -0.147878 0.000000 1.000000 0.000000
-0.152512 0.125162 -0.210954 0.000000 0.500000 0.500000
0.359335 -0.091249 -0.253564 0.000000 1.000000 0.000000
0.018649 0.341838 -0.038031 0.000000 0.500000 0.500000
-0.125686 0.209652 -0.224869 0.000000 0.500000 0.500000
0.284091 -0.262197 -0.346717 0.000000 1.000000 0.000000
-0.038373 0.730585 -0.020048 0.000000 0.500000 0.500000
0.317433 -0.257411 -0.191447 0.000000 1.000000 0.000000
-0.046229 -0.527161 -0.394188 0.600000 0.000000 0.300000
0.018750 -0.532304 0.154331 0.600000 0.000000 0.300000
0.044666 0.784982 0.499648 0.000000 0.500000 0.500000
0.065097 -0.273886 -0.245606 0.000000 0.500000 0.500000
-0.214391 -0.323868 -0.086655 0.300000 0.000000 0.600000
0.006995 0.374979 0.751771 0.300000 0.600000 0.000000
0.004062 -0.379869 -0.350160 0.300000 0.000000 0.600000
-0.143220 0.378333 -0.097833 0.000000 0.500000 0.500000
0.261925 -0.172571 -0.432451 0.000000 1.000000 0.000000
0.222537 -0.164280 -0.081684 0.000000 1.000000 0.000000
-0.119258 0.700855 0.003902 0.000000 0.500000 0.500000
-0.295761 -0.546294 0.037894 0.600000 0.000000 0.300000
0.199191 -0.547188 0.071704 0.600000 0.000000 0.300000
0.155731 -0.021239 -0.271972 0.000000 1.000000 0.000000
-0.328041 -0.586340 -0.116472 0.600000 0.000000 0.300000
-0.118158 0.385469 0.712459 0.000000 0.500000 0.500000
-0.162760 -0.060060 -0.144121 0.000000 0.500000 0.500000
0.211602 -0.261219 -0.257615 0.000000 1.000000 0.000000
-0.219741 -0.425785 -0.099362 0.300000 0.000000 0.600000
-0.155367 -0.075715 -0.111887 0.000000 0.500000 0.500000
-0.097711 0.654797 0.727887 0.000000 0.500000 0.500000
0.081641 0.677282 0.166405 0.000000 0.500000 0.500000
0.083217 0.311160 -0.145849 0.000000 0.500000 0.500000
0.083230 0.526868 -0.052798 0.000000 0.500000 0.500000
0.158285 -0.517003 -0.262821 0.300000 0.000000 0.600000
-0.129636 0.570282 0.066458 0.000000 0.500000 0.500000
0.095567 -0.269493 -0.128153 0.000000 0.500000 0.500000
-0.060962 -0.455548 0.035711 0.300000 0.000000 0.600000
0.069030 0.236658 -0.210458 0.000000 0.500000 0.500000
-0.097799 0.703091 -0.023408 0.000000 0.500000 0.500000
-0.162208 0.165597 -0.151853 0.000000 0.500000 0.500000
0.174870 -0.498021 -0.150614 0.300000 0.000000 0.600000
-0.059187 -0.220650 -0.286228 0.000000 0.500000 0.500000
-0.005530 -0.245612 -0.142257 0.600000 0.300000 0.000000
-0.239598 -0.527645 -0.004208 0.600000 0.000000 0.300000
-0.113496 0.771414 0.520771 0.000000 0.500000 0.500000
-0.273574 -0.586340 -0.167761 0.600000 0.000000 0.300000
0.046865 0.545519 0.799706 0.000000 0.500000 0.500000
0.374646 -0.049562 -0.057751 0.000000 1.000000 0.000000
0.327156 -0.186748 -0.241643 0.000000 1.000000 0.000000
0.328757 -0.090284 -0.272944 0.000000 1.000000 0.000000
-0.046997 0.703773 -0.052326 0.000000 0.500000 0.500000
-0.228073 -0.422301 -0.154532 0.300000 0.000000 0.600000
0.145028 -0.399375 -0.074746 0.300000 0.000000 0.600000
0.003262 0.829854 0.392171 0.000000 0.500000 0.500000
0.248872 -0.100714 -0.082397 0.000000 1.000000 0.000000
0.331971 -0.194637 -0.130699 0.000000 1.000000 0.000000
0.023154 -0.208444 -0.261586 0.600000 0.300000 0.000000
0.090494 -0.141540 -0.202872 0.000000 0.500000 0.500000
0.330282 -0.139395 -0.152426 0.000000 1.000000 0.000000
0.381656 -0.086151 -0.155227 0.000000 1.000000 0.000000
-0.153881 0.007314 -0.108270 0.000000 0.500000 0.500000
0.013308 -0.154671 -0.034808 0.000000 0.500000 0.500000
-0.065630 0.366993 -0.255346 0.000000 0.500000 0.500000
0.144318 -0.586340 -0.154077 0.600000 0.000000 0.300000
-0.115839 -0.220149 -0.056177 0.000000 0.500000 0.500000
-0.074237 0.376783 -0.021324 0.000000 0.500000 0.500000
0.078586 -0.586340 -0.113052 0.600000 0.000000 0.300000
-0.148208 -0.586340 -0.013186 0.600000 0.000000 0.300000
0.053999 0.447675 -0.023267 0.000000 0.500000 0.500000
0.109402 -0.450944 -0.292149 0.300000 0.000000 0.600000
0.046806 -0.035252 -0.251563 0.600000 0.300000 0.000000
0.082376 0.673471 0.511406 0.000000 0.500000 0.500000
-0.043769 0.754994 0.011094 0.000000 0.500000 0.500000
0.302596 -0.211427 -0.270209 0.000000 1.000000 0.000000
0.277856 0.002641 -0.153427 0.000000 1.000000 0.000000
0.017308 0.728162 -0.007037 0.000000 0.500000 0.500000
-0.153709 -0.586340 -0.195049 0.600000 0.000000 0.300000
0.183027 -0.527385 -0.269077 0.600000 0.000000 0.300000
-0.146184 0.462353 -0.129988 0.000000 0.500000 0.500000
-0.149824 -0.309102 -0.289622 0.300000 0.000000 0.600000
-0.137379 0.668890 0.254175 0.000000 0.500000 0.500000
0.182651 -0.586340 -0.257369 0.600000 0.000000 0.300000
-0.131291 0.456616 -0.036663 0.000000 0.500000 0.500000
0.031369 0.812568 0.420680 0.000000 0.500000 0.500000
-0.136310 0.147696 -0.077109 0.000000 0.500000 0.500000
0.074260 0.600986 0.574780 0.000000 0.500000 0.500000
0.280750 -0.117136 -0.351885 0.000000 1.000000 0.000000
0.085371 -0.117307 -0.100012 0.000000 0.500000 0.500000
-0.068851 0.396711 0.784771 0.300000 0.600000 0.000000
0.148362 -0.523917 -0.292434 0.300000 0.000000 0.600000
0.131846 -0.474750 -0.265964 0.300000 0.000000 0.600000
-0.031711 0.501740 0.867630 0.000000 0.500000 0.500000
0.072606 0.043164 -0.078843 0.000000 0.500000 0.500000
0.055885 -0.010348 -0.164249 0.600000 0.300000 0.000000
0.016603 -0.586340 -0.117639 0.600000 0.000000 0.300000
-0.147327 -0.155286 -0.094074 0.000000 0.500000 0.500000
0.275398 -0.288678 -0.354773 0.000000 1.000000 0.000000
0.132030 -0.308881 -0.240429 0.300000 0.000000 0.600000
0.164375 -0.167542 -0.428477 0.000000 1.000000 0.000000
0.163736 -0.146182 -0.081349 0.600000 0.300000 0.000000
0.139432 -0.420515 -0.250587 0.300000 0.000000 0.600000
0.217788 -0.528094 -0.346319 0.600000 0.000000 0.300000
0.097851 -0.309049 -0.058545 0.300000 0.000000 0.600000
-0.035871 0.519271 0.560800 0.000000 0.500000 0.500000
-0.088824 0.822407 0.265889 0.000000 0.500000 0.500000
0.069983 0.735867 0.531093 0.000000 0.500000 0.500000
-0.108352 0.340724 -0.054898 0.000000 0.500000 0.500000
0.366457 -0.081652 -0.093295 0.000000 1.000000 0.000000
0.093627 -0.508014 0.016442 0.600000 0.000000 0.300000
-0.038278 -0.239306 -0.288667 0.000000 0.500000 0.500000
-0.027119 -0.303390 -0.295992 0.000000 0.500000 0.500000
-0.164571 -0.369188 -0.013466 0.300000 0.000000 0.600000
-0.076217 0.513243 0.065665 0.000000 0.500000 0.500000
0.176437 -0.180020 -0.453910 0.000000 1.000000 0.000000
0.200163 -0.582735 0.063728 0.600000 0.000000 0.300000
-0.218183 -0.521847 -0.289441 0.300000 0.000000 0.600000
-0.035457 0.604366 0.376337 0.000000 0.500000 0.500000
0.123865 -0.020514 -0.243289 0.600000 0.300000 0.000000
-0.006338 -0.586340 -0.326030 0.600000 0.000000 0.300000
-0.079409 0.579277 0.488894 0.000000 0.500000 0.500000
0.366052 -0.102113 -0.222663 0.000000 1.000000 0.000000
0.318968 -0.171295 -0.204131 0.000000 1.000000 0.000000
0.108629 -0.204685 -0.284609 0.600000 0.300000 0.000000
-0.139436 0.468255 0.803503 0.000000 0.500000 0.500000
-0.175477 -0.304758 -0.132204 0.300000 0.000000 0.600000
-0.013124 0.838024 0.286615 0.000000 0.500000 0.500000
-0.032194 0.593780 0.429166 0.000000 0.500000 0.500000
-0.140638 -0.279160 -0.232325 0.000000 0.500000 0.500000
-0.217764 -0.312978 -0.203366 0.300000 0.000000 0.600000
-0.137177 -0.405344 -0.323692 0.300000 0.000000 0.600000
-0.258857 -0.586340 -0.242480 0.600000 0.000000 0.300000
0.018531 0.781155 0.551875 0.000000 0.500000 0.500000
0.172980 -0.528782 -0.402615 0.600000 0.000000 0.300000
0.072991 -0.282411 -0.079342 0.000000 0.500000 0.500000
-0.123307 0.668415 0.674141 0.000000 0.500000 0.500000
0.080022 -0.358205 0.002255 0.300000 0.000000 0.600000
-0.158209 -0.138485 -0.120092 0.000000 0.500000 0.500000
0.258892 -0.146736 -0.078501 0.000000 1.000000 0.000000
-0.139596 -0.021502 -0.081630 0.000000 0.500000 0.500000
0.023610 0.536883 0.825844 0.000000 0.500000 0.500000
-0.088355 -0.520623 0.058773 0.300000 0.000000 0.600000
-0.160007 -0.011550 -0.189282 0.000000 0.500000 0.500000
0.060016 0.700967 0.014584 0.000000 0.500000 0.500000
0.279109 -0.528009 -0.170741 0.600000 0.000000 0.300000
-0.258107 -0.586340 -0.131299 0.600000 0.000000 0.300000
0.062954 0.388665 -0.062361 0.000000 0.500000 0.500000
-0.099744 0.630099 0.751603 0.000000 0.500000 0.500000
0.082681 0.539827 0.692708 0.000000 0.500000 0.500000
-0.026939 0.401329 -0.004644 0.000000 0.500000 0.500000
0.082861 0.666184 0.124465 0.000000 0.500000 0.500000
-0.103675 -0.464064 0.024663 0.300000 0.000000 0.600000
0.031501 -0.586340 -0.343672 0.600000 0.000000 0.300000
0.053799 0.647295 0.308600 0.000000 0.500000 0.500000
-0.130296 0.596879 -0.089449 0.000000 0.500000 0.500000
0.005418 -0.418733 0.034145 0.300000 0.000000 0.600000
0.070541 -0.428915 -0.324555 0.300000 0.000000 0.600000
-0.153562 -0.586340 -0.094943 0.600000 0.000000 0.300000
0.020482 -0.230733 -0.104706 0.600000 0.300000 0.000000
-0.125687 0.749411 0.536472 0.000000 0.500000 0.500000
0.036771 0.754315 0.585066 0.000000 0.500000 0.500000
-0.124799 0.308199 -0.079238 0.000000 0.500000 0.500000
-0.274593 -0.586340 -0.144459 0.600000 0.000000 0.300000
0.331831 -0.060762 -0.125975 0.000000 1.000000 0.000000
0.306737 -0.056260 -0.238804 0.000000 1.000000 0.000000
-0.127685 0.540039 0.034486 0.000000 0.500000 0.500000
0.319627 -0.275047 -0.425174 0.000000 1.000000 0.000000
0.155762 -0.238030 -0.151147 0.600000 0.300000 0.000000
0.070402 0.079992 -0.076018 0.000000 0.500000 0.500000
-0.133710 0.080591 -0.241580 0.000000 0.500000 0.500000
-0.087512 -0.431383 -0.345038 0.300000 0.000000 0.600000
0.298088 0.002510 -0.185059 0.000000 1.000000 0.000000
0.335428 -0.181978 -0.356965 0.000000 1.000000 0.000000
0.238539 -0.086935 -0.351792 0.000000 1.000000 0.000000
-0.123691 0.653128 0.692501 0.000000 0.500000 0.500000
-0.060202 0.065821 -0.030048 0.000000 0.500000 0.500000
0.079427 0.681788 0.056227 0.000000 0.500000 0.500000
0.322023 -0.170838 -0.170234 0.000000 1.000000 0.000000
0.063051 0.658063 0.677842 0.000000 0.500000 0.500000
-0.251545 -0.586340 -0.322709 0.600000 0.000000 0.300000
-0.019941 -0.102740 -0.185725 0.600000 0.300000 0.000000
0.276028 -0.201599 -0.115423 0.000000 1.000000 0.000000
0.083046 0.698133 0.485277 0.000000 0.500000 0.500000
0.153326 -0.512945 -0.043531 0.600000 0.000000 0.300000
0.049048 0.647103 -0.070570 0.000000 0.500000 0.500000
0.081542 0.649414 0.549412 0.000000 0.500000 0.500000
-0.185937 -0.526579 0.015904 0.600000 0.000000 0.300000
0.150132 -0.054447 -0.103860 0.600000 0.300000 0.000000
0.172620 -0.262550 -0.280403 0.000000 1.000000 0.000000
0.011846 0.134240 -0.281503 0.000000 0.500000 0.500000
-0.109745 -0.309711 -0.319616 0.300000 0.000000 0.600000
-0.042656 -0.270812 -0.027223 0.000000 0.500000 0.500000
0.004572 0.614837 0.311033 0.000000 0.500000 0.500000
0.185018 -0.015278 -0.142375 0.000000 1.000000 0.000000
-0.009797 -0.079349 -0.274259 0.600000 0.300000 0.000000
0.406959 0.058362 0.076420 0.000000 1.000000 0.000000
-0.006015 0.510598 0.575998 0.000000 0.500000 0.500000
0.067339 0.732083 0.551896 0.000000 0.500000 0.500000
0.069784 0.070582 -0.240173 0.000000 0.500000 0.500000
0.079231 0.639960 0.110284 0.000000 0.500000 0.500000
-0.139660 0.627150 0.113556 0.000000 0.500000 0.500000
-0.198833 -0.586340 -0.169103 0.600000 0.000000 0.300000
0.124156 -0.586340 -0.383254 0.600000 0.000000 0.300000
0.097002 -0.021931 -0.179226 0.000000 0.500000 0.500000
-0.018321 -0.527537 -0.397189 0.600000 0.000000 0.300000
-0.142665 0.735618 0.485609 0.000000 0.500000 0.500000
-0.104095 0.031295 -0.267974 0.000000 0.500000 0.500000
0.038651 0.577263 0.526595 0.000000 0.500000 0.500000
0.084535 -0.230343 -0.217066 0.000000 0.500000 0.500000
-0.103350 -0.586340 -0.334068 0.600000 0.000000 0.300000
0.078581 0.743784 0.197268 0.000000 0.500000 0.500000
0.022354 -0.247369 -0.186229 0.600000 0.300000 0.000000
0.137719 -0.027660 -0.262190 0.600000 0.300000 0.000000
0.016349 0.333674 0.715731 0.000000 0.500000 0.500000
-0.118697 0.445231 0.860347 0.000000 0.500000 0.500000
-0.251134 -0.585525 0.072555 0.600000 0.000000 0.300000
0.175584 -0.586340 -0.371604 0.600000 0.000000 0.300000
-0.015035 0.321811 -0.263994 0.000000 0.500000 0.500000
-0.220588 -0.311616 -0.127633 0.300000 0.000000 0.600000
-0.024027 -0.312012 0.023899 0.300000 0.000000 0.600000
0.088522 -0.295988 -0.101864 0.300000 0.000000 0.600000
-0.319740 -0.528398 -0.274310 0.600000 0.000000 0.300000
0.136741 -0.240237 -0.151556 0.600000 0.300000 0.000000
-0.140701 -0.164292 -0.232264 0.000000 0.500000 0.500000
0.203815 -0.128191 -0.369827 0.000000 1.000000 0.000000
0.053547 0.635884 0.422217 0.000000 0.500000 0.500000
0.368680 -0.017122 -0.083557 0.000000 1.000000 0.000000
0.178048 -0.586340 0.026313 0.600000 0.000000 0.300000
0.255371 -0.554403 -0.310074 0.600000 0.000000 0.300000
-0.066225 0.630618 -0.125021 0.000000 0.500000 0.500000
0.083428 0.695453 0.153586 0.000000 0.500000 0.500000
-0.006631 0.607798 0.370879 0.000000 0.500000 0.500000
-0.147247 0.693783 0.460749 0.000000 0.500000 0.500000
-0.061733 0.838651 0.344024 0.000000 0.500000 0.500000
0.006830 0.382762 -0.248963 0.000000 0.500000 0.500000
-0.147762 0.658743 0.585540 0.000000 0.500000 0.500000
0.041571 -0.527774 -0.397035 0.600000 0.000000 0.300000
0.000286 0.839123 0.321013 0.000000 0.500000 0.500000
-0.223201 -0.406314 -0.112937 0.300000 0.000000 0.600000
0.351582 -0.166396 -0.286179 0.000000 1.000000 0.000000
0.043178 -0.586211 -0.462967 0.600000 0.000000 0.300000
-0.104734 -0.586340 -0.097894 0.600000 0.000000 0.300000
-0.273878 -0.554962 0.061832 0.600000 0.000000 0.300000
0.293189 -0.548961 -0.159403 0.600000 0.000000 0.300000
-0.051556 -0.586340 -0.271416 0.600000 0.000000 0.300000
-0.233276 -0.586340 -0.150854 0.600000 0.000000 0.300000
0.086658 -0.216992 -0.268417 0.600000 0.300000 0.000000
0.074261 0.280772 -0.197032 0.000000 0.500000 0.500000
-0.007331 -0.056190 -0.131178 0.600000 0.300000 0.000000
-0.107590 -0.353368 -0.337656 0.300000 0.000000 0.600000
0.033728 0.613850 0.212499 0.000000 0.500000 0.500000
-0.023367 0.836691 0.268166 0.000000 0.500000 0.500000
0.245401 -0.551813 -0.329111 0.600000 0.000000 0.300000
-0.032577 -0.586340 -0.267360 0.600000 0.000000 0.300000
0.117265 -0.527320 -0.341139 0.600000 0.000000 0.300000
-0.355157 -0.582045 -0.134487 0.600000 0.000000 0.300000
-0.124987 0.797163 0.311090 0.000000 0.500000 0.500000
0.210349 -0.242776 -0.125381 0.000000 1.000000 0.000000
-0.023613 -0.155539 -0.288470 0.000000 0.500000 0.500000
-0.112929 0.476465 0.845865 0.000000 0.500000 0.500000
0.321445 0.001897 -0.161603 0.000000 1.000000 0.000000
-0.146563 0.703473 0.364923 0.000000 0.500000 0.500000
0.360758 -0.163395 -0.246844 0.000000 1.000000 0.000000
-0.005064 -0.223482 -0.121373 0.600000 0.300000 0.000000
-0.012437 -0.528142 -0.438363 0.600000 0.000000 0.300000
0.098652 0.132341 -0.158849 0.000000 0.500000 0.500000
0.098228 -0.193882 -0.146347 0.000000 0.500000 0.500000
0.265279 -0.149186 -0.416664 0.000000 1.000000 0.000000
-0.121489 0.797029 0.279177 0.000000 0.500000 0.500000
0.386837 -0.102757 -0.134944 0.000000 1.000000 0.000000
-0.146290 -0.586340 -0.312791 0.600000 0.000000 0.300000
-0.066054 0.238284 -0.042865 0.000000 0.500000 0.500000
0.052891 -0.320853 -0.333440 0.300000 0.000000 0.600000
-0.008344 -0.586340 -0.177476 0.600000 0.000000 0.300000
0.211079 -0.306579 -0.394794 0.000000 1.000000 0.000000
0.075321 0.189034 -0.109306 0.000000 0.500000 0.500000
0.175290 -0.293696 -0.394155 0.000000 1.000000 0.000000
-0.202705 -0.319235 -0.253096 0.300000 0.000000 0.600000
-0.241142 -0.586340 -0.054896 0.600000 0.000000 0.300000
-0.068939 0.674336 0.727043 0.000000 0.500000 0.500000
-0.122308 0.367529 0.730529 0.000000 0.500000 0.500000
-0.132096 0.106211 -0.072236 0.000000 0.500000 0.500000
-0.200315 -0.586340 0.025227 0.600000 0.000000 0.300000
-0.276281 -0.527568 -0.218387 0.600000 0.000000 0.300000
-0.171176 -0.528267 -0.373933 0.600000 0.000000 0.300000
0.328992 -0.029519 -0.168977 0.000000 1.000000 0.000000
-0.244484 -0.541621 0.091903 0.600000 0.000000 0.300000
0.316036 -0.227921 -0.440285 0.000000 1.000000 0.000000
0.263557 -0.177111 -0.097766 0.000000 1.000000 0.000000
0.422300 0.068162 0.021193 0.000000 1.000000 0.000000
0.013959 0.816698 0.189312 0.000000 0.500000 0.500000
0.014566 0.429950 -0.229513 0.000000 0.500000 0.500000
0.063516 -0.586340 0.043393 0.600000 0.000000 0.300000
0.137705 -0.251602 -0.353961 0.000000 1.000000 0.000000
0.069549 0.397525 -0.186665 0.000000 0.500000 0.500000
0.144398 -0.586340 -0.267966 0.600000 0.000000 0.300000
0.000124 -0.586340 0.087638 0.600000 0.000000 0.300000
-0.056977 -0.491613 0.041725 0.300000 0.000000 0.600000
0.119904 -0.324036 -0.034585 0.300000 0.000000 0.600000
-0.118394 0.803345 0.348447 0.000000 0.500000 0.500000
-0.106751 -0.138618 -0.049790 0.000000 0.500000 0.500000
0.125777 -0.579214 0.124366 0.600000 0.000000 0.300000
-0.111267 -0.515734 -0.365405 0.300000 0.000000 0.600000
-0.001866 -0.449160 -0.351348 0.300000 0.000000 0.600000
-0.017264 0.192067 -0.040894 0.000000 0.500000 0.500000
0.006597 -0.248234 -0.172037 0.600000 0.300000 0.000000
-0.005952 -0.028148 -0.125232 0.600000 0.300000 0.000000
-0.161967 -0.041150 -0.179264 0.000000 0.500000 0.500000
0.041489 0.799248 0.186485 0.000000 0.500000 0.500000
0.358461 -0.026988 -0.166991 0.000000 1.000000 0.000000
-0.227985 -0.344374 -0.148581 0.300000 0.000000 0.600000
0.202755 -0.586340 -0.103379 0.600000 0.000000 0.300000
0.142940 -0.372627 -0.070753 0.300000 0.000000 0.600000
0.302428 -0.007165 -0.151009 0.000000 1.000000 0.000000
-0.002787 -0.558799 -0.483339 0.600000 0.000000 0.300000
0.022715 0.382330 0.763470 0.300000 0.600000 0.000000
0.215818 -0.586340 -0.200907 0.600000 0.000000 0.300000
-0.026629 -0.030339 -0.214687 0.600000 0.300000 0.000000
0.420292 0.015440 0.008288 0.000000 1.000000 0.000000
-0.078829 0.397262 -0.240919 0.000000 0.500000 0.500000
-0.130333 0.578225 0.749088 0.000000 0.500000 0.500000
-0.309104 -0.586340 -0.229103 0.600000 0.000000 0.300000
-0.164116 -0.531074 0.137514 0.600000 0.000000 0.300000
0.394799 -0.059874 -0.097498 0.000000 1.000000 0.000000
0.019887 0.413749 0.809315 0.300000 0.600000 0.000000
-0.248666 -0.580809 -0.398702 0.600000 0.000000 0.300000
-0.144386 0.402554 0.758977 0.000000 0.500000 0.500000
0.162236 -0.349080 -0.178533 0.300000 0.000000 0.600000
-0.117859 -0.528426 0.128823 0.600000 0.000000 0.300000
-0.140537 0.549881 0.744329 0.000000 0.500000 0.500000
0.081877 0.389534 0.786432 0.000000 0.500000 0.500000
0.031140 -0.586340 -0.446057 0.600000 0.000000 0.300000
-0.214815 -0.402676 -0.229203 0.300000 0.000000 0.600000
0.066133 -0.239396 -0.071511 0.000000 0.500000 0.500000
-0.100418 -0.586340 -0.379232 0.600000 0.000000 0.300000
-0.016678 0.120846 -0.287905 0.000000 0.500000 0.500000
-0.147448 0.685259 0.487932 0.000000 0.500000 0.500000
0.063262 0.378091 0.796523 0.000000 0.500000 0.500000
0.023646 0.310531 -0.047716 0.000000 0.500000 0.500000
0.316188 -0.013833 -0.198427 0.000000 1.000000 0.000000
-0.125546 0.232771 -0.223792 0.000000 0.500000 0.500000
0.306550 -0.215152 -0.238479 0.000000 1.000000 0.000000
-0.143619 0.638055 0.535863 0.000000 0.500000 0.500000
0.017606 -0.077903 -0.279359 0.000000 0.500000 0.500000
0.046502 -0.199060 -0.262499 0.000000 0.500000 0.500000
0.238799 -0.257858 -0.430064 0.000000 1.000000 0.000000
0.078623 -0.330658 0.003543 0.300000 0.000000 0.600000
-0.135124 0.626983 0.137388 0.000000 0.500000 0.500000
0.037367 -0.063228 -0.046678 0.000000 0.500000 0.500000
-0.131772 -0.586340 -0.181598 0.600000 0.000000 0.300000
0.053650 -0.404916 0.017221 0.300000 0.000000 0.600000
0.431009 0.051980 0.076232 0.000000 1.000000 0.000000
0.102323 -0.528145 0.102062 0.600000 0.000000 0.300000
0.008030 0.747188 0.011900 0.000000 0.500000 0.500000
-0.083214 0.491867 0.606424 0.000000 0.500000 0.500000
0.092890 -0.072126 -0.196898 0.000000 0.500000 0.500000
0.060528 0.474055 0.830482 0.000000 0.500000 0.500000
-0.064412 -0.586340 -0.129183 0.600000 0.000000 0.300000
0.083054 0.384633 -0.120863 0.000000 0.500000 0.500000
-0.065740 -0.176665 -0.284723 0.000000 0.500000 0.500000
0.030965 0.824772 0.328107 0.000000 0.500000 0.500000
0.086262 -0.024398 -0.101957 0.000000 0.500000 0.500000
0.211427 -0.261219 -0.215273 0.000000 1.000000 0.000000
0.093607 -0.527746 -0.433628 0.600000 0.000000 0.300000
0.162111 -0.244556 -0.170748 0.600000 0.300000 0.000000
-0.057511 -0.586338 0.138187 0.600000 0.000000 0.300000
-0.110808 -0.203113 -0.052539 0.000000 0.500000 0.500000
0.048569 0.556247 0.567457 0.000000 0.500000 0.500000
-0.023045 -0.125528 -0.282072 0.600000 0.300000 0.000000
0.182179 -0.113946 -0.085321 0.600000 0.300000 0.000000
0.060419 0.779462 0.186854 0.000000 0.500000 0.500000
-0.162572 -0.586339 0.116310 0.600000 0.000000 0.300000
-0.109974 0.341595 -0.234324 0.000000 0.500000 0.500000
0.025651 -0.586340 -0.039448 0.600000 0.000000 0.300000
0.071498 -0.528156 0.085914 0.600000 0.000000 0.300000
0.414250 0.063925 -0.013928 0.000000 1.000000 0.000000
-0.182500 -0.353484 -0.031639 0.300000 0.000000 0.600000
0.142602 -0.009345 -0.199838 0.600000 0.300000 0.000000
0.133472 -0.062054 -0.297081 0.600000 0.300000 0.000000
-0.071256 0.493032 0.865460 0.000000 0.500000 0.500000
0.329399 -0.028788 -0.144239 0.000000 1.000000 0.000000
0.382092 -0.090985 -0.084101 0.000000 1.000000 0.000000
-0.042481 -0.151717 -0.027208 0.000000 0.500000 0.500000
0.004404 -0.586340 -0.141636 0.600000 0.000000 0.300000
0.080908 0.684059 0.465586 0.000000 0.500000 0.500000
-0.345741 -0.585751 -0.173479 0.600000 0.000000 0.300000
0.202426 -0.214495 -0.106359 0.000000 1.000000 0.000000
-0.131598 0.279515 -0.091384 0.000000 0.500000 0.500000
0.063358 0.019027 -0.247644 0.000000 0.500000 0.500000
-0.052991 0.597679 0.223097 0.000000 0.500000 0.500000
-0.036062 0.835376 0.392329 0.000000 0.500000 0.500000
0.080864 0.259135 -0.128358 0.000000 0.500000 0.500000
0.027412 -0.041117 -0.254200 0.600000 0.300000 0.000000
0.098733 -0.103609 -0.155101 0.000000 0.500000 0.500000
-0.074873 0.050281 -0.033733 0.000000 0.500000 0.500000
-0.303181 -0.527818 -0.236991 0.600000 0.000000 0.300000
0.042335 -0.528156 0.123271 0.600000 0.000000 0.300000
0.048867 0.611626 0.473757 0.000000 0.500000 0.500000
0.083202 0.362301 -0.149123 0.000000 0.500000 0.500000
0.058885 0.653120 0.345198 0.000000 0.500000 0.500000
0.087250 -0.019883 -0.134703 0.600000 0.300000 0.000000
0.170864 -0.012721 -0.292171 0.000000 1.000000 0.000000
0.098556 -0.090573 -0.303567 0.600000 0.300000 0.000000
-0.114687 0.637147 0.261658 0.000000 0.500000 0.500000
0.049499 0.387309 -0.219067 0.000000 0.500000 0.500000
-0.030047 -0.108941 -0.026701 0.000000 0.500000 0.500000
0.053826 0.375273 -0.054456 0.000000 0.500000 0.500000
0.083561 0.431556 -0.119579 0.000000 0.500000 0.500000
-0.225531 -0.335107 -0.124944 0.300000 0.000000 0.600000
0.197998 -0.586340 -0.325434 0.600000 0.000000 0.300000
-0.026409 -0.165581 -0.213705 0.600000 0.300000 0.000000
0.143309 -0.170674 -0.083353 0.600000 0.300000 0.000000
-0.019311 -0.528298 0.139199 0.600000 0.000000 0.300000
0.091766 -0.180413 -0.115194 0.000000 0.500000 0.500000
0.135293 -0.278887 -0.393575 0.000000 1.000000 0.000000
-0.134357 0.592066 0.567835 0.000000 0.500000 0.500000
-0.151460 0.084174 -0.102812 0.000000 0.500000 0.500000
0.075916 -0.106473 -0.083611 0.000000 0.500000 0.500000
0.030652 0.786941 0.125900 0.000000 0.500000 0.500000
-0.078183 0.648934 -0.104589 0.000000 0.500000 0.500000
0.075413 0.646517 0.655995 0.000000 0.500000 0.500000
-0.073373 0.497601 -0.208473 0.000000 0.500000 0.500000
0.002728 0.447602 0.863415 0.300000 0.600000 0.000000
-0.059814 -0.308883 -0.001557 0.300000 0.000000 0.600000
0.131650 -0.103019 -0.315339 0.600000 0.300000 0.000000
0.076734 0.725229 0.518247 0.000000 0.500000 0.500000
0.046604 0.027799 -0.262844 0.000000 0.500000 0.500000
-0.166273 -0.301145 -0.199358 0.000000 0.500000 0.500000
0.076602 0.674170 0.430823 0.000000 0.500000 0.500000
-0.099116 0.430044 -0.217798 0.000000 0.500000 0.500000
-0.016679 -0.005421 -0.027651 0.000000 0.500000 0.500000
0.080931 0.702086 0.304501 0.000000 0.500000 0.500000
0.007717 -0.586340 -0.075892 0.600000 0.000000 0.300000
0.194740 -0.261219 -0.183627 0.000000 1.000000 0.000000
0.109104 -0.534248 0.134302 0.600000 0.000000 0.300000
-0.102074 -0.234460 -0.046690 0.000000 0.500000 0.500000
0.020694 0.378930 -0.025874 0.000000 0.500000 0.500000
0.065141 -0.129792 -0.057564 0.600000 0.300000 0.000000
-0.120825 -0.018389 -0.060293 0.000000 0.500000 0.500000
-0.102511 0.785090 0.513666 0.000000 0.500000 0.500000
-0.173996 -0.481628 -0.016413 0.300000 0.000000 0.600000
0.113551 -0.308709 -0.228275 0.300000 0.000000 0.600000
0.333790 -0.203136 -0.363587 0.000000 1.000000 0.000000
-0.145808 -0.217627 -0.091438 0.000000 0.500000 0.500000
0.068836 0.527781 0.641547 0.000000 0.500000 0.500000
-0.194297 -0.349498 -0.268594 0.300000 0.000000 0.600000
-0.043630 -0.586340 -0.355878 0.600000 0.000000 0.300000
-0.170331 -0.586340 -0.044059 0.600000 0.000000 0.300000
-0.146144 0.599296 0.037985 0.000000 0.500000 0.500000
-0.108740 -0.586340 -0.146998 0.600000 0.000000 0.300000
0.387965 -0.032946 -0.000142 0.000000 1.000000 0.000000
-0.020881 -0.524063 0.080987 0.600000 0.000000 0.300000
-0.162891 0.048217 -0.171733 0.000000 0.500000 0.500000
-0.021415 0.827197 0.446827 0.000000 0.500000 0.500000
-0.035984 -0.158596 -0.255249 0.600000 0.300000 0.000000
0.332932 -0.162808 -0.124997 0.000000 1.000000 0.000000
-0.233747 -0.490915 -0.195340 0.300000 0.000000 0.600000
0.057516 0.627436 0.463197 0.000000 0.500000 0.500000
0.212531 0.002283 -0.160379 0.000000 1.000000 0.000000
0.241527 -0.585770 -0.315913 0.600000 0.000000 0.300000
-0.039914 0.691088 0.715965 0.000000 0.500000 0.500000
0.109891 -0.172620 -0.076232 0.600000 0.300000 0.000000
0.292203 -0.573995 -0.117090 0.600000 0.000000 0.300000
0.013759 0.593572 0.191440 0.000000 0.500000 0.500000
-0.285392 -0.577971 -0.365509 0.600000 0.000000 0.300000
0.174262 -0.527340 -0.029127 0.600000 0.000000 0.300000
-0.094341 -0.381955 -0.342874 0.300000 0.000000 0.600000
0.043407 0.566430 0.789065 0.000000 0.500000 0.500000
-0.059282 0.828604 0.421625 0.000000 0.500000 0.500000
-0.001296 -0.125706 -0.105077 0.600000 0.300000 0.000000
-0.097364 0.414215 0.805830 0.300000 0.600000 0.000000
-0.052412 0.827169 0.206611 0.000000 0.500000 0.500000
0.051995 -0.586340 -0.159632 0.600000 0.000000 0.300000
-0.109580 -0.586340 -0.248588 0.600000 0.000000 0.300000
-0.097845 0.402766 -0.025450 0.000000 0.500000 0.500000
0.294789 0.002345 -0.288214 0.000000 1.000000 0.000000
0.016837 0.761790 0.598050 0.000000 0.500000 0.500000
-0.136999 0.675069 0.306215 0.000000 0.500000 0.500000
0.004004 -0.586340 -0.245551 0.600000 0.000000 0.300000
-0.094748 -0.586340 -0.412062 0.600000 0.000000 0.300000
-0.035815 0.324864 0.728236 0.000000 0.500000 0.500000
0.082504 0.335765 -0.161055 0.000000 0.500000 0.500000
0.154541 -0.406533 -0.099249 0.300000 0.000000 0.600000
-0.056993 0.210281 -0.268998 0.000000 0.500000 0.500000
0.042070 0.739211 0.038391 0.000000 0.500000 0.500000
0.388079 -0.049159 -0.131173 0.000000 1.000000 0.000000
0.367635 0.013633 -0.095714 0.000000 1.000000 0.000000
0.082386 0.056647 -0.094025 0.000000 0.500000 0.500000
-0.345371 -0.552692 -0.250175 0.600000 0.000000 0.300000
0.061729 -0.509530 -0.352670 0.300000 0.000000 0.600000
-0.162986 0.005836 -0.146373 0.000000 0.500000 0.500000
0.097933 0.149932 -0.144226 0.000000 0.500000 0.500000
0.049874 -0.247995 -0.164217 0.600000 0.300000 0.000000
-0.148238 0.715742 0.248247 0.000000 0.500000 0.500000
-0.144598 0.690919 0.075980 0.000000 0.500000 0.500000
0.098555 -0.234261 -0.163336 0.000000 0.500000 0.500000
0.248012 -0.283164 -0.417207 0.000000 1.000000 0.000000
-0.250126 -0.527657 -0.029853 0.600000 0.000000 0.300000
-0.022454 -0.586340 0.058129 0.600000 0.000000 0.300000
-0.157967 0.027063 -0.196429 0.000000 0.500000 0.500000
0.254436 -0.207687 -0.114671 0.000000 1.000000 0.000000
-0.214976 -0.347275 -0.086622 0.300000 0.000000 0.600000
0.409497 0.094901 0.037319 0.000000 1.000000 0.000000
0.074229 0.376774 -0.087590 0.000000 0.500000 0.500000
-0.083508 0.686781 -0.055947 0.000000 0.500000 0.500000
0.092862 0.142901 -0.118527 0.000000 0.500000 0.500000
0.083102 -0.109538 -0.305169 0.600000 0.300000 0.000000
-0.066664 -0.479664 -0.352502 0.300000 0.000000 0.600000
-0.045615 0.643550 -0.120952 0.000000 0.500000 0.500000
-0.088733 0.333984 0.720309 0.000000 0.500000 0.500000
0.208665 -0.005390 -0.130775 0.000000 1.000000 0.000000
-0.218610 -0.586340 -0.180526 0.600000 0.000000 0.300000
