-0.062672 -0.624816 0.192475 0.300000 0.000000 0.600000
-0.114752 -0.794395 -0.278801 0.300000 0.000000 0.600000
0.291864 0.047267 -0.201359 0.300000 0.000000 0.600000
0.155120 0.747218 0.003476 0.300000 0.000000 0.600000
-0.289386 -0.395365 -0.103141 0.300000 0.000000 0.600000
-0.061532 -0.259119 0.257038 0.000000 1.000000 0.000000
-0.229263 0.825066 0.282969 0.300000 0.000000 0.600000
-0.104365 -0.942039 0.164475 0.300000 0.000000 0.600000
-0.253058 -0.533884 0.015754 0.300000 0.000000 0.600000
0.291864 0.327901 0.153536 0.300000 0.000000 0.600000
0.110635 -0.237067 0.057781 0.500000 0.500000 0.000000
0.173432 0.495984 -0.278801 0.300000 0.000000 0.600000
0.290737 0.203749 0.247956 0.000000 0.000000 1.000000
0.035105 0.014503 0.261579 0.000000 1.000000 0.000000
-0.289386 -0.677327 0.044613 0.300000 0.000000 0.600000
-0.278494 0.182835 0.265442 0.000000 0.000000 1.000000
0.291864 0.714257 0.060564 0.300000 0.000000 0.600000
-0.218854 0.747218 -0.098794 0.300000 0.000000 0.600000
0.244271 0.901613 -0.073249 0.300000 0.000000 0.600000
0.291864 0.495850 -0.205801 0.300000 0.000000 0.600000
-0.089655 0.901613 -0.083775 0.300000 0.000000 0.600000
-0.214208 0.053166 -0.269719 0.300000 0.000000 0.600000
-0.216081 -0.651414 0.241076 0.000000 0.000000 1.000000
0.128590 0.747218 -0.123792 0.300000 0.000000 0.600000
-0.058486 0.856030 0.248297 0.300000 0.000000 0.600000
-0.232139 -0.228459 -0.269719 0.300000 0.000000 0.600000
0.291864 -0.898802 0.201029 0.300000 0.000000 0.600000
0.115856 0.390649 -0.278801 0.300000 0.000000 0.600000
-0.262002 -0.769822 -0.278801 0.300000 0.000000 0.600000
0.118169 -0.281878 -0.278801 0.300000 0.000000 0.600000
0.120299 0.112351 0.257038 0.000000 1.000000 0.000000
0.208197 -0.792481 0.238874 0.600000 0.000000 0.300000
-0.142073 -0.624816 0.056092 0.300000 0.000000 0.600000
-0.253058 -0.336812 -0.239056 0.300000 0.000000 0.600000
-0.206630 0.901613 0.085484 0.300000 0.000000 0.600000
-0.127629 0.031146 0.257038 0.000000 1.000000 0.000000
0.144704 -0.624816 0.166492 0.300000 0.000000 0.600000
0.256183 -0.205284 0.036151 0.300000 0.000000 0.600000
0.291864 -0.005297 0.102762 0.300000 0.000000 0.600000
-0.289386 0.264711 -0.032034 0.300000 0.000000 0.600000
0.256183 0.278209 0.029114 0.300000 0.000000 0.600000
-0.289386 -0.207505 -0.227870 0.300000 0.000000 0.600000
0.287940 -0.690162 0.247956 0.600000 0.000000 0.300000
0.075230 0.077978 -0.269719 0.300000 0.000000 0.600000
-0.118372 0.282782 0.002869 0.000000 0.500000 0.500000
0.051974 -0.393426 -0.269719 0.300000 0.000000 0.600000
0.291864 -0.314687 0.110922 0.300000 0.000000 0.600000
-0.276985 0.020684 0.270918 1.000000 0.000000 0.000000
0.107895 0.025720 0.261579 0.000000 1.000000 0.000000
-0.289386 -0.096955 -0.084659 0.300000 0.000000 0.600000
-0.198487 -0.049007 0.261579 0.000000 1.000000 0.000000
0.074343 0.231860 -0.278801 0.300000 0.000000 0.600000
0.002791 0.551517 0.261579 0.000000 1.000000 0.000000
0.291864 -0.852080 0.101231 0.300000 0.000000 0.600000
0.216652 -0.380983 0.257038 0.000000 1.000000 0.000000
0.001006 0.747218 -0.112980 0.300000 0.000000 0.600000
0.291864 0.440526 0.120889 0.300000 0.000000 0.600000
0.114637 0.901613 0.076611 0.300000 0.000000 0.600000
0.138163 0.253005 0.261579 0.000000 1.000000 0.000000
-0.233108 -0.238601 -0.078312 0.500000 0.500000 0.000000
-0.157149 -0.610533 0.261579 0.000000 1.000000 0.000000
-0.102006 0.747218 0.100949 0.300000 0.000000 0.600000
-0.253058 0.222359 0.155888 0.300000 0.000000 0.600000
-0.082532 -0.475300 0.257038 0.000000 1.000000 0.000000
0.128369 0.572375 -0.269719 0.300000 0.000000 0.600000
0.256183 0.081191 -0.091755 0.300000 0.000000 0.600000
0.291864 -0.585048 -0.065453 0.300000 0.000000 0.600000
0.242856 -0.533528 -0.278801 0.300000 0.000000 0.600000
0.049369 -0.562946 0.257038 0.000000 1.000000 0.000000
-0.253058 0.084223 0.015342 0.300000 0.000000 0.600000
0.162827 -0.624816 -0.092961 0.300000 0.000000 0.600000
0.291864 -0.214674 -0.188568 0.300000 0.000000 0.600000
0.277276 0.819829 0.270381 0.300000 0.000000 0.600000
0.291864 0.389353 0.220826 0.300000 0.000000 0.600000
-0.064642 -0.096104 0.257038 0.000000 1.000000 0.000000
0.058089 0.231139 0.257038 0.000000 1.000000 0.000000
-0.174700 -0.942039 -0.019748 0.300000 0.000000 0.600000
-0.226416 0.901613 -0.115948 0.300000 0.000000 0.600000
0.149247 -0.624816 -0.230795 0.300000 0.000000 0.600000
-0.018302 -0.693268 0.238874 0.300000 0.000000 0.600000
-0.227088 0.388035 0.257038 0.000000 1.000000 0.000000
-0.083636 0.487728 -0.278801 0.300000 0.000000 0.600000
-0.160320 0.901613 -0.040680 0.300000 0.000000 0.600000
0.291864 -0.610867 -0.207283 0.300000 0.000000 0.600000
0.122019 -0.467140 -0.269719 0.300000 0.000000 0.600000
0.093272 -0.713881 0.238874 0.300000 0.000000 0.600000
0.291864 -0.123091 -0.243257 0.300000 0.000000 0.600000
-0.289386 0.396379 0.061108 0.300000 0.000000 0.600000
0.256183 -0.462752 0.206783 0.300000 0.000000 0.600000
0.056782 -0.624816 -0.209560 0.300000 0.000000 0.600000
-0.253058 -0.428034 -0.025436 0.300000 0.000000 0.600000
0.185783 0.713525 0.257038 0.000000 1.000000 0.000000
0.256183 0.400504 0.073689 0.300000 0.000000 0.600000
0.291864 -0.297510 -0.217400 0.300000 0.000000 0.600000
-0.134275 0.858896 0.238874 0.300000 0.000000 0.600000
-0.289386 -0.157111 -0.038321 0.300000 0.000000 0.600000
-0.038567 -0.062400 -0.278801 0.300000 0.000000 0.600000
-0.253058 0.583227 0.002629 0.300000 0.000000 0.600000
-0.210606 -0.540934 -0.269719 0.300000 0.000000 0.600000
-0.289386 -0.103826 0.213711 0.300000 0.000000 0.600000
-0.289386 -0.746228 0.082046 0.300000 0.000000 0.600000
-0.289386 -0.512834 -0.205086 0.300000 0.000000 0.600000
0.256183 0.162557 -0.136040 0.300000 0.000000 0.600000
-0.253058 0.171505 -0.142004 0.300000 0.000000 0.600000
-0.289386 -0.616725 -0.087280 0.300000 0.000000 0.600000
-0.108440 0.017129 0.032268 0.500000 0.000000 0.500000
-0.039696 -0.575941 0.257038 0.000000 1.000000 0.000000
-0.009439 0.901613 0.056689 0.300000 0.000000 0.600000
0.237226 0.901613 -0.222368 0.300000 0.000000 0.600000
-0.106657 0.747218 -0.199688 0.300000 0.000000 0.600000
0.223266 0.901613 0.015488 0.300000 0.000000 0.600000
-0.176001 -0.800541 0.293409 0.600000 0.000000 0.300000
-0.285790 0.318954 0.263267 0.000000 0.000000 1.000000
-0.289386 0.408363 -0.058993 0.300000 0.000000 0.600000
-0.289386 0.641405 0.125902 0.300000 0.000000 0.600000
0.203974 -0.027114 -0.278801 0.300000 0.000000 0.600000
0.256183 0.025432 0.003680 0.300000 0.000000 0.600000
-0.146742 0.458039 -0.269719 0.300000 0.000000 0.600000
-0.253058 0.353893 -0.026079 0.300000 0.000000 0.600000
-0.037667 -0.879311 -0.278801 0.300000 0.000000 0.600000
0.080090 0.747218 0.123280 0.300000 0.000000 0.600000
-0.253058 0.654833 -0.113952 0.300000 0.000000 0.600000
-0.057318 -0.624816 -0.140257 0.300000 0.000000 0.600000
0.256183 0.246595 -0.078952 0.300000 0.000000 0.600000
0.256183 0.447871 0.202434 0.300000 0.000000 0.600000
0.216509 0.747218 0.192421 0.300000 0.000000 0.600000
-0.289386 -0.841504 0.235915 0.300000 0.000000 0.600000
-0.289386 0.393164 0.174686 0.300000 0.000000 0.600000
-0.289386 0.821387 0.072454 0.300000 0.000000 0.600000
0.291864 0.839019 0.030148 0.300000 0.000000 0.600000
-0.253058 0.072873 -0.196181 0.300000 0.000000 0.600000
-0.289386 -0.892797 -0.090023 0.300000 0.000000 0.600000
-0.054988 0.285596 -0.110995 0.000000 0.500000 0.500000
-0.204041 0.307069 0.261579 0.000000 1.000000 0.000000
0.208141 -0.617009 0.257038 0.000000 1.000000 0.000000
-0.245772 0.167397 -0.278801 0.300000 0.000000 0.600000
-0.064161 0.066655 -0.278801 0.300000 0.000000 0.600000
-0.063014 -0.942039 0.100433 0.300000 0.000000 0.600000
-0.204898 0.747218 -0.208694 0.300000 0.000000 0.600000
-0.289386 0.025940 0.004463 0.300000 0.000000 0.600000
0.291864 -0.863045 -0.041690 0.300000 0.000000 0.600000
-0.289386 0.315913 -0.114989 0.300000 0.000000 0.600000
-0.075387 -0.941595 -0.278801 0.300000 0.000000 0.600000
-0.254102 0.620335 0.261774 0.000000 0.000000 1.000000
-0.107859 0.286026 0.083844 0.000000 0.500000 0.500000
0.291864 0.535660 -0.084012 0.300000 0.000000 0.600000
-0.253058 0.234809 -0.188171 0.300000 0.000000 0.600000
-0.180670 0.286046 0.102279 0.000000 0.500000 0.500000
0.256183 -0.509473 0.108191 0.300000 0.000000 0.600000
-0.164508 0.284725 -0.233058 0.000000 0.500000 0.500000
-0.161949 -0.040249 -0.278801 0.300000 0.000000 0.600000
0.033532 -0.793990 -0.278801 0.300000 0.000000 0.600000
-0.217517 -0.692233 -0.278801 0.300000 0.000000 0.600000
-0.059540 -0.942039 0.023257 0.300000 0.000000 0.600000
-0.036872 0.814191 0.310545 0.300000 0.000000 0.600000
-0.133182 0.015517 -0.041252 0.500000 0.000000 0.500000
-0.289386 0.444084 -0.123911 0.300000 0.000000 0.600000
-0.285184 -0.397366 0.247956 0.000000 0.000000 1.000000
0.144543 0.514442 0.257038 0.000000 1.000000 0.000000
-0.026361 -0.624816 -0.029431 0.300000 0.000000 0.600000
0.011173 0.285438 0.033052 0.000000 0.500000 0.500000
0.256183 -0.455240 -0.060116 0.300000 0.000000 0.600000
-0.289386 -0.084385 0.043222 0.300000 0.000000 0.600000
0.256183 0.597704 -0.146217 0.300000 0.000000 0.600000
0.291864 -0.071191 0.136746 0.300000 0.000000 0.600000
-0.195850 -0.715035 0.290879 0.600000 0.000000 0.300000
-0.253058 0.350018 -0.188422 0.300000 0.000000 0.600000
0.162560 0.220371 -0.278801 0.300000 0.000000 0.600000
-0.146805 -0.904927 0.238874 0.300000 0.000000 0.600000
0.291864 -0.857303 -0.206830 0.300000 0.000000 0.600000
-0.164831 0.741301 0.261579 0.000000 1.000000 0.000000
0.291864 0.726306 0.206293 0.300000 0.000000 0.600000
0.256183 0.680936 -0.201187 0.300000 0.000000 0.600000
0.030164 -0.942039 -0.014507 0.300000 0.000000 0.600000
0.057331 -0.942039 -0.268051 0.300000 0.000000 0.600000
0.086205 0.449269 0.261579 0.000000 1.000000 0.000000
0.004267 -0.880735 0.298410 0.600000 0.000000 0.300000
0.211728 0.008615 0.261579 0.000000 1.000000 0.000000
-0.170908 0.013705 -0.118407 0.500000 0.000000 0.500000
0.256183 -0.528263 -0.133744 0.300000 0.000000 0.600000
-0.035917 -0.240436 -0.174300 0.500000 0.500000 0.000000
-0.069255 0.901613 -0.269915 0.300000 0.000000 0.600000
0.247417 0.190861 -0.278801 0.300000 0.000000 0.600000
-0.238296 0.380272 -0.269719 0.300000 0.000000 0.600000
0.291864 0.670321 0.109395 0.300000 0.000000 0.600000
-0.264747 -0.767342 0.238874 0.600000 0.000000 0.300000
-0.067426 -0.559934 -0.269719 0.300000 0.000000 0.600000
-0.289386 0.850878 0.186099 0.300000 0.000000 0.600000
-0.286047 -0.902067 -0.278801 0.300000 0.000000 0.600000
0.057398 -0.228697 -0.269719 0.300000 0.000000 0.600000
-0.289386 0.894985 -0.073763 0.300000 0.000000 0.600000
0.110056 0.286033 0.145242 0.000000 0.500000 0.500000
0.127732 -0.005731 -0.278801 0.300000 0.000000 0.600000
-0.188837 0.222094 0.261579 0.000000 1.000000 0.000000
0.056598 -0.624816 -0.025633 0.300000 0.000000 0.600000
0.007416 0.340527 0.257038 0.000000 1.000000 0.000000
0.053042 0.846852 -0.278801 0.300000 0.000000 0.600000
-0.048359 -0.624816 0.076875 0.300000 0.000000 0.600000
0.076730 0.901613 0.222509 0.300000 0.000000 0.600000
-0.289386 0.497608 0.136885 0.300000 0.000000 0.600000
0.187882 -0.215845 -0.278801 0.300000 0.000000 0.600000
0.291864 0.564547 -0.278432 0.300000 0.000000 0.600000
-0.099393 0.306717 0.201749 0.000000 0.500000 0.500000
0.291864 0.643103 0.257120 0.000000 0.000000 1.000000
-0.134690 0.557277 0.257038 0.000000 1.000000 0.000000
0.090919 0.016862 0.014227 0.500000 0.000000 0.500000
0.291864 -0.209952 0.113821 0.300000 0.000000 0.600000
-0.122376 0.901613 -0.168814 0.300000 0.000000 0.600000
0.180211 -0.942039 -0.057108 0.300000 0.000000 0.600000
-0.289386 0.264354 0.207522 0.300000 0.000000 0.600000
-0.166148 0.436486 0.257038 0.000000 1.000000 0.000000
-0.289386 -0.401022 -0.192137 0.300000 0.000000 0.600000
-0.116962 -0.240628 0.024172 0.500000 0.500000 0.000000
0.012014 -0.942039 -0.151180 0.300000 0.000000 0.600000
0.159373 -0.882136 0.296791 0.600000 0.000000 0.300000
0.291864 -0.009040 -0.248788 0.300000 0.000000 0.600000
-0.289386 0.674676 -0.050600 0.300000 0.000000 0.600000
0.291546 -0.389383 -0.278801 0.300000 0.000000 0.600000
-0.136867 0.747218 -0.064715 0.300000 0.000000 0.600000
0.291864 0.841345 -0.168230 0.300000 0.000000 0.600000
-0.289386 0.710655 0.206293 0.300000 0.000000 0.600000
-0.121534 -0.692283 0.298384 0.600000 0.000000 0.300000
-0.275802 -0.252377 0.265846 0.000000 0.000000 1.000000
-0.259186 -0.462756 -0.278801 0.300000 0.000000 0.600000
-0.253058 0.277924 0.056032 0.300000 0.000000 0.600000
0.164763 0.829996 0.238874 0.300000 0.000000 0.600000
-0.289386 -0.224595 -0.105618 0.300000 0.000000 0.600000
-0.289386 -0.535254 0.068512 0.300000 0.000000 0.600000
0.084733 -0.942039 -0.135297 0.300000 0.000000 0.600000
-0.234494 0.747218 0.122436 0.300000 0.000000 0.600000
-0.140016 0.106389 0.261579 0.000000 1.000000 0.000000
-0.120584 0.361625 -0.278801 0.300000 0.000000 0.600000
-0.289386 -0.732926 -0.123255 0.300000 0.000000 0.600000
0.226167 -0.677028 0.238874 0.300000 0.000000 0.600000
-0.253058 0.220814 -0.078731 0.300000 0.000000 0.600000
0.244568 0.402250 0.261579 0.000000 1.000000 0.000000
0.184260 0.901613 0.141538 0.300000 0.000000 0.600000
0.291864 0.460702 0.005016 0.300000 0.000000 0.600000
-0.087799 -0.239085 0.139956 0.500000 0.500000 0.000000
-0.249508 -0.631691 -0.278801 0.300000 0.000000 0.600000
0.139228 -0.239267 -0.054478 0.500000 0.500000 0.000000
-0.134554 -0.773242 0.238874 0.300000 0.000000 0.600000
0.256183 -0.546177 -0.030093 0.300000 0.000000 0.600000
-0.237543 -0.942039 -0.186046 0.300000 0.000000 0.600000
0.291864 -0.649739 -0.046153 0.300000 0.000000 0.600000
-0.131331 0.848958 -0.278801 0.300000 0.000000 0.600000
-0.134647 -0.648375 -0.278801 0.300000 0.000000 0.600000
-0.098640 0.901613 0.046595 0.300000 0.000000 0.600000
0.002972 -0.238309 0.039237 0.500000 0.500000 0.000000
-0.253058 0.132865 0.223896 0.300000 0.000000 0.600000
-0.081410 -0.698874 0.238874 0.600000 0.000000 0.300000
0.201876 -0.237225 -0.126985 0.500000 0.500000 0.000000
0.024238 -0.725568 0.310936 0.600000 0.000000 0.300000
-0.253058 -0.033392 -0.039028 0.300000 0.000000 0.600000
0.291864 -0.431310 -0.181640 0.300000 0.000000 0.600000
-0.033320 0.901613 0.154913 0.300000 0.000000 0.600000
-0.253058 0.646937 -0.218672 0.300000 0.000000 0.600000
0.007367 0.747218 -0.231639 0.300000 0.000000 0.600000
0.241092 0.747218 -0.063426 0.300000 0.000000 0.600000
-0.253058 0.062106 0.221263 0.300000 0.000000 0.600000
-0.253058 -0.048531 -0.204497 0.300000 0.000000 0.600000
-0.226660 -0.237231 0.103641 0.500000 0.500000 0.000000
0.291864 -0.166331 0.159361 0.300000 0.000000 0.600000
0.291864 -0.449412 0.258979 0.000000 0.000000 1.000000
-0.224539 -0.199913 0.261579 0.000000 1.000000 0.000000
0.256183 0.320763 -0.081005 0.300000 0.000000 0.600000
-0.253058 0.552230 -0.054359 0.300000 0.000000 0.600000
-0.206138 0.533333 -0.278801 0.300000 0.000000 0.600000
-0.205025 -0.437102 0.261579 0.000000 1.000000 0.000000
-0.253058 0.585129 -0.130496 0.300000 0.000000 0.600000
-0.075975 0.288846 0.261579 0.000000 1.000000 0.000000
0.190922 0.747218 -0.233838 0.300000 0.000000 0.600000
-0.109507 -0.624816 -0.213307 0.300000 0.000000 0.600000
-0.253058 -0.292795 -0.036631 0.300000 0.000000 0.600000
-0.022568 0.581150 -0.269719 0.300000 0.000000 0.600000
-0.172381 0.016923 0.101045 0.500000 0.000000 0.500000
0.291864 -0.286541 0.045144 0.300000 0.000000 0.600000
-0.170420 0.863917 0.295615 0.300000 0.000000 0.600000
-0.223052 -0.857606 -0.278801 0.300000 0.000000 0.600000
0.169902 -0.131457 -0.269719 0.300000 0.000000 0.600000
0.291864 0.861707 0.206374 0.300000 0.000000 0.600000
-0.253058 -0.210590 0.166637 0.300000 0.000000 0.600000
0.291864 0.070984 0.138631 0.300000 0.000000 0.600000
-0.289386 0.886731 -0.189747 0.300000 0.000000 0.600000
0.089883 -0.111705 -0.269719 0.300000 0.000000 0.600000
-0.289386 0.105427 0.090500 0.300000 0.000000 0.600000
0.234597 -0.839866 0.276781 0.600000 0.000000 0.300000
0.046880 0.017254 -0.095006 0.500000 0.000000 0.500000
0.109556 0.747218 -0.041070 0.300000 0.000000 0.600000
-0.012297 0.116274 0.261579 0.000000 1.000000 0.000000
-0.025136 0.283110 0.097320 0.000000 0.500000 0.500000
-0.113844 -0.942039 -0.178264 0.300000 0.000000 0.600000
-0.253058 -0.560855 -0.221442 0.300000 0.000000 0.600000
0.291864 0.300048 -0.127216 0.300000 0.000000 0.600000
-0.253058 0.746590 -0.038122 0.300000 0.000000 0.600000
0.183922 0.283335 0.060939 0.000000 0.500000 0.500000
0.155556 -0.881191 -0.278801 0.300000 0.000000 0.600000
0.287331 0.511479 0.238874 0.300000 0.000000 0.600000
-0.083672 -0.841470 0.238874 0.600000 0.000000 0.300000
-0.253058 0.109145 -0.090131 0.300000 0.000000 0.600000
0.076365 0.687789 0.257038 0.000000 1.000000 0.000000
-0.289386 0.275158 -0.245097 0.300000 0.000000 0.600000
-0.289386 -0.010898 -0.149401 0.300000 0.000000 0.600000
-0.152473 0.747218 0.046034 0.300000 0.000000 0.600000
0.059040 -0.030148 -0.278801 0.300000 0.000000 0.600000
-0.135378 -0.880735 0.296569 0.600000 0.000000 0.300000
-0.289386 -0.177281 -0.145936 0.300000 0.000000 0.600000
0.291864 0.130875 -0.080308 0.300000 0.000000 0.600000
-0.289386 -0.157426 0.112998 0.300000 0.000000 0.600000
-0.253058 -0.502828 -0.043687 0.300000 0.000000 0.600000
-0.289386 -0.940853 0.030409 0.300000 0.000000 0.600000
-0.289386 -0.540136 0.258336 0.000000 0.000000 1.000000
-0.039259 0.408706 0.257038 0.000000 1.000000 0.000000
0.283928 0.773524 -0.278801 0.300000 0.000000 0.600000
-0.279206 -0.642159 0.265292 0.000000 0.000000 1.000000
0.219667 -0.745773 -0.278801 0.300000 0.000000 0.600000
0.291864 -0.638533 -0.118765 0.300000 0.000000 0.600000
-0.214158 -0.857538 0.238874 0.600000 0.000000 0.300000
-0.124626 -0.586676 -0.269719 0.300000 0.000000 0.600000
0.192340 -0.730422 0.238874 0.600000 0.000000 0.300000
0.291864 -0.607104 0.063395 0.300000 0.000000 0.600000
0.256183 0.380672 -0.267834 0.300000 0.000000 0.600000
-0.289386 -0.603331 -0.159578 0.300000 0.000000 0.600000
-0.021091 0.456041 -0.278801 0.300000 0.000000 0.600000
0.291864 -0.731706 0.044251 0.300000 0.000000 0.600000
0.291864 0.866150 0.135187 0.300000 0.000000 0.600000
0.229038 0.843489 0.238874 0.300000 0.000000 0.600000
0.291864 -0.180018 -0.265594 0.300000 0.000000 0.600000
-0.253058 -0.598894 0.121496 0.300000 0.000000 0.600000
0.291864 0.217093 -0.032152 0.300000 0.000000 0.600000
0.291864 0.769172 0.146039 0.300000 0.000000 0.600000
-0.025666 0.017239 0.131027 0.500000 0.000000 0.500000
0.133132 -0.084869 0.261579 0.000000 1.000000 0.000000
-0.253058 -0.489005 0.086109 0.300000 0.000000 0.600000
0.061436 -0.824578 0.238874 0.300000 0.000000 0.600000
-0.289386 -0.698328 -0.195629 0.300000 0.000000 0.600000
-0.124650 0.166844 -0.269719 0.300000 0.000000 0.600000
-0.155377 -0.624816 -0.089085 0.300000 0.000000 0.600000
0.291864 0.049948 -0.128836 0.300000 0.000000 0.600000
-0.105319 -0.193113 0.257038 0.000000 1.000000 0.000000
0.256183 -0.070805 -0.074123 0.300000 0.000000 0.600000
0.284282 0.263295 0.264652 0.000000 0.000000 1.000000
0.256183 -0.345391 -0.106095 0.300000 0.000000 0.600000
-0.237140 0.284790 -0.010327 0.000000 0.500000 0.500000
0.256183 -0.514684 0.167938 0.300000 0.000000 0.600000
-0.181127 0.286051 -0.048184 0.000000 0.500000 0.500000
0.256183 0.656616 -0.096138 0.300000 0.000000 0.600000
0.075385 -0.239847 -0.136615 0.500000 0.500000 0.000000
0.256183 0.355191 0.112733 0.300000 0.000000 0.600000
0.291864 0.719470 -0.026644 0.300000 0.000000 0.600000
-0.213071 -0.089065 -0.278801 0.300000 0.000000 0.600000
0.291864 -0.786077 0.007309 0.300000 0.000000 0.600000
-0.011882 0.055181 0.257038 0.000000 1.000000 0.000000
-0.069269 0.527195 0.257038 0.000000 1.000000 0.000000
0.291864 -0.377444 0.127252 0.300000 0.000000 0.600000
-0.037951 -0.437049 -0.278801 0.300000 0.000000 0.600000
-0.227604 0.015280 -0.002752 0.500000 0.000000 0.500000
-0.185995 0.527238 0.261579 0.000000 1.000000 0.000000
-0.022160 -0.447181 0.261579 0.000000 1.000000 0.000000
0.291864 -0.863723 -0.110607 0.300000 0.000000 0.600000
0.200822 0.630437 -0.278801 0.300000 0.000000 0.600000
0.042122 0.514853 -0.269719 0.300000 0.000000 0.600000
-0.137139 -0.378869 0.257038 0.000000 1.000000 0.000000
-0.224603 -0.624816 0.188450 0.300000 0.000000 0.600000
0.055330 -0.624816 0.185223 0.300000 0.000000 0.600000
0.171988 0.015520 -0.105136 0.500000 0.000000 0.500000
0.291864 0.786191 -0.084958 0.300000 0.000000 0.600000
-0.289386 -0.382308 0.149687 0.300000 0.000000 0.600000
-0.200357 0.015272 -0.222246 0.500000 0.000000 0.500000
0.216503 -0.942039 0.024022 0.300000 0.000000 0.600000
0.218751 0.017224 -0.216248 0.500000 0.000000 0.500000
0.291864 -0.548994 -0.193760 0.300000 0.000000 0.600000
0.217437 -0.088124 -0.278801 0.300000 0.000000 0.600000
-0.241565 0.725429 0.261579 0.000000 1.000000 0.000000
-0.243976 0.017009 -0.106398 0.500000 0.000000 0.500000
0.291864 -0.233489 -0.001675 0.300000 0.000000 0.600000
-0.289386 0.461440 0.013867 0.300000 0.000000 0.600000
0.291864 0.011057 -0.046714 0.300000 0.000000 0.600000
-0.022771 0.747218 0.229056 0.300000 0.000000 0.600000
0.090566 0.762137 -0.278801 0.300000 0.000000 0.600000
0.130957 0.815614 0.292862 0.300000 0.000000 0.600000
0.256183 -0.039182 0.221307 0.300000 0.000000 0.600000
0.291864 -0.743889 -0.208812 0.300000 0.000000 0.600000
0.256183 0.679714 0.028578 0.300000 0.000000 0.600000
0.067153 -0.624816 -0.131860 0.300000 0.000000 0.600000
0.104830 -0.942039 -0.022471 0.300000 0.000000 0.600000
0.140679 0.447844 -0.269719 0.300000 0.000000 0.600000
-0.111703 0.747218 -0.264410 0.300000 0.000000 0.600000
0.256183 0.554647 0.128029 0.300000 0.000000 0.600000
0.256183 0.571445 0.037182 0.300000 0.000000 0.600000
0.291864 -0.007284 -0.155545 0.300000 0.000000 0.600000
0.039534 -0.683072 0.238874 0.600000 0.000000 0.300000
-0.195293 -0.624816 -0.217223 0.300000 0.000000 0.600000
0.173769 -0.942039 -0.235842 0.300000 0.000000 0.600000
0.256183 -0.281993 0.144170 0.300000 0.000000 0.600000
-0.289386 0.579571 0.111378 0.300000 0.000000 0.600000
0.027848 -0.624816 0.088032 0.300000 0.000000 0.600000
0.291864 -0.118674 -0.160780 0.300000 0.000000 0.600000
-0.289386 -0.336333 0.016775 0.300000 0.000000 0.600000
0.291864 -0.928305 0.251540 0.600000 0.000000 0.300000
-0.289386 -0.478628 -0.130593 0.300000 0.000000 0.600000
-0.041601 -0.788366 0.290642 0.600000 0.000000 0.300000
-0.143083 0.630737 0.257038 0.000000 1.000000 0.000000
0.274617 0.698293 -0.278801 0.300000 0.000000 0.600000
-0.289386 0.522450 0.207293 0.300000 0.000000 0.600000
-0.289386 -0.919439 -0.206688 0.300000 0.000000 0.600000
0.009771 0.901613 -0.016470 0.300000 0.000000 0.600000
-0.242694 -0.624816 -0.025005 0.300000 0.000000 0.600000
0.024560 0.282183 0.257038 0.000000 1.000000 0.000000
0.256183 0.537244 -0.225995 0.300000 0.000000 0.600000
0.288492 -0.942039 -0.108470 0.300000 0.000000 0.600000
-0.014316 0.842270 -0.278801 0.300000 0.000000 0.600000
0.291864 -0.440855 0.021466 0.300000 0.000000 0.600000
-0.253058 -0.063166 -0.127934 0.300000 0.000000 0.600000
0.008517 0.015367 -0.226175 0.500000 0.000000 0.500000
0.256183 0.700887 -0.135341 0.300000 0.000000 0.600000
-0.073501 -0.922747 0.306698 0.600000 0.000000 0.300000
0.163526 0.285932 -0.221367 0.000000 0.500000 0.500000
-0.253058 0.701692 0.055843 0.300000 0.000000 0.600000
0.137964 0.282768 -0.117345 0.000000 0.500000 0.500000
-0.015156 -0.239185 -0.229512 0.500000 0.500000 0.000000
-0.253058 -0.350528 -0.085411 0.300000 0.000000 0.600000
-0.269485 0.901613 0.212338 0.300000 0.000000 0.600000
-0.121456 -0.818911 0.300771 0.600000 0.000000 0.300000
-0.289386 0.548266 -0.162019 0.300000 0.000000 0.600000
0.249347 0.066104 0.261579 0.000000 1.000000 0.000000
0.254035 -0.624816 -0.251056 0.300000 0.000000 0.600000
-0.289386 -0.105541 0.155784 0.300000 0.000000 0.600000
0.291864 0.306119 -0.217318 0.300000 0.000000 0.600000
-0.254488 -0.942039 -0.105177 0.300000 0.000000 0.600000
0.291864 0.161779 0.086327 0.300000 0.000000 0.600000
0.225681 -0.103730 0.257038 0.000000 1.000000 0.000000
0.256183 0.428966 -0.085975 0.300000 0.000000 0.600000
-0.115365 0.790472 0.238874 0.300000 0.000000 0.600000
0.291864 -0.098585 0.044177 0.300000 0.000000 0.600000
-0.289386 0.604040 -0.238012 0.300000 0.000000 0.600000
0.253123 0.020008 0.154368 0.500000 0.000000 0.500000
-0.052014 0.283792 -0.234395 0.000000 0.500000 0.500000
-0.136167 -0.455912 -0.278801 0.300000 0.000000 0.600000
0.256183 -0.341813 0.216961 0.300000 0.000000 0.600000
0.291864 -0.735583 0.212707 0.300000 0.000000 0.600000
0.256183 -0.143148 0.020846 0.300000 0.000000 0.600000
-0.236348 -0.406505 -0.278801 0.300000 0.000000 0.600000
0.256183 -0.161954 0.210425 0.300000 0.000000 0.600000
0.256183 0.205358 0.198973 0.300000 0.000000 0.600000
-0.289386 -0.726743 0.163372 0.300000 0.000000 0.600000
-0.253058 0.666939 0.218325 0.300000 0.000000 0.600000
0.185154 -0.279725 0.261579 0.000000 1.000000 0.000000
0.256183 0.621098 -0.228687 0.300000 0.000000 0.600000
0.291864 0.835777 -0.032498 0.300000 0.000000 0.600000
-0.089905 0.734307 0.257038 0.000000 1.000000 0.000000
0.141030 0.110159 -0.278801 0.300000 0.000000 0.600000
-0.289386 0.504886 -0.211601 0.300000 0.000000 0.600000
-0.289386 -0.318354 0.119135 0.300000 0.000000 0.600000
0.256183 0.002841 0.056232 0.300000 0.000000 0.600000
0.141739 -0.685982 -0.278801 0.300000 0.000000 0.600000
0.291864 0.607767 0.004953 0.300000 0.000000 0.600000
0.291864 -0.744419 -0.141073 0.300000 0.000000 0.600000
-0.289386 -0.888831 -0.017570 0.300000 0.000000 0.600000
0.291864 -0.512859 -0.258407 0.300000 0.000000 0.600000
-0.126556 0.265829 -0.278801 0.300000 0.000000 0.600000
0.210523 -0.624816 0.133275 0.300000 0.000000 0.600000
-0.121612 0.039044 0.200974 0.500000 0.000000 0.500000
-0.221125 0.003233 0.261579 0.000000 1.000000 0.000000
0.075616 0.747218 0.009685 0.300000 0.000000 0.600000
0.163329 -0.239982 -0.206202 0.500000 0.500000 0.000000
0.291864 0.392542 -0.125719 0.300000 0.000000 0.600000
-0.289386 -0.011785 0.085263 0.300000 0.000000 0.600000
0.291864 -0.074208 0.193510 0.300000 0.000000 0.600000
0.291864 -0.493021 -0.167475 0.300000 0.000000 0.600000
-0.149841 0.901613 0.195411 0.300000 0.000000 0.600000
-0.253058 -0.464582 0.202686 0.300000 0.000000 0.600000
-0.239681 0.223486 -0.269719 0.300000 0.000000 0.600000
0.291864 -0.674739 0.004754 0.300000 0.000000 0.600000
-0.253058 0.252961 0.106934 0.300000 0.000000 0.600000
0.080388 -0.106613 0.261579 0.000000 1.000000 0.000000
0.291864 0.307667 0.207516 0.300000 0.000000 0.600000
-0.235379 -0.237081 -0.019279 0.500000 0.500000 0.000000
-0.227573 -0.238405 -0.210655 0.500000 0.500000 0.000000
0.031905 0.644524 -0.269719 0.300000 0.000000 0.600000
0.256183 -0.121762 0.119044 0.300000 0.000000 0.600000
0.155812 0.017260 -0.235335 0.500000 0.000000 0.500000
0.152467 0.898500 -0.278801 0.300000 0.000000 0.600000
0.208285 0.747218 -0.015739 0.300000 0.000000 0.600000
-0.233569 0.015759 0.184382 0.500000 0.000000 0.500000
0.261555 -0.561831 0.247956 0.000000 0.000000 1.000000
-0.289386 0.368702 -0.146504 0.300000 0.000000 0.600000
-0.253058 0.214396 0.226104 0.300000 0.000000 0.600000
0.169285 0.190729 0.257038 0.000000 1.000000 0.000000
-0.155160 0.303322 0.193464 0.000000 0.500000 0.500000
0.001719 0.282756 -0.117392 0.000000 0.500000 0.500000
0.291864 -0.343861 0.045608 0.300000 0.000000 0.600000
0.253379 -0.942039 0.165360 0.300000 0.000000 0.600000
0.142894 0.890006 0.238874 0.300000 0.000000 0.600000
-0.090592 0.549922 -0.278801 0.300000 0.000000 0.600000
-0.148558 -0.493788 0.257038 0.000000 1.000000 0.000000
-0.008906 0.028561 0.202546 0.500000 0.000000 0.500000
-0.189486 0.286000 -0.109572 0.000000 0.500000 0.500000
0.038916 0.016667 -0.162475 0.500000 0.000000 0.500000
0.272121 0.761172 0.266041 0.000000 0.000000 1.000000
0.190187 -0.239150 0.067391 0.500000 0.500000 0.000000
0.162214 -0.363028 0.257038 0.000000 1.000000 0.000000
-0.163028 -0.237207 0.137893 0.500000 0.500000 0.000000
0.160041 0.747218 0.064964 0.300000 0.000000 0.600000
0.124430 -0.588889 -0.269719 0.300000 0.000000 0.600000
0.277268 0.252418 -0.278801 0.300000 0.000000 0.600000
0.256183 -0.307980 -0.167503 0.300000 0.000000 0.600000
-0.289386 0.636846 -0.009277 0.300000 0.000000 0.600000
-0.280634 -0.003878 -0.278801 0.300000 0.000000 0.600000
0.291864 -0.911816 -0.230144 0.300000 0.000000 0.600000
0.256183 0.079509 0.019919 0.300000 0.000000 0.600000
-0.261105 0.760701 -0.278801 0.300000 0.000000 0.600000
0.143037 -0.942039 0.057646 0.300000 0.000000 0.600000
0.116929 -0.942039 -0.221126 0.300000 0.000000 0.600000
0.291864 0.592940 0.194896 0.300000 0.000000 0.600000
-0.280304 0.478178 0.244236 0.000000 0.000000 1.000000
-0.289386 0.840759 -0.270214 0.300000 0.000000 0.600000
0.291864 0.542417 0.169418 0.300000 0.000000 0.600000
0.256183 -0.354772 -0.204773 0.300000 0.000000 0.600000
-0.289386 -0.878529 0.096301 0.300000 0.000000 0.600000
-0.022674 -0.606603 -0.269719 0.300000 0.000000 0.600000
0.081724 0.282618 -0.016594 0.000000 0.500000 0.500000
-0.028518 0.165649 -0.278801 0.300000 0.000000 0.600000
0.256183 -0.572327 -0.229400 0.300000 0.000000 0.600000
-0.261489 -0.577470 -0.278801 0.300000 0.000000 0.600000
0.291864 -0.793599 -0.240575 0.300000 0.000000 0.600000
-0.079277 -0.750165 -0.278801 0.300000 0.000000 0.600000
0.051210 -0.942039 0.076680 0.300000 0.000000 0.600000
0.102184 -0.901170 0.290765 0.600000 0.000000 0.300000
0.057943 0.178929 -0.278801 0.300000 0.000000 0.600000
-0.289386 0.853077 0.118608 0.300000 0.000000 0.600000
-0.289386 0.782029 -0.096038 0.300000 0.000000 0.600000
-0.253058 -0.434108 0.078922 0.300000 0.000000 0.600000
0.256183 0.089580 -0.200029 0.300000 0.000000 0.600000
0.139576 -0.019675 0.261579 0.000000 1.000000 0.000000
0.020022 0.013775 0.040715 0.500000 0.000000 0.500000
0.291864 0.162960 -0.000825 0.300000 0.000000 0.600000
-0.289386 0.187800 -0.180352 0.300000 0.000000 0.600000
0.256183 0.485807 -0.100614 0.300000 0.000000 0.600000
-0.253058 0.618005 0.091459 0.300000 0.000000 0.600000
-0.285427 0.407556 -0.278801 0.300000 0.000000 0.600000
0.256183 -0.340458 0.003640 0.300000 0.000000 0.600000
0.291864 0.336404 0.005399 0.300000 0.000000 0.600000
-0.174045 0.808900 0.294952 0.300000 0.000000 0.600000
-0.253058 0.422446 -0.161076 0.300000 0.000000 0.600000
0.236555 0.315198 0.257038 0.000000 1.000000 0.000000
0.230006 -0.819374 -0.278801 0.300000 0.000000 0.600000
-0.253058 -0.453679 -0.224854 0.300000 0.000000 0.600000
0.256183 0.517751 0.025061 0.300000 0.000000 0.600000
0.045559 -0.284409 0.261579 0.000000 1.000000 0.000000
-0.195726 0.670579 -0.269719 0.300000 0.000000 0.600000
0.231395 0.455632 0.261579 0.000000 1.000000 0.000000
-0.235759 -0.926701 0.238874 0.300000 0.000000 0.600000
0.218608 -0.240530 0.002259 0.500000 0.500000 0.000000
0.256183 -0.147071 -0.077005 0.300000 0.000000 0.600000
-0.082840 -0.468930 -0.278801 0.300000 0.000000 0.600000
0.079611 0.298045 0.202546 0.000000 0.500000 0.500000
-0.084094 -0.261804 -0.278801 0.300000 0.000000 0.600000
0.000915 -0.369216 0.261579 0.000000 1.000000 0.000000
0.037711 -0.068607 0.257038 0.000000 1.000000 0.000000
0.239839 -0.233120 -0.278801 0.300000 0.000000 0.600000
-0.145817 -0.086836 0.257038 0.000000 1.000000 0.000000
0.185485 0.805804 0.293314 0.300000 0.000000 0.600000
0.107038 -0.942039 0.165152 0.300000 0.000000 0.600000
0.291864 0.255544 -0.175300 0.300000 0.000000 0.600000
-0.253058 -0.277903 -0.145527 0.300000 0.000000 0.600000
-0.253058 0.183577 0.051273 0.300000 0.000000 0.600000
0.229462 -0.171372 0.257038 0.000000 1.000000 0.000000
0.291864 -0.892795 0.065041 0.300000 0.000000 0.600000
-0.023255 -0.009551 -0.269719 0.300000 0.000000 0.600000
-0.289386 -0.676457 -0.087285 0.300000 0.000000 0.600000
0.182293 0.289044 0.257038 0.000000 1.000000 0.000000
-0.289373 -0.228838 -0.278801 0.300000 0.000000 0.600000
0.078131 -0.342922 -0.269719 0.300000 0.000000 0.600000
-0.112777 0.328790 0.261579 0.000000 1.000000 0.000000
0.256183 -0.092166 -0.210256 0.300000 0.000000 0.600000
0.228731 0.282726 -0.026049 0.000000 0.500000 0.500000
0.045490 0.783534 0.253314 0.000000 0.000000 1.000000
-0.289386 0.770214 0.181796 0.300000 0.000000 0.600000
0.233792 -0.895093 0.238874 0.600000 0.000000 0.300000
0.023682 0.450952 0.257038 0.000000 1.000000 0.000000
0.256183 -0.567133 0.029393 0.300000 0.000000 0.600000
0.256183 0.408728 -0.163421 0.300000 0.000000 0.600000
-0.120977 -0.942039 -0.008461 0.300000 0.000000 0.600000
0.157583 -0.190549 0.257038 0.000000 1.000000 0.000000
-0.253058 0.440515 -0.216244 0.300000 0.000000 0.600000
-0.253058 0.145379 -0.036276 0.300000 0.000000 0.600000
0.200790 0.013684 0.054390 0.500000 0.000000 0.500000
0.176134 0.396413 0.261579 0.000000 1.000000 0.000000
0.291864 -0.111516 0.232731 0.300000 0.000000 0.600000
-0.253058 -0.115864 -0.140161 0.300000 0.000000 0.600000
0.256183 0.503079 0.103273 0.300000 0.000000 0.600000
-0.024518 0.747218 0.099383 0.300000 0.000000 0.600000
0.018779 -0.515125 -0.269719 0.300000 0.000000 0.600000
-0.269198 0.707360 -0.278801 0.300000 0.000000 0.600000
0.256183 -0.263897 -0.096801 0.300000 0.000000 0.600000
-0.243724 0.485715 -0.269719 0.300000 0.000000 0.600000
0.131182 -0.617311 0.257038 0.000000 1.000000 0.000000
0.256183 -0.071544 0.013476 0.300000 0.000000 0.600000
-0.244726 0.288497 -0.215200 0.000000 0.500000 0.500000
0.021579 0.901613 -0.227403 0.300000 0.000000 0.600000
-0.236440 -0.942039 0.162630 0.300000 0.000000 0.600000
0.019592 -0.349570 -0.269719 0.300000 0.000000 0.600000
0.231018 0.583274 0.257038 0.000000 1.000000 0.000000
0.014141 -0.179691 0.261579 0.000000 1.000000 0.000000
-0.155473 0.608247 -0.269719 0.300000 0.000000 0.600000
-0.150029 -0.844674 -0.278801 0.300000 0.000000 0.600000
0.140867 -0.909362 0.238874 0.300000 0.000000 0.600000
-0.181873 0.829824 -0.278801 0.300000 0.000000 0.600000
0.291864 0.262988 0.066336 0.300000 0.000000 0.600000
0.256183 0.355309 0.198773 0.300000 0.000000 0.600000
-0.216839 0.773011 0.265364 0.000000 0.000000 1.000000
0.291864 0.774433 0.066860 0.300000 0.000000 0.600000
-0.289386 0.368177 0.110205 0.300000 0.000000 0.600000
-0.253058 -0.580527 -0.062737 0.300000 0.000000 0.600000
0.171545 -0.624816 -0.146188 0.300000 0.000000 0.600000
0.020829 -0.942039 0.197321 0.300000 0.000000 0.600000
0.069571 0.151152 0.261579 0.000000 1.000000 0.000000
-0.073686 -0.354887 -0.269719 0.300000 0.000000 0.600000
0.240985 -0.624816 -0.128760 0.300000 0.000000 0.600000
-0.153733 0.747218 -0.225275 0.300000 0.000000 0.600000
-0.222246 0.747218 -0.152235 0.300000 0.000000 0.600000
-0.253058 -0.515652 -0.117411 0.300000 0.000000 0.600000
0.291864 0.236762 0.113331 0.300000 0.000000 0.600000
0.254568 0.165414 0.257038 0.000000 1.000000 0.000000
-0.219093 0.901613 0.033486 0.300000 0.000000 0.600000
-0.289386 -0.128270 0.261249 0.000000 0.000000 1.000000
-0.253058 0.435380 0.074057 0.300000 0.000000 0.600000
0.256183 0.053205 0.100482 0.300000 0.000000 0.600000
-0.250542 0.889875 0.277466 0.300000 0.000000 0.600000
-0.289386 0.102215 0.196735 0.300000 0.000000 0.600000
-0.006307 0.694400 -0.278801 0.300000 0.000000 0.600000
-0.289386 -0.466066 -0.016709 0.300000 0.000000 0.600000
0.291864 0.035076 0.187941 0.300000 0.000000 0.600000
-0.200525 -0.579583 0.261579 0.000000 1.000000 0.000000
-0.253058 0.327858 0.150471 0.300000 0.000000 0.600000
0.038524 -0.223946 0.202546 0.500000 0.500000 0.000000
0.201009 -0.773146 0.290244 0.600000 0.000000 0.300000
0.290070 0.072194 -0.278801 0.300000 0.000000 0.600000
-0.289386 -0.137905 0.012032 0.300000 0.000000 0.600000
-0.289386 0.029992 0.118548 0.300000 0.000000 0.600000
0.099469 -0.238161 0.135125 0.500000 0.500000 0.000000
-0.112783 -0.942039 0.222081 0.300000 0.000000 0.600000
0.256183 -0.036285 -0.220506 0.300000 0.000000 0.600000
-0.253058 -0.477303 0.150118 0.300000 0.000000 0.600000
0.092624 0.331189 -0.269719 0.300000 0.000000 0.600000
-0.289386 0.852355 0.011353 0.300000 0.000000 0.600000
0.223343 0.472220 -0.269719 0.300000 0.000000 0.600000
-0.289386 -0.640716 -0.005620 0.300000 0.000000 0.600000
0.078933 -0.432423 0.261579 0.000000 1.000000 0.000000
0.116697 -0.674550 0.268383 0.600000 0.000000 0.300000
0.141308 -0.234288 -0.261673 0.500000 0.500000 0.000000
-0.006424 -0.755243 -0.278801 0.300000 0.000000 0.600000
-0.289386 0.265669 -0.084930 0.300000 0.000000 0.600000
-0.289386 0.148140 -0.251532 0.300000 0.000000 0.600000
-0.289386 -0.339952 -0.277372 0.300000 0.000000 0.600000
-0.228833 -0.711238 0.238874 0.300000 0.000000 0.600000
-0.043130 0.253960 -0.278801 0.300000 0.000000 0.600000
0.291562 0.834547 -0.278801 0.300000 0.000000 0.600000
0.255764 -0.702630 -0.278801 0.300000 0.000000 0.600000
0.139494 -0.831950 0.238874 0.600000 0.000000 0.300000
-0.289044 0.048208 -0.278801 0.300000 0.000000 0.600000
-0.036742 0.901613 -0.125862 0.300000 0.000000 0.600000
0.195454 -0.692283 0.278967 0.600000 0.000000 0.300000
-0.139090 0.198456 0.257038 0.000000 1.000000 0.000000
-0.289386 -0.840622 0.004918 0.300000 0.000000 0.600000
0.291864 0.709494 -0.173217 0.300000 0.000000 0.600000
-0.104551 0.901613 -0.005791 0.300000 0.000000 0.600000
-0.289386 -0.778398 0.135323 0.300000 0.000000 0.600000
-0.193848 -0.808923 0.238874 0.300000 0.000000 0.600000
-0.289386 0.103313 -0.219125 0.300000 0.000000 0.600000
0.163965 0.760623 0.265744 0.000000 0.000000 1.000000
0.256183 0.540765 -0.041863 0.300000 0.000000 0.600000
-0.289386 0.601047 -0.095976 0.300000 0.000000 0.600000
0.213704 -0.624816 -0.009068 0.300000 0.000000 0.600000
-0.248398 0.020008 0.049929 0.500000 0.000000 0.500000
0.107609 0.901613 -0.068569 0.300000 0.000000 0.600000
-0.253058 -0.185247 0.078328 0.300000 0.000000 0.600000
0.108817 0.285842 0.092694 0.000000 0.500000 0.500000
-0.024688 0.101335 -0.278801 0.300000 0.000000 0.600000
-0.253058 0.373369 0.030978 0.300000 0.000000 0.600000
-0.077299 0.650246 -0.269719 0.300000 0.000000 0.600000
-0.289386 0.362744 0.233682 0.300000 0.000000 0.600000
0.291864 0.585910 -0.109603 0.300000 0.000000 0.600000
-0.253058 0.703171 -0.223505 0.300000 0.000000 0.600000
0.202247 -0.491262 -0.269719 0.300000 0.000000 0.600000
0.291864 -0.400852 0.055511 0.300000 0.000000 0.600000
-0.115909 0.283173 -0.141025 0.000000 0.500000 0.500000
-0.261826 -0.869654 0.270517 0.600000 0.000000 0.300000
-0.289386 0.232260 0.010921 0.300000 0.000000 0.600000
0.256183 -0.372893 -0.037507 0.300000 0.000000 0.600000
0.227675 0.282458 0.148405 0.000000 0.500000 0.500000
0.111698 -0.239866 0.005098 0.500000 0.500000 0.000000
-0.038013 0.172095 0.257038 0.000000 1.000000 0.000000
0.236404 -0.421841 -0.278801 0.300000 0.000000 0.600000
0.238492 0.891520 0.281370 0.300000 0.000000 0.600000
0.291864 -0.169103 -0.147166 0.300000 0.000000 0.600000
0.073632 0.747218 -0.231713 0.300000 0.000000 0.600000
0.075786 0.130706 -0.269719 0.300000 0.000000 0.600000
0.291864 0.429735 0.049325 0.300000 0.000000 0.600000
-0.253058 0.611144 0.162251 0.300000 0.000000 0.600000
0.168939 -0.942039 0.151268 0.300000 0.000000 0.600000
-0.289386 -0.808249 -0.216600 0.300000 0.000000 0.600000
0.181089 0.015270 -0.020691 0.500000 0.000000 0.500000
0.291864 -0.644702 0.121727 0.300000 0.000000 0.600000
0.256183 0.730314 0.010905 0.300000 0.000000 0.600000
-0.248858 0.064853 0.282640 1.000000 0.000000 0.000000
0.123852 0.901613 0.127898 0.300000 0.000000 0.600000
0.256183 0.214367 -0.169243 0.300000 0.000000 0.600000
0.146080 -0.624816 0.033781 0.300000 0.000000 0.600000
0.256183 0.023307 -0.101866 0.300000 0.000000 0.600000
-0.289386 -0.861442 -0.139033 0.300000 0.000000 0.600000
0.291864 -0.201747 0.215619 0.300000 0.000000 0.600000
-0.253058 0.036883 -0.042642 0.300000 0.000000 0.600000
-0.059953 0.747218 0.142174 0.300000 0.000000 0.600000
0.291864 0.602297 0.084926 0.300000 0.000000 0.600000
-0.253058 0.508891 -0.122927 0.300000 0.000000 0.600000
0.120797 0.867194 0.303684 0.300000 0.000000 0.600000
0.291864 -0.545733 0.118201 0.300000 0.000000 0.600000
-0.034338 0.747218 -0.007903 0.300000 0.000000 0.600000
-0.110484 0.094770 -0.278801 0.300000 0.000000 0.600000
-0.066455 -0.339456 0.257038 0.000000 1.000000 0.000000
0.106539 -0.819432 0.297618 0.600000 0.000000 0.300000
0.291864 -0.465471 -0.096164 0.300000 0.000000 0.600000
0.291864 0.110635 0.171868 0.300000 0.000000 0.600000
-0.039646 -0.942039 0.226527 0.300000 0.000000 0.600000
-0.289386 -0.390418 -0.039520 0.300000 0.000000 0.600000
-0.115876 -0.237289 -0.183634 0.500000 0.500000 0.000000
-0.042760 -0.237710 -0.118409 0.500000 0.500000 0.000000
-0.289386 0.727255 0.153118 0.300000 0.000000 0.600000
0.240049 -0.499355 0.257038 0.000000 1.000000 0.000000
0.256183 0.258787 -0.138156 0.300000 0.000000 0.600000
-0.289386 -0.271242 0.140143 0.300000 0.000000 0.600000
0.078524 0.636457 0.261579 0.000000 1.000000 0.000000
-0.253058 0.456890 0.134392 0.300000 0.000000 0.600000
0.291864 -0.905044 -0.009173 0.300000 0.000000 0.600000
-0.253058 -0.543444 0.191623 0.300000 0.000000 0.600000
-0.146343 0.747218 0.213885 0.300000 0.000000 0.600000
-0.253058 -0.105053 0.112627 0.300000 0.000000 0.600000
-0.187351 -0.751398 -0.278801 0.300000 0.000000 0.600000
0.291864 0.899933 -0.205040 0.300000 0.000000 0.600000
0.073056 -0.771193 0.238874 0.300000 0.000000 0.600000
0.256183 -0.311368 0.074055 0.300000 0.000000 0.600000
0.291864 0.898535 -0.096239 0.300000 0.000000 0.600000
-0.149028 -0.624816 0.132781 0.300000 0.000000 0.600000
0.131620 0.335617 0.261579 0.000000 1.000000 0.000000
-0.289386 0.313638 -0.063648 0.300000 0.000000 0.600000
0.095315 -0.421041 -0.269719 0.300000 0.000000 0.600000
0.291864 0.768789 -0.200520 0.300000 0.000000 0.600000
0.233090 0.522663 -0.269719 0.300000 0.000000 0.600000
0.256183 -0.428909 0.138609 0.300000 0.000000 0.600000
-0.253058 0.511198 0.049246 0.300000 0.000000 0.600000
0.291864 -0.410193 0.204986 0.300000 0.000000 0.600000
0.069981 0.358051 0.257038 0.000000 1.000000 0.000000
-0.289386 0.506477 -0.053374 0.300000 0.000000 0.600000
-0.178937 -0.237781 0.017513 0.500000 0.500000 0.000000
-0.237454 -0.280339 -0.278801 0.300000 0.000000 0.600000
0.037320 0.286043 0.077005 0.000000 0.500000 0.500000
0.073047 -0.597162 -0.278801 0.300000 0.000000 0.600000
0.199588 0.027815 -0.269719 0.300000 0.000000 0.600000
-0.071613 0.874103 0.308423 0.300000 0.000000 0.600000
-0.289386 0.599441 0.058896 0.300000 0.000000 0.600000
-0.055678 -0.214485 0.199715 0.500000 0.500000 0.000000
0.256183 -0.197408 -0.220736 0.300000 0.000000 0.600000
0.291864 0.488719 0.193460 0.300000 0.000000 0.600000
0.256183 -0.187496 0.085172 0.300000 0.000000 0.600000
0.256183 0.123942 0.220553 0.300000 0.000000 0.600000
0.009527 0.675282 0.257038 0.000000 1.000000 0.000000
0.171302 0.622501 0.261579 0.000000 1.000000 0.000000
-0.127915 -0.001975 -0.278801 0.300000 0.000000 0.600000
-0.078963 0.459467 0.257038 0.000000 1.000000 0.000000
0.256183 -0.050615 -0.147457 0.300000 0.000000 0.600000
-0.108292 -0.624816 0.231258 0.300000 0.000000 0.600000
0.126445 0.714609 0.261579 0.000000 1.000000 0.000000
0.057309 0.039612 0.193464 0.500000 0.000000 0.500000
-0.253058 -0.191884 -0.046024 0.300000 0.000000 0.600000
-0.253058 0.001892 -0.197966 0.300000 0.000000 0.600000
-0.022621 0.597220 0.261579 0.000000 1.000000 0.000000
-0.289386 -0.356861 0.205588 0.300000 0.000000 0.600000
0.291864 -0.327269 0.250058 0.000000 0.000000 1.000000
0.256183 -0.287326 -0.255381 0.300000 0.000000 0.600000
-0.239610 0.330372 -0.278801 0.300000 0.000000 0.600000
-0.236679 0.525033 0.261579 0.000000 1.000000 0.000000
0.256183 0.617799 0.220975 0.300000 0.000000 0.600000
-0.222025 -0.942039 -0.037886 0.300000 0.000000 0.600000
-0.289386 0.682291 -0.136180 0.300000 0.000000 0.600000
0.291864 0.432967 -0.047404 0.300000 0.000000 0.600000
0.211417 0.086417 -0.278801 0.300000 0.000000 0.600000
0.256183 -0.394138 -0.151065 0.300000 0.000000 0.600000
0.238997 0.825158 -0.278801 0.300000 0.000000 0.600000
0.080133 0.901613 0.172032 0.300000 0.000000 0.600000
-0.123572 -0.361972 -0.278801 0.300000 0.000000 0.600000
0.074106 0.747218 -0.139777 0.300000 0.000000 0.600000
0.256183 -0.580029 -0.107937 0.300000 0.000000 0.600000
-0.289386 0.780012 -0.202441 0.300000 0.000000 0.600000
-0.052211 0.016938 -0.233132 0.500000 0.000000 0.500000
0.058991 -0.677445 -0.278801 0.300000 0.000000 0.600000
-0.289386 0.719438 0.024405 0.300000 0.000000 0.600000
-0.234638 -0.747412 0.274657 0.600000 0.000000 0.300000
-0.048419 0.901613 0.229041 0.300000 0.000000 0.600000
0.001279 0.411567 -0.269719 0.300000 0.000000 0.600000
-0.247977 -0.362891 0.257038 0.000000 1.000000 0.000000
-0.209783 0.840568 0.238874 0.300000 0.000000 0.600000
0.256183 -0.036839 0.119409 0.300000 0.000000 0.600000
0.110093 0.017267 -0.192985 0.500000 0.000000 0.500000
0.200628 0.282458 -0.148742 0.000000 0.500000 0.500000
0.015465 -0.683114 0.285149 0.600000 0.000000 0.300000
-0.253058 -0.018260 0.228999 0.300000 0.000000 0.600000
-0.001791 -0.839104 -0.278801 0.300000 0.000000 0.600000
0.090855 0.455131 -0.269719 0.300000 0.000000 0.600000
-0.289386 -0.264131 0.009260 0.300000 0.000000 0.600000
0.291864 -0.767492 -0.048315 0.300000 0.000000 0.600000
0.291864 -0.901371 -0.077260 0.300000 0.000000 0.600000
0.207567 -0.938586 0.238874 0.600000 0.000000 0.300000
-0.185761 0.901613 -0.154791 0.300000 0.000000 0.600000
0.211424 0.284282 -0.242301 0.000000 0.500000 0.500000
0.291864 0.686804 0.169482 0.300000 0.000000 0.600000
0.008161 0.284997 -0.212439 0.000000 0.500000 0.500000
-0.156836 -0.011450 0.257038 0.000000 1.000000 0.000000
-0.289386 -0.349141 -0.186606 0.300000 0.000000 0.600000
-0.013195 -0.942039 0.126744 0.300000 0.000000 0.600000
-0.075381 0.230142 0.261579 0.000000 1.000000 0.000000
-0.028993 0.901613 -0.224864 0.300000 0.000000 0.600000
0.184122 0.283817 -0.051540 0.000000 0.500000 0.500000
0.291864 -0.236653 0.058797 0.300000 0.000000 0.600000
-0.159974 -0.942039 -0.122437 0.300000 0.000000 0.600000
-0.248358 0.279721 -0.155848 0.000000 0.500000 0.500000
-0.253058 0.581664 0.229926 0.300000 0.000000 0.600000
0.269242 -0.207845 0.265780 0.000000 0.000000 1.000000
-0.253058 -0.276687 0.087637 0.300000 0.000000 0.600000
0.256183 0.681140 -0.046476 0.300000 0.000000 0.600000
0.005792 -0.253157 -0.278801 0.300000 0.000000 0.600000
0.003290 0.843956 0.311477 0.300000 0.000000 0.600000
-0.009339 0.751777 -0.278801 0.300000 0.000000 0.600000
-0.224401 -0.179075 -0.269719 0.300000 0.000000 0.600000
-0.253058 -0.427695 -0.091670 0.300000 0.000000 0.600000
-0.225671 -0.349728 -0.278801 0.300000 0.000000 0.600000
-0.289386 -0.401529 0.097696 0.300000 0.000000 0.600000
-0.257402 0.612030 -0.278801 0.300000 0.000000 0.600000
0.103897 0.037145 -0.269719 0.300000 0.000000 0.600000
-0.289386 -0.022160 0.150775 0.300000 0.000000 0.600000
-0.226960 0.108223 0.261579 0.000000 1.000000 0.000000
-0.289386 -0.649166 -0.204999 0.300000 0.000000 0.600000
-0.253058 -0.588630 0.016801 0.300000 0.000000 0.600000
0.011799 -0.437178 -0.278801 0.300000 0.000000 0.600000
-0.146152 0.747218 0.164140 0.300000 0.000000 0.600000
-0.075361 -0.942039 -0.229059 0.300000 0.000000 0.600000
-0.289386 -0.574799 0.216964 0.300000 0.000000 0.600000
-0.183271 0.289966 -0.278801 0.300000 0.000000 0.600000
-0.125771 -0.255115 0.257038 0.000000 1.000000 0.000000
0.059461 0.901613 -0.096235 0.300000 0.000000 0.600000
-0.287627 0.901613 0.005018 0.300000 0.000000 0.600000
-0.289386 -0.328219 -0.059896 0.300000 0.000000 0.600000
-0.253058 0.746760 -0.196067 0.300000 0.000000 0.600000
-0.243984 0.011773 -0.249214 0.500000 0.000000 0.500000
-0.289386 -0.066646 -0.045166 0.300000 0.000000 0.600000
0.250742 -0.234288 -0.035845 0.500000 0.500000 0.000000
0.171555 0.747218 -0.188176 0.300000 0.000000 0.600000
0.142846 -0.713612 0.238874 0.300000 0.000000 0.600000
-0.054211 -0.624816 -0.213999 0.300000 0.000000 0.600000
0.291864 -0.602640 0.156005 0.300000 0.000000 0.600000
0.256183 0.631020 0.117233 0.300000 0.000000 0.600000
-0.184669 0.392886 -0.278801 0.300000 0.000000 0.600000
0.215921 -0.942039 -0.261759 0.300000 0.000000 0.600000
0.032157 0.901613 0.083481 0.300000 0.000000 0.600000
