ply
format ascii 1.0
element vertex 1255
property float x
property float y
property float z
property uchar red
property uchar green
property uchar blue
end_header
0.527347 -0.433153 -0.000809 76 153 0
0.496267 -0.484913 0.056704 0 127 127
-0.000445 -0.460318 -0.162586 0 255 0
-0.029157 0.505051 -0.074286 153 0 76
-0.526207 -0.471413 -0.152778 127 0 127
-0.589999 -0.485521 0.015921 127 127 0
-0.442190 -0.458359 -0.148408 127 0 127
-0.553059 -0.382814 -0.127756 127 0 127
0.485162 -0.219253 -0.122993 76 153 0
0.018021 -0.077343 -0.109844 153 0 76
0.551901 -0.367881 -0.132280 76 153 0
0.044078 0.531342 0.548235 204 51 127
0.008304 -0.475572 -0.206207 255 0 0
-0.548403 -0.479237 -0.144941 127 127 0
-0.001167 0.574278 -0.046050 153 0 76
-0.488790 -0.301169 -0.132528 127 0 127
-0.012206 0.307095 -0.109144 153 0 76
-0.106892 -0.472127 -0.104053 255 0 0
-0.003713 0.171720 -0.046679 153 0 76
0.099748 -0.474190 -0.004640 255 0 0
0.038376 0.831342 0.444368 153 0 76
0.038513 0.763454 -0.051734 153 0 76
0.611200 -0.112144 -0.105494 76 153 0
0.441581 -0.325780 -0.049347 76 153 0
0.037334 0.072519 -0.074150 153 0 76
0.033122 -0.013545 -0.097313 153 0 76
-0.488212 -0.415879 -0.163342 127 0 127
0.524850 -0.366108 -0.007601 76 153 0
-0.000310 0.052455 -0.045737 153 0 76
-0.058356 -0.489093 -0.200348 255 0 0
0.444534 -0.481134 -0.169379 0 127 127
0.505052 -0.480136 -0.174745 0 127 127
-0.503436 -0.479071 0.006910 127 0 127
0.467756 -0.235276 -0.094810 76 153 0
0.026310 0.198697 -0.104088 153 0 76
0.023946 -0.424684 -0.150899 0 255 0
-0.579523 -0.484973 -0.178276 127 127 0
0.586271 -0.479556 -0.090945 76 153 0
0.016837 -0.398227 -0.008998 0 255 0
-0.512862 -0.417974 0.000438 127 0 127
-0.082935 -0.464739 -0.094493 255 0 0
-0.711051 -0.130501 -0.056149 0 127 127
-0.010430 0.334924 -0.109620 153 0 76
-0.598022 -0.163136 -0.072880 0 127 127
-0.028043 0.258877 -0.070187 153 0 76
0.091537 -0.478027 -0.181753 255 0 0
-0.406994 -0.115866 -0.047346 0 127 127
-0.029677 0.934168 0.224715 153 0 76
-0.484668 -0.484759 -0.213037 127 127 0
0.571201 -0.479797 -0.133512 0 127 127
0.015819 0.268010 -0.110389 153 0 76
0.451566 -0.119674 -0.094191 76 153 0
-0.011226 -0.310536 -0.020477 0 255 0
0.000610 -0.390628 -0.149893 0 255 0
-0.003195 -0.186618 -0.061528 0 255 0
0.672463 -0.144273 -0.102233 76 153 0
-0.450997 -0.429740 -0.003707 127 0 127
-0.017699 0.437598 -0.053676 153 0 76
0.511403 -0.482612 0.035289 0 127 127
0.483677 -0.097984 -0.087700 76 153 0
-0.097117 -0.469660 -0.048222 255 0 0
-0.090491 -0.475603 0.005655 255 0 0
0.035849 0.678574 0.499317 153 0 76
-0.559810 -0.438521 -0.119888 127 0 127
0.034221 0.854627 0.391542 153 0 76
-0.000418 0.599451 0.485916 153 0 76
0.025941 0.290246 -0.104445 153 0 76
-0.016089 0.958103 0.201432 153 0 76
0.541610 -0.296610 -0.102324 76 153 0
-0.455381 -0.285097 -0.043825 127 0 127
0.034720 0.910581 0.068256 153 0 76
0.560758 -0.479579 -0.145401 0 127 127
0.427961 -0.482234 0.010685 0 127 127
-0.589381 -0.159916 -0.096079 0 127 127
0.381293 -0.098520 -0.087863 76 153 0
-0.530352 -0.221605 -0.062908 127 0 127
0.040614 0.466122 0.504486 204 51 127
-0.011503 0.607808 -0.048843 153 0 76
0.024707 0.683646 0.481568 153 0 76
0.046381 0.467426 0.516643 204 51 127
0.380843 -0.483673 -0.028604 0 127 127
0.539832 -0.214377 -0.069271 76 153 0
-0.454504 -0.146129 -0.092287 0 127 127
0.054361 -0.339524 -0.039112 0 255 0
-0.552333 -0.154256 -0.099008 0 127 127
0.594130 -0.097016 -0.074840 76 153 0
-0.562455 -0.367700 -0.093019 127 0 127
0.056320 -0.276020 -0.101945 0 255 0
0.034635 0.192517 -0.064197 153 0 76
-0.038363 0.492173 0.542297 204 51 127
-0.620262 -0.493268 -0.020109 127 127 0
0.048772 0.538301 0.530039 204 51 127
0.043588 0.416076 0.525082 0 0 255
-0.031036 0.482847 0.557488 204 51 127
-0.779689 -0.142597 -0.053821 0 127 127
0.541592 -0.379432 -0.145055 76 153 0
0.556619 -0.130420 -0.053852 76 153 0
0.041335 -0.317097 -0.030277 0 255 0
0.009286 0.463515 0.486394 204 51 127
-0.023028 -0.186618 -0.051486 0 255 0
-0.833082 -0.125380 -0.060884 0 127 127
-0.011009 0.519936 0.484131 204 51 127
-0.431581 -0.478854 -0.013307 127 127 0
0.032544 0.791206 0.446570 153 0 76
-0.533231 -0.451057 -0.009916 127 0 127
-0.568805 -0.385544 -0.064567 127 0 127
-0.380869 -0.169616 -0.094555 0 127 127
0.041659 -0.337894 -0.027426 0 255 0
-0.764477 -0.116089 -0.100097 0 127 127
-0.003705 0.898437 0.179395 153 0 76
0.403909 -0.168235 -0.099024 76 153 0
0.514923 -0.444549 0.001662 76 153 0
-0.616326 -0.485008 -0.117834 127 127 0
0.035076 0.504539 0.495566 204 51 127
0.518121 -0.162694 -0.086112 76 153 0
0.033425 0.780881 0.495816 153 0 76
0.491281 -0.394740 -0.162614 76 153 0
0.034715 0.900279 0.054104 153 0 76
-0.023053 0.586236 -0.059021 153 0 76
-0.013710 0.547601 -0.049707 153 0 76
-0.061560 -0.398265 -0.108786 0 255 0
0.035828 0.341580 -0.068609 153 0 76
-0.475740 -0.397041 -0.161157 127 0 127
-0.019246 0.902546 0.164064 153 0 76
0.031538 0.862234 0.441645 153 0 76
-0.031833 -0.255674 -0.038473 0 255 0
-0.460695 -0.195163 -0.080681 127 0 127
0.459197 -0.470547 -0.003717 76 153 0
0.022441 -0.492711 0.055607 255 0 0
-0.000271 0.867322 0.457220 153 0 76
-0.421387 -0.469988 -0.028743 127 0 127
0.473109 -0.484022 0.045208 0 127 127
0.004783 0.521718 0.572249 204 51 127
0.035240 0.564301 -0.066446 153 0 76
-0.024048 0.165170 -0.098161 153 0 76
-0.026178 0.370186 -0.063312 153 0 76
-0.604007 -0.485592 -0.004041 127 127 0
-0.025814 0.611665 0.535502 153 0 76
0.037947 -0.166859 -0.081738 153 0 76
0.038605 -0.188071 -0.109049 0 255 0
0.047198 -0.483664 0.050682 255 0 0
0.064365 -0.417316 -0.036919 0 255 0
-0.069978 -0.465791 -0.133728 255 0 0
-0.022439 -0.302237 -0.132673 0 255 0
-0.404108 -0.167892 -0.077810 0 127 127
-0.587182 -0.481523 -0.036324 127 127 0
-0.037955 0.431368 0.533405 0 0 255
0.000662 -0.137494 -0.045443 153 0 76
0.034971 0.935301 0.144176 153 0 76
-0.518186 -0.298561 -0.037184 127 0 127
0.454414 -0.341597 -0.132068 76 153 0
-0.481203 -0.225605 -0.120056 127 0 127
0.019825 0.810208 -0.056719 153 0 76
-0.528998 -0.269013 -0.075638 127 0 127
0.011111 0.502881 0.483441 204 51 127
0.036737 0.646053 -0.069579 153 0 76
-0.026771 -0.002856 -0.092661 153 0 76
-0.023534 0.722297 0.519849 153 0 76
0.597635 -0.482526 -0.132487 0 127 127
-0.014672 -0.437721 -0.159756 0 255 0
0.406886 -0.125918 -0.119030 76 153 0
-0.433580 -0.363372 -0.132895 127 0 127
0.012948 0.438137 0.573507 0 0 255
-0.473032 -0.468113 -0.160618 127 0 127
0.466545 -0.333651 -0.136795 76 153 0
-0.379978 -0.117522 -0.117332 0 127 127
0.006102 0.347338 -0.045127 153 0 76
0.014856 0.880956 0.315236 153 0 76
0.013034 0.963110 0.250645 153 0 76
-0.418201 -0.376838 -0.118451 127 0 127
-0.591382 -0.481441 -0.058234 127 127 0
0.572688 -0.471504 -0.112909 76 153 0
0.047044 -0.288328 -0.118544 0 255 0
0.413167 -0.470305 -0.069076 76 153 0
-0.777217 -0.158763 -0.057056 0 127 127
0.447022 -0.300429 -0.057337 76 153 0
-0.002099 0.963839 0.190018 153 0 76
-0.014871 -0.477600 0.052361 255 0 0
0.411395 -0.104475 -0.106121 76 153 0
0.416248 -0.484958 0.028568 0 127 127
-0.005915 0.393212 -0.047305 153 0 76
0.443087 -0.148053 -0.070865 76 153 0
0.018560 -0.186618 -0.069524 0 255 0
0.026522 0.228094 -0.054242 153 0 76
0.037564 0.227336 -0.074996 153 0 76
0.538048 -0.435050 -0.007646 76 153 0
-0.027581 0.541381 -0.089645 153 0 76
0.009714 0.963999 0.212997 153 0 76
0.430963 -0.153601 -0.087939 76 153 0
0.461295 -0.377054 -0.006258 76 153 0
-0.028383 -0.065789 -0.071419 153 0 76
-0.517848 -0.111661 -0.085362 0 127 127
-0.028907 -0.401544 -0.015010 0 255 0
0.132933 -0.484908 -0.126408 255 0 0
0.517865 -0.225908 -0.044282 76 153 0
0.135844 -0.484652 -0.046231 255 0 0
0.008130 -0.471038 -0.190374 255 0 0
-0.074087 -0.460964 -0.047355 0 255 0
0.070928 -0.476414 -0.188865 255 0 0
0.001538 0.481705 0.575241 204 51 127
-0.046346 -0.317002 -0.044381 0 255 0
-0.029576 0.592377 -0.082305 153 0 76
0.448076 -0.287949 -0.071871 76 153 0
0.032801 -0.475139 -0.199817 255 0 0
-0.571216 -0.408993 -0.082728 127 0 127
0.450200 -0.453137 -0.009729 76 153 0
0.011334 0.570903 0.541508 204 51 127
-0.028444 0.745145 0.487043 153 0 76
-0.059886 -0.356310 -0.062393 0 255 0
0.032121 0.221419 -0.098291 153 0 76
-0.537796 -0.341882 -0.033450 127 0 127
-0.029353 0.234828 -0.075007 153 0 76
0.485788 -0.300343 -0.130525 76 153 0
-0.023831 0.877469 0.014980 153 0 76
-0.025262 -0.055766 -0.096965 153 0 76
0.465702 -0.212521 -0.046582 76 153 0
0.024149 -0.134338 -0.051834 153 0 76
-0.026669 0.615535 -0.092997 153 0 76
0.509357 -0.103660 -0.059378 76 153 0
-0.613939 -0.100079 -0.072650 0 127 127
0.012222 -0.091983 -0.046714 153 0 76
0.477967 -0.277655 -0.037386 76 153 0
-0.000245 -0.092464 -0.045696 153 0 76
0.567056 -0.426018 -0.121337 76 153 0
0.011234 0.699772 0.538330 153 0 76
0.022894 -0.381837 -0.145752 0 255 0
-0.015859 -0.186618 -0.038221 0 255 0
-0.026495 0.860900 0.434773 153 0 76
-0.020874 0.538245 -0.101291 153 0 76
-0.028189 0.668697 0.503661 153 0 76
-0.457416 -0.255109 -0.058331 127 0 127
-0.011830 0.379711 -0.109235 153 0 76
0.058643 -0.415549 -0.129259 0 255 0
0.023691 0.490301 -0.051458 153 0 76
-0.545951 -0.483626 0.029998 127 127 0
0.381493 -0.101865 -0.061843 76 153 0
-0.548037 -0.330694 -0.098436 127 0 127
-0.450994 -0.479942 -0.167805 127 127 0
-0.021347 0.414131 0.503214 0 0 255
0.032067 0.567869 0.506832 204 51 127
0.542132 -0.149135 -0.083554 76 153 0
0.724199 -0.130632 -0.101415 76 153 0
0.010466 0.826137 0.484524 153 0 76
-0.022874 0.083494 -0.099342 153 0 76
0.005503 0.897013 0.254299 153 0 76
0.011720 -0.250018 -0.026506 0 255 0
-0.042468 -0.263833 -0.050309 0 255 0
-0.037309 -0.211660 -0.103902 0 255 0
-0.060260 -0.337113 -0.081667 0 255 0
-0.107843 -0.473881 -0.030955 255 0 0
0.025908 -0.424528 -0.007514 0 255 0
-0.509480 -0.357349 -0.009336 127 0 127
-0.054995 -0.355359 -0.109143 0 255 0
0.009926 0.643249 0.482451 153 0 76
-0.003857 0.944549 0.111318 153 0 76
0.017514 0.224638 -0.109938 153 0 76
-0.021510 -0.089650 -0.057419 153 0 76
0.451414 -0.368272 -0.141406 76 153 0
-0.014346 -0.364434 -0.143643 0 255 0
-0.011408 0.554606 -0.109325 153 0 76
0.480881 -0.127497 -0.060463 76 153 0
0.506592 -0.170206 -0.089791 76 153 0
-0.073533 -0.485936 0.032204 255 0 0
-0.077347 -0.470528 -0.006036 255 0 0
0.039429 0.543597 0.551993 204 51 127
-0.535432 -0.128503 -0.060263 0 127 127
0.006088 -0.036193 -0.045061 153 0 76
-0.444661 -0.367443 -0.015971 127 0 127
0.062378 -0.435008 -0.018275 0 255 0
-0.014187 0.104069 -0.108014 153 0 76
0.010899 0.785326 0.000756 153 0 76
0.435508 -0.350802 -0.042510 76 153 0
-0.018045 0.933802 0.100851 153 0 76
0.468937 -0.149414 -0.075850 76 153 0
0.034774 -0.276404 -0.126111 0 255 0
0.006915 0.660307 0.547947 153 0 76
-0.040859 -0.197742 -0.091617 0 255 0
0.034546 0.530526 -0.094246 153 0 76
-0.505021 -0.210635 -0.040503 127 0 127
-0.067631 -0.451583 -0.037210 0 255 0
0.033060 0.887465 0.096064 153 0 76
-0.016421 0.567844 0.506538 204 51 127
0.404483 -0.484632 0.017623 0 127 127
0.576098 -0.465827 -0.099480 76 153 0
-0.524459 -0.326878 -0.128666 127 0 127
-0.586164 -0.106577 -0.103634 0 127 127
-0.026005 0.927476 0.325458 153 0 76
-0.026798 0.314565 -0.065600 153 0 76
-0.620868 -0.485488 -0.043681 127 127 0
0.522271 -0.152571 -0.097248 76 153 0
-0.040209 -0.278921 -0.043600 0 255 0
-0.026148 -0.231340 -0.038262 0 255 0
0.002110 0.502646 -0.112981 153 0 76
0.508251 -0.099975 -0.093221 76 153 0
0.034701 0.877084 0.022254 153 0 76
-0.531229 -0.279337 -0.089854 127 0 127
-0.037240 0.504134 0.545458 204 51 127
-0.013095 -0.363523 -0.014225 0 255 0
0.480385 -0.236962 -0.105281 76 153 0
-0.499364 -0.480628 0.020176 127 127 0
-0.070295 -0.432405 -0.043487 0 255 0
0.033031 -0.383298 -0.014967 0 255 0
0.016933 0.769360 -0.083409 153 0 76
0.854148 -0.123469 -0.070424 76 153 0
-0.662252 -0.141916 -0.104029 0 127 127
-0.028865 0.911766 0.301612 153 0 76
0.411778 -0.433208 -0.076057 76 153 0
-0.477683 -0.117423 -0.046085 0 127 127
-0.789460 -0.140315 -0.097146 0 127 127
-0.029727 0.920210 0.284826 153 0 76
0.033194 0.599868 -0.060940 153 0 76
-0.017632 0.828435 -0.039682 153 0 76
-0.009217 0.889026 0.143654 153 0 76
-0.392577 -0.158086 -0.114084 0 127 127
-0.456572 -0.264361 -0.104295 127 0 127
0.026902 0.706596 -0.090616 153 0 76
0.498956 -0.254682 -0.115381 76 153 0
0.028954 -0.241627 -0.033132 0 255 0
-0.534042 -0.136345 -0.097107 0 127 127
-0.007095 0.606341 0.550406 153 0 76
-0.570401 -0.403331 -0.071176 127 0 127
0.637658 -0.111265 -0.056020 76 153 0
-0.441645 -0.297945 -0.054672 127 0 127
0.440507 -0.305851 -0.080524 76 153 0
0.035078 0.848597 0.029790 153 0 76
0.007415 -0.205525 -0.126792 0 255 0
0.491221 -0.349469 -0.149316 76 153 0
-0.020769 0.871974 0.357720 153 0 76
0.473906 -0.114818 -0.103857 76 153 0
-0.407803 -0.142728 -0.111399 0 127 127
0.493327 -0.114034 -0.070251 76 153 0
0.032220 0.930789 0.111060 153 0 76
-0.041716 -0.226232 -0.057483 0 255 0
-0.071349 -0.432405 -0.097421 0 255 0
0.557065 -0.426939 -0.021712 76 153 0
-0.013723 -0.186618 -0.077369 0 255 0
-0.061766 -0.375261 -0.059935 0 255 0
0.136357 -0.477839 -0.060269 255 0 0
-0.445558 -0.313055 -0.118802 127 0 127
-0.418834 -0.153649 -0.065089 0 127 127
0.119842 -0.493178 -0.149864 255 0 0
0.008691 0.257127 -0.112317 153 0 76
-0.456455 -0.209093 -0.105031 127 0 127
-0.464082 -0.127511 -0.097541 0 127 127
0.114854 -0.476064 -0.142336 255 0 0
-0.565124 -0.459670 -0.046065 127 0 127
-0.016599 -0.465882 0.011006 255 0 0
0.042320 -0.466183 -0.165740 255 0 0
-0.763142 -0.154426 -0.085628 0 127 127
-0.432438 -0.437933 -0.016108 127 0 127
0.575945 -0.375332 -0.080329 76 153 0
0.535614 -0.388850 -0.006020 76 153 0
-0.457282 -0.109823 -0.076822 0 127 127
0.023781 0.605746 -0.106568 153 0 76
0.415173 -0.477104 -0.058992 76 153 0
0.024244 -0.470502 0.027288 255 0 0
-0.690202 -0.148624 -0.096293 0 127 127
0.017431 0.246526 -0.109957 153 0 76
0.054302 -0.450679 -0.145125 0 255 0
0.521928 -0.209003 -0.048236 76 153 0
-0.029884 0.887107 0.064013 153 0 76
-0.008595 -0.466096 -0.171349 255 0 0
0.038357 0.513168 -0.080226 153 0 76
0.026771 0.585441 0.545299 153 0 76
0.034106 0.480922 -0.062267 153 0 76
-0.002471 0.285794 -0.046361 153 0 76
0.427846 -0.362812 -0.046335 76 153 0
-0.563978 -0.160295 -0.058285 0 127 127
0.458783 -0.149276 -0.082843 76 153 0
0.736302 -0.117563 -0.095280 76 153 0
0.119807 -0.474179 -0.041474 255 0 0
-0.427049 -0.453293 -0.020269 127 0 127
-0.565436 -0.166158 -0.085289 0 127 127
-0.524410 -0.474191 -0.004022 127 0 127
-0.579208 -0.480264 -0.113664 127 127 0
-0.003021 0.125012 -0.111656 153 0 76
-0.000205 0.556067 -0.045788 153 0 76
0.036536 -0.029844 -0.086949 153 0 76
0.015301 0.522843 -0.110493 153 0 76
0.555403 -0.352012 -0.041062 76 153 0
0.022035 -0.186618 -0.119057 0 255 0
0.457066 -0.446687 -0.152860 76 153 0
-0.021820 -0.239815 -0.123883 0 255 0
0.036011 0.343620 -0.088872 153 0 76
0.450681 -0.322608 -0.120254 76 153 0
0.756256 -0.129241 -0.059868 76 153 0
-0.567681 -0.157654 -0.103056 0 127 127
-0.018825 0.628106 -0.103320 153 0 76
-0.432324 -0.312302 -0.065631 127 0 127
0.412389 -0.401316 -0.072987 76 153 0
0.034053 0.750056 0.510796 153 0 76
-0.556146 -0.477195 -0.032629 127 0 127
0.477892 -0.385804 0.001762 76 153 0
0.772175 -0.110745 -0.063659 76 153 0
-0.622953 -0.485281 -0.062509 127 127 0
-0.607616 -0.102724 -0.094503 0 127 127
-0.521989 -0.376244 -0.006691 127 0 127
0.845869 -0.115098 -0.089343 76 153 0
0.036269 0.294782 -0.087930 153 0 76
-0.514618 -0.434808 -0.158089 127 0 127
0.019066 0.948372 0.130078 153 0 76
0.439351 -0.433878 -0.141023 76 153 0
-0.569206 -0.463516 -0.065166 127 0 127
-0.538239 -0.314005 -0.106145 127 0 127
0.787038 -0.109471 -0.100174 76 153 0
-0.498133 -0.344544 -0.011695 127 0 127
-0.004383 0.831781 0.038452 153 0 76
-0.568567 -0.126087 -0.114332 0 127 127
-0.116958 -0.489332 -0.016116 255 0 0
-0.018548 0.851277 0.052497 153 0 76
-0.469539 -0.376361 -0.001670 127 0 127
0.008539 0.860328 0.079559 153 0 76
0.413429 -0.455038 -0.067758 76 153 0
0.016845 -0.340386 -0.016229 0 255 0
0.537514 -0.482560 -0.187681 0 127 127
-0.023777 0.839623 0.027735 153 0 76
0.046694 -0.281674 -0.040404 0 255 0
0.001980 0.694057 -0.034240 153 0 76
-0.029007 -0.095801 -0.084411 153 0 76
0.057567 -0.478019 0.046415 255 0 0
-0.006455 0.610760 -0.110652 153 0 76
0.025849 0.888250 0.122851 153 0 76
0.579144 -0.430517 -0.073831 76 153 0
-0.498891 -0.197369 -0.105946 127 0 127
-0.004272 0.201865 -0.046835 153 0 76
-0.459507 -0.198966 -0.066278 127 0 127
-0.507503 -0.101005 -0.085261 0 127 127
0.760441 -0.118974 -0.094208 76 153 0
-0.021268 0.525996 0.488073 204 51 127
0.432228 -0.369953 -0.122769 76 153 0
0.020742 -0.032526 -0.109103 153 0 76
0.037222 0.316873 -0.084417 153 0 76
-0.018521 0.121666 -0.103692 153 0 76
0.035834 0.515176 0.558089 204 51 127
0.022169 0.433590 -0.049934 153 0 76
0.523298 -0.483172 0.037406 0 127 127
-0.002980 0.889277 0.425956 153 0 76
-0.039399 -0.476081 0.042168 255 0 0
0.016552 0.900474 0.205280 153 0 76
-0.529935 -0.277344 -0.065250 127 0 127
-0.403733 -0.385346 -0.076984 127 0 127
-0.041447 0.506712 0.529472 204 51 127
0.000817 0.189112 -0.045454 153 0 76
-0.482728 -0.113798 -0.087396 0 127 127
-0.385723 -0.164170 -0.048613 0 127 127
0.025430 0.056873 -0.104988 153 0 76
-0.407917 -0.390453 -0.103828 127 0 127
0.415384 -0.418843 -0.057930 76 153 0
0.485300 -0.161971 -0.101551 76 153 0
0.422017 -0.371569 -0.106670 76 153 0
-0.551085 -0.483032 -0.178963 127 127 0
-0.474603 -0.164662 -0.063136 0 127 127
0.036536 0.049483 -0.086951 153 0 76
0.030927 -0.186618 -0.075869 0 255 0
0.025263 0.686082 -0.095973 153 0 76
0.005095 0.451648 -0.044872 153 0 76
-0.019261 0.255854 -0.055217 153 0 76
-0.566981 -0.481849 -0.001490 127 127 0
0.047064 0.507560 0.539129 204 51 127
0.586270 -0.482898 -0.154749 0 127 127
0.031458 0.860561 0.377528 153 0 76
0.032686 0.750535 0.472430 153 0 76
0.560204 -0.103194 -0.090357 76 153 0
-0.027961 -0.470303 -0.182222 255 0 0
-0.028517 0.592449 0.512794 153 0 76
0.000738 0.929679 0.372373 153 0 76
-0.468362 -0.149515 -0.081645 0 127 127
0.024935 0.893046 0.293305 153 0 76
-0.525402 -0.413221 -0.004685 127 0 127
-0.583504 -0.145730 -0.047812 0 127 127
-0.426797 -0.348972 -0.044419 127 0 127
0.022299 0.960084 0.215288 153 0 76
-0.030197 -0.144694 -0.080021 153 0 76
0.011306 0.862231 0.353990 153 0 76
-0.019281 0.513488 0.566606 204 51 127
0.013467 0.878176 0.440128 153 0 76
0.592421 -0.481207 -0.036342 0 127 127
0.786915 -0.146599 -0.104525 76 153 0
-0.463538 -0.320029 -0.134480 127 0 127
0.017892 0.665871 0.481392 153 0 76
0.032754 0.858260 -0.010149 153 0 76
-0.369721 -0.136047 -0.068312 0 127 127
0.011256 0.885593 0.138108 153 0 76
0.035913 0.050090 -0.068904 153 0 76
0.018627 -0.186618 -0.056919 0 255 0
0.038496 0.867527 0.400207 153 0 76
0.043256 -0.263557 -0.118549 0 255 0
-0.548884 -0.351805 -0.114271 127 0 127
0.525452 -0.237672 -0.073319 76 153 0
0.014130 0.443273 0.493324 0 0 255
0.629075 -0.485249 -0.053249 0 127 127
-0.021701 0.229139 -0.057645 153 0 76
-0.000532 -0.271593 -0.134786 0 255 0
0.021301 0.737007 -0.090620 153 0 76
-0.019838 -0.206383 -0.037726 0 255 0
-0.571718 -0.424031 -0.080206 127 0 127
0.530039 -0.138544 -0.064062 76 153 0
0.034012 0.398810 -0.061912 153 0 76
-0.007019 -0.000638 -0.110591 153 0 76
-0.503958 -0.467187 -0.160210 127 0 127
0.024129 0.644295 -0.104655 153 0 76
-0.779712 -0.107078 -0.092841 0 127 127
-0.449834 -0.257204 -0.080542 127 0 127
-0.408413 -0.451568 -0.106318 127 0 127
0.526037 -0.251933 -0.060805 76 153 0
-0.103745 -0.473419 -0.130328 255 0 0
-0.029736 0.490477 -0.081716 153 0 76
0.486508 -0.434284 0.003664 76 153 0
0.036542 0.458921 -0.071237 153 0 76
-0.011452 -0.186618 -0.101496 0 255 0
-0.435267 -0.474050 -0.143783 127 127 0
0.459797 -0.132062 -0.090752 76 153 0
-0.027786 0.678551 -0.061188 153 0 76
-0.520603 -0.215529 -0.110769 127 0 127
-0.026528 0.390231 -0.093526 153 0 76
0.513300 -0.244138 -0.051574 76 153 0
0.450572 -0.484772 0.046723 0 127 127
-0.541262 -0.485194 -0.205925 127 127 0
0.038661 0.901613 0.080684 153 0 76
-0.029076 0.576263 0.516280 153 0 76
-0.029783 0.905138 0.100376 153 0 76
-0.427897 -0.135709 -0.058951 0 127 127
0.024897 -0.122330 -0.105546 153 0 76
0.399216 -0.096643 -0.108095 76 153 0
0.031347 -0.298840 -0.026295 0 255 0
-0.004051 -0.080874 -0.046729 153 0 76
-0.560884 -0.370847 -0.106621 127 0 127
-0.433660 -0.484579 0.042106 127 127 0
0.037399 0.490813 -0.074388 153 0 76
-0.022473 0.951789 0.190215 153 0 76
-0.026363 0.737876 -0.075676 153 0 76
0.049945 -0.206588 -0.092794 0 255 0
0.022822 0.485042 0.488151 204 51 127
0.037514 0.295133 -0.074810 153 0 76
-0.022013 0.523619 -0.057980 153 0 76
-0.431923 -0.390749 -0.016453 127 0 127
-0.452486 -0.129930 -0.059979 0 127 127
0.432078 -0.342068 -0.054216 76 153 0
-0.027929 0.445899 -0.088363 153 0 76
0.377935 -0.116326 -0.075218 76 153 0
-0.035745 -0.249847 -0.114669 0 255 0
0.475653 -0.348953 -0.146033 76 153 0
-0.038733 0.560623 0.510608 204 51 127
0.440278 -0.428899 -0.016358 76 153 0
0.070033 -0.377463 -0.058818 0 255 0
-0.459307 -0.301537 -0.123790 127 0 127
0.487170 -0.129152 -0.115315 76 153 0
-0.015693 0.600421 -0.106445 153 0 76
0.032445 0.912591 0.208363 153 0 76
0.613308 -0.483409 -0.109998 0 127 127
0.021583 0.134477 -0.049308 153 0 76
0.427270 -0.140355 -0.053827 76 153 0
-0.495278 -0.178234 -0.091902 127 0 127
-0.598370 -0.485051 -0.154750 127 127 0
-0.652672 -0.105008 -0.090463 0 127 127
0.019912 0.199691 -0.048837 153 0 76
-0.499883 -0.133599 -0.114603 0 127 127
-0.007721 -0.131024 -0.110419 153 0 76
0.031620 0.661881 0.493600 153 0 76
0.012561 0.614677 0.550421 153 0 76
0.014849 0.290892 -0.047478 153 0 76
0.037523 0.621287 -0.074845 153 0 76
0.375617 -0.485514 -0.010418 0 127 127
-0.025347 0.095426 -0.061266 153 0 76
-0.651019 -0.102778 -0.076556 0 127 127
0.033962 0.888892 0.337363 153 0 76
0.456017 -0.471596 -0.152159 76 153 0
-0.060120 -0.427491 -0.117390 0 255 0
-0.572146 -0.148037 -0.109904 0 127 127
0.070842 -0.379889 -0.096644 0 255 0
-0.402422 -0.479293 -0.049739 127 127 0
0.517101 -0.133273 -0.109636 76 153 0
0.030422 0.920685 0.362674 153 0 76
0.775841 -0.116211 -0.050977 76 153 0
0.016703 0.713243 0.470248 153 0 76
-0.479927 -0.284240 -0.125188 127 0 127
-0.521443 -0.321495 -0.029608 127 0 127
-0.468346 -0.165013 -0.084322 0 127 127
0.035959 -0.081903 -0.089081 153 0 76
-0.011209 0.465763 -0.109391 153 0 76
-0.006784 -0.339164 -0.141989 0 255 0
0.556034 -0.393456 -0.137832 76 153 0
-0.027351 0.122590 -0.090509 153 0 76
-0.821455 -0.148671 -0.085888 0 127 127
-0.022937 -0.383653 -0.013667 0 255 0
0.533351 -0.275983 -0.101556 76 153 0
-0.566675 -0.419558 -0.052445 127 0 127
0.063138 -0.385378 -0.115874 0 255 0
-0.703260 -0.153196 -0.085495 0 127 127
-0.408587 -0.425404 -0.107197 127 0 127
0.563523 -0.484440 -0.189425 0 127 127
0.037668 -0.054410 -0.082770 153 0 76
0.014870 0.873831 0.338490 153 0 76
-0.531109 -0.222885 -0.085941 127 0 127
0.496962 -0.231009 -0.042357 76 153 0
-0.029434 0.866229 0.038147 153 0 76
0.455266 -0.224805 -0.065502 76 153 0
-0.369721 -0.133502 -0.090029 0 127 127
0.445313 -0.424238 -0.145006 76 153 0
0.036471 0.719565 -0.071902 153 0 76
0.478082 -0.183417 -0.076011 76 153 0
0.099941 -0.466493 -0.081155 255 0 0
-0.550315 -0.391839 -0.023903 127 0 127
0.003869 0.262381 -0.044639 153 0 76
0.116271 -0.472408 -0.054865 255 0 0
0.575147 -0.152820 -0.050716 76 153 0
0.618811 -0.484484 -0.032440 0 127 127
-0.025492 0.908140 0.375164 153 0 76
0.476806 -0.142325 -0.064025 76 153 0
-0.565037 -0.482540 -0.164989 127 127 0
0.419824 -0.480330 -0.140521 0 127 127
0.506881 -0.176679 -0.068641 76 153 0
-0.394636 -0.143091 -0.120333 0 127 127
-0.028441 0.638403 0.508493 153 0 76
0.829826 -0.126103 -0.060740 76 153 0
0.791301 -0.154051 -0.086017 76 153 0
0.732648 -0.132990 -0.057765 76 153 0
0.543122 -0.312165 -0.048041 76 153 0
-0.015617 0.478914 -0.051605 153 0 76
-0.342300 -0.486160 -0.082176 127 127 0
0.003828 -0.178538 -0.044579 153 0 76
0.427101 -0.345805 -0.085537 76 153 0
-0.499518 -0.329395 -0.140569 127 0 127
0.030120 0.718627 -0.042679 153 0 76
0.012304 0.871358 0.093024 153 0 76
0.435991 -0.139211 -0.098296 76 153 0
0.481026 -0.171263 -0.082545 76 153 0
-0.017028 0.691887 0.480211 153 0 76
-0.352245 -0.486019 -0.031491 127 127 0
0.523718 -0.114607 -0.095811 76 153 0
0.037132 0.780938 0.481531 153 0 76
0.075554 -0.431396 -0.052682 0 255 0
-0.019624 0.152924 -0.055567 153 0 76
-0.498229 -0.360282 -0.006040 127 0 127
0.642320 -0.124659 -0.050098 76 153 0
-0.487727 -0.334324 -0.013309 127 0 127
0.002386 0.301719 -0.113088 153 0 76
0.683546 -0.152491 -0.092966 76 153 0
0.020131 -0.406634 -0.149402 0 255 0
-0.010627 -0.295511 -0.135768 0 255 0
-0.092495 -0.467207 -0.068147 255 0 0
-0.374923 -0.159892 -0.059060 0 127 127
-0.027745 0.712419 -0.055097 153 0 76
-0.019912 0.698819 -0.044195 153 0 76
-0.519877 -0.462502 -0.000993 127 0 127
-0.498234 -0.194663 -0.054808 127 0 127
-0.011981 -0.221314 -0.126224 0 255 0
0.775280 -0.146670 -0.054250 76 153 0
-0.006096 0.897436 0.260969 153 0 76
0.522128 -0.145901 -0.055548 76 153 0
0.464097 -0.444482 -0.000794 76 153 0
-0.035123 -0.311324 -0.032466 0 255 0
0.003504 0.309267 -0.044746 153 0 76
-0.041248 -0.200815 -0.066408 0 255 0
-0.369721 -0.127788 -0.100667 0 127 127
-0.008639 0.568617 0.515372 204 51 127
0.024767 0.882860 0.325960 153 0 76
0.036508 -0.174360 -0.071081 153 0 76
0.013681 0.569094 0.520825 204 51 127
-0.080877 -0.472000 -0.155784 255 0 0
0.032450 0.592351 0.500987 153 0 76
0.011705 0.628519 -0.111449 153 0 76
-0.022100 0.896544 0.300054 153 0 76
-0.005850 0.852933 0.466481 153 0 76
0.016377 0.879678 0.114137 153 0 76
-0.777308 -0.147746 -0.109888 0 127 127
0.030291 0.213131 -0.058004 153 0 76
-0.028929 0.839597 -0.009524 153 0 76
0.650859 -0.117659 -0.104793 76 153 0
0.412365 -0.482763 0.005255 0 127 127
0.540346 -0.414041 -0.009182 76 153 0
0.001982 0.893503 0.012491 153 0 76
-0.010605 0.884453 0.127474 153 0 76
0.525530 -0.486739 0.060999 0 127 127
-0.018646 0.884419 0.106995 153 0 76
0.472097 -0.484463 -0.206531 0 127 127
-0.076048 -0.439400 -0.057213 0 255 0
-0.078536 -0.453074 -0.069720 0 255 0
-0.602268 -0.492542 -0.164822 127 127 0
0.032558 0.646743 -0.095683 153 0 76
-0.492806 -0.479751 -0.172464 127 127 0
-0.492568 -0.483007 0.040564 127 127 0
-0.010276 0.267029 -0.109672 153 0 76
0.021846 0.458492 0.490432 204 51 127
-0.441643 -0.486048 -0.214790 127 127 0
-0.582937 -0.104315 -0.057032 0 127 127
-0.023305 0.230428 -0.098898 153 0 76
0.037157 0.913516 0.296892 153 0 76
-0.411612 -0.479723 -0.131949 127 127 0
0.093732 -0.466211 -0.107406 255 0 0
-0.028734 0.519428 -0.072730 153 0 76
-0.024958 0.499487 -0.060912 153 0 76
0.385295 -0.154275 -0.108264 76 153 0
0.035430 0.170086 -0.091026 153 0 76
0.026748 0.954353 0.265727 153 0 76
0.004677 0.952978 0.131949 153 0 76
0.077876 -0.423689 -0.088809 0 255 0
0.696665 -0.141300 -0.101544 76 153 0
-0.407487 -0.412379 -0.056337 127 0 127
0.028273 0.893969 0.133333 153 0 76
0.487028 -0.147290 -0.045606 76 153 0
0.483470 -0.117580 -0.092792 76 153 0
0.034286 0.878774 0.358774 153 0 76
-0.058342 -0.468871 0.002641 255 0 0
0.026936 0.629355 0.541279 153 0 76
0.497895 -0.273748 -0.035536 76 153 0
-0.509057 -0.140089 -0.108735 0 127 127
0.051197 -0.361475 -0.030323 0 255 0
0.052493 -0.235399 -0.059916 0 255 0
0.460767 -0.127138 -0.065565 76 153 0
-0.008646 0.481269 -0.110082 153 0 76
-0.490575 -0.388689 0.004871 127 0 127
0.493972 -0.107886 -0.050499 76 153 0
-0.405299 -0.390794 -0.090665 127 0 127
-0.029345 0.811413 0.460453 153 0 76
-0.605479 -0.483778 -0.122889 127 127 0
0.063547 -0.432405 -0.126740 0 255 0
-0.446671 -0.270879 -0.068575 127 0 127
0.415818 -0.469382 -0.102254 76 153 0
0.021169 -0.380686 -0.012052 0 255 0
-0.028554 -0.106287 -0.072049 153 0 76
-0.048035 -0.265024 -0.097823 0 255 0
-0.023687 0.834201 -0.029010 153 0 76
-0.470079 -0.440153 0.002030 127 0 127
-0.585127 -0.129665 -0.113491 0 127 127
-0.766560 -0.103703 -0.073026 0 127 127
0.400109 -0.480187 -0.066735 0 127 127
-0.440538 -0.479559 -0.157336 127 127 0
-0.013723 0.836032 0.395330 153 0 76
-0.500048 -0.313212 -0.134630 127 0 127
0.461222 -0.303556 -0.120440 76 153 0
0.023137 0.908127 0.042071 153 0 76
-0.027693 0.939462 0.169316 153 0 76
0.528309 -0.247795 -0.088664 76 153 0
0.046111 -0.384562 -0.134484 0 255 0
-0.028426 -0.051464 -0.086554 153 0 76
0.031358 0.642215 -0.057244 153 0 76
-0.397772 -0.482568 -0.006577 127 127 0
-0.391902 -0.087650 -0.090472 0 127 127
0.360747 -0.493251 -0.023696 0 127 127
0.463636 -0.254236 -0.061871 76 153 0
0.617768 -0.153779 -0.101924 76 153 0
-0.478669 -0.148442 -0.071447 0 127 127
0.023175 0.886921 0.013118 153 0 76
-0.026350 0.253541 -0.094194 153 0 76
-0.022334 -0.278208 -0.129200 0 255 0
-0.832687 -0.149623 -0.081101 0 127 127
0.561185 -0.163056 -0.085784 76 153 0
0.575653 -0.446424 -0.056281 76 153 0
0.574253 -0.378002 -0.064330 76 153 0
0.037495 0.935615 0.255348 153 0 76
0.395266 -0.147578 -0.036859 76 153 0
0.639737 -0.493512 -0.069541 0 127 127
0.014063 0.400667 -0.110845 153 0 76
-0.002733 0.518268 -0.046464 153 0 76
0.032100 0.635626 0.496857 153 0 76
-0.000683 0.850493 0.369053 153 0 76
0.017293 0.408672 -0.048157 153 0 76
-0.019012 0.456948 -0.054985 153 0 76
0.378744 -0.143935 -0.107445 76 153 0
-0.016579 0.647883 -0.103353 153 0 76
0.604935 -0.483221 -0.026631 0 127 127
-0.708786 -0.115594 -0.061902 0 127 127
-0.029575 0.372980 -0.075822 153 0 76
0.036097 0.737803 -0.070054 153 0 76
0.506344 -0.462229 -0.161369 76 153 0
-0.024589 -0.356956 -0.018699 0 255 0
0.037569 -0.120123 -0.083135 153 0 76
-0.695346 -0.126419 -0.102512 0 127 127
0.505154 -0.286738 -0.125704 76 153 0
0.001592 -0.178824 -0.112948 153 0 76
0.529449 -0.407309 -0.001900 76 153 0
-0.569758 -0.450476 -0.067943 127 0 127
0.008451 0.478744 -0.112348 153 0 76
-0.669771 -0.105488 -0.071770 0 127 127
-0.488764 -0.482124 -0.192256 127 127 0
-0.004690 0.494678 0.484641 204 51 127
0.028208 0.663834 0.536981 153 0 76
0.593712 -0.117240 -0.110833 76 153 0
0.010021 0.778474 0.514746 153 0 76
-0.422505 -0.123788 -0.055696 0 127 127
-0.451977 -0.461826 -0.154948 127 0 127
-0.453462 -0.478571 -0.001359 127 127 0
-0.020760 0.616482 0.495391 153 0 76
-0.535146 -0.360290 -0.022267 127 0 127
-0.027089 0.691953 -0.081220 153 0 76
-0.394663 -0.479748 -0.070465 127 127 0
0.017865 0.757834 0.523010 153 0 76
0.482388 -0.183417 -0.061611 76 153 0
0.007152 0.038607 -0.045361 153 0 76
0.039464 -0.234761 -0.116837 0 255 0
-0.409595 -0.480711 -0.015116 127 127 0
0.515455 -0.121480 -0.049267 76 153 0
0.068895 -0.463857 -0.135696 255 0 0
-0.484433 -0.406548 0.004885 127 0 127
-0.383483 -0.484951 0.005694 127 127 0
-0.005775 0.237299 -0.110895 153 0 76
0.006804 0.723583 -0.029307 153 0 76
-0.029267 0.356327 -0.083444 153 0 76
0.036037 0.586096 0.510777 153 0 76
-0.003693 0.569468 0.489418 153 0 76
0.472556 -0.466378 0.000889 76 153 0
-0.125998 -0.490964 -0.038025 255 0 0
0.037462 0.878426 0.378895 153 0 76
0.000709 -0.000478 -0.045453 153 0 76
-0.022131 0.414507 -0.058089 153 0 76
0.576611 -0.431436 -0.061096 76 153 0
0.031448 0.693107 -0.048459 153 0 76
-0.009896 0.647921 0.545994 153 0 76
-0.425835 -0.325038 -0.075170 127 0 127
0.008228 0.533776 -0.045731 153 0 76
0.077584 -0.465990 -0.022138 255 0 0
-0.003998 0.820278 0.412118 153 0 76
-0.506616 -0.289341 -0.124627 127 0 127
0.038090 0.252753 -0.076931 153 0 76
-0.003176 -0.366398 -0.146111 0 255 0
0.431488 -0.431746 -0.132082 76 153 0
-0.503669 -0.408783 -0.160267 127 0 127
0.022783 -0.081157 -0.050474 153 0 76
0.010155 0.825854 0.031398 153 0 76
0.481394 -0.416641 -0.160648 76 153 0
-0.000518 0.920129 0.050042 153 0 76
-0.427463 -0.482657 -0.177832 127 127 0
-0.055913 -0.430954 -0.033554 0 255 0
-0.009087 0.025675 -0.110027 153 0 76
-0.004765 0.933745 0.077110 153 0 76
0.516586 -0.479117 -0.164298 0 127 127
0.382668 -0.483203 -0.124894 0 127 127
-0.011331 0.952456 0.143756 153 0 76
-0.418853 -0.439724 -0.125465 127 0 127
0.029149 0.821693 0.475019 153 0 76
-0.029797 0.925826 0.267437 153 0 76
0.067426 -0.375411 -0.107257 0 255 0
-0.458280 -0.455884 -0.000317 127 0 127
0.511490 -0.346030 -0.145819 76 153 0
-0.767499 -0.105191 -0.096344 0 127 127
0.449972 -0.411019 -0.009881 76 153 0
0.003894 0.676438 -0.106175 153 0 76
-0.494705 -0.323242 -0.018692 127 0 127
0.034187 0.892784 0.107428 153 0 76
-0.030236 0.767107 -0.047806 153 0 76
0.631494 -0.160832 -0.084800 76 153 0
-0.026312 0.470750 -0.094314 153 0 76
0.533128 -0.118936 -0.064303 76 153 0
-0.452893 -0.438093 -0.155560 127 0 127
0.525824 -0.300945 -0.035786 76 153 0
0.017431 0.875335 -0.007306 153 0 76
-0.463707 -0.136979 -0.050358 0 127 127
-0.015903 0.464190 0.490324 204 51 127
0.421098 -0.156674 -0.095568 76 153 0
0.452947 -0.339828 -0.027666 76 153 0
-0.015184 0.956638 0.165352 153 0 76
-0.024842 0.604533 -0.097330 153 0 76
-0.499155 -0.467792 0.003164 127 0 127
-0.411588 -0.410847 -0.043409 127 0 127
-0.563838 -0.369695 -0.068320 127 0 127
-0.551115 -0.406689 -0.132902 127 0 127
-0.506383 -0.265018 -0.114440 127 0 127
-0.032341 -0.293249 -0.124732 0 255 0
-0.372760 -0.483216 -0.041107 127 127 0
0.032476 0.791876 -0.055062 153 0 76
0.503497 -0.285501 -0.032413 76 153 0
0.580303 -0.480113 -0.033652 0 127 127
-0.691532 -0.106485 -0.077014 0 127 127
0.029346 0.245138 -0.101054 153 0 76
-0.454491 -0.248930 -0.069043 127 0 127
-0.035445 -0.186618 -0.081883 0 255 0
0.434483 -0.324962 -0.084874 76 153 0
-0.355838 -0.484837 -0.060953 127 127 0
0.556347 -0.321902 -0.082019 76 153 0
-0.473740 -0.186520 -0.060993 127 0 127
0.011091 0.797808 0.426333 153 0 76
-0.384582 -0.485864 0.020227 127 127 0
0.036342 0.861379 0.010840 153 0 76
0.049656 -0.217042 -0.059099 0 255 0
-0.021516 -0.470384 0.025784 255 0 0
-0.029285 0.009798 -0.083376 153 0 76
0.022187 0.567918 0.492818 204 51 127
0.075094 -0.452988 -0.121917 0 255 0
0.467248 -0.272884 -0.111423 76 153 0
-0.468621 -0.355922 -0.148780 127 0 127
0.472109 -0.110476 -0.059581 76 153 0
0.472828 -0.226523 -0.045456 76 153 0
-0.019136 0.724470 -0.038949 153 0 76
-0.440927 -0.389348 -0.147565 127 0 127
-0.628128 -0.485561 -0.080756 127 127 0
0.631676 -0.128083 -0.109582 76 153 0
-0.448897 -0.208820 -0.090025 127 0 127
0.120356 -0.492696 -0.008909 255 0 0
0.510719 -0.149539 -0.076480 76 153 0
-0.476546 -0.479316 0.009878 127 127 0
-0.018439 0.499776 -0.103723 153 0 76
0.112470 -0.474861 -0.019531 255 0 0
-0.051691 -0.472709 -0.180932 255 0 0
0.569352 -0.433363 -0.040099 76 153 0
0.009106 0.964162 0.234754 153 0 76
0.458984 -0.405815 -0.154141 76 153 0
0.048069 -0.315866 -0.123046 0 255 0
0.001392 0.674281 0.476407 153 0 76
-0.439539 -0.137649 -0.061153 0 127 127
0.502316 -0.430012 0.004170 76 153 0
0.038131 0.607178 -0.077082 153 0 76
-0.416087 -0.485159 -0.193842 127 127 0
0.462075 -0.356871 -0.014319 76 153 0
0.017355 0.188036 -0.109986 153 0 76
-0.443331 -0.463399 -0.008830 127 0 127
0.776927 -0.104619 -0.103483 76 153 0
0.478209 -0.148979 -0.084339 76 153 0
-0.030079 0.674967 -0.073103 153 0 76
-0.027811 0.142102 -0.069323 153 0 76
0.047233 -0.228211 -0.104995 0 255 0
-0.012381 0.790314 0.000857 153 0 76
0.556923 -0.334395 -0.101766 76 153 0
-0.018155 0.344726 -0.054123 153 0 76
0.528887 -0.480506 -0.172961 0 127 127
0.566834 -0.375510 -0.114787 76 153 0
0.462907 -0.483620 0.039959 0 127 127
-0.645574 -0.110351 -0.099586 0 127 127
-0.735804 -0.137199 -0.059668 0 127 127
-0.043891 -0.227680 -0.095190 0 255 0
0.022594 0.668542 -0.101836 153 0 76
-0.026379 0.431489 -0.064059 153 0 76
0.588647 -0.484924 -0.177206 0 127 127
-0.103454 -0.483319 0.004093 255 0 0
0.015698 0.943985 0.112793 153 0 76
0.479538 -0.370923 -0.154726 76 153 0
-0.063571 -0.465841 -0.143627 255 0 0
0.507445 -0.480817 0.021719 0 127 127
0.509896 -0.181390 -0.084774 76 153 0
0.036030 0.503798 -0.069351 153 0 76
-0.522477 -0.411436 -0.155270 127 0 127
-0.564157 -0.094799 -0.075734 0 127 127
-0.021937 -0.178341 -0.100300 153 0 76
0.542827 -0.463996 -0.010839 76 153 0
0.440242 -0.484322 0.038591 0 127 127
0.565914 -0.491506 0.046216 0 127 127
0.412503 -0.398470 -0.085588 76 153 0
-0.512034 -0.446705 -0.158604 127 0 127
0.027437 0.548017 -0.102930 153 0 76
-0.000988 0.738318 -0.093666 153 0 76
-0.028018 0.876457 0.374000 153 0 76
0.025946 0.088118 -0.053649 153 0 76
0.035088 0.110442 -0.065862 153 0 76
-0.024583 0.743958 -0.040972 153 0 76
0.066277 -0.490800 0.042541 255 0 0
-0.004699 -0.431319 -0.153923 0 255 0
0.022188 0.948083 0.301372 153 0 76
0.037053 0.937229 0.213552 153 0 76
-0.012078 -0.002611 -0.048913 153 0 76
-0.035895 -0.376708 -0.023341 0 255 0
-0.768384 -0.141514 -0.046257 0 127 127
0.035191 0.786356 0.456594 153 0 76
-0.021544 0.948162 0.275716 153 0 76
-0.524418 -0.209746 -0.060701 127 0 127
-0.003861 0.871149 -0.015451 153 0 76
0.393100 -0.484191 -0.155058 0 127 127
0.759349 -0.113047 -0.071520 76 153 0
-0.010142 0.640928 0.484943 153 0 76
-0.527021 -0.227854 -0.076484 127 0 127
0.775268 -0.160602 -0.078293 76 153 0
-0.549701 -0.372037 -0.125924 127 0 127
0.418756 -0.435085 -0.044974 76 153 0
0.002230 0.587614 -0.112999 153 0 76
-0.369721 -0.149736 -0.094975 0 127 127
-0.035528 0.449133 0.522747 0 0 255
-0.453332 -0.227040 -0.100057 127 0 127
0.016657 0.619114 0.486383 153 0 76
-0.013062 -0.473693 -0.197049 255 0 0
0.037280 0.848469 0.016058 153 0 76
0.069841 -0.470220 0.006014 255 0 0
0.015001 0.269507 -0.047517 153 0 76
0.004318 0.922012 0.384290 153 0 76
0.017207 0.569729 -0.109973 153 0 76
-0.464470 -0.480406 -0.174191 127 127 0
0.026811 -0.086788 -0.103627 153 0 76
0.501276 -0.192549 -0.102381 76 153 0
0.574167 -0.469263 -0.048813 76 153 0
-0.010663 -0.258464 -0.026874 0 255 0
0.003330 -0.316343 -0.141148 0 255 0
0.023373 0.952875 0.153054 153 0 76
-0.001463 0.809471 0.016399 153 0 76
-0.019203 0.005417 -0.103019 153 0 76
-0.024110 0.392303 -0.060058 153 0 76
-0.568185 -0.408496 -0.060033 127 0 127
0.018669 -0.465362 -0.168409 255 0 0
-0.533084 -0.372257 -0.142200 127 0 127
-0.021416 0.189890 -0.057358 153 0 76
-0.406470 -0.134680 -0.044089 0 127 127
-0.638910 -0.152179 -0.058539 0 127 127
-0.046607 -0.249721 -0.062617 0 255 0
0.037193 0.925925 0.245259 153 0 76
-0.011013 0.804603 0.010317 153 0 76
0.026089 -0.019110 -0.104340 153 0 76
-0.455864 -0.235970 -0.077331 127 0 127
0.025087 0.379440 -0.105286 153 0 76
-0.020642 0.571112 0.560199 204 51 127
0.546927 -0.294380 -0.079497 76 153 0
-0.554336 -0.421761 -0.128081 127 0 127
0.621635 -0.135952 -0.110055 76 153 0
-0.624425 -0.126739 -0.048776 0 127 127
0.013732 -0.143412 -0.111017 153 0 76
0.004274 0.743090 0.530179 153 0 76
-0.390686 -0.098046 -0.110195 0 127 127
-0.056842 -0.310586 -0.075822 0 255 0
-0.022303 -0.135126 -0.099931 153 0 76
-0.018430 0.146077 -0.103781 153 0 76
-0.043914 -0.446763 -0.011426 0 255 0
0.635220 -0.486111 -0.108502 0 127 127
-0.379937 -0.485028 -0.159479 127 127 0
-0.061396 -0.444571 -0.130124 0 255 0
0.565729 -0.386535 -0.123323 76 153 0
-0.562951 -0.102189 -0.056906 0 127 127
-0.553377 -0.460406 -0.129516 127 0 127
-0.515651 -0.491018 -0.219331 127 127 0
0.038557 -0.093408 -0.078647 153 0 76
-0.420036 -0.123017 -0.103840 0 127 127
0.016370 0.707516 -0.097269 153 0 76
0.536552 -0.132438 -0.097884 76 153 0
0.608222 -0.482046 -0.080748 0 127 127
0.010015 0.167778 -0.046154 153 0 76
0.520642 -0.316127 -0.132134 76 153 0
-0.495388 -0.433606 0.003914 127 0 127
0.429218 -0.395979 -0.029317 76 153 0
0.616143 -0.098529 -0.077612 76 153 0
-0.521511 -0.117263 -0.075331 0 127 127
0.527531 -0.201763 -0.069651 76 153 0
0.409122 -0.482450 -0.154442 0 127 127
0.103658 -0.481822 0.016081 255 0 0
0.560272 -0.465874 -0.026510 76 153 0
-0.015199 0.222477 -0.051151 153 0 76
0.015033 0.786851 0.507883 153 0 76
0.022779 0.801360 0.428812 153 0 76
-0.465861 -0.208309 -0.045956 127 0 127
0.042306 -0.186618 -0.075450 0 255 0
-0.069279 -0.465821 -0.023044 255 0 0
-0.029608 0.681400 0.506085 153 0 76
-0.428629 -0.320522 -0.088694 127 0 127
0.775547 -0.102186 -0.090522 76 153 0
0.508415 -0.143679 -0.113114 76 153 0
-0.009988 0.445996 -0.109725 153 0 76
0.037014 0.273262 -0.085184 153 0 76
-0.040536 -0.239785 -0.052725 0 255 0
0.526373 -0.111588 -0.074403 76 153 0
0.597109 -0.160268 -0.095633 76 153 0
-0.537184 -0.300878 -0.098959 127 0 127
0.125738 -0.478187 -0.018841 255 0 0
0.016324 -0.359111 -0.144219 0 255 0
-0.078947 -0.489698 -0.186591 255 0 0
0.000112 -0.470740 0.031332 255 0 0
-0.526761 -0.292559 -0.109675 127 0 127
0.032786 0.836283 -0.026668 153 0 76
-0.019213 0.583143 -0.102940 153 0 76
-0.024828 -0.353153 -0.138585 0 255 0
-0.029340 0.169131 -0.074958 153 0 76
-0.515998 -0.214185 -0.043702 127 0 127
0.463423 -0.270152 -0.052060 76 153 0
-0.524142 -0.292357 -0.044535 127 0 127
-0.027400 -0.139568 -0.067786 153 0 76
0.400874 -0.087630 -0.088617 76 153 0
0.035422 0.643910 0.527510 153 0 76
0.413506 -0.411071 -0.067372 76 153 0
-0.027843 0.083137 -0.088697 153 0 76
-0.549235 -0.405038 -0.022285 127 0 127
-0.551400 -0.105804 -0.066635 0 127 127
-0.369721 -0.155609 -0.078136 0 127 127
0.626753 -0.101144 -0.069466 76 153 0
-0.022081 0.872661 0.429454 153 0 76
0.034188 0.554090 -0.095561 153 0 76
0.523152 -0.466585 0.000025 76 153 0
-0.023932 0.206582 -0.098274 153 0 76
0.041209 -0.470218 -0.180923 255 0 0
-0.055047 -0.311235 -0.091614 0 255 0
0.036705 0.650438 0.507628 153 0 76
0.020956 0.781108 0.439991 153 0 76
-0.028748 0.451111 0.507401 0 0 255
-0.802851 -0.139812 -0.095655 0 127 127
0.027857 0.390203 -0.055594 153 0 76
-0.521079 -0.147512 -0.070056 0 127 127
-0.071178 -0.474278 0.016385 255 0 0
-0.131390 -0.480755 -0.065136 255 0 0
-0.538522 -0.113411 -0.088186 0 127 127
0.030139 0.504986 -0.057883 153 0 76
0.030010 0.948153 0.274902 153 0 76
0.578435 -0.405856 -0.087733 76 153 0
0.110497 -0.483572 -0.163850 255 0 0
-0.403344 -0.407988 -0.080834 127 0 127
-0.022515 -0.342632 -0.019425 0 255 0
0.405884 -0.113277 -0.041553 76 153 0
-0.029434 0.725724 0.502908 153 0 76
-0.001041 0.539072 0.569528 204 51 127
-0.601839 -0.099635 -0.069178 0 127 127
0.575291 -0.385252 -0.101592 76 153 0
0.066066 -0.411394 -0.117233 0 255 0
-0.529296 -0.317439 -0.036580 127 0 127
0.498536 -0.219517 -0.124518 76 153 0
-0.448733 -0.322266 -0.032461 127 0 127
0.805561 -0.146225 -0.089872 76 153 0
0.023510 0.958887 0.231287 153 0 76
0.004148 0.830487 -0.048850 153 0 76
-0.036442 0.478414 0.509217 204 51 127
0.439810 -0.126210 -0.097282 76 153 0
-0.073161 -0.474059 -0.172159 255 0 0
0.542370 -0.479976 -0.161427 0 127 127
-0.530743 -0.114517 -0.069529 0 127 127
-0.005262 0.048138 -0.111060 153 0 76
0.031709 0.895227 0.309005 153 0 76
-0.019736 0.760716 -0.079888 153 0 76
-0.028838 0.921922 0.308414 153 0 76
0.482245 -0.440695 -0.160817 76 153 0
0.059883 -0.490547 -0.204817 255 0 0
-0.051397 -0.267438 -0.075564 0 255 0
0.553709 -0.478527 -0.017821 0 127 127
-0.009343 0.773942 -0.008534 153 0 76
0.429870 -0.117879 -0.100170 76 153 0
-0.482736 -0.197455 -0.050542 127 0 127
-0.523587 -0.255854 -0.085713 127 0 127
0.494471 -0.242010 -0.046778 76 153 0
-0.600105 -0.140526 -0.110393 0 127 127
0.044158 0.523563 0.503402 204 51 127
-0.778886 -0.101492 -0.076336 0 127 127
0.442996 -0.478705 -0.012572 76 153 0
0.025215 0.851709 -0.025724 153 0 76
-0.025635 0.881700 0.352501 153 0 76
0.031477 0.560053 0.487097 204 51 127
0.061926 -0.380010 -0.041500 0 255 0
0.785365 -0.124565 -0.114104 76 153 0
0.517741 -0.403689 0.001101 76 153 0
0.522761 -0.328058 -0.135792 76 153 0
0.028122 0.837141 0.466459 153 0 76
-0.017043 -0.028054 -0.052960 153 0 76
0.806690 -0.112284 -0.082259 76 153 0
0.494126 -0.480050 0.017613 0 127 127
0.482731 -0.325703 -0.139059 76 153 0
-0.012658 -0.130011 -0.049052 153 0 76
-0.009099 0.483746 0.572201 204 51 127
-0.445504 -0.133447 -0.097684 0 127 127
0.538642 -0.143701 -0.093057 76 153 0
-0.028596 0.867988 0.022769 153 0 76
-0.571026 -0.472281 -0.074318 127 0 127
-0.486388 -0.388767 -0.163275 127 0 127
-0.018691 0.271097 -0.103504 153 0 76
0.026930 0.905533 0.259332 153 0 76
-0.019743 0.908152 0.225718 153 0 76
-0.494273 -0.292220 -0.029790 127 0 127
-0.371279 -0.486151 0.004375 127 127 0
-0.017084 -0.257226 -0.129615 0 255 0
-0.369236 -0.483269 -0.101308 127 127 0
0.005072 0.147561 -0.044817 153 0 76
0.538626 -0.299155 -0.049592 76 153 0
-0.034877 0.515297 0.550793 204 51 127
0.026318 0.654336 -0.050032 153 0 76
0.625265 -0.114075 -0.105229 76 153 0
0.008299 0.703268 0.470210 153 0 76
0.038417 0.930395 0.234196 153 0 76
-0.003277 0.775875 -0.081008 153 0 76
0.638479 -0.100789 -0.081224 76 153 0
0.056917 -0.322512 -0.046692 0 255 0
0.490692 -0.236360 -0.109554 76 153 0
0.036809 0.903947 0.323692 153 0 76
-0.424612 -0.335503 -0.095648 127 0 127
-0.526405 -0.273751 -0.098239 127 0 127
-0.024231 -0.194819 -0.115637 0 255 0
0.030431 0.388692 -0.099961 153 0 76
-0.029997 0.823660 -0.011066 153 0 76
0.012779 -0.120200 -0.111271 153 0 76
0.377935 -0.129511 -0.066519 76 153 0
0.016557 0.411528 -0.110170 153 0 76
0.026462 0.802607 0.002612 153 0 76
0.024873 0.735384 0.469907 153 0 76
-0.768088 -0.127232 -0.045953 0 127 127
-0.707135 -0.113935 -0.094810 0 127 127
0.025586 0.590035 -0.104771 153 0 76
0.540108 -0.275790 -0.080086 76 153 0
-0.480346 -0.261782 -0.117175 127 0 127
-0.523274 -0.128978 -0.097832 0 127 127
-0.030061 0.913418 0.123854 153 0 76
0.013324 0.326733 -0.111054 153 0 76
0.038668 0.584614 -0.079054 153 0 76
-0.018834 0.604917 0.494468 153 0 76
-0.012284 0.876715 0.334208 153 0 76
-0.466399 -0.485429 0.056761 127 127 0
0.465373 -0.492863 0.060907 0 127 127
0.458682 -0.415792 -0.004061 76 153 0
0.035872 -0.473268 0.034656 255 0 0
-0.039424 0.499913 0.518510 204 51 127
-0.008232 0.900446 0.191597 153 0 76
-0.468838 -0.160363 -0.097747 0 127 127
-0.020551 0.486893 -0.101621 153 0 76
-0.544266 -0.340170 -0.113778 127 0 127
0.451522 -0.144779 -0.092036 76 153 0
-0.396776 -0.479559 -0.090566 127 0 127
0.786371 -0.099536 -0.085510 76 153 0
-0.017516 0.244830 -0.053471 153 0 76
-0.009226 0.961930 0.241550 153 0 76
-0.453885 -0.390830 -0.156223 127 0 127
0.595085 -0.484970 0.012822 0 127 127
0.704079 -0.155054 -0.079637 76 153 0
0.545732 -0.423452 -0.012780 76 153 0
-0.569746 -0.383546 -0.085084 127 0 127
0.015909 0.935457 0.349601 153 0 76
0.403840 -0.481578 -0.134223 0 127 127
-0.406631 -0.483326 0.012221 127 127 0
-0.368131 -0.482943 -0.075342 127 127 0
-0.019141 0.902546 0.041495 153 0 76
-0.025846 0.762105 0.506583 153 0 76
0.404023 -0.172098 -0.087588 76 153 0
0.026917 -0.447862 0.000950 0 255 0
0.035630 0.674536 -0.083039 153 0 76
0.541144 -0.112659 -0.084140 76 153 0
-0.844061 -0.139612 -0.095789 0 127 127
0.025786 0.292108 -0.053517 153 0 76
-0.552108 -0.129893 -0.048841 0 127 127
-0.375941 -0.112046 -0.047979 0 127 127
0.434487 -0.374520 -0.028945 76 153 0
-0.049697 -0.252381 -0.076481 0 255 0
0.566513 -0.354807 -0.090545 76 153 0
-0.510277 -0.143546 -0.050947 0 127 127
0.031187 0.540593 -0.058932 153 0 76
-0.539136 -0.333204 -0.040980 127 0 127
-0.056061 -0.333785 -0.057318 0 255 0
-0.446691 -0.406823 -0.006585 127 0 127
-0.049748 -0.385346 -0.123613 0 255 0
-0.022790 0.903248 0.280535 153 0 76
-0.014700 -0.388480 -0.146579 0 255 0
-0.132593 -0.487957 -0.086820 255 0 0
0.442757 -0.131964 -0.060022 76 153 0
0.835906 -0.115012 -0.068787 76 153 0
-0.015107 0.687401 -0.097726 153 0 76
0.433395 -0.109237 -0.085412 76 153 0
0.031022 0.055011 -0.058723 153 0 76
-0.028072 0.922615 0.246721 153 0 76
-0.777958 -0.163935 -0.080225 0 127 127
0.426796 -0.441851 -0.125060 76 153 0
0.490972 -0.478772 0.006760 0 127 127
-0.015639 0.943623 0.310266 153 0 76
0.086277 -0.464698 -0.043129 255 0 0
0.382691 -0.493085 -0.167529 0 127 127
0.550331 -0.337076 -0.115024 76 153 0
0.032147 0.761660 -0.029859 153 0 76
-0.407787 -0.391031 -0.054830 127 0 127
0.070543 -0.416223 -0.046405 0 255 0
-0.466060 -0.200590 -0.103073 127 0 127
-0.030276 0.856260 0.017062 153 0 76
-0.109618 -0.472097 -0.068187 255 0 0
0.028416 0.450476 0.565928 0 0 255
-0.648724 -0.131626 -0.107606 0 127 127
0.034595 0.758185 -0.071849 153 0 76
0.576989 -0.482201 0.000787 0 127 127
-0.017640 0.914946 0.378974 153 0 76
0.054343 -0.467728 0.006083 255 0 0
-0.024361 0.561064 -0.097815 153 0 76
-0.016963 0.957238 0.257961 153 0 76
0.035141 0.927680 0.121525 153 0 76
0.528488 -0.224850 -0.105915 76 153 0
0.036704 0.180694 -0.071833 153 0 76
