ply
format ascii 1.0
element vertex 1264
property float x
property float y
property float z
property uchar red
property uchar green
property uchar blue
end_header
-0.512395 0.083822 -0.100395 204 51 127
-0.624147 -0.091002 -0.187846 255 0 0
0.289948 -0.091002 -0.124820 255 0 0
0.689822 0.083822 0.014739 204 51 127
-0.165849 0.083822 0.153864 204 51 127
0.316739 -0.091002 0.195379 255 0 0
0.213482 0.083822 -0.003401 204 51 127
-0.842464 0.057931 -0.217380 153 76 0
-0.192852 -0.091002 -0.135980 255 0 0
-0.901877 0.089518 0.131695 76 0 153
-0.782301 -0.062778 -0.183710 153 0 76
-0.305966 -0.085306 0.096304 255 0 0
-0.353227 0.089518 0.157633 204 51 127
0.076283 0.083822 0.018749 204 51 127
0.700576 -0.091002 0.066458 255 0 0
-0.281125 0.089518 -0.199687 204 51 127
-0.228893 -0.091002 0.038008 255 0 0
-0.618135 -0.091002 0.109316 255 0 0
-0.194571 0.089518 0.193228 204 51 127
0.604193 0.089518 -0.162427 204 51 127
0.362201 -0.091002 -0.106394 255 0 0
0.339897 -0.085306 0.109392 255 0 0
-0.830437 0.058109 0.241280 76 0 153
0.048808 0.083822 0.101537 204 51 127
-0.284234 -0.085306 -0.145410 255 0 0
0.167253 -0.085306 -0.083729 255 0 0
-0.349350 -0.091002 0.098581 255 0 0
-0.874406 -0.187277 0.237991 127 0 127
0.677198 0.089518 -0.056471 204 51 127
-0.677201 -0.091002 0.168873 255 0 0
0.368431 -0.091002 -0.158461 255 0 0
0.929744 -0.270631 0.204256 153 0 76
-0.227210 0.089518 0.086783 204 51 127
-0.903382 0.057931 -0.017591 76 0 153
-0.301667 0.083822 0.124866 204 51 127
0.889028 -0.209108 0.210900 0 127 127
0.419944 -0.085306 -0.192590 255 0 0
-0.717509 -0.085306 0.194476 255 0 0
-0.590783 -0.085306 0.076745 255 0 0
-0.438944 -0.085306 0.097637 255 0 0
-0.000053 -0.050267 -0.183176 153 0 76
0.775626 -0.085306 0.025486 255 0 0
-0.671928 -0.085306 0.054277 255 0 0
-0.434807 0.089518 -0.108503 204 51 127
0.794143 0.057931 -0.239528 153 76 0
0.243866 -0.091002 -0.110787 255 0 0
-0.875864 0.057931 0.196456 76 0 153
0.883998 0.083822 -0.016405 153 0 76
-0.466068 -0.091002 -0.170219 255 0 0
-0.860410 -0.270067 0.248101 153 0 76
0.913648 0.089518 -0.140500 153 0 76
0.806139 0.089518 0.189758 204 51 127
-0.076391 0.089518 -0.045706 204 51 127
0.286186 0.057931 -0.216426 153 76 0
0.628181 0.057931 -0.211952 153 76 0
0.637115 0.089518 -0.089683 204 51 127
-0.336502 -0.085306 0.174066 255 0 0
0.274634 0.089518 0.214148 204 51 127
0.888505 -0.027483 -0.214688 0 255 0
-0.841972 0.089518 0.019527 204 51 127
0.918885 0.088659 -0.202178 153 0 76
0.435796 0.089518 -0.142162 204 51 127
-0.533346 0.083822 -0.163375 204 51 127
0.504841 0.089518 -0.026091 204 51 127
0.710862 -0.085306 -0.123100 255 0 0
0.065285 0.083822 -0.150250 204 51 127
0.443597 0.089518 -0.079998 204 51 127
-0.725297 0.089518 0.210857 204 51 127
-0.003101 -0.055532 0.184850 204 51 127
0.870580 0.083822 -0.147725 204 51 127
-0.765322 -0.088657 -0.211488 255 0 0
0.858686 0.089518 -0.239930 153 76 0
-0.753638 0.059279 -0.211488 153 76 0
0.160912 0.057931 0.211285 76 0 153
0.091759 -0.091002 -0.073056 255 0 0
0.540730 0.083822 0.001822 204 51 127
0.351556 0.057931 -0.213244 153 76 0
0.568974 -0.085306 -0.078955 255 0 0
0.639326 0.083822 -0.142156 204 51 127
0.146122 0.083822 0.042538 204 51 127
-0.196715 0.083822 -0.103302 204 51 127
-0.439676 -0.085306 -0.117028 255 0 0
0.088604 0.059350 -0.211488 153 76 0
-0.429540 0.089518 -0.034289 204 51 127
-0.128552 0.089518 0.233916 76 0 153
0.766534 0.089518 -0.157461 204 51 127
0.238024 0.057931 0.241067 76 0 153
-0.452242 -0.091002 0.182735 255 0 0
-0.519348 0.083822 -0.017485 204 51 127
0.819512 -0.091002 -0.041390 255 0 0
0.182622 0.089518 0.073100 204 51 127
0.513760 -0.087795 0.210900 255 0 0
-0.749559 0.083822 0.005787 204 51 127
-0.158110 0.083822 -0.172187 204 51 127
0.940790 -0.260505 -0.240368 76 153 0
-0.180980 -0.091002 0.153613 255 0 0
0.132712 -0.091002 0.109258 255 0 0
0.462914 0.089518 0.008127 204 51 127
-0.878259 0.012371 -0.241867 0 127 127
0.162959 0.083822 0.001753 204 51 127
0.910065 0.057931 0.130868 153 0 76
-0.496544 0.058535 0.210900 76 0 153
0.633867 -0.091002 -0.102756 255 0 0
-0.904785 -0.180148 -0.212503 0 127 127
0.192850 0.083822 -0.164049 204 51 127
0.818770 -0.085306 0.017832 255 0 0
-0.464820 -0.091002 -0.020773 255 0 0
-0.903087 0.027896 0.210900 127 0 127
-0.215907 0.057931 0.211749 76 0 153
-0.898301 0.089518 -0.083255 76 0 153
0.336396 -0.091002 -0.183762 255 0 0
0.216166 0.083822 -0.117851 204 51 127
-0.094354 0.088878 0.210900 204 51 127
-0.117642 0.083822 -0.117621 204 51 127
0.500601 -0.085306 -0.208495 255 0 0
-0.717456 -0.091002 -0.134367 255 0 0
0.605396 0.089518 0.217953 76 0 153
0.720711 0.089518 -0.241051 153 76 0
-0.306214 0.083822 0.210837 204 51 127
-0.309471 -0.091002 0.020136 255 0 0
0.516348 0.064110 0.210900 76 0 153
0.316717 -0.091002 -0.095708 255 0 0
0.750970 0.089518 -0.026996 204 51 127
0.784710 -0.091002 -0.111733 255 0 0
-0.582116 0.089518 0.108175 204 51 127
0.474758 0.089518 -0.213630 204 51 127
-0.577609 0.057931 0.211231 76 0 153
0.178482 -0.085306 -0.190286 255 0 0
0.711544 0.083822 0.155648 204 51 127
-0.801974 -0.085306 0.106507 255 0 0
-0.509025 0.083822 0.081233 204 51 127
0.196560 0.089518 -0.080802 204 51 127
-0.719206 0.083822 -0.063556 204 51 127
-0.554147 -0.085306 -0.193452 255 0 0
-0.514290 0.089518 -0.219586 204 51 127
0.665269 0.083822 -0.015590 204 51 127
-0.778430 -0.091002 -0.047169 255 0 0
0.109151 0.089518 0.216380 76 0 153
0.888505 0.058493 0.060764 153 0 76
-0.874419 -0.071429 -0.241867 0 127 127
-0.399494 0.083822 -0.179518 204 51 127
-0.904785 0.043291 -0.216810 0 127 127
-0.134060 0.089518 -0.009277 204 51 127
0.066465 -0.085306 0.118290 255 0 0
-0.336963 0.089518 -0.218149 153 76 0
0.317252 0.083822 -0.157364 204 51 127
-0.185088 0.089518 0.021259 204 51 127
-0.187048 0.083822 -0.064818 204 51 127
-0.874406 0.061253 0.121537 76 0 153
0.216285 -0.091002 0.011158 255 0 0
0.024890 -0.091002 -0.033051 255 0 0
-0.658306 0.089518 0.235798 76 0 153
0.667239 0.083822 0.112672 204 51 127
0.877863 0.089518 0.165211 204 51 127
-0.132359 0.058631 0.210900 76 0 153
-0.591990 -0.085306 -0.167107 255 0 0
-0.232665 -0.091002 -0.102393 255 0 0
0.349960 0.083822 0.023819 204 51 127
-0.525991 0.089518 0.045994 204 51 127
-0.446251 0.058611 0.210900 76 0 153
-0.365952 0.083822 -0.066427 204 51 127
-0.115890 -0.091002 -0.037691 255 0 0
0.768743 0.089518 0.200458 204 51 127
-0.871266 0.089518 0.169865 204 51 127
-0.888300 0.089518 -0.161932 76 0 153
-0.236807 0.089518 0.125171 204 51 127
0.074531 0.089518 -0.191391 204 51 127
-0.704226 0.089518 -0.105943 204 51 127
0.255117 0.083822 -0.119834 204 51 127
-0.469843 0.089518 0.207250 76 0 153
0.522166 0.089518 0.048059 204 51 127
0.336066 -0.085306 0.030086 255 0 0
0.086308 0.083822 0.171910 204 51 127
0.302546 0.089518 0.162597 204 51 127
-0.897709 0.089518 0.003284 76 0 153
-0.539715 0.083822 0.162312 204 51 127
-0.866726 0.089518 -0.227549 204 51 127
-0.183355 -0.085306 0.104563 255 0 0
0.886877 0.057931 0.239215 76 0 153
-0.315936 -0.085306 -0.171412 255 0 0
0.891699 -0.067880 0.210900 127 127 0
-0.274327 -0.091002 -0.001239 255 0 0
0.743607 0.088974 0.241280 76 0 153
-0.367444 -0.091002 0.062520 255 0 0
-0.511814 -0.085306 -0.008469 255 0 0
0.021411 0.083822 0.206460 76 0 153
-0.054244 0.089518 -0.004093 204 51 127
-0.314237 0.089518 -0.181214 204 51 127
-0.284059 -0.091002 0.126717 255 0 0
-0.454286 -0.091002 0.040493 255 0 0
-0.897290 0.089518 -0.037464 76 0 153
0.301012 -0.085306 -0.164493 255 0 0
0.505981 -0.085306 -0.125828 255 0 0
-0.904785 -0.102315 -0.212635 0 127 127
0.016931 0.089518 0.082176 204 51 127
-0.341264 0.089518 0.063370 204 51 127
-0.347105 0.066097 0.241280 76 0 153
0.669568 0.057931 0.219926 76 0 153
0.515182 0.089518 -0.200676 204 51 127
0.516685 0.089518 0.120080 204 51 127
-0.904785 -0.123928 0.231904 127 0 127
-0.784181 0.047280 0.181760 76 0 153
-0.109040 0.089518 0.035801 204 51 127
0.041979 -0.085306 0.001094 255 0 0
-0.775582 0.083822 0.076188 204 51 127
0.817552 0.089518 -0.240925 153 76 0
-0.883963 0.057931 0.064419 76 0 153
-0.283617 0.088713 0.241280 76 0 153
0.647632 -0.085306 0.120152 255 0 0
0.525575 -0.091002 0.137608 255 0 0
0.574364 0.089518 0.239606 76 0 153
-0.370152 0.089518 -0.143432 204 51 127
0.918885 -0.186704 0.215293 127 127 0
0.415014 0.089518 0.062093 204 51 127
-0.053961 -0.091002 0.053030 255 0 0
-0.307023 0.083822 -0.023366 204 51 127
-0.094484 0.057931 -0.221753 153 76 0
-0.009687 0.057931 -0.233106 153 76 0
0.325238 0.083822 -0.105317 204 51 127
-0.663640 -0.085306 -0.127597 255 0 0
0.304053 0.089518 -0.030531 204 51 127
-0.502687 0.089518 0.230885 76 0 153
-0.419028 0.089518 -0.240801 153 76 0
0.888505 -0.141941 0.233330 127 127 0
-0.687245 0.057931 -0.217565 153 76 0
-0.894600 -0.272085 -0.246881 255 0 0
0.426014 -0.085306 -0.104392 255 0 0
0.383981 -0.091002 0.087928 255 0 0
-0.874406 -0.206313 -0.228690 0 127 127
-0.686019 0.089518 -0.239085 153 76 0
0.922735 -0.236134 -0.202111 0 127 127
-0.141252 -0.091002 -0.180021 255 0 0
-0.238975 0.083822 0.182750 204 51 127
-0.231454 0.089518 -0.240202 153 76 0
0.742042 -0.085306 -0.173073 255 0 0
0.355020 0.089518 -0.050847 204 51 127
0.229505 0.083822 0.179207 204 51 127
-0.400903 -0.085306 0.132399 255 0 0
0.619244 -0.085306 -0.027201 255 0 0
-0.488701 0.083822 0.156210 204 51 127
0.888406 -0.252634 0.243542 76 153 0
-0.702434 -0.085306 0.115813 255 0 0
-0.772368 0.089518 -0.201286 204 51 127
-0.649252 0.083822 0.098955 204 51 127
0.042579 -0.087456 0.210900 255 0 0
-0.851566 -0.257446 -0.207008 0 255 0
-0.063193 0.062572 0.241280 76 0 153
-0.901665 -0.069142 0.241280 127 0 127
0.160773 -0.085306 0.164719 255 0 0
-0.572390 0.087727 -0.241867 153 76 0
-0.298670 -0.085306 0.171772 255 0 0
-0.128135 0.089518 -0.201156 204 51 127
0.212441 0.059339 0.210900 76 0 153
-0.467643 0.057931 -0.213119 153 76 0
0.305119 0.089518 -0.217577 153 76 0
-0.679819 0.083822 0.029079 204 51 127
0.085017 0.058063 0.210900 76 0 153
0.761116 0.089518 -0.200441 204 51 127
0.506864 -0.085306 -0.029955 255 0 0
0.685599 -0.085306 -0.034586 255 0 0
0.388053 0.089518 -0.149597 204 51 127
-0.655084 0.061622 0.210900 76 0 153
-0.179305 0.060587 0.210900 76 0 153
-0.415832 -0.091002 0.174944 255 0 0
0.803977 0.083822 0.152785 204 51 127
-0.756122 0.089518 0.230909 76 0 153
-0.892643 0.057931 -0.141117 76 0 153
0.888505 -0.126986 -0.227325 0 255 0
0.829249 0.079046 0.241280 76 0 153
0.008220 -0.086390 -0.211488 255 0 0
-0.874979 -0.120619 0.210900 127 0 127
0.217641 0.089518 0.053253 204 51 127
-0.590733 -0.091002 -0.021608 255 0 0
-0.049977 0.083822 -0.074496 204 51 127
0.918646 -0.208736 -0.241867 0 255 0
0.729529 0.083822 0.084787 204 51 127
-0.386339 0.089518 0.213555 76 0 153
-0.040863 0.083822 -0.134557 204 51 127
-0.106959 -0.091002 -0.163298 255 0 0
-0.422418 0.083822 0.155182 204 51 127
0.347091 0.089518 0.213235 76 0 153
0.158717 0.089518 0.188899 204 51 127
-0.483075 0.089518 -0.033035 204 51 127
-0.124463 0.062487 -0.241867 153 76 0
0.307580 0.057931 0.216407 76 0 153
0.699970 -0.091002 0.192917 255 0 0
-0.904785 0.089281 0.061888 76 0 153
-0.691608 -0.085306 -0.066172 255 0 0
-0.474589 0.089518 0.093688 204 51 127
-0.401205 -0.091002 -0.066422 255 0 0
0.918885 -0.070950 -0.216156 0 255 0
0.486388 0.083822 0.052153 204 51 127
0.747728 -0.091002 0.003027 255 0 0
0.261404 -0.091002 0.098047 255 0 0
-0.185941 -0.085306 0.038395 255 0 0
-0.076987 -0.085306 0.133912 255 0 0
-0.871957 -0.240550 0.218705 76 0 153
-0.390564 0.057931 -0.240070 153 76 0
0.109243 0.089518 0.144490 204 51 127
-0.136470 -0.085306 -0.004392 255 0 0
-0.446634 0.089518 -0.142700 204 51 127
0.004174 -0.085306 0.103244 255 0 0
-0.364684 -0.085306 0.130816 255 0 0
0.918619 -0.091921 0.210900 127 127 0
-0.672071 0.083822 0.158012 204 51 127
-0.313790 -0.091002 -0.051941 255 0 0
-0.747452 0.089518 0.141559 204 51 127
-0.769992 -0.091002 -0.083276 255 0 0
-0.639477 0.089518 -0.079695 204 51 127
0.483076 0.089518 0.241132 76 0 153
-0.281820 0.057931 0.218342 76 0 153
-0.420646 0.057931 0.239143 76 0 153
0.671931 -0.091002 -0.178323 255 0 0
0.191290 -0.091002 -0.055947 255 0 0
-0.683922 0.083822 -0.028885 204 51 127
0.497195 0.083822 -0.096607 204 51 127
0.915255 0.089518 0.107648 153 0 76
0.482276 0.083822 -0.147229 204 51 127
0.102403 -0.085306 0.182454 255 0 0
-0.418983 -0.091002 -0.027716 255 0 0
-0.376534 0.083822 0.092807 204 51 127
0.280738 0.083822 0.015859 204 51 127
0.522323 0.089518 0.178336 204 51 127
-0.059994 0.089518 -0.221409 204 51 127
0.368124 0.089518 -0.205033 204 51 127
0.710238 0.089518 -0.113394 204 51 127
0.454767 -0.091002 0.179952 255 0 0
0.888505 0.088700 0.079422 204 51 127
-0.007552 -0.085306 -0.089736 255 0 0
-0.497730 0.089518 -0.146053 204 51 127
-0.904785 0.059118 0.233317 76 0 153
0.361840 0.083822 0.060668 204 51 127
-0.587621 0.077817 -0.211488 204 51 127
-0.220723 0.057931 -0.214233 153 76 0
0.638538 0.089518 0.181183 204 51 127
-0.609394 0.089518 0.239115 76 0 153
-0.657436 0.089518 -0.213722 204 51 127
0.748375 0.083822 0.044752 204 51 127
0.098481 -0.091002 -0.125158 255 0 0
0.100576 -0.085306 0.127267 255 0 0
0.595986 0.083822 -0.041083 204 51 127
-0.708593 0.057931 0.212459 76 0 153
0.893414 0.057931 -0.039490 153 0 76
0.888505 -0.067207 -0.241121 0 255 0
-0.130258 0.083822 0.160890 204 51 127
-0.741200 0.089518 0.071482 204 51 127
-0.904764 0.010307 0.241280 127 0 127
-0.874406 0.062378 -0.194425 76 0 153
-0.895033 -0.221342 0.243573 204 51 127
0.103906 0.089518 -0.222972 153 76 0
0.818234 0.089518 -0.117841 204 51 127
0.470714 0.089518 0.091499 204 51 127
0.257564 -0.085306 0.176987 255 0 0
0.664182 0.057931 -0.214241 153 76 0
-0.625909 0.057931 -0.222175 153 76 0
0.199298 0.089518 -0.236943 153 76 0
-0.817176 0.089518 -0.096385 204 51 127
-0.014250 -0.085306 0.170115 255 0 0
0.383967 -0.085306 -0.076385 255 0 0
0.358378 0.089518 -0.168173 204 51 127
0.866330 0.083822 0.044680 204 51 127
-0.046234 -0.091002 -0.060690 255 0 0
0.001858 0.089518 -0.187212 204 51 127
-0.786070 0.089518 -0.035674 204 51 127
0.820151 -0.090742 0.191447 255 0 0
-0.511948 -0.091002 -0.125540 255 0 0
0.147133 0.057931 -0.212841 153 76 0
-0.045895 -0.091002 -0.177607 255 0 0
-0.012125 0.089518 0.148201 204 51 127
0.251324 0.057931 -0.238553 153 76 0
0.612279 -0.091002 0.142416 255 0 0
-0.443177 0.089518 0.072300 204 51 127
-0.249376 -0.091002 0.128492 255 0 0
-0.759448 0.083822 -0.129981 204 51 127
-0.176218 -0.085306 0.207839 255 0 0
0.255663 0.057931 0.211181 76 0 153
0.451784 -0.085306 -0.075166 255 0 0
-0.004348 0.083822 -0.027211 204 51 127
-0.867090 0.083822 -0.053272 76 0 153
0.918291 0.057931 0.034928 153 0 76
0.902946 -0.275110 -0.244037 76 153 0
0.578259 -0.085306 0.085075 255 0 0
-0.367028 -0.091002 -0.100530 255 0 0
-0.570312 -0.091002 0.017050 255 0 0
0.207238 0.087971 0.241280 76 0 153
-0.248139 -0.091002 -0.176572 255 0 0
0.822501 0.083822 0.031588 204 51 127
0.181561 -0.091002 0.073040 255 0 0
0.446110 0.057931 0.214528 76 0 153
-0.226646 0.083822 -0.169857 204 51 127
0.535654 -0.085306 -0.171701 255 0 0
-0.276518 0.057931 -0.212280 153 76 0
0.846852 0.083822 0.199288 204 51 127
-0.890765 -0.028688 -0.211488 0 127 127
-0.540759 -0.091002 0.126111 255 0 0
-0.160754 -0.091002 -0.115608 255 0 0
-0.122549 0.083822 -0.081408 204 51 127
-0.011647 -0.085306 0.030915 255 0 0
-0.361389 -0.085306 -0.008995 255 0 0
0.761266 -0.085306 0.191065 255 0 0
-0.829292 0.089518 -0.152759 204 51 127
-0.221142 0.089518 0.035713 204 51 127
0.135100 -0.085306 -0.177352 255 0 0
-0.110140 0.083822 0.100441 204 51 127
-0.479255 -0.091002 -0.211124 255 0 0
-0.224429 -0.085306 0.097338 255 0 0
0.544830 0.083822 0.072974 204 51 127
-0.542432 0.057931 0.211333 76 0 153
0.918885 -0.117243 0.235740 127 127 0
-0.874406 0.066092 0.011835 76 0 153
0.409457 0.060879 -0.211488 153 76 0
-0.715035 0.089518 -0.171819 204 51 127
0.551915 0.089518 -0.077819 204 51 127
-0.648946 0.083822 -0.148524 204 51 127
-0.542935 0.089518 0.229429 76 0 153
0.746709 -0.085306 -0.138035 255 0 0
0.887548 0.089518 -0.061719 204 51 127
-0.629539 0.087805 -0.241867 153 76 0
-0.163829 -0.085306 -0.068454 255 0 0
-0.364395 0.083822 -0.007766 204 51 127
-0.014077 0.089518 0.096088 204 51 127
-0.387224 0.089518 -0.040276 204 51 127
0.380626 -0.091002 0.025945 255 0 0
0.808042 -0.085306 -0.168680 255 0 0
-0.638648 -0.085306 0.035638 255 0 0
0.394971 0.089518 -0.227861 153 76 0
-0.765329 -0.085306 -0.149178 255 0 0
0.196567 0.057931 -0.211664 153 76 0
-0.786624 -0.085306 -0.112266 255 0 0
0.779219 -0.085306 -0.194810 0 0 255
0.793041 0.057931 0.220246 76 0 153
-0.738481 0.089518 -0.213269 204 51 127
0.820151 -0.089249 0.094099 255 0 0
-0.650230 -0.085306 -0.167027 255 0 0
-0.134178 -0.085369 0.210900 255 0 0
-0.759705 0.083822 -0.066982 204 51 127
-0.810140 0.057931 0.212515 76 0 153
-0.904785 -0.198941 -0.241414 0 127 127
-0.253309 0.083822 -0.049496 204 51 127
0.729081 -0.091002 0.173254 255 0 0
-0.482698 -0.085306 0.169386 255 0 0
0.714528 -0.085306 0.004877 255 0 0
0.737319 -0.091002 0.076734 255 0 0
-0.229482 -0.091002 0.158409 255 0 0
0.858959 0.057931 0.219427 76 0 153
-0.050697 0.089518 0.071384 204 51 127
-0.320344 -0.091002 -0.101787 255 0 0
0.337024 0.089518 -0.020341 204 51 127
0.932787 -0.240974 0.233685 76 153 0
0.571965 0.083822 0.166339 204 51 127
-0.784206 0.083822 -0.156943 204 51 127
0.570810 0.057931 0.211150 76 0 153
-0.203002 -0.090204 -0.211488 255 0 0
0.043731 0.089518 0.012865 204 51 127
-0.153741 0.083822 -0.040605 204 51 127
0.347197 -0.091002 -0.031551 255 0 0
0.392368 -0.090372 0.210900 255 0 0
-0.505835 -0.085306 -0.077611 255 0 0
0.409865 -0.091002 0.156170 255 0 0
0.277764 0.083822 -0.094601 204 51 127
-0.382290 0.089518 0.020305 204 51 127
-0.195177 0.058596 0.241280 76 0 153
0.914542 0.047864 0.210900 153 0 76
0.746627 0.083822 -0.111792 204 51 127
-0.874406 -0.085553 -0.211637 0 127 127
-0.662112 -0.091002 -0.092054 255 0 0
0.006678 0.057931 0.227742 76 0 153
-0.067595 0.083822 0.190071 204 51 127
0.427969 -0.091002 -0.034495 255 0 0
-0.299718 0.057931 -0.241128 153 76 0
0.889634 0.089518 0.196367 204 51 127
0.218899 -0.091002 0.058758 255 0 0
0.487022 0.076843 -0.241867 153 76 0
0.168370 -0.085306 -0.119293 255 0 0
0.888505 0.072177 0.018426 153 0 76
0.465657 0.088166 0.210900 204 51 127
0.341347 0.089518 0.180503 204 51 127
0.024237 0.089518 -0.211779 153 76 0
0.726201 0.058235 0.210900 76 0 153
0.275424 0.083822 0.133469 204 51 127
0.918885 0.088208 0.013724 153 0 76
0.061104 0.057931 -0.237451 153 76 0
0.402815 -0.085306 -0.162534 255 0 0
0.131137 0.088297 -0.241867 153 76 0
-0.785639 0.012614 -0.183424 153 0 76
-0.891317 -0.138921 -0.241867 0 127 127
0.158076 -0.091002 0.038361 255 0 0
0.078237 0.083822 0.081814 204 51 127
0.797362 0.089518 -0.169511 204 51 127
-0.081917 0.057931 0.213907 76 0 153
0.582795 0.061556 -0.211488 153 76 0
-0.368319 0.057931 -0.212472 153 76 0
0.891392 -0.167272 0.210900 127 127 0
0.501085 0.083822 0.150369 204 51 127
-0.173536 0.089518 0.233082 76 0 153
0.763428 0.083822 0.168384 204 51 127
0.316032 -0.091002 0.081792 255 0 0
0.889395 -0.043883 0.241280 127 127 0
0.421118 0.089518 0.029302 204 51 127
-0.181268 0.057931 -0.214818 153 76 0
-0.874406 0.030618 -0.214636 0 127 127
0.846791 0.083822 0.128475 204 51 127
-0.557633 -0.091002 0.084737 255 0 0
-0.537589 -0.085306 0.023779 255 0 0
0.918885 -0.179422 -0.225043 0 255 0
0.142681 0.058383 0.241280 76 0 153
0.214211 0.083822 0.143943 204 51 127
0.404290 0.089518 0.207182 204 51 127
-0.904785 0.087989 0.174318 76 0 153
-0.726807 -0.085306 -0.090597 255 0 0
-0.080818 -0.085306 0.026647 255 0 0
0.574519 -0.091002 0.122401 255 0 0
-0.466273 0.083822 0.027032 204 51 127
0.067883 -0.085306 -0.185160 255 0 0
-0.777916 0.083822 -0.102884 204 51 127
0.918885 0.062077 -0.062634 153 0 76
0.427490 0.060304 -0.241867 153 76 0
0.124517 -0.085306 -0.059666 255 0 0
0.128419 0.062115 0.210900 76 0 153
-0.328322 0.059641 0.210900 76 0 153
-0.833721 0.089518 -0.208024 153 76 0
0.740165 0.089518 0.115217 204 51 127
0.600547 0.083822 0.078737 204 51 127
0.465849 -0.085306 0.065538 255 0 0
-0.719152 0.083822 0.122585 204 51 127
0.792165 0.075663 -0.211488 153 76 0
0.892577 0.089518 -0.115265 153 0 76
0.705864 0.083822 -0.172852 204 51 127
0.040259 0.083822 0.133503 204 51 127
-0.562151 0.057931 -0.216078 153 76 0
0.214995 -0.085306 0.124587 255 0 0
-0.734604 -0.085306 -0.029744 255 0 0
0.233613 0.089258 -0.241867 153 76 0
-0.601029 0.058159 0.241280 76 0 153
-0.904150 -0.174199 0.241280 127 0 127
-0.324547 0.089518 0.240696 76 0 153
-0.426087 0.083822 0.187622 204 51 127
0.642431 -0.085306 0.190730 255 0 0
0.908597 0.057931 -0.199771 153 0 76
0.675953 -0.091002 0.135601 255 0 0
0.139532 -0.091002 -0.012638 255 0 0
0.525371 -0.085306 0.025494 255 0 0
0.673725 -0.091002 0.173819 255 0 0
0.269477 0.089518 -0.148365 204 51 127
0.584753 -0.085306 0.188849 255 0 0
0.630217 -0.091002 -0.192283 255 0 0
-0.902408 -0.039468 0.210900 127 0 127
-0.044289 0.057931 0.211172 76 0 153
0.786392 0.089518 0.104924 204 51 127
-0.371082 0.061095 0.210900 76 0 153
-0.316063 0.089518 -0.059404 204 51 127
0.429571 0.083822 -0.183003 204 51 127
-0.727616 0.089518 -0.141007 204 51 127
-0.034744 0.088633 -0.241867 153 76 0
0.788531 -0.091002 0.174655 255 0 0
-0.510691 0.057931 -0.213840 153 76 0
0.627274 0.071722 0.241280 76 0 153
-0.874490 -0.014061 0.241280 127 0 127
-0.594058 -0.085306 0.044523 255 0 0
-0.874406 -0.150918 -0.212183 0 127 127
0.888505 0.027440 -0.240991 0 255 0
0.776376 0.083822 -0.004555 204 51 127
-0.478302 0.083822 -0.087024 204 51 127
-0.245924 -0.085306 0.064973 255 0 0
-0.293669 -0.091002 0.067113 255 0 0
0.702956 0.065925 -0.211488 153 76 0
-0.081032 0.089518 0.240168 76 0 153
0.530718 0.057931 -0.240515 153 76 0
-0.904956 -0.250360 -0.216175 0 255 0
-0.772528 -0.085306 0.082451 255 0 0
0.918885 0.066524 0.237928 153 0 76
0.468946 -0.085306 0.126662 255 0 0
0.281139 -0.085306 -0.016215 255 0 0
0.274810 -0.091002 0.029715 255 0 0
0.006684 0.089518 -0.097378 204 51 127
0.041243 0.089518 0.233679 76 0 153
-0.612068 0.083822 -0.041015 204 51 127
0.459800 0.089518 0.158138 204 51 127
0.110800 -0.091002 0.060400 255 0 0
-0.113377 -0.085306 0.032798 255 0 0
0.473441 -0.085306 -0.141510 255 0 0
0.235722 -0.091002 -0.183087 255 0 0
0.033485 0.083822 -0.146819 204 51 127
-0.242107 0.089518 0.234859 76 0 153
-0.904785 -0.037327 -0.239959 0 127 127
0.888505 0.059263 0.096114 153 0 76
-0.396687 -0.091002 -0.179425 255 0 0
0.258126 0.086244 0.241280 76 0 153
0.412453 0.083822 0.171985 204 51 127
-0.399835 -0.085306 0.032394 255 0 0
-0.391727 -0.091002 0.195693 255 0 0
0.917385 0.057931 0.161807 153 0 76
0.640215 0.089518 0.052554 204 51 127
-0.452634 0.060953 -0.241867 153 76 0
-0.810229 0.057931 -0.214116 153 76 0
-0.026865 -0.091002 0.099611 255 0 0
0.918652 0.057931 -0.102124 153 0 76
-0.024969 0.089518 0.240556 76 0 153
-0.363067 -0.091002 -0.211466 255 0 0
0.890563 0.010962 0.241280 127 127 0
0.888505 0.067911 -0.168901 153 0 76
0.308479 -0.091002 0.137691 255 0 0
0.416353 -0.085306 0.103672 255 0 0
0.000342 0.016737 0.182464 204 51 127
-0.874406 0.061179 -0.029967 76 0 153
-0.249476 -0.085306 -0.035367 255 0 0
-0.163848 0.057931 -0.241758 153 76 0
0.545429 0.089518 -0.213915 204 51 127
0.407118 0.083822 0.115242 204 51 127
0.473788 -0.085306 -0.180248 255 0 0
0.661712 0.089518 0.203281 204 51 127
-0.712192 0.089518 0.239624 76 0 153
-0.860462 0.057931 0.225675 76 0 153
-0.084111 -0.085306 0.181777 255 0 0
0.518960 -0.085306 0.088778 255 0 0
0.432461 -0.091002 0.063516 255 0 0
0.847567 0.080075 -0.211488 204 51 127
-0.343319 -0.085306 -0.041670 255 0 0
0.918885 -0.163061 0.241115 127 127 0
-0.871663 -0.236249 -0.219083 0 255 0
-0.259473 0.089518 -0.225301 153 76 0
-0.421677 0.089518 -0.204946 204 51 127
-0.833009 0.089518 0.239934 76 0 153
-0.877970 0.089518 0.079477 76 0 153
0.637446 -0.085306 0.089391 255 0 0
0.045087 -0.085306 -0.126679 255 0 0
-0.084419 -0.091002 -0.026288 255 0 0
0.474126 0.083822 -0.074717 204 51 127
0.814147 0.083822 -0.050501 204 51 127
-0.121554 -0.091002 -0.119477 255 0 0
-0.836307 0.089518 0.181031 204 51 127
-0.333992 0.089518 0.132739 204 51 127
0.761746 0.083822 -0.084213 204 51 127
-0.561164 -0.085306 -0.085835 255 0 0
0.275496 -0.091002 0.131662 255 0 0
-0.286953 0.083822 0.185782 204 51 127
0.294322 0.087595 0.241280 76 0 153
0.224495 -0.091002 -0.135499 255 0 0
-0.254716 0.083822 0.069798 204 51 127
-0.693886 -0.085306 0.001688 255 0 0
-0.901745 -0.086865 -0.241867 0 127 127
-0.625072 -0.091002 -0.060103 255 0 0
-0.409255 0.065351 0.210900 76 0 153
0.554480 0.083822 0.120272 204 51 127
0.635178 0.089518 -0.009111 204 51 127
-0.677066 -0.091002 0.133222 255 0 0
-0.785615 -0.082607 0.182393 76 0 153
-0.117474 -0.085306 0.080269 255 0 0
0.433197 0.089518 -0.109503 204 51 127
0.910316 -0.144753 -0.241867 0 255 0
0.488033 -0.091002 0.034896 255 0 0
0.573663 0.083822 -0.103673 204 51 127
-0.550831 -0.091002 -0.123651 255 0 0
0.916557 -0.048986 0.210900 127 127 0
-0.690458 -0.091002 -0.190428 255 0 0
-0.904785 0.073732 -0.240832 76 0 153
0.577259 -0.091002 -0.195571 255 0 0
0.918885 -0.034104 -0.212308 0 255 0
-0.297196 0.089518 0.090322 204 51 127
0.756275 -0.085306 -0.027689 255 0 0
0.362867 -0.091002 0.131695 255 0 0
-0.794185 0.057931 0.240948 76 0 153
0.732089 -0.085306 0.142774 255 0 0
0.402319 0.089518 -0.028797 204 51 127
-0.366473 0.089518 -0.240721 153 76 0
0.685299 0.075836 0.241280 76 0 153
-0.650847 0.089518 0.197794 204 51 127
-0.256914 0.083822 0.007225 204 51 127
0.843930 0.089518 -0.021986 204 51 127
-0.428140 -0.085306 -0.087576 255 0 0
0.056516 0.089518 0.162835 204 51 127
-0.171664 -0.085306 -0.163685 255 0 0
0.127074 -0.091002 -0.141288 255 0 0
-0.339816 -0.091002 0.012598 255 0 0
-0.639399 0.089518 0.058806 204 51 127
0.285394 -0.091002 0.076957 255 0 0
-0.391066 -0.091002 -0.000571 255 0 0
0.344630 -0.091002 0.181815 255 0 0
0.432769 0.089518 -0.039411 204 51 127
-0.622286 0.057931 0.212910 76 0 153
0.845349 0.089518 -0.175615 204 51 127
-0.874406 0.087904 -0.107797 204 51 127
-0.258616 0.083822 -0.178443 204 51 127
0.762299 -0.091002 0.123070 255 0 0
0.420344 -0.091002 0.027454 255 0 0
-0.834477 0.083822 -0.015253 204 51 127
-0.571749 0.083822 -0.006284 204 51 127
0.442682 0.058605 -0.211488 153 76 0
-0.719380 0.057931 -0.211546 153 76 0
0.152474 -0.085306 0.132248 255 0 0
-0.453400 0.089518 0.241029 76 0 153
-0.467951 0.089518 -0.197210 204 51 127
-0.865830 0.089518 0.130330 204 51 127
0.918885 0.078389 0.185251 153 0 76
0.562739 0.057931 -0.237624 153 76 0
-0.830036 0.089518 0.120229 204 51 127
-0.834528 -0.226353 0.236115 204 51 127
-0.880384 -0.120852 -0.211488 0 127 127
0.049596 0.083822 -0.040856 204 51 127
0.816854 -0.085306 0.124312 255 0 0
-0.347700 0.089518 -0.121938 204 51 127
0.420925 0.062543 0.241280 76 0 153
0.630525 -0.085306 -0.133842 255 0 0
0.786607 -0.085306 -0.079297 255 0 0
-0.023650 -0.085306 -0.010458 255 0 0
0.918885 0.014098 -0.215418 0 255 0
-0.366772 0.089518 0.240957 76 0 153
-0.602188 0.089518 -0.184505 204 51 127
0.600553 0.089518 -0.241835 153 76 0
-0.773179 0.089518 0.205579 204 51 127
-0.874406 0.088736 0.204870 204 51 127
-0.804574 -0.085306 -0.175521 255 0 0
0.699550 0.089518 0.085334 204 51 127
-0.792974 0.089518 -0.223799 153 76 0
0.395648 0.089518 0.004885 204 51 127
-0.241055 -0.091002 0.188576 255 0 0
0.572764 0.089518 0.009887 204 51 127
-0.405304 0.083822 -0.103547 204 51 127
0.890681 -0.074301 0.241280 127 127 0
-0.875545 0.057931 -0.067734 76 0 153
-0.398299 0.086381 0.241280 76 0 153
-0.264909 -0.091002 -0.119794 255 0 0
0.039072 0.089518 -0.241487 153 76 0
-0.140560 -0.091002 0.151599 255 0 0
0.017575 -0.085306 -0.148259 255 0 0
-0.426812 0.083822 0.005151 204 51 127
-0.773134 -0.091002 -0.015087 255 0 0
-0.576323 -0.091002 0.178469 255 0 0
0.888505 -0.097503 -0.241335 0 255 0
0.786178 -0.085306 0.142442 255 0 0
-0.582469 0.083822 0.075544 204 51 127
0.131615 0.083822 0.120446 204 51 127
0.740352 0.083822 -0.176359 204 51 127
-0.874406 -0.166914 0.215610 127 0 127
0.111402 0.083822 -0.135493 204 51 127
-0.650083 0.089518 0.138026 204 51 127
0.182876 0.089518 0.137710 204 51 127
0.440071 -0.085990 0.210900 255 0 0
0.060741 -0.085306 -0.077796 255 0 0
0.242114 -0.085306 0.030342 255 0 0
0.073448 0.059016 0.241280 76 0 153
0.657366 -0.085306 0.019543 255 0 0
-0.504251 -0.091002 0.115892 255 0 0
-0.802421 0.089518 0.026060 204 51 127
-0.323981 0.076105 -0.241867 153 76 0
0.959010 -0.224237 0.220119 76 0 153
0.604693 -0.091002 -0.001412 255 0 0
-0.371171 -0.091002 -0.063761 255 0 0
-0.078366 0.089518 0.099185 204 51 127
-0.266846 -0.091002 -0.064382 255 0 0
0.500211 0.089518 0.209788 204 51 127
0.005802 -0.091002 0.147481 255 0 0
-0.780978 0.083822 0.121039 204 51 127
-0.621865 0.083822 -0.103420 204 51 127
-0.874406 -0.055514 -0.211656 0 127 127
0.782921 0.028582 -0.186506 0 0 255
0.733291 0.083822 -0.051986 204 51 127
0.321663 0.059984 -0.211488 153 76 0
-0.604032 0.089518 0.174964 204 51 127
0.890770 -0.223731 -0.230231 127 0 127
-0.904785 -0.007139 -0.241123 0 127 127
0.917893 -0.108737 -0.211488 0 255 0
-0.740797 0.061781 0.210900 76 0 153
0.346430 -0.085710 -0.211488 255 0 0
0.084375 0.083822 -0.084545 204 51 127
0.360263 0.081719 0.241280 76 0 153
0.197691 -0.091002 0.181227 255 0 0
0.680403 0.089518 -0.239048 153 76 0
0.609839 -0.091002 0.172172 255 0 0
-0.904785 -0.009064 0.214975 127 0 127
-0.161652 0.083822 0.000580 204 51 127
0.297307 0.083822 0.075767 204 51 127
0.909910 0.089518 -0.173740 153 0 76
0.489400 0.083822 -0.186824 204 51 127
0.289966 0.074098 -0.241867 153 76 0
0.509703 0.062065 0.241280 76 0 153
-0.904785 0.058088 0.189368 76 0 153
-0.715485 0.089518 -0.034587 204 51 127
-0.874690 -0.180660 -0.211488 0 127 127
-0.450734 -0.085306 0.004802 255 0 0
0.284525 -0.085306 -0.189364 255 0 0
0.899349 -0.234915 0.222312 153 0 76
0.888505 0.059221 0.151304 153 0 76
0.014341 -0.085306 0.057845 255 0 0
0.032490 -0.091002 -0.183207 255 0 0
0.396324 0.083822 -0.086549 204 51 127
0.938446 -0.221895 -0.223238 153 0 76
0.574750 -0.091002 -0.136234 255 0 0
-0.122575 -0.091002 0.182689 255 0 0
0.918885 0.082813 0.069015 153 0 76
-0.875453 -0.086548 0.210900 127 0 127
0.181739 -0.085306 -0.028506 255 0 0
0.672925 0.089518 0.141163 204 51 127
0.074412 -0.085306 -0.143650 255 0 0
-0.097049 0.083822 -0.066120 204 51 127
-0.416779 0.083822 0.126149 204 51 127
0.508219 0.089518 -0.134222 204 51 127
0.431473 -0.085306 -0.133723 255 0 0
-0.469781 -0.085306 -0.053213 255 0 0
-0.055621 0.089518 -0.109597 204 51 127
-0.020350 0.089518 -0.069776 204 51 127
0.307171 0.089518 0.130851 204 51 127
0.118518 0.065014 -0.211488 153 76 0
-0.157614 0.089518 -0.206631 153 76 0
0.106838 0.083822 -0.040922 204 51 127
0.110412 -0.085306 -0.000420 255 0 0
0.040119 -0.091002 -0.098210 255 0 0
0.227982 -0.085306 0.163114 255 0 0
0.253814 0.083822 -0.180032 204 51 127
-0.216965 -0.085306 -0.154056 255 0 0
-0.074279 0.083822 0.152893 204 51 127
0.614952 0.083822 -0.071195 204 51 127
-0.762521 0.059459 -0.241867 153 76 0
-0.507522 -0.085306 0.187262 255 0 0
-0.168413 0.083822 0.046225 204 51 127
-0.121677 0.083822 0.068092 204 51 127
0.482699 -0.085306 -0.083750 255 0 0
0.768631 0.057931 -0.220507 153 76 0
-0.435649 -0.085306 -0.178543 255 0 0
0.888505 -0.012699 -0.239999 0 255 0
0.540848 -0.091002 -0.084882 255 0 0
-0.740084 -0.085306 0.133588 255 0 0
-0.465558 0.083822 -0.164437 204 51 127
0.376289 0.089518 0.215725 204 51 127
-0.671506 -0.091002 -0.030938 255 0 0
0.214974 0.089518 0.088775 204 51 127
0.687392 -0.091002 -0.005957 255 0 0
0.654987 0.083822 -0.115413 204 51 127
0.227510 0.057931 -0.212851 153 76 0
-0.632037 0.089518 0.220633 76 0 153
0.918885 0.016687 0.218159 127 127 0
0.305903 0.089518 0.034453 204 51 127
-0.827018 0.089518 0.083608 204 51 127
-0.528099 0.083822 -0.192115 204 51 127
0.702531 0.083822 -0.074417 204 51 127
-0.323590 0.083822 0.038193 204 51 127
0.675626 0.083822 -0.180773 204 51 127
0.160375 0.089518 -0.192252 204 51 127
-0.193833 0.089518 -0.230009 153 76 0
-0.207348 -0.085306 -0.070616 255 0 0
0.700072 0.089518 0.182841 204 51 127
0.460316 0.089518 -0.238914 153 76 0
-0.874406 0.001059 -0.215317 0 127 127
-0.361649 0.083822 0.184914 204 51 127
-0.576358 0.083822 -0.058594 204 51 127
-0.049692 -0.091002 -0.125317 255 0 0
-0.537612 0.089518 -0.236978 153 76 0
-0.633128 0.083822 -0.010604 204 51 127
0.704941 -0.085306 0.121199 255 0 0
-0.136630 -0.091002 -0.058060 255 0 0
-0.874406 0.063281 0.091474 76 0 153
0.285421 0.089518 0.187184 204 51 127
-0.118014 0.089518 0.191263 204 51 127
-0.712756 -0.085306 -0.164773 255 0 0
0.263829 0.089518 0.106459 204 51 127
0.845904 0.083822 -0.080348 204 51 127
0.736327 -0.085306 -0.052156 255 0 0
-0.562807 0.057931 0.240908 76 0 153
-0.874406 0.030941 0.213301 127 0 127
0.574116 -0.091002 0.051205 255 0 0
0.360117 0.083822 0.155243 204 51 127
-0.298251 -0.091002 -0.120384 255 0 0
-0.107770 -0.091002 -0.074660 255 0 0
0.648177 0.089518 -0.214028 204 51 127
0.741778 0.083822 0.149373 204 51 127
0.254606 0.089518 0.192148 204 51 127
0.032034 0.089518 -0.082986 204 51 127
-0.814247 0.089518 0.218090 76 0 153
0.619338 0.089518 0.017560 204 51 127
-0.530605 0.089518 0.099399 204 51 127
-0.765229 -0.091002 0.022997 255 0 0
-0.451441 -0.091002 -0.145458 255 0 0
0.469722 -0.091002 0.011574 255 0 0
0.269636 0.083822 -0.205620 204 51 127
-0.743838 -0.085306 0.078826 255 0 0
0.681116 -0.091002 -0.070532 255 0 0
-0.221083 0.087810 0.210900 76 0 153
0.627991 0.057931 -0.240638 153 76 0
-0.097051 0.083822 -0.026639 204 51 127
0.474925 -0.091002 0.092142 255 0 0
-0.516005 0.089518 0.147244 204 51 127
0.898084 0.061196 -0.241867 153 0 76
-0.492539 -0.085306 -0.186395 255 0 0
0.456262 0.058589 0.241280 76 0 153
-0.904125 0.089518 0.033279 76 0 153
-0.556650 0.089518 0.048774 204 51 127
-0.456066 -0.085764 0.210900 255 0 0
0.543708 0.089518 -0.157421 204 51 127
-0.902807 0.057931 0.121774 76 0 153
-0.731487 -0.085306 0.105032 255 0 0
0.081819 -0.091002 -0.023974 255 0 0
0.508761 -0.091002 -0.058332 255 0 0
0.365010 0.058771 -0.241867 153 76 0
-0.076167 -0.085306 0.078953 255 0 0
-0.745070 -0.085306 0.186387 255 0 0
-0.093226 0.083822 -0.167168 204 51 127
0.645716 -0.091002 -0.167124 255 0 0
-0.075717 0.065374 -0.241867 153 76 0
-0.526158 -0.091002 -0.038938 255 0 0
-0.296152 0.083822 -0.132880 204 51 127
0.889197 0.089518 -0.212144 153 0 76
-0.329972 0.089518 0.186230 204 51 127
-0.820122 0.060460 -0.241867 153 76 0
-0.247012 0.064342 0.210900 76 0 153
0.942104 -0.255912 -0.212340 0 127 127
0.104495 -0.085306 0.032462 255 0 0
0.717762 0.089518 0.228943 76 0 153
0.241161 0.089518 -0.006431 204 51 127
-0.874406 -0.210784 0.219189 127 0 127
0.083663 0.083822 0.046168 204 51 127
0.553436 -0.085306 0.142953 255 0 0
0.068816 -0.085306 0.087197 255 0 0
0.041774 -0.091002 0.154917 255 0 0
-0.737077 -0.091002 0.026523 255 0 0
0.128281 0.083822 -0.178515 204 51 127
0.388502 0.057931 0.236157 76 0 153
0.606925 0.083822 0.111821 204 51 127
0.888505 -0.156316 -0.212064 0 255 0
0.633352 0.085861 0.210900 204 51 127
0.145172 -0.085306 0.189264 255 0 0
0.671386 0.089518 0.036236 204 51 127
0.600363 0.057931 0.211645 76 0 153
0.160430 0.089518 -0.222266 153 76 0
0.178743 0.086749 0.241280 76 0 153
0.901402 0.089518 0.236487 76 0 153
-0.839885 0.083822 -0.112265 204 51 127
-0.069770 -0.085306 -0.002785 255 0 0
-0.631556 -0.085306 0.008030 255 0 0
-0.697488 0.089518 0.057258 204 51 127
-0.345857 -0.091002 -0.160633 255 0 0
-0.264911 -0.089100 -0.211488 255 0 0
0.215308 0.089518 0.025045 204 51 127
0.202573 -0.091002 -0.081805 255 0 0
-0.846989 0.071183 -0.241867 153 76 0
0.059902 -0.085306 0.187357 255 0 0
0.481318 -0.091002 -0.018548 255 0 0
0.918885 0.063513 -0.026084 153 0 76
-0.635863 0.089518 -0.177268 204 51 127
0.122119 0.087627 0.241280 76 0 153
0.572180 0.089518 -0.018293 204 51 127
0.135377 0.083822 0.068535 204 51 127
0.572002 0.083822 0.065712 204 51 127
-0.027091 0.083822 0.125098 204 51 127
-0.713863 0.089518 -0.235468 153 76 0
0.571842 -0.091002 -0.107090 255 0 0
-0.239572 0.089518 -0.025182 204 51 127
-0.249269 -0.085306 0.019584 255 0 0
0.889755 -0.195620 -0.241867 0 255 0
0.824275 0.083822 0.090591 204 51 127
-0.609966 -0.087031 0.210900 255 0 0
-0.887931 0.089518 0.107375 76 0 153
-0.594458 -0.091002 -0.139757 255 0 0
-0.048739 -0.091002 0.139206 255 0 0
0.916747 -0.081872 -0.241867 0 255 0
-0.283710 0.083822 0.040246 204 51 127
0.328976 0.089518 -0.232230 153 76 0
-0.027759 0.057931 -0.211726 153 76 0
0.789121 0.089518 -0.082912 204 51 127
0.791442 0.089518 -0.142157 204 51 127
-0.127826 0.057931 0.239575 76 0 153
0.318667 0.089518 0.092912 204 51 127
-0.209428 -0.085306 0.017468 255 0 0
0.379254 0.061393 -0.211488 153 76 0
-0.034637 -0.085306 0.194096 255 0 0
-0.715331 0.083822 0.185355 204 51 127
0.471873 0.083822 -0.017736 204 51 127
-0.189167 0.083822 0.134332 204 51 127
0.041621 0.060727 0.210900 76 0 153
-0.720469 -0.091002 -0.006359 255 0 0
0.451156 0.083822 0.126802 204 51 127
0.088447 0.061313 -0.241867 153 76 0
0.715937 0.089518 0.023688 204 51 127
-0.210564 0.089518 -0.128636 204 51 127
-0.771872 -0.085306 0.138252 255 0 0
0.497128 -0.091002 0.186800 255 0 0
-0.261176 0.083822 -0.085787 204 51 127
0.697241 0.057931 0.216664 76 0 153
0.244536 -0.085306 -0.021753 255 0 0
-0.486457 0.089518 -0.220367 204 51 127
0.199553 -0.086940 0.210900 255 0 0
-0.874406 0.065407 -0.161386 76 0 153
-0.033118 0.089518 0.029514 204 51 127
-0.880968 -0.245882 0.251470 153 0 76
0.824806 0.089518 0.215904 76 0 153
0.359159 0.083822 0.118899 204 51 127
0.780986 0.083822 0.051909 204 51 127
-0.878590 0.089518 -0.198674 204 51 127
-0.676897 0.083822 -0.098206 204 51 127
0.151240 0.089518 -0.131985 204 51 127
0.579901 0.083822 0.194885 204 51 127
-0.847506 0.089518 0.063989 204 51 127
-0.304043 -0.091002 -0.078840 255 0 0
0.382724 0.089518 -0.051994 204 51 127
-0.309713 0.089518 -0.213156 153 76 0
-0.605972 -0.085306 0.183074 255 0 0
0.397158 -0.091002 -0.100057 255 0 0
0.536703 0.083822 -0.183595 204 51 127
-0.299216 0.089518 -0.092675 204 51 127
0.413339 0.089518 -0.160857 204 51 127
0.106442 0.089518 -0.013748 204 51 127
0.893537 -0.060901 -0.211488 0 255 0
0.470391 0.062289 -0.211488 153 76 0
-0.890392 -0.268929 0.218705 76 0 153
-0.284824 -0.085306 0.195695 255 0 0
0.269288 0.089518 0.079118 204 51 127
-0.533338 -0.091002 -0.176196 255 0 0
0.790923 -0.091002 -0.042210 255 0 0
0.917269 -0.257802 -0.224976 0 127 127
-0.163515 0.089518 0.122274 204 51 127
-0.651212 -0.090758 0.210900 255 0 0
0.572806 0.089518 -0.210894 153 76 0
0.062094 -0.091002 0.024112 255 0 0
-0.737966 -0.091002 -0.201489 255 0 0
-0.447835 -0.091002 0.069159 255 0 0
-0.213243 0.083822 0.110388 204 51 127
0.651115 0.058068 0.241280 76 0 153
0.546388 0.089518 0.229837 76 0 153
0.818680 -0.091002 -0.013373 255 0 0
-0.645410 -0.091002 0.112324 255 0 0
0.810656 0.058102 0.241280 76 0 153
0.915967 0.057931 -0.138130 153 0 76
-0.410665 0.083822 0.057805 204 51 127
0.918885 -0.090077 0.239255 127 127 0
-0.656645 0.062230 -0.211488 153 76 0
0.088005 0.089518 0.198983 204 51 127
0.163909 0.083822 0.118808 204 51 127
0.060703 0.083822 -0.105108 204 51 127
-0.778924 0.089518 0.010018 204 51 127
-0.067278 -0.091002 -0.210362 255 0 0
0.845313 0.083822 -0.128716 204 51 127
0.918885 -0.213585 0.221240 76 0 153
-0.020200 -0.091002 -0.188652 255 0 0
-0.460979 0.089518 0.145537 204 51 127
-0.480905 0.083822 0.182903 204 51 127
0.250261 -0.085306 0.207408 255 0 0
0.526554 -0.085306 -0.143826 255 0 0
-0.072276 -0.085306 -0.083440 255 0 0
-0.438552 0.083822 -0.082062 204 51 127
0.904130 -0.126203 0.210900 127 127 0
0.107733 0.089518 -0.195534 204 51 127
-0.599393 -0.085306 -0.086850 255 0 0
-0.578977 0.083822 -0.140386 204 51 127
-0.794015 0.083822 0.053942 204 51 127
-0.640541 -0.091002 -0.114234 255 0 0
-0.874406 -0.069210 0.240867 127 0 127
-0.902115 0.032894 -0.241867 0 127 127
-0.804669 -0.085306 -0.051779 255 0 0
0.812751 0.057931 -0.213370 153 76 0
0.707200 -0.085306 0.092246 255 0 0
-0.602025 0.083822 0.016096 204 51 127
0.685191 0.089518 -0.124039 204 51 127
0.709858 -0.091002 0.040877 255 0 0
0.771520 0.078501 0.241280 76 0 153
0.138769 0.087748 0.210900 76 0 153
0.892133 -0.016193 0.241280 127 127 0
0.051790 0.075577 -0.211488 153 76 0
0.317427 -0.091002 0.166291 255 0 0
-0.347651 -0.091002 0.040620 255 0 0
0.318106 -0.085306 -0.069204 255 0 0
-0.021754 -0.085306 -0.117619 255 0 0
-0.697908 -0.091002 0.059544 255 0 0
0.531936 0.089518 -0.025096 204 51 127
-0.070651 0.065780 -0.211488 153 76 0
0.914943 0.089518 -0.068993 153 0 76
-0.670438 0.089518 -0.133021 204 51 127
0.543710 0.058016 0.210900 76 0 153
-0.768258 0.089518 -0.015260 204 51 127
0.108446 0.089518 -0.100449 204 51 127
0.888615 -0.207318 0.241280 127 127 0
0.676137 -0.091002 0.050309 255 0 0
-0.767140 -0.085306 -0.176179 255 0 0
-0.212251 0.083822 -0.208561 153 76 0
-0.176349 0.083822 0.082703 204 51 127
-0.571625 -0.091002 -0.040743 255 0 0
0.680547 -0.085306 -0.125306 255 0 0
-0.300343 -0.087437 -0.211488 255 0 0
0.376551 0.083822 -0.110842 204 51 127
-0.398412 -0.091002 -0.133739 255 0 0
0.251056 0.089518 0.055044 204 51 127
-0.055327 0.089518 0.134549 204 51 127
0.490660 0.089518 -0.050334 204 51 127
-0.508260 -0.085306 0.019881 255 0 0
0.834553 0.083822 0.056177 204 51 127
0.216480 0.083822 -0.177010 204 51 127
0.186562 0.083822 -0.011249 204 51 127
0.187830 -0.085306 -0.137921 255 0 0
-0.887988 -0.228223 0.200914 76 0 153
-0.534277 -0.091002 0.063888 255 0 0
0.916481 -0.193304 0.241280 127 127 0
-0.779939 0.064955 -0.211488 153 76 0
0.827393 0.089518 0.004335 204 51 127
0.017448 0.083822 0.012675 204 51 127
-0.583107 0.083822 -0.089517 204 51 127
0.054449 -0.085306 0.061057 255 0 0
0.056035 0.083822 -0.010431 204 51 127
-0.113690 0.083822 0.138012 204 51 127
-0.497890 -0.085306 -0.103224 255 0 0
-0.518124 0.089518 -0.125959 204 51 127
-0.903695 0.086214 0.241280 76 0 153
-0.904785 -0.116604 -0.235678 0 127 127
-0.466497 -0.091002 0.148833 255 0 0
-0.495963 -0.091002 0.090429 255 0 0
-0.415730 -0.091002 0.110843 255 0 0
0.436103 -0.091002 0.121630 255 0 0
0.634252 -0.085306 -0.075830 255 0 0
0.914702 -0.246532 0.203104 153 0 76
-0.687605 0.089518 0.229089 76 0 153
-0.582095 0.089518 0.216150 76 0 153
0.373875 -0.085306 0.059571 255 0 0
-0.627083 -0.085306 0.165012 255 0 0
-0.126495 0.089518 -0.227840 153 76 0
0.674181 -0.085306 0.078228 255 0 0
-0.851250 -0.251902 0.205110 76 0 153
-0.395169 -0.091002 0.061008 255 0 0
0.333894 -0.091002 -0.007736 255 0 0
0.370994 -0.085306 -0.132497 255 0 0
-0.332955 0.083822 -0.010852 204 51 127
0.782403 0.028977 0.185748 76 153 0
-0.678997 -0.085306 0.023844 255 0 0
0.337438 0.057931 0.213683 76 0 153
-0.226494 -0.089529 0.210900 255 0 0
0.008173 0.068136 -0.211488 153 76 0
-0.171378 0.089518 0.206379 204 51 127
0.558545 -0.085306 0.177458 255 0 0
0.565573 -0.091002 -0.050823 255 0 0
0.109623 -0.085306 -0.185190 255 0 0
-0.766745 0.061670 0.241280 76 0 153
0.882299 0.067521 0.210900 153 0 76
-0.653614 0.089518 0.026204 204 51 127
0.017474 -0.091002 0.201698 255 0 0
-0.040088 -0.091002 0.076524 255 0 0
-0.269092 0.083822 0.128472 204 51 127
-0.359885 0.083822 0.130657 204 51 127
0.239171 -0.091002 0.113959 255 0 0
-0.353240 -0.091002 0.154216 255 0 0
0.717741 -0.085306 -0.185365 255 0 0
0.527428 0.089518 0.205884 204 51 127
-0.528383 0.083822 -0.078887 204 51 127
-0.529669 -0.085306 -0.144817 255 0 0
0.848576 0.083822 0.101959 204 51 127
-0.288672 0.083822 0.151127 204 51 127
0.132867 0.083822 -0.058091 204 51 127
0.612685 0.083822 0.152141 204 51 127
0.879712 0.089518 -0.087001 204 51 127
-0.874406 -0.028740 0.211007 127 0 127
-0.717135 -0.091002 -0.054284 255 0 0
-0.498489 0.057931 0.237283 76 0 153
-0.017847 0.057931 0.211839 76 0 153
-0.392850 0.084219 -0.241867 153 76 0
-0.887241 -0.044877 0.241280 127 0 127
-0.660965 0.057931 0.240494 76 0 153
0.787757 0.089518 -0.027708 204 51 127
-0.390651 0.089518 -0.125326 204 51 127
-0.597902 -0.085306 0.128262 255 0 0
0.020169 0.065572 -0.241867 153 76 0
-0.250590 0.068140 -0.211488 153 76 0
0.018865 0.089518 -0.040406 204 51 127
-0.163932 -0.091002 -0.011701 255 0 0
-0.488283 0.089518 -0.062917 204 51 127
-0.285835 0.083822 -0.041715 204 51 127
-0.690622 -0.091002 -0.128562 255 0 0
-0.485335 -0.091002 0.047724 255 0 0
-0.301202 -0.091002 -0.008356 255 0 0
0.097120 -0.085306 -0.099492 255 0 0
-0.165039 -0.091002 0.053998 255 0 0
-0.213938 -0.085306 -0.121323 255 0 0
0.542136 -0.091002 0.077721 255 0 0
0.918885 -0.022853 0.213296 127 127 0
-0.026773 0.089518 -0.014712 204 51 127
-0.396003 0.083822 0.151445 204 51 127
0.339933 0.089518 -0.084307 204 51 127
0.281547 0.062280 0.210900 76 0 153
0.918219 0.089518 -0.015764 153 0 76
-0.316306 0.083822 -0.113942 204 51 127
-0.257310 -0.091002 -0.093428 255 0 0
-0.725442 0.089518 0.015637 204 51 127
-0.353425 0.083822 -0.089592 204 51 127
0.718479 -0.085306 -0.097845 255 0 0
0.812001 -0.085306 -0.110595 255 0 0
0.600259 -0.091002 0.032396 255 0 0
-0.213771 -0.091002 -0.021555 255 0 0
-0.537666 0.065993 -0.211488 153 76 0
-0.566274 0.059324 -0.241867 153 76 0
0.531524 0.089518 0.098548 204 51 127
0.309287 0.089518 -0.181609 204 51 127
-0.094851 -0.091002 -0.207710 255 0 0
-0.103058 0.089518 -0.214653 153 76 0
0.286049 -0.085306 -0.060611 255 0 0
-0.598352 0.089518 -0.239488 153 76 0
-0.200041 0.089518 -0.179260 204 51 127
-0.302127 0.083822 -0.158675 204 51 127
-0.682619 0.083822 0.097855 204 51 127
0.299088 0.083822 -0.078393 204 51 127
-0.230177 0.089518 0.060202 204 51 127
0.898174 -0.004547 0.210900 127 127 0
-0.904785 -0.165138 -0.237185 0 127 127
0.616822 0.083822 -0.190303 204 51 127
-0.689251 0.083822 -0.176401 204 51 127
0.208474 0.083822 -0.143176 204 51 127
-0.042625 0.089518 0.184351 204 51 127
0.703734 0.089518 -0.145724 204 51 127
0.253028 0.083822 -0.052998 204 51 127
-0.779563 -0.091002 0.053124 255 0 0
0.231401 -0.091002 -0.046307 255 0 0
0.109568 0.083822 0.033194 204 51 127
0.441560 -0.091002 0.012336 255 0 0
-0.695886 0.065573 -0.241867 153 76 0
-0.540608 0.083822 -0.053977 204 51 127
-0.012314 0.089518 0.217316 76 0 153
-0.636975 -0.085306 -0.209763 255 0 0
-0.474069 0.089518 0.123047 204 51 127
0.906192 -0.008275 -0.211488 0 255 0
-0.212363 0.083822 -0.070696 204 51 127
-0.605115 0.083822 0.146878 204 51 127
0.792539 -0.085306 0.081966 255 0 0
-0.744642 0.089518 0.035656 204 51 127
-0.878680 -0.254354 -0.236556 0 0 255
-0.579942 0.083822 0.186935 204 51 127
-0.339913 0.057931 -0.219965 153 76 0
0.446016 -0.085306 -0.184744 255 0 0
-0.491390 0.089518 -0.007189 204 51 127
-0.526525 0.078646 0.210900 76 0 153
0.517421 -0.091002 -0.189258 255 0 0
-0.211759 0.083822 -0.021749 204 51 127
-0.060780 0.083822 -0.191946 204 51 127
0.239462 0.083822 0.150059 204 51 127
-0.903487 -0.099818 0.241280 127 0 127
-0.433986 0.083822 0.097951 204 51 127
-0.734195 0.083822 -0.188289 204 51 127
0.264334 -0.091002 -0.128629 255 0 0
0.740591 0.089518 -0.224522 153 76 0
0.142520 -0.085306 -0.119431 255 0 0
0.894942 0.038541 -0.211488 0 255 0
-0.350733 -0.091002 -0.122497 255 0 0
-0.449802 0.083822 0.046937 204 51 127
-0.860765 -0.239344 -0.248512 127 127 0
0.494774 0.083822 0.107705 204 51 127
-0.102878 -0.085306 -0.136336 255 0 0
-0.118353 -0.091002 0.128727 255 0 0
-0.545153 0.089518 -0.014259 204 51 127
-0.619772 0.089518 -0.128464 204 51 127
0.174289 0.089518 -0.144297 204 51 127
-0.169798 0.083822 0.179318 204 51 127
0.204270 0.089518 0.188281 204 51 127
-0.810641 0.083822 0.162570 204 51 127
-0.849916 -0.221601 -0.225582 127 127 0
0.338461 -0.091002 -0.116333 255 0 0
0.913657 -0.035095 0.241280 127 127 0
-0.272317 0.064670 0.241280 76 0 153
-0.851004 -0.247976 0.238885 153 0 76
0.908691 -0.276895 0.217625 153 0 76
0.142971 -0.091002 -0.077489 255 0 0
0.381963 -0.085306 -0.012307 255 0 0
-0.781179 0.089518 0.175009 204 51 127
-0.119825 0.057931 -0.215463 153 76 0
-0.577308 -0.091002 0.143465 255 0 0
-0.904785 0.081969 -0.185863 76 0 153
-0.895857 -0.225825 -0.227684 0 0 255
-0.144739 0.083822 -0.064633 204 51 127
-0.904785 0.059348 -0.117987 76 0 153
0.595108 -0.085306 -0.171709 255 0 0
0.700608 0.089518 -0.223249 153 76 0
0.409395 -0.085306 0.077131 255 0 0
0.317889 0.089518 -0.129217 204 51 127
