ply
format ascii 1.0
element vertex 1283
property float x
property float y
property float z
property uchar red
property uchar green
property uchar blue
end_header
-0.585001 0.235428 0.039896 76 153 0
0.139643 0.281798 -0.255650 0 127 127
0.491297 -0.434512 0.235140 0 255 0
0.066554 0.256767 -0.116247 76 153 0
-0.213779 0.043380 0.032807 76 153 0
-0.094208 -0.002153 0.213801 255 0 0
0.465544 0.036267 0.031605 0 0 255
-0.642621 -0.004994 0.192010 204 51 127
-0.444815 0.235428 -0.126065 76 153 0
0.708830 -0.533457 -0.232528 153 0 76
-0.189169 0.235428 0.141897 76 153 0
-0.087533 0.235428 0.215059 76 153 0
-0.248576 -0.034979 -0.234311 0 127 127
0.445707 0.145155 -0.227199 204 51 127
-0.255714 0.179244 -0.212973 0 127 127
-0.377828 -0.426071 -0.122697 0 255 0
-0.597652 0.214057 -0.212973 0 127 127
-0.009573 -0.024886 -0.033616 76 0 153
-0.314629 0.235428 0.102105 76 153 0
-0.579796 0.271727 -0.234311 0 127 127
-0.041723 0.163956 0.235140 0 255 0
-0.685298 0.146381 -0.078973 76 153 0
0.687491 -0.464262 -0.241281 0 0 255
0.150195 0.256767 -0.124755 76 153 0
0.730169 -0.179451 -0.164875 153 0 76
-0.663960 -0.125804 0.149915 76 153 0
-0.332731 0.256767 0.348555 76 153 0
0.730169 -0.285807 0.006863 153 0 76
0.598289 0.116409 -0.255650 0 127 127
0.465968 0.036267 -0.044805 0 0 255
0.309409 0.206678 0.213801 153 76 0
0.556509 -0.447410 -0.115968 0 255 0
0.729180 -0.481256 0.235140 204 51 127
0.588996 0.015361 -0.255650 0 127 127
-0.735720 0.256767 -0.073965 76 153 0
-0.171725 0.036267 -0.212031 76 153 0
0.337525 0.043380 -0.033142 0 0 255
0.307328 0.004958 0.213801 255 0 0
0.036661 0.000369 0.051486 76 0 153
-0.019422 0.156282 -0.255650 0 127 127
0.463107 0.229107 -0.212973 204 51 127
0.036661 0.180033 0.075956 76 0 153
0.047330 0.037621 0.008011 76 0 153
0.047779 0.024534 -0.255650 0 127 127
0.730169 -0.020211 0.163534 127 0 127
-0.649734 0.117990 -0.212294 127 0 127
-0.159305 0.256767 0.253672 76 153 0
-0.140026 0.043380 0.160266 76 153 0
-0.704969 0.214090 0.105023 255 0 0
0.694604 0.042954 -0.051847 0 0 255
-0.286792 -0.048663 0.233236 255 0 0
-0.340860 -0.426071 -0.064546 0 255 0
-0.213748 0.256767 -0.204544 76 153 0
0.202215 0.036267 -0.013726 0 0 255
-0.808684 0.235428 0.229748 76 153 0
-0.288375 0.092867 0.213801 0 255 0
0.615487 0.256767 0.182013 76 153 0
0.730169 0.216077 0.141878 153 0 76
0.690326 0.124276 -0.255650 0 127 127
-0.387268 0.168100 0.213801 0 255 0
-0.248727 -0.447410 -0.095788 0 255 0
0.730169 0.151332 -0.051276 153 0 76
0.274851 0.127332 -0.234311 204 51 127
-0.248074 0.240433 0.363172 76 153 0
-0.359279 0.256767 -0.198023 76 153 0
0.496185 0.258091 -0.255650 0 127 127
-0.647060 0.043380 0.002017 76 153 0
0.040218 0.169781 0.160546 76 0 153
0.410801 0.235428 0.117896 76 153 0
-0.685298 -0.002616 0.013551 76 153 0
0.284187 0.252506 0.363172 76 153 0
-0.504810 0.256767 0.208051 76 153 0
0.116277 0.188017 -0.212973 204 51 127
0.366499 -0.447410 -0.153126 0 255 0
0.914949 0.235428 0.034746 76 153 0
0.040218 0.078905 0.064343 76 0 153
0.064663 0.043380 0.193389 0 0 255
-0.685298 -0.326959 0.124628 76 153 0
0.094347 0.036267 0.099039 0 0 255
0.730169 0.065511 0.067117 153 0 76
0.304156 0.220796 -0.255650 0 127 127
-0.183263 0.036267 -0.037776 76 153 0
0.008209 0.167915 0.117134 127 127 0
0.264284 0.235428 0.094812 76 153 0
-0.650907 0.043380 -0.044438 76 153 0
-0.275319 0.235428 0.232363 0 255 0
0.410418 -0.426071 -0.218665 0 255 0
-0.704349 0.256767 0.053111 76 153 0
0.219106 -0.426071 0.226159 0 255 0
0.236563 0.118443 -0.212973 204 51 127
0.708830 -0.459896 0.044873 0 0 255
-0.685298 -0.216702 -0.102108 76 153 0
0.572245 0.158288 0.213801 153 76 0
0.773764 0.256767 0.355651 76 153 0
0.687491 0.004918 -0.156909 76 0 153
0.475178 -0.426071 -0.101998 0 255 0
0.008209 0.049882 0.136265 76 0 153
0.928128 0.256767 0.091693 76 153 0
-0.448703 0.027622 -0.255650 0 127 127
-0.536259 -0.426071 -0.070189 0 255 0
0.730169 0.055842 0.005338 153 0 76
-0.090802 0.043380 0.098540 76 153 0
0.089365 0.256767 0.202723 76 153 0
-0.577118 0.043380 0.113679 76 153 0
-0.347421 0.235428 0.014106 76 153 0
0.190032 -0.426071 0.024572 0 255 0
0.196291 -0.036062 -0.255650 0 127 127
-0.412492 -0.040448 -0.234311 0 127 127
0.629551 0.043380 -0.006906 0 0 255
0.056669 0.043380 -0.133203 76 0 153
0.421857 0.256767 0.001453 76 153 0
-0.115482 0.013560 -0.234311 0 127 127
-0.424508 -0.447410 0.081787 0 255 0
0.681362 -0.070426 -0.235056 0 127 127
-0.528702 0.043380 -0.214382 0 127 127
0.768852 0.217465 -0.255650 0 255 0
-0.461395 0.256767 -0.227941 0 127 127
0.051894 -0.426071 -0.082555 0 255 0
0.525381 0.132491 0.213801 153 76 0
0.650157 0.172037 0.235140 153 76 0
0.412018 -0.426071 0.230285 0 255 0
0.383982 -0.447410 0.062794 0 255 0
0.523395 -0.426071 0.116080 0 255 0
-0.229242 0.256767 0.294848 76 153 0
0.210485 0.178202 -0.212973 204 51 127
0.305571 -0.049088 0.214089 255 0 0
0.784931 0.214090 0.086521 0 255 0
-0.056110 -0.426071 -0.187091 0 255 0
0.946670 0.235428 -0.252046 0 127 127
0.453394 -0.447410 0.033354 0 255 0
0.887065 0.235428 0.211217 76 153 0
-0.649734 0.116714 0.143706 127 0 127
0.766265 0.256767 -0.018688 76 153 0
-0.086738 0.271480 -0.255650 0 127 127
0.438837 0.224960 0.235140 153 76 0
-0.410288 0.256767 0.248772 76 153 0
0.730169 -0.003125 0.087777 153 0 76
-0.464734 0.036267 -0.167282 76 153 0
0.901866 0.235428 -0.134908 76 153 0
0.318056 0.065223 -0.227199 204 51 127
0.059476 -0.447410 0.213843 0 255 0
-0.482975 0.062436 0.213801 0 255 0
0.410671 0.256767 0.201685 76 153 0
-0.286190 0.256767 0.030163 76 153 0
0.791155 0.256767 -0.113021 76 153 0
0.513185 0.235428 0.018896 76 153 0
0.214308 0.154209 0.213801 153 76 0
-0.663960 -0.084266 -0.009210 76 153 0
-0.091195 0.033871 0.235140 255 0 0
-0.663960 -0.060779 0.202690 76 153 0
-0.418214 0.256767 0.060981 76 153 0
0.305928 0.256767 0.298603 76 153 0
-0.369268 0.235428 0.314119 76 153 0
0.686942 0.256767 -0.172796 76 153 0
0.008209 0.226421 -0.163866 127 127 0
0.105474 -0.447410 -0.028981 0 255 0
0.605896 -0.447410 -0.047577 0 255 0
0.708830 -0.512308 0.199632 204 51 127
-0.032074 0.235428 -0.198962 76 153 0
0.105207 0.044615 0.235140 153 76 0
-0.685298 0.212009 0.211391 255 0 0
0.730169 -0.131522 0.045577 153 0 76
0.481431 0.043380 -0.090819 0 0 255
-0.565619 0.035023 -0.234311 0 127 127
-0.642621 -0.472511 -0.105642 204 51 127
0.656973 0.036267 -0.084831 0 0 255
-0.563975 0.036267 -0.049693 76 153 0
0.114183 0.060929 -0.234311 0 127 127
0.698161 0.097979 -0.118223 153 0 76
0.188848 -0.447410 -0.213453 0 255 0
-0.865754 0.256767 0.256810 76 153 0
-0.011471 -0.447410 -0.017213 0 255 0
0.715943 -0.433000 -0.132131 0 255 0
-0.362001 0.219277 -0.255650 0 127 127
0.008209 0.123700 0.099042 76 0 153
0.635642 0.043380 0.083649 0 0 255
-0.348545 0.043380 -0.072604 76 153 0
0.730169 -0.219075 0.151034 153 0 76
-0.212126 0.036267 0.186829 76 153 0
-0.685298 -0.080199 0.080882 76 153 0
-0.880595 0.256767 0.098117 76 153 0
0.730169 0.222914 -0.213017 153 0 76
0.675852 -0.447410 -0.154432 0 0 255
0.708830 -0.292124 0.139192 153 0 76
0.008209 0.223942 0.185346 76 153 0
-0.758436 0.256767 0.055029 76 153 0
0.701715 0.281787 -0.234311 0 127 127
0.708830 -0.124015 -0.221054 153 0 76
-0.272317 0.272057 -0.234311 0 127 127
-0.685298 -0.229906 0.168432 76 153 0
0.032755 -0.049088 0.140291 76 0 153
-0.686312 0.214090 0.022654 255 0 0
-0.581533 0.043380 0.203711 76 153 0
0.570695 -0.029297 -0.234311 0 127 127
0.573539 -0.427197 0.235140 0 255 0
-0.663960 -0.539755 0.200003 153 76 0
0.693624 -0.045449 0.213801 255 0 0
0.536668 -0.447410 -0.070108 0 255 0
-0.318845 0.130319 0.213619 0 255 0
0.580524 0.235428 0.117502 76 153 0
0.727862 0.235428 0.056738 153 0 76
-0.289043 0.235428 -0.039914 76 153 0
0.293716 0.256767 -0.067229 76 153 0
0.869561 0.235428 0.155130 76 153 0
0.576247 0.086046 -0.212973 204 51 127
-0.527328 -0.028386 -0.234311 0 127 127
0.708830 0.103870 0.202638 153 0 76
-0.752348 0.256767 -0.155157 76 153 0
-0.649734 0.190268 -0.027900 76 153 0
0.708830 -0.322897 0.197536 153 0 76
0.730169 -0.032086 0.120494 153 0 76
0.569130 0.256767 0.078282 76 153 0
-0.309738 0.235428 0.321721 76 153 0
0.698161 0.085978 -0.064203 153 0 76
-0.517173 0.256767 -0.104879 76 153 0
0.659128 0.191924 -0.212973 204 51 127
0.270149 0.235428 -0.184645 76 153 0
-0.297631 0.205885 -0.255650 0 127 127
-0.534201 -0.447410 0.014792 0 255 0
-0.155537 0.256767 0.008135 76 153 0
-0.435280 0.219603 0.213801 0 255 0
0.578113 0.146977 -0.212973 204 51 127
0.084270 0.036267 -0.062739 0 0 255
0.687515 0.022041 0.122691 76 0 153
0.848864 0.256767 -0.150017 76 153 0
0.312710 -0.426071 0.052974 0 255 0
-0.152441 0.256767 0.189521 76 153 0
0.527693 0.039170 -0.255650 0 127 127
0.735686 0.214090 -0.107904 153 0 76
-0.560604 0.036267 -0.131711 76 153 0
0.707837 -0.019545 -0.255650 0 127 127
0.373449 0.256767 -0.081639 76 153 0
0.064228 0.256767 -0.215990 76 153 0
-0.565441 0.256767 0.091315 76 153 0
-0.649734 0.134569 0.195753 127 0 127
-0.458885 -0.447410 -0.034931 0 255 0
0.209577 0.305438 -0.234311 0 127 127
-0.828467 0.256767 -0.011612 76 153 0
-0.685298 -0.002347 0.232427 255 0 0
-0.757017 0.256767 0.214159 76 153 0
-0.220976 0.222500 -0.255650 0 127 127
0.036661 0.222885 0.060219 76 0 153
0.008209 0.187088 -0.147795 127 127 0
-0.121176 0.061206 0.213801 0 255 0
-0.506761 -0.447410 -0.224614 0 255 0
-0.158417 -0.447410 0.153352 0 255 0
-0.018886 0.129906 0.235140 0 255 0
0.033374 -0.049088 0.188036 76 0 153
-0.875643 0.256767 -0.069849 76 153 0
-0.009573 0.007302 0.152799 76 0 153
0.036661 0.174302 0.006823 76 0 153
0.404292 -0.030262 -0.234311 0 127 127
0.131341 0.129212 -0.255650 0 127 127
0.687491 -0.468904 -0.107304 0 0 255
-0.169378 -0.427667 0.235140 0 255 0
-0.685298 -0.218325 -0.008172 76 153 0
0.008209 0.085051 -0.083712 127 127 0
0.638927 0.256767 0.084139 76 153 0
-0.582535 0.235428 -0.150052 76 153 0
-0.619160 0.187282 0.213801 0 255 0
0.387239 0.235428 0.273906 76 153 0
0.588927 0.256767 -0.067909 76 153 0
0.249569 -0.447410 -0.099397 0 255 0
0.698161 0.207548 0.055849 153 0 76
-0.685298 -0.437340 -0.234695 76 0 153
-0.685298 -0.313583 -0.076437 76 153 0
0.437359 0.235428 -0.174098 76 153 0
0.371346 0.033289 0.235140 153 76 0
0.030437 -0.010816 -0.184958 76 0 153
0.228520 0.256767 0.204742 76 153 0
-0.818635 0.256767 -0.067782 76 153 0
0.817899 0.256767 0.320364 76 153 0
-0.492236 0.256767 -0.169898 76 153 0
-0.082850 -0.426071 0.047702 0 255 0
-0.215898 0.256767 0.012276 76 153 0
0.402805 0.113509 0.213801 153 76 0
0.720758 0.164052 0.235140 153 0 76
-0.685298 -0.274004 0.198867 76 153 0
0.417561 0.043380 -0.044743 0 0 255
-0.046320 -0.447410 -0.108332 0 255 0
0.091431 0.043380 -0.165649 0 0 255
-0.649734 0.219444 -0.187402 127 0 127
0.515926 0.256767 0.084049 76 153 0
-0.174567 -0.447410 0.086251 0 255 0
-0.022961 0.197583 0.213801 0 255 0
0.730169 -0.323256 -0.054547 153 0 76
-0.581537 0.235428 0.327442 76 153 0
0.698307 -0.439221 0.235140 0 255 0
0.492576 0.256767 -0.145669 76 153 0
0.730169 0.172010 0.108457 153 0 76
0.397519 0.094184 -0.255650 0 127 127
-0.091464 -0.447410 -0.255124 0 255 0
-0.791937 0.275491 -0.255650 0 127 127
0.290240 0.158702 -0.212973 204 51 127
0.005129 0.256767 -0.043341 76 153 0
-0.397398 0.031710 -0.255650 0 127 127
-0.663960 -0.114818 -0.254904 76 153 0
-0.284021 0.043380 0.077284 76 153 0
0.699294 0.256767 0.205865 76 153 0
-0.049051 0.256767 0.270641 76 153 0
-0.381998 -0.426071 0.207913 0 255 0
0.036661 0.188213 -0.047511 76 0 153
0.222698 0.235428 0.043485 76 153 0
-0.171215 0.076616 -0.212973 0 127 127
0.926596 0.256767 0.334396 76 153 0
0.688764 0.205257 -0.255650 0 127 127
-0.116302 -0.447410 0.104851 0 255 0
0.280804 0.256767 -0.223781 0 127 127
-0.663960 -0.193487 0.140289 76 153 0
-0.661422 -0.447410 -0.055762 204 51 127
-0.595054 0.235428 -0.012401 76 153 0
-0.685298 -0.280598 -0.196531 76 153 0
-0.507962 -0.447410 -0.141510 0 255 0
0.842856 0.235959 -0.255650 0 127 127
0.163026 0.256767 0.190669 76 153 0
-0.619769 -0.447410 -0.152432 0 255 0
-0.685298 0.082918 0.138085 76 153 0
-0.393046 0.256767 0.017408 76 153 0
-0.644077 -0.039681 0.235140 255 0 0
-0.273150 0.033837 -0.255650 0 127 127
-0.663960 -0.534199 -0.220186 76 0 153
-0.614804 0.036267 0.068844 76 153 0
0.017965 -0.447410 0.076425 0 255 0
0.564245 0.306102 -0.255650 0 127 127
-0.793743 0.235428 0.279757 76 153 0
-0.588392 0.172413 -0.212973 0 127 127
0.052302 0.235428 0.334589 76 153 0
0.869218 0.235428 -0.206797 76 153 0
0.117862 0.036267 -0.016455 0 0 255
0.641177 -0.426071 -0.035459 0 255 0
-0.649734 0.061454 0.203237 0 255 0
0.614249 0.073941 -0.255650 0 127 127
0.408879 0.043380 -0.106480 0 0 255
0.708830 -0.265076 -0.068472 153 0 76
0.040218 0.013518 0.089188 153 76 0
0.643170 0.235428 0.121773 76 153 0
-0.215611 -0.447410 0.149090 0 255 0
-0.453142 0.235428 0.176759 76 153 0
-0.685298 0.071198 -0.143628 76 153 0
-0.103144 -0.066613 -0.255650 0 127 127
-0.333277 -0.426071 -0.134707 0 255 0
0.495870 0.097952 0.235140 153 76 0
0.698161 0.059470 0.192936 153 0 76
0.208935 0.035213 -0.255650 0 127 127
-0.097273 -0.426071 -0.169574 0 255 0
0.126449 0.256767 -0.092408 76 153 0
0.222298 -0.447410 0.145826 0 255 0
0.714900 -0.116232 0.235140 153 0 76
-0.549191 0.235428 0.142922 76 153 0
0.846655 0.256767 -0.083775 76 153 0
-0.653614 0.256767 -0.016110 76 153 0
-0.649734 0.058394 -0.158782 127 0 127
0.261953 -0.426071 -0.220745 0 255 0
0.389010 0.235428 0.009030 76 153 0
0.730169 -0.170348 0.162194 153 0 76
-0.685298 -0.498867 0.195909 153 76 0
0.036661 0.024471 0.147842 76 0 153
0.883441 0.273203 -0.255650 0 127 127
-0.006016 0.214619 -0.079822 127 127 0
0.499456 0.020361 0.213801 153 76 0
0.181706 0.256767 -0.055485 76 153 0
-0.615354 0.256767 -0.073588 76 153 0
-0.657065 0.235428 0.163462 76 153 0
0.177269 0.170685 -0.234311 0 127 127
0.056272 -0.447410 0.025732 0 255 0
0.219722 0.256767 -0.111403 76 153 0
-0.037593 0.043380 -0.221693 0 127 127
-0.520668 0.043380 -0.057888 76 153 0
0.730169 0.164854 -0.013905 153 0 76
0.073988 -0.447410 -0.218343 0 255 0
0.534984 0.036267 -0.156017 0 0 255
0.554973 -0.426071 -0.224699 0 255 0
0.008209 0.139789 -0.029177 127 127 0
-0.685298 -0.310928 -0.146016 76 153 0
-0.642621 -0.023208 -0.211544 153 0 76
-0.164814 0.235428 -0.145544 76 153 0
-0.649553 0.236422 -0.255650 0 127 127
0.730169 -0.125280 -0.116623 153 0 76
-0.885092 0.235428 0.173948 76 153 0
-0.685298 -0.211209 0.233187 76 153 0
0.489711 0.256767 -0.042416 76 153 0
0.449528 0.020710 -0.255650 0 127 127
0.337659 0.222191 -0.227199 204 51 127
-0.529816 0.036267 0.087144 76 153 0
0.845544 0.235428 0.252089 76 153 0
0.008209 0.060895 0.207301 76 0 153
-0.427144 0.117814 0.213801 0 255 0
-0.685298 -0.216868 0.104735 76 153 0
0.442054 0.235428 -0.025130 76 153 0
0.290682 -0.426071 0.137832 0 255 0
0.730169 -0.008841 -0.182398 76 153 0
0.067531 -0.426071 0.101202 0 255 0
0.436996 -0.426071 -0.120592 0 255 0
-0.815277 0.235428 -0.205040 76 153 0
0.746289 0.214254 0.326555 0 255 0
0.552520 0.043380 0.178120 0 0 255
-0.004396 0.184959 -0.227199 0 127 127
0.141968 -0.447410 -0.179392 0 255 0
0.350333 0.011665 -0.234311 0 127 127
-0.670679 -0.265066 0.235140 76 153 0
-0.563490 0.090168 -0.255650 0 127 127
0.261715 -0.426071 -0.154194 0 255 0
0.006105 0.256767 0.212285 76 153 0
-0.685298 0.174144 0.186514 76 153 0
0.135797 0.025910 -0.234311 0 127 127
-0.485734 0.256767 0.332288 76 153 0
0.140657 0.074835 0.213801 153 76 0
-0.325844 -0.070426 -0.237327 0 127 127
-0.663960 -0.387858 -0.176349 76 0 153
-0.501789 0.131749 -0.234311 0 127 127
-0.163019 0.118540 0.213801 0 255 0
-0.097719 0.036267 -0.172525 76 153 0
-0.685298 -0.084717 -0.131499 76 153 0
-0.058829 0.313670 -0.235765 0 127 127
0.705112 -0.426082 -0.255650 0 255 0
-0.342024 0.201710 0.235140 0 255 0
0.467179 0.088601 -0.255650 0 127 127
-0.685298 -0.138040 0.188054 76 153 0
-0.268432 0.235428 -0.082171 76 153 0
-0.009573 -0.027621 -0.093402 76 0 153
-0.006016 0.164845 0.171315 127 127 0
0.283993 0.112685 0.235140 153 76 0
0.225828 0.043380 -0.208574 204 51 127
0.036661 0.066287 -0.017803 76 0 153
-0.009573 -0.026293 0.076301 76 0 153
0.730169 0.047897 -0.075748 153 0 76
-0.685298 -0.239015 -0.177626 76 153 0
0.389430 0.036267 0.065127 0 0 255
-0.876345 0.235428 0.047239 76 153 0
-0.223586 0.036267 -0.060680 76 153 0
-0.158569 0.036267 -0.111568 76 153 0
-0.487877 0.193020 0.213801 0 255 0
-0.128627 -0.447410 -0.216597 0 255 0
0.235377 0.235428 -0.022264 76 153 0
0.357467 0.036267 -0.168232 0 0 255
-0.422979 0.116854 -0.212973 0 127 127
-0.876977 0.256767 0.326821 76 153 0
0.698161 0.152249 0.006658 153 0 76
-0.616553 0.147301 -0.255650 0 127 127
0.204593 -0.070426 -0.234952 0 127 127
0.237771 0.185548 0.235140 153 76 0
-0.356843 0.235428 0.081191 76 153 0
0.527018 0.045918 0.235140 153 76 0
-0.685298 0.005522 -0.228492 153 0 76
-0.339412 0.059886 0.235140 0 255 0
0.502757 0.256767 0.276824 76 153 0
-0.425055 -0.447410 -0.191100 0 255 0
-0.685298 -0.022115 -0.045673 76 153 0
0.366992 0.235428 0.124243 76 153 0
0.248081 -0.047942 0.234178 255 0 0
0.088462 0.127031 0.235140 153 76 0
-0.291227 -0.447410 -0.190008 0 255 0
0.135342 0.036267 -0.111579 0 0 255
0.509034 -0.426071 -0.145804 0 255 0
0.011766 -0.023977 0.014772 76 0 153
-0.218878 -0.426071 -0.120036 0 255 0
-0.553245 0.174986 0.235140 0 255 0
-0.685298 0.106960 0.067790 76 153 0
0.203312 0.043380 0.152180 0 0 255
0.475951 0.043380 0.179888 0 0 255
-0.685298 0.172095 0.038320 76 153 0
0.057201 0.256767 0.141441 76 153 0
0.487909 0.235428 0.191892 76 153 0
-0.685298 0.078532 -0.033781 76 153 0
0.176949 -0.426071 -0.045275 0 255 0
0.577209 0.087429 0.235140 153 76 0
-0.601435 -0.052054 -0.255650 0 127 127
-0.420808 0.256767 -0.217760 76 153 0
-0.302737 -0.426071 0.064277 0 255 0
0.715943 -0.426747 -0.019354 0 255 0
-0.260694 -0.426071 0.115404 0 255 0
0.120781 0.235428 0.190437 76 153 0
-0.009642 -0.012615 -0.182380 76 0 153
-0.221636 -0.426071 -0.222530 0 255 0
0.514272 -0.002947 -0.234311 0 127 127
-0.508198 0.235428 0.137676 76 153 0
-0.359377 0.231872 0.216216 76 153 0
0.517940 0.213422 0.235140 153 76 0
0.203782 0.111055 -0.234311 0 127 127
0.708830 0.223478 0.223306 153 76 0
0.300717 0.036267 0.144632 0 0 255
-0.422093 0.158781 0.235140 0 255 0
0.709954 -0.007211 0.235140 255 0 0
-0.685298 0.115796 0.201942 76 153 0
0.572574 -0.426071 0.184089 0 255 0
-0.670635 0.185126 0.235140 76 153 0
0.730169 -0.472458 -0.230079 153 0 76
0.730169 0.160224 -0.211183 153 0 76
-0.760754 0.235428 -0.122301 76 153 0
-0.352666 0.137212 -0.234311 0 127 127
0.008209 0.177983 -0.020658 76 0 153
-0.164796 0.256767 -0.199934 76 153 0
-0.447933 -0.426071 0.146861 0 255 0
-0.378096 0.036267 -0.150267 76 153 0
-0.833121 0.273603 -0.255650 0 127 127
-0.027067 0.235428 -0.119293 76 153 0
0.675428 -0.447410 0.082101 0 0 255
0.383820 0.235428 -0.161711 76 153 0
-0.275845 0.256767 -0.009341 76 153 0
0.287373 0.311798 -0.234311 0 127 127
0.297790 0.058331 0.213801 0 0 255
-0.619911 0.235428 -0.136286 76 153 0
-0.663960 0.054622 -0.194463 127 0 127
0.510545 -0.017993 0.213801 255 0 0
-0.139829 -0.426071 0.028458 0 255 0
0.316929 -0.447410 -0.045172 0 255 0
0.198631 -0.007420 0.235140 255 0 0
-0.833771 0.235428 0.100093 76 153 0
0.213618 0.036267 0.028059 0 0 255
-0.330519 -0.011302 0.235140 255 0 0
0.797186 0.256767 -0.044285 76 153 0
0.036661 0.110472 -0.150913 76 0 153
-0.166986 0.256767 0.109785 76 153 0
-0.130883 -0.447410 0.196102 0 255 0
0.922384 0.310181 -0.234311 0 127 127
0.508797 0.043380 0.028764 0 0 255
-0.377779 0.256767 -0.103882 76 153 0
0.040218 0.159881 0.205849 76 0 153
-0.252802 0.161958 0.235140 0 255 0
-0.539889 0.152402 -0.255650 0 127 127
0.135328 -0.447410 0.065019 0 255 0
0.209285 0.235943 -0.234311 0 127 127
-0.557809 -0.447410 0.143506 0 255 0
-0.238520 0.119935 0.235140 0 255 0
0.079229 0.256767 0.317249 76 153 0
-0.013743 0.235428 0.131325 76 153 0
-0.357376 0.074283 -0.234311 0 127 127
0.198639 0.043380 -0.135298 0 0 255
-0.327347 0.268964 -0.234311 76 153 0
0.730169 -0.003134 -0.044772 153 0 76
-0.649734 0.213545 -0.065364 127 0 127
-0.011732 0.036267 0.099489 127 127 0
0.602192 0.256767 -0.156019 76 153 0
-0.758555 0.235428 -0.191016 76 153 0
-0.036156 -0.426071 0.195379 0 255 0
-0.006016 0.109462 0.017965 127 127 0
0.076981 -0.070426 -0.235103 0 127 127
-0.642621 -0.479167 -0.034306 204 51 127
0.758764 0.256767 0.118697 76 153 0
-0.649734 0.079676 -0.058732 127 0 127
-0.228764 -0.447410 0.058855 0 255 0
-0.663960 -0.263766 -0.027012 76 153 0
0.040218 0.141334 0.110755 76 0 153
0.185179 0.022041 0.214229 255 0 0
-0.123453 -0.014799 0.235140 255 0 0
0.402688 0.036267 -0.166254 0 0 255
-0.571813 0.117798 -0.212973 0 127 127
0.012917 0.069838 -0.255650 0 127 127
-0.552405 -0.426071 0.085044 0 255 0
0.038071 -0.018861 -0.255650 0 127 127
-0.299723 0.163505 0.213801 0 255 0
0.660627 0.036267 0.183897 0 0 255
-0.649734 0.154590 -0.201053 76 153 0
-0.053362 0.256767 0.198678 76 153 0
0.680323 -0.426071 -0.005269 0 255 0
-0.586334 -0.426071 -0.032671 0 255 0
0.711580 -0.357998 0.045062 153 0 76
0.708830 0.115748 -0.210512 204 51 127
0.884905 0.235428 0.331801 76 153 0
-0.873902 0.235428 -0.011409 76 153 0
0.349358 0.275857 -0.234311 0 127 127
0.333076 0.256767 0.046965 76 153 0
-0.202384 -0.426071 0.021157 0 255 0
-0.254112 0.036267 0.013567 76 153 0
-0.663960 -0.007952 0.110010 153 0 76
0.414708 0.256767 -0.063569 76 153 0
0.648471 0.256767 -0.084645 76 153 0
-0.135825 -0.426071 -0.112305 0 255 0
-0.003168 0.119711 -0.226138 127 127 0
-0.457960 0.230861 -0.255650 0 127 127
0.614040 -0.050462 -0.255650 0 127 127
-0.237885 0.043380 0.089354 76 153 0
0.956309 0.277336 -0.234311 0 127 127
-0.114185 -0.447410 0.060326 0 255 0
-0.486736 -0.426071 -0.095947 0 255 0
-0.056650 0.235428 -0.020453 76 153 0
0.730169 -0.174624 -0.100084 153 0 76
-0.685298 -0.033493 0.186956 76 153 0
0.589453 0.256767 0.322844 76 153 0
-0.166378 0.036267 0.124404 76 153 0
0.698161 0.079844 0.155063 153 0 76
-0.771958 0.235428 -0.061226 76 153 0
0.730169 -0.061187 0.200573 153 0 76
0.040218 0.172509 -0.171316 76 0 153
-0.591328 0.256767 0.290267 76 153 0
-0.575336 -0.426071 -0.094835 0 255 0
0.451376 0.256767 0.330453 76 153 0
0.730169 0.154491 -0.139740 153 0 76
-0.657737 0.116964 0.235140 0 255 0
0.054443 0.140526 -0.226314 0 127 127
0.384769 -0.426071 0.101741 0 255 0
0.691177 -0.034862 -0.010102 76 0 153
0.727287 -0.396784 0.110250 153 0 76
0.328459 -0.426071 0.134286 0 255 0
-0.202057 -0.447410 -0.155763 0 255 0
0.695471 -0.034862 0.067681 76 0 153
-0.663960 -0.328352 0.207973 76 153 0
0.389697 -0.426071 0.005782 0 255 0
0.329640 0.235428 -0.132703 76 153 0
0.623157 -0.447410 0.031722 0 255 0
-0.129037 0.124620 -0.212973 0 127 127
0.498673 0.177635 0.235140 153 76 0
0.708830 -0.057297 -0.206379 153 0 76
-0.665372 -0.555416 -0.255650 76 0 153
0.913481 0.256767 0.229673 76 153 0
-0.667210 0.256767 -0.112249 76 153 0
-0.663960 -0.062417 0.021717 76 153 0
0.449631 -0.426071 -0.163081 0 255 0
0.566206 0.256767 -0.139904 76 153 0
0.730169 -0.119057 0.110045 153 0 76
0.067462 0.256767 -0.008455 76 153 0
0.622700 0.256767 0.049982 76 153 0
-0.246142 0.036267 -0.221486 76 153 0
0.547188 0.256767 0.026169 76 153 0
0.131938 -0.013340 0.235140 255 0 0
-0.049319 0.076286 0.213801 0 255 0
0.111060 0.256767 0.358523 76 153 0
0.770777 0.312114 -0.234311 0 127 127
-0.076639 0.126158 -0.255650 0 127 127
-0.509484 -0.426071 0.087982 0 255 0
-0.663960 -0.327753 0.067814 76 153 0
0.730169 -0.173030 -0.226628 153 0 76
-0.649734 0.124623 -0.010999 127 0 127
0.659400 -0.426071 -0.215410 0 255 0
-0.204024 -0.049088 0.215849 255 0 0
-0.144460 0.043380 0.069449 76 153 0
0.008209 0.146361 -0.088693 76 0 153
0.624493 -0.428646 -0.255650 0 255 0
0.708830 -0.411281 0.172721 204 51 127
0.040218 0.051428 -0.185217 76 0 153
-0.492720 0.120073 0.235140 0 255 0
0.568136 0.043380 -0.191238 0 0 255
-0.685298 -0.100206 -0.075612 76 153 0
0.698161 0.055420 0.045125 0 0 255
-0.438777 0.043380 0.013230 76 153 0
0.038838 0.256767 -0.182545 76 153 0
0.236262 0.051043 0.213801 153 76 0
0.512791 -0.070426 -0.244950 0 127 127
-0.024078 -0.016485 0.235140 255 0 0
0.204467 -0.447410 -0.255053 0 255 0
0.687491 0.012842 -0.073211 76 0 153
0.708830 0.036684 -0.154384 153 0 76
-0.762691 0.235428 0.100964 76 153 0
-0.514927 0.235428 0.030185 76 153 0
0.715943 -0.444160 -0.174283 153 0 76
0.374618 0.256767 0.214583 76 153 0
-0.271158 0.036267 -0.029675 76 153 0
-0.663960 -0.342392 -0.144423 76 153 0
0.708074 0.256767 0.085028 76 153 0
-0.380478 -0.447410 -0.020536 0 255 0
-0.815275 0.235428 0.163859 76 153 0
-0.663960 -0.263916 0.093100 76 153 0
-0.277446 -0.447410 -0.131405 0 255 0
-0.306104 0.291329 -0.255650 0 127 127
0.443769 0.182668 -0.234311 0 127 127
-0.014468 -0.026248 -0.255650 0 127 127
-0.774691 0.235428 0.163476 76 153 0
-0.592070 -0.447410 0.016392 0 255 0
0.263867 0.235428 0.006599 76 153 0
-0.685298 -0.603525 -0.221794 76 0 153
0.231136 0.256767 0.157057 76 153 0
0.239986 0.043380 -0.152355 0 0 255
-0.117699 0.091489 -0.255650 0 127 127
0.708830 0.151406 0.147136 153 0 76
-0.325983 -0.447410 -0.242349 0 255 0
-0.009573 -0.029837 0.130315 76 0 153
-0.552479 0.111957 0.235140 0 255 0
0.712386 0.042969 0.093436 153 0 76
-0.419198 0.256767 0.183354 76 153 0
-0.685298 0.141608 -0.001635 76 153 0
0.181046 0.063135 0.213801 153 76 0
0.549993 0.256767 0.183402 76 153 0
-0.710220 0.256767 0.272940 76 153 0
0.614806 -0.434501 0.235140 0 255 0
0.346122 -0.447410 0.209569 0 255 0
0.600544 -0.426071 0.104225 0 255 0
0.131699 0.235428 -0.224443 0 127 127
0.292391 0.256767 0.082531 76 153 0
0.708830 0.010596 0.003715 153 0 76
-0.140350 0.193866 0.235140 0 255 0
-0.457721 0.256767 -0.098264 76 153 0
-0.558028 0.256767 0.213178 76 153 0
-0.708418 0.225486 0.342890 76 153 0
-0.294418 0.019849 0.235140 0 255 0
-0.663960 -0.290371 0.002501 76 153 0
-0.663960 -0.456636 -0.155658 204 51 127
-0.685298 0.163343 -0.042328 76 153 0
-0.577764 0.235428 -0.242748 76 153 0
0.076728 0.065259 -0.255650 0 127 127
0.505870 -0.426071 0.051214 0 255 0
0.194162 0.256767 0.011183 76 153 0
-0.704810 0.284269 -0.255650 0 127 127
-0.649734 0.124637 -0.130071 127 0 127
-0.887815 0.256767 0.226734 76 153 0
0.015482 -0.426071 -0.074489 0 255 0
-0.566189 0.235428 0.261827 76 153 0
0.525497 -0.447410 0.194353 0 255 0
0.606838 0.235428 -0.253333 0 127 127
0.730169 0.048286 -0.220224 153 0 76
-0.104772 0.256767 -0.157784 76 153 0
0.036661 0.207976 0.306225 76 0 153
0.696571 -0.447410 0.142838 0 0 255
-0.157702 -0.447410 -0.047103 0 255 0
0.730169 -0.331768 -0.207776 153 0 76
-0.130103 0.235428 0.273139 76 153 0
0.272153 0.043380 -0.028827 0 0 255
-0.403115 -0.046444 0.235020 255 0 0
0.633093 0.235428 -0.198338 76 153 0
-0.395163 0.043380 -0.034961 76 153 0
-0.319653 -0.426071 -0.007208 0 255 0
-0.663960 -0.066727 0.131466 76 153 0
0.025991 0.256767 -0.106808 76 153 0
0.708830 -0.284507 0.189037 153 0 76
-0.358159 -0.426071 -0.216326 0 255 0
0.241639 -0.447410 -0.198028 0 255 0
0.095205 -0.426071 0.048590 0 255 0
-0.018280 0.256767 0.041967 76 153 0
-0.086185 0.235428 0.057482 76 153 0
0.134751 -0.436043 0.235140 0 255 0
-0.779555 0.235428 -0.004545 76 153 0
-0.122361 0.235428 -0.010992 76 153 0
-0.087454 0.113696 0.235140 0 255 0
0.367580 -0.426071 -0.251765 0 255 0
-0.655668 -0.034862 -0.086827 153 0 76
-0.466817 0.043380 -0.203685 76 153 0
-0.483743 0.313670 -0.238649 0 127 127
0.165925 -0.037551 -0.234311 0 127 127
0.844226 0.256767 0.053817 76 153 0
-0.079461 0.235428 -0.059827 76 153 0
0.065071 -0.447410 -0.036969 0 255 0
-0.107156 -0.447410 -0.101969 0 255 0
0.164455 -0.048801 0.232903 255 0 0
0.708830 -0.164729 -0.052836 153 0 76
-0.685298 -0.194228 -0.051951 76 153 0
-0.269361 0.256767 0.157063 76 153 0
0.698161 0.164849 0.202951 153 0 76
0.385879 0.252926 0.363172 76 153 0
-0.275215 -0.447410 0.085044 0 255 0
0.708830 -0.253010 0.087613 153 0 76
0.410729 0.043380 -0.221824 0 127 127
0.801615 0.235428 0.236413 0 255 0
0.813585 0.261684 -0.255650 0 127 127
0.356782 0.128362 -0.212973 204 51 127
-0.300693 0.103105 -0.234311 0 127 127
0.564585 -0.426071 -0.081843 0 255 0
-0.507854 0.256767 -0.227476 0 127 127
-0.193075 0.036267 -0.178562 76 153 0
0.178341 0.131721 0.235140 153 76 0
0.730169 -0.142075 -0.167741 153 0 76
-0.506492 -0.426071 0.164288 0 255 0
-0.047376 0.256767 -0.084909 76 153 0
-0.685298 0.069634 0.197235 127 0 127
-0.642621 -0.001557 0.066122 153 0 76
0.567491 0.187184 -0.234311 0 127 127
0.036661 0.133238 0.002081 76 0 153
-0.234701 0.198221 0.213801 0 255 0
-0.005199 -0.426071 0.045397 0 255 0
0.730169 -0.211767 -0.254747 153 0 76
-0.231502 0.036267 0.154549 76 153 0
0.698161 0.226612 0.122561 153 0 76
-0.002810 -0.034862 0.210116 76 0 153
0.319210 0.256767 -0.040499 76 153 0
0.008209 0.035288 -0.034184 127 127 0
-0.663960 -0.099905 -0.194146 76 153 0
-0.140621 -0.426071 0.122656 0 255 0
-0.365281 0.235428 -0.164969 76 153 0
-0.147104 0.043380 -0.156713 76 153 0
-0.286365 0.036267 0.036307 76 153 0
-0.508220 0.235428 0.177795 76 153 0
0.637330 0.102872 -0.227199 0 127 127
0.787072 0.214480 -0.046750 0 255 0
0.433412 -0.426071 0.055846 0 255 0
0.148888 0.256767 0.052904 76 153 0
0.708830 -0.327088 0.109274 153 0 76
0.755855 0.235428 0.191229 76 153 0
-0.606412 0.043380 0.151847 76 153 0
0.350325 0.235428 -0.102156 76 153 0
-0.218240 0.058047 0.235140 0 255 0
0.841177 0.235428 -0.114426 76 153 0
-0.413439 0.088578 0.235140 0 255 0
-0.169145 -0.428910 -0.255650 0 255 0
0.373891 0.173262 -0.234311 204 51 127
0.224249 0.212319 0.213801 153 76 0
-0.089977 0.078069 -0.212973 0 127 127
-0.441870 -0.426071 -0.127173 0 255 0
-0.304874 0.235428 -0.173760 76 153 0
0.336670 0.136671 0.213801 153 76 0
0.697817 0.256767 0.352971 76 153 0
-0.336037 -0.426071 0.109468 0 255 0
-0.157800 -0.048250 -0.255650 0 127 127
0.648703 0.018828 0.235140 153 76 0
0.576604 0.253690 -0.234311 0 127 127
0.269466 -0.426071 0.199325 0 255 0
-0.645997 -0.439254 -0.255650 0 255 0
0.922484 0.256767 0.139731 76 153 0
0.008209 0.080121 0.041621 127 127 0
0.319714 -0.426071 0.014781 0 255 0
-0.524269 0.205592 -0.234311 0 127 127
-0.684482 0.128396 -0.234311 0 127 127
0.121169 -0.447410 -0.069827 0 255 0
0.730169 -0.344727 -0.094200 153 0 76
-0.660193 0.218838 -0.222508 127 0 127
0.708830 -0.354864 0.148717 153 0 76
0.398281 0.231872 -0.217512 204 51 127
0.484051 -0.426071 0.101670 0 255 0
-0.176552 -0.004260 -0.234311 0 127 127
-0.595667 0.120632 0.213801 0 255 0
-0.681779 0.256767 0.226677 76 153 0
0.708830 -0.319055 -0.020213 153 0 76
0.730169 -0.085801 0.077255 153 0 76
-0.079836 0.256767 0.327793 76 153 0
0.416135 0.235428 0.325575 76 153 0
0.153203 0.043380 0.197640 0 0 255
0.010464 0.235428 0.032023 76 153 0
-0.200482 0.237874 0.363172 76 153 0
0.605123 -0.426071 -0.172542 0 255 0
-0.404976 0.043380 -0.113099 76 153 0
-0.288384 -0.426071 0.142081 0 255 0
-0.577770 -0.426071 -0.146169 0 255 0
-0.248150 -0.019287 0.213801 255 0 0
0.655951 0.105485 0.235140 153 76 0
-0.359539 0.122733 0.235140 0 255 0
-0.261632 -0.447410 -0.232483 0 255 0
-0.649734 0.033601 -0.131916 153 0 76
0.140704 0.256767 0.335160 76 153 0
-0.175877 0.015110 0.235140 255 0 0
0.058346 -0.009895 0.213801 153 76 0
-0.543413 0.235428 -0.170563 76 153 0
0.698161 0.211633 0.008324 153 0 76
-0.265382 -0.447410 -0.028077 0 255 0
-0.057678 0.036267 0.071166 76 153 0
0.235822 0.256767 0.086539 76 153 0
0.703124 0.235428 0.262567 76 153 0
0.708830 -0.457147 -0.000093 0 255 0
0.060432 0.204620 0.235140 76 0 153
0.730169 0.152491 -0.093031 153 0 76
-0.325763 0.043380 -0.122487 76 153 0
-0.148747 0.246340 -0.234311 76 153 0
0.708830 -0.366166 -0.152848 153 0 76
-0.388901 -0.447410 -0.170651 0 255 0
-0.089054 -0.426071 0.149347 0 255 0
-0.079349 -0.443982 0.235140 0 255 0
0.555355 0.235428 -0.109460 76 153 0
0.634029 -0.447410 0.152129 0 255 0
-0.685298 -0.289739 0.069961 76 153 0
0.607439 0.079032 0.213801 153 76 0
-0.418330 -0.447410 -0.045312 0 255 0
-0.112454 0.147770 0.213801 0 255 0
-0.427460 0.256767 -0.051900 76 153 0
-0.279377 -0.426071 -0.061671 0 255 0
-0.442642 0.036267 -0.061049 76 153 0
-0.216680 0.235428 0.045989 76 153 0
0.721659 0.256767 0.285728 76 153 0
-0.485796 0.036267 0.182100 76 153 0
0.730169 -0.467144 0.154357 204 51 127
-0.067053 -0.426071 0.012518 0 255 0
0.449821 0.235428 0.022422 76 153 0
-0.530865 0.235428 -0.006684 76 153 0
-0.655621 0.231872 0.204436 127 0 127
0.634026 0.256767 0.358924 76 153 0
-0.499477 0.081873 -0.255650 0 127 127
-0.614907 0.043380 -0.105670 76 153 0
-0.409458 -0.426071 -0.226355 0 255 0
-0.289498 0.174438 -0.234311 0 127 127
-0.179764 -0.426071 -0.075130 0 255 0
-0.226646 0.256767 0.182353 76 153 0
-0.606088 -0.446596 0.235140 0 255 0
-0.071671 0.206577 -0.234311 0 127 127
0.509549 0.256767 -0.217932 76 153 0
0.293209 0.043380 -0.207764 0 0 255
-0.879909 0.256767 -0.182321 76 153 0
-0.658304 -0.452868 0.235140 204 51 127
-0.136228 0.235428 0.119787 76 153 0
-0.722463 0.214090 -0.194392 255 0 0
0.730169 0.061615 0.210618 153 0 76
0.589346 0.036267 0.049972 0 0 255
0.723714 0.091974 -0.234311 153 0 76
-0.811445 0.235428 -0.100939 76 153 0
0.921910 0.235428 0.201415 76 153 0
0.357359 -0.426071 -0.111573 0 255 0
-0.010567 0.043380 -0.189046 76 153 0
-0.323262 0.235428 -0.132260 76 153 0
-0.002150 0.048023 -0.227199 76 0 153
0.708830 -0.358887 0.193272 153 0 76
-0.229672 0.235428 -0.061439 76 153 0
0.001483 0.256767 0.254677 76 153 0
0.730169 0.060589 0.143999 153 0 76
-0.649734 0.115635 -0.055093 127 0 127
0.441486 -0.447410 -0.034508 0 255 0
-0.100415 0.057855 -0.255650 0 127 127
0.046380 -0.426071 -0.125132 0 255 0
-0.604736 0.085348 0.235140 0 255 0
0.056095 0.207301 -0.234311 204 51 127
0.538163 0.043380 0.143865 0 0 255
-0.685298 0.186215 0.083881 76 153 0
0.299869 -0.447410 -0.142279 0 255 0
0.730169 -0.100961 -0.011129 153 0 76
0.202989 -0.447410 0.051718 0 255 0
0.735225 0.256767 -0.073960 76 153 0
0.054443 0.221854 -0.049566 76 0 153
-0.349221 0.006373 -0.255650 0 127 127
-0.478428 0.025715 -0.234311 0 127 127
0.040218 -0.014528 -0.068092 76 0 153
0.631184 0.140865 0.235140 153 76 0
-0.152180 -0.010462 0.213801 255 0 0
-0.006016 0.022083 0.015462 76 0 153
0.530858 0.067965 -0.212973 204 51 127
-0.393789 0.249260 -0.255650 0 127 127
-0.273934 0.256767 -0.177793 76 153 0
-0.666255 -0.394861 0.235140 153 76 0
-0.664015 -0.447410 0.126189 0 255 0
0.036661 0.070973 0.129740 76 0 153
-0.814914 0.256767 0.051449 76 153 0
0.730169 0.114485 -0.181109 153 0 76
-0.163915 -0.447410 -0.161457 0 255 0
0.662144 -0.447410 0.206603 0 255 0
-0.308111 0.205344 0.213801 0 255 0
0.008209 0.138554 -0.134722 127 127 0
-0.508337 0.043380 0.006535 76 153 0
-0.386684 0.036267 0.055161 76 153 0
0.160819 -0.447410 -0.004951 0 255 0
0.698161 0.176957 -0.063684 153 0 76
-0.671072 -0.442989 0.199841 153 76 0
-0.342596 -0.447410 -0.032828 0 255 0
0.668700 0.235428 0.314673 76 153 0
0.078420 0.235428 -0.255050 0 127 127
0.708830 -0.147896 0.111316 153 0 76
-0.617623 0.235428 -0.186095 76 153 0
0.698161 0.172466 -0.151067 153 0 76
0.111657 0.235428 0.134971 76 153 0
0.122092 0.235428 0.249683 76 153 0
0.585431 -0.447410 -0.016639 0 255 0
0.712445 -0.372479 0.078576 153 0 76
0.774867 0.235428 -0.137587 76 153 0
-0.679551 0.256767 0.321721 76 153 0
0.095398 0.043380 0.055824 0 0 255
0.690056 -0.034862 0.140814 76 0 153
-0.453307 -0.008726 -0.255650 0 127 127
0.359797 0.235428 0.065650 76 153 0
-0.206996 0.043380 -0.111191 76 153 0
-0.685298 -0.378210 -0.245132 76 153 0
0.883111 0.235428 0.277709 76 153 0
0.853740 0.313670 -0.238204 0 127 127
-0.685298 -0.531469 0.234661 153 76 0
0.730169 0.169518 0.071647 153 0 76
-0.008506 -0.426071 0.227732 0 255 0
0.954962 0.256767 0.254094 76 153 0
-0.562617 -0.041328 -0.234311 0 127 127
-0.742201 0.221400 0.243712 255 0 0
0.407168 -0.447410 -0.063238 0 255 0
-0.076848 0.235428 0.111817 76 153 0
0.424712 -0.447410 0.150561 0 255 0
-0.379459 0.256767 0.283653 76 153 0
-0.328513 0.256767 0.263191 76 153 0
-0.183449 0.235428 0.075421 76 153 0
0.861304 0.256767 0.127675 76 153 0
0.014960 0.235428 0.313927 76 153 0
0.193000 -0.426071 -0.085538 0 255 0
0.708830 -0.303255 -0.211595 153 0 76
0.014473 -0.426071 -0.005082 0 255 0
-0.685298 0.198373 -0.035371 76 153 0
0.241905 0.256767 -0.227260 76 153 0
0.010645 0.311706 -0.234311 0 127 127
-0.771160 0.235428 0.342125 76 153 0
0.342912 0.036267 0.197008 0 0 255
0.687491 -0.461483 -0.065677 0 0 255
-0.069968 0.256767 0.240980 76 153 0
0.288375 0.235428 -0.133120 76 153 0
-0.663960 -0.083864 0.232467 76 153 0
-0.291583 0.048615 -0.227199 0 127 127
-0.685298 -0.408017 -0.156165 76 0 153
-0.023305 0.235428 0.096749 76 153 0
-0.109208 0.235428 -0.100384 76 153 0
-0.623208 -0.426071 -0.110869 0 255 0
0.289358 0.182034 0.235140 153 76 0
0.613805 -0.426071 0.178603 0 255 0
0.597285 0.235428 0.003131 76 153 0
0.082516 -0.008798 -0.255650 0 127 127
0.428652 0.036267 0.027630 0 0 255
0.713035 0.256767 -0.115581 76 153 0
0.269997 0.256767 0.309339 76 153 0
0.624084 -0.016233 0.235140 255 0 0
-0.038217 -0.447410 0.099942 0 255 0
0.641682 0.235428 -0.015678 76 153 0
-0.522927 0.235428 0.268608 76 153 0
-0.615488 0.217769 -0.255650 0 127 127
-0.517076 0.256767 0.078747 76 153 0
-0.328638 0.235428 -0.080695 76 153 0
0.698161 0.120635 0.023696 153 0 76
0.954569 0.235428 -0.094920 76 153 0
0.737472 0.235428 0.097612 0 255 0
0.730169 0.128564 0.188594 153 0 76
-0.649734 0.222946 0.083524 76 153 0
-0.437615 0.235428 0.122215 76 153 0
0.698161 0.125169 -0.083322 153 0 76
-0.380763 0.235428 0.118072 76 153 0
0.195003 0.235428 0.293706 76 153 0
-0.663960 -0.005668 -0.166020 76 153 0
0.660469 0.043380 0.033496 0 0 255
0.016222 -0.062183 -0.234311 0 127 127
0.928579 0.235428 -0.002133 76 153 0
0.467014 -0.032737 0.213801 255 0 0
0.340564 0.256767 0.314180 76 153 0
-0.516581 -0.447410 0.211761 0 255 0
-0.005021 -0.426071 -0.045575 0 255 0
0.517484 -0.426071 0.151024 0 255 0
0.046874 -0.034862 0.109045 153 76 0
0.524596 0.043380 -0.098572 0 0 255
0.529459 0.043380 0.066318 0 0 255
0.730169 -0.041879 0.043707 153 0 76
0.692736 0.050013 -0.212973 153 0 76
-0.421677 -0.426071 0.024727 0 255 0
0.370104 -0.039945 -0.234311 0 127 127
-0.649734 0.108571 0.020535 127 0 127
-0.685298 0.110648 -0.069854 76 153 0
0.033241 -0.426071 -0.248153 0 255 0
-0.372954 0.048670 0.235140 0 255 0
0.632961 -0.426071 -0.099471 0 255 0
0.003573 0.220811 -0.212973 127 127 0
-0.045775 0.043380 -0.061085 76 153 0
0.333562 0.180863 0.213801 153 76 0
-0.663960 -0.341750 -0.215004 76 153 0
0.822363 0.235428 0.129085 76 153 0
-0.192658 0.110505 -0.212973 0 127 127
0.181245 0.092913 -0.255650 0 127 127
0.185288 0.256767 -0.160241 76 153 0
-0.222716 -0.010321 -0.234311 0 127 127
-0.241305 -0.447410 -0.182016 0 255 0
-0.636793 0.033183 -0.255650 0 127 127
-0.059358 0.256767 0.007555 76 153 0
0.022476 0.235428 -0.016509 76 153 0
-0.685298 -0.386541 0.115454 153 76 0
0.729161 -0.400245 -0.255650 153 0 76
0.141555 0.313670 -0.238121 0 127 127
-0.475012 -0.061997 -0.255650 0 127 127
0.776554 0.214090 -0.221373 0 255 0
-0.518757 0.154350 -0.212973 0 127 127
-0.694974 0.256767 -0.218883 76 153 0
0.799761 0.235428 -0.188563 76 153 0
-0.329446 0.037256 -0.255650 0 127 127
-0.245803 0.256767 0.245121 76 153 0
-0.136956 0.209979 -0.234311 0 127 127
0.243661 0.013631 -0.255650 0 127 127
0.444180 0.256767 0.158851 76 153 0
0.098377 0.105020 -0.255650 0 127 127
-0.649734 0.148091 0.159776 127 0 127
0.250880 0.148437 -0.255650 0 127 127
0.043596 -0.447410 -0.177464 0 255 0
-0.414755 0.256767 -0.107408 76 153 0
-0.663960 -0.152896 0.212131 76 153 0
0.535209 -0.426071 -0.014864 0 255 0
-0.685298 -0.184655 -0.116735 76 153 0
-0.663960 -0.479434 0.084791 204 51 127
0.588605 0.036267 -0.119080 0 0 255
0.730169 -0.099535 0.141343 153 0 76
0.274244 -0.426071 0.100654 0 255 0
-0.716308 0.256767 0.199955 76 153 0
0.241825 0.127293 0.235140 153 76 0
0.588497 0.118629 0.213801 153 76 0
0.304488 0.235428 -0.193769 76 153 0
0.730169 -0.509949 -0.208745 153 0 76
-0.205014 -0.010731 0.213801 255 0 0
0.378030 0.022980 -0.255650 0 127 127
-0.628576 0.256767 0.080930 76 153 0
0.054443 0.066008 0.033870 76 0 153
-0.306600 -0.447410 -0.077413 0 255 0
-0.824369 0.235428 -0.168569 76 153 0
-0.237104 0.235428 0.097042 76 153 0
-0.685298 0.042094 -0.219384 76 153 0
0.403646 -0.426071 -0.109589 0 255 0
0.692187 0.047186 0.235140 153 76 0
-0.660011 -0.050059 -0.255650 0 127 127
0.044660 -0.006959 -0.010430 153 76 0
0.926453 0.235428 -0.071525 76 153 0
0.081148 0.036267 0.017208 0 0 255
0.569042 0.120664 -0.234311 0 127 127
0.420024 0.256767 0.087122 76 153 0
0.730169 0.096751 0.146872 153 0 76
-0.457928 0.170680 -0.227199 0 127 127
-0.038334 0.024427 -0.255650 0 127 127
0.447324 0.293195 -0.255650 0 127 127
-0.195239 0.235428 -0.228131 0 127 127
0.499948 0.109280 -0.234311 0 127 127
0.730169 -0.193422 -0.196995 153 0 76
0.165743 0.043380 0.129969 0 0 255
-0.679289 0.156041 -0.255650 0 127 127
0.035291 0.173397 0.294002 76 0 153
0.730169 -0.135434 0.170701 153 0 76
-0.551340 -0.426071 0.041674 0 255 0
-0.663960 -0.195331 -0.023707 76 153 0
-0.527005 0.014653 -0.234311 0 127 127
-0.077819 0.147586 -0.227199 0 127 127
-0.256491 0.084018 0.235140 0 255 0
-0.544698 0.256767 0.027756 76 153 0
-0.532211 0.036267 -0.153396 76 153 0
0.494193 -0.426071 -0.072626 0 255 0
-0.385424 0.279710 -0.234311 0 127 127
0.685961 0.225423 -0.227199 204 51 127
0.603701 0.235428 0.253749 76 153 0
-0.042928 0.235428 0.153365 76 153 0
0.006758 0.212766 -0.255650 0 127 127
0.297941 0.043380 -0.166549 0 0 255
-0.616554 -0.426071 0.179087 0 255 0
-0.328254 0.100442 -0.255650 0 127 127
-0.561848 0.063224 0.235140 0 255 0
0.376200 -0.012752 0.235140 255 0 0
0.008209 0.190411 0.195205 76 0 153
-0.074031 0.179848 0.213801 0 255 0
-0.657034 -0.447410 0.056742 204 51 127
0.233758 -0.028377 -0.255650 0 127 127
-0.006016 0.163947 0.044189 127 127 0
0.052045 -0.034862 -0.205002 153 76 0
0.787759 0.235428 0.293294 0 255 0
-0.474022 -0.447410 -0.197245 0 255 0
0.123892 0.256767 -0.030632 76 153 0
0.244956 0.235428 0.297675 76 153 0
-0.418496 0.235428 0.028142 76 153 0
-0.162195 0.160990 -0.255650 0 127 127
0.388754 0.235428 -0.127166 76 153 0
0.698161 0.118166 0.114621 153 0 76
0.154769 0.036267 0.030116 0 0 255
0.717246 0.313670 -0.234357 0 127 127
0.730169 0.179749 -0.115692 153 0 76
-0.649734 0.184685 -0.171950 127 0 127
0.197628 -0.426071 -0.153294 0 255 0
-0.636726 -0.426071 -0.034129 0 255 0
-0.584488 0.235428 -0.087037 76 153 0
0.444240 -0.004907 0.213801 255 0 0
0.325373 -0.015855 0.235140 255 0 0
0.043497 0.284365 -0.234311 0 127 127
0.890463 0.235428 -0.033730 76 153 0
0.575859 -0.447410 0.137964 0 255 0
0.708830 -0.323570 0.049593 153 0 76
0.419348 0.169342 -0.212973 204 51 127
-0.608257 -0.447410 -0.057859 0 255 0
0.559266 0.022612 0.213801 153 76 0
0.144136 0.125358 0.235140 153 76 0
-0.424750 0.235428 -0.158431 76 153 0
0.443842 -0.014492 -0.234311 0 127 127
-0.716554 0.235428 -0.054298 76 153 0
0.474661 -0.426071 0.156125 0 255 0
-0.652460 0.167600 -0.234311 0 127 127
0.009394 0.022041 -0.133790 127 127 0
-0.685298 -0.348268 -0.030811 76 153 0
0.732617 0.228463 -0.255650 0 127 127
-0.726970 0.233820 -0.255650 255 0 0
-0.211673 0.256767 -0.022219 76 153 0
0.402650 0.048364 0.235140 153 76 0
0.353112 0.058826 -0.212973 204 51 127
0.261707 0.275039 -0.255650 0 127 127
-0.403471 0.235428 0.357948 76 153 0
0.700028 -0.447410 -0.213621 0 0 255
-0.334768 0.235428 0.139887 76 153 0
-0.685298 -0.254890 -0.052918 76 153 0
0.169272 0.256767 0.248568 76 153 0
0.608744 0.256767 0.104466 76 153 0
-0.570931 -0.447410 -0.186864 0 255 0
-0.499734 0.042903 -0.255650 0 127 127
-0.267123 0.036267 -0.162183 76 153 0
0.095139 0.267721 -0.234311 0 127 127
0.206202 0.043380 -0.076694 0 0 255
0.712386 0.032953 -0.115693 153 0 76
0.344925 -0.447410 -0.072684 0 255 0
-0.327381 -0.426071 0.203685 0 255 0
-0.653243 0.074659 0.235140 0 255 0
-0.041289 -0.447410 -0.151459 0 255 0
0.385928 0.074600 0.213801 153 76 0
-0.610626 0.235428 0.127191 76 153 0
0.550937 0.256767 -0.185659 76 153 0
-0.662482 0.235428 0.298480 76 153 0
-0.396705 0.051456 -0.227199 0 127 127
-0.309337 -0.447410 -0.117888 0 255 0
-0.463257 0.256767 0.061759 76 153 0
0.117917 0.256767 -0.148044 76 153 0
0.650611 0.038082 -0.227199 0 0 255
-0.276273 0.085957 -0.255650 0 127 127
-0.214532 0.235428 -0.120337 76 153 0
-0.361770 0.101369 -0.212973 0 127 127
0.730169 -0.221406 0.197616 153 0 76
0.492503 -0.027060 -0.255650 0 127 127
-0.043409 -0.447410 -0.058641 0 255 0
0.270331 0.235428 -0.035455 76 153 0
0.047959 -0.426071 0.143493 0 255 0
-0.433218 -0.447410 0.209078 0 255 0
0.094113 -0.447410 -0.172133 0 255 0
0.708830 -0.078502 -0.154199 153 0 76
0.821031 0.256767 0.190876 76 153 0
-0.090811 -0.426071 0.114124 0 255 0
0.244241 -0.426071 -0.063741 0 255 0
0.008209 0.185899 0.231550 0 255 0
0.402524 -0.426071 -0.166200 0 255 0
0.698161 0.117473 -0.161916 153 0 76
-0.179408 0.162512 0.235140 0 255 0
0.544223 0.152907 0.235140 153 76 0
-0.685298 0.059774 0.112525 76 153 0
-0.424388 0.025540 0.213801 255 0 0
0.954627 0.235428 -0.024705 76 153 0
-0.015420 -0.426071 0.012052 0 255 0
0.730169 0.049230 -0.179148 153 0 76
-0.700297 0.256767 -0.012519 76 153 0
-0.271757 0.043380 -0.100635 76 153 0
-0.132085 0.256767 0.339430 76 153 0
0.698161 0.073328 0.077148 153 0 76
0.484819 -0.447410 -0.214425 0 255 0
0.511459 0.256767 0.046600 76 153 0
-0.395208 0.256767 -0.069931 76 153 0
0.829687 0.235428 -0.044031 76 153 0
-0.685298 0.222814 -0.081268 255 0 0
-0.330551 0.256767 0.207120 76 153 0
-0.098021 0.195954 -0.255650 0 127 127
0.730169 0.219387 -0.171726 153 0 76
-0.222095 0.147928 0.213801 0 255 0
0.033802 0.235428 0.274772 76 0 153
0.708830 -0.000838 0.191984 76 0 153
0.063873 0.231363 0.213801 153 76 0
0.298011 0.235428 0.123960 76 153 0
-0.223343 -0.426071 -0.017666 0 255 0
0.410237 -0.018292 0.213801 255 0 0
0.061556 -0.027968 -0.134810 153 76 0
0.273089 0.185064 -0.227199 0 127 127
0.735689 0.256767 0.333300 76 153 0
0.427128 0.235428 0.271282 76 153 0
-0.244992 0.235428 0.320764 76 153 0
0.228999 -0.447410 -0.040041 0 255 0
-0.655611 0.256767 -0.050409 76 153 0
-0.500463 0.235428 -0.025039 76 153 0
0.392910 0.256767 0.138015 76 153 0
0.299107 0.036267 -0.097738 0 0 255
0.367780 0.235428 0.241585 76 153 0
0.556583 -0.447410 0.209711 0 255 0
0.786109 0.256767 -0.078892 76 153 0
0.363538 0.256767 -0.001111 76 153 0
0.225779 -0.447410 0.002447 0 255 0
0.040218 0.018242 -0.208425 76 0 153
-0.595712 0.061060 -0.227199 0 127 127
-0.622955 -0.447410 0.143783 0 255 0
-0.663960 -0.186756 0.104829 76 153 0
-0.663960 0.049361 -0.085856 127 0 127
-0.446159 0.256767 0.150813 76 153 0
-0.881915 0.235428 -0.111451 76 153 0
0.026972 0.256767 0.053866 76 153 0
-0.388051 0.197754 -0.227199 0 127 127
-0.390446 -0.426071 0.004386 0 255 0
-0.520250 0.284858 -0.255650 0 127 127
-0.650859 0.026231 0.213801 255 0 0
0.603306 0.043380 -0.028993 0 0 255
-0.419903 0.170849 -0.255650 0 127 127
0.008209 0.212066 0.263366 76 0 153
-0.476246 0.202831 -0.234311 0 127 127
-0.090447 0.256767 -0.123814 76 153 0
0.708830 0.003518 0.150667 153 0 76
-0.297514 0.256767 0.248682 76 153 0
0.152822 0.146736 -0.234311 204 51 127
-0.540712 0.043380 0.210210 76 153 0
-0.359251 -0.031439 -0.234311 0 127 127
-0.268982 0.256767 -0.108917 76 153 0
0.382089 0.256767 0.300152 76 153 0
0.265074 -0.426071 0.048468 0 255 0
-0.664114 -0.021979 0.213801 153 0 76
0.296168 -0.447410 0.198224 0 255 0
-0.623082 0.235428 0.159038 76 153 0
-0.420829 0.185468 0.213801 0 255 0
-0.204963 0.260145 -0.255650 0 127 127
0.365721 -0.447410 -0.010506 0 255 0
-0.241350 0.073072 -0.227199 0 127 127
0.730169 0.195814 0.202070 153 0 76
-0.518095 -0.426071 -0.252594 0 255 0
-0.560400 -0.447410 -0.125936 0 255 0
0.280681 0.256767 0.167408 76 153 0
0.310802 0.235428 -0.002054 76 153 0
0.708830 -0.059631 -0.096478 153 0 76
0.730169 -0.318458 0.233264 153 0 76
0.134790 0.256767 0.121761 76 153 0
-0.496734 0.235428 0.095991 76 153 0
-0.663960 -0.321756 0.153170 76 153 0
0.534397 0.210330 -0.255650 0 127 127
-0.663960 -0.182171 -0.226904 76 153 0
0.561365 0.235428 -0.041194 76 153 0
0.697784 0.135097 0.235140 153 76 0
0.730169 -0.229444 -0.217368 153 0 76
0.116610 0.209552 -0.255650 0 127 127
0.866606 0.256767 0.181564 76 153 0
-0.438576 0.256767 0.295672 76 153 0
