ply
format ascii 1.0
element vertex 1276
property float x
property float y
property float z
property uchar red
property uchar green
property uchar blue
end_header
0.092248 -0.803646 0.029702 76 153 0
-0.031297 0.938621 0.085666 76 0 153
-0.231350 -0.517788 -0.143303 76 153 0
-0.245762 0.456669 0.114282 76 153 0
-0.126286 0.710376 -0.137383 153 0 76
0.214557 -0.127435 -0.166900 76 153 0
-0.141631 0.497261 0.230524 76 153 0
0.104721 0.630855 0.205173 153 0 76
-0.250072 -0.356126 0.105572 76 153 0
0.003084 -0.121311 -0.272389 76 153 0
0.057662 0.105553 0.263662 76 153 0
0.182518 0.426948 0.198874 76 153 0
0.189642 0.602006 -0.159939 153 0 76
0.259067 -0.174253 -0.085057 76 153 0
-0.242511 -0.596742 0.120853 76 153 0
0.165570 -0.477611 -0.216066 76 153 0
-0.261775 -0.375896 0.074244 76 153 0
0.129846 0.277704 0.236797 76 153 0
0.022952 -0.528991 0.270616 76 153 0
0.245896 -0.634907 0.116320 76 153 0
-0.251103 0.421066 0.103490 76 153 0
-0.273048 -0.333469 0.014723 76 153 0
-0.001641 0.867095 -0.086490 153 0 76
0.258167 -0.633798 -0.089392 76 153 0
0.047303 0.764648 -0.148004 153 0 76
-0.139786 0.159468 -0.234492 76 153 0
0.043371 0.911984 0.083720 76 0 153
-0.151160 -0.389344 0.224176 76 153 0
0.260911 0.395350 0.071887 76 153 0
-0.256673 -0.569577 0.092234 76 153 0
0.107404 -0.490817 0.247903 76 153 0
0.049933 0.519370 -0.269383 76 153 0
0.270378 -0.259105 0.009655 76 153 0
0.123821 -0.253949 -0.243878 76 153 0
0.061551 -0.088713 0.262883 76 153 0
-0.092183 0.976649 -0.002014 76 0 153
-0.035971 -0.731489 -0.270336 76 153 0
0.128220 -0.803646 -0.100606 76 153 0
0.001888 -0.160968 -0.272466 76 153 0
-0.269526 -0.176502 -0.040177 76 153 0
-0.245604 -0.216070 -0.121906 76 153 0
0.212271 -0.011282 -0.169498 76 153 0
0.268065 0.095854 0.045706 76 153 0
0.096902 0.496699 0.253100 76 153 0
-0.233056 -0.583745 -0.140742 76 153 0
0.036954 0.174271 0.267811 76 153 0
0.138847 0.573279 0.221923 153 0 76
-0.160594 -0.421555 0.217891 76 153 0
0.268415 -0.675771 -0.038397 76 153 0
0.099518 -0.346703 0.251805 76 153 0
0.083535 -0.306040 0.258478 76 153 0
-0.132594 0.708651 0.129724 153 0 76
-0.269503 0.328469 -0.040530 76 153 0
0.140357 -0.803646 -0.197750 76 153 0
-0.107785 0.661143 0.183064 153 0 76
-0.137962 -0.510615 0.232969 76 153 0
-0.015554 0.809994 -0.127833 153 0 76
0.155062 -0.517407 -0.223066 76 153 0
-0.229509 0.400484 -0.146067 76 153 0
0.132000 -0.597351 -0.238430 76 153 0
-0.080794 0.528788 -0.261356 76 153 0
-0.018554 0.084616 0.269324 76 153 0
-0.164901 -0.072004 -0.217353 76 153 0
0.240850 -0.525382 0.125455 76 153 0
0.110180 0.309908 0.246529 76 153 0
-0.072679 0.987275 -0.072888 76 0 153
0.020158 -0.803646 -0.254785 76 153 0
-0.178020 0.128498 -0.205816 76 153 0
-0.177610 -0.419144 0.206555 76 153 0
-0.031925 -0.803646 -0.128193 76 153 0
0.270524 0.475159 0.007384 76 153 0
-0.011843 -0.803646 -0.015440 76 153 0
-0.252518 -0.738938 -0.101725 76 153 0
0.081372 0.877093 0.039668 153 0 76
-0.006967 0.995766 -0.027799 76 0 153
-0.268174 -0.182266 0.042304 76 153 0
0.087645 -0.386820 0.257655 76 153 0
-0.149884 0.125398 0.225026 76 153 0
0.263115 -0.036257 -0.064851 76 153 0
0.256641 -0.396269 0.084523 76 153 0
0.063347 0.912292 -0.079871 76 0 153
-0.201752 -0.371938 0.180427 76 153 0
0.179704 -0.189585 0.201349 76 153 0
-0.086267 0.867095 -0.012948 153 0 76
-0.241624 -0.118518 0.122644 76 153 0
0.025008 -0.803646 -0.126110 76 153 0
0.050660 0.332013 -0.269337 76 153 0
0.212632 -0.099301 -0.169088 76 153 0
-0.039532 0.219941 -0.269623 76 153 0
0.251602 -0.689744 0.099433 76 153 0
0.218939 0.146673 -0.161917 76 153 0
0.213783 0.112794 -0.167779 76 153 0
0.266786 0.138090 0.054499 76 153 0
0.271014 0.169496 -0.000256 76 153 0
0.145939 0.262358 0.228833 76 153 0
0.160051 0.519349 0.218632 76 153 0
-0.252268 0.594039 -0.005296 153 0 76
0.186566 0.349425 -0.198728 76 153 0
-0.261737 0.052292 -0.074443 76 153 0
0.007414 -0.281093 0.270990 76 153 0
0.001988 -0.405995 -0.272459 76 153 0
0.005940 0.867095 0.079868 153 0 76
-0.270613 -0.304420 -0.023237 76 153 0
0.053544 -0.580620 0.264487 76 153 0
-0.162172 -0.248726 -0.219754 76 153 0
-0.127828 0.801090 -0.040545 153 0 76
-0.108691 -0.739472 0.248415 76 153 0
-0.047118 -0.367234 0.267491 76 153 0
0.258782 0.446285 -0.086480 76 153 0
-0.238022 0.513067 0.129923 76 153 0
0.175300 0.237950 -0.209583 76 153 0
0.157030 0.469565 0.221289 76 153 0
0.270585 -0.469022 0.006426 76 153 0
-0.007901 0.498764 0.270008 76 153 0
0.139008 0.767053 -0.063062 153 0 76
0.007359 -0.480141 -0.272115 76 153 0
0.251219 -0.802694 -0.103432 76 153 0
-0.232151 0.295782 -0.142100 76 153 0
-0.222252 -0.666745 0.157116 76 153 0
0.261984 -0.799006 -0.070499 76 153 0
-0.266043 -0.752755 0.052941 76 153 0
0.268803 -0.681495 0.034204 76 153 0
0.251387 0.394237 0.100071 76 153 0
-0.152564 0.685099 -0.129285 153 0 76
-0.218036 -0.721361 0.161910 76 153 0
0.074559 0.106415 -0.261756 76 153 0
0.246432 -0.070299 -0.113105 76 153 0
0.199037 0.679581 0.031444 153 0 76
0.264359 0.067228 0.061681 76 153 0
0.089769 0.890329 0.013838 76 0 153
-0.069776 -0.578126 0.261565 76 153 0
0.255018 -0.157456 0.089325 76 153 0
0.054027 -0.803646 -0.017891 76 153 0
-0.058411 -0.523312 0.265406 76 153 0
-0.111382 -0.485494 0.247506 76 153 0
0.254836 -0.430075 -0.096123 76 153 0
0.254279 -0.323819 0.091511 76 153 0
0.249812 0.253830 0.104732 76 153 0
0.139253 -0.205754 -0.233598 76 153 0
-0.233998 -0.047084 0.138055 76 153 0
-0.218232 0.650330 0.021378 153 0 76
-0.189430 -0.553571 0.194439 76 153 0
0.234490 -0.800015 -0.137237 76 153 0
-0.184061 0.258043 -0.200503 76 153 0
-0.001656 -0.803646 -0.234977 76 153 0
-0.026298 0.752270 -0.160185 153 0 76
-0.087029 0.138560 -0.260107 76 153 0
-0.008413 0.995766 -0.047625 76 0 153
0.031349 0.958955 -0.087298 76 0 153
-0.232608 -0.144093 0.140863 76 153 0
0.049223 0.127275 -0.269429 76 153 0
0.241324 -0.799074 0.124743 76 153 0
0.005106 0.988932 0.035701 76 0 153
-0.084018 0.957791 -0.046135 76 0 153
-0.061148 0.707958 0.176164 153 0 76
-0.007603 0.573096 0.262909 153 0 76
0.233051 0.608337 0.069415 153 0 76
0.257161 -0.295028 -0.091425 76 153 0
0.144043 -0.004561 0.229772 76 153 0
0.115713 0.827555 -0.023721 153 0 76
-0.105864 0.404716 -0.251278 76 153 0
-0.006606 0.741566 0.166321 153 0 76
0.180846 -0.781494 0.200345 76 153 0
-0.255487 -0.140333 -0.092937 76 153 0
-0.093946 0.880761 0.038132 153 0 76
-0.038939 0.595115 0.246497 153 0 76
-0.272802 0.166648 0.010889 76 153 0
0.204604 -0.492339 0.179451 76 153 0
0.270241 -0.092448 -0.029287 76 153 0
-0.271389 -0.777159 -0.011132 76 153 0
-0.022423 0.563861 0.267970 153 0 76
0.005436 0.069104 0.270863 76 153 0
0.034465 -0.803646 0.124043 76 153 0
-0.251207 -0.315553 0.103279 76 153 0
0.260702 -0.443415 -0.076899 76 153 0
0.108585 0.746137 0.123251 153 0 76
0.069449 -0.759638 -0.263483 76 153 0
-0.271432 -0.006596 -0.010461 76 153 0
-0.128574 -0.803646 -0.120061 76 153 0
-0.100589 0.856828 0.011444 153 0 76
0.085050 -0.170110 -0.258211 76 153 0
-0.150582 -0.288259 0.224561 76 153 0
-0.032819 -0.020424 -0.270968 76 153 0
0.127743 -0.076299 -0.241265 76 153 0
0.149982 0.648167 0.161066 153 0 76
0.268654 -0.557385 0.036535 76 153 0
0.206103 -0.327236 -0.176512 76 153 0
0.267434 0.189302 -0.043296 76 153 0
-0.040626 -0.204143 0.267908 76 153 0
0.136144 0.227739 -0.235669 76 153 0
-0.212603 0.033323 0.168088 76 153 0
0.271433 -0.791418 -0.006781 76 153 0
0.007799 0.700271 -0.192259 153 0 76
-0.177285 0.665109 0.112893 153 0 76
0.021354 0.847681 -0.104746 153 0 76
-0.212384 -0.458712 0.168337 76 153 0
0.026780 0.347422 -0.270869 76 153 0
-0.224171 -0.316829 0.154934 76 153 0
0.158427 -0.340765 -0.220824 76 153 0
0.141854 -0.676866 0.230855 76 153 0
-0.260240 -0.714339 -0.078872 76 153 0
-0.264497 0.362764 -0.066275 76 153 0
0.052887 0.757844 0.146928 153 0 76
-0.267013 -0.322779 0.048097 76 153 0
-0.190536 0.691191 -0.047268 153 0 76
-0.156046 -0.786817 -0.225140 76 153 0
-0.271134 0.116604 -0.015112 76 153 0
0.182244 0.692073 0.068998 153 0 76
-0.117024 -0.557237 -0.245756 76 153 0
-0.002367 -0.803646 -0.099932 76 153 0
-0.237420 -0.632316 0.131139 76 153 0
0.072920 0.639522 0.211560 153 0 76
-0.272169 -0.790956 0.022363 76 153 0
-0.142906 -0.803646 0.098662 76 153 0
-0.180719 0.263305 0.204345 76 153 0
-0.230239 -0.554792 0.145650 76 153 0
-0.245586 0.266998 0.114637 76 153 0
-0.214467 0.477180 0.165969 76 153 0
0.260524 -0.400304 -0.077787 76 153 0
-0.175712 -0.056072 0.207820 76 153 0
0.219334 0.263486 0.157752 76 153 0
0.028318 0.988932 0.004282 76 0 153
0.085914 0.663951 -0.193682 153 0 76
0.257445 0.228361 0.082143 76 153 0
0.171098 -0.803646 -0.002766 76 153 0
-0.038526 -0.340934 0.268043 76 153 0
-0.026381 -0.687615 0.268822 76 153 0
-0.202148 0.127338 0.179976 76 153 0
0.025885 0.003395 0.270028 76 153 0
0.107059 -0.385995 0.248074 76 153 0
-0.160700 -0.797651 0.217821 76 153 0
0.070980 -0.803646 -0.007114 76 153 0
-0.236979 -0.344574 -0.134854 76 153 0
-0.066329 0.732070 0.158260 153 0 76
-0.249608 0.389725 -0.110336 76 153 0
-0.058034 -0.803646 0.226752 76 153 0
-0.044998 -0.478449 0.267628 76 153 0
0.270166 0.359838 0.012960 76 153 0
0.214833 0.639573 0.069501 153 0 76
-0.054089 0.774458 0.137276 153 0 76
-0.226605 -0.803646 0.107120 76 153 0
0.271634 -0.326663 -0.009917 76 153 0
-0.269309 -0.143668 -0.043555 76 153 0
0.223248 -0.699964 0.151877 76 153 0
0.105747 -0.803646 0.248280 76 153 0
0.085665 0.224619 -0.258003 76 153 0
-0.136954 -0.445593 0.233640 76 153 0
0.258874 0.491223 0.077913 76 153 0
0.186694 0.707075 0.005502 153 0 76
0.249336 0.495379 0.106140 76 153 0
0.030742 -0.149926 -0.270614 76 153 0
-0.153387 0.675606 0.136634 153 0 76
0.171683 -0.131204 0.208403 76 153 0
0.203020 -0.803646 0.145713 76 153 0
0.240307 0.476401 -0.125483 76 153 0
0.254437 -0.498046 -0.096930 76 153 0
0.245864 0.174851 0.116414 76 153 0
0.211296 0.187485 0.169818 76 153 0
-0.240269 0.055451 0.125383 76 153 0
-0.122867 -0.233022 0.243024 76 153 0
0.271556 -0.528223 -0.022723 76 153 0
-0.111977 -0.044346 0.247305 76 153 0
-0.139343 0.608376 -0.200222 153 0 76
0.209524 0.599263 -0.133088 153 0 76
-0.128040 -0.803646 0.169570 76 153 0
0.107681 -0.208404 0.247766 76 153 0
-0.187558 0.701744 0.037065 153 0 76
0.249396 -0.411949 -0.107117 76 153 0
-0.113645 0.817165 0.049390 153 0 76
-0.192481 -0.624401 -0.193099 76 153 0
-0.028178 0.697554 0.188932 153 0 76
0.268324 0.493315 0.041677 76 153 0
0.266246 -0.328516 -0.049228 76 153 0
-0.268383 -0.296782 -0.054775 76 153 0
0.137790 0.635494 -0.182023 153 0 76
0.268570 -0.302327 0.037846 76 153 0
-0.271184 -0.444840 -0.014336 76 153 0
-0.121694 0.738213 0.116806 153 0 76
-0.179287 -0.002307 0.205438 76 153 0
0.147457 -0.102730 0.228082 76 153 0
0.215624 0.052308 0.163321 76 153 0
0.198091 -0.753376 -0.185623 76 153 0
0.115458 -0.803646 -0.027161 76 153 0
-0.219101 0.264428 -0.161691 76 153 0
-0.250216 -0.462680 -0.108536 76 153 0
0.014811 -0.514338 -0.271636 76 153 0
-0.118059 -0.115701 -0.245244 76 153 0
-0.220421 0.532349 -0.159709 76 153 0
-0.048089 -0.335479 -0.267908 76 153 0
0.269675 0.236351 0.020620 76 153 0
-0.094378 -0.803646 -0.008873 76 153 0
-0.122355 -0.349463 -0.243118 76 153 0
-0.245087 0.243582 0.115646 76 153 0
-0.024192 0.812080 0.122987 153 0 76
0.097335 0.848408 -0.041177 153 0 76
0.268690 0.418073 0.035967 76 153 0
0.017522 -0.803646 0.255642 76 153 0
-0.047788 0.348004 -0.267969 76 153 0
0.069334 -0.803646 -0.239841 76 153 0
0.270752 -0.441437 0.003827 76 153 0
-0.185297 0.356800 -0.199417 76 153 0
-0.187968 -0.428317 0.196102 76 153 0
0.125547 -0.645817 -0.242728 76 153 0
-0.009628 0.871602 0.093807 153 0 76
-0.027700 0.839521 0.106304 153 0 76
-0.034107 -0.803646 0.109911 76 153 0
0.028929 -0.444174 0.269419 76 153 0
0.220892 -0.803646 -0.158371 76 153 0
0.007197 0.750151 -0.163641 153 0 76
0.136374 0.441301 -0.235516 76 153 0
0.268698 0.529960 0.035852 76 153 0
-0.223634 -0.029897 -0.154885 76 153 0
0.096540 -0.803646 0.175561 76 153 0
0.019009 -0.803646 0.048431 76 153 0
0.128030 -0.628692 -0.241074 76 153 0
-0.180593 0.212598 0.204488 76 153 0
0.116064 -0.171258 0.243617 76 153 0
0.051748 0.867095 -0.041992 153 0 76
0.124608 -0.803646 0.069485 76 153 0
-0.261512 0.194583 0.075554 76 153 0
0.180967 0.204943 -0.205095 76 153 0
-0.235730 -0.430906 -0.136729 76 153 0
-0.201508 -0.803646 0.045786 76 153 0
-0.105202 -0.202163 -0.251606 76 153 0
-0.235775 0.221226 0.134464 76 153 0
-0.171569 -0.462968 0.210580 76 153 0
0.158884 0.013376 -0.220520 76 153 0
-0.211795 0.086896 -0.172657 76 153 0
0.067857 0.171165 0.261620 76 153 0
-0.270577 -0.562380 0.030309 76 153 0
0.266337 0.495313 -0.048773 76 153 0
0.257161 -0.636183 0.082984 76 153 0
-0.264015 0.398923 0.063060 76 153 0
0.011701 0.423611 0.271265 76 153 0
0.201031 -0.249671 -0.182279 76 153 0
0.064931 0.618153 -0.229884 153 0 76
0.268620 0.559662 0.037064 153 0 76
0.270198 0.221073 -0.029501 76 153 0
-0.038522 0.574786 -0.261053 153 0 76
0.129032 -0.803646 0.189361 76 153 0
0.271699 0.484078 -0.010931 76 153 0
0.237509 -0.129561 0.130470 76 153 0
-0.209585 0.332194 0.171520 76 153 0
0.269304 -0.090234 0.026407 76 153 0
0.098929 -0.803646 -0.052456 76 153 0
0.187568 0.416105 -0.197589 76 153 0
-0.063252 0.282991 0.263770 76 153 0
-0.232269 0.623649 0.040040 153 0 76
0.155989 0.648482 -0.156244 153 0 76
-0.196831 -0.803646 -0.010003 76 153 0
0.205474 -0.776592 -0.177228 76 153 0
-0.200186 -0.753003 -0.186323 76 153 0
0.258027 0.405370 -0.089674 76 153 0
-0.265775 -0.503523 0.054275 76 153 0
-0.073817 -0.557072 0.260200 76 153 0
0.089094 0.445944 -0.256845 76 153 0
0.249308 -0.798531 0.106221 76 153 0
-0.070499 0.097144 -0.263419 76 153 0
-0.035305 0.633501 -0.227628 153 0 76
0.122603 0.533572 -0.244690 76 153 0
0.113764 -0.709050 0.244755 76 153 0
0.265943 0.471821 -0.050738 76 153 0
0.272060 -0.627086 -0.020203 76 153 0
-0.200657 0.495475 -0.185909 76 153 0
0.242680 0.313413 0.122707 76 153 0
0.259051 -0.776126 -0.085137 76 153 0
-0.035202 -0.012083 0.268256 76 153 0
-0.137553 -0.381116 -0.235597 76 153 0
0.268844 0.002523 0.033571 76 153 0
0.092259 -0.004000 0.255397 76 153 0
-0.048921 -0.109766 0.267376 76 153 0
-0.271935 -0.678443 -0.002617 76 153 0
-0.260075 -0.741418 0.082727 76 153 0
-0.122851 -0.558110 0.243035 76 153 0
0.012332 0.531656 -0.271795 76 153 0
-0.106806 0.204967 -0.250813 76 153 0
0.258325 -0.347973 -0.088764 76 153 0
-0.032309 0.318227 0.268442 76 153 0
-0.255124 0.206786 -0.094011 76 153 0
0.153999 0.756737 -0.037372 153 0 76
-0.203000 -0.272233 0.179008 76 153 0
-0.150452 -0.086956 -0.229214 76 153 0
0.157679 -0.660575 -0.221322 76 153 0
0.237868 0.402026 -0.130411 76 153 0
0.266179 -0.487289 0.056296 76 153 0
0.070694 -0.688888 0.261051 76 153 0
-0.236982 -0.771009 0.132025 76 153 0
-0.268977 0.212392 -0.048730 76 153 0
0.158736 0.620308 0.175248 153 0 76
0.268550 0.187971 0.038159 76 153 0
0.236647 0.543088 -0.132878 76 153 0
-0.117320 0.222794 0.245499 76 153 0
-0.087848 0.937815 0.026020 76 0 153
-0.265311 -0.317987 -0.063866 76 153 0
0.038954 -0.803646 -0.186340 76 153 0
0.037981 0.311014 -0.270150 76 153 0
-0.265889 -0.428233 -0.062154 76 153 0
0.228980 0.118646 -0.148372 76 153 0
-0.047383 -0.198842 -0.268050 76 153 0
0.091277 0.872339 0.000806 153 0 76
0.005018 0.995766 0.066506 76 0 153
0.049168 -0.803646 -0.153536 76 153 0
-0.019739 0.988932 0.002172 76 0 153
-0.247655 0.418603 -0.116115 76 153 0
0.202292 -0.672417 -0.180846 76 153 0
0.094538 -0.803646 0.118461 76 153 0
-0.144386 -0.234442 -0.232215 76 153 0
0.259973 -0.210042 -0.080535 76 153 0
-0.024813 -0.037202 0.268923 76 153 0
0.086170 0.813439 -0.092033 153 0 76
-0.137108 0.016884 0.233537 76 153 0
0.200348 0.610965 0.135780 153 0 76
0.237779 0.280629 0.130065 76 153 0
0.188567 0.327915 -0.196452 76 153 0
0.150585 -0.803646 -0.036308 76 153 0
-0.094045 0.672274 0.182726 153 0 76
0.188868 -0.551197 -0.196111 76 153 0
-0.135712 -0.319589 0.234467 76 153 0
0.123421 -0.007435 0.239976 76 153 0
-0.252120 -0.716094 0.101433 76 153 0
-0.017228 0.713124 -0.183220 153 0 76
-0.230973 0.138240 0.144168 76 153 0
0.110239 -0.004745 -0.249699 76 153 0
0.050417 -0.514500 -0.269352 76 153 0
-0.203731 0.628484 0.111038 153 0 76
-0.058981 0.893169 0.069238 76 0 153
-0.010660 -0.537844 -0.273271 76 153 0
-0.133311 0.563586 0.232658 76 153 0
-0.271130 0.136705 -0.015166 76 153 0
-0.030858 0.296330 -0.271361 76 153 0
0.044248 -0.057994 -0.269748 76 153 0
0.019215 -0.074700 -0.271354 76 153 0
0.234429 0.051299 -0.137360 76 153 0
0.195445 0.599236 0.151571 153 0 76
-0.227114 -0.774680 -0.149662 76 153 0
-0.113419 -0.659537 0.246818 76 153 0
-0.024340 -0.575467 0.268953 76 153 0
0.230236 -0.101595 0.141387 76 153 0
0.033759 0.704114 -0.185951 153 0 76
0.056909 0.211949 -0.267720 76 153 0
-0.273097 0.493708 0.017732 76 153 0
-0.005708 -0.011201 0.270148 76 153 0
-0.234803 -0.674313 0.136427 76 153 0
-0.214185 0.163944 0.166289 76 153 0
0.246356 -0.803646 0.041257 76 153 0
-0.268880 -0.498923 -0.050242 76 153 0
-0.095027 -0.145328 -0.256641 76 153 0
0.061261 0.346498 -0.266250 76 153 0
-0.058321 -0.649922 0.265436 76 153 0
0.270544 -0.075467 -0.027774 76 153 0
0.269606 0.079642 0.021688 76 153 0
-0.096183 -0.760857 0.252642 76 153 0
0.082634 -0.803646 -0.084210 76 153 0
0.220698 -0.644788 -0.159916 76 153 0
-0.074880 0.581216 -0.248571 153 0 76
0.170660 0.172013 -0.212675 76 153 0
-0.262649 -0.633941 0.069877 76 153 0
-0.253950 -0.557570 -0.097487 76 153 0
-0.270604 0.193671 -0.023376 76 153 0
-0.270436 -0.098780 0.031010 76 153 0
-0.033830 0.326859 -0.270765 76 153 0
-0.244506 -0.489239 -0.123556 76 153 0
0.079387 0.878685 -0.064531 153 0 76
-0.036565 -0.439945 -0.270217 76 153 0
-0.189502 0.146546 -0.195719 76 153 0
0.180265 -0.456220 -0.205893 76 153 0
0.235680 -0.746234 -0.134833 76 153 0
-0.088100 0.260150 -0.259892 76 153 0
0.177788 0.431054 -0.207926 76 153 0
0.104297 0.575556 0.239494 153 0 76
-0.265645 -0.244107 0.054923 76 153 0
0.175562 -0.384406 0.204991 76 153 0
0.192867 -0.125103 -0.191563 76 153 0
0.191079 -0.402860 -0.193597 76 153 0
0.190214 -0.022310 0.192106 76 153 0
0.260041 0.474818 -0.080194 76 153 0
-0.089787 -0.118861 0.254803 76 153 0
-0.126471 0.106230 -0.241081 76 153 0
0.269899 -0.677558 0.017133 76 153 0
-0.166540 -0.382967 0.213930 76 153 0
0.261256 -0.686644 -0.074133 76 153 0
-0.162570 -0.438937 0.216575 76 153 0
0.213592 0.168594 0.166371 76 153 0
0.147715 0.379229 0.227954 76 153 0
-0.174863 -0.658055 0.208385 76 153 0
-0.056306 -0.803646 -0.192285 76 153 0
-0.174694 -0.671853 -0.208741 76 153 0
0.187391 0.062395 0.194589 76 153 0
-0.179943 0.565875 0.196741 76 153 0
-0.223172 0.600733 -0.108206 153 0 76
-0.068174 -0.190804 -0.263884 76 153 0
0.076335 0.052659 -0.261156 76 153 0
0.189967 -0.803646 0.020025 76 153 0
0.026708 0.816113 -0.122083 153 0 76
-0.271823 0.080279 0.024089 76 153 0
-0.269935 -0.023331 -0.033791 76 153 0
0.121694 -0.704641 -0.245295 76 153 0
0.250716 -0.245887 0.102058 76 153 0
0.194174 -0.022588 -0.190077 76 153 0
-0.128942 0.807748 0.007946 153 0 76
-0.273171 -0.529518 0.017359 76 153 0
-0.141052 0.737859 -0.096634 153 0 76
0.229468 0.141829 -0.147386 76 153 0
-0.087485 -0.803646 -0.172854 76 153 0
-0.270403 0.504392 -0.026499 76 153 0
0.243962 -0.720969 -0.118096 76 153 0
-0.100466 -0.300780 -0.253950 76 153 0
0.254748 -0.652451 0.090125 76 153 0
0.116480 0.786921 0.078886 153 0 76
-0.136521 0.259891 -0.236108 76 153 0
0.154939 0.682724 -0.128837 153 0 76
-0.257976 -0.052231 -0.085573 76 153 0
-0.163426 0.140120 -0.218650 76 153 0
-0.054978 -0.272878 0.266566 76 153 0
0.019156 0.479767 -0.271358 76 153 0
0.015292 0.156160 0.271496 76 153 0
-0.020733 0.335354 0.269184 76 153 0
0.189649 -0.244058 0.192604 76 153 0
0.192560 -0.583263 0.190043 76 153 0
0.154921 -0.199469 0.223144 76 153 0
0.017712 0.464583 0.271651 76 153 0
0.120249 0.816295 0.027021 153 0 76
-0.180291 0.684184 0.088821 153 0 76
0.225209 -0.250380 -0.154787 76 153 0
-0.113865 -0.399486 0.246667 76 153 0
0.095232 -0.786721 -0.254771 76 153 0
-0.023378 -0.385913 -0.272859 76 153 0
0.249527 -0.530612 -0.106851 76 153 0
-0.199750 0.032046 -0.186706 76 153 0
0.084358 0.467592 0.258314 76 153 0
0.116595 -0.053890 0.243354 76 153 0
0.104376 -0.803646 -0.237691 76 153 0
0.204008 0.646846 -0.085355 153 0 76
0.148254 0.066890 -0.227601 76 153 0
0.106337 -0.803646 -0.008384 76 153 0
0.005394 -0.424632 0.270861 76 153 0
-0.132075 0.153806 0.236891 76 153 0
-0.264230 -0.667420 0.061986 76 153 0
-0.206513 -0.803646 -0.155410 76 153 0
-0.244408 0.090725 0.117019 76 153 0
-0.272343 0.016048 0.003735 76 153 0
0.144946 0.227675 0.229325 76 153 0
0.072538 -0.065518 -0.262439 76 153 0
0.220620 -0.532911 -0.160005 76 153 0
0.236594 0.119413 0.131843 76 153 0
-0.268646 0.480150 -0.053887 76 153 0
-0.130228 0.294074 -0.239222 76 153 0
-0.136196 -0.528582 -0.236268 76 153 0
-0.064286 0.949920 0.064599 76 0 153
0.107011 -0.291329 0.248097 76 153 0
-0.012420 0.253302 0.269718 76 153 0
0.039428 0.734561 -0.167090 153 0 76
0.136000 0.676452 0.152492 153 0 76
-0.119772 0.797709 0.062554 153 0 76
0.265325 -0.051715 0.058822 76 153 0
-0.007456 0.369429 0.270036 76 153 0
-0.269233 -0.375513 -0.044737 76 153 0
-0.069358 -0.803646 -0.247800 76 153 0
-0.187541 0.293209 0.196587 76 153 0
-0.209904 -0.141581 0.171157 76 153 0
0.007366 0.143186 -0.272114 76 153 0
0.263468 -0.594814 -0.063093 76 153 0
-0.169183 0.653958 -0.137324 153 0 76
0.246086 0.569238 -0.099416 153 0 76
0.158668 -0.142811 0.219849 76 153 0
-0.128930 0.769572 0.077780 153 0 76
-0.253496 -0.151188 0.098654 76 153 0
0.201313 0.633637 0.105934 153 0 76
0.270869 -0.784069 -0.026148 76 153 0
0.192851 -0.747401 0.189787 76 153 0
0.014615 0.791658 0.136202 153 0 76
0.219263 0.550149 0.157859 76 153 0
0.061116 0.145998 0.262970 76 153 0
0.272179 0.036717 -0.018409 76 153 0
0.260066 -0.788243 0.074387 76 153 0
-0.000115 0.812942 0.124993 153 0 76
0.100028 -0.458534 -0.253150 76 153 0
0.259702 -0.110732 0.075464 76 153 0
-0.196593 -0.299663 0.186293 76 153 0
-0.162297 -0.542073 -0.219643 76 153 0
-0.239491 0.574556 -0.108928 153 0 76
-0.029780 -0.135058 0.268604 76 153 0
-0.174984 0.667259 -0.119141 153 0 76
0.138611 -0.803646 0.043426 76 153 0
0.201292 0.091822 0.182364 76 153 0
0.084353 0.835692 0.073271 153 0 76
0.014220 0.903789 -0.091360 76 0 153
-0.146929 0.059149 0.226995 76 153 0
0.029339 -0.441622 -0.270704 76 153 0
-0.101430 -0.803646 0.188514 76 153 0
-0.272233 -0.192312 0.022045 76 153 0
-0.055833 -0.669362 0.266277 76 153 0
-0.082803 0.944876 0.059181 76 0 153
0.009866 0.310605 0.271147 76 153 0
-0.060815 -0.430215 0.264593 76 153 0
-0.091523 0.956460 0.007856 76 0 153
0.230531 -0.126507 -0.145238 76 153 0
0.218981 -0.169070 0.158282 76 153 0
0.262630 -0.007504 -0.067274 76 153 0
0.268596 0.033297 0.037441 76 153 0
0.270347 -0.355310 -0.028755 76 153 0
0.194299 0.419306 0.188514 76 153 0
0.265817 -0.294516 -0.051368 76 153 0
-0.273140 -0.263230 0.017516 76 153 0
0.221959 0.618157 0.083988 153 0 76
-0.210191 -0.276971 -0.175065 76 153 0
-0.010796 0.239088 -0.273279 76 153 0
-0.005464 0.927195 -0.102386 76 0 153
-0.139237 -0.803646 -0.087706 76 153 0
0.100987 0.959036 -0.003207 76 0 153
-0.175896 0.529463 0.207698 76 153 0
-0.112539 0.424250 0.247115 76 153 0
0.249650 -0.282455 0.105210 76 153 0
-0.110036 0.347177 0.247961 76 153 0
0.248778 0.079495 0.107791 76 153 0
-0.025819 0.988932 -0.062023 76 0 153
-0.266488 -0.697555 0.050716 76 153 0
0.019565 0.623732 -0.235591 153 0 76
-0.203955 -0.414930 0.177922 76 153 0
0.267910 0.221555 0.048129 76 153 0
-0.179213 0.292446 -0.204767 76 153 0
0.065788 0.961164 -0.069111 76 0 153
-0.211840 -0.636578 -0.172590 76 153 0
-0.267282 0.020471 0.046753 76 153 0
-0.265466 -0.068662 0.055820 76 153 0
0.237459 -0.660333 -0.131238 76 153 0
0.046165 0.362892 0.265965 76 153 0
0.011732 0.957215 0.089751 76 0 153
-0.076872 -0.803646 -0.230003 76 153 0
0.214647 -0.502966 -0.166797 76 153 0
-0.178248 0.275608 -0.205616 76 153 0
0.111944 0.800986 0.070889 153 0 76
0.131121 -0.803646 0.110577 76 153 0
0.185840 -0.154412 0.195953 76 153 0
0.233241 0.094494 -0.139762 76 153 0
0.231390 0.299788 0.139655 76 153 0
0.043251 -0.414981 0.266549 76 153 0
0.243418 0.002321 -0.119197 76 153 0
0.142787 -0.543620 -0.231243 76 153 0
-0.043056 0.187352 0.267752 76 153 0
-0.104028 -0.204759 0.249991 76 153 0
0.132181 -0.235935 -0.238309 76 153 0
-0.269934 0.313089 -0.033812 76 153 0
0.153890 0.713518 0.098901 153 0 76
0.044721 0.241757 -0.269718 76 153 0
0.154214 0.727842 -0.083592 153 0 76
-0.242178 -0.510896 0.121524 76 153 0
0.205105 0.172036 -0.177647 76 153 0
0.271037 -0.504317 -0.000610 76 153 0
0.156886 0.591628 0.197207 153 0 76
-0.001436 -0.803646 -0.144546 76 153 0
-0.042698 0.886621 0.083870 153 0 76
0.068053 0.438283 0.261580 76 153 0
0.125825 -0.493222 -0.242543 76 153 0
-0.271115 -0.227055 -0.015406 76 153 0
-0.009717 -0.314848 0.269891 76 153 0
-0.236561 -0.601560 -0.135481 76 153 0
-0.269724 0.021793 -0.037087 76 153 0
0.137165 -0.636601 0.233175 76 153 0
-0.114644 -0.803646 -0.141256 76 153 0
0.188633 -0.617559 0.193497 76 153 0
0.050843 -0.803646 0.148809 76 153 0
0.056747 -0.148225 -0.267775 76 153 0
0.165442 0.602051 -0.183237 153 0 76
-0.195102 -0.088550 0.187989 76 153 0
-0.260355 -0.327378 0.081331 76 153 0
-0.268046 0.516716 -0.055772 76 153 0
0.250115 -0.016189 -0.105663 76 153 0
0.229249 0.419960 0.142868 76 153 0
0.097113 -0.311874 -0.254135 76 153 0
-0.207604 -0.259599 -0.178948 76 153 0
-0.157322 -0.803646 -0.204846 76 153 0
-0.221971 -0.471360 -0.157382 76 153 0
-0.252523 -0.426058 0.100620 76 153 0
-0.240757 -0.799519 -0.129182 76 153 0
-0.262567 0.259485 -0.071985 76 153 0
-0.067667 0.324345 -0.263986 76 153 0
0.243002 0.505411 0.122224 76 153 0
0.033299 -0.017260 -0.270450 76 153 0
-0.246304 -0.704012 -0.120113 76 153 0
-0.254819 -0.123987 0.095980 76 153 0
0.187662 0.395021 0.194351 76 153 0
0.075987 0.985542 0.065829 76 0 153
0.223847 0.349200 0.150977 76 153 0
0.240615 0.612116 -0.001736 153 0 76
-0.225147 0.232054 -0.152614 76 153 0
-0.201023 -0.388205 -0.185586 76 153 0
-0.094704 0.883240 -0.013525 153 0 76
-0.022942 -0.653220 0.269043 76 153 0
-0.080834 0.698266 -0.175845 153 0 76
0.188067 0.700112 -0.033599 153 0 76
-0.259939 0.222437 -0.079762 76 153 0
-0.064305 -0.802217 0.263414 76 153 0
-0.203155 -0.717789 -0.183712 76 153 0
-0.088707 0.588659 0.238608 153 0 76
0.027296 -0.803646 0.166308 76 153 0
-0.083489 0.139803 0.256931 76 153 0
-0.270503 -0.476897 -0.024947 76 153 0
0.051934 0.288149 -0.269255 76 153 0
0.194793 0.673495 -0.065176 153 0 76
-0.100745 -0.109332 -0.253812 76 153 0
0.268082 -0.623222 0.045441 76 153 0
-0.059556 0.618157 -0.231485 153 0 76
0.247204 -0.213232 -0.111546 76 153 0
-0.197729 -0.045060 0.185001 76 153 0
0.036342 0.974572 0.082976 76 0 153
-0.267691 -0.219864 0.044712 76 153 0
-0.121283 0.637230 0.191661 153 0 76
0.085974 -0.195319 -0.257899 76 153 0
-0.174884 -0.803646 -0.121943 76 153 0
-0.190652 0.185283 0.193049 76 153 0
0.080284 0.910405 0.041883 76 0 153
-0.026600 -0.803646 0.043093 76 153 0
0.078911 0.491740 -0.260286 76 153 0
0.163862 0.054379 0.215281 76 153 0
0.160617 -0.570951 -0.219365 76 153 0
-0.266489 0.057411 0.050712 76 153 0
-0.075720 0.667070 -0.196431 153 0 76
0.115791 -0.654945 0.243752 76 153 0
-0.113497 0.800908 -0.071934 153 0 76
0.181812 -0.043656 -0.204133 76 153 0
0.174276 0.519788 0.206122 76 153 0
-0.244951 0.335778 0.115922 76 153 0
0.222950 -0.402126 0.152324 76 153 0
0.225895 0.059298 -0.154007 76 153 0
0.124430 0.381228 -0.243473 76 153 0
-0.137249 0.117960 0.233444 76 153 0
-0.034972 0.855022 0.095356 153 0 76
-0.272710 -0.645038 0.009451 76 153 0
-0.007174 -0.189144 0.270054 76 153 0
-0.155140 -0.694205 -0.225937 76 153 0
-0.016082 -0.368432 0.269483 76 153 0
-0.101179 0.872497 0.017063 153 0 76
0.046025 -0.803646 0.236901 76 153 0
0.048801 0.960448 0.088275 76 0 153
0.065574 0.920100 0.062286 76 0 153
-0.101842 -0.803646 -0.068110 76 153 0
0.011683 0.767423 -0.153421 153 0 76
0.044113 0.689395 0.191261 153 0 76
0.154389 0.156095 -0.223514 76 153 0
0.266976 0.279014 0.053939 76 153 0
0.254907 0.187582 0.089652 76 153 0
-0.170770 -0.803646 -0.080750 76 153 0
-0.221042 -0.511122 0.158492 76 153 0
-0.219007 0.110931 0.160806 76 153 0
0.223518 -0.526372 0.151471 76 153 0
0.241414 -0.057488 -0.123246 76 153 0
0.125604 0.756538 0.094836 153 0 76
0.116543 -0.207475 -0.247569 76 153 0
0.206066 0.312582 0.177668 76 153 0
-0.138358 -0.060541 -0.235198 76 153 0
-0.008800 -0.570428 -0.273151 76 153 0
0.087383 0.378265 0.257708 76 153 0
-0.134859 0.355314 -0.236930 76 153 0
-0.259250 -0.325163 -0.081803 76 153 0
0.001086 0.867095 0.005073 153 0 76
-0.044576 -0.695398 -0.268612 76 153 0
-0.087448 -0.491777 -0.260023 76 153 0
-0.170204 0.078119 0.211489 76 153 0
0.158120 0.030906 -0.221029 76 153 0
0.092358 0.522408 -0.255742 76 153 0
0.244847 -0.730059 0.119424 76 153 0
0.265947 -0.104830 0.056982 76 153 0
-0.111896 -0.477835 -0.248294 76 153 0
0.099466 0.720234 -0.151172 153 0 76
-0.263996 0.432401 0.063155 76 153 0
0.105940 0.507315 -0.251152 76 153 0
0.150750 0.507661 -0.225938 76 153 0
-0.220232 0.490812 -0.159993 76 153 0
-0.222866 -0.121259 -0.156039 76 153 0
-0.009935 0.944354 0.090263 76 0 153
0.028171 0.434817 0.269570 76 153 0
-0.158112 -0.473312 -0.223324 76 153 0
-0.092152 0.876878 -0.045077 153 0 76
0.131550 -0.024824 0.235954 76 153 0
0.265520 0.150484 -0.052848 76 153 0
0.057465 -0.038208 -0.267533 76 153 0
-0.028984 0.140337 0.268655 76 153 0
-0.268656 0.079264 -0.053740 76 153 0
0.000691 0.733918 -0.172506 153 0 76
-0.246341 0.594773 0.054146 153 0 76
0.075482 0.729972 0.156057 153 0 76
-0.219048 0.415681 0.160760 76 153 0
0.047631 0.803667 0.121045 153 0 76
0.256897 -0.735018 -0.091959 76 153 0
-0.042542 0.263550 0.267785 76 153 0
-0.262631 -0.762679 -0.071797 76 153 0
-0.264608 -0.717714 0.060101 76 153 0
-0.085331 0.287772 0.256309 76 153 0
-0.008901 -0.595553 -0.273158 76 153 0
-0.049529 0.331226 -0.267620 76 153 0
0.219452 -0.267037 -0.161333 76 153 0
-0.209033 -0.803646 0.146539 76 153 0
0.042175 0.224238 -0.269881 76 153 0
-0.230973 0.555196 -0.143869 76 153 0
0.264324 0.006629 -0.058820 76 153 0
0.183021 0.670880 0.094887 153 0 76
0.219420 0.624431 -0.079859 153 0 76
-0.144522 -0.237546 0.228598 76 153 0
0.212934 0.361382 0.167359 76 153 0
-0.260468 0.494890 0.080765 76 153 0
-0.232083 -0.492622 0.141925 76 153 0
-0.270253 0.056482 -0.028843 76 153 0
0.254862 0.585881 0.025229 153 0 76
0.127536 -0.803646 0.167573 76 153 0
-0.054969 0.870710 0.072746 153 0 76
-0.154982 0.502432 0.221630 76 153 0
0.157480 -0.173863 0.220894 76 153 0
-0.022886 0.008383 0.269046 76 153 0
-0.204926 -0.021101 0.176818 76 153 0
0.001102 0.466619 -0.272516 76 153 0
0.190991 -0.550236 0.191423 76 153 0
0.040518 -0.699278 -0.269987 76 153 0
0.137203 0.685494 -0.144566 153 0 76
0.201459 -0.523395 0.182217 76 153 0
0.156474 -0.539064 -0.222125 76 153 0
-0.019375 0.620070 0.235820 153 0 76
0.226940 -0.419350 -0.152493 76 153 0
0.169758 -0.803646 -0.140469 76 153 0
0.072210 -0.803646 0.058086 76 153 0
0.000403 -0.659971 0.270540 76 153 0
-0.071375 -0.190432 0.261025 76 153 0
0.090911 0.883948 -0.026920 153 0 76
0.271733 0.501163 -0.011454 76 153 0
0.220017 0.174543 -0.160690 76 153 0
0.216891 -0.045914 0.161419 76 153 0
-0.139153 0.091559 -0.234805 76 153 0
0.211800 0.203956 0.169061 76 153 0
0.027150 0.356145 0.269775 76 153 0
-0.208436 0.176768 -0.177699 76 153 0
0.115952 0.598649 0.219809 153 0 76
-0.213810 -0.535768 0.166716 76 153 0
0.183900 -0.803646 -0.016193 76 153 0
-0.182702 -0.721367 -0.201698 76 153 0
0.228289 0.218750 0.144309 76 153 0
-0.057342 0.122949 -0.266054 76 153 0
0.246792 0.284232 -0.112378 76 153 0
-0.251346 0.194662 0.102997 76 153 0
0.248061 0.315622 -0.109814 76 153 0
-0.069947 0.212471 0.261508 76 153 0
-0.013096 -0.803646 0.230680 76 153 0
0.253988 0.427324 0.092373 76 153 0
-0.046016 0.735078 0.163545 153 0 76
-0.143949 -0.803646 -0.110434 76 153 0
-0.219137 0.055302 -0.161636 76 153 0
0.137979 -0.292118 0.232772 76 153 0
0.157732 0.346825 0.220672 76 153 0
0.256328 -0.055966 -0.093108 76 153 0
-0.037449 -0.276028 -0.270040 76 153 0
0.079286 0.892863 0.043913 76 0 153
0.050367 -0.087716 -0.269355 76 153 0
0.096773 0.614351 -0.219938 153 0 76
-0.269028 -0.337450 0.038042 76 153 0
-0.223810 -0.301019 -0.154621 76 153 0
-0.257940 0.390930 0.089673 76 153 0
0.096728 -0.084539 0.253186 76 153 0
-0.040673 0.100055 -0.269394 76 153 0
0.217880 0.021090 -0.163120 76 153 0
-0.141558 0.279707 0.230573 76 153 0
0.163882 0.321202 0.215263 76 153 0
0.269728 -0.558139 0.019793 76 153 0
0.249059 -0.099189 0.106960 76 153 0
-0.064742 0.587515 0.245830 153 0 76
-0.154271 -0.179973 0.222104 76 153 0
0.248124 0.208459 0.109728 76 153 0
0.253900 0.578546 0.051745 153 0 76
-0.067823 -0.005939 -0.263955 76 153 0
0.249359 0.370132 -0.107191 76 153 0
0.009981 -0.477409 0.271155 76 153 0
-0.003601 0.339913 -0.272818 76 153 0
0.262825 -0.627800 -0.066299 76 153 0
-0.161046 -0.324343 0.217590 76 153 0
0.195603 -0.643868 0.187367 76 153 0
0.139411 -0.803646 -0.123496 76 153 0
-0.099486 0.236747 -0.254435 76 153 0
-0.209759 0.668468 -0.007286 153 0 76
-0.224870 -0.734214 -0.153030 76 153 0
-0.157229 -0.803646 0.126108 76 153 0
0.089660 0.228718 0.256683 76 153 0
-0.245892 -0.418577 0.114019 76 153 0
0.027751 0.787102 -0.138781 153 0 76
-0.135817 0.531188 0.234397 76 153 0
0.162075 -0.363975 -0.218394 76 153 0
0.217317 0.446738 -0.163760 76 153 0
0.268302 -0.399071 0.042016 76 153 0
-0.115245 -0.803646 -0.182843 76 153 0
0.197080 0.527409 -0.186773 76 153 0
-0.272770 -0.045514 0.010383 76 153 0
-0.049604 -0.803646 -0.001407 76 153 0
-0.169372 -0.264401 0.212044 76 153 0
0.258945 -0.528604 -0.085666 76 153 0
0.268549 -0.042667 0.038164 76 153 0
-0.138591 0.631508 -0.184807 153 0 76
-0.093600 0.491680 0.253515 76 153 0
-0.258413 -0.646048 -0.084278 76 153 0
-0.061917 0.995766 -0.016579 76 0 153
0.122883 -0.407405 -0.244503 76 153 0
-0.101853 0.788521 0.095953 153 0 76
-0.176013 -0.746420 0.207619 76 153 0
-0.092802 -0.168518 -0.257742 76 153 0
0.189502 0.012081 -0.195390 76 153 0
0.152473 -0.253866 -0.224791 76 153 0
0.158243 -0.803646 0.135444 76 153 0
0.107371 0.771951 0.102300 153 0 76
-0.218217 -0.803646 -0.102253 76 153 0
0.165554 0.560355 0.213792 76 153 0
-0.090046 0.954838 -0.019475 76 0 153
0.107320 0.535192 0.247944 76 153 0
-0.149809 0.763750 0.037944 153 0 76
0.237752 0.340304 -0.130645 76 153 0
0.099864 0.075870 -0.253205 76 153 0
-0.243063 0.261396 -0.125721 76 153 0
-0.225250 0.363309 -0.152459 76 153 0
0.248794 0.044359 -0.108332 76 153 0
0.241976 0.087594 0.123765 76 153 0
0.078869 -0.803646 0.043014 76 153 0
0.213041 0.432317 0.167198 76 153 0
0.269439 -0.493965 0.024294 76 153 0
0.010054 -0.559087 -0.271942 76 153 0
-0.271274 -0.052151 0.026831 76 153 0
-0.090935 0.795252 -0.104065 153 0 76
-0.038925 0.571503 0.260258 153 0 76
0.181111 -0.096562 0.200111 76 153 0
0.156718 0.748017 0.043809 153 0 76
0.076575 -0.264989 -0.261075 76 153 0
0.246295 0.564298 0.104273 153 0 76
0.250354 -0.759709 -0.105180 76 153 0
0.131801 -0.229202 0.235829 76 153 0
-0.029954 -0.795202 0.268593 76 153 0
0.269576 0.274357 0.022158 76 153 0
-0.068724 0.637264 -0.216818 153 0 76
-0.046135 0.444423 -0.268300 76 153 0
-0.264085 -0.108218 0.062711 76 153 0
0.265553 0.502757 0.058148 76 153 0
0.226855 0.344579 -0.152665 76 153 0
-0.054383 0.800024 -0.123407 153 0 76
-0.161988 -0.055608 0.216962 76 153 0
-0.241896 -0.803646 0.091190 76 153 0
-0.197478 0.486295 0.185287 76 153 0
0.256636 -0.803646 0.063219 76 153 0
0.120238 0.164359 0.241552 76 153 0
-0.036806 0.171312 0.268153 76 153 0
-0.010908 -0.803646 -0.183794 76 153 0
0.155396 0.199817 0.222726 76 153 0
0.051483 0.867095 0.039622 153 0 76
-0.225011 -0.011692 -0.152819 76 153 0
0.265057 -0.580437 -0.055160 76 153 0
-0.270855 -0.669843 -0.019454 76 153 0
-0.248297 -0.669700 -0.114216 76 153 0
-0.029827 -0.803646 -0.255919 76 153 0
-0.266663 -0.582560 0.049845 76 153 0
-0.098955 -0.803646 0.057856 76 153 0
-0.045350 -0.587567 -0.268457 76 153 0
0.269179 0.505916 -0.034587 76 153 0
0.021189 0.679470 -0.202793 153 0 76
-0.082253 0.208775 -0.261064 76 153 0
0.138944 0.097378 -0.233803 76 153 0
-0.219327 -0.357759 -0.161351 76 153 0
-0.087993 -0.330160 -0.259914 76 153 0
-0.228141 0.259219 0.149891 76 153 0
-0.206263 -0.333499 0.175297 76 153 0
-0.010820 -0.301202 -0.273281 76 153 0
-0.009798 -0.744364 0.269886 76 153 0
0.206829 -0.803646 0.066171 76 153 0
0.073342 -0.727794 -0.262167 76 153 0
0.271002 -0.082430 -0.000072 76 153 0
0.087918 0.957630 -0.025109 76 0 153
-0.012148 0.893250 -0.101957 76 0 153
0.270416 0.173900 -0.028413 76 153 0
-0.080427 -0.117046 -0.261430 76 153 0
0.222458 0.569606 -0.144241 76 153 0
-0.269109 0.106325 -0.046672 76 153 0
-0.242380 0.085319 -0.126746 76 153 0
0.218690 -0.803646 -0.076389 76 153 0
0.065235 -0.803646 0.138869 76 153 0
0.082098 -0.074555 0.258766 76 153 0
0.184502 -0.803646 -0.036303 76 153 0
-0.272256 -0.758677 0.021929 76 153 0
-0.239170 0.283827 0.127603 76 153 0
0.108397 -0.803646 0.057002 76 153 0
-0.215988 0.642558 0.058522 153 0 76
0.146788 -0.103665 -0.228578 76 153 0
0.182433 -0.266708 -0.203427 76 153 0
0.168825 0.620389 -0.166353 153 0 76
-0.272661 0.525660 0.008686 76 153 0
0.133991 0.663176 0.163315 153 0 76
0.003156 -0.495866 -0.272384 76 153 0
-0.029447 0.995766 0.072276 76 0 153
-0.234067 0.615203 0.053953 153 0 76
0.252820 -0.227267 -0.100198 76 153 0
0.088666 -0.346707 -0.256989 76 153 0
-0.062693 0.976426 0.079945 76 0 153
-0.266528 -0.682908 -0.060264 76 153 0
0.008892 0.187241 -0.272016 76 153 0
0.270387 -0.592291 -0.028556 76 153 0
0.094937 -0.803646 0.221671 76 153 0
-0.263871 -0.136837 0.063780 76 153 0
0.053551 0.849069 -0.091676 153 0 76
-0.247251 -0.159417 -0.117311 76 153 0
-0.245557 -0.803646 0.054106 76 153 0
-0.222113 0.229761 0.157274 76 153 0
-0.134209 -0.194348 -0.237252 76 153 0
0.069431 -0.481735 -0.263489 76 153 0
-0.197255 0.096121 0.185541 76 153 0
-0.089472 0.102314 0.254910 76 153 0
-0.239183 -0.363958 0.127576 76 153 0
-0.046199 0.988932 0.015769 76 0 153
0.268905 -0.368557 0.032625 76 153 0
-0.261842 -0.222449 -0.074130 76 153 0
0.166376 0.717301 0.068591 153 0 76
-0.037110 0.483939 0.268134 76 153 0
0.242326 -0.588408 0.123239 76 153 0
0.132871 -0.803646 0.224181 76 153 0
0.188834 -0.638255 -0.196149 76 153 0
0.016590 0.492425 0.271579 76 153 0
0.161990 0.748664 -0.007609 153 0 76
-0.098414 0.122238 -0.254965 76 153 0
0.137614 0.348738 -0.234689 76 153 0
-0.161583 -0.368035 -0.220271 76 153 0
-0.162464 -0.435320 -0.219496 76 153 0
-0.253813 -0.533546 0.098014 76 153 0
0.052324 -0.803646 0.065316 76 153 0
0.016082 -0.064624 0.271546 76 153 0
0.263801 -0.350578 0.063334 76 153 0
0.224201 -0.146514 0.150447 76 153 0
-0.120291 0.056748 0.244496 76 153 0
0.139370 -0.257921 0.232084 76 153 0
-0.120347 0.754957 -0.105463 153 0 76
0.051423 0.563013 -0.267950 76 153 0
0.249408 -0.560388 0.105926 76 153 0
0.128258 -0.803646 -0.179514 76 153 0
-0.227307 -0.374394 0.151369 76 153 0
0.267220 -0.470285 -0.044362 76 153 0
0.188836 -0.803646 0.124633 76 153 0
-0.198502 -0.479996 0.184123 76 153 0
-0.094885 0.463263 -0.256712 76 153 0
0.026694 0.649929 0.216593 153 0 76
-0.108853 0.596100 -0.227996 153 0 76
-0.209702 -0.059174 -0.175799 76 153 0
-0.096745 -0.283476 -0.255791 76 153 0
-0.053608 -0.587405 0.267029 76 153 0
-0.104221 -0.608649 0.249926 76 153 0
0.199761 0.668566 0.060277 153 0 76
-0.013338 0.042841 -0.273442 76 153 0
-0.230469 0.162167 -0.144626 76 153 0
-0.257675 -0.296046 0.090210 76 153 0
-0.199301 -0.803646 0.097740 76 153 0
-0.164535 0.707445 -0.089216 153 0 76
0.174430 -0.075019 -0.210163 76 153 0
0.233338 -0.550242 -0.139564 76 153 0
0.262133 -0.292976 0.068270 76 153 0
0.262788 -0.253532 0.066332 76 153 0
-0.227816 -0.690430 -0.148607 76 153 0
0.228495 0.634812 0.011467 153 0 76
0.187477 -0.077392 0.194513 76 153 0
0.264757 0.448921 0.060504 76 153 0
-0.099476 0.986237 0.024249 76 0 153
0.137198 0.168249 0.233159 76 153 0
0.237159 -0.157636 -0.131844 76 153 0
-0.247989 0.524418 -0.115126 76 153 0
-0.002855 0.538773 0.270331 76 153 0
-0.261321 -0.718015 0.076506 76 153 0
-0.038489 0.954308 -0.084708 76 0 153
0.043871 0.178859 -0.269772 76 153 0
0.129293 -0.389129 0.237071 76 153 0
0.142420 -0.330590 0.230574 76 153 0
0.009715 -0.803646 0.174032 76 153 0
0.080080 -0.511103 0.259171 76 153 0
0.190824 0.206997 0.191570 76 153 0
0.094120 -0.619484 0.254477 76 153 0
-0.189743 -0.064759 -0.195506 76 153 0
0.175118 -0.228896 -0.209704 76 153 0
-0.176816 -0.459009 -0.206875 76 153 0
-0.120189 -0.593643 -0.244190 76 153 0
-0.214527 -0.793732 -0.168556 76 153 0
-0.155038 0.325743 0.221593 76 153 0
-0.181563 0.454332 -0.202700 76 153 0
-0.211739 0.227789 -0.172742 76 153 0
0.264665 -0.257745 -0.057115 76 153 0
0.264458 -0.356736 -0.058151 76 153 0
0.026697 0.663284 -0.211137 153 0 76
0.179888 -0.514060 0.201187 76 153 0
-0.242317 -0.292732 -0.126841 76 153 0
-0.085167 0.904362 -0.036052 76 0 153
-0.268216 -0.391626 0.042091 76 153 0
-0.235954 -0.217518 0.134103 76 153 0
0.051957 -0.442683 0.264805 76 153 0
-0.240353 -0.015536 -0.129790 76 153 0
0.244776 -0.005154 0.119562 76 153 0
-0.156758 -0.263173 -0.224515 76 153 0
0.065390 -0.540747 0.262114 76 153 0
0.238433 0.313686 -0.129269 76 153 0
0.243906 -0.803646 -0.081187 76 153 0
0.270380 0.091009 0.009636 76 153 0
-0.194849 0.547884 0.188277 76 153 0
-0.096661 0.037858 -0.255833 76 153 0
0.024454 -0.803646 0.101724 76 153 0
0.038425 0.686754 -0.195145 153 0 76
0.258753 -0.654442 -0.086625 76 153 0
-0.024198 0.947698 0.098072 76 0 153
0.019582 0.563406 -0.270739 76 153 0
-0.267397 -0.058206 -0.057693 76 153 0
0.217000 -0.234932 -0.164121 76 153 0
-0.270747 0.284248 -0.021145 76 153 0
-0.199913 0.598608 -0.150249 153 0 76
0.182616 0.045523 -0.203220 76 153 0
-0.158364 -0.106225 0.219377 76 153 0
-0.267022 0.397003 -0.058801 76 153 0
-0.000136 0.563364 -0.270165 76 153 0
-0.266311 -0.247469 -0.060907 76 153 0
-0.211459 -0.242821 -0.173162 76 153 0
0.248885 -0.435126 0.107475 76 153 0
0.096841 0.848122 0.040527 153 0 76
-0.190750 0.062904 -0.194621 76 153 0
-0.209165 0.256650 -0.176604 76 153 0
0.102539 -0.803646 -0.161656 76 153 0
0.066024 0.534890 -0.264640 76 153 0
-0.196376 0.229807 -0.189673 76 153 0
-0.271272 -0.365671 -0.012951 76 153 0
-0.105063 0.552396 0.249641 76 153 0
0.115690 0.619100 0.205910 153 0 76
0.135238 0.704808 0.128741 153 0 76
0.263910 -0.710872 0.063011 76 153 0
-0.215561 -0.304469 0.164724 76 153 0
-0.263912 -0.572919 0.063576 76 153 0
-0.080436 0.336654 0.257963 76 153 0
-0.234327 -0.611581 0.137390 76 153 0
0.097327 0.537936 -0.254063 76 153 0
0.141294 -0.371982 -0.232238 76 153 0
-0.074011 -0.058503 -0.262715 76 153 0
-0.126039 -0.289028 -0.241295 76 153 0
0.265872 0.237886 -0.051089 76 153 0
-0.265081 -0.195794 0.057742 76 153 0
-0.005583 0.502123 -0.272945 76 153 0
0.068446 0.881003 0.059002 153 0 76
0.069696 -0.741135 0.261251 76 153 0
0.007112 0.181273 0.270971 76 153 0
0.170261 0.435816 0.209653 76 153 0
0.176705 -0.488517 -0.208648 76 153 0
-0.258683 -0.510273 0.088172 76 153 0
-0.059383 0.160166 0.265077 76 153 0
0.241184 0.118456 -0.123710 76 153 0
0.095096 0.672359 0.183062 153 0 76
0.047696 0.964758 -0.090299 76 0 153
0.261838 0.212658 0.069143 76 153 0
0.183919 0.697847 0.054098 153 0 76
0.134861 -0.152855 0.234315 76 153 0
-0.235458 -0.105805 0.135104 76 153 0
-0.214321 0.461102 0.166135 76 153 0
0.270389 0.194928 -0.028546 76 153 0
0.063351 -0.214443 -0.265543 76 153 0
0.233368 -0.314772 -0.139505 76 153 0
-0.070707 -0.211066 0.261251 76 153 0
-0.262851 -0.795981 -0.071147 76 153 0
-0.042712 -0.796462 -0.268986 76 153 0
-0.140981 -0.803646 -0.149931 76 153 0
0.268227 0.307276 0.043188 76 153 0
-0.141940 0.050514 -0.233426 76 153 0
-0.184982 -0.142070 0.199497 76 153 0
0.270078 -0.741094 0.014332 76 153 0
0.148272 -0.803646 -0.087519 76 153 0
0.170991 0.316113 -0.212454 76 153 0
-0.074068 0.903856 -0.055815 76 0 153
0.218742 -0.127003 0.158640 76 153 0
-0.177410 -0.521007 -0.206353 76 153 0
-0.268880 0.565744 -0.011284 76 153 0
0.150874 0.525456 -0.225856 76 153 0
-0.255867 0.537382 -0.091812 76 153 0
0.057981 -0.803646 0.090970 76 153 0
-0.136653 -0.371385 0.233841 76 153 0
-0.201416 0.036938 0.180809 76 153 0
0.221462 -0.510435 0.154557 76 153 0
0.078904 0.138236 0.259406 76 153 0
0.206986 0.522108 0.176288 76 153 0
0.268655 0.379726 0.036518 76 153 0
0.198462 -0.125904 0.184853 76 153 0
0.175033 0.224927 0.205457 76 153 0
0.187514 -0.232996 -0.197651 76 153 0
0.270654 0.432840 -0.027225 76 153 0
0.021185 0.723069 0.175059 153 0 76
-0.222904 -0.624863 -0.155981 76 153 0
-0.152605 -0.677948 -0.228148 76 153 0
0.156272 0.097708 -0.222260 76 153 0
0.161513 0.747244 -0.026896 153 0 76
0.058200 0.324744 0.263554 76 153 0
-0.168156 0.739413 -0.018316 153 0 76
0.081186 0.765563 -0.131284 153 0 76
-0.078680 0.540139 0.258557 76 153 0
0.271172 0.216096 -0.002721 76 153 0
-0.175021 -0.293040 0.208280 76 153 0
0.042364 0.268420 0.266727 76 153 0
0.246987 0.160383 -0.111985 76 153 0
0.174984 -0.279359 -0.209794 76 153 0
-0.060202 0.477039 0.264801 76 153 0
-0.253791 0.589594 0.009994 153 0 76
0.132004 0.569490 -0.231198 76 153 0
-0.100741 0.924814 0.020504 76 0 153
-0.260496 -0.155041 0.080624 76 153 0
0.099855 0.940004 -0.020744 76 0 153
0.270724 -0.377404 0.004275 76 153 0
-0.052467 -0.803646 0.194209 76 153 0
-0.016930 0.673393 -0.206003 153 0 76
0.220082 -0.589310 -0.160617 76 153 0
0.090649 0.973663 -0.008570 76 0 153
0.159941 -0.803646 -0.186815 76 153 0
-0.069750 0.995328 0.065222 76 0 153
-0.089591 -0.557393 -0.259332 76 153 0
0.128880 0.129490 0.237275 76 153 0
-0.117435 -0.803646 0.111976 76 153 0
0.070474 0.409047 0.261095 76 153 0
0.020238 0.138526 0.271160 76 153 0
0.116571 0.431622 0.243367 76 153 0
-0.082807 0.873244 -0.061392 153 0 76
-0.018830 -0.486552 0.269306 76 153 0
-0.012185 -0.765859 -0.273368 76 153 0
0.218617 -0.351056 0.158829 76 153 0
-0.272268 -0.096005 0.002564 76 153 0
0.134509 -0.012048 -0.236758 76 153 0
-0.183812 -0.559372 -0.200723 76 153 0
-0.137627 -0.723583 -0.235560 76 153 0
-0.048566 0.538710 0.267399 76 153 0
-0.231218 0.622699 -0.043358 153 0 76
0.260546 0.150227 0.072965 76 153 0
-0.266712 0.544701 0.049601 76 153 0
-0.252571 -0.722045 -0.101566 76 153 0
0.175279 0.264151 -0.209598 76 153 0
-0.042367 -0.618224 -0.269055 76 153 0
0.164428 -0.504346 0.214783 76 153 0
0.050754 0.714614 0.173765 153 0 76
-0.070389 0.995766 0.009996 76 0 153
-0.192159 -0.580566 0.191336 76 153 0
0.098502 -0.714407 -0.253666 76 153 0
0.246169 -0.069267 0.115511 76 153 0
-0.009907 0.960790 -0.102101 76 0 153
0.236251 -0.165464 0.132359 76 153 0
0.178423 -0.803646 -0.199073 76 153 0
0.070339 0.238039 -0.263182 76 153 0
0.222945 -0.202564 -0.157361 76 153 0
-0.138592 0.350681 0.232549 76 153 0
0.166665 -0.552361 -0.215336 76 153 0
0.201408 0.432179 -0.181851 76 153 0
0.116294 0.410316 0.243504 76 153 0
0.105554 0.307557 -0.251282 76 153 0
0.006519 0.892893 0.090100 153 0 76
0.271727 0.109288 -0.011368 76 153 0
-0.172500 0.715775 -0.062213 153 0 76
0.147913 -0.803646 0.205529 76 153 0
-0.263692 0.570918 0.021938 153 0 76
-0.243861 -0.237362 -0.124523 76 153 0
0.066798 0.466234 0.261832 76 153 0
0.272217 -0.553725 -0.019423 76 153 0
-0.001609 0.414878 0.270411 76 153 0
-0.223664 -0.803646 0.041831 76 153 0
-0.215891 0.419487 -0.166509 76 153 0
0.083256 -0.803646 -0.135508 76 153 0
0.231162 -0.502044 -0.143963 76 153 0
0.219780 0.151030 0.157083 76 153 0
0.071954 0.114238 0.260799 76 153 0
-0.054822 0.501760 -0.266559 76 153 0
-0.233385 0.386167 -0.140249 76 153 0
-0.271164 -0.395376 -0.014636 76 153 0
-0.255189 -0.156238 -0.093820 76 153 0
-0.041455 0.995766 -0.009554 76 0 153
-0.246996 -0.488390 0.111788 76 153 0
-0.082556 0.296894 -0.261003 76 153 0
0.199079 0.065778 0.184310 76 153 0
-0.266536 -0.163575 0.050480 76 153 0
-0.216257 0.562706 -0.165958 76 153 0
0.177598 -0.105423 -0.208053 76 153 0
-0.073390 0.837792 0.083428 153 0 76
0.023819 0.890862 -0.099591 76 0 153
-0.110792 0.288052 0.247705 76 153 0
0.125022 0.545570 0.239184 76 153 0
0.238307 0.083220 -0.129524 76 153 0
-0.144029 -0.471898 0.228927 76 153 0
-0.079135 -0.057285 0.258403 76 153 0
