ply
format ascii 1.0
element vertex 1277
property float x
property float y
property float z
property uchar red
property uchar green
property uchar blue
end_header
-0.095221 -0.720071 0.228503 153 76 0
0.174601 0.597357 -0.201263 153 76 0
0.267195 -0.679930 -0.244891 153 76 0
-0.303704 0.180974 0.212209 153 76 0
-0.119239 0.903677 0.050079 153 0 76
-0.184500 -0.727193 0.262967 153 76 0
0.315966 -0.183734 0.016664 153 76 0
-0.301328 -0.347837 0.022708 153 76 0
0.068586 0.553738 0.265658 153 76 0
-0.250800 -0.482087 0.290516 153 76 0
0.221068 -0.712862 -0.148852 153 76 0
0.312864 0.440011 -0.035718 153 76 0
0.070719 -0.671159 0.127816 153 76 0
0.302916 -0.538345 0.245239 153 76 0
0.312864 0.126244 0.054565 153 76 0
-0.237241 -0.409978 0.301021 153 76 0
-0.077198 0.481780 -0.286946 153 76 0
0.305752 0.467431 -0.006123 153 76 0
-0.034072 0.627428 0.110639 153 76 0
0.199035 0.198559 0.315668 153 76 0
-0.009850 0.623937 -0.054636 76 0 153
0.263031 0.482144 0.278619 153 76 0
0.312864 0.212161 -0.036448 153 76 0
0.079044 0.281717 -0.304728 153 76 0
0.232467 0.441724 0.307465 153 76 0
0.263016 -0.722939 -0.216068 153 76 0
-0.202909 0.651406 0.085516 153 76 0
0.230226 -0.655136 0.288887 153 76 0
0.312864 0.031568 0.048838 153 76 0
-0.232577 0.583596 0.191912 153 76 0
0.314909 0.369981 -0.205533 153 76 0
-0.243336 -0.727193 -0.073288 153 76 0
-0.108272 0.953357 0.008598 153 0 76
-0.035412 -0.521992 0.315668 153 76 0
0.091934 0.634456 0.223087 153 76 0
0.025159 0.875894 0.098116 153 0 76
0.224666 -0.721005 -0.005698 153 76 0
0.092213 0.839759 -0.032471 76 0 153
-0.301328 -0.392783 -0.153202 153 76 0
-0.161634 0.688305 0.175409 153 76 0
-0.163464 -0.232021 0.312566 153 76 0
0.131256 -0.108831 0.312566 153 76 0
-0.124028 0.640390 0.012880 153 76 0
-0.082787 0.859252 -0.027375 153 0 76
-0.285014 0.495729 0.008168 153 76 0
-0.219908 -0.658561 -0.282479 153 76 0
0.181420 0.664480 0.189209 153 76 0
-0.293737 0.166365 0.248967 153 76 0
0.073003 0.892738 0.120971 153 0 76
-0.297559 -0.488819 0.126491 153 76 0
-0.189570 -0.472589 -0.302826 153 76 0
0.315966 0.431651 -0.097436 153 76 0
0.073268 -0.097917 -0.301626 153 76 0
0.264497 -0.727193 0.121656 153 76 0
0.197487 -0.674183 -0.283442 153 76 0
-0.301328 -0.160524 -0.176112 153 76 0
0.133204 0.718528 -0.003542 76 0 153
-0.078650 0.633851 -0.038060 76 0 153
0.073577 0.395867 -0.304728 153 76 0
-0.284007 -0.673480 0.045186 153 76 0
-0.202029 0.117543 0.311643 153 76 0
-0.146786 -0.553048 0.312566 153 76 0
-0.113911 0.254956 -0.304728 153 76 0
0.291836 -0.347575 0.264608 153 76 0
0.127083 0.756706 -0.040934 76 0 153
-0.079648 -0.618549 0.310767 153 76 0
-0.074327 0.967856 0.087041 153 0 76
-0.109425 0.823518 0.025985 153 0 76
0.006956 -0.298298 0.312566 153 76 0
0.086898 0.850733 -0.075199 153 0 76
-0.300383 -0.610896 -0.152238 153 76 0
0.275077 0.536444 0.157283 153 76 0
-0.302028 -0.245225 -0.169888 153 76 0
-0.006774 0.195817 0.312566 153 76 0
-0.299366 -0.367951 0.141434 153 76 0
-0.029840 -0.678753 0.179047 153 76 0
-0.152491 -0.727193 -0.251080 153 76 0
-0.237372 0.575210 -0.115208 153 76 0
0.315966 -0.163641 -0.177448 153 76 0
0.134274 -0.664829 -0.040310 153 76 0
-0.301328 -0.534260 -0.091660 153 76 0
0.019732 -0.245416 -0.298513 153 76 0
0.315966 0.399657 0.039254 153 76 0
-0.107751 0.908502 -0.001620 153 0 76
-0.304430 -0.339497 -0.071992 153 76 0
0.030960 0.953545 -0.124919 153 0 76
0.311949 -0.493659 -0.192496 153 76 0
-0.001459 -0.484300 -0.299075 153 76 0
0.305375 0.478998 -0.166285 153 76 0
-0.102378 0.957543 0.082289 153 0 76
0.056233 -0.671159 0.169112 153 76 0
0.293792 -0.603977 0.254532 153 76 0
0.312864 -0.321374 0.110661 153 76 0
-0.071903 0.718528 0.128180 76 0 153
0.090188 -0.053400 0.312566 153 76 0
-0.273889 0.458651 0.268036 153 76 0
0.130642 0.746132 0.075341 76 0 153
-0.103287 0.888692 0.038706 153 0 76
-0.304430 -0.212854 -0.180468 153 76 0
0.312864 -0.065582 -0.016159 153 76 0
-0.298459 -0.064415 0.223525 153 76 0
-0.285948 0.165427 -0.252156 153 76 0
-0.293861 0.334850 0.248716 153 76 0
-0.261685 0.529111 -0.061230 153 76 0
0.312864 0.374659 -0.133324 153 76 0
-0.299804 -0.281751 0.232908 153 76 0
0.142978 0.601914 0.028013 153 76 0
-0.304430 -0.229365 -0.110312 153 76 0
0.129804 -0.664829 -0.132294 153 76 0
0.306514 -0.302581 0.235849 153 76 0
0.102722 0.885709 0.065518 153 0 76
0.046783 0.615776 0.190775 153 76 0
0.083543 0.109987 0.315668 153 76 0
-0.298896 -0.606321 -0.058509 153 76 0
0.119418 0.605309 0.096672 153 76 0
0.243700 0.595938 -0.066982 153 76 0
0.213772 -0.251487 -0.295000 153 76 0
-0.107657 0.737617 0.054972 76 0 153
0.284925 0.180146 -0.268325 153 76 0
0.312864 0.336076 -0.134998 153 76 0
0.308816 0.399349 0.240346 153 76 0
-0.145047 -0.396455 -0.304728 153 76 0
-0.301328 -0.020996 -0.007908 153 76 0
-0.286419 0.492370 -0.184667 153 76 0
0.268343 0.538362 -0.051102 153 76 0
0.291912 -0.637609 0.242797 153 76 0
0.006163 0.946683 0.139125 153 0 76
0.168280 -0.431844 -0.301626 153 76 0
0.135805 0.737617 0.056249 153 76 0
0.315966 0.171252 -0.100732 153 76 0
-0.085969 0.634906 0.060249 76 0 153
-0.299104 -0.242681 0.194180 153 76 0
-0.082328 0.718528 -0.084624 153 76 0
-0.096407 0.537585 0.274177 153 76 0
0.105806 0.735493 -0.066236 76 0 153
-0.199788 -0.708566 -0.012370 153 76 0
0.224579 -0.649749 -0.288933 153 76 0
-0.023452 0.757261 0.095527 76 0 153
0.239264 -0.053574 0.308986 153 76 0
-0.301328 -0.016039 -0.128506 153 76 0
-0.301328 -0.211756 -0.132608 153 76 0
0.062435 0.635394 -0.211652 153 76 0
-0.017361 0.417105 -0.304728 153 76 0
-0.057736 0.129274 -0.301626 153 76 0
0.017696 0.823909 -0.126665 153 0 76
-0.106447 0.374741 -0.304728 153 76 0
-0.301328 0.295024 0.142178 153 76 0
-0.014792 -0.516076 0.315668 153 76 0
0.015571 -0.174666 0.315668 153 76 0
-0.207476 0.536864 0.256546 153 76 0
-0.287134 0.214731 -0.242908 153 76 0
-0.166664 -0.485365 0.309669 153 76 0
0.024039 0.619053 0.012907 76 0 153
0.298993 -0.039304 0.260839 153 76 0
0.301573 -0.408613 -0.245530 153 76 0
0.315966 -0.172178 0.035086 153 76 0
0.183061 -0.682217 -0.002199 153 76 0
0.047328 0.537431 -0.257595 153 76 0
-0.080063 0.129909 0.315668 153 76 0
0.208365 0.616760 -0.196719 153 76 0
0.282250 0.509707 0.195657 153 76 0
-0.009605 -0.073181 -0.301626 153 76 0
0.312864 -0.041080 0.015851 153 76 0
-0.275080 0.514565 -0.011971 153 76 0
-0.194484 0.089794 -0.301197 153 76 0
0.018520 0.883937 0.137498 153 0 76
-0.304430 -0.033462 0.030960 153 76 0
0.131974 -0.227233 -0.301626 153 76 0
0.023532 0.619127 0.203348 153 76 0
0.310601 -0.483413 0.170797 153 76 0
-0.293829 0.022025 -0.237840 153 76 0
-0.072214 -0.261302 -0.297617 153 76 0
-0.304430 -0.110803 0.131799 153 76 0
0.085183 -0.664829 -0.112256 153 76 0
0.191607 0.139043 0.315668 153 76 0
-0.042237 0.539397 0.267498 153 76 0
0.080171 -0.671159 -0.034793 153 76 0
-0.271102 -0.628010 -0.254729 153 76 0
-0.296895 -0.569971 -0.219261 153 76 0
0.113297 0.416467 0.312566 153 76 0
0.050746 -0.611772 -0.302178 153 76 0
0.315966 0.298980 0.125119 153 76 0
0.114277 -0.671159 -0.023575 153 76 0
-0.136285 -0.086175 -0.301626 153 76 0
0.060145 0.737617 0.120330 76 0 153
-0.023664 0.481319 -0.287189 153 76 0
-0.304430 -0.312595 0.044045 153 76 0
-0.013344 0.004056 0.312566 153 76 0
-0.092832 0.836873 0.094729 153 0 76
-0.048976 0.718528 -0.112402 76 0 153
0.151838 -0.580198 0.311204 153 76 0
-0.067719 0.665930 -0.195547 153 76 0
-0.060719 -0.067158 0.312566 153 76 0
-0.056720 -0.284080 0.312566 153 76 0
-0.153783 -0.023870 0.315668 153 76 0
0.196358 -0.113991 0.312566 153 76 0
-0.304430 0.087444 0.145215 153 76 0
0.303739 0.129179 0.243571 153 76 0
-0.283828 0.497979 -0.118901 153 76 0
-0.124790 -0.664829 0.096694 153 76 0
-0.081739 0.779749 -0.029906 76 0 153
-0.283151 -0.661742 0.006444 153 76 0
0.165725 0.598636 0.057143 153 76 0
0.311089 -0.264971 -0.204314 153 76 0
0.232379 0.556743 0.229772 153 76 0
0.315966 0.087790 0.154090 153 76 0
-0.299222 0.303861 0.234622 153 76 0
-0.257541 -0.734154 -0.177012 153 76 0
0.021930 0.923065 -0.106854 153 0 76
0.022847 0.718528 -0.135684 76 0 153
-0.186403 0.556767 -0.248390 153 76 0
-0.290936 0.484501 0.116393 153 76 0
-0.022811 -0.427175 -0.304728 153 76 0
-0.089492 -0.664611 0.293302 153 76 0
-0.272519 0.189564 -0.269316 153 76 0
-0.236053 -0.161482 0.305802 153 76 0
0.297599 -0.453357 0.255982 153 76 0
0.311912 -0.378075 0.098946 153 76 0
-0.201274 -0.183539 -0.303982 153 76 0
-0.013064 0.855449 0.098189 76 0 153
0.312864 0.088760 -0.114133 153 76 0
-0.304430 -0.113993 -0.037605 153 76 0
0.315966 0.073119 -0.184115 153 76 0
-0.301328 0.015304 -0.070674 153 76 0
-0.086266 0.038944 0.312566 153 76 0
-0.304430 0.151939 0.195193 153 76 0
-0.136000 0.739132 -0.006415 76 0 153
0.141825 0.718528 -0.109123 153 76 0
-0.304430 -0.506446 0.130620 153 76 0
-0.246357 -0.668842 0.272388 153 76 0
0.045839 0.215847 -0.304728 153 76 0
-0.301328 -0.336841 0.169774 153 76 0
0.285763 0.505332 0.129040 153 76 0
-0.168482 -0.682580 -0.140605 153 76 0
-0.104467 -0.338780 0.315668 153 76 0
-0.163932 0.709290 0.149990 153 76 0
0.157523 -0.312322 -0.301626 153 76 0
-0.217504 0.114584 -0.297688 153 76 0
-0.075796 -0.558616 -0.304728 153 76 0
-0.053836 0.511109 -0.277200 153 76 0
-0.011989 0.775863 -0.087390 76 0 153
-0.028970 -0.356164 -0.299372 153 76 0
-0.194873 0.666643 -0.085978 153 76 0
0.312864 -0.291224 0.074005 153 76 0
0.053435 0.995320 0.096427 153 0 76
0.047459 0.780871 0.090362 76 0 153
-0.239073 0.571985 0.001110 153 76 0
-0.258029 0.455147 0.293063 153 76 0
-0.157800 0.256072 0.315668 153 76 0
0.310666 -0.603310 -0.084483 153 76 0
-0.301328 0.413469 0.132371 153 76 0
0.151405 0.718528 -0.143403 153 76 0
-0.009978 -0.714476 -0.263454 153 76 0
0.116560 0.959802 -0.022334 153 0 76
0.182049 0.283416 0.315668 153 76 0
-0.303559 -0.621916 0.038418 153 76 0
-0.048955 -0.385594 -0.301161 153 76 0
-0.124744 0.718528 -0.111081 153 76 0
-0.122799 0.853032 -0.030543 153 0 76
-0.148930 0.718528 -0.097940 153 76 0
-0.049247 0.995320 -0.048108 153 0 76
0.137400 0.854216 0.021228 153 0 76
-0.184286 -0.680488 -0.281062 153 76 0
0.063104 0.179592 0.312566 153 76 0
0.310621 -0.493513 0.018525 153 76 0
0.315966 -0.571495 0.058034 153 76 0
-0.125369 0.484966 0.296206 153 76 0
0.257890 0.258736 -0.285285 153 76 0
-0.275317 0.007686 0.277067 153 76 0
0.231392 0.367082 0.307831 153 76 0
-0.193062 0.297339 -0.304520 153 76 0
-0.106003 0.412691 -0.301626 153 76 0
-0.168347 -0.674467 -0.060104 153 76 0
-0.086731 0.995320 0.061631 153 0 76
-0.222807 0.602374 -0.142502 153 76 0
-0.044687 0.628957 0.136336 153 76 0
-0.291176 0.484046 0.188282 153 76 0
0.228685 0.030029 -0.297789 153 76 0
-0.270504 0.057175 0.276633 153 76 0
-0.304430 0.181202 0.017518 153 76 0
0.086275 -0.207849 -0.304728 153 76 0
0.016088 -0.664829 -0.002684 153 76 0
0.077576 0.212824 0.312566 153 76 0
0.205736 -0.703356 0.122571 153 76 0
0.311082 -0.207460 -0.207122 153 76 0
0.087155 0.829789 0.054447 76 0 153
0.309625 -0.472585 0.063285 153 76 0
0.126185 0.707150 -0.173326 153 76 0
-0.301328 0.444499 0.154638 153 76 0
0.315966 0.236870 -0.159242 153 76 0
0.189779 -0.207884 0.315668 153 76 0
0.188137 -0.682161 0.085579 153 76 0
-0.099752 0.636892 0.109934 76 0 153
0.261307 -0.714744 0.224637 153 76 0
0.079158 0.611111 0.135413 153 76 0
-0.298719 -0.470645 -0.171918 153 76 0
-0.002719 -0.370250 -0.298917 153 76 0
0.315966 0.222094 -0.098404 153 76 0
-0.304430 0.065553 0.040295 153 76 0
0.080658 0.627136 -0.216007 153 76 0
0.297302 -0.668088 -0.182969 153 76 0
0.310618 -0.488628 -0.102128 153 76 0
0.207309 0.316889 0.315283 153 76 0
-0.211243 -0.729983 0.206635 153 76 0
0.203846 0.564178 0.252281 153 76 0
0.107948 0.803664 0.025570 76 0 153
0.312864 0.266286 0.198001 153 76 0
-0.301328 -0.440817 -0.047814 153 76 0
-0.300665 0.455202 -0.178459 153 76 0
0.278900 -0.008681 -0.274269 153 76 0
-0.034758 0.042764 -0.301626 153 76 0
-0.123510 -0.284974 0.315668 153 76 0
0.212457 0.162626 -0.304005 153 76 0
-0.146102 -0.059475 -0.304728 153 76 0
-0.281354 0.491818 0.088209 153 76 0
-0.301328 0.169749 -0.021328 153 76 0
-0.057034 0.631287 0.224758 153 76 0
-0.301328 -0.049214 0.197689 153 76 0
-0.061896 -0.551416 0.312566 153 76 0
0.300613 -0.354650 -0.234136 153 76 0
0.111075 0.246339 0.315668 153 76 0
-0.074305 0.963805 0.111119 153 0 76
0.013896 -0.262799 0.311373 153 76 0
-0.260719 0.173241 -0.280095 153 76 0
0.313501 -0.474492 0.102854 153 76 0
0.057804 0.831041 -0.095798 153 0 76
0.312810 -0.247547 -0.014250 153 76 0
0.310074 -0.416208 0.236639 153 76 0
0.058025 0.718528 -0.154064 153 76 0
-0.179672 0.695464 0.046851 153 76 0
-0.050153 0.995320 0.111168 153 0 76
0.195297 0.111387 -0.304728 153 76 0
-0.084888 0.634750 -0.113113 153 76 0
0.154699 0.718528 0.116477 153 76 0
-0.304430 0.377022 0.051041 153 76 0
0.315966 0.236238 0.041064 153 76 0
-0.016878 0.855936 0.116941 76 0 153
0.312864 -0.224366 -0.146397 153 76 0
0.312864 0.033793 -0.045314 153 76 0
-0.105623 -0.197274 0.315668 153 76 0
-0.291700 0.124436 0.253099 153 76 0
0.219772 0.641306 0.135529 153 76 0
0.056769 -0.723529 0.232212 153 76 0
-0.216099 0.550692 -0.228617 153 76 0
-0.126597 0.640760 0.206303 153 76 0
0.315966 0.251635 -0.032146 153 76 0
-0.060924 0.028235 -0.304728 153 76 0
0.189251 0.134569 -0.301626 153 76 0
-0.230359 0.443200 -0.293324 153 76 0
0.252810 0.369245 0.303228 153 76 0
-0.281365 0.491983 0.223829 153 76 0
-0.304430 -0.326175 -0.183703 153 76 0
0.250961 0.078967 0.304140 153 76 0
0.018858 -0.707430 -0.204002 153 76 0
-0.303914 -0.353343 0.203986 153 76 0
0.231627 -0.479264 0.301075 153 76 0
0.071977 0.730437 -0.098786 76 0 153
0.309597 -0.634695 -0.196541 153 76 0
0.160891 0.718528 0.135505 153 76 0
0.099264 0.420929 -0.301626 153 76 0
0.282138 0.389375 0.282369 153 76 0
0.312864 0.435801 0.025006 153 76 0
-0.257582 -0.099748 0.288594 153 76 0
0.061188 -0.284954 0.312566 153 76 0
-0.206820 0.248444 0.314296 153 76 0
0.032892 0.903160 -0.124665 153 0 76
-0.234076 -0.041766 0.306777 153 76 0
-0.301815 -0.153435 0.108853 153 76 0
0.063393 0.974380 0.104283 153 0 76
0.207655 0.664282 -0.045494 153 76 0
-0.064075 0.773912 0.082877 76 0 153
0.315966 0.382102 -0.187164 153 76 0
-0.055539 0.417225 0.312566 153 76 0
-0.109440 0.718528 0.079650 76 0 153
-0.205757 0.646006 -0.084800 153 76 0
-0.298779 -0.598827 -0.079772 153 76 0
-0.069495 0.915964 0.114810 153 0 76
0.260306 0.534297 0.215407 153 76 0
0.024051 0.598907 0.236113 153 76 0
-0.036323 0.627752 0.167421 153 76 0
-0.294407 -0.132509 -0.214353 153 76 0
-0.169585 -0.527187 -0.301626 153 76 0
0.052953 0.069893 0.312566 153 76 0
0.003839 -0.329417 -0.301626 153 76 0
0.050184 0.862367 0.109895 153 0 76
0.217577 0.625781 -0.174470 153 76 0
-0.105143 0.637669 0.134790 153 76 0
-0.274123 0.505527 0.127490 153 76 0
-0.002641 0.995320 -0.059046 153 0 76
0.201098 -0.254510 0.310047 153 76 0
-0.233503 0.097193 0.307025 153 76 0
-0.111378 0.756706 0.004746 76 0 153
-0.112937 0.756706 0.046925 76 0 153
-0.013850 0.329561 0.315668 153 76 0
-0.304430 -0.237513 -0.148619 153 76 0
0.312864 -0.343842 -0.029757 153 76 0
0.276619 -0.468084 -0.275627 153 76 0
0.315488 -0.327361 0.208426 153 76 0
0.312864 -0.310537 -0.052442 153 76 0
-0.304430 -0.013927 -0.160797 153 76 0
-0.289379 -0.640764 0.210999 153 76 0
0.262830 -0.539763 0.297563 153 76 0
0.269650 -0.658395 -0.257678 153 76 0
0.310130 0.273505 -0.225533 153 76 0
0.254278 0.286440 -0.287367 153 76 0
0.312864 -0.461369 -0.059700 153 76 0
0.312864 -0.454593 -0.128128 153 76 0
-0.231022 -0.734154 0.160636 153 76 0
0.031554 -0.734154 0.254314 153 76 0
0.293873 -0.519597 -0.257561 153 76 0
-0.097137 -0.671159 0.046850 153 76 0
0.145547 -0.700689 -0.196772 153 76 0
-0.014743 0.277364 0.312566 153 76 0
-0.033240 -0.704072 0.211341 153 76 0
-0.249786 0.562523 0.125433 153 76 0
0.032931 -0.726744 -0.264109 153 76 0
-0.024180 0.890330 0.097342 153 0 76
-0.018397 -0.060451 0.312566 153 76 0
-0.059721 -0.664829 -0.009994 153 76 0
0.131728 0.165785 0.315668 153 76 0
0.179022 0.432944 -0.301626 153 76 0
0.040317 0.854067 0.093320 76 0 153
-0.041710 0.386531 0.312566 153 76 0
-0.066144 -0.723327 0.226859 153 76 0
-0.095999 0.922207 0.056302 153 0 76
0.279232 -0.193182 -0.273977 153 76 0
0.036523 -0.106665 -0.304728 153 76 0
-0.233582 0.593247 -0.057844 153 76 0
0.266667 0.499789 0.258936 153 76 0
0.111054 -0.262079 0.311139 153 76 0
0.271384 -0.582902 -0.271916 153 76 0
0.312864 -0.393673 -0.152085 153 76 0
0.313086 -0.267152 0.123812 153 76 0
-0.130461 -0.733902 -0.261396 153 76 0
-0.072132 0.434204 -0.304728 153 76 0
-0.304430 -0.520114 0.075132 153 76 0
-0.282719 -0.302307 -0.250045 153 76 0
-0.227135 -0.444115 0.305359 153 76 0
-0.295774 -0.618930 0.243965 153 76 0
-0.304430 0.353911 -0.151434 153 76 0
0.315966 -0.321855 -0.083565 153 76 0
0.031868 -0.209015 0.312566 153 76 0
0.264798 -0.318768 0.291609 153 76 0
0.304634 0.480403 -0.105261 153 76 0
-0.301328 -0.186988 -0.105539 153 76 0
-0.080634 0.868678 0.043514 153 0 76
-0.304430 0.189857 0.175896 153 76 0
0.073467 0.839565 0.120615 153 0 76
-0.092952 0.591918 0.245522 153 76 0
0.312864 -0.548677 0.107027 153 76 0
0.304249 0.181150 -0.231581 153 76 0
0.088073 0.322731 0.315668 153 76 0
-0.297030 0.365473 0.229803 153 76 0
0.073738 -0.664829 0.090223 153 76 0
0.306748 -0.368207 -0.022887 153 76 0
0.194528 -0.668126 0.296968 153 76 0
-0.216309 0.515784 0.274969 153 76 0
-0.265117 -0.245057 0.283251 153 76 0
-0.218651 0.280689 -0.297299 153 76 0
0.287375 -0.479136 0.259269 153 76 0
0.175694 0.487326 0.300685 153 76 0
-0.244303 -0.073251 -0.290793 153 76 0
-0.010660 0.624054 0.113196 153 76 0
0.312864 0.323207 0.090540 153 76 0
-0.143741 0.241154 -0.304728 153 76 0
-0.231154 0.587000 0.121145 153 76 0
-0.115497 -0.705065 0.277963 153 76 0
0.315966 0.034627 -0.126467 153 76 0
-0.036649 0.228216 -0.304728 153 76 0
0.311830 -0.060399 0.231465 153 76 0
-0.194381 0.638607 0.188044 153 76 0
0.049762 0.460003 -0.298431 153 76 0
0.098672 -0.584098 0.309937 153 76 0
-0.301328 -0.437626 -0.108998 153 76 0
-0.301328 0.264347 -0.171949 153 76 0
0.288097 -0.693120 -0.018707 153 76 0
0.312864 0.138928 0.136859 153 76 0
-0.243646 -0.727193 0.137662 153 76 0
-0.251202 0.559839 -0.058818 153 76 0
0.311831 -0.479630 -0.153276 153 76 0
0.259412 0.554521 -0.161007 153 76 0
0.029187 -0.018227 -0.301626 153 76 0
0.117644 0.188128 0.312566 153 76 0
-0.103885 0.718528 -0.054258 76 0 153
0.303311 -0.018329 0.252948 153 76 0
-0.220443 -0.192788 0.311459 153 76 0
-0.109148 0.823518 -0.006942 153 0 76
0.251634 0.580894 0.064351 153 76 0
0.129630 0.602095 0.234431 153 76 0
0.305299 -0.149763 0.227045 153 76 0
-0.029912 -0.300423 0.315668 153 76 0
-0.213480 -0.547996 -0.298519 153 76 0
0.199595 -0.692843 0.097560 153 76 0
0.067538 -0.734154 -0.242748 153 76 0
-0.278698 -0.673487 -0.050994 153 76 0
-0.301328 0.344237 0.028236 153 76 0
0.062024 0.882622 -0.094050 153 0 76
0.226879 0.627831 -0.126479 153 76 0
-0.304430 0.102445 0.050545 153 76 0
-0.304430 0.023308 0.140165 153 76 0
-0.021024 0.463108 0.307734 153 76 0
0.315966 0.170656 -0.149529 153 76 0
-0.198342 -0.430022 0.311885 153 76 0
0.094162 0.469054 0.310321 153 76 0
-0.150251 0.430244 0.315668 153 76 0
0.315966 -0.403184 -0.072724 153 76 0
-0.157397 0.061164 0.315668 153 76 0
-0.203733 0.649844 -0.118355 153 76 0
-0.301328 0.191746 -0.017756 153 76 0
-0.301328 -0.054224 -0.030078 153 76 0
0.006192 0.366648 0.315668 153 76 0
0.310290 -0.470538 -0.011006 153 76 0
0.306398 -0.328061 -0.225252 153 76 0
0.315966 -0.277765 -0.005939 153 76 0
-0.019026 -0.443111 0.312566 153 76 0
0.315966 -0.403480 0.135834 153 76 0
0.233962 0.131198 -0.296017 153 76 0
0.101407 -0.664829 0.096599 153 76 0
0.057534 -0.413767 -0.301626 153 76 0
0.155487 -0.671159 0.098541 153 76 0
-0.261742 0.369277 0.290139 153 76 0
0.118344 -0.664829 -0.091221 153 76 0
-0.137605 -0.188372 -0.301626 153 76 0
-0.021135 -0.106714 -0.304728 153 76 0
0.300722 -0.659825 0.082084 153 76 0
0.156245 0.077335 0.312566 153 76 0
0.198359 0.681908 -0.035723 153 76 0
-0.271993 0.520418 -0.095875 153 76 0
-0.049477 -0.282552 -0.304728 153 76 0
-0.197157 -0.300222 -0.304252 153 76 0
-0.174716 -0.139569 -0.299441 153 76 0
-0.301328 -0.180896 0.103727 153 76 0
0.312864 -0.120408 0.000378 153 76 0
-0.283737 -0.541856 -0.248522 153 76 0
-0.117055 0.942060 0.055351 153 0 76
0.300418 0.028688 -0.239365 153 76 0
-0.273842 -0.103337 0.278748 153 76 0
-0.205897 0.210717 -0.300028 153 76 0
-0.109171 -0.306432 -0.301626 153 76 0
0.093360 -0.253257 0.306906 153 76 0
-0.129908 -0.712994 -0.209971 153 76 0
0.171311 0.718528 0.061983 153 76 0
-0.005647 0.623331 -0.145885 153 76 0
-0.304430 0.080788 0.186575 153 76 0
0.130150 -0.671159 -0.003598 153 76 0
0.030204 -0.720778 -0.218321 153 76 0
0.292359 -0.681881 0.034769 153 76 0
0.272994 -0.145828 -0.270932 153 76 0
0.270519 -0.303002 -0.281485 153 76 0
0.282200 0.176577 0.276451 153 76 0
-0.218577 -0.726622 0.258754 153 76 0
0.001515 -0.616246 0.311641 153 76 0
0.174041 -0.614725 -0.301276 153 76 0
-0.140214 -0.356389 -0.299299 153 76 0
0.191286 0.520228 0.282660 153 76 0
-0.077760 0.890330 0.058341 153 0 76
0.008652 0.031951 -0.301626 153 76 0
0.313560 -0.612213 -0.163737 153 76 0
-0.301328 0.349450 -0.027758 153 76 0
-0.218932 0.621026 -0.065067 153 76 0
0.133490 -0.673116 0.290077 153 76 0
-0.094741 0.988451 0.087357 153 0 76
-0.183518 -0.611768 0.311905 153 76 0
0.232083 0.589074 -0.138211 153 76 0
0.153661 0.365266 0.312566 153 76 0
0.195921 0.452933 0.315668 153 76 0
-0.301328 0.418873 -0.027418 153 76 0
-0.218442 -0.678677 -0.273257 153 76 0
-0.301328 -0.060439 -0.084676 153 76 0
-0.246997 -0.727193 -0.010576 153 76 0
0.299553 -0.166257 0.252059 153 76 0
0.088756 0.690872 0.193333 153 76 0
-0.075982 0.383088 0.315668 153 76 0
-0.298898 0.143261 -0.224637 153 76 0
0.200042 0.593691 -0.119640 153 76 0
-0.297688 0.209855 0.239140 153 76 0
0.033206 -0.664829 0.114382 153 76 0
0.315966 -0.009343 0.144699 153 76 0
0.270746 0.544657 -0.092747 153 76 0
0.219527 0.200343 -0.299611 153 76 0
-0.020439 0.936866 0.135726 153 0 76
-0.146486 0.146594 -0.304728 153 76 0
0.270718 0.524076 -0.213836 153 76 0
-0.132393 0.718528 0.166552 153 76 0
0.312864 0.277562 -0.078709 153 76 0
-0.247271 -0.127050 -0.287489 153 76 0
0.170675 0.519860 0.283526 153 76 0
0.009937 -0.349526 -0.304728 153 76 0
-0.165634 0.411464 -0.301626 153 76 0
0.286801 -0.375179 -0.256650 153 76 0
0.315966 0.405072 0.115284 153 76 0
-0.209892 0.525966 -0.259930 153 76 0
-0.304430 0.256819 -0.032114 153 76 0
-0.080681 -0.131293 0.313071 153 76 0
0.139540 0.248607 0.312566 153 76 0
0.013677 0.044124 0.312566 153 76 0
-0.119813 -0.645748 0.305761 153 76 0
0.315966 -0.572389 0.138485 153 76 0
-0.301826 -0.360383 -0.137505 153 76 0
-0.199557 0.430279 -0.304094 153 76 0
-0.303082 0.314591 0.217935 153 76 0
0.214754 -0.547622 0.314795 153 76 0
-0.221195 -0.728524 0.106760 153 76 0
0.109323 0.874319 0.051987 153 0 76
0.147810 -0.237297 -0.301152 153 76 0
0.089907 0.891063 -0.097059 153 0 76
0.044950 0.719541 0.122394 76 0 153
-0.035546 0.948574 -0.100239 153 0 76
-0.262386 -0.716508 0.108919 153 76 0
-0.301328 -0.406769 0.147269 153 76 0
0.191083 0.594982 -0.064673 153 76 0
-0.300471 -0.465253 0.091122 153 76 0
-0.233745 0.543533 0.228358 153 76 0
0.019759 -0.334672 0.315668 153 76 0
0.224043 0.633207 -0.078702 153 76 0
0.026449 -0.174494 -0.301626 153 76 0
0.282460 0.039574 0.276155 153 76 0
-0.090576 -0.279617 0.312566 153 76 0
0.145156 -0.197846 -0.304728 153 76 0
-0.274784 0.515126 0.102158 153 76 0
0.042104 -0.647002 -0.294345 153 76 0
0.043676 -0.664829 0.153656 153 76 0
-0.177156 -0.727193 -0.238595 153 76 0
-0.114178 -0.219489 -0.304728 153 76 0
0.003540 0.085811 -0.301626 153 76 0
0.016261 -0.045447 -0.304728 153 76 0
0.312864 -0.196245 -0.136250 153 76 0
-0.301328 -0.339215 0.090959 153 76 0
0.281323 -0.031955 0.283084 153 76 0
-0.167075 -0.416596 0.315668 153 76 0
-0.109523 0.639540 -0.209465 153 76 0
-0.117262 0.128431 0.312566 153 76 0
0.108821 -0.579045 -0.300639 153 76 0
-0.300186 0.270940 -0.220843 153 76 0
-0.177207 -0.343385 0.315668 153 76 0
0.181797 0.596320 0.208564 153 76 0
-0.229325 0.065544 -0.297503 153 76 0
-0.031067 -0.321956 -0.301626 153 76 0
-0.286375 0.369874 0.255389 153 76 0
0.098912 0.507460 -0.279125 153 76 0
-0.057576 0.573096 -0.238785 153 76 0
0.040153 0.180222 -0.301626 153 76 0
-0.092245 0.756706 0.064458 76 0 153
0.212941 0.591832 0.157396 153 76 0
-0.254482 0.279307 -0.279854 153 76 0
-0.091131 0.718528 -0.136048 153 76 0
-0.297875 -0.489791 0.087979 153 76 0
-0.301328 -0.285067 0.027292 153 76 0
0.309309 0.114648 0.226975 153 76 0
-0.064773 0.923142 0.094372 153 0 76
0.028860 -0.285687 -0.301626 153 76 0
0.302452 -0.641265 0.044724 153 76 0
0.312200 -0.378961 -0.093241 153 76 0
0.307234 -0.596481 -0.141594 153 76 0
-0.301328 -0.329427 -0.127789 153 76 0
0.306688 -0.366799 0.202688 153 76 0
-0.161726 0.435107 -0.301626 153 76 0
0.077317 0.017620 0.312566 153 76 0
0.315966 0.192852 -0.174485 153 76 0
-0.260391 -0.417940 -0.280383 153 76 0
0.268374 -0.686953 0.249404 153 76 0
0.079576 0.994143 0.104207 153 0 76
0.013403 0.620586 0.160616 153 76 0
0.085492 0.825148 -0.045674 76 0 153
-0.072698 0.737175 0.100322 76 0 153
0.269169 0.367434 0.288550 153 76 0
0.144770 -0.541614 0.315668 153 76 0
0.248654 0.586544 0.136810 153 76 0
-0.281821 -0.249405 0.252463 153 76 0
-0.143715 -0.521360 -0.301626 153 76 0
0.242888 -0.584044 -0.295771 153 76 0
-0.301328 0.318639 -0.163178 153 76 0
-0.152097 0.644435 0.003825 153 76 0
-0.301328 -0.074807 0.170282 153 76 0
-0.301328 0.208844 0.098435 153 76 0
-0.115043 -0.531806 0.312566 153 76 0
-0.304430 0.192498 -0.055913 153 76 0
-0.004917 0.995320 0.078586 153 0 76
0.312864 -0.532785 -0.130796 153 76 0
0.254965 -0.727193 -0.072793 153 76 0
0.299840 -0.648154 -0.110873 153 76 0
-0.113269 0.638840 -0.021628 153 76 0
-0.098857 0.978840 -0.038461 153 0 76
-0.123249 0.987480 0.026569 153 0 76
0.315966 -0.084613 0.108434 153 76 0
-0.043376 0.003222 -0.304728 153 76 0
0.157457 0.718528 0.028113 153 76 0
0.126572 -0.512988 0.315668 153 76 0
0.315966 -0.116652 0.090891 153 76 0
-0.015250 0.648718 -0.204625 153 76 0
0.094855 0.760348 0.037034 76 0 153
0.315966 -0.068463 0.049469 153 76 0
0.058182 -0.312356 0.312566 153 76 0
0.138573 0.355160 -0.301626 153 76 0
-0.301328 -0.403283 -0.010029 153 76 0
-0.271061 -0.166015 0.281920 153 76 0
0.085768 0.786335 -0.060993 76 0 153
-0.076202 0.882228 -0.098723 153 0 76
-0.013698 0.408405 0.315668 153 76 0
0.201098 0.547617 -0.253273 153 76 0
-0.170194 0.208533 -0.301626 153 76 0
-0.045271 -0.405870 0.315668 153 76 0
-0.304430 -0.195500 -0.054191 153 76 0
0.062371 -0.197322 -0.301626 153 76 0
0.008727 -0.734154 -0.227584 153 76 0
-0.295713 0.475444 0.046817 153 76 0
-0.221009 0.617086 0.040324 153 76 0
-0.213885 -0.641323 -0.286041 153 76 0
-0.304430 -0.571592 0.147401 153 76 0
-0.185836 0.649297 0.119896 153 76 0
-0.035737 0.806404 0.090439 76 0 153
0.312864 -0.178350 0.145935 153 76 0
-0.043068 -0.664829 0.039098 153 76 0
0.315966 -0.077572 0.150006 153 76 0
0.259205 -0.509717 0.295347 153 76 0
-0.038469 -0.724292 0.227894 153 76 0
0.312864 -0.339356 0.142045 153 76 0
-0.090465 -0.482542 -0.299646 153 76 0
-0.301328 -0.015139 0.148176 153 76 0
-0.263960 -0.712357 0.144934 153 76 0
0.315966 -0.224933 0.070969 153 76 0
-0.295976 -0.592473 0.118325 153 76 0
0.313625 -0.154277 -0.105554 153 76 0
-0.085225 0.798037 -0.046430 76 0 153
-0.036847 0.518100 0.284454 153 76 0
0.261466 0.551400 0.143823 153 76 0
-0.188407 -0.693169 0.024514 153 76 0
0.071914 0.574353 0.249062 153 76 0
-0.039867 0.617191 0.226470 153 76 0
0.312864 0.157324 -0.124987 153 76 0
0.002368 0.718528 0.177823 153 76 0
-0.087926 0.896021 -0.058825 153 0 76
-0.012115 -0.727193 0.244214 153 76 0
0.315966 -0.279939 -0.168276 153 76 0
-0.176503 0.563839 0.251027 153 76 0
-0.112252 -0.671159 0.062164 153 76 0
0.252190 -0.174224 -0.292593 153 76 0
-0.301328 0.409824 0.014905 153 76 0
0.078016 0.995320 0.017191 153 0 76
0.116061 0.356026 0.315668 153 76 0
0.129213 -0.331627 -0.301626 153 76 0
-0.020985 0.883105 -0.105460 153 0 76
-0.201584 -0.082991 -0.300731 153 76 0
-0.268106 -0.154660 -0.269907 153 76 0
-0.221790 0.281205 0.307174 153 76 0
-0.301328 -0.546475 0.167914 153 76 0
-0.301328 -0.109922 -0.002176 153 76 0
0.247608 -0.112607 -0.290657 153 76 0
0.025875 -0.493399 -0.300930 153 76 0
0.011372 0.509267 0.283389 153 76 0
0.021438 0.786425 0.098606 76 0 153
-0.032205 0.133381 0.315668 153 76 0
0.208492 0.352173 0.311975 153 76 0
0.315966 -0.521400 -0.055250 153 76 0
-0.061530 -0.671159 0.161133 153 76 0
0.088393 -0.727193 -0.238206 153 76 0
0.315966 -0.008626 -0.049933 153 76 0
0.311376 -0.631726 0.075767 153 76 0
0.028041 0.806345 -0.096423 76 0 153
-0.139220 -0.677582 0.293691 153 76 0
0.142670 -0.447753 0.315668 153 76 0
0.038708 0.956044 -0.103708 153 0 76
-0.168956 -0.219634 -0.304728 153 76 0
-0.254174 0.416165 -0.284698 153 76 0
-0.301328 -0.309669 0.183444 153 76 0
0.182113 0.596275 -0.001377 153 76 0
0.284114 -0.689629 0.093977 153 76 0
0.096472 -0.671159 0.041064 153 76 0
0.154515 -0.664829 0.023943 153 76 0
0.301840 -0.604325 -0.231357 153 76 0
0.181329 0.248394 0.312566 153 76 0
0.312864 -0.061118 -0.078869 153 76 0
0.272585 -0.531069 -0.279806 153 76 0
0.315966 0.174053 -0.032903 153 76 0
-0.166537 -0.732039 0.272811 153 76 0
0.118133 0.605494 -0.016847 153 76 0
-0.048398 -0.131353 -0.298732 153 76 0
-0.282836 0.454331 -0.256812 153 76 0
-0.142916 0.367973 0.315668 153 76 0
0.127680 0.813973 0.017586 153 0 76
-0.045802 -0.646278 -0.294620 153 76 0
-0.197762 -0.701890 0.038431 153 76 0
0.161886 -0.671159 -0.121611 153 76 0
0.307323 0.441584 -0.233804 153 76 0
0.030669 0.011399 0.315668 153 76 0
0.278940 -0.703276 0.015433 153 76 0
0.134121 -0.466555 -0.304728 153 76 0
-0.290986 -0.109021 0.254546 153 76 0
0.239337 -0.299604 -0.298021 153 76 0
0.304037 0.470683 -0.046670 153 76 0
-0.300841 0.465720 -0.111057 153 76 0
0.112848 -0.434105 -0.304728 153 76 0
0.034103 0.812621 0.095894 76 0 153
-0.176161 0.357147 -0.301626 153 76 0
0.261760 -0.035069 -0.287338 153 76 0
0.286485 0.503963 0.010680 153 76 0
0.207056 -0.577205 -0.300724 153 76 0
-0.246527 -0.689947 0.258843 153 76 0
0.184323 0.595956 0.133517 153 76 0
0.259408 -0.727193 -0.162922 153 76 0
0.315966 0.361458 -0.160370 153 76 0
0.223805 -0.724777 0.190415 153 76 0
-0.105644 -0.052136 0.315668 153 76 0
0.060032 -0.032703 -0.304728 153 76 0
0.312864 -0.345362 0.188336 153 76 0
0.009223 0.291066 0.315668 153 76 0
0.069446 0.718528 -0.133918 153 76 0
-0.137506 -0.159677 0.312381 153 76 0
0.242585 0.304729 0.304031 153 76 0
0.315242 -0.621529 0.021783 153 76 0
0.309083 0.086163 -0.217167 153 76 0
0.213644 -0.406678 -0.303927 153 76 0
0.157056 -0.539401 -0.304728 153 76 0
-0.137642 -0.664829 -0.010266 153 76 0
-0.162213 -0.406456 -0.301626 153 76 0
0.039454 0.957063 0.134742 153 0 76
-0.201116 0.643953 0.052425 153 76 0
0.055659 -0.671159 -0.066452 153 76 0
-0.304430 -0.333107 -0.157375 153 76 0
-0.017012 0.992629 0.128496 153 0 76
-0.242265 0.330088 -0.287602 153 76 0
-0.279640 -0.376405 0.262248 153 76 0
-0.287511 -0.650243 0.152781 153 76 0
-0.108994 0.814061 -0.039845 153 0 76
-0.266952 0.529977 0.066889 153 76 0
0.008460 0.183930 -0.301626 153 76 0
0.237211 -0.100267 0.305855 153 76 0
-0.035287 0.938946 0.111287 153 0 76
0.260523 -0.073556 -0.283525 153 76 0
0.192058 0.596497 0.235038 153 76 0
-0.086838 0.806215 0.025158 76 0 153
0.312864 -0.026824 -0.073601 153 76 0
0.243465 0.541853 -0.221182 153 76 0
0.058014 0.614158 -0.059388 76 0 153
0.119825 0.964110 0.008475 153 0 76
0.302004 0.106333 -0.236148 153 76 0
0.032917 0.748568 -0.134289 76 0 153
-0.027719 -0.245952 0.309280 153 76 0
0.145807 0.738230 -0.019555 76 0 153
0.168081 0.395991 0.315668 153 76 0
0.315966 -0.162456 -0.063262 153 76 0
-0.255142 0.539956 0.183129 153 76 0
0.213327 -0.727193 0.235816 153 76 0
0.171087 -0.180079 0.312566 153 76 0
0.260819 -0.727193 0.088392 153 76 0
-0.304430 -0.555458 0.028507 153 76 0
0.299420 -0.561727 -0.249258 153 76 0
0.315966 -0.030658 -0.036296 153 76 0
-0.128973 -0.287498 -0.301626 153 76 0
-0.116923 0.718528 0.109162 76 0 153
0.294111 -0.677258 -0.075136 153 76 0
0.315966 0.454035 -0.129677 153 76 0
0.298732 0.358641 -0.242784 153 76 0
0.312864 -0.525317 0.107589 153 76 0
-0.304430 0.235684 0.069259 153 76 0
-0.304430 0.106003 0.127234 153 76 0
0.303159 -0.259649 0.229208 153 76 0
0.042304 0.756706 -0.099932 76 0 153
-0.051313 0.737617 0.117758 76 0 153
-0.301328 -0.526704 0.092092 153 76 0
0.036940 0.828952 -0.083778 76 0 153
0.038494 0.834134 0.114737 76 0 153
0.068872 0.951367 -0.111876 153 0 76
-0.021672 0.111423 -0.304728 153 76 0
0.309727 0.162156 0.237662 153 76 0
-0.087649 0.718528 -0.115069 153 76 0
0.034349 0.568139 -0.241399 153 76 0
0.117176 0.908926 0.028596 153 0 76
-0.151132 0.639968 -0.199153 153 76 0
-0.214118 -0.069225 -0.298392 153 76 0
0.103801 0.607560 -0.068214 153 76 0
-0.300189 -0.466120 0.179791 153 76 0
0.073526 0.758348 -0.061269 76 0 153
-0.031023 0.702802 0.187041 153 76 0
-0.304430 0.040103 0.012699 153 76 0
0.312864 0.168709 0.113090 153 76 0
0.088597 0.919136 -0.072985 153 0 76
-0.070009 -0.061624 -0.304728 153 76 0
0.201235 -0.271128 -0.300662 153 76 0
-0.283630 0.272271 -0.255625 153 76 0
-0.166234 -0.072767 0.312566 153 76 0
-0.304430 -0.403024 -0.115217 153 76 0
-0.097695 0.024810 -0.301626 153 76 0
0.252441 0.568511 -0.117023 153 76 0
0.148639 -0.679729 -0.166015 153 76 0
-0.007720 -0.665524 0.298262 153 76 0
-0.299966 -0.318183 -0.221489 153 76 0
-0.301328 0.444491 0.066920 153 76 0
-0.001190 -0.533267 0.312566 153 76 0
0.215719 0.383483 0.311309 153 76 0
-0.235392 0.578801 -0.148015 153 76 0
0.051514 0.759910 -0.077742 76 0 153
0.308784 0.461683 0.089482 153 76 0
-0.073746 0.836740 -0.076546 153 0 76
-0.079821 0.321310 0.312566 153 76 0
-0.106894 0.741954 -0.081142 76 0 153
-0.185485 -0.377827 0.309577 153 76 0
0.004784 0.984547 -0.128106 153 0 76
0.132589 0.822925 -0.033253 153 0 76
0.080069 0.777903 0.079361 76 0 153
-0.074040 0.566003 -0.242526 153 76 0
0.239936 0.114776 0.304930 153 76 0
-0.093267 -0.727193 0.254780 153 76 0
-0.022994 -0.596092 -0.295870 153 76 0
-0.010400 0.390046 -0.301626 153 76 0
-0.078588 0.995320 -0.010686 153 0 76
0.310206 0.204540 0.222463 153 76 0
-0.258324 -0.589654 0.280519 153 76 0
-0.104742 0.994968 0.058387 153 0 76
0.315966 0.153404 -0.063620 153 76 0
-0.252208 -0.655277 -0.256043 153 76 0
-0.301328 -0.411972 -0.072078 153 76 0
-0.304430 0.228053 0.090715 153 76 0
0.310613 -0.619742 0.095497 153 76 0
0.093985 -0.698949 0.200710 153 76 0
-0.277956 -0.620196 0.273639 153 76 0
-0.132494 -0.420950 0.315668 153 76 0
0.186933 0.680185 0.167380 153 76 0
-0.127449 -0.669346 -0.280566 153 76 0
0.088957 -0.666920 0.297733 153 76 0
0.285231 -0.700679 -0.086703 153 76 0
-0.063363 -0.526587 -0.301626 153 76 0
-0.299421 0.467335 -0.196062 153 76 0
0.108446 0.847932 -0.043163 76 0 153
0.162273 -0.230033 0.315668 153 76 0
0.312864 0.304092 -0.029813 153 76 0
0.312864 0.442293 0.142381 153 76 0
0.312864 -0.315210 0.079408 153 76 0
-0.248879 -0.559017 0.299176 153 76 0
0.173631 0.102301 -0.301626 153 76 0
-0.169130 0.398182 0.312566 153 76 0
-0.051448 0.169240 -0.301626 153 76 0
-0.099833 0.510021 0.288715 153 76 0
0.315966 0.030473 -0.175666 153 76 0
0.007176 -0.642237 -0.296152 153 76 0
-0.301328 0.226526 -0.092719 153 76 0
0.304611 -0.608650 0.235367 153 76 0
-0.174262 -0.061573 -0.301626 153 76 0
0.006482 0.995320 -0.006626 153 0 76
0.014003 0.840739 -0.107898 153 0 76
-0.043646 0.661582 -0.197840 153 76 0
-0.300304 -0.616503 0.187483 153 76 0
0.010397 0.520058 -0.272481 153 76 0
0.244507 0.244575 -0.292186 153 76 0
-0.282366 0.151748 0.261515 153 76 0
0.183584 -0.718733 0.272177 153 76 0
-0.280432 -0.682909 -0.072507 153 76 0
0.010318 -0.210799 -0.301626 153 76 0
0.219870 -0.734154 -0.224133 153 76 0
-0.299835 -0.147341 0.128149 153 76 0
0.107611 0.975738 0.056120 153 0 76
-0.301328 0.098131 -0.150489 153 76 0
-0.301328 0.335932 0.168731 153 76 0
0.109484 0.718528 0.082592 76 0 153
-0.304430 0.427733 0.163360 153 76 0
-0.294989 -0.257548 0.224467 153 76 0
0.291017 0.148283 0.265833 153 76 0
0.037732 0.718528 -0.117463 153 76 0
0.303984 -0.651221 -0.032890 153 76 0
0.245507 0.256934 0.306829 153 76 0
0.019833 -0.671772 0.176695 153 76 0
-0.301328 -0.279393 -0.059528 153 76 0
-0.304430 0.134106 -0.029289 153 76 0
-0.136802 -0.248818 0.312099 153 76 0
0.312864 -0.190606 0.088090 153 76 0
0.040421 0.162388 0.312566 153 76 0
0.312864 0.109122 -0.171874 153 76 0
0.188628 -0.238411 -0.300790 153 76 0
0.168507 -0.723205 -0.265451 153 76 0
0.008448 0.549400 0.262223 153 76 0
-0.144553 0.643348 -0.081841 153 76 0
-0.304430 0.361695 -0.082793 153 76 0
-0.083417 0.634538 -0.192847 153 76 0
-0.239203 0.050151 0.304249 153 76 0
-0.015475 0.149937 -0.301626 153 76 0
-0.092064 0.232427 0.312566 153 76 0
-0.304430 -0.292563 -0.122183 153 76 0
0.295731 0.493271 -0.198842 153 76 0
-0.223034 -0.402440 0.310579 153 76 0
0.028122 0.272844 0.312566 153 76 0
-0.086995 -0.694770 -0.190422 153 76 0
0.178176 -0.687893 -0.273534 153 76 0
-0.304430 0.128171 0.100038 153 76 0
0.118206 -0.671159 0.027316 153 76 0
0.166661 0.598501 0.186034 153 76 0
0.235316 0.489737 0.282125 153 76 0
-0.304430 -0.069476 0.129898 153 76 0
0.313902 -0.433818 0.221534 153 76 0
0.155160 0.589172 -0.230262 153 76 0
0.312864 0.056849 -0.097699 153 76 0
-0.148730 0.554493 -0.254320 153 76 0
-0.301328 0.445147 0.106547 153 76 0
-0.145697 -0.734154 0.249568 153 76 0
-0.301328 -0.567127 -0.055722 153 76 0
0.312864 0.238096 -0.066796 153 76 0
-0.106471 0.587166 -0.237088 153 76 0
-0.301259 -0.002715 -0.189285 153 76 0
-0.228692 0.602519 -0.115476 153 76 0
0.093662 0.862521 0.039913 153 0 76
-0.094567 -0.461701 -0.304728 153 76 0
0.093218 -0.231088 0.312566 153 76 0
-0.204745 -0.160015 0.314169 153 76 0
0.079006 -0.714054 -0.268921 153 76 0
-0.007498 0.255348 0.315668 153 76 0
0.315966 0.255949 0.159967 153 76 0
0.315966 -0.068047 0.184885 153 76 0
0.301096 -0.644841 0.153658 153 76 0
-0.289670 -0.601272 -0.229921 153 76 0
0.060021 -0.306474 -0.304728 153 76 0
-0.152463 0.664803 0.200146 153 76 0
0.054250 0.756706 0.108745 76 0 153
-0.304430 0.072213 -0.045771 153 76 0
-0.047978 0.359663 -0.304728 153 76 0
0.039885 0.904035 0.134685 153 0 76
0.105162 0.487447 0.294898 153 76 0
-0.290037 -0.643580 -0.140524 153 76 0
0.186621 -0.040615 0.312566 153 76 0
-0.167498 0.646654 0.123528 153 76 0
0.136683 0.887165 -0.015732 153 0 76
-0.237427 0.585958 -0.074932 153 76 0
-0.207041 0.243619 -0.303311 153 76 0
0.208628 0.473187 0.301233 153 76 0
-0.232623 0.151654 -0.292357 153 76 0
-0.281009 0.492471 -0.136093 153 76 0
0.310929 -0.375050 0.185665 153 76 0
-0.116778 -0.037811 0.312566 153 76 0
0.146623 0.737617 0.016418 76 0 153
-0.093754 0.866506 -0.050782 153 0 76
-0.163106 -0.297071 -0.304728 153 76 0
-0.301328 -0.086610 0.021964 153 76 0
0.268336 0.449686 0.293884 153 76 0
0.188884 0.584752 -0.226189 153 76 0
0.304372 -0.275981 0.250767 153 76 0
0.114127 -0.390727 -0.304728 153 76 0
-0.231511 -0.442455 -0.292906 153 76 0
-0.030990 -0.527363 -0.301626 153 76 0
0.105331 0.995320 0.074941 153 0 76
-0.236401 0.407691 -0.290494 153 76 0
0.315966 -0.032501 -0.165392 153 76 0
0.315966 -0.233112 0.141171 153 76 0
0.209617 -0.326575 -0.304191 153 76 0
0.302259 -0.320466 0.255081 153 76 0
-0.199838 -0.708750 -0.144384 153 76 0
-0.139835 0.642668 -0.126744 153 76 0
-0.098200 0.804456 -0.001038 76 0 153
0.292232 0.409334 0.264015 153 76 0
0.301826 -0.430103 0.255959 153 76 0
-0.301328 0.386629 -0.163600 153 76 0
0.312864 0.208137 0.189265 153 76 0
-0.066271 -0.305848 -0.304728 153 76 0
0.007822 0.267572 -0.304728 153 76 0
-0.011509 0.869066 -0.087453 153 0 76
-0.069306 0.995320 0.021854 153 0 76
-0.303077 -0.242001 0.132246 153 76 0
-0.304430 0.446571 -0.001900 153 76 0
0.150119 -0.671159 -0.046410 153 76 0
0.225596 0.323607 -0.301915 153 76 0
-0.076498 -0.671159 -0.014048 153 76 0
-0.047847 0.101051 0.312566 153 76 0
0.243950 0.525119 -0.236889 153 76 0
-0.304430 0.360275 0.194281 153 76 0
-0.063393 0.950765 -0.084491 153 0 76
0.288214 -0.692813 -0.111644 153 76 0
0.080679 -0.378864 0.309914 153 76 0
-0.298890 -0.022177 0.221357 153 76 0
0.297992 0.150047 -0.251396 153 76 0
0.258797 0.190962 -0.289318 153 76 0
0.051479 -0.727193 0.249141 153 76 0
-0.069891 0.168553 0.312566 153 76 0
-0.013785 0.725020 -0.116035 76 0 153
-0.301328 0.110276 -0.103402 153 76 0
-0.060078 0.995320 0.073016 153 0 76
0.306928 0.022389 -0.223691 153 76 0
-0.083455 0.112398 0.312566 153 76 0
-0.301328 0.164996 -0.162579 153 76 0
-0.209614 0.613194 -0.169733 153 76 0
0.094075 0.864259 -0.093861 153 0 76
0.233018 -0.418715 -0.296338 153 76 0
0.315966 0.120041 -0.048777 153 76 0
0.312864 0.002494 -0.084689 153 76 0
0.286152 0.453944 0.277866 153 76 0
0.315966 -0.524814 -0.005822 153 76 0
0.107736 0.521963 0.282417 153 76 0
0.312864 0.039512 0.138663 153 76 0
0.243337 0.590581 -0.169867 153 76 0
-0.283656 0.248056 0.266526 153 76 0
-0.222982 0.032672 -0.295828 153 76 0
-0.221689 0.454017 0.307161 153 76 0
0.009629 -0.238661 0.311650 153 76 0
0.015619 -0.717256 -0.262400 153 76 0
-0.297342 -0.361492 0.090932 153 76 0
-0.297593 -0.111886 -0.216934 153 76 0
-0.101976 0.936414 -0.030931 153 0 76
-0.154592 -0.652559 -0.286931 153 76 0
-0.159236 -0.667822 0.297391 153 76 0
0.051674 0.615071 0.111763 153 76 0
-0.279451 -0.270888 0.269091 153 76 0
0.094808 -0.346858 -0.304728 153 76 0
0.294100 -0.057751 0.268161 153 76 0
0.027528 -0.127814 0.310823 153 76 0
0.087281 0.868789 -0.074700 153 0 76
0.201118 -0.699052 -0.058288 153 76 0
-0.166003 -0.265487 0.312247 153 76 0
-0.304430 0.143213 0.039140 153 76 0
-0.301328 -0.101992 0.033613 153 76 0
0.046949 -0.181623 -0.304728 153 76 0
0.085683 -0.727193 0.244886 153 76 0
-0.035881 0.031130 0.315668 153 76 0
0.315966 0.439830 0.160492 153 76 0
-0.304430 0.337139 -0.062423 153 76 0
0.312864 0.130915 0.181324 153 76 0
-0.261468 -0.718929 0.024043 153 76 0
-0.082115 -0.437874 0.315668 153 76 0
0.100700 0.608007 0.081145 153 76 0
-0.237737 0.480021 -0.278974 153 76 0
-0.023121 0.210627 -0.304728 153 76 0
0.094630 -0.685961 -0.274266 153 76 0
-0.239737 -0.208208 0.303986 153 76 0
0.304315 -0.442771 -0.239971 153 76 0
-0.048695 -0.163833 -0.304728 153 76 0
-0.304430 0.174141 0.057133 153 76 0
-0.294548 -0.229500 -0.236382 153 76 0
0.130951 -0.364231 0.311814 153 76 0
-0.304430 0.318767 -0.091974 153 76 0
0.223153 -0.629293 -0.298249 153 76 0
-0.113262 0.682890 -0.186602 153 76 0
-0.151692 -0.679361 -0.165140 153 76 0
-0.042299 -0.559786 -0.301626 153 76 0
-0.018736 -0.674868 -0.169075 153 76 0
-0.107054 0.637944 0.087921 76 0 153
0.132728 -0.727193 0.256335 153 76 0
0.093698 0.829943 -0.066338 153 0 76
-0.243477 0.189887 0.297945 153 76 0
0.259384 0.126565 -0.284287 153 76 0
0.224074 -0.579507 0.313158 153 76 0
-0.210137 -0.713427 -0.110023 153 76 0
-0.265534 0.502942 -0.230742 153 76 0
0.136146 -0.635752 0.304244 153 76 0
-0.026394 0.016841 -0.301626 153 76 0
0.198719 -0.657445 -0.289970 153 76 0
-0.303575 -0.355003 -0.050073 153 76 0
-0.019741 0.540986 -0.261443 153 76 0
-0.082916 0.003228 -0.304728 153 76 0
-0.126305 0.937064 -0.006934 153 0 76
0.079110 0.388592 0.312566 153 76 0
0.284293 -0.508402 -0.269046 153 76 0
0.145163 -0.616932 0.314795 153 76 0
-0.224507 -0.523725 -0.299139 153 76 0
-0.024959 0.626114 -0.020682 153 76 0
0.274683 0.526339 -0.017121 153 76 0
-0.301753 -0.267778 0.192106 153 76 0
-0.225553 -0.238488 0.309463 153 76 0
-0.174364 -0.033273 0.312566 153 76 0
0.315010 0.375846 0.215723 153 76 0
-0.124321 0.878938 0.032945 153 0 76
-0.282561 -0.134661 -0.241296 153 76 0
-0.155890 0.718528 0.067531 153 76 0
0.297808 0.257746 -0.251671 153 76 0
-0.127763 0.036315 0.315668 153 76 0
0.280384 0.515531 0.155504 153 76 0
0.256137 -0.734154 0.010156 153 76 0
0.315966 0.447840 0.193611 153 76 0
-0.031778 0.830823 0.133403 153 0 76
0.107897 0.606969 -0.191183 153 76 0
-0.041842 -0.600940 -0.297445 153 76 0
0.076112 0.906655 -0.107644 153 0 76
-0.137418 -0.726027 -0.223950 153 76 0
-0.301924 -0.153770 -0.051944 153 76 0
0.086803 0.856051 -0.043966 153 0 76
0.312379 -0.592479 -0.044685 153 76 0
-0.239927 -0.022505 0.303892 153 76 0
-0.212124 -0.715279 0.154832 153 76 0
0.074657 0.046306 -0.304728 153 76 0
0.147663 -0.728972 -0.221973 153 76 0
0.187324 -0.502990 0.314988 153 76 0
-0.189237 0.340488 0.312481 153 76 0
0.265821 0.553995 0.111417 153 76 0
0.273424 0.476184 -0.253130 153 76 0
0.315345 -0.580555 -0.199677 153 76 0
-0.184736 -0.004443 0.315668 153 76 0
0.278181 0.519706 -0.036756 153 76 0
-0.298765 -0.265749 0.153214 153 76 0
0.312864 -0.285748 0.166935 153 76 0
0.114196 -0.718594 0.272833 153 76 0
0.142937 0.328579 0.312566 153 76 0
-0.051439 0.904087 0.104597 153 0 76
0.214304 -0.472302 -0.302058 153 76 0
-0.304430 0.426125 0.077829 153 76 0
0.145127 -0.502264 0.314752 153 76 0
-0.081185 0.810754 0.042185 76 0 153
0.036537 0.346742 -0.304728 153 76 0
-0.007122 -0.721034 -0.213459 153 76 0
0.310946 -0.241742 0.017700 153 76 0
0.058623 0.954866 0.106400 153 0 76
0.040900 -0.079999 -0.301626 153 76 0
-0.117540 0.840421 0.054179 153 0 76
-0.059205 0.717225 -0.168494 153 76 0
0.162507 -0.023278 0.315668 153 76 0
-0.167632 -0.603879 0.309341 153 76 0
-0.304145 -0.582316 -0.085279 153 76 0
0.249166 0.317703 -0.289888 153 76 0
0.130585 -0.675536 -0.278219 153 76 0
-0.070470 0.098042 -0.304728 153 76 0
-0.048127 -0.365584 -0.296310 153 76 0
-0.304213 -0.620190 -0.046894 153 76 0
-0.304430 -0.514841 -0.169194 153 76 0
-0.010341 0.737617 -0.134514 76 0 153
-0.074909 -0.361101 0.308708 153 76 0
0.233280 0.169913 0.311017 153 76 0
0.018742 0.899254 0.118215 153 0 76
-0.304070 0.459598 0.085697 153 76 0
-0.182201 -0.088459 0.312566 153 76 0
-0.289887 -0.112204 -0.245835 153 76 0
-0.123440 0.947798 0.039637 153 0 76
0.150427 0.600841 -0.071747 153 76 0
-0.284162 -0.351615 0.265769 153 76 0
0.154688 0.138767 -0.301626 153 76 0
0.150575 0.247376 -0.304728 153 76 0
0.312864 0.100875 0.116297 153 76 0
0.007669 0.461378 0.308646 153 76 0
0.224578 -0.618853 0.307380 153 76 0
-0.304430 0.335360 -0.105231 153 76 0
-0.077684 -0.601684 -0.298899 153 76 0
0.208230 0.663191 0.031871 153 76 0
-0.217519 0.143260 0.308624 153 76 0
-0.199449 0.051089 0.315042 153 76 0
-0.141911 0.642967 0.197049 153 76 0
0.075679 0.801678 -0.058463 76 0 153
-0.186851 -0.326100 0.312566 153 76 0
-0.052153 0.630033 -0.197429 153 76 0
0.306224 -0.369646 -0.216630 153 76 0
-0.115072 0.907568 -0.049197 153 0 76
0.312864 0.127805 -0.167615 153 76 0
0.287474 -0.624131 -0.251431 153 76 0
-0.290209 0.401195 0.247613 153 76 0
-0.026146 0.444862 0.312566 153 76 0
0.315966 -0.411522 0.033624 153 76 0
0.304615 0.469588 0.149186 153 76 0
-0.238443 0.573180 0.092974 153 76 0
0.085984 0.499170 0.294438 153 76 0
0.131848 -0.149130 0.311655 153 76 0
0.051244 0.614971 -0.216700 153 76 0
0.196349 0.684584 -0.124246 153 76 0
0.180855 -0.675373 -0.082474 153 76 0
0.315966 0.058004 0.024266 153 76 0
-0.218221 -0.218986 -0.301087 153 76 0
-0.125091 0.349557 -0.304728 153 76 0
0.237036 -0.712134 0.262343 153 76 0
0.005774 0.955224 0.119922 153 0 76
-0.278265 0.497675 0.039562 153 76 0
0.029870 -0.702295 0.209435 153 76 0
0.312513 0.256771 -0.193597 153 76 0
-0.114046 0.989580 -0.040627 153 0 76
-0.210887 0.466158 -0.298222 153 76 0
-0.199973 -0.601014 0.307442 153 76 0
0.313655 -0.317395 -0.211839 153 76 0
-0.301031 -0.265556 0.017798 153 76 0
0.169399 0.241710 -0.301626 153 76 0
-0.105574 0.965769 0.029090 153 0 76
0.315966 0.202648 0.035011 153 76 0
-0.237987 -0.083000 0.304849 153 76 0
0.286002 0.105581 0.272116 153 76 0
-0.299526 0.355659 -0.207216 153 76 0
0.068830 -0.033552 0.315668 153 76 0
-0.148827 -0.099703 0.315668 153 76 0
0.137086 0.593875 -0.233549 153 76 0
-0.037029 0.627854 -0.117449 153 76 0
-0.011103 0.799227 -0.087507 76 0 153
0.118116 -0.671159 0.067747 153 76 0
0.310186 -0.584248 0.176322 153 76 0
0.315966 0.000282 0.060327 153 76 0
-0.275978 0.512861 0.180307 153 76 0
0.074763 0.510832 -0.271623 153 76 0
-0.304430 0.282326 0.009804 153 76 0
0.315966 0.381146 -0.006265 153 76 0
0.313221 -0.360818 -0.125614 153 76 0
-0.214341 -0.382849 0.309967 153 76 0
