-0.270236 -0.642856 -0.122591 0.300000 0.000000 0.600000
-0.276758 -0.853683 -0.178034 0.300000 0.000000 0.600000
0.173407 -0.878913 -0.245984 0.500000 0.000000 0.500000
-0.325099 0.484525 -0.253565 0.300000 0.000000 0.600000
-0.282568 0.204301 -0.339029 0.500000 0.000000 0.500000
-0.179931 0.469951 0.291716 0.000000 0.000000 1.000000
-0.325099 0.589548 0.048410 0.300000 0.000000 0.600000
-0.111878 0.802615 -0.308523 0.300000 0.000000 0.600000
-0.325099 -0.770479 -0.261244 0.300000 0.000000 0.600000
0.319497 0.506060 -0.177707 0.300000 0.000000 0.600000
0.235395 0.790800 0.292716 0.000000 0.000000 1.000000
-0.325099 -0.672468 0.076096 0.300000 0.000000 0.600000
0.243669 -0.211078 0.292582 0.600000 0.000000 0.300000
-0.047692 0.905499 -0.263901 0.300000 0.000000 0.600000
-0.324799 0.888914 -0.071986 0.300000 0.000000 0.600000
-0.023813 -0.781229 -0.175892 0.500000 0.000000 0.500000
0.319497 0.808313 0.193201 0.300000 0.000000 0.600000
0.165485 -0.942252 -0.123470 0.300000 0.000000 0.600000
0.318900 0.239270 -0.286290 0.300000 0.000000 0.600000
-0.094052 -0.780104 -0.081442 0.300000 0.000000 0.600000
0.319497 -0.799265 0.039354 0.300000 0.000000 0.600000
0.201798 0.904579 -0.124883 0.300000 0.000000 0.600000
0.202494 0.824717 -0.308523 0.300000 0.000000 0.600000
-0.300279 -0.486184 -0.333748 0.500000 0.000000 0.500000
0.319497 0.624127 0.168291 0.300000 0.000000 0.600000
-0.325099 -0.138411 -0.003633 0.300000 0.000000 0.600000
0.006055 -0.617075 -0.182950 0.300000 0.000000 0.600000
-0.325099 0.285392 -0.130311 0.300000 0.000000 0.600000
0.318498 -0.515186 0.028555 0.300000 0.000000 0.600000
-0.005945 0.018210 0.306434 0.000000 0.000000 1.000000
-0.324934 0.250503 -0.291814 0.300000 0.000000 0.600000
-0.154795 0.791777 -0.308523 0.300000 0.000000 0.600000
-0.049657 0.905350 -0.286176 0.300000 0.000000 0.600000
-0.325099 -0.680227 -0.239630 0.300000 0.000000 0.600000
0.271059 -0.775787 -0.155334 0.300000 0.000000 0.600000
-0.198637 0.501949 -0.340126 0.500000 0.000000 0.500000
-0.103114 -0.413022 0.291731 0.600000 0.000000 0.300000
0.264810 0.774391 -0.308523 0.300000 0.000000 0.600000
0.316636 -0.936716 -0.122502 0.300000 0.000000 0.600000
0.319497 0.520701 -0.257947 0.300000 0.000000 0.600000
-0.178726 0.396897 0.291716 0.000000 0.000000 1.000000
0.319497 0.727708 0.203063 0.300000 0.000000 0.600000
-0.325099 0.449787 -0.234015 0.300000 0.000000 0.600000
0.317618 -0.325504 -0.298970 0.300000 0.000000 0.600000
-0.015356 -0.114594 -0.341865 0.500000 0.000000 0.500000
-0.306528 0.904375 0.160013 0.300000 0.000000 0.600000
-0.273592 0.047479 -0.340374 0.500000 0.000000 0.500000
0.044479 0.555508 0.292716 0.000000 0.000000 1.000000
-0.324895 0.520719 0.258281 0.000000 0.000000 1.000000
0.146402 -0.100288 -0.340913 0.500000 0.000000 0.500000
0.202037 -0.276581 0.292716 0.600000 0.000000 0.300000
0.211110 -0.604029 -0.333597 0.500000 0.000000 0.500000
0.163742 -0.360474 0.292716 0.600000 0.000000 0.300000
-0.056015 0.034100 0.295765 0.000000 0.000000 1.000000
0.180793 0.618127 -0.321497 0.500000 0.000000 0.500000
0.319497 0.848885 -0.230871 0.300000 0.000000 0.600000
-0.208526 -0.115039 0.313445 0.600000 0.000000 0.300000
-0.200154 -0.213422 0.292008 0.600000 0.000000 0.300000
-0.086669 0.905499 -0.111272 0.300000 0.000000 0.600000
-0.289859 0.830649 0.292046 0.000000 0.000000 1.000000
-0.049768 -0.617075 -0.246499 0.300000 0.000000 0.600000
-0.180596 -0.227565 -0.341162 0.500000 0.000000 0.500000
0.164064 -0.942248 0.197574 0.300000 0.000000 0.600000
-0.276662 -0.804036 -0.265370 0.300000 0.000000 0.600000
-0.074783 -0.872958 -0.101590 0.500000 0.000000 0.500000
-0.211976 -0.942252 -0.102137 0.300000 0.000000 0.600000
-0.013782 -0.894752 -0.297197 0.300000 0.000000 0.600000
-0.073745 0.569655 -0.341929 0.500000 0.000000 0.500000
0.199893 0.905496 -0.053641 0.300000 0.000000 0.600000
-0.188946 -0.153107 -0.340529 0.500000 0.000000 0.500000
0.318498 0.044914 -0.020414 0.300000 0.000000 0.600000
0.182366 0.176436 -0.340626 0.500000 0.000000 0.500000
-0.074102 -0.942252 -0.202721 0.300000 0.000000 0.600000
-0.325099 -0.719210 -0.096495 0.300000 0.000000 0.600000
0.189121 -0.778357 -0.196306 0.500000 0.000000 0.500000
0.318415 -0.690735 -0.295537 0.300000 0.000000 0.600000
-0.110602 -0.860343 -0.084474 0.300000 0.000000 0.600000
0.319038 0.308692 -0.224802 0.300000 0.000000 0.600000
0.276179 -0.745121 -0.305201 0.300000 0.000000 0.600000
-0.267740 0.032661 0.296078 1.000000 0.000000 0.000000
0.233291 0.475770 0.291789 0.000000 0.000000 1.000000
-0.155662 -0.456517 0.291716 0.600000 0.000000 0.300000
-0.325099 0.227281 0.039632 0.300000 0.000000 0.600000
-0.153477 -0.080512 0.292372 0.000000 0.000000 1.000000
0.319049 -0.456428 -0.145488 0.300000 0.000000 0.600000
0.318516 -0.693579 0.046272 0.300000 0.000000 0.600000
0.198693 0.890068 0.283128 0.000000 0.000000 1.000000
0.319497 0.400339 -0.259902 0.300000 0.000000 0.600000
-0.213280 -0.942252 -0.005956 0.300000 0.000000 0.600000
0.220215 0.343470 -0.340845 0.500000 0.000000 0.500000
0.319330 0.836504 0.237141 0.300000 0.000000 0.600000
0.318498 -0.021130 0.028483 0.300000 0.000000 0.600000
0.265737 -0.867911 -0.252055 0.300000 0.000000 0.600000
0.004303 -0.873531 0.251285 0.600000 0.000000 0.300000
-0.276661 -0.676761 -0.166816 0.300000 0.000000 0.600000
0.319497 0.794174 -0.039570 0.300000 0.000000 0.600000
0.318498 -0.210038 0.030829 0.300000 0.000000 0.600000
-0.279559 -0.395126 0.292233 0.600000 0.000000 0.300000
0.319307 -0.118489 0.215048 0.300000 0.000000 0.600000
-0.325099 -0.474388 -0.009960 0.300000 0.000000 0.600000
0.318498 0.138801 -0.246470 0.300000 0.000000 0.600000
0.155081 -0.848455 0.286250 0.600000 0.000000 0.300000
0.318814 0.278559 0.003067 0.300000 0.000000 0.600000
-0.325099 -0.039269 -0.082701 0.300000 0.000000 0.600000
-0.061161 -0.265299 -0.341964 0.500000 0.000000 0.500000
-0.264863 -0.948715 0.175459 0.300000 0.600000 0.000000
0.149052 -0.868505 -0.143838 0.500000 0.000000 0.500000
-0.050059 -0.725079 -0.081442 0.300000 0.000000 0.600000
-0.155742 -0.695596 -0.081442 0.300000 0.000000 0.600000
-0.325099 -0.129272 -0.171859 0.300000 0.000000 0.600000
0.179084 0.905499 0.065409 0.300000 0.000000 0.600000
0.319010 0.291667 -0.252604 0.300000 0.000000 0.600000
-0.067644 -0.941270 -0.301485 0.300000 0.000000 0.600000
-0.241815 -0.946809 -0.260406 0.600000 0.000000 0.300000
0.318498 -0.185174 -0.099332 0.300000 0.000000 0.600000
0.319418 0.685357 0.222423 0.300000 0.000000 0.600000
0.318775 0.031729 0.121118 0.300000 0.000000 0.600000
0.319272 -0.257386 0.260811 0.300000 0.000000 0.600000
0.284564 -0.944641 0.147451 0.300000 0.000000 0.600000
-0.080008 -0.647275 -0.085315 0.300000 0.000000 0.600000
-0.029714 0.069204 0.292716 0.000000 0.000000 1.000000
0.318980 0.046717 0.172204 0.300000 0.000000 0.600000
0.292581 -0.096369 0.294222 0.600000 0.000000 0.300000
0.112432 -0.942252 -0.156656 0.300000 0.000000 0.600000
-0.217237 -0.795953 -0.081433 0.300000 0.000000 0.600000
-0.024646 -0.159498 -0.341719 0.500000 0.000000 0.500000
0.111108 -0.522581 -0.341593 0.500000 0.000000 0.500000
-0.280003 0.325896 -0.339414 0.500000 0.000000 0.500000
0.318498 0.079872 0.025893 0.300000 0.000000 0.600000
-0.325099 0.458188 -0.049728 0.300000 0.000000 0.600000
0.254780 0.720406 -0.308523 0.300000 0.000000 0.600000
0.226868 -0.622405 -0.115384 0.300000 0.000000 0.600000
-0.325099 -0.195805 0.009465 0.300000 0.000000 0.600000
0.112524 0.884004 -0.308436 0.300000 0.000000 0.600000
-0.325099 0.176292 0.142091 0.300000 0.000000 0.600000
0.211306 0.683871 -0.308524 0.300000 0.000000 0.600000
-0.325099 0.363175 -0.257246 0.300000 0.000000 0.600000
-0.105597 0.904887 0.042113 0.300000 0.000000 0.600000
0.159162 -0.617075 -0.260159 0.300000 0.000000 0.600000
-0.081130 -0.000931 -0.342147 0.500000 0.000000 0.500000
0.283762 0.773561 0.292214 0.000000 0.000000 1.000000
0.319351 0.789608 0.231217 0.300000 0.000000 0.600000
0.318753 -0.664488 -0.022187 0.300000 0.000000 0.600000
-0.325099 -0.133594 0.019586 0.300000 0.000000 0.600000
0.275568 -0.944586 -0.215168 0.300000 0.000000 0.600000
-0.251972 -0.098865 -0.340907 0.500000 0.000000 0.500000
0.284934 -0.839578 0.290740 0.600000 0.000000 0.300000
0.319096 -0.453569 -0.101737 0.300000 0.000000 0.600000
-0.178462 -0.753120 -0.164120 0.500000 0.000000 0.500000
-0.325099 -0.477349 0.027294 0.300000 0.000000 0.600000
-0.325099 -0.882419 -0.046013 0.300000 0.000000 0.600000
0.260361 0.724533 0.291835 0.000000 0.000000 1.000000
0.239961 0.522415 0.291716 0.000000 0.000000 1.000000
-0.276202 -0.708080 -0.114072 0.300000 0.000000 0.600000
0.318794 -0.540286 -0.208988 0.300000 0.000000 0.600000
-0.022996 0.473236 0.291720 0.000000 0.000000 1.000000
-0.325099 -0.646892 0.144994 0.300000 0.000000 0.600000
0.319178 -0.476682 0.245342 0.300000 0.000000 0.600000
0.013194 0.902926 0.237213 0.300000 0.000000 0.600000
0.207090 0.304947 -0.340950 0.500000 0.000000 0.500000
-0.325099 -0.289203 -0.200691 0.300000 0.000000 0.600000
-0.077767 0.123946 0.292716 0.000000 0.000000 1.000000
-0.228964 0.391434 -0.340559 0.500000 0.000000 0.500000
-0.325099 -0.083943 0.194340 0.300000 0.000000 0.600000
-0.206839 0.770600 -0.308523 0.300000 0.000000 0.600000
-0.325099 -0.550010 0.196933 0.300000 0.000000 0.600000
0.206977 -0.882604 -0.130104 0.300000 0.000000 0.600000
0.143104 -0.868613 -0.087831 0.300000 0.000000 0.600000
-0.116787 -0.012990 0.311399 1.000000 0.000000 0.000000
0.005368 0.784080 -0.308523 0.300000 0.000000 0.600000
-0.204610 0.288536 -0.340158 0.500000 0.000000 0.500000
0.234228 -0.054176 0.296637 0.000000 0.000000 1.000000
-0.210747 0.612897 0.291716 0.000000 0.000000 1.000000
0.132655 -0.395023 0.292716 0.600000 0.000000 0.300000
0.318935 0.068337 -0.290322 0.300000 0.000000 0.600000
0.077125 -0.474119 -0.342258 0.500000 0.000000 0.500000
-0.325099 -0.049336 -0.037680 0.300000 0.000000 0.600000
0.059699 -0.479669 0.292716 0.600000 0.000000 0.300000
0.170102 -0.585655 0.292716 0.600000 0.000000 0.300000
0.274073 -0.034282 -0.339452 0.500000 0.000000 0.500000
-0.228361 -0.659201 0.291716 0.600000 0.000000 0.300000
-0.325099 -0.835066 0.105852 0.300000 0.000000 0.600000
-0.325099 0.326364 -0.032717 0.300000 0.000000 0.600000
-0.325099 0.719507 0.171649 0.300000 0.000000 0.600000
-0.325099 0.590572 -0.112763 0.300000 0.000000 0.600000
0.204368 0.688146 0.292402 0.000000 0.000000 1.000000
-0.325008 0.241248 0.223979 0.300000 0.000000 0.600000
-0.002455 0.890041 -0.308288 0.300000 0.000000 0.600000
0.280090 0.908286 0.150255 0.300000 0.000000 0.600000
0.242999 -0.407767 -0.340560 0.500000 0.000000 0.500000
0.018912 -0.652789 -0.082040 0.300000 0.000000 0.600000
0.026345 0.095210 -0.341823 0.500000 0.000000 0.500000
0.081533 -0.644639 0.292716 0.600000 0.000000 0.300000
0.273754 0.499175 -0.339500 0.500000 0.000000 0.500000
0.076864 0.316368 -0.342187 0.500000 0.000000 0.500000
0.298006 0.802006 0.289624 0.000000 0.000000 1.000000
-0.217617 0.788312 0.291716 0.000000 0.000000 1.000000
0.125725 0.485551 0.291789 0.000000 0.000000 1.000000
-0.188364 -0.376913 -0.340588 0.500000 0.000000 0.500000
0.280674 0.387560 0.292716 0.000000 0.000000 1.000000
0.045592 -0.894090 -0.291220 0.300000 0.000000 0.600000
-0.217206 0.905499 -0.142277 0.300000 0.000000 0.600000
0.318498 -0.058221 0.027051 0.300000 0.000000 0.600000
-0.251326 0.185585 0.292077 0.000000 0.000000 1.000000
0.319497 0.708584 0.141964 0.300000 0.000000 0.600000
-0.325099 -0.683888 -0.167654 0.300000 0.000000 0.600000
0.319497 -0.310051 -0.005725 0.300000 0.000000 0.600000
0.318926 0.114877 0.090709 0.300000 0.000000 0.600000
-0.325099 0.343640 -0.090884 0.300000 0.000000 0.600000
0.319497 -0.840726 -0.179424 0.300000 0.000000 0.600000
0.318498 -0.419593 -0.229750 0.300000 0.000000 0.600000
0.044294 0.796282 -0.308523 0.300000 0.000000 0.600000
-0.239462 -0.942252 0.040423 0.300000 0.000000 0.600000
-0.325099 -0.385430 0.009521 0.300000 0.000000 0.600000
-0.325099 -0.741784 -0.060951 0.300000 0.000000 0.600000
-0.276661 -0.770944 -0.182511 0.300000 0.000000 0.600000
-0.325099 0.831244 0.198756 0.300000 0.000000 0.600000
-0.190839 -0.617152 -0.134949 0.300000 0.000000 0.600000
-0.055932 -0.768682 -0.216065 0.500000 0.000000 0.500000
0.304504 0.191125 -0.324861 0.500000 0.000000 0.500000
0.319497 0.744654 -0.023598 0.300000 0.000000 0.600000
0.085119 0.514945 -0.342264 0.500000 0.000000 0.500000
0.133811 -0.154399 -0.341605 0.500000 0.000000 0.500000
-0.325099 0.264206 -0.044897 0.300000 0.000000 0.600000
0.175518 0.052182 0.292636 0.000000 0.000000 1.000000
-0.325098 0.435080 -0.268485 0.300000 0.000000 0.600000
0.315135 -0.295364 0.283244 0.600000 0.000000 0.300000
0.105485 -0.835675 -0.149067 0.500000 0.000000 0.500000
-0.325099 -0.161024 -0.004606 0.300000 0.000000 0.600000
0.319497 -0.383085 0.123745 0.300000 0.000000 0.600000
-0.179657 -0.617075 -0.190005 0.300000 0.000000 0.600000
-0.238165 -0.710353 -0.305788 0.500000 0.000000 0.500000
0.319497 -0.268966 0.106919 0.300000 0.000000 0.600000
0.114269 -0.677529 0.292716 0.600000 0.000000 0.300000
0.318498 0.175624 -0.049657 0.300000 0.000000 0.600000
-0.325099 -0.008638 -0.084045 0.300000 0.000000 0.600000
0.319227 -0.082071 0.240867 0.300000 0.000000 0.600000
0.095971 -0.081192 -0.341756 0.500000 0.000000 0.500000
0.318498 -0.510799 -0.091893 0.300000 0.000000 0.600000
-0.302530 0.376298 0.292343 0.000000 0.000000 1.000000
-0.140605 0.904539 0.041749 0.300000 0.000000 0.600000
-0.154234 0.652765 0.291716 0.000000 0.000000 1.000000
-0.325099 -0.142250 0.093531 0.300000 0.000000 0.600000
-0.064707 -0.324179 0.291872 0.600000 0.000000 0.300000
0.318727 0.307502 0.205570 0.300000 0.000000 0.600000
-0.173970 0.904786 -0.030365 0.300000 0.000000 0.600000
-0.127289 -0.772829 -0.123746 0.500000 0.000000 0.500000
-0.240448 -0.078937 -0.340139 0.500000 0.000000 0.500000
-0.255256 -0.884854 -0.177756 0.300000 0.000000 0.600000
0.108311 0.905499 0.019355 0.300000 0.000000 0.600000
-0.325036 -0.009390 0.220276 0.300000 0.000000 0.600000
-0.251037 0.610486 -0.340342 0.500000 0.000000 0.500000
-0.053718 -0.551024 -0.323063 0.500000 0.000000 0.500000
-0.186083 -0.496883 0.291716 0.600000 0.000000 0.300000
0.256921 -0.942252 -0.165034 0.300000 0.000000 0.600000
0.319496 -0.844122 -0.267516 0.300000 0.000000 0.600000
-0.108385 -0.366355 -0.341092 0.500000 0.000000 0.500000
0.253603 0.171140 -0.341203 0.500000 0.000000 0.500000
0.079127 0.815911 -0.308523 0.300000 0.000000 0.600000
0.317856 0.887858 0.214216 0.300000 0.000000 0.600000
0.163512 -0.942252 0.049919 0.300000 0.000000 0.600000
0.224314 -0.718037 -0.081945 0.300000 0.000000 0.600000
-0.233458 0.105856 0.291900 0.000000 0.000000 1.000000
0.319497 0.642755 0.028534 0.300000 0.000000 0.600000
0.318498 -0.210248 -0.010688 0.300000 0.000000 0.600000
-0.014140 -0.782243 -0.213355 0.500000 0.000000 0.500000
-0.100498 -0.622086 -0.113612 0.300000 0.000000 0.600000
0.319076 -0.454799 0.185937 0.300000 0.000000 0.600000
0.317228 -0.105329 0.278550 0.300000 0.000000 0.600000
-0.325099 -0.516272 -0.018354 0.300000 0.000000 0.600000
0.303761 -0.181895 -0.325540 0.500000 0.000000 0.500000
-0.324932 0.832729 0.233872 0.300000 0.000000 0.600000
-0.325099 0.375355 -0.157647 0.300000 0.000000 0.600000
0.213491 0.387009 -0.341154 0.500000 0.000000 0.500000
-0.097578 -0.393575 0.291958 0.600000 0.000000 0.300000
0.318498 0.309714 -0.058668 0.300000 0.000000 0.600000
0.027205 0.804034 0.292539 0.000000 0.000000 1.000000
-0.325099 -0.055653 0.203610 0.300000 0.000000 0.600000
0.136595 -0.849027 -0.081382 0.300000 0.000000 0.600000
0.104449 -0.403521 -0.340943 0.500000 0.000000 0.500000
-0.241869 0.905499 -0.193628 0.300000 0.000000 0.600000
0.240127 -0.518432 0.292716 0.600000 0.000000 0.300000
-0.325099 0.740493 -0.020629 0.300000 0.000000 0.600000
0.022262 0.199800 0.292716 0.000000 0.000000 1.000000
0.319404 0.443487 0.163497 0.300000 0.000000 0.600000
0.318659 -0.755138 0.130885 0.300000 0.000000 0.600000
-0.325099 -0.428151 -0.097944 0.300000 0.000000 0.600000
-0.029944 0.847638 0.291887 0.000000 0.000000 1.000000
-0.033799 0.741832 0.291716 0.000000 0.000000 1.000000
0.187652 -0.817739 -0.235104 0.500000 0.000000 0.500000
0.319087 -0.524713 -0.287873 0.300000 0.000000 0.600000
-0.190251 0.545594 0.291716 0.000000 0.000000 1.000000
0.318498 -0.068059 -0.024539 0.300000 0.000000 0.600000
-0.245846 -0.868166 -0.091013 0.300000 0.000000 0.600000
-0.069369 0.062615 0.292716 0.000000 0.000000 1.000000
0.234800 -0.350866 -0.340134 0.500000 0.000000 0.500000
-0.234031 -0.243783 -0.340217 0.500000 0.000000 0.500000
-0.186384 0.070540 -0.340788 0.500000 0.000000 0.500000
0.318649 -0.299336 -0.266990 0.300000 0.000000 0.600000
0.318498 -0.329242 -0.140466 0.300000 0.000000 0.600000
0.318498 0.081271 -0.086064 0.300000 0.000000 0.600000
0.206747 -0.613534 0.292716 0.600000 0.000000 0.300000
0.026471 -0.778731 -0.201231 0.500000 0.000000 0.500000
-0.301003 0.528463 -0.333206 0.500000 0.000000 0.500000
0.319497 0.544408 -0.262094 0.300000 0.000000 0.600000
0.271065 -0.759224 -0.133904 0.300000 0.000000 0.600000
-0.084184 -0.703830 -0.081442 0.300000 0.000000 0.600000
-0.195720 -0.854282 0.276423 0.600000 0.000000 0.300000
0.319493 -0.916891 -0.119783 0.300000 0.000000 0.600000
-0.325099 0.002496 -0.010572 0.300000 0.000000 0.600000
0.235005 0.904497 -0.131059 0.300000 0.000000 0.600000
0.154583 0.905499 -0.263485 0.300000 0.000000 0.600000
0.319497 0.531578 0.067604 0.300000 0.000000 0.600000
0.319323 -0.769398 -0.285042 0.300000 0.000000 0.600000
0.318498 -0.225078 -0.214659 0.300000 0.000000 0.600000
-0.276661 -0.825820 -0.200032 0.300000 0.000000 0.600000
0.148472 -0.942252 0.074183 0.300000 0.000000 0.600000
-0.325099 -0.317234 0.189764 0.300000 0.000000 0.600000
0.319497 0.354287 -0.255853 0.300000 0.000000 0.600000
0.081810 0.905499 -0.018232 0.300000 0.000000 0.600000
-0.219343 -0.472777 -0.341167 0.500000 0.000000 0.500000
0.316966 -0.873032 -0.298884 0.300000 0.000000 0.600000
-0.325099 -0.046589 -0.214967 0.300000 0.000000 0.600000
0.070819 -0.621710 -0.115231 0.300000 0.000000 0.600000
-0.157394 -0.129620 0.316529 0.800000 0.200000 0.500000
0.310634 -0.430632 -0.316183 0.500000 0.000000 0.500000
0.313891 -0.468783 0.285856 0.600000 0.000000 0.300000
-0.253049 -0.624630 -0.198906 0.300000 0.000000 0.600000
0.318997 -0.666502 -0.080406 0.300000 0.000000 0.600000
0.001048 0.405579 0.292355 0.000000 0.000000 1.000000
-0.325099 0.768200 0.156063 0.300000 0.000000 0.600000
0.168561 -0.001973 0.312625 1.000000 0.000000 0.000000
0.223910 0.703731 0.292260 0.000000 0.000000 1.000000
0.318906 0.121855 0.221904 0.300000 0.000000 0.600000
0.114735 -0.567941 -0.310889 0.500000 0.000000 0.500000
-0.325099 -0.201162 0.053978 0.300000 0.000000 0.600000
0.049029 0.905499 0.075659 0.300000 0.000000 0.600000
-0.325099 -0.456693 -0.136313 0.300000 0.000000 0.600000
0.205731 -0.020734 -0.340816 0.500000 0.000000 0.500000
-0.083837 -0.942252 -0.045579 0.300000 0.000000 0.600000
-0.325032 0.880245 0.046501 0.300000 0.000000 0.600000
-0.259195 0.020359 -0.341213 0.500000 0.000000 0.500000
-0.325099 0.622183 -0.168408 0.300000 0.000000 0.600000
0.311902 -0.512030 -0.309454 0.300000 0.000000 0.600000
0.318923 -0.644557 -0.126022 0.300000 0.000000 0.600000
0.032362 -0.468971 -0.341871 0.500000 0.000000 0.500000
0.103806 -0.107867 0.305523 0.600000 0.000000 0.300000
-0.038130 0.851174 -0.308523 0.300000 0.000000 0.600000
0.271287 -0.389422 -0.339868 0.500000 0.000000 0.500000
-0.162762 -0.942252 -0.154285 0.300000 0.000000 0.600000
-0.325099 -0.662005 0.196724 0.300000 0.000000 0.600000
-0.135992 -0.020428 -0.341263 0.500000 0.000000 0.500000
-0.252588 -0.642323 -0.092990 0.300000 0.000000 0.600000
0.018984 -0.883542 -0.149121 0.500000 0.000000 0.500000
-0.325099 0.589723 -0.140953 0.300000 0.000000 0.600000
0.146543 -0.593726 -0.320859 0.500000 0.000000 0.500000
-0.325099 -0.053151 0.169504 0.300000 0.000000 0.600000
-0.161666 0.879721 0.290503 0.000000 0.000000 1.000000
-0.325099 -0.036960 -0.153843 0.300000 0.000000 0.600000
-0.325099 0.644477 -0.240030 0.300000 0.000000 0.600000
0.005998 -0.942252 -0.037155 0.300000 0.000000 0.600000
0.319219 -0.613621 0.266546 0.300000 0.000000 0.600000
0.234694 -0.178081 -0.340135 0.500000 0.000000 0.500000
0.045072 -0.748321 -0.081442 0.300000 0.000000 0.600000
0.149011 0.905499 -0.186997 0.300000 0.000000 0.600000
-0.325099 -0.347147 -0.114863 0.300000 0.000000 0.600000
-0.325099 -0.476344 0.090938 0.300000 0.000000 0.600000
0.211577 0.013223 0.312979 1.000000 0.000000 0.000000
-0.325099 -0.704818 0.049280 0.300000 0.000000 0.600000
0.319497 0.817730 -0.248413 0.300000 0.000000 0.600000
0.319497 -0.771113 -0.078574 0.300000 0.000000 0.600000
0.237559 -0.944221 0.218404 0.300000 0.000000 0.600000
-0.324925 -0.924731 0.150468 0.300000 0.000000 0.600000
0.319497 -0.397119 0.045826 0.300000 0.000000 0.600000
0.150988 -0.424641 -0.340708 0.500000 0.000000 0.500000
0.318511 -0.756027 0.192374 0.300000 0.000000 0.600000
-0.325099 -0.748931 0.167034 0.300000 0.000000 0.600000
0.310641 -0.119672 -0.316171 0.500000 0.000000 0.500000
-0.266625 -0.733519 0.292047 0.600000 0.000000 0.300000
0.288506 0.909878 0.239907 0.300000 0.000000 0.600000
-0.039953 -0.360102 -0.342041 0.500000 0.000000 0.500000
0.067827 -0.938084 -0.306049 0.300000 0.000000 0.600000
-0.122654 -0.412919 -0.340619 0.500000 0.000000 0.500000
-0.324975 0.613300 0.228271 0.300000 0.000000 0.600000
0.306219 0.903859 -0.180046 0.300000 0.000000 0.600000
-0.266860 -0.944866 -0.212793 0.300000 0.000000 0.600000
0.123636 -0.617075 -0.199197 0.300000 0.000000 0.600000
0.024949 -0.498164 0.292567 0.600000 0.000000 0.300000
-0.159259 -0.740812 -0.136475 0.500000 0.000000 0.500000
-0.177030 0.762836 -0.308523 0.300000 0.000000 0.600000
0.318859 -0.599718 -0.179995 0.300000 0.000000 0.600000
0.087024 -0.807535 -0.081442 0.300000 0.000000 0.600000
-0.325099 -0.201321 -0.094867 0.300000 0.000000 0.600000
0.231568 0.147759 -0.340173 0.500000 0.000000 0.500000
-0.046023 -0.942252 0.069032 0.300000 0.000000 0.600000
-0.056262 0.905424 0.059952 0.300000 0.000000 0.600000
-0.299926 -0.469327 0.292350 0.600000 0.000000 0.300000
-0.199693 -0.481941 -0.340109 0.500000 0.000000 0.500000
0.319081 0.246000 0.239093 0.300000 0.000000 0.600000
-0.101930 -0.942252 -0.064139 0.300000 0.000000 0.600000
-0.267048 0.726237 -0.308523 0.300000 0.000000 0.600000
-0.265613 -0.877281 -0.269935 0.300000 0.000000 0.600000
-0.085192 -0.883511 0.243688 0.300000 0.000000 0.600000
0.211131 0.900884 0.245095 0.000000 0.000000 1.000000
0.319497 0.755942 0.157764 0.300000 0.000000 0.600000
-0.015054 -0.942252 -0.168002 0.300000 0.000000 0.600000
0.258502 -0.485782 -0.341076 0.500000 0.000000 0.500000
-0.276661 -0.784894 -0.203183 0.300000 0.000000 0.600000
0.081241 -0.610579 -0.339773 0.500000 0.000000 0.500000
-0.325099 -0.645415 -0.251513 0.300000 0.000000 0.600000
0.319497 0.679191 -0.077483 0.300000 0.000000 0.600000
0.199186 -0.210430 -0.340170 0.500000 0.000000 0.500000
0.053498 0.370031 0.292716 0.000000 0.000000 1.000000
-0.220964 -0.648720 -0.084443 0.300000 0.000000 0.600000
0.318498 0.085311 -0.035503 0.300000 0.000000 0.600000
0.319497 0.546198 0.169426 0.300000 0.000000 0.600000
0.062540 -0.778718 -0.081442 0.300000 0.000000 0.600000
-0.291138 0.285217 -0.336980 0.500000 0.000000 0.500000
-0.325099 -0.282972 -0.018221 0.300000 0.000000 0.600000
0.262028 -0.875047 -0.181201 0.300000 0.000000 0.600000
-0.324205 -0.447922 -0.296692 0.300000 0.000000 0.600000
0.031341 -0.857571 -0.081405 0.300000 0.000000 0.600000
0.318818 -0.470621 -0.054883 0.300000 0.000000 0.600000
0.319497 -0.383430 0.160844 0.300000 0.000000 0.600000
-0.325099 -0.372889 0.117984 0.300000 0.000000 0.600000
-0.281593 -0.798532 0.292716 0.600000 0.000000 0.300000
0.318498 -0.088402 0.131801 0.300000 0.000000 0.600000
0.319497 0.545665 -0.206921 0.300000 0.000000 0.600000
-0.325099 -0.352496 -0.246109 0.300000 0.000000 0.600000
0.142118 -0.733311 -0.081442 0.300000 0.000000 0.600000
0.271093 0.904571 -0.114026 0.300000 0.000000 0.600000
0.318905 -0.017333 -0.286876 0.300000 0.000000 0.600000
0.318498 0.377427 0.095724 0.300000 0.000000 0.600000
0.062621 0.686605 -0.308523 0.300000 0.000000 0.600000
0.129975 0.029840 -0.341246 0.500000 0.000000 0.500000
0.318498 -0.530602 -0.145500 0.300000 0.000000 0.600000
0.318498 0.000145 0.041223 0.300000 0.000000 0.600000
-0.325099 0.315109 -0.015607 0.300000 0.000000 0.600000
0.270031 -0.919409 0.240635 0.300000 0.000000 0.600000
0.097290 0.664889 -0.308336 0.300000 0.000000 0.600000
0.318498 0.340256 0.085439 0.300000 0.000000 0.600000
-0.325099 -0.351634 -0.224260 0.300000 0.000000 0.600000
-0.131722 0.905440 0.109508 0.300000 0.000000 0.600000
-0.325099 0.830914 0.009460 0.300000 0.000000 0.600000
0.101229 -0.286219 0.292716 0.600000 0.000000 0.300000
0.198066 -0.942252 -0.186043 0.300000 0.000000 0.600000
0.155354 0.493114 0.291716 0.000000 0.000000 1.000000
0.318498 -0.142426 -0.124210 0.300000 0.000000 0.600000
0.318571 0.315210 -0.158079 0.300000 0.000000 0.600000
0.145481 -0.403743 -0.340785 0.500000 0.000000 0.500000
0.319497 -0.340980 0.031894 0.300000 0.000000 0.600000
-0.064349 0.570481 0.291716 0.000000 0.000000 1.000000
0.230914 -0.942252 -0.159023 0.300000 0.000000 0.600000
-0.314969 0.457624 -0.318293 0.500000 0.000000 0.500000
-0.325099 -0.406977 -0.092682 0.300000 0.000000 0.600000
0.009275 0.229220 -0.341869 0.500000 0.000000 0.500000
0.318498 -0.686739 -0.220178 0.300000 0.000000 0.600000
0.315164 0.698868 0.274531 0.300000 0.000000 0.600000
-0.227119 0.674549 -0.308524 0.300000 0.000000 0.600000
-0.089106 0.303821 0.291993 0.000000 0.000000 1.000000
-0.004718 -0.416730 -0.342120 0.500000 0.000000 0.500000
0.134255 -0.617065 -0.144905 0.300000 0.000000 0.600000
-0.088391 0.381543 -0.342322 0.500000 0.000000 0.500000
-0.325099 0.566881 -0.264502 0.300000 0.000000 0.600000
0.319496 0.637600 -0.266748 0.300000 0.000000 0.600000
-0.324908 0.409187 0.256857 0.000000 0.000000 1.000000
-0.050339 -0.942252 0.188710 0.300000 0.000000 0.600000
-0.325099 0.043779 0.102754 0.300000 0.000000 0.600000
0.096114 0.834824 -0.308523 0.300000 0.000000 0.600000
0.319108 -0.785231 0.241030 0.300000 0.000000 0.600000
-0.012534 0.448133 -0.341982 0.500000 0.000000 0.500000
0.241734 -0.887451 -0.210080 0.300000 0.000000 0.600000
0.213144 -0.813975 -0.184960 0.500000 0.000000 0.500000
0.318498 0.220081 -0.040002 0.300000 0.000000 0.600000
0.139076 0.451192 -0.341472 0.500000 0.000000 0.500000
-0.325099 -0.421187 0.167518 0.300000 0.000000 0.600000
0.280755 -0.952572 -0.266678 0.300000 0.000000 0.600000
0.319497 0.631483 -0.129914 0.300000 0.000000 0.600000
-0.325098 -0.001355 -0.272563 0.300000 0.000000 0.600000
0.063749 -0.186011 0.300236 0.800000 0.200000 0.500000
-0.325099 0.291061 0.191399 0.300000 0.000000 0.600000
-0.325099 -0.792028 -0.227968 0.300000 0.000000 0.600000
-0.175644 -0.853724 -0.222497 0.500000 0.000000 0.500000
0.319102 0.834370 -0.294013 0.300000 0.000000 0.600000
0.318537 -0.487812 0.062834 0.300000 0.000000 0.600000
-0.325099 0.081718 0.186540 0.300000 0.000000 0.600000
-0.325099 -0.725231 -0.178194 0.300000 0.000000 0.600000
-0.005068 0.569448 0.292012 0.000000 0.000000 1.000000
0.319329 -0.835046 0.254232 0.300000 0.000000 0.600000
-0.269330 -0.261367 -0.340719 0.500000 0.000000 0.500000
0.319022 -0.726616 -0.259959 0.300000 0.000000 0.600000
0.319497 0.633735 -0.081683 0.300000 0.000000 0.600000
0.271060 -0.709464 -0.272558 0.300000 0.000000 0.600000
0.319191 0.354951 0.245818 0.300000 0.000000 0.600000
0.221543 0.905003 -0.190670 0.300000 0.000000 0.600000
0.287146 0.909909 0.212487 0.300000 0.000000 0.600000
0.088600 -0.033793 0.314447 1.000000 0.000000 0.000000
0.150702 0.657526 0.292716 0.000000 0.000000 1.000000
-0.325099 -0.582790 -0.183950 0.300000 0.000000 0.600000
0.232573 -0.033164 -0.340161 0.500000 0.000000 0.500000
-0.325099 0.600171 0.180884 0.300000 0.000000 0.600000
0.319496 0.864436 -0.124226 0.300000 0.000000 0.600000
0.027650 -0.315341 -0.341841 0.500000 0.000000 0.500000
0.091404 -0.617075 -0.172949 0.300000 0.000000 0.600000
-0.322728 -0.038206 0.278953 0.000000 0.000000 1.000000
-0.325099 -0.180713 -0.237132 0.300000 0.000000 0.600000
-0.153150 -0.192891 0.296469 0.600000 0.000000 0.300000
-0.188240 -0.942252 -0.031521 0.300000 0.000000 0.600000
0.085826 -0.170225 0.314673 0.800000 0.200000 0.500000
0.318685 -0.532102 0.203041 0.300000 0.000000 0.600000
0.170120 0.124052 -0.341185 0.500000 0.000000 0.500000
-0.325099 0.096112 0.125312 0.300000 0.000000 0.600000
0.316799 -0.187968 0.279551 0.600000 0.000000 0.300000
-0.123965 0.133364 0.292716 0.000000 0.000000 1.000000
-0.306647 0.082653 -0.328058 0.500000 0.000000 0.500000
0.319497 0.433741 -0.113186 0.300000 0.000000 0.600000
-0.324906 0.698878 0.257092 0.000000 0.000000 1.000000
0.083113 0.901926 0.241206 0.300000 0.000000 0.600000
0.089599 -0.942252 -0.184827 0.300000 0.000000 0.600000
0.296009 -0.942229 -0.045675 0.300000 0.000000 0.600000
0.196267 0.904681 -0.103503 0.300000 0.000000 0.600000
0.174773 -0.743423 -0.081442 0.300000 0.000000 0.600000
-0.318811 -0.939023 0.224736 0.300000 0.000000 0.600000
-0.325099 -0.271072 0.178661 0.300000 0.000000 0.600000
-0.325099 -0.331446 -0.036361 0.300000 0.000000 0.600000
0.203630 -0.795022 -0.081440 0.300000 0.000000 0.600000
0.096176 -0.837502 -0.234656 0.500000 0.000000 0.500000
-0.325098 -0.806918 -0.274315 0.300000 0.000000 0.600000
0.153194 -0.808433 -0.233231 0.500000 0.000000 0.500000
0.319497 0.745947 -0.157175 0.300000 0.000000 0.600000
0.318927 -0.649309 -0.058145 0.300000 0.000000 0.600000
-0.254279 -0.436028 -0.341145 0.500000 0.000000 0.500000
0.315483 -0.471957 -0.305951 0.300000 0.000000 0.600000
0.261157 0.393601 0.292716 0.000000 0.000000 1.000000
0.071613 -0.853695 0.277532 0.600000 0.000000 0.300000
0.318498 0.176954 -0.213829 0.300000 0.000000 0.600000
-0.325099 0.641755 -0.007540 0.300000 0.000000 0.600000
-0.118137 -0.942252 0.145827 0.300000 0.000000 0.600000
0.234466 -0.884385 -0.176728 0.300000 0.000000 0.600000
0.249875 0.844160 -0.308523 0.300000 0.000000 0.600000
0.319497 -0.305233 0.013138 0.300000 0.000000 0.600000
-0.024764 0.903270 -0.302680 0.300000 0.000000 0.600000
0.318669 0.799310 0.258485 0.300000 0.000000 0.600000
-0.324541 0.109537 -0.295661 0.300000 0.000000 0.600000
0.253799 0.421990 -0.341203 0.500000 0.000000 0.500000
-0.325099 -0.243471 0.119575 0.300000 0.000000 0.600000
-0.325099 -0.315903 -0.193292 0.300000 0.000000 0.600000
0.076656 0.616317 0.292716 0.000000 0.000000 1.000000
0.019892 0.649215 -0.310156 0.300000 0.000000 0.600000
-0.108281 -0.942252 -0.134584 0.300000 0.000000 0.600000
0.047963 -0.172986 0.311083 0.800000 0.200000 0.500000
0.319497 0.794005 0.122237 0.300000 0.000000 0.600000
0.318701 0.162407 0.127635 0.300000 0.000000 0.600000
0.318755 -0.474470 -0.131760 0.300000 0.000000 0.600000
0.053331 0.623866 0.292716 0.000000 0.000000 1.000000
-0.325022 0.107534 0.222129 0.300000 0.000000 0.600000
0.163501 0.756878 -0.308523 0.300000 0.000000 0.600000
-0.325099 0.513464 0.104691 0.300000 0.000000 0.600000
0.271059 -0.812409 -0.207349 0.300000 0.000000 0.600000
0.318498 -0.045256 -0.147906 0.300000 0.000000 0.600000
0.318498 -0.390538 -0.227718 0.300000 0.000000 0.600000
-0.325099 0.638580 0.113947 0.300000 0.000000 0.600000
0.318498 -0.593006 0.189213 0.300000 0.000000 0.600000
0.152231 -0.942252 0.151024 0.300000 0.000000 0.600000
0.219533 0.905499 0.068886 0.300000 0.000000 0.600000
-0.255376 -0.942252 -0.158898 0.300000 0.000000 0.600000
-0.196917 0.905499 -0.081893 0.300000 0.000000 0.600000
0.195091 -0.617075 -0.265725 0.300000 0.000000 0.600000
-0.325099 -0.507468 -0.098939 0.300000 0.000000 0.600000
-0.176669 -0.811879 -0.081442 0.300000 0.000000 0.600000
-0.325099 0.596336 -0.057442 0.300000 0.000000 0.600000
-0.001142 0.410160 -0.342189 0.500000 0.000000 0.500000
0.181312 0.406534 -0.340734 0.500000 0.000000 0.500000
0.319497 -0.362907 0.018681 0.300000 0.000000 0.600000
0.318583 -0.628142 -0.196095 0.300000 0.000000 0.600000
-0.239685 -0.654725 -0.083731 0.300000 0.000000 0.600000
-0.210351 0.485798 -0.340729 0.500000 0.000000 0.500000
0.318498 0.150071 -0.081075 0.300000 0.000000 0.600000
-0.324895 0.726214 0.258259 0.000000 0.000000 1.000000
-0.325099 0.485555 0.012188 0.300000 0.000000 0.600000
-0.105025 -0.822645 0.292606 0.600000 0.000000 0.300000
0.282141 -0.945573 -0.295808 0.300000 0.000000 0.600000
0.243058 -0.942252 -0.124595 0.300000 0.000000 0.600000
0.131742 -0.941702 0.227747 0.300000 0.000000 0.600000
0.313188 0.765883 -0.305160 0.300000 0.000000 0.600000
0.068310 -0.617060 -0.139815 0.300000 0.000000 0.600000
0.319497 0.592012 0.096297 0.300000 0.000000 0.600000
-0.134145 -0.862190 0.259268 0.600000 0.000000 0.300000
0.120092 -0.861974 0.261150 0.600000 0.000000 0.300000
-0.312043 0.904047 -0.203319 0.300000 0.000000 0.600000
0.125310 -0.339277 0.292716 0.600000 0.000000 0.300000
-0.006997 0.675051 0.291981 0.000000 0.000000 1.000000
-0.123790 0.017498 -0.340608 0.500000 0.000000 0.500000
0.070038 0.817578 0.292716 0.000000 0.000000 1.000000
0.097907 0.682044 0.292716 0.000000 0.000000 1.000000
-0.325099 0.801876 -0.043422 0.300000 0.000000 0.600000
-0.216613 -0.090454 0.295798 0.600000 0.000000 0.300000
0.319494 0.876106 -0.106447 0.300000 0.000000 0.600000
0.023718 -0.572351 0.292716 0.600000 0.000000 0.300000
-0.325099 0.462112 0.147292 0.300000 0.000000 0.600000
-0.243506 -0.393133 0.291716 0.600000 0.000000 0.300000
0.319497 0.391106 -0.222719 0.300000 0.000000 0.600000
0.058162 -0.942252 0.128605 0.300000 0.000000 0.600000
0.319495 0.873098 0.043148 0.300000 0.000000 0.600000
-0.049710 0.221873 0.292716 0.000000 0.000000 1.000000
-0.325099 0.210923 0.158916 0.300000 0.000000 0.600000
-0.325099 -0.742341 -0.138835 0.300000 0.000000 0.600000
-0.142306 0.905499 -0.143043 0.300000 0.000000 0.600000
0.318498 -0.551560 -0.067288 0.300000 0.000000 0.600000
-0.121013 -0.766851 0.292716 0.600000 0.000000 0.300000
-0.103942 0.405529 -0.341560 0.500000 0.000000 0.500000
0.238754 -0.214623 -0.340120 0.500000 0.000000 0.500000
-0.300430 -0.167158 0.300251 0.600000 0.000000 0.300000
-0.318697 -0.941107 -0.061833 0.300000 0.000000 0.600000
0.318498 -0.107444 -0.097608 0.300000 0.000000 0.600000
0.020820 -0.942252 0.006243 0.300000 0.000000 0.600000
0.318498 0.004570 -0.112816 0.300000 0.000000 0.600000
0.318498 0.295632 0.114311 0.300000 0.000000 0.600000
-0.172722 -0.816378 -0.221655 0.500000 0.000000 0.500000
-0.300650 0.044256 0.292095 0.000000 0.000000 1.000000
-0.325099 0.074718 0.014118 0.300000 0.000000 0.600000
-0.325099 -0.445920 -0.173900 0.300000 0.000000 0.600000
-0.251575 -0.942252 -0.077352 0.300000 0.000000 0.600000
-0.061641 -0.397864 -0.342171 0.500000 0.000000 0.500000
-0.013791 -0.617075 -0.231844 0.300000 0.000000 0.600000
-0.325099 -0.867972 -0.149898 0.300000 0.000000 0.600000
-0.187003 -0.261620 0.292177 0.600000 0.000000 0.300000
-0.325099 -0.147912 -0.110675 0.300000 0.000000 0.600000
0.277973 -0.118373 0.309760 0.600000 0.000000 0.300000
0.056414 -0.942252 0.019542 0.300000 0.000000 0.600000
-0.037251 -0.747278 -0.081442 0.300000 0.000000 0.600000
0.029853 -0.617490 -0.133490 0.300000 0.000000 0.600000
0.170535 -0.303399 0.292716 0.600000 0.000000 0.300000
-0.056893 0.222626 -0.342042 0.500000 0.000000 0.500000
0.236860 -0.285334 -0.340109 0.500000 0.000000 0.500000
0.319497 0.665227 0.172907 0.300000 0.000000 0.600000
-0.050774 0.545269 -0.342144 0.500000 0.000000 0.500000
-0.295856 -0.430195 0.292362 0.600000 0.000000 0.300000
0.119480 -0.701509 -0.081442 0.300000 0.000000 0.600000
-0.207496 -0.497330 0.291716 0.600000 0.000000 0.300000
0.236678 0.613174 0.291716 0.000000 0.000000 1.000000
0.137277 -0.181046 0.303702 0.800000 0.200000 0.500000
-0.325099 -0.370701 -0.107401 0.300000 0.000000 0.600000
-0.057717 0.420398 -0.342077 0.500000 0.000000 0.500000
0.318876 0.411087 0.107051 0.300000 0.000000 0.600000
-0.325084 0.392951 -0.279234 0.300000 0.000000 0.600000
-0.184412 -0.863877 -0.177055 0.500000 0.000000 0.500000
-0.325099 -0.078139 0.049889 0.300000 0.000000 0.600000
-0.325099 -0.123965 -0.245755 0.300000 0.000000 0.600000
-0.164772 -0.760693 -0.081442 0.300000 0.000000 0.600000
-0.325099 -0.859514 -0.129246 0.300000 0.000000 0.600000
-0.116079 0.477121 -0.340711 0.500000 0.000000 0.500000
0.191544 0.822428 0.292716 0.000000 0.000000 1.000000
0.284968 0.555739 -0.337125 0.500000 0.000000 0.500000
0.308009 0.500891 0.284794 0.000000 0.000000 1.000000
-0.325099 0.462885 0.097792 0.300000 0.000000 0.600000
-0.225153 0.731910 -0.308523 0.300000 0.000000 0.600000
0.318961 -0.238927 -0.293381 0.300000 0.000000 0.600000
0.162038 0.504910 -0.340861 0.500000 0.000000 0.500000
0.239799 -0.890358 -0.297648 0.300000 0.000000 0.600000
0.319094 0.008479 0.220395 0.300000 0.000000 0.600000
-0.016827 -0.942252 0.122594 0.300000 0.000000 0.600000
0.196473 -0.942252 0.115796 0.300000 0.000000 0.600000
-0.206456 -0.772137 -0.081442 0.300000 0.000000 0.600000
0.319497 0.680246 -0.123501 0.300000 0.000000 0.600000
0.316885 -0.605180 -0.298638 0.300000 0.000000 0.600000
0.315583 -0.023083 -0.305640 0.300000 0.000000 0.600000
0.318498 -0.252413 -0.103625 0.300000 0.000000 0.600000
-0.227533 -0.893779 -0.255820 0.300000 0.000000 0.600000
-0.097592 -0.383927 -0.341945 0.500000 0.000000 0.500000
-0.325099 -0.571805 0.098601 0.300000 0.000000 0.600000
0.319071 0.386626 0.238474 0.300000 0.000000 0.600000
-0.142081 -0.614366 0.291802 0.600000 0.000000 0.300000
-0.179678 -0.942252 -0.120229 0.300000 0.000000 0.600000
0.188427 0.904917 -0.150679 0.300000 0.000000 0.600000
0.027759 0.114880 0.292716 0.000000 0.000000 1.000000
0.050714 -0.617075 -0.169125 0.300000 0.000000 0.600000
-0.138912 -0.871766 -0.093682 0.300000 0.000000 0.600000
0.249867 -0.316641 0.292654 0.600000 0.000000 0.300000
-0.196824 -0.380958 0.291716 0.600000 0.000000 0.300000
-0.305324 -0.606505 -0.308359 0.300000 0.000000 0.600000
-0.041652 -0.622619 0.292716 0.600000 0.000000 0.300000
-0.229353 0.103860 -0.340522 0.500000 0.000000 0.500000
-0.300605 0.905183 -0.130909 0.300000 0.000000 0.600000
-0.164860 0.303010 0.291716 0.000000 0.000000 1.000000
-0.325099 -0.512515 0.184874 0.300000 0.000000 0.600000
0.082887 -0.561348 0.292716 0.600000 0.000000 0.300000
0.290873 0.677356 -0.308459 0.300000 0.000000 0.600000
-0.276689 -0.772681 -0.230278 0.300000 0.000000 0.600000
-0.156919 0.377288 0.291716 0.000000 0.000000 1.000000
-0.307541 0.904943 -0.175940 0.300000 0.000000 0.600000
0.318775 -0.473265 0.027519 0.300000 0.000000 0.600000
-0.153831 0.002182 -0.340818 0.500000 0.000000 0.500000
0.273283 0.904625 -0.199307 0.300000 0.000000 0.600000
0.318603 0.074054 0.081843 0.300000 0.000000 0.600000
0.219840 -0.763525 -0.081427 0.300000 0.000000 0.600000
-0.027215 0.628261 -0.314637 0.500000 0.000000 0.500000
-0.155418 0.273622 -0.340633 0.500000 0.000000 0.500000
0.125709 0.563212 0.292314 0.000000 0.000000 1.000000
-0.303629 -0.422842 -0.330811 0.500000 0.000000 0.500000
0.252511 -0.063110 0.292364 0.000000 0.000000 1.000000
-0.024470 -0.929601 -0.308262 0.300000 0.000000 0.600000
0.318884 -0.090439 0.188891 0.300000 0.000000 0.600000
-0.086278 -0.481758 0.291716 0.600000 0.000000 0.300000
-0.222791 0.862969 0.292087 0.000000 0.000000 1.000000
0.319467 0.801203 0.215910 0.300000 0.000000 0.600000
0.318498 -0.066771 -0.223503 0.300000 0.000000 0.600000
-0.040111 -0.928815 0.238582 0.300000 0.000000 0.600000
0.312148 0.729967 0.281381 0.300000 0.000000 0.600000
-0.018330 -0.889191 -0.113370 0.500000 0.000000 0.500000
-0.082900 -0.942252 0.022445 0.300000 0.000000 0.600000
0.319497 0.733415 -0.235680 0.300000 0.000000 0.600000
0.319497 0.693866 -0.228843 0.300000 0.000000 0.600000
0.172848 -0.359378 -0.341173 0.500000 0.000000 0.500000
0.319497 0.690949 0.101312 0.300000 0.000000 0.600000
0.282268 0.625411 0.292369 0.000000 0.000000 1.000000
-0.283242 -0.498881 -0.331186 0.500000 0.000000 0.500000
0.160293 0.682281 -0.308524 0.300000 0.000000 0.600000
-0.068322 -0.246498 0.291716 0.600000 0.000000 0.300000
0.244872 0.114833 0.292716 0.000000 0.000000 1.000000
0.255557 0.904724 -0.094294 0.300000 0.000000 0.600000
-0.325099 -0.548644 0.177811 0.300000 0.000000 0.600000
0.110793 -0.893196 -0.275983 0.300000 0.000000 0.600000
-0.325099 0.315537 -0.243662 0.300000 0.000000 0.600000
-0.325099 -0.042070 -0.107210 0.300000 0.000000 0.600000
0.283613 -0.942251 -0.009397 0.300000 0.000000 0.600000
-0.268747 0.085741 0.292057 0.000000 0.000000 1.000000
0.010473 -0.912416 0.243137 0.300000 0.000000 0.600000
-0.178812 -0.872926 -0.090560 0.300000 0.000000 0.600000
0.319497 -0.899863 -0.050926 0.300000 0.000000 0.600000
-0.325099 0.390388 -0.086880 0.300000 0.000000 0.600000
0.319167 -0.352456 0.272167 0.300000 0.000000 0.600000
0.319497 -0.884765 -0.236960 0.300000 0.000000 0.600000
-0.049926 -0.617075 -0.205682 0.300000 0.000000 0.600000
0.318898 -0.465725 0.072683 0.300000 0.000000 0.600000
0.265237 -0.097149 -0.340595 0.500000 0.000000 0.500000
0.206972 0.641600 0.291767 0.000000 0.000000 1.000000
-0.099597 0.905498 0.117994 0.300000 0.000000 0.600000
0.144975 0.905499 0.059931 0.300000 0.000000 0.600000
0.318897 0.048057 0.220734 0.300000 0.000000 0.600000
-0.073678 0.224158 0.292716 0.000000 0.000000 1.000000
0.223220 -0.618775 -0.312691 0.300000 0.000000 0.600000
0.164762 0.070149 -0.341018 0.500000 0.000000 0.500000
-0.161853 -0.725986 -0.172090 0.500000 0.000000 0.500000
-0.279855 0.633201 -0.310556 0.300000 0.000000 0.600000
-0.325097 0.869573 -0.189134 0.300000 0.000000 0.600000
-0.014081 -0.894708 -0.253214 0.500000 0.000000 0.500000
0.003062 -0.942252 -0.199608 0.300000 0.000000 0.600000
-0.155153 -0.894532 -0.296501 0.300000 0.000000 0.600000
-0.259380 -0.858881 0.266579 0.600000 0.000000 0.300000
-0.325099 -0.226008 0.178002 0.300000 0.000000 0.600000
-0.054529 0.523730 -0.342157 0.500000 0.000000 0.500000
-0.126801 0.267377 -0.340704 0.500000 0.000000 0.500000
0.318498 -0.623580 -0.239798 0.300000 0.000000 0.600000
-0.109140 -0.344351 -0.341012 0.500000 0.000000 0.500000
-0.070392 -0.932075 0.238022 0.300000 0.000000 0.600000
0.319497 0.687693 0.075904 0.300000 0.000000 0.600000
-0.325099 -0.617264 -0.181006 0.300000 0.000000 0.600000
0.319497 0.657262 -0.259728 0.300000 0.000000 0.600000
0.150448 0.488398 -0.340737 0.500000 0.000000 0.500000
-0.195323 -0.617075 -0.250160 0.300000 0.000000 0.600000
-0.166562 0.184648 -0.340867 0.500000 0.000000 0.500000
-0.103310 0.359030 -0.341550 0.500000 0.000000 0.500000
0.318858 -0.790465 0.176134 0.300000 0.000000 0.600000
-0.191483 -0.892005 0.240976 0.300000 0.000000 0.600000
-0.325099 0.508061 0.126878 0.300000 0.000000 0.600000
0.316903 0.207446 -0.301314 0.300000 0.000000 0.600000
0.193163 -0.061687 0.292796 0.000000 0.000000 1.000000
0.122080 -0.145262 0.316926 0.800000 0.200000 0.500000
0.155435 -0.620836 -0.119010 0.300000 0.000000 0.600000
-0.198913 -0.148790 0.317015 0.800000 0.200000 0.500000
0.133246 -0.227067 -0.341348 0.500000 0.000000 0.500000
-0.057353 -0.411781 0.292109 0.600000 0.000000 0.300000
-0.160136 -0.850383 -0.238412 0.500000 0.000000 0.500000
-0.050246 0.905499 -0.162364 0.300000 0.000000 0.600000
0.040992 0.731173 -0.308523 0.300000 0.000000 0.600000
-0.296234 0.442970 -0.335317 0.500000 0.000000 0.500000
0.319330 -0.204199 0.244621 0.300000 0.000000 0.600000
-0.254210 0.126230 -0.341138 0.500000 0.000000 0.500000
-0.325099 0.152349 0.162858 0.300000 0.000000 0.600000
0.226791 -0.859665 -0.083656 0.300000 0.000000 0.600000
0.269794 -0.860089 -0.219389 0.300000 0.000000 0.600000
-0.319863 0.325416 -0.310020 0.300000 0.000000 0.600000
-0.113159 -0.100347 0.300031 0.600000 0.000000 0.300000
-0.132376 -0.409412 0.291716 0.600000 0.000000 0.300000
0.319497 0.726209 -0.258887 0.300000 0.000000 0.600000
-0.311564 0.903610 0.000521 0.300000 0.000000 0.600000
-0.325099 -0.054394 0.040986 0.300000 0.000000 0.600000
0.084640 -0.770104 0.292716 0.600000 0.000000 0.300000
-0.324939 -0.699720 0.272046 0.600000 0.000000 0.300000
-0.175357 -0.928913 -0.308277 0.300000 0.000000 0.600000
-0.157638 0.416158 -0.340661 0.500000 0.000000 0.500000
-0.096368 0.050362 -0.341961 0.500000 0.000000 0.500000
-0.325099 -0.419133 -0.184701 0.300000 0.000000 0.600000
0.069646 0.084977 -0.342003 0.500000 0.000000 0.500000
-0.321417 -0.648971 0.281840 0.600000 0.000000 0.300000
0.119698 0.132008 0.292716 0.000000 0.000000 1.000000
0.319347 -0.737226 0.005744 0.300000 0.000000 0.600000
0.318498 -0.540167 0.058750 0.300000 0.000000 0.600000
-0.314807 0.068348 -0.318559 0.500000 0.000000 0.500000
-0.137101 0.111868 0.292716 0.000000 0.000000 1.000000
0.138816 0.210812 0.292716 0.000000 0.000000 1.000000
-0.009605 0.308409 0.292716 0.000000 0.000000 1.000000
0.150815 0.362056 -0.340759 0.500000 0.000000 0.500000
0.223669 0.390460 0.292716 0.000000 0.000000 1.000000
-0.264135 0.757296 -0.308523 0.300000 0.000000 0.600000
-0.325099 -0.664100 -0.202594 0.300000 0.000000 0.600000
0.319497 -0.250687 0.160637 0.300000 0.000000 0.600000
-0.325099 -0.119394 -0.021166 0.300000 0.000000 0.600000
0.319364 0.558499 -0.289365 0.300000 0.000000 0.600000
-0.325099 -0.833019 -0.118628 0.300000 0.000000 0.600000
-0.169302 -0.736095 0.292716 0.600000 0.000000 0.300000
0.271060 -0.822992 -0.269935 0.300000 0.000000 0.600000
-0.113322 -0.725700 -0.161702 0.500000 0.000000 0.500000
0.239310 -0.942252 0.062815 0.300000 0.000000 0.600000
0.161888 -0.942252 -0.006638 0.300000 0.000000 0.600000
-0.099360 0.808004 0.291716 0.000000 0.000000 1.000000
0.319497 -0.402859 -0.010005 0.300000 0.000000 0.600000
0.165230 -0.778799 -0.184648 0.500000 0.000000 0.500000
-0.070737 0.781608 0.291716 0.000000 0.000000 1.000000
-0.297258 0.646925 -0.308448 0.300000 0.000000 0.600000
-0.291248 0.136938 0.292330 0.000000 0.000000 1.000000
0.267005 -0.733337 -0.107469 0.300000 0.000000 0.600000
-0.249732 -0.036445 0.315423 1.000000 0.000000 0.000000
-0.015119 0.677313 -0.308524 0.300000 0.000000 0.600000
0.319497 -0.842519 0.146574 0.300000 0.000000 0.600000
0.020453 0.677935 -0.308524 0.300000 0.000000 0.600000
0.319236 -0.135752 0.269719 0.300000 0.000000 0.600000
0.260475 -0.579996 -0.325925 0.500000 0.000000 0.500000
0.076629 0.905499 0.042828 0.300000 0.000000 0.600000
-0.325099 -0.330251 0.034551 0.300000 0.000000 0.600000
-0.212552 0.579872 0.291716 0.000000 0.000000 1.000000
-0.231981 -0.894747 -0.301649 0.300000 0.000000 0.600000
-0.325099 0.597642 0.119450 0.300000 0.000000 0.600000
-0.325099 0.573102 0.146624 0.300000 0.000000 0.600000
0.318984 -0.692760 -0.025999 0.300000 0.000000 0.600000
0.318498 -0.183388 -0.203760 0.300000 0.000000 0.600000
-0.220073 -0.070230 -0.341173 0.500000 0.000000 0.500000
0.085900 -0.101848 0.300944 0.600000 0.000000 0.300000
0.318788 -0.933613 -0.190868 0.300000 0.000000 0.600000
-0.113498 0.144607 -0.340779 0.500000 0.000000 0.500000
0.122261 0.076743 -0.340839 0.500000 0.000000 0.500000
-0.173766 0.477833 -0.341107 0.500000 0.000000 0.500000
0.317994 0.323485 0.276649 0.300000 0.000000 0.600000
0.318540 0.182312 -0.260313 0.300000 0.000000 0.600000
-0.191490 0.687636 -0.308523 0.300000 0.000000 0.600000
-0.274077 -0.756424 -0.109043 0.300000 0.000000 0.600000
-0.105994 -0.778391 0.292716 0.600000 0.000000 0.300000
0.030951 -0.617075 -0.175435 0.300000 0.000000 0.600000
-0.271002 0.905499 -0.258363 0.300000 0.000000 0.600000
0.026231 -0.786166 -0.219257 0.500000 0.000000 0.500000
0.284629 0.811604 -0.308511 0.300000 0.000000 0.600000
-0.188838 0.808106 -0.308523 0.300000 0.000000 0.600000
0.134398 0.905499 0.000018 0.300000 0.000000 0.600000
0.057754 0.905482 0.214461 0.300000 0.000000 0.600000
-0.154255 0.307143 -0.340326 0.500000 0.000000 0.500000
-0.101040 -0.860557 -0.248181 0.500000 0.000000 0.500000
-0.276968 -0.703589 -0.215768 0.300000 0.000000 0.600000
-0.325048 -0.462423 -0.282284 0.300000 0.000000 0.600000
0.318498 -0.022858 -0.037422 0.300000 0.000000 0.600000
-0.325099 0.082686 0.086632 0.300000 0.000000 0.600000
0.308234 -0.943074 -0.209118 0.300000 0.000000 0.600000
