ply
format ascii 1.0
element vertex 1267
property float x
property float y
property float z
property uchar red
property uchar green
property uchar blue
end_header
0.143678 0.221724 0.137882 204 51 127
-0.252345 0.244985 0.129077 76 0 153
-0.775728 0.216104 -0.236778 153 76 0
0.597537 0.184273 0.502558 76 0 153
0.630170 0.115213 0.195160 204 51 127
-0.583472 0.122558 0.003335 76 153 0
0.066147 0.221724 0.148759 204 51 127
0.164884 0.198746 0.167938 153 76 0
0.570848 0.189651 -0.253918 153 76 0
0.176231 0.091952 -0.080068 204 51 127
0.037666 -0.461650 -0.219439 204 51 127
-0.005193 -0.461650 -0.043609 204 51 127
0.654591 -0.112546 -0.260773 76 0 153
0.167352 0.115213 0.224590 153 76 0
0.490486 -0.461650 -0.220883 204 51 127
0.319024 0.268246 0.059336 76 0 153
-0.137135 0.268246 0.137392 76 0 153
-0.254737 0.244985 -0.063074 76 0 153
0.580300 0.110303 -0.253918 153 76 0
-0.812693 0.261181 -0.031978 76 0 153
0.223112 0.255778 0.241685 76 0 153
0.644841 0.268246 -0.080546 76 0 153
0.694992 0.108541 0.091892 0 0 255
-0.100072 0.268246 -0.301048 76 0 153
0.528389 -0.483686 0.016433 204 51 127
0.307443 -0.483686 0.110987 204 51 127
-0.277713 0.244985 -0.295052 76 0 153
-0.705468 0.268246 0.135369 76 0 153
-0.216475 0.213225 -0.044166 204 51 127
-0.184393 0.115213 0.135206 0 0 255
0.238590 0.268246 -0.159570 76 0 153
-0.756099 -0.609934 0.159885 76 0 153
-0.169514 0.211075 0.200285 153 0 76
0.408515 0.201986 0.098550 153 0 76
-0.435709 0.268246 -0.225495 76 0 153
-0.219183 -0.483686 0.072733 204 51 127
-0.757656 -0.190173 0.159885 76 0 153
0.295601 0.122558 0.316998 204 51 127
0.022410 0.115213 0.187751 153 0 76
0.524106 0.244985 -0.086278 76 0 153
0.449775 0.244985 -0.085162 76 0 153
0.658815 -0.493288 0.206407 153 0 76
-0.254427 0.203005 -0.173069 127 127 0
0.669255 0.089163 -0.283300 76 0 153
-0.297376 0.226920 -0.236778 204 51 127
0.589332 0.244985 0.168351 204 51 127
-0.216475 0.206930 0.002756 204 51 127
-0.263767 0.135460 0.173351 0 255 0
0.256570 0.244985 0.138381 204 51 127
0.654591 0.151065 0.420801 76 0 153
-0.373807 0.250732 0.236639 76 0 153
0.654591 0.210968 0.072627 204 51 127
-0.614394 0.244985 -0.127409 76 0 153
0.614003 0.145741 0.098550 153 0 76
-0.314952 -0.483686 0.077075 204 51 127
-0.216475 0.132970 0.098884 204 51 127
0.029270 0.244985 -0.115277 76 0 153
-0.582383 0.244985 0.203651 204 51 127
-0.290186 0.129206 0.200285 0 255 0
-0.124586 0.268246 -0.046081 76 0 153
-0.746582 0.122098 -0.061388 255 0 0
-0.232890 0.115213 0.168723 153 0 76
-0.350175 0.129904 -0.218039 0 127 127
-0.420609 0.244985 0.045804 76 0 153
0.701113 0.084086 -0.266029 76 0 153
-0.775965 -0.466246 -0.188780 127 127 0
-0.800338 0.244985 -0.142466 76 0 153
-0.572574 0.244985 0.027431 76 0 153
0.422192 0.244985 -0.246192 204 51 127
0.179575 0.178755 0.267686 153 76 0
0.023282 -0.483686 0.052047 204 51 127
0.654591 -0.448031 0.179766 153 0 76
0.194267 0.228557 -0.146269 204 51 127
-0.370930 0.091952 0.158674 0 0 255
-0.278492 0.268246 -0.177416 76 0 153
0.104058 0.244985 -0.261885 153 76 0
-0.675549 -0.461650 0.115605 204 51 127
0.177479 0.115213 0.146543 0 0 255
0.164884 0.135669 0.431822 153 76 0
0.627657 -0.467691 0.112862 0 255 0
-0.296358 0.244985 0.128178 204 51 127
-0.509400 0.193781 -0.218414 0 127 127
0.186118 0.197937 -0.277179 153 76 0
-0.249338 -0.483686 -0.066878 204 51 127
0.437343 -0.483686 0.048208 204 51 127
0.670568 0.244985 -0.120035 0 0 255
0.478686 0.268246 -0.135519 76 0 153
-0.351524 0.129904 0.140575 76 153 0
-0.769844 0.242563 0.059074 255 0 0
0.164884 0.165731 0.365731 153 76 0
0.641195 -0.483686 -0.011689 0 255 0
-0.452019 0.129904 0.099313 76 153 0
0.215830 0.195025 0.098550 153 0 76
0.584700 0.268246 -0.081969 76 0 153
-0.414044 0.244985 -0.225895 204 51 127
0.674534 0.091952 -0.170051 0 0 255
-0.605925 0.268246 -0.119777 76 0 153
0.632603 0.129904 0.249683 204 51 127
-0.325924 0.268246 0.057492 76 0 153
0.653096 -0.461650 0.124462 0 255 0
-0.746582 0.123735 -0.166322 255 0 0
0.673283 0.244985 0.020836 76 0 153
0.065279 0.268246 -0.250712 76 0 153
-0.670948 0.166419 0.200285 0 255 0
-0.700944 0.181655 -0.277179 153 76 0
0.147686 0.115213 -0.161759 204 51 127
0.671731 0.131735 0.106019 204 51 127
0.141623 0.116750 0.043204 204 51 127
-0.799750 0.268246 -0.176919 76 0 153
-0.755129 -0.461650 -0.099089 127 127 0
0.179575 0.144161 0.146391 153 76 0
0.089290 0.115213 0.182698 153 0 76
-0.382856 0.170658 0.173351 0 255 0
0.016655 0.244985 0.068023 76 0 153
0.211700 0.129904 0.119336 204 51 127
-0.422701 -0.483686 0.026080 204 51 127
0.209989 0.268246 -0.138551 76 0 153
0.367750 0.268246 -0.281826 76 0 153
0.005379 0.249648 0.235556 76 0 153
-0.239736 0.220751 -0.145205 127 127 0
0.392321 0.229196 0.200285 204 51 127
0.164884 0.208538 0.023365 204 51 127
0.625208 0.225896 -0.119350 204 51 127
0.495297 0.244985 -0.197045 76 0 153
-0.561463 -0.461650 -0.055610 204 51 127
-0.230181 0.142147 -0.142356 204 51 127
0.007960 0.091952 0.146400 0 0 255
0.697641 -0.291859 -0.236778 76 0 153
0.179575 0.155183 0.176906 153 76 0
-0.254427 0.210180 0.188990 0 255 0
-0.358853 -0.461650 -0.032363 204 51 127
0.029441 -0.483686 0.008310 204 51 127
-0.044171 0.268246 -0.064402 76 0 153
-0.511630 0.225187 -0.277179 153 76 0
-0.054086 -0.461650 -0.149022 204 51 127
0.390104 0.244985 0.028247 76 0 153
-0.665602 0.251424 0.237331 76 0 153
0.654591 -0.557545 0.184551 153 0 76
0.248840 0.268246 0.038321 76 0 153
-0.705449 0.244985 -0.304494 76 0 153
0.112711 0.216394 -0.277179 153 76 0
-0.473729 0.191101 0.173351 0 255 0
-0.627928 0.106342 -0.253918 204 51 127
0.612696 0.244985 0.157754 204 51 127
-0.775965 0.197544 0.183406 76 0 153
-0.499825 0.091952 0.167574 0 0 255
0.674940 0.268246 -0.299995 76 0 153
-0.496067 0.244985 0.010426 76 0 153
-0.633181 0.268246 0.047547 76 0 153
0.345585 0.122558 0.094102 153 0 76
0.333353 0.162284 0.502558 76 0 153
0.409096 0.268246 -0.299913 76 0 153
-0.647413 0.244985 -0.011336 76 0 153
0.696725 -0.483686 0.023715 0 255 0
-0.746582 0.209365 -0.051186 255 0 0
-0.275156 -0.461650 0.004117 204 51 127
-0.083455 0.106805 -0.253918 153 76 0
-0.569036 -0.483686 -0.150070 204 51 127
0.235501 -0.461650 -0.069773 204 51 127
-0.074965 0.268246 -0.116980 76 0 153
0.471162 0.268246 0.028152 76 0 153
0.246923 0.221724 0.501511 76 0 153
0.431691 0.268246 0.175123 76 0 153
0.425454 -0.461650 -0.204464 204 51 127
0.398738 0.115213 0.172901 0 0 255
-0.691256 0.268246 0.107912 76 0 153
-0.021749 0.091952 -0.259278 153 76 0
-0.219414 0.091952 -0.185078 204 51 127
-0.519311 0.129904 -0.177925 76 153 0
0.337024 0.244985 -0.275838 153 76 0
0.443149 0.215756 0.475624 76 0 153
0.241797 0.268246 -0.303929 76 0 153
-0.243135 0.268246 -0.165935 76 0 153
0.442348 0.129904 0.416369 204 51 127
-0.254427 0.172068 -0.101091 127 127 0
-0.392210 0.268246 0.019333 76 0 153
-0.301599 0.179652 -0.203723 0 127 127
0.310988 0.091952 0.083094 0 0 255
-0.699821 0.244985 0.180991 76 0 153
-0.224549 0.268246 -0.303940 76 0 153
-0.651761 0.244985 -0.258291 153 76 0
0.279080 0.115213 0.145886 204 51 127
-0.341044 0.244985 0.079248 76 0 153
-0.725401 0.244985 -0.058458 76 0 153
0.701113 0.176180 -0.276589 76 0 153
0.228153 0.115213 -0.252640 153 76 0
-0.761174 -0.017029 -0.236778 153 76 0
0.534589 0.221724 0.135858 204 51 127
-0.775965 -0.570216 -0.253729 153 76 0
0.486214 0.129904 0.427944 204 51 127
-0.198157 0.091952 0.127339 0 0 255
0.587781 -0.461650 0.120195 204 51 127
0.672383 -0.123745 0.159885 153 0 76
0.470919 0.250562 0.236469 76 0 153
0.179185 0.115213 0.194151 0 0 255
0.192677 0.221724 0.068613 204 51 127
-0.439368 -0.483686 -0.172252 204 51 127
0.006886 0.244985 -0.122175 76 0 153
0.064297 0.091952 0.101172 0 0 255
-0.504146 0.244985 -0.059195 76 0 153
-0.619893 0.123151 -0.277179 153 76 0
0.675073 0.244985 -0.075316 76 0 153
-0.583863 0.221724 0.138408 204 51 127
0.448768 0.244985 -0.284875 76 0 153
-0.087021 0.132032 0.173351 153 0 76
-0.538893 0.114456 -0.253918 153 76 0
0.467196 0.134880 0.502558 76 0 153
0.608536 0.193630 0.475624 76 0 153
0.194267 0.239805 -0.093843 204 51 127
-0.775965 -0.480421 -0.112744 127 127 0
-0.251042 -0.483686 -0.149797 204 51 127
-0.255827 0.122558 -0.183580 204 51 127
0.172757 0.115213 -0.061210 204 51 127
0.465408 0.244985 -0.242472 76 0 153
-0.405791 0.115213 0.153005 0 0 255
0.665636 0.244985 -0.279608 76 0 153
-0.480655 0.210900 -0.218414 0 127 127
-0.504787 -0.461650 -0.091942 204 51 127
-0.484073 0.244985 0.153868 76 0 153
-0.500131 0.221724 0.134649 204 51 127
-0.018759 -0.461650 0.088958 204 51 127
-0.543447 0.129904 0.072933 76 153 0
-0.763643 0.173882 -0.236778 255 0 0
-0.769844 0.217114 -0.201890 255 0 0
-0.099863 0.164988 0.173351 153 0 76
-0.381894 0.129904 0.135790 0 0 255
-0.759605 0.268246 -0.027567 76 0 153
0.200624 0.115213 0.164860 0 0 255
0.182551 0.129904 0.101809 204 51 127
-0.040121 0.091952 0.151061 0 0 255
0.637091 0.221724 0.019817 204 51 127
0.202957 0.268246 -0.114171 76 0 153
0.476688 -0.461650 -0.177399 204 51 127
0.265264 0.122558 0.443843 204 51 127
0.084683 0.268246 0.223638 76 0 153
0.588320 -0.483686 -0.188850 204 51 127
-0.708871 0.129904 0.154446 76 153 0
-0.319061 -0.461650 -0.192172 204 51 127
0.115747 0.244985 -0.159195 76 0 153
0.012585 -0.483686 -0.073332 204 51 127
-0.729443 -0.477468 -0.281256 153 76 0
-0.775965 -0.606587 0.178409 76 0 153
-0.433083 0.268246 -0.191545 76 0 153
0.161691 0.142147 0.121760 153 76 0
0.397579 0.248792 0.234699 76 0 153
-0.270331 0.221724 0.124419 204 51 127
0.003646 0.244985 -0.085347 76 0 153
0.654591 0.138289 0.048719 204 51 127
0.164884 0.139542 0.244962 204 51 127
-0.295684 0.268246 -0.140104 76 0 153
-0.771233 0.244985 0.199812 76 0 153
-0.537149 0.244985 -0.293296 76 0 153
-0.411467 0.203530 -0.203723 0 127 127
-0.266411 -0.483686 -0.128960 204 51 127
-0.206216 -0.461650 -0.200721 204 51 127
0.639900 0.180917 0.241098 76 0 153
-0.191232 0.115213 0.177245 153 0 76
0.627528 0.244985 -0.031267 204 51 127
0.448110 0.091952 0.084488 0 0 255
0.543507 -0.461650 -0.113910 204 51 127
-0.758437 -0.234749 0.206407 76 0 153
-0.731523 0.207651 0.159885 76 0 153
0.618273 0.221724 0.109985 153 0 76
0.575552 -0.483686 -0.128304 204 51 127
0.594132 0.115213 0.169505 0 0 255
0.001406 -0.483686 -0.160222 204 51 127
0.654591 0.216411 0.355054 76 0 153
-0.375886 0.244985 0.188615 76 0 153
-0.440018 0.181657 -0.277179 153 76 0
0.654591 -0.580095 -0.258755 76 0 153
0.440452 0.091952 -0.274090 153 76 0
-0.769844 0.229418 -0.109240 255 0 0
0.021651 0.263250 0.243135 76 0 153
0.156010 0.244985 -0.076539 204 51 127
0.555704 0.091952 0.077895 0 0 255
-0.219792 0.091952 -0.274425 153 76 0
-0.417048 0.180183 -0.253918 153 76 0
0.573110 0.129904 0.339178 204 51 127
-0.272155 0.115213 0.174918 0 255 0
-0.650765 0.174177 0.200285 0 255 0
0.131013 0.115213 0.166453 0 0 255
-0.647672 0.129151 0.200285 0 255 0
-0.020626 0.221724 0.131695 204 51 127
0.549524 -0.483686 -0.104894 204 51 127
0.468819 0.268246 -0.216417 76 0 153
-0.089391 0.268246 0.183851 76 0 153
-0.507485 0.244985 -0.140728 76 0 153
0.694992 0.133858 0.122541 0 0 255
0.398962 0.161614 0.536511 153 0 76
-0.729443 -0.397577 -0.273550 153 76 0
-0.108581 -0.483686 -0.194227 204 51 127
0.674395 0.053601 -0.236778 76 0 153
0.699037 0.113114 0.206407 153 0 76
-0.211550 0.267378 -0.320028 76 0 153
-0.113670 0.252735 0.238642 76 0 153
0.101221 0.146415 0.173351 153 0 76
0.364630 0.115213 0.186733 0 0 255
-0.534310 0.221724 0.183769 0 255 0
-0.718966 0.225297 -0.277179 153 76 0
-0.737921 -0.461650 0.083939 127 127 0
0.623021 0.129904 0.150558 204 51 127
0.670565 -0.520748 -0.283300 76 0 153
-0.151169 0.268246 0.118829 76 0 153
0.351215 0.268246 -0.011336 76 0 153
-0.073751 -0.461650 -0.157886 204 51 127
-0.729443 0.159543 -0.037010 127 0 127
0.655188 -0.116818 0.206407 153 0 76
-0.645505 0.221724 -0.239081 204 51 127
0.378099 0.268246 0.203275 76 0 153
-0.567353 -0.461650 -0.139535 204 51 127
-0.513500 0.168546 0.173351 0 255 0
0.605892 -0.461650 0.088843 204 51 127
-0.433978 -0.461650 -0.030474 204 51 127
-0.524398 -0.461650 -0.001248 204 51 127
-0.371741 -0.483686 -0.032859 204 51 127
0.414542 0.268246 -0.097919 76 0 153
0.090326 -0.461650 -0.076888 204 51 127
0.179575 0.205251 0.118298 153 76 0
0.659148 -0.352987 -0.283300 76 0 153
0.294868 -0.483686 0.136669 204 51 127
-0.297404 -0.483686 -0.011324 204 51 127
0.099400 -0.461650 0.106303 204 51 127
0.048686 0.246969 -0.309770 76 0 153
0.484640 0.268246 -0.163649 76 0 153
0.276052 0.268246 -0.097458 76 0 153
0.325001 0.115213 -0.252655 153 76 0
0.396431 0.142222 0.502558 153 0 76
0.694992 0.140907 -0.215363 0 0 255
-0.488663 0.122558 -0.057051 76 153 0
0.179575 0.186056 0.204691 153 76 0
0.671782 -0.012333 0.159885 153 0 76
0.629533 0.129904 0.398432 76 0 153
0.418437 0.122558 0.246207 204 51 127
-0.431884 -0.461650 -0.158815 204 51 127
0.094138 0.244985 -0.132472 76 0 153
-0.329526 0.132204 -0.253918 153 76 0
0.339239 0.156245 -0.277179 153 76 0
0.580823 0.129904 0.267369 204 51 127
0.382708 0.091952 0.185919 0 0 255
0.701113 0.222177 -0.240626 0 0 255
-0.360103 0.244985 -0.172105 76 0 153
0.445433 0.268246 0.068845 76 0 153
0.179575 0.207158 0.361560 153 76 0
-0.369265 -0.461650 0.005282 204 51 127
-0.320392 0.115213 0.165247 0 0 255
0.528007 0.091952 0.150079 0 0 255
0.449784 -0.483686 -0.082547 204 51 127
0.544035 0.268246 0.182315 76 0 153
-0.238829 0.268246 0.048291 76 0 153
-0.769844 0.216327 0.040035 255 0 0
-0.617450 0.221724 0.113784 204 51 127
0.358044 -0.483686 -0.155023 204 51 127
-0.714469 0.153756 -0.277179 153 76 0
-0.260477 0.135912 -0.277179 153 76 0
0.654591 0.209523 0.462531 76 0 153
0.207688 0.131111 0.502558 76 0 153
0.220668 0.122558 0.253893 204 51 127
0.524303 0.244985 -0.213867 76 0 153
-0.362145 0.122558 -0.199746 76 153 0
0.159228 0.106514 0.077859 204 51 127
-0.358469 0.207158 0.200285 0 255 0
-0.056731 0.222354 -0.253918 153 76 0
0.349117 0.262393 0.243135 76 0 153
-0.023136 0.244985 -0.304630 76 0 153
0.513540 0.221724 0.482277 76 0 153
-0.349563 0.221724 0.178567 0 255 0
-0.542344 0.268246 -0.017833 76 0 153
0.092471 -0.461650 0.133789 204 51 127
0.476367 0.175039 0.502558 76 0 153
-0.320770 0.268246 -0.156078 76 0 153
0.007868 -0.483686 -0.034435 204 51 127
0.472384 0.149598 0.083859 153 0 76
-0.490904 0.122558 0.021482 76 153 0
0.542218 0.132627 0.083859 153 0 76
0.654591 0.178891 0.360940 76 0 153
-0.558699 0.129904 -0.184283 76 153 0
-0.729803 -0.430917 -0.283300 153 76 0
0.568080 0.244985 -0.036338 76 0 153
-0.157744 0.115213 0.089893 0 0 255
-0.239736 0.168524 0.131555 127 127 0
0.701113 -0.066320 -0.243644 76 0 153
-0.371858 0.122558 0.020487 76 153 0
-0.246020 0.221724 0.136937 204 51 127
-0.465769 -0.465415 -0.236778 204 51 127
0.658475 -0.625714 0.182534 153 0 76
0.694992 0.120750 -0.204888 0 0 255
-0.687813 0.244985 0.058014 76 0 153
0.452262 -0.461650 0.022182 204 51 127
-0.367604 0.107439 -0.236778 204 51 127
0.583654 -0.461650 -0.146671 204 51 127
0.639900 0.194141 0.391581 76 0 153
-0.641889 0.268246 -0.039335 76 0 153
-0.239736 0.130222 -0.213743 127 127 0
0.690973 -0.233970 -0.283300 76 0 153
0.303661 0.122558 0.217408 204 51 127
-0.001211 0.268246 -0.268427 76 0 153
0.639900 0.206819 0.415953 76 0 153
-0.690711 0.244985 0.133852 204 51 127
-0.233863 -0.461650 0.128395 204 51 127
-0.008904 0.112844 -0.236778 204 51 127
0.656363 -0.483686 0.093860 0 255 0
-0.735831 -0.310020 -0.283300 153 76 0
-0.240325 0.268246 -0.227580 76 0 153
0.433303 0.136619 0.502558 76 0 153
-0.297446 0.126323 -0.277179 153 76 0
-0.208765 -0.461650 0.150853 204 51 127
-0.563735 0.268246 -0.159255 76 0 153
-0.567895 -0.483686 0.004160 204 51 127
0.202344 0.244985 0.116897 204 51 127
0.476806 0.221724 0.173689 204 51 127
0.476983 0.129904 0.459697 204 51 127
-0.204715 0.249472 0.235379 76 0 153
-0.382965 0.210016 -0.277179 153 76 0
0.229183 0.268246 0.113915 76 0 153
0.322796 -0.461650 0.157227 204 51 127
0.212722 -0.483686 -0.112251 204 51 127
0.608472 0.244985 0.088166 204 51 127
0.656366 -0.200885 0.206407 153 0 76
0.591792 0.226670 -0.253918 204 51 127
0.735862 0.255249 -0.078611 76 0 153
0.372377 -0.461650 0.108981 204 51 127
0.511271 0.244985 0.002104 76 0 153
-0.468773 0.244985 0.111329 76 0 153
0.305565 0.189067 -0.253918 153 76 0
-0.489706 -0.483686 -0.099924 204 51 127
0.284321 -0.461650 0.078402 204 51 127
-0.520477 0.220676 -0.218414 0 127 127
-0.628236 0.091952 0.115343 0 0 255
-0.266743 0.166385 0.173351 0 255 0
0.150391 0.221724 0.059501 204 51 127
0.601903 0.151273 0.083859 153 0 76
0.621231 0.268246 0.217413 76 0 153
-0.729443 -0.542678 0.206132 76 0 153
-0.178611 -0.461650 -0.029011 204 51 127
-0.045731 0.115213 0.093587 0 0 255
0.397852 0.143348 0.098550 153 0 76
-0.432362 0.129904 0.078086 76 153 0
0.654591 0.068367 -0.247601 76 0 153
-0.097191 0.168817 0.200285 153 0 76
-0.426817 0.129904 0.009628 76 153 0
0.332880 0.199364 -0.277179 153 76 0
-0.396214 0.103472 -0.236778 204 51 127
-0.030960 -0.461650 -0.147491 204 51 127
-0.408921 0.268246 0.058569 76 0 153
-0.280066 -0.483686 0.067722 204 51 127
-0.348460 0.250917 -0.313718 76 0 153
0.164884 0.159735 0.305495 153 76 0
0.681534 -0.053072 0.206407 153 0 76
-0.636406 0.129904 0.087847 76 153 0
-0.645005 0.122558 -0.124698 76 153 0
0.562257 0.122558 0.160941 0 0 255
-0.260593 0.268246 -0.299077 76 0 153
-0.254740 0.244985 -0.158325 204 51 127
0.500092 0.244985 0.207619 76 0 153
-0.292204 -0.461650 -0.217327 204 51 127
-0.476474 0.268246 -0.260231 76 0 153
0.638416 0.244985 -0.275416 153 76 0
-0.453880 0.129904 0.042224 76 153 0
0.329260 0.091952 0.168820 0 0 255
-0.635502 0.268246 0.114769 76 0 153
0.228106 0.091952 0.092238 0 0 255
-0.129804 0.268246 0.162418 76 0 153
0.700432 0.126505 -0.283300 76 0 153
-0.522518 0.268246 -0.285228 76 0 153
-0.775965 -0.230304 0.175149 76 0 153
0.671731 0.212981 0.142457 204 51 127
-0.534710 0.162802 -0.218414 0 127 127
0.536092 -0.483686 0.139476 204 51 127
0.684507 0.268246 -0.180240 76 0 153
-0.585959 0.221724 0.099856 204 51 127
0.463478 0.219507 -0.277179 153 76 0
-0.729443 -0.136963 0.160444 76 0 153
0.044864 0.268246 -0.097868 76 0 153
0.133333 0.268246 0.184773 76 0 153
-0.149323 -0.483686 -0.020347 204 51 127
-0.250896 0.268246 0.030112 76 0 153
-0.625944 0.230736 0.077859 76 0 153
0.639900 0.215943 0.213749 76 0 153
0.407038 0.244244 0.077859 204 51 127
-0.637555 0.145907 -0.253918 153 76 0
0.681195 -0.318866 0.159885 153 0 76
0.042938 -0.483686 -0.152518 204 51 127
0.078050 -0.483686 -0.171286 204 51 127
0.039255 0.239751 -0.253918 76 0 153
-0.266558 0.268246 -0.067994 76 0 153
0.366363 -0.483686 -0.061683 204 51 127
-0.670984 0.129904 0.061123 76 153 0
-0.470405 0.173984 -0.218414 0 127 127
0.023972 -0.461650 -0.059849 204 51 127
0.035151 0.261360 -0.320028 76 0 153
0.513901 0.268246 -0.116599 76 0 153
-0.149748 0.244985 -0.016105 76 0 153
-0.488255 -0.483686 0.111454 204 51 127
0.425512 0.200433 -0.277179 153 76 0
0.508290 0.115213 0.078814 0 0 255
-0.115913 0.194760 -0.277179 153 76 0
-0.263190 0.115213 -0.166360 204 51 127
-0.117100 0.221724 -0.239942 204 51 127
-0.672243 0.268246 -0.079241 76 0 153
0.564590 -0.470806 0.159885 204 51 127
-0.202657 0.222322 0.077859 204 51 127
-0.342365 0.122558 -0.044223 76 153 0
-0.198176 0.244985 0.081708 204 51 127
0.172672 0.115213 0.291603 153 76 0
0.076577 -0.461650 -0.111549 204 51 127
-0.729443 0.063742 -0.237234 153 76 0
-0.709100 0.091952 0.128735 0 0 255
0.654591 0.042579 0.189849 153 0 76
0.171830 -0.483686 -0.023299 204 51 127
0.284888 0.206768 0.083859 153 0 76
0.419108 0.122558 0.268000 204 51 127
0.694992 0.184503 -0.129156 0 0 255
-0.205343 0.268246 -0.094475 76 0 153
-0.239736 0.212708 -0.237335 204 51 127
-0.254427 0.174309 -0.027020 127 127 0
0.729718 0.249104 0.111376 76 0 153
0.325750 0.181265 -0.253918 153 76 0
-0.289057 0.268246 -0.277565 76 0 153
0.654591 0.184817 0.440847 76 0 153
0.677944 -0.188568 0.206407 153 0 76
0.155625 0.268246 0.097428 76 0 153
-0.769844 0.187386 -0.221150 255 0 0
0.684099 -0.483686 -0.195103 0 255 0
0.684328 0.160515 -0.283300 76 0 153
-0.209071 0.268246 0.086469 76 0 153
0.141623 0.229156 -0.072969 204 51 127
-0.392401 0.244985 0.002806 76 0 153
-0.126171 0.204953 -0.253918 153 76 0
-0.037179 0.244985 0.212350 76 0 153
-0.216475 0.122427 -0.237046 204 51 127
-0.543527 0.127791 -0.277179 153 76 0
0.142883 0.158920 0.173351 153 0 76
-0.161884 0.091952 -0.258060 204 51 127
0.654591 0.127029 0.303404 76 0 153
0.635269 -0.461650 0.157552 0 255 0
-0.091937 -0.461650 0.024881 204 51 127
-0.386384 0.187218 -0.203723 0 127 127
-0.686681 -0.483686 0.113613 204 51 127
0.628904 0.115213 -0.129034 0 0 255
-0.239736 0.174228 -0.005372 127 127 0
0.341188 0.221724 0.122115 204 51 127
-0.163386 0.268246 0.017157 76 0 153
-0.377822 0.138440 -0.203723 0 127 127
-0.655044 0.129904 0.172498 76 153 0
-0.615324 -0.461650 0.138590 204 51 127
-0.194138 0.150696 -0.277179 153 76 0
0.179575 0.146529 0.202658 153 76 0
-0.366454 -0.483686 -0.085330 204 51 127
0.671731 0.224281 -0.219278 0 0 255
0.196094 0.221724 0.186657 204 51 127
0.238750 0.244985 0.070229 76 0 153
0.701113 0.129738 0.164239 153 0 76
-0.027668 -0.461650 -0.036146 204 51 127
-0.324093 0.268246 -0.009391 76 0 153
-0.342162 0.244985 0.116882 76 0 153
0.701113 -0.141749 0.199058 153 0 76
-0.450759 0.192140 0.173351 0 255 0
0.029479 0.115213 0.156346 0 0 255
-0.380090 0.268246 -0.169548 76 0 153
-0.618498 -0.461650 0.112013 204 51 127
0.059581 0.268246 0.234457 76 0 153
-0.488688 -0.483686 -0.073783 204 51 127
-0.729443 0.115517 -0.140663 127 0 127
-0.735331 -0.285645 0.159885 76 0 153
0.275677 0.221724 0.481334 76 0 153
-0.324481 -0.461650 0.044599 204 51 127
0.654591 0.214569 0.099358 204 51 127
0.645208 0.221724 -0.143210 204 51 127
0.381079 -0.461650 0.015880 204 51 127
0.597173 0.203485 -0.277179 153 76 0
0.479522 0.268246 0.006339 76 0 153
0.229103 0.268246 0.036657 76 0 153
-0.393585 0.268246 -0.061388 76 0 153
0.310814 0.268246 0.173272 76 0 153
0.647245 0.128545 0.171878 76 0 153
0.143530 0.244985 0.182796 204 51 127
0.401359 0.244985 0.115702 76 0 153
-0.458591 0.091952 0.109987 0 0 255
0.643202 0.244985 0.221204 76 0 153
0.486581 0.244985 0.024725 76 0 153
0.737841 0.261131 0.206055 76 0 153
0.162511 0.091952 0.017764 204 51 127
0.627051 0.244985 0.174706 76 0 153
-0.247205 0.215204 -0.218414 127 127 0
0.486429 0.244985 0.119923 76 0 153
0.123382 0.244985 -0.061736 76 0 153
-0.392659 0.221724 0.185264 204 51 127
0.469042 -0.461650 -0.030661 204 51 127
-0.639162 -0.483686 -0.117710 204 51 127
0.129082 0.268246 -0.034929 76 0 153
-0.775965 0.141463 -0.270240 153 76 0
0.506125 0.244985 -0.287530 76 0 153
0.654591 0.209326 -0.183490 204 51 127
-0.733304 -0.526424 -0.236778 153 76 0
-0.260777 -0.483686 -0.211596 204 51 127
0.541409 0.244985 0.114013 204 51 127
0.464028 -0.461650 0.108899 204 51 127
0.394893 0.244985 -0.026970 76 0 153
-0.239543 0.091952 -0.070773 204 51 127
0.623631 0.268246 -0.009570 76 0 153
0.694992 0.215788 -0.014031 0 0 255
-0.526046 0.110709 0.200285 0 0 255
0.653776 0.115213 0.130983 204 51 127
0.480753 0.129904 0.369991 204 51 127
0.654591 -0.339104 0.200403 153 0 76
0.186763 0.186291 0.083859 153 0 76
0.432682 0.109082 -0.236778 204 51 127
-0.769844 0.114266 -0.201055 255 0 0
-0.224161 0.244985 -0.095988 76 0 153
-0.396440 0.129904 0.077441 76 153 0
-0.500365 0.268246 -0.080887 76 0 153
0.287651 0.207552 -0.277179 153 76 0
0.701113 -0.463619 -0.267475 76 0 153
0.122278 0.264025 -0.320028 76 0 153
-0.405261 -0.483686 -0.122207 204 51 127
-0.246108 0.225576 0.200285 0 255 0
-0.065460 0.143074 -0.277179 153 76 0
0.629576 0.129655 0.502558 76 0 153
0.107584 0.107707 -0.236778 204 51 127
-0.237354 0.091952 0.067016 204 51 127
-0.073335 0.268246 -0.215384 76 0 153
0.627657 -0.474517 0.024499 204 51 127
0.593628 0.129904 0.144265 204 51 127
-0.021967 -0.483686 -0.061079 204 51 127
-0.729443 0.154079 -0.215380 127 0 127
-0.553351 0.208056 -0.277179 153 76 0
-0.487580 0.255515 0.241422 76 0 153
0.683981 0.244985 0.059746 0 0 255
-0.738494 0.115664 0.159885 76 0 153
-0.207575 0.221724 0.108561 204 51 127
-0.023253 0.160925 -0.253918 153 76 0
-0.572636 0.160546 -0.203723 0 127 127
-0.406751 -0.477221 -0.236778 204 51 127
-0.729949 -0.461650 -0.038669 127 127 0
0.671923 0.268246 0.073030 76 0 153
0.130891 0.224514 -0.253918 153 76 0
0.058407 0.221724 0.192911 153 0 76
-0.729443 0.208146 0.102176 127 0 127
-0.080815 -0.474081 0.159885 204 51 127
0.639724 0.248695 -0.311496 76 0 153
-0.210273 0.268246 -0.056712 76 0 153
-0.628573 -0.483686 0.019710 204 51 127
-0.729443 -0.041605 0.177417 76 0 153
-0.426602 0.115213 0.144308 76 153 0
-0.485338 0.129904 0.117324 76 153 0
0.486375 0.268246 -0.295249 76 0 153
0.654591 0.104132 0.074538 204 51 127
0.108467 0.244985 -0.212316 76 0 153
-0.342720 -0.461712 0.159885 204 51 127
0.179575 0.117155 0.368791 153 76 0
-0.188410 -0.483686 -0.131028 204 51 127
0.033599 -0.461650 0.040773 204 51 127
-0.067237 0.093719 -0.236778 204 51 127
0.141623 0.206842 0.047652 204 51 127
-0.729443 -0.495960 0.175971 76 0 153
0.000881 0.091952 0.126922 0 0 255
0.233249 -0.483686 -0.084087 204 51 127
0.700724 -0.483686 -0.212894 0 255 0
0.268600 0.244985 0.204822 76 0 153
-0.391827 0.129904 -0.072494 76 153 0
0.360269 0.244985 -0.235566 204 51 127
0.164884 0.146940 0.266833 153 76 0
-0.048479 -0.461650 0.021188 204 51 127
0.574085 0.159231 0.083859 153 0 76
0.657911 -0.483686 -0.204906 0 255 0
0.166363 -0.463868 -0.236778 204 51 127
0.131369 -0.461650 0.057263 204 51 127
0.195410 -0.483686 0.159622 204 51 127
-0.061975 0.162607 0.200285 153 0 76
-0.552949 0.129904 0.035947 76 153 0
-0.432888 -0.461650 0.026018 204 51 127
-0.132095 -0.483686 -0.161074 204 51 127
-0.107798 0.259015 -0.320028 76 0 153
0.588974 -0.483686 -0.073284 204 51 127
-0.798545 0.244985 0.133030 76 0 153
0.312543 0.115213 0.122986 204 51 127
-0.366023 -0.461650 -0.121451 204 51 127
-0.744468 0.268246 -0.077369 76 0 153
-0.433899 0.244985 0.220957 76 0 153
0.437725 0.129904 0.457055 204 51 127
0.096520 0.115213 0.078444 0 0 255
-0.221694 0.142147 -0.003215 204 51 127
-0.625380 0.115213 0.101624 0 0 255
-0.608094 0.244985 -0.000076 76 0 153
-0.175954 -0.461650 -0.052509 204 51 127
-0.614015 -0.483686 -0.220696 204 51 127
-0.385617 0.268246 0.108065 76 0 153
0.465796 0.221724 0.192358 204 51 127
0.447228 0.112808 0.200285 204 51 127
0.161289 0.133267 0.173351 153 0 76
-0.725860 -0.483686 0.112883 127 127 0
0.027762 0.268246 0.016345 76 0 153
0.286907 0.122558 0.228365 204 51 127
0.390814 0.148049 -0.253918 153 76 0
-0.581384 0.244985 -0.148642 76 0 153
-0.729443 0.000650 0.179332 76 0 153
0.053444 0.235642 0.077859 76 0 153
0.586114 0.091952 0.190523 0 0 255
-0.580186 -0.483686 0.049872 204 51 127
0.654591 -0.163465 -0.262041 76 0 153
-0.265855 0.122558 -0.065266 76 153 0
-0.160717 -0.461650 -0.039373 204 51 127
0.005874 -0.483686 -0.104747 204 51 127
0.419728 0.111494 -0.253918 153 76 0
-0.729443 0.139615 -0.021489 127 0 127
0.431750 0.115213 0.085643 0 0 255
0.336763 0.116406 -0.277179 153 76 0
-0.261119 0.129904 0.133587 76 153 0
-0.295174 -0.461650 -0.109120 204 51 127
-0.765027 -0.625714 0.185771 76 0 153
-0.575307 0.126604 0.200285 0 255 0
0.701113 -0.608734 0.182273 153 0 76
0.694467 -0.577229 0.159885 153 0 76
0.644292 0.244985 0.096592 204 51 127
0.690122 0.268246 0.011340 76 0 153
-0.036992 0.268246 -0.282928 76 0 153
0.473940 0.103400 -0.236778 204 51 127
-0.729443 0.144654 -0.084581 127 0 127
-0.517934 -0.483686 0.005510 204 51 127
0.683322 0.247515 -0.310316 76 0 153
-0.251039 0.115213 -0.037361 204 51 127
0.548030 -0.461650 -0.185617 204 51 127
-0.631628 0.091952 0.090060 0 0 255
0.557624 0.244985 -0.146073 76 0 153
0.194887 0.268246 -0.056470 76 0 153
0.671202 0.244985 -0.241441 76 0 153
-0.452687 -0.483686 -0.067886 204 51 127
-0.548143 0.108498 0.077859 0 0 255
0.236884 0.091952 0.126840 0 0 255
0.179575 0.197741 0.459917 153 76 0
-0.216475 0.109514 -0.194629 204 51 127
0.265733 0.091952 0.151763 0 0 255
0.410949 0.115213 0.477812 204 51 127
-0.017223 -0.461650 -0.225715 204 51 127
0.640978 0.091952 0.097655 0 0 255
0.626159 0.171135 0.098550 153 0 76
-0.333423 -0.483686 -0.080487 204 51 127
-0.653850 -0.483686 0.107947 204 51 127
-0.239736 0.202725 -0.131995 127 127 0
-0.012013 0.230330 0.077859 204 51 127
0.068580 0.251208 0.237115 76 0 153
0.633079 0.091952 0.031172 0 0 255
-0.436922 0.268246 0.212196 76 0 153
-0.635546 0.244985 0.028787 76 0 153
-0.480513 0.268246 -0.157173 76 0 153
0.118414 0.174611 0.200285 153 0 76
0.633092 0.204696 0.502558 76 0 153
0.656827 0.244985 0.059211 76 0 153
-0.413627 -0.483686 0.138782 204 51 127
0.645016 -0.483686 -0.123812 0 255 0
0.358597 0.244985 0.203405 76 0 153
-0.709946 0.197983 -0.218414 0 127 127
0.233769 -0.461650 -0.163496 204 51 127
-0.453503 0.244985 -0.090150 76 0 153
-0.746582 0.210501 0.019341 255 0 0
-0.465538 0.115213 0.162190 0 0 255
0.646114 -0.472293 -0.236778 0 255 0
-0.374081 -0.461650 0.080979 204 51 127
-0.660890 0.268246 0.104580 76 0 153
-0.481384 0.091952 0.133768 0 0 255
0.461832 0.268246 -0.029285 76 0 153
-0.429459 -0.483686 -0.201208 204 51 127
0.141623 0.117079 -0.248785 204 51 127
0.604994 0.244985 0.116640 204 51 127
-0.729443 0.136575 -0.001021 127 0 127
0.648910 0.141105 0.495212 76 0 153
-0.756381 0.244985 0.081919 76 0 153
-0.143920 0.091952 0.146218 0 0 255
-0.297619 -0.461650 0.079007 204 51 127
0.654591 -0.348233 -0.253998 76 0 153
-0.462682 -0.461650 -0.187587 204 51 127
-0.769844 0.165691 0.034281 255 0 0
0.504221 0.091952 0.131414 0 0 255
0.247995 0.115213 0.127255 204 51 127
-0.357113 0.268246 0.227008 76 0 153
-0.246828 0.115213 -0.129462 127 127 0
0.211625 -0.461650 -0.092720 204 51 127
0.700490 0.227025 -0.283300 76 0 153
-0.318123 0.215208 0.173351 204 51 127
0.401133 -0.483686 -0.179031 204 51 127
-0.310639 0.091952 0.091853 0 0 255
0.253129 0.206234 0.098550 153 0 76
0.692894 -0.461650 -0.046721 0 255 0
0.626096 0.244985 -0.206482 204 51 127
0.164884 0.175979 0.432446 153 76 0
-0.560054 0.122558 -0.049985 76 153 0
-0.714752 0.195183 0.112592 127 0 127
0.317865 0.244985 -0.046197 76 0 153
0.370749 0.211428 0.098550 153 0 76
0.696512 -0.144252 0.159885 153 0 76
0.287330 0.268246 -0.172332 76 0 153
0.449094 0.268246 -0.063179 76 0 153
-0.130379 0.268246 -0.110340 76 0 153
-0.175254 -0.461650 0.073546 204 51 127
-0.292575 0.129904 -0.113289 76 153 0
-0.695596 0.122558 -0.216116 76 153 0
-0.254427 0.147780 0.061049 127 127 0
-0.304084 0.129904 0.130889 76 153 0
-0.729443 -0.541849 -0.271045 153 76 0
0.701113 -0.274988 0.163727 153 0 76
-0.245078 -0.483686 -0.198519 204 51 127
-0.717055 0.221724 -0.049303 127 0 127
-0.775965 -0.482464 -0.045702 127 127 0
0.141623 0.125053 0.019020 204 51 127
0.355419 0.193392 0.475624 76 0 153
0.591932 0.268246 0.231695 76 0 153
0.164884 0.134828 -0.250420 153 76 0
0.654591 -0.187579 -0.270696 76 0 153
-0.396467 0.129904 -0.186547 76 153 0
0.337142 0.268246 0.114784 76 0 153
0.057948 0.115213 0.189650 0 0 255
0.304705 0.268246 -0.208973 76 0 153
0.694992 0.133858 -0.061263 0 0 255
-0.259931 0.200176 0.173351 127 127 0
0.150342 0.221724 0.160241 204 51 127
0.176995 0.268246 -0.266025 76 0 153
0.528581 0.268246 0.124339 76 0 153
-0.711200 0.244985 -0.265381 76 0 153
0.555219 0.230891 -0.236778 204 51 127
0.701113 -0.243943 0.185533 153 0 76
0.514949 0.129904 0.208471 204 51 127
0.701113 -0.497111 0.190090 153 0 76
0.654591 0.124086 0.225098 76 0 153
0.627647 0.268246 -0.190954 76 0 153
-0.133203 0.091952 -0.257539 153 76 0
-0.394591 0.244985 0.078748 204 51 127
-0.484988 0.147557 -0.218414 0 127 127
-0.375901 0.114113 0.200285 0 255 0
-0.254606 0.115365 0.200285 0 0 255
0.546441 0.221724 0.162588 204 51 127
-0.214030 0.203139 -0.253918 153 76 0
0.356778 0.122558 0.167422 0 0 255
-0.729443 0.178004 0.031740 127 0 127
-0.318496 0.268246 -0.127359 76 0 153
0.701113 -0.472580 -0.030453 0 255 0
-0.277520 0.129904 0.115621 76 153 0
0.353141 0.221724 0.494036 76 0 153
0.164884 0.133697 0.493635 76 0 153
-0.079545 0.244985 0.129603 204 51 127
-0.775115 0.225915 0.159885 255 0 0
-0.251812 0.244985 -0.023259 76 0 153
-0.505467 -0.461650 -0.016159 204 51 127
0.296625 0.091952 0.181233 0 0 255
-0.663841 0.186707 -0.277179 153 76 0
0.608103 0.244985 -0.286989 153 76 0
-0.111065 0.115213 0.150630 0 0 255
0.095778 0.268246 -0.187532 76 0 153
-0.105134 0.115213 0.180161 0 0 255
-0.171901 -0.483686 -0.094693 204 51 127
-0.487152 -0.473661 -0.236778 204 51 127
-0.746582 0.181556 0.042470 255 0 0
0.178802 0.244985 0.189039 204 51 127
0.222774 -0.461650 -0.144904 204 51 127
-0.293707 0.122558 0.061717 76 153 0
0.168348 -0.461650 0.081667 204 51 127
-0.714521 -0.483686 -0.077037 127 127 0
0.427086 0.249021 0.234928 76 0 153
0.333885 0.268246 -0.150673 76 0 153
0.190554 0.129904 0.283754 204 51 127
-0.607782 0.129904 0.130146 76 153 0
0.164884 0.137155 -0.152155 204 51 127
0.225463 0.177950 0.502558 76 0 153
-0.560648 0.129904 0.129891 76 153 0
-0.547076 0.244985 -0.272080 153 76 0
0.167139 0.167115 0.502558 76 0 153
-0.347544 0.182316 -0.218414 0 127 127
0.275836 0.110787 -0.253918 204 51 127
-0.232676 0.091952 0.197763 0 0 255
0.655105 0.244985 -0.106685 204 51 127
-0.395421 0.244985 -0.186476 76 0 153
-0.441045 -0.461650 0.063045 204 51 127
-0.398209 0.211515 -0.218414 0 127 127
0.227541 0.104975 0.077859 0 0 255
0.425765 0.244985 -0.082011 76 0 153
-0.170897 -0.483686 -0.179169 204 51 127
-0.104832 0.244985 0.001560 76 0 153
0.234207 0.221724 0.486504 76 0 153
0.299275 0.091952 -0.254841 204 51 127
0.388618 -0.483686 0.050055 204 51 127
-0.336691 0.143202 -0.277179 153 76 0
0.664740 0.142147 -0.091371 0 0 255
-0.524530 -0.483686 0.086532 204 51 127
0.524384 0.232824 -0.253918 204 51 127
0.249351 0.268246 0.149230 76 0 153
0.505021 0.129904 0.185622 204 51 127
-0.344028 0.244985 0.171576 204 51 127
0.697853 -0.181719 0.206407 153 0 76
-0.174586 0.268246 0.073291 76 0 153
-0.001932 0.115213 0.105774 0 0 255
-0.774685 -0.207822 0.206407 76 0 153
0.463147 0.244985 -0.114361 76 0 153
-0.667745 0.210450 -0.253918 153 76 0
-0.430700 0.244985 -0.148846 76 0 153
0.559713 0.268246 0.193535 76 0 153
-0.171114 0.244985 -0.042238 76 0 153
-0.285682 0.228583 -0.253918 204 51 127
-0.379708 -0.461650 -0.235109 204 51 127
0.735456 0.254843 -0.216701 76 0 153
-0.729443 0.177947 -0.094902 127 0 127
0.694992 0.115105 0.031768 0 0 255
-0.285069 -0.483686 -0.137068 204 51 127
-0.761154 0.268246 -0.295480 76 0 153
0.639900 0.220636 0.246917 76 0 153
0.694992 0.163594 -0.082163 0 0 255
-0.346876 0.221724 0.125809 204 51 127
0.694992 0.123445 0.007604 0 0 255
-0.756052 -0.483686 0.108477 127 127 0
-0.016885 -0.461650 0.057351 204 51 127
-0.352144 0.244985 0.018172 76 0 153
0.701113 -0.410038 0.160389 153 0 76
-0.061660 -0.483686 -0.005191 204 51 127
-0.359261 0.268246 0.185024 76 0 153
-0.746582 0.154618 -0.110005 255 0 0
-0.365578 -0.483686 -0.234263 204 51 127
0.044918 0.091952 0.141295 0 0 255
0.671731 0.209546 0.003247 204 51 127
-0.131392 0.268246 -0.006969 76 0 153
-0.107800 0.091952 0.129285 0 0 255
0.446886 0.129904 0.121963 204 51 127
-0.658416 0.268246 0.084748 76 0 153
-0.688322 0.268246 -0.221683 76 0 153
-0.274250 0.198229 -0.218414 0 127 127
0.179575 0.138695 0.368607 153 76 0
-0.731844 -0.625714 -0.257584 153 76 0
0.654568 0.221724 0.317759 76 0 153
-0.618190 0.244985 -0.152800 76 0 153
0.623916 -0.483686 -0.002242 204 51 127
0.071691 0.152550 -0.277179 153 76 0
-0.241791 0.091952 0.008161 204 51 127
0.054348 -0.483686 0.108199 204 51 127
0.086918 0.244985 0.007234 76 0 153
0.671731 0.152154 0.074911 0 0 255
0.501453 0.129904 0.298567 204 51 127
0.389518 0.129904 0.363115 204 51 127
-0.037890 0.232451 -0.253918 204 51 127
0.671731 0.112939 -0.188290 0 0 255
-0.761293 -0.157006 0.206407 76 0 153
0.547385 0.268246 -0.217057 76 0 153
0.688823 -0.483686 -0.251931 76 0 153
-0.775965 -0.175497 0.183426 76 0 153
0.342995 0.268246 -0.314823 76 0 153
0.668500 -0.403485 -0.283300 76 0 153
0.365612 -0.461650 -0.176210 204 51 127
0.170100 0.268246 -0.225633 76 0 153
-0.623468 0.122558 -0.086644 76 153 0
-0.731752 0.244985 -0.152312 76 0 153
-0.566320 0.244985 -0.075225 76 0 153
0.695740 -0.461650 -0.010221 0 255 0
-0.743619 0.244985 0.007042 255 0 0
0.358268 0.159505 0.502558 76 0 153
-0.127959 0.244985 -0.172697 76 0 153
0.179575 0.166507 0.101671 153 0 76
-0.503777 0.129904 -0.139340 76 153 0
-0.553131 0.244985 0.072429 204 51 127
0.066535 0.244985 0.044935 76 0 153
-0.197529 -0.461650 -0.223511 204 51 127
-0.394802 -0.461650 -0.024885 204 51 127
0.680466 -0.395795 0.159885 153 0 76
0.453107 0.244985 -0.215685 76 0 153
-0.512036 0.268246 -0.266049 76 0 153
0.105356 0.190013 -0.253918 153 76 0
0.691642 -0.033434 -0.283300 76 0 153
-0.591740 0.268246 -0.313100 76 0 153
-0.775965 -0.473858 -0.268401 153 76 0
0.701113 0.228091 0.169351 153 0 76
0.082798 0.268246 -0.071729 76 0 153
0.047348 -0.461650 -0.006978 204 51 127
-0.234797 0.194790 0.071565 127 127 0
-0.021079 0.197110 -0.253918 153 76 0
-0.385058 0.133425 -0.253918 153 76 0
-0.769844 0.092224 -0.060052 255 0 0
-0.668966 0.091952 0.139003 0 0 255
0.293313 -0.461650 0.003293 204 51 127
-0.281557 0.147150 0.200285 0 255 0
-0.514587 -0.483686 0.063351 204 51 127
0.379600 0.244985 0.103801 76 0 153
0.106115 0.091952 0.190140 0 0 255
-0.098022 -0.461650 0.005352 204 51 127
0.525863 0.129904 0.142835 204 51 127
-0.764947 0.166986 0.206407 76 0 153
0.654591 -0.229559 0.166465 153 0 76
0.005107 0.145310 0.200285 153 0 76
-0.239736 0.170051 -0.158441 127 127 0
0.566392 0.123477 -0.253918 153 76 0
0.303297 0.129904 0.162294 204 51 127
0.267103 0.129904 0.332732 204 51 127
-0.419153 0.115213 0.085924 0 0 255
0.512325 0.167766 0.083859 153 0 76
-0.238967 0.115213 -0.016451 127 127 0
0.169957 0.227905 -0.236778 204 51 127
0.455802 0.143456 -0.253918 153 76 0
-0.493966 0.268246 0.222197 76 0 153
-0.110990 0.244985 -0.235546 76 0 153
0.461660 0.186667 0.098550 153 0 76
-0.530792 0.244985 0.100931 204 51 127
-0.095523 0.244985 -0.052065 76 0 153
0.445253 -0.483686 -0.061270 204 51 127
0.685278 -0.460870 0.159885 0 255 0
0.654591 0.161696 0.098879 76 0 153
0.639900 0.198553 0.224227 76 0 153
0.644081 0.268246 0.070931 76 0 153
0.249209 0.129904 0.308946 204 51 127
-0.477421 0.268246 0.077203 76 0 153
0.265460 0.221724 0.185902 204 51 127
0.701113 0.028423 0.160829 153 0 76
0.701113 0.243061 0.183670 153 0 76
0.106756 0.268246 -0.262818 76 0 153
-0.066995 0.091952 0.123652 0 0 255
-0.410139 0.268246 -0.017636 76 0 153
-0.329466 -0.483686 -0.220892 204 51 127
0.051646 0.244985 0.136150 204 51 127
-0.762105 0.244985 0.113274 76 0 153
0.306063 0.221724 0.152725 204 51 127
0.399474 0.251286 -0.314087 76 0 153
-0.438434 0.268246 0.082444 76 0 153
-0.060682 0.244985 -0.093424 76 0 153
-0.691025 0.091952 0.114800 0 0 255
-0.588794 0.122558 0.026074 76 153 0
0.701113 -0.252298 -0.243382 76 0 153
-0.135495 0.127298 -0.277179 153 76 0
0.459047 0.129904 0.241663 204 51 127
-0.309242 0.115213 0.102163 76 153 0
-0.809362 0.253896 -0.192663 76 0 153
0.694992 0.244926 -0.228189 0 0 255
-0.259922 -0.461650 -0.113974 204 51 127
-0.159057 0.244773 0.077859 204 51 127
-0.110163 0.091952 0.169906 0 0 255
0.368761 -0.461650 -0.108058 204 51 127
-0.570805 0.115213 0.165498 0 0 255
-0.741543 -0.486054 -0.236778 127 127 0
0.671731 0.170219 0.145254 0 0 255
-0.766580 0.091952 0.024888 255 0 0
0.522033 0.200757 0.098550 153 0 76
0.694992 0.221629 -0.118390 0 0 255
-0.729443 0.187485 -0.046062 127 0 127
-0.755887 -0.483686 -0.025505 127 127 0
-0.688413 0.187273 0.200285 0 255 0
0.165294 0.221724 0.005353 204 51 127
-0.218855 0.268246 -0.282314 76 0 153
0.132790 0.152887 -0.253918 153 76 0
-0.278493 0.129904 -0.023818 76 153 0
0.296197 -0.461650 0.115377 204 51 127
0.596875 0.268246 -0.196891 76 0 153
0.639900 0.168006 0.131811 76 0 153
-0.514485 0.129904 0.158733 76 153 0
-0.122844 0.115213 0.120977 0 0 255
-0.431128 0.224791 -0.236778 204 51 127
-0.301802 -0.483686 -0.195590 204 51 127
-0.414113 0.268246 0.119759 76 0 153
0.132872 0.268246 0.015411 76 0 153
-0.554437 0.142262 -0.203723 0 127 127
-0.729443 -0.068401 -0.245372 153 76 0
-0.568268 -0.483686 -0.032288 204 51 127
-0.729443 0.130618 0.049131 127 0 127
-0.694004 0.141392 0.173351 76 153 0
0.337286 0.244985 0.088506 204 51 127
0.334961 0.100697 -0.236778 204 51 127
0.701113 -0.516120 -0.274975 76 0 153
-0.672153 0.244985 0.092954 204 51 127
0.621975 0.244985 0.040261 76 0 153
0.179575 0.148210 0.406372 153 76 0
0.627657 -0.461760 -0.043119 0 255 0
-0.481416 0.268246 0.135128 76 0 153
0.141623 0.200138 -0.044904 204 51 127
0.319917 0.249448 -0.312248 76 0 153
0.676559 -0.483686 -0.171763 0 255 0
0.064423 -0.461650 -0.157804 204 51 127
-0.746582 0.170987 -0.196528 255 0 0
-0.630855 0.154128 -0.218414 0 127 127
0.614713 -0.461650 -0.173074 0 255 0
-0.748747 -0.324358 0.206407 76 0 153
0.466163 0.129904 0.174497 204 51 127
0.151684 0.244985 -0.208520 204 51 127
-0.581153 0.129904 0.104038 76 153 0
-0.283064 -0.483686 -0.173408 204 51 127
-0.592686 0.244985 0.153605 76 0 153
-0.320615 0.171201 0.200285 0 255 0
0.120529 0.268246 0.079897 76 0 153
0.636949 0.199459 -0.277179 153 76 0
-0.239932 -0.461650 -0.143844 204 51 127
0.589441 0.129904 0.352960 204 51 127
-0.754426 -0.421034 -0.236778 153 76 0
-0.729443 -0.124544 -0.249887 153 76 0
0.151457 0.115213 -0.060447 204 51 127
0.651907 0.212477 0.495212 76 0 153
0.378399 0.268246 -0.171013 76 0 153
-0.754874 -0.567575 0.206407 76 0 153
0.268250 -0.461650 0.104403 204 51 127
0.436193 0.268246 -0.225289 76 0 153
-0.769844 0.216926 0.109562 255 0 0
-0.556457 0.210143 0.173351 204 51 127
0.112194 -0.461650 0.089963 204 51 127
0.105276 -0.483686 0.038621 204 51 127
0.479725 0.154272 -0.277179 153 76 0
0.701113 -0.468432 -0.123842 0 255 0
-0.523701 -0.461650 -0.037168 204 51 127
-0.059355 -0.483686 0.126718 204 51 127
-0.568986 0.116423 -0.277179 153 76 0
-0.316756 0.111331 -0.277179 153 76 0
0.635091 0.115213 -0.197317 0 0 255
-0.351850 -0.461650 -0.083428 204 51 127
0.433029 -0.461650 -0.076211 204 51 127
-0.089297 0.221724 0.134251 204 51 127
-0.612705 0.129904 0.069919 76 153 0
0.066691 -0.483686 -0.007669 204 51 127
0.166516 0.115213 -0.107779 204 51 127
0.553077 0.095783 -0.236778 204 51 127
0.671731 0.204053 -0.031156 0 0 255
-0.583629 0.115213 0.131298 0 0 255
0.563123 0.268246 -0.179314 76 0 153
0.663791 -0.559681 0.206407 153 0 76
0.230882 0.122558 0.379943 204 51 127
0.476437 0.244985 -0.194792 76 0 153
-0.159711 -0.483686 0.057826 204 51 127
-0.690444 -0.461650 -0.206646 204 51 127
0.357179 0.268246 -0.112288 76 0 153
0.701113 -0.546822 0.182161 153 0 76
0.678507 -0.401217 0.206407 153 0 76
0.046337 0.244985 -0.134772 76 0 153
0.357288 0.091952 0.140984 0 0 255
-0.543486 0.115213 0.103440 76 153 0
0.584437 0.244985 -0.093107 76 0 153
0.671731 0.186143 0.074018 0 0 255
0.010223 -0.461650 0.003630 204 51 127
0.555619 0.268246 0.225861 76 0 153
0.156688 0.244985 -0.296496 76 0 153
0.051958 0.115213 0.129833 0 0 255
0.016203 0.244985 0.168767 76 0 153
-0.714752 0.161800 -0.199489 127 0 127
0.654591 0.230233 -0.006253 204 51 127
-0.606822 0.268246 -0.016748 76 0 153
0.179575 0.203498 0.143539 153 76 0
-0.511199 0.129904 0.132745 76 153 0
-0.746582 0.109195 0.059424 255 0 0
0.620944 -0.483686 -0.224437 0 255 0
0.141623 0.244958 -0.110375 204 51 127
0.636485 0.221724 0.172095 76 0 153
0.292425 0.110542 -0.277179 153 76 0
-0.793821 0.244985 -0.171071 76 0 153
-0.371217 0.122558 -0.105201 76 153 0
-0.727133 -0.483686 -0.172480 127 127 0
-0.139847 0.174988 -0.277179 153 76 0
-0.398463 0.268246 -0.155181 76 0 153
-0.352105 0.122558 -0.141472 76 153 0
0.054314 -0.483686 -0.220848 204 51 127
0.578881 0.091952 0.156351 0 0 255
0.164884 0.151978 0.383502 153 76 0
-0.654836 -0.483686 0.003073 204 51 127
-0.394498 0.268246 0.214182 76 0 153
-0.653896 0.091952 0.177629 0 0 255
0.688041 0.268246 -0.134223 76 0 153
0.596668 -0.483686 -0.040378 204 51 127
-0.277712 0.220212 -0.277179 153 76 0
-0.249195 0.091952 -0.096228 204 51 127
-0.226789 0.268246 -0.204651 76 0 153
-0.460916 0.129904 0.081420 76 153 0
0.710808 0.244985 -0.152586 76 0 153
-0.532583 0.196513 -0.218414 0 127 127
-0.242395 0.244985 -0.267965 153 76 0
0.565964 0.185296 0.098550 153 0 76
-0.457489 0.091952 0.179670 0 0 255
-0.668057 0.106467 -0.236778 204 51 127
-0.526017 0.244985 0.137868 204 51 127
-0.605766 0.091952 0.150695 0 0 255
-0.773781 -0.221583 -0.283300 153 76 0
0.070176 -0.483686 -0.063200 204 51 127
-0.114033 -0.483686 -0.123225 204 51 127
0.038055 0.221724 0.173570 153 0 76
0.164884 0.219336 0.389364 153 76 0
-0.243073 -0.461650 -0.215430 204 51 127
-0.384457 0.195083 0.173351 0 255 0
-0.775965 0.018917 -0.240985 153 76 0
0.111510 0.221724 0.198153 153 0 76
0.004073 0.268246 0.004235 76 0 153
0.179575 0.148772 0.300812 153 76 0
-0.228523 -0.483686 -0.150805 204 51 127
-0.697365 0.201995 -0.203723 0 127 127
-0.425816 0.182784 -0.218414 0 127 127
-0.312222 0.196483 -0.203723 0 127 127
0.374426 0.201968 0.475624 76 0 153
0.409166 0.129904 0.145532 204 51 127
0.202170 0.159963 0.083859 153 0 76
0.628368 0.221724 0.135282 204 51 127
-0.485881 0.139017 0.200285 0 255 0
-0.162597 0.244985 0.159444 76 0 153
0.164884 0.203980 0.206476 153 76 0
-0.289260 -0.461650 0.141277 204 51 127
-0.626747 -0.483686 -0.094094 204 51 127
-0.437975 0.244985 -0.014149 76 0 153
-0.257213 0.268246 -0.002484 76 0 153
0.518833 0.122558 0.371888 204 51 127
-0.714752 0.137944 0.135972 127 0 127
-0.729443 0.162300 0.073506 127 0 127
-0.254427 0.147788 -0.060563 127 127 0
-0.769844 0.103129 0.047327 255 0 0
-0.254427 0.153374 -0.124492 127 127 0
0.466753 0.268246 0.133289 76 0 153
-0.106617 0.207060 0.173351 153 0 76
0.256219 0.244985 -0.164534 76 0 153
-0.769844 0.135577 -0.088847 255 0 0
-0.372522 -0.483686 -0.178173 204 51 127
-0.216475 0.104314 -0.149531 204 51 127
-0.021892 0.185017 -0.277179 153 76 0
0.300517 -0.461650 -0.172047 204 51 127
0.545228 0.221724 0.189716 204 51 127
0.157414 0.115213 0.185369 153 0 76
-0.477820 0.129904 0.157688 76 153 0
-0.716983 0.129904 -0.053381 127 0 127
-0.599452 0.268246 0.131184 76 0 153
0.654591 -0.464995 -0.263383 76 0 153
0.194267 0.241780 0.050101 76 0 153
0.397414 0.244985 0.135563 76 0 153
-0.485170 0.229086 -0.253918 153 76 0
-0.056477 0.244985 -0.194409 76 0 153
0.407748 0.091952 0.199325 0 0 255
0.697701 0.044218 -0.283300 76 0 153
-0.015808 0.113053 -0.277179 153 76 0
0.320462 0.268246 -0.100701 76 0 153
0.654591 -0.527905 0.163091 153 0 76
-0.715421 0.268246 0.019071 76 0 153
0.676426 0.268246 -0.250092 76 0 153
-0.466968 0.111868 -0.253918 153 76 0
-0.737311 -0.567963 -0.236778 153 76 0
0.134439 0.115213 0.109919 0 0 255
-0.239736 0.163367 0.047674 127 127 0
0.138363 -0.483686 -0.013228 204 51 127
0.182830 0.244985 0.162080 76 0 153
-0.465717 0.150742 -0.218414 0 127 127
0.173631 0.110381 -0.236778 204 51 127
0.048685 0.115213 -0.244007 153 76 0
-0.604877 -0.483686 -0.138876 204 51 127
0.420740 0.244985 -0.051055 76 0 153
0.559494 0.221724 0.124063 204 51 127
0.679905 -0.558902 0.159885 153 0 76
0.479909 -0.483686 -0.009075 204 51 127
-0.174694 0.268246 0.100717 76 0 153
0.619993 0.268246 -0.256677 76 0 153
-0.216475 0.107796 -0.079068 204 51 127
-0.511451 -0.483686 -0.190038 204 51 127
-0.394456 0.122558 0.053378 76 153 0
-0.239736 0.130855 -0.232590 204 51 127
0.330754 0.244985 -0.203181 76 0 153
-0.624508 0.122558 -0.065828 76 153 0
-0.334382 0.129904 0.042178 76 153 0
0.552968 0.205127 0.098550 153 0 76
0.654591 -0.576064 0.178185 153 0 76
-0.387264 0.109084 -0.253918 204 51 127
0.415539 -0.483686 -0.102474 204 51 127
-0.387353 -0.461650 -0.078681 204 51 127
0.396784 0.268246 -0.024398 76 0 153
0.564307 0.255166 -0.317966 76 0 153
-0.775965 -0.025303 -0.283213 153 76 0
0.654591 0.170320 0.178203 76 0 153
-0.517714 0.268246 -0.072844 76 0 153
0.671733 -0.173545 0.159885 153 0 76
-0.688249 0.122558 0.019763 76 153 0
0.356873 -0.477865 0.159885 204 51 127
-0.737798 -0.306102 -0.236778 153 76 0
-0.358346 0.122558 -0.171876 76 153 0
0.179575 0.115812 0.418652 153 76 0
-0.728238 -0.461650 -0.000648 127 127 0
0.654591 0.117646 -0.267099 76 0 153
-0.470325 0.151373 0.228403 255 0 0
0.701113 -0.075167 0.182636 153 0 76
0.162029 0.115213 -0.188468 204 51 127
0.523204 0.115213 0.181710 0 0 255
-0.567224 -0.461650 0.130263 204 51 127
