ply
format ascii 1.0
element vertex 1278
property float x
property float y
property float z
property uchar red
property uchar green
property uchar blue
end_header
0.076749 -0.629433 0.141238 76 0 153
0.098307 0.568884 0.161866 76 0 153
0.115796 0.512156 0.180614 76 0 153
-0.235743 0.060018 -0.208345 76 0 153
0.229656 0.470048 -0.057793 76 0 153
-0.016475 0.375179 -0.242222 76 0 153
-0.278366 -0.579563 -0.098827 76 0 153
0.266788 -0.546485 -0.187862 76 0 153
-0.103505 -0.629433 -0.099282 76 0 153
-0.123527 0.345922 -0.218107 76 0 153
-0.046491 0.922189 0.071911 76 0 153
-0.230848 -0.063921 -0.214725 76 0 153
0.091899 0.527395 0.184612 76 0 153
0.133532 -0.342360 0.287661 76 0 153
-0.269802 -0.133232 0.150343 76 0 153
0.059148 -0.629433 0.194143 76 0 153
0.296265 -0.367619 -0.146826 76 0 153
0.220107 -0.629433 -0.040420 76 0 153
0.076202 -0.624624 0.252443 76 0 153
0.130703 0.838017 0.020517 153 76 0
0.106849 0.805826 0.041543 153 76 0
-0.197670 0.339117 0.139601 76 0 153
0.054376 0.342764 -0.253486 76 0 153
0.081303 0.991259 0.044991 76 0 153
0.289940 0.003070 0.150508 76 0 153
-0.259467 -0.282676 -0.177428 76 0 153
0.223177 -0.588286 -0.216219 76 0 153
-0.023370 0.317392 0.258868 76 0 153
-0.159323 0.256981 0.237779 76 0 153
-0.189054 0.156250 0.153854 76 0 153
0.185465 -0.478996 -0.272503 76 0 153
0.247450 0.157070 -0.219294 76 0 153
0.013915 0.983887 -0.111384 76 0 153
-0.282875 -0.246185 -0.130367 76 0 153
0.063844 0.989756 -0.082247 76 0 153
0.002698 0.580807 0.177094 76 0 153
0.303672 0.258538 -0.041964 76 0 153
0.279985 0.146010 -0.177022 76 0 153
0.057213 -0.629433 -0.070112 76 0 153
0.229980 0.209607 -0.228216 76 0 153
0.103615 -0.088194 0.300053 76 0 153
-0.015965 -0.629433 0.136557 76 0 153
-0.158621 -0.238916 0.266011 76 0 153
-0.091148 0.537714 -0.183645 76 0 153
-0.016521 0.922189 -0.109546 76 0 153
-0.086782 0.414523 -0.213434 76 0 153
-0.073172 -0.302889 -0.315878 76 0 153
-0.191053 -0.356040 0.241125 76 0 153
-0.292889 -0.273008 0.094606 76 0 153
0.028133 0.454102 -0.232636 76 0 153
0.278814 -0.161369 -0.178548 76 0 153
0.320990 0.142729 0.071763 76 0 153
-0.309681 -0.270822 0.004170 76 0 153
0.074225 0.217287 -0.308541 76 0 153
0.155197 -0.009968 -0.290272 76 0 153
0.109313 0.035485 0.297692 76 0 153
0.131858 -0.038891 0.288354 76 0 153
-0.032250 0.336876 -0.256986 76 0 153
0.282898 -0.119949 -0.173226 76 0 153
0.318190 -0.431031 -0.093894 76 0 153
-0.136299 -0.460078 0.278145 76 0 153
0.108903 0.945180 -0.077943 76 0 153
0.252961 0.355117 0.029948 76 0 153
-0.298645 -0.094127 0.080709 76 0 153
-0.005062 -0.025785 -0.324893 76 0 153
0.317860 0.211360 -0.042612 76 0 153
-0.056738 0.281988 0.273923 76 0 153
-0.131106 0.101114 0.280296 76 0 153
0.236708 0.156250 0.002376 76 0 153
0.125228 -0.608377 0.251781 76 0 153
0.226290 -0.038786 -0.241178 76 0 153
-0.303658 0.183591 -0.037525 76 0 153
-0.011373 0.156250 0.290498 76 0 153
0.128776 0.954540 -0.027792 76 0 153
-0.107971 0.579780 -0.145688 76 0 153
-0.032614 -0.229336 -0.321265 76 0 153
0.181324 -0.196947 0.264096 76 0 153
0.117948 -0.507000 0.294116 76 0 153
-0.309562 -0.334371 -0.016660 76 0 153
0.151923 -0.272847 -0.291628 76 0 153
-0.198084 -0.261649 0.235730 76 0 153
-0.155704 -0.578766 0.248330 76 0 153
-0.306922 -0.473985 0.025130 76 0 153
0.090070 -0.210212 0.304776 76 0 153
-0.307371 -0.308676 0.021722 76 0 153
0.111181 0.161012 0.296424 76 0 153
0.191535 0.549970 -0.084534 76 0 153
0.219400 -0.480066 0.234879 76 0 153
-0.136599 -0.186434 0.278020 76 0 153
0.154963 0.058858 0.278783 76 0 153
0.042704 -0.058586 -0.322597 76 0 153
0.091883 0.912550 0.067465 153 76 0
-0.257145 0.308770 -0.063847 76 0 153
-0.177715 -0.605850 -0.219988 76 0 153
0.111426 -0.342117 -0.308402 76 0 153
0.170282 -0.614158 0.219877 76 0 153
0.232632 -0.157956 0.224726 76 0 153
0.069821 -0.629433 -0.024672 76 0 153
0.273080 -0.059983 0.174436 76 0 153
0.135312 -0.629433 0.056956 76 0 153
-0.299128 -0.560798 0.022040 76 0 153
-0.041344 0.852651 0.105884 153 76 0
-0.145602 0.455633 -0.172825 76 0 153
0.280641 0.301980 -0.066904 76 0 153
0.209132 -0.325797 0.242758 76 0 153
-0.018890 0.852079 -0.125929 153 76 0
0.105003 0.003145 0.299478 76 0 153
-0.031861 0.683499 0.110333 153 76 0
-0.248269 0.157123 -0.191884 76 0 153
0.200532 0.088755 -0.260943 76 0 153
-0.160715 -0.312920 -0.275990 76 0 153
0.113558 0.381316 0.206716 76 0 153
0.038711 0.683253 0.114924 153 76 0
0.198573 -0.280342 0.250860 76 0 153
-0.250814 -0.594814 -0.140872 76 0 153
-0.153568 -0.629433 0.159447 76 0 153
-0.119149 0.156250 0.270527 76 0 153
0.325206 -0.346625 0.039735 76 0 153
0.263941 -0.274454 -0.197932 76 0 153
0.188715 0.519048 0.106781 76 0 153
0.297252 -0.187929 -0.144441 76 0 153
0.142898 -0.629433 0.014727 76 0 153
-0.245811 -0.156259 -0.195225 76 0 153
-0.095799 -0.261756 0.294920 76 0 153
0.120524 -0.629433 0.105051 76 0 153
-0.310326 -0.357143 -0.000729 76 0 153
-0.042904 -0.582030 0.290531 76 0 153
0.036806 0.838257 0.114756 153 76 0
-0.307479 -0.168338 -0.032487 76 0 153
0.329377 -0.501245 -0.019640 76 0 153
-0.179040 -0.629433 0.090309 76 0 153
-0.306211 -0.440263 0.030531 76 0 153
-0.146615 0.192151 0.268936 76 0 153
-0.308705 -0.266264 -0.023172 76 0 153
0.259561 -0.121376 -0.203639 76 0 153
-0.266458 -0.536139 -0.165324 76 0 153
0.049614 0.283685 0.276768 76 0 153
-0.179895 0.213293 0.238542 76 0 153
0.205299 -0.622853 -0.189964 76 0 153
-0.166197 0.570189 -0.071406 76 0 153
-0.293041 -0.507389 0.094240 76 0 153
-0.179053 -0.182944 -0.261918 76 0 153
0.245474 -0.552804 -0.212781 76 0 153
-0.008475 0.995281 0.061035 76 0 153
0.100019 0.509145 -0.199884 76 0 153
0.212067 -0.579547 0.220053 76 0 153
0.048065 0.664571 -0.130024 153 76 0
0.186853 0.088637 0.259853 76 0 153
0.100858 -0.381041 0.301195 76 0 153
0.021097 0.156250 0.219695 76 0 153
-0.071983 -0.405300 -0.316082 76 0 153
-0.227309 -0.629433 0.087489 76 0 153
-0.256099 -0.092211 -0.181817 76 0 153
-0.307989 0.109946 -0.028607 76 0 153
-0.043551 0.904601 0.093812 153 76 0
0.277166 -0.148417 0.169110 76 0 153
0.091188 0.404723 -0.221555 76 0 153
0.182727 -0.364228 0.263019 76 0 153
-0.287344 0.143398 -0.119578 76 0 153
0.229879 0.398797 -0.080415 76 0 153
-0.282661 -0.132185 0.119299 76 0 153
0.264064 0.032176 -0.197771 76 0 153
-0.025206 0.495884 0.209220 76 0 153
-0.267382 0.210304 0.134787 76 0 153
-0.291916 0.217389 -0.075249 76 0 153
0.118758 0.701341 0.041807 153 76 0
0.309830 -0.486031 -0.114075 76 0 153
0.065374 0.777407 -0.099306 153 76 0
-0.108085 0.960761 0.006281 76 0 153
0.234355 0.256153 -0.200871 76 0 153
-0.087775 -0.314439 0.298244 76 0 153
0.005001 -0.070723 0.314632 76 0 153
-0.048021 0.021922 0.307652 76 0 153
-0.070790 -0.079104 -0.316239 76 0 153
0.319463 -0.197074 0.079234 76 0 153
-0.028645 0.486447 -0.223009 76 0 153
0.014152 -0.121666 0.314771 76 0 153
0.107680 0.860730 -0.079517 153 76 0
0.325443 -0.407285 0.037936 76 0 153
-0.005448 -0.629433 -0.148758 76 0 153
-0.238938 -0.115801 0.192597 76 0 153
0.304005 0.066564 0.116554 76 0 153
-0.174907 0.484098 0.116166 76 0 153
0.297524 -0.601638 0.014897 76 0 153
0.027842 -0.054047 0.312969 76 0 153
-0.075597 0.562684 0.166304 76 0 153
-0.055156 -0.629433 0.243098 76 0 153
-0.068037 0.203687 -0.309800 76 0 153
-0.073467 0.645085 0.104354 153 76 0
-0.075695 -0.629433 0.017419 76 0 153
0.046921 0.588810 0.168680 76 0 153
-0.069159 0.244377 0.286918 76 0 153
-0.132603 -0.629433 -0.105172 76 0 153
-0.036918 0.547593 0.188565 76 0 153
0.310401 0.081818 -0.112697 76 0 153
-0.176207 -0.456176 0.252517 76 0 153
-0.104816 0.816356 -0.038361 153 76 0
0.169545 0.287034 0.229469 76 0 153
0.061571 -0.170763 -0.320113 76 0 153
0.161436 0.265485 0.247464 76 0 153
-0.061609 0.753359 0.077366 153 76 0
-0.196966 0.476128 -0.088820 76 0 153
-0.038025 -0.351887 -0.320553 76 0 153
-0.107871 -0.111478 0.289920 76 0 153
0.183621 -0.522937 -0.273453 76 0 153
0.052246 0.702036 -0.116538 153 76 0
-0.096523 0.620917 -0.121918 76 0 153
0.055530 0.980124 0.093444 76 0 153
-0.044649 0.806861 0.087702 153 76 0
-0.252894 -0.356950 0.174408 76 0 153
-0.202143 0.156250 0.125149 76 0 153
0.188600 -0.442220 -0.270098 76 0 153
-0.098262 0.156250 0.069059 76 0 153
0.181789 0.480387 0.135106 76 0 153
-0.276946 0.105213 0.133096 76 0 153
0.031477 -0.629433 -0.070234 76 0 153
-0.031486 -0.624464 -0.267467 76 0 153
0.281731 -0.216317 -0.174747 76 0 153
0.328582 0.079748 -0.025681 76 0 153
-0.259137 -0.153214 0.166273 76 0 153
-0.205871 0.492976 -0.040584 76 0 153
0.218976 0.156250 0.057457 76 0 153
-0.191887 -0.229028 -0.252070 76 0 153
0.194573 -0.238289 -0.265515 76 0 153
0.098422 -0.552821 0.296126 76 0 153
0.185363 -0.083179 0.260997 76 0 153
0.178845 0.156250 0.157569 76 0 153
0.240151 0.380778 0.055414 76 0 153
-0.197929 -0.629433 0.123460 76 0 153
-0.228686 0.052236 0.205957 76 0 153
0.323305 -0.548585 0.020439 76 0 153
0.159634 0.575838 -0.114954 76 0 153
0.037541 0.156250 0.273485 76 0 153
0.077371 -0.507778 0.306448 76 0 153
-0.275137 -0.451666 0.137462 76 0 153
-0.042405 -0.629433 -0.023665 76 0 153
0.300174 -0.411127 -0.137388 76 0 153
0.039862 -0.283283 -0.322971 76 0 153
-0.047460 0.922189 0.005938 76 0 153
0.213325 -0.526129 -0.250383 76 0 153
-0.198909 -0.418043 0.235097 76 0 153
-0.132520 0.081503 -0.291295 76 0 153
0.034691 -0.629433 0.221549 76 0 153
-0.084492 0.249690 -0.290152 76 0 153
0.330396 -0.404333 -0.011901 76 0 153
0.148524 0.131859 -0.293036 76 0 153
-0.264770 0.059928 0.158932 76 0 153
-0.097425 0.607972 0.120786 76 0 153
-0.233353 0.362209 -0.014971 76 0 153
0.331105 -0.224524 -0.006516 76 0 153
0.323531 -0.315050 0.052463 76 0 153
-0.130751 -0.629433 0.028174 76 0 153
-0.113167 0.826096 0.000176 153 76 0
-0.218318 0.350519 0.089804 76 0 153
0.328902 -0.504813 0.011661 76 0 153
0.073240 -0.207564 -0.318577 76 0 153
-0.125507 0.547357 0.140907 76 0 153
-0.097172 0.628441 0.102735 76 0 153
0.217358 -0.484312 -0.248031 76 0 153
0.079848 0.780724 0.076406 153 76 0
0.040914 -0.629433 -0.154644 76 0 153
0.042208 -0.566366 -0.312358 76 0 153
0.148103 0.316727 -0.236749 76 0 153
0.312151 0.180775 -0.101296 76 0 153
0.030002 -0.181319 -0.324269 76 0 153
-0.267276 0.293278 0.037503 76 0 153
-0.235802 -0.502469 0.196684 76 0 153
0.191831 -0.551994 0.249254 76 0 153
0.244721 -0.511702 -0.222980 76 0 153
-0.175209 0.578145 -0.005339 76 0 153
0.257615 -0.385333 0.194590 76 0 153
0.183232 -0.629433 0.029925 76 0 153
-0.100779 -0.222374 0.292857 76 0 153
-0.175277 -0.629433 0.038535 76 0 153
-0.177941 0.427826 0.122942 76 0 153
-0.183162 0.358213 -0.155032 76 0 153
0.052559 0.156250 -0.005468 76 0 153
-0.135417 -0.228552 0.278510 76 0 153
-0.075812 -0.210876 -0.314784 76 0 153
-0.115196 -0.520050 -0.298196 76 0 153
-0.293097 -0.482825 -0.105690 76 0 153
-0.171083 0.156250 0.051928 76 0 153
0.320417 -0.329920 -0.087700 76 0 153
-0.284042 -0.229923 0.115966 76 0 153
0.181612 0.064161 0.263875 76 0 153
-0.058404 0.699598 0.091661 153 76 0
0.329967 0.154199 0.003572 76 0 153
-0.299220 -0.325461 0.079321 76 0 153
-0.306712 -0.032101 0.026723 76 0 153
0.242842 -0.167128 -0.225429 76 0 153
0.158357 0.386701 -0.187571 76 0 153
-0.276397 0.215424 -0.121610 76 0 153
-0.110042 0.649544 0.056256 153 76 0
0.226968 0.217773 0.216532 76 0 153
0.307940 0.254658 0.008750 76 0 153
-0.302642 0.007108 0.057643 76 0 153
-0.138634 -0.155889 0.277177 76 0 153
-0.205518 0.299210 -0.180949 76 0 153
0.110866 0.327659 -0.245465 76 0 153
-0.168655 -0.408108 -0.269897 76 0 153
0.255590 0.020742 0.197230 76 0 153
-0.152859 0.497174 -0.150514 76 0 153
0.074382 0.045853 0.306841 76 0 153
0.210212 -0.164498 0.241929 76 0 153
-0.105094 -0.189386 0.291070 76 0 153
0.067664 -0.629433 -0.154781 76 0 153
-0.217518 -0.617329 -0.157883 76 0 153
-0.243122 -0.208670 -0.198729 76 0 153
0.149963 0.643186 -0.014612 76 0 153
0.152992 0.607345 0.081184 76 0 153
0.067633 0.156250 0.198365 76 0 153
0.066259 0.750196 0.089790 153 76 0
-0.132308 0.576990 -0.123168 76 0 153
-0.104452 -0.629433 0.049148 76 0 153
0.027527 0.084780 -0.324595 76 0 153
0.165657 -0.629433 0.107714 76 0 153
-0.126228 -0.484955 -0.293901 76 0 153
0.037867 -0.386240 -0.323234 76 0 153
0.249332 0.304324 -0.145656 76 0 153
-0.247788 -0.507409 -0.192648 76 0 153
0.152452 -0.106159 0.279824 76 0 153
-0.058527 0.577602 -0.176624 76 0 153
0.107860 -0.609738 -0.269165 76 0 153
-0.247882 0.097732 0.180940 76 0 153
-0.100293 0.733587 -0.027384 153 76 0
0.326737 0.043479 -0.039689 76 0 153
0.182494 0.326793 -0.201905 76 0 153
0.112812 0.217719 -0.297076 76 0 153
0.267578 0.234724 -0.169195 76 0 153
-0.017513 0.922189 0.042916 76 0 153
0.281739 -0.576016 -0.143965 76 0 153
0.124841 -0.627901 0.228493 76 0 153
-0.267093 -0.490422 0.155904 76 0 153
0.201018 -0.331764 -0.260569 76 0 153
-0.001242 0.965208 0.110900 76 0 153
-0.001873 0.101471 0.313727 76 0 153
0.248535 0.275679 -0.169506 76 0 153
-0.131695 0.156250 0.241946 76 0 153
0.183661 -0.629433 -0.059802 76 0 153
0.225919 0.443972 -0.077814 76 0 153
0.111720 0.578928 -0.158922 76 0 153
0.064909 0.559330 -0.192526 76 0 153
0.161876 -0.437225 0.275920 76 0 153
0.275930 0.281764 -0.111764 76 0 153
0.089381 0.597058 -0.159968 76 0 153
0.038038 -0.209941 0.311626 76 0 153
0.084674 0.955058 0.088742 76 0 153
-0.289901 0.013254 0.101819 76 0 153
0.059358 -0.290254 0.308819 76 0 153
-0.095179 -0.533255 0.293615 76 0 153
0.165721 0.406877 0.164757 76 0 153
0.080610 -0.595184 0.279946 76 0 153
0.326319 -0.186742 -0.042864 76 0 153
0.144394 -0.562196 -0.285379 76 0 153
0.101025 0.156250 0.215307 76 0 153
0.222984 -0.605999 -0.195128 76 0 153
-0.223733 0.156250 0.045630 76 0 153
-0.084732 -0.629433 -0.135717 76 0 153
-0.225623 0.004596 0.209949 76 0 153
0.113652 0.391491 -0.215282 76 0 153
-0.120769 -0.629433 0.079190 76 0 153
0.128437 0.433940 0.189803 76 0 153
0.319243 -0.252558 0.079766 76 0 153
-0.022732 0.638854 0.134483 153 76 0
0.070591 -0.142491 0.307341 76 0 153
0.139695 -0.428516 0.285108 76 0 153
-0.065521 -0.629433 0.087786 76 0 153
-0.255970 -0.198125 0.170400 76 0 153
-0.078659 0.815243 -0.082724 153 76 0
0.015902 0.553199 -0.203013 76 0 153
0.286818 -0.425663 0.156533 76 0 153
0.109711 0.822493 0.066270 153 76 0
-0.250132 0.328501 -0.016916 76 0 153
0.020676 0.784831 -0.112904 153 76 0
-0.091566 -0.163177 -0.308259 76 0 153
0.306851 -0.124126 0.109683 76 0 153
-0.204015 0.371583 -0.113614 76 0 153
0.017577 -0.608613 -0.289041 76 0 153
-0.122203 -0.629433 -0.055548 76 0 153
-0.162875 -0.510119 -0.274333 76 0 153
-0.297459 -0.206966 0.083573 76 0 153
-0.218454 0.216707 -0.214992 76 0 153
-0.274674 0.261335 -0.088312 76 0 153
-0.172206 -0.629433 -0.175703 76 0 153
-0.300701 -0.123439 0.072384 76 0 153
-0.305238 0.006618 -0.049509 76 0 153
-0.303319 -0.292477 0.052501 76 0 153
0.266758 -0.627675 -0.053270 76 0 153
-0.295194 -0.165882 0.089042 76 0 153
0.323230 -0.307893 -0.066328 76 0 153
-0.100127 0.465212 0.192616 76 0 153
0.122340 0.854393 0.044074 153 76 0
0.198304 -0.629433 0.006079 76 0 153
-0.305683 -0.150932 0.034542 76 0 153
-0.094583 0.156250 0.200758 76 0 153
0.290271 -0.482581 0.149710 76 0 153
-0.217845 -0.210572 0.220086 76 0 153
0.153406 0.457939 -0.182005 76 0 153
-0.157719 -0.249022 -0.278289 76 0 153
0.229086 -0.629433 -0.143859 76 0 153
0.188839 0.230507 0.241530 76 0 153
0.184377 -0.129064 0.261753 76 0 153
0.331079 -0.272528 -0.006709 76 0 153
-0.219333 -0.585199 -0.197783 76 0 153
0.112541 0.925062 0.062177 76 0 153
0.329106 -0.130331 -0.021701 76 0 153
-0.059070 -0.230886 0.306197 76 0 153
0.182142 -0.629433 0.165795 76 0 153
-0.105915 0.840720 -0.047124 153 76 0
-0.295620 0.107583 0.088012 76 0 153
0.187922 0.306277 -0.214570 76 0 153
0.178787 0.156250 0.234236 76 0 153
-0.109928 -0.573615 0.274575 76 0 153
-0.027792 -0.252283 0.310315 76 0 153
0.143277 0.156250 0.118776 76 0 153
-0.283815 0.122629 0.116513 76 0 153
-0.186243 -0.291565 0.244816 76 0 153
-0.242995 0.228349 0.166441 76 0 153
0.093806 0.898745 -0.084863 153 76 0
-0.091668 -0.629433 -0.176016 76 0 153
0.182231 -0.608071 -0.229562 76 0 153
0.182143 -0.565697 -0.262491 76 0 153
0.304934 -0.451176 -0.125896 76 0 153
0.287594 -0.554037 0.140591 76 0 153
-0.198604 0.422041 -0.097882 76 0 153
-0.151743 0.482873 0.146873 76 0 153
0.199326 -0.048254 -0.261868 76 0 153
0.144622 -0.016251 0.283067 76 0 153
0.037603 -0.330060 0.311684 76 0 153
-0.174655 0.573346 0.018809 76 0 153
0.098827 0.760381 -0.069220 153 76 0
0.247782 0.360121 -0.065293 76 0 153
0.064275 0.477913 0.211616 76 0 153
-0.150233 -0.540700 -0.280624 76 0 153
0.209050 -0.041318 0.242821 76 0 153
-0.301002 -0.175441 -0.081681 76 0 153
-0.287607 0.220004 0.079844 76 0 153
0.115937 0.922189 -0.009422 76 0 153
-0.284940 -0.101161 0.113797 76 0 153
-0.037067 0.097493 0.309094 76 0 153
0.153095 -0.570866 0.266459 76 0 153
-0.081613 0.851599 0.076594 153 76 0
0.274488 0.156250 0.024384 76 0 153
0.245413 0.064927 0.210492 76 0 153
-0.236581 -0.475884 0.195669 76 0 153
-0.164202 0.300574 0.209555 76 0 153
0.074138 0.156250 0.109133 76 0 153
-0.257186 -0.054149 -0.180400 76 0 153
-0.176499 0.409623 -0.139824 76 0 153
0.107480 0.530550 -0.188370 76 0 153
-0.196645 -0.214068 0.236834 76 0 153
0.327457 0.126365 -0.034222 76 0 153
0.022839 0.922189 -0.033225 76 0 153
0.101088 -0.629433 0.179170 76 0 153
0.202975 0.469456 -0.123362 76 0 153
-0.050751 0.567659 0.173867 76 0 153
-0.246316 -0.559697 -0.181887 76 0 153
0.221908 0.171451 0.231094 76 0 153
-0.004291 0.901360 -0.118537 153 76 0
-0.092484 0.574560 0.149652 76 0 153
-0.250801 -0.621989 -0.076195 76 0 153
-0.304612 -0.428295 -0.054258 76 0 153
-0.278786 -0.428137 -0.140239 76 0 153
0.001559 0.274562 0.284893 76 0 153
0.235942 0.423710 -0.036504 76 0 153
0.296522 -0.524692 -0.145058 76 0 153
0.324321 0.004865 0.046459 76 0 153
-0.110656 -0.305079 0.288766 76 0 153
0.216396 0.526591 0.017255 76 0 153
0.135616 -0.598952 -0.267510 76 0 153
-0.045669 0.922189 -0.039983 76 0 153
0.081010 -0.629433 -0.232858 76 0 153
-0.162146 -0.280058 0.263307 76 0 153
0.140806 0.233079 0.269377 76 0 153
0.193958 -0.574003 0.237296 76 0 153
-0.215879 -0.537990 0.219104 76 0 153
0.168456 0.234987 -0.267042 76 0 153
-0.260580 0.177659 0.160578 76 0 153
0.121077 -0.629433 -0.060663 76 0 153
0.323202 -0.510961 0.054959 76 0 153
-0.137093 -0.072878 0.277816 76 0 153
-0.209678 0.406106 -0.076613 76 0 153
0.269215 0.099036 -0.191058 76 0 153
-0.282261 -0.173540 -0.131850 76 0 153
0.112079 -0.053990 0.296547 76 0 153
-0.101186 0.718761 0.025677 153 76 0
-0.162316 0.572171 0.066565 76 0 153
-0.157931 0.156250 -0.005559 76 0 153
-0.159165 -0.420087 0.265594 76 0 153
-0.121367 0.591073 0.112797 76 0 153
-0.099231 0.931875 0.051808 76 0 153
0.288026 0.065723 0.154957 76 0 153
0.032150 -0.540659 0.309682 76 0 153
-0.144685 0.081302 0.274671 76 0 153
0.324921 -0.156761 0.041900 76 0 153
0.195197 0.038379 0.253451 76 0 153
0.158578 -0.486634 0.277286 76 0 153
-0.028013 -0.629433 0.092644 76 0 153
0.014679 0.929403 0.117627 76 0 153
0.183962 0.156250 0.109975 76 0 153
-0.232760 0.127405 0.200647 76 0 153
-0.238041 0.184907 -0.199914 76 0 153
0.203879 0.298284 0.196170 76 0 153
0.150462 0.449582 0.172784 76 0 153
-0.010170 -0.265177 -0.324220 76 0 153
0.036263 -0.513092 0.311860 76 0 153
0.106803 -0.629433 0.013506 76 0 153
-0.302344 -0.508088 -0.071485 76 0 153
0.196773 0.524335 -0.099622 76 0 153
-0.217067 0.369100 0.072692 76 0 153
-0.308158 -0.074527 -0.027324 76 0 153
-0.297462 -0.224451 -0.095152 76 0 153
-0.306295 -0.520173 0.027909 76 0 153
0.189852 0.156250 0.024070 76 0 153
-0.000728 -0.354770 -0.325463 76 0 153
-0.203730 0.047619 -0.242983 76 0 153
0.013537 0.988137 0.092747 76 0 153
0.309814 0.011930 0.102529 76 0 153
-0.280662 -0.302628 -0.135710 76 0 153
-0.171358 0.472661 -0.137113 76 0 153
-0.261635 0.135885 0.163017 76 0 153
-0.100306 -0.628556 0.229355 76 0 153
0.302369 -0.099271 -0.132088 76 0 153
-0.282447 -0.360484 -0.131401 76 0 153
0.230638 0.490938 -0.001130 76 0 153
-0.035290 0.997950 0.021981 76 0 153
-0.078314 0.768791 -0.068500 153 76 0
0.074643 0.156250 0.018063 76 0 153
0.105283 0.444749 -0.212041 76 0 153
0.048310 0.561069 0.183451 76 0 153
0.327315 -0.042339 0.023719 76 0 153
0.014749 -0.157845 -0.326277 76 0 153
-0.030109 -0.629433 0.050736 76 0 153
-0.091963 -0.344724 -0.308094 76 0 153
0.036606 0.014316 0.311815 76 0 153
0.106554 0.973329 -0.066621 76 0 153
-0.138513 -0.629433 -0.140767 76 0 153
0.021574 0.597069 0.166960 76 0 153
-0.114522 -0.382611 -0.298750 76 0 153
0.194940 0.337667 -0.182380 76 0 153
0.142557 -0.075268 -0.295507 76 0 153
-0.184122 -0.317804 -0.258029 76 0 153
-0.099446 -0.086558 -0.304995 76 0 153
0.310290 0.239619 0.029731 76 0 153
-0.276753 -0.502064 -0.145148 76 0 153
0.097946 0.821959 -0.092829 153 76 0
-0.119180 -0.629433 0.005733 76 0 153
-0.021522 0.156250 0.211900 76 0 153
-0.277432 0.195116 0.118635 76 0 153
-0.032715 0.156250 0.150279 76 0 153
0.240031 0.384085 -0.061055 76 0 153
0.052443 0.999063 -0.020037 76 0 153
0.080068 0.482182 -0.216581 76 0 153
-0.031135 0.776159 0.093922 153 76 0
0.085504 0.314617 -0.265445 76 0 153
-0.187721 0.330988 0.160051 76 0 153
0.063521 -0.387307 -0.319857 76 0 153
0.101327 -0.161272 0.301000 76 0 153
0.202841 0.258020 0.219392 76 0 153
0.247020 -0.202941 -0.219984 76 0 153
0.311358 -0.020607 -0.110388 76 0 153
-0.212031 0.413116 0.056648 76 0 153
0.313951 -0.145325 -0.104127 76 0 153
0.156927 -0.629433 -0.023905 76 0 153
0.263838 -0.470415 -0.198065 76 0 153
-0.006616 0.156250 0.178167 76 0 153
0.002151 -0.083575 -0.325842 76 0 153
-0.291703 -0.063705 -0.109055 76 0 153
0.035541 0.794103 0.099165 153 76 0
-0.144609 0.429037 -0.173769 76 0 153
-0.007277 0.999304 0.033051 76 0 153
0.120088 0.901674 0.025407 153 76 0
-0.254003 -0.430255 0.172964 76 0 153
0.271235 -0.334135 -0.188426 76 0 153
0.013774 0.312870 0.266040 76 0 153
0.144400 0.547924 -0.153177 76 0 153
0.099797 -0.629433 -0.071820 76 0 153
0.122878 -0.302132 0.292074 76 0 153
-0.144887 -0.442495 -0.286173 76 0 153
-0.024904 -0.629433 -0.069649 76 0 153
-0.240809 -0.334252 -0.201743 76 0 153
0.274271 -0.596490 -0.130044 76 0 153
-0.180513 0.503029 -0.109001 76 0 153
0.239993 -0.629433 -0.094377 76 0 153
0.313344 -0.568426 -0.057239 76 0 153
0.310398 0.219148 0.073256 76 0 153
0.239921 -0.252159 0.217650 76 0 153
-0.080362 0.736719 0.059930 153 76 0
-0.106618 0.837159 0.033836 153 76 0
-0.064187 0.320507 0.249779 76 0 153
0.281667 -0.438381 -0.174830 76 0 153
0.142138 -0.629433 -0.093928 76 0 153
-0.087889 0.666929 0.077617 153 76 0
0.179948 0.450071 -0.157556 76 0 153
0.017930 0.513508 0.207195 76 0 153
-0.003515 -0.562129 0.304807 76 0 153
-0.090543 0.729713 -0.057771 153 76 0
-0.235176 0.156250 0.170345 76 0 153
0.303415 -0.010735 0.117977 76 0 153
-0.184510 -0.583874 -0.234169 76 0 153
0.321688 -0.272295 0.066462 76 0 153
-0.026103 0.730099 -0.112907 153 76 0
-0.292382 -0.143788 -0.107416 76 0 153
0.113387 0.663282 -0.084296 153 76 0
0.076387 0.922189 0.015761 76 0 153
0.323919 0.177664 0.031718 76 0 153
-0.093556 0.701622 -0.065287 153 76 0
0.325497 -0.259601 -0.049113 76 0 153
-0.171232 0.087083 0.256334 76 0 153
0.047130 0.922189 0.045166 76 0 153
-0.187442 -0.394350 -0.255481 76 0 153
-0.034838 0.436101 -0.228988 76 0 153
0.074990 -0.096395 -0.318347 76 0 153
-0.054547 0.156250 0.168881 76 0 153
-0.289428 -0.196425 -0.114548 76 0 153
-0.253588 0.258597 0.130446 76 0 153
-0.090424 0.466746 -0.207867 76 0 153
-0.304128 -0.347059 -0.057934 76 0 153
0.094799 0.606233 0.139804 76 0 153
-0.226976 -0.379351 -0.219771 76 0 153
0.290707 -0.290520 -0.160243 76 0 153
0.062307 0.384179 0.224512 76 0 153
0.012460 -0.627813 -0.268204 76 0 153
-0.274191 -0.160554 -0.151333 76 0 153
-0.018114 0.354175 0.238504 76 0 153
-0.074718 0.970403 0.072552 76 0 153
-0.070978 0.932216 -0.098685 76 0 153
-0.307843 -0.026303 -0.029716 76 0 153
0.079264 0.799894 -0.088145 153 76 0
-0.068598 -0.180757 0.304943 76 0 153
-0.013813 -0.524401 -0.323309 76 0 153
-0.221732 0.406532 -0.003964 76 0 153
0.239980 -0.330131 -0.229158 76 0 153
-0.079985 0.415530 0.204504 76 0 153
0.201287 -0.565373 -0.247954 76 0 153
0.058224 -0.004617 -0.320554 76 0 153
0.193775 -0.629433 -0.112934 76 0 153
-0.227995 0.003774 -0.218443 76 0 153
0.034141 -0.082514 -0.323724 76 0 153
-0.076197 0.980736 -0.071598 76 0 153
0.049868 -0.629433 0.139044 76 0 153
0.131944 0.949635 0.000307 76 0 153
0.227856 0.311136 0.155956 76 0 153
-0.101905 -0.477559 -0.303976 76 0 153
0.118709 0.058961 0.293801 76 0 153
-0.167967 0.156250 0.204073 76 0 153
-0.192447 -0.051078 -0.251641 76 0 153
-0.305686 -0.331946 0.034518 76 0 153
0.210542 0.454233 0.104166 76 0 153
-0.038525 0.981510 0.090737 76 0 153
-0.290255 -0.537781 0.095437 76 0 153
-0.126034 0.630598 -0.068552 76 0 153
0.323315 -0.387200 0.054099 76 0 153
0.274162 0.195060 0.164689 76 0 153
0.229018 -0.123381 -0.239084 76 0 153
0.307368 -0.296066 0.108434 76 0 153
0.184304 0.386965 0.152220 76 0 153
-0.057800 0.805064 -0.089174 153 76 0
-0.047506 0.619010 -0.153318 76 0 153
0.056782 0.990530 0.072205 76 0 153
0.119334 0.977069 -0.029568 76 0 153
0.230500 -0.566401 0.213124 76 0 153
0.062926 -0.185844 0.308350 76 0 153
0.130592 0.426120 -0.200353 76 0 153
-0.299971 0.162603 -0.084845 76 0 153
-0.087942 0.179930 0.295327 76 0 153
0.055483 0.315293 0.258808 76 0 153
0.266392 -0.625879 0.062494 76 0 153
0.002707 0.922189 0.061006 76 0 153
0.156939 0.156250 0.268140 76 0 153
-0.310771 -0.105004 -0.007481 76 0 153
-0.152758 -0.500053 0.270510 76 0 153
0.041169 0.999578 0.019800 76 0 153
0.266453 0.298435 0.102062 76 0 153
0.082570 0.113259 -0.317349 76 0 153
-0.239111 -0.425394 -0.203957 76 0 153
0.292349 0.164010 0.142749 76 0 153
-0.209840 -0.032676 0.226709 76 0 153
0.315993 -0.531969 -0.095828 76 0 153
-0.084662 0.825399 0.072747 153 76 0
-0.103858 -0.004334 -0.303167 76 0 153
0.316010 -0.413423 0.087572 76 0 153
0.143023 -0.170044 -0.295314 76 0 153
-0.196447 0.405237 0.097305 76 0 153
-0.283989 -0.178818 0.116094 76 0 153
0.077376 -0.588254 -0.296660 76 0 153
0.170162 0.594283 0.063788 76 0 153
-0.033140 0.357972 -0.246483 76 0 153
-0.103972 -0.609797 0.250760 76 0 153
-0.252545 0.322770 0.014512 76 0 153
0.268015 0.319629 -0.076066 76 0 153
-0.259734 -0.249120 -0.177080 76 0 153
-0.179687 -0.469853 -0.261432 76 0 153
-0.303581 0.154819 0.050510 76 0 153
0.320346 0.036316 -0.088241 76 0 153
0.244981 0.199863 -0.212907 76 0 153
-0.230883 -0.181880 0.203094 76 0 153
0.323079 -0.177241 0.055890 76 0 153
0.240430 -0.203349 0.216986 76 0 153
0.223261 -0.629433 0.010298 76 0 153
-0.191717 0.156250 0.022589 76 0 153
0.029568 0.534060 -0.209527 76 0 153
-0.295083 -0.364221 0.089309 76 0 153
0.231734 0.377999 0.078276 76 0 153
0.079215 -0.541358 0.303344 76 0 153
-0.071501 0.782084 0.064675 153 76 0
-0.043966 -0.008600 0.308185 76 0 153
-0.309956 -0.220327 -0.013673 76 0 153
-0.103159 0.950462 -0.049652 76 0 153
0.320324 -0.495921 0.076816 76 0 153
-0.243707 0.293876 0.114084 76 0 153
0.075547 0.402632 0.216920 76 0 153
0.196090 0.437194 0.124912 76 0 153
-0.204232 -0.629433 0.074337 76 0 153
0.024754 0.156250 0.301044 76 0 153
0.077054 0.326363 0.248445 76 0 153
-0.259803 -0.430980 -0.176990 76 0 153
0.088507 0.156250 0.153134 76 0 153
-0.113088 -0.256437 -0.299344 76 0 153
-0.142869 -0.598602 0.242501 76 0 153
0.048743 0.793120 -0.106018 153 76 0
0.321471 -0.297089 0.068108 76 0 153
-0.091849 0.315166 0.242438 76 0 153
0.030694 0.750888 -0.113961 153 76 0
0.069187 0.905698 0.090234 153 76 0
-0.048522 0.204279 0.300653 76 0 153
-0.137355 0.590672 0.092361 76 0 153
-0.200128 0.369474 0.113259 76 0 153
0.327292 0.169399 -0.025814 76 0 153
-0.074037 0.452518 -0.216869 76 0 153
0.308962 -0.067416 0.104586 76 0 153
0.114385 -0.128790 -0.307177 76 0 153
-0.179091 0.531496 -0.086198 76 0 153
0.122501 0.028950 -0.303815 76 0 153
0.098839 0.763263 0.057197 153 76 0
0.207578 -0.392789 0.243951 76 0 153
0.118009 0.261161 0.268544 76 0 153
-0.072408 -0.283652 0.304441 76 0 153
-0.255485 -0.178445 -0.182617 76 0 153
-0.177627 0.562969 -0.048117 76 0 153
-0.057142 -0.165885 -0.318036 76 0 153
0.309184 0.156250 0.035947 76 0 153
0.300543 0.156250 0.067362 76 0 153
-0.219883 0.396535 -0.036860 76 0 153
-0.241868 0.335838 0.035002 76 0 153
-0.090080 0.764440 0.036230 153 76 0
-0.105041 0.255300 0.267944 76 0 153
0.064425 -0.136832 -0.319738 76 0 153
0.281900 -0.585642 0.118437 76 0 153
0.178527 0.505088 -0.139434 76 0 153
0.029387 -0.629433 0.043306 76 0 153
0.178362 0.559092 0.092974 76 0 153
0.309796 -0.041876 0.102574 76 0 153
0.272129 -0.387599 0.175675 76 0 153
0.118134 -0.244383 -0.305624 76 0 153
-0.154331 0.040138 0.269303 76 0 153
0.049720 0.506452 -0.216988 76 0 153
-0.015200 0.922189 0.008528 76 0 153
-0.007069 -0.629433 -0.175915 76 0 153
0.269991 0.192395 -0.182485 76 0 153
-0.187886 -0.533942 -0.253217 76 0 153
0.315841 0.098123 0.087980 76 0 153
-0.228498 0.296699 0.141542 76 0 153
-0.276468 0.156250 0.092384 76 0 153
0.096691 0.057707 -0.314506 76 0 153
-0.301217 -0.004051 -0.080051 76 0 153
0.204171 -0.629433 0.083666 76 0 153
0.236408 -0.620155 0.142849 76 0 153
0.255305 -0.619639 0.109352 76 0 153
-0.162654 0.087907 -0.274502 76 0 153
0.091126 0.636723 0.114940 153 76 0
0.115966 0.982006 0.012069 76 0 153
-0.125419 0.320926 0.223295 76 0 153
0.212471 -0.187181 -0.251781 76 0 153
0.091241 0.173662 -0.314415 76 0 153
-0.233361 0.156250 0.093296 76 0 153
-0.261454 0.282333 0.085691 76 0 153
0.325098 -0.233178 0.040556 76 0 153
-0.308765 -0.180244 0.011128 76 0 153
0.268071 -0.629433 -0.019970 76 0 153
0.224397 0.156250 0.155938 76 0 153
0.114058 0.793461 -0.035408 153 76 0
0.074461 0.070542 0.306831 76 0 153
0.023631 0.922189 0.032992 76 0 153
0.181676 0.595168 0.023683 76 0 153
0.328099 -0.276111 -0.029349 76 0 153
0.328302 -0.162546 0.016218 76 0 153
0.075881 -0.629433 -0.056489 76 0 153
-0.079452 0.390757 0.209708 76 0 153
-0.049468 0.536003 -0.201655 76 0 153
0.235905 -0.061238 -0.233799 76 0 153
0.227922 -0.629433 0.041285 76 0 153
-0.008836 0.156250 0.040406 76 0 153
0.330780 -0.326944 -0.002604 76 0 153
0.079596 -0.447357 -0.317740 76 0 153
0.076175 0.659778 -0.120177 153 76 0
-0.153663 -0.131568 0.269816 76 0 153
-0.020125 0.288306 -0.287342 76 0 153
-0.302548 -0.199865 -0.069939 76 0 153
-0.229696 -0.625068 -0.116921 76 0 153
0.007338 0.156250 0.252707 76 0 153
0.296511 -0.159500 -0.146231 76 0 153
0.080135 0.555560 0.176503 76 0 153
0.237832 0.051135 -0.231957 76 0 153
0.092906 0.414604 0.207670 76 0 153
-0.273707 0.264987 0.075309 76 0 153
-0.251091 -0.031392 0.176758 76 0 153
-0.243376 0.329466 -0.063604 76 0 153
-0.042664 0.248105 -0.300895 76 0 153
0.038085 -0.255773 0.311620 76 0 153
0.005161 -0.482441 -0.326238 76 0 153
-0.033998 -0.144337 0.309498 76 0 153
0.062362 -0.629433 -0.101126 76 0 153
0.039998 0.965216 -0.120040 76 0 153
0.222052 0.336399 -0.148187 76 0 153
0.038768 0.994975 0.058653 76 0 153
-0.306666 0.079509 0.027076 76 0 153
0.053113 -0.157223 0.309642 76 0 153
-0.271720 -0.353362 -0.157299 76 0 153
0.220943 -0.411114 -0.245280 76 0 153
0.278859 -0.052222 -0.178490 76 0 153
0.259799 0.156250 0.054868 76 0 153
-0.301512 -0.426633 0.066224 76 0 153
0.293093 -0.315243 0.142898 76 0 153
0.027242 0.484788 -0.226286 76 0 153
-0.253145 -0.068435 0.174082 76 0 153
-0.039145 -0.629433 0.182248 76 0 153
-0.218139 -0.254186 0.219703 76 0 153
0.236586 0.086561 -0.233277 76 0 153
-0.052061 -0.216109 -0.318705 76 0 153
-0.303466 -0.192794 0.051382 76 0 153
-0.061433 0.856912 0.093873 153 76 0
-0.009992 0.057410 0.312658 76 0 153
0.132611 -0.629433 0.144715 76 0 153
-0.039927 -0.629433 0.140758 76 0 153
-0.111167 0.281569 -0.265375 76 0 153
-0.208836 0.395316 0.072741 76 0 153
-0.052323 0.464269 0.212634 76 0 153
-0.210549 -0.349914 0.226166 76 0 153
-0.301200 -0.027937 -0.080175 76 0 153
0.305747 -0.472643 0.112348 76 0 153
0.148861 -0.629433 -0.203701 76 0 153
0.119746 0.361630 -0.223187 76 0 153
0.299764 -0.121129 -0.138377 76 0 153
-0.047074 -0.323101 0.307776 76 0 153
0.166862 0.430431 0.160461 76 0 153
0.102838 0.922189 -0.033758 76 0 153
0.141318 -0.145582 -0.296021 76 0 153
0.046763 -0.629433 0.028404 76 0 153
0.051047 -0.499094 -0.321499 76 0 153
0.202178 0.036522 -0.259679 76 0 153
0.178368 -0.177706 -0.277950 76 0 153
-0.234213 0.264266 -0.169564 76 0 153
0.098767 -0.629433 -0.194849 76 0 153
-0.175509 -0.575075 0.235314 76 0 153
-0.308412 -0.449069 -0.025395 76 0 153
-0.172407 0.055046 -0.267018 76 0 153
0.115207 -0.129247 0.295251 76 0 153
0.094226 0.717906 -0.085109 153 76 0
-0.116966 -0.355632 0.286152 76 0 153
0.096075 -0.209273 -0.314761 76 0 153
-0.106245 0.156250 0.106542 76 0 153
0.308257 -0.380239 0.106290 76 0 153
-0.116165 0.156250 0.160851 76 0 153
-0.026901 -0.111633 0.310432 76 0 153
0.253731 0.156250 0.118428 76 0 153
0.260902 -0.084665 -0.201892 76 0 153
0.328131 0.100952 0.017521 76 0 153
-0.268512 -0.614488 -0.005811 76 0 153
0.251488 -0.413230 0.202575 76 0 153
-0.016104 0.780214 -0.110954 153 76 0
-0.237211 -0.460296 -0.206433 76 0 153
-0.293023 0.178090 0.088063 76 0 153
-0.225004 -0.629433 0.009225 76 0 153
-0.074026 0.492587 0.196173 76 0 153
-0.176988 0.388560 0.134711 76 0 153
-0.297002 -0.547478 0.069174 76 0 153
-0.087158 0.898179 -0.067474 153 76 0
-0.138437 -0.616917 -0.236715 76 0 153
-0.025368 0.922189 0.093121 76 0 153
0.286026 0.286054 -0.082269 76 0 153
0.234640 0.457740 0.028393 76 0 153
0.176773 0.370570 -0.179685 76 0 153
0.112729 0.156250 0.080344 76 0 153
-0.092254 0.697268 0.057319 153 76 0
-0.276226 -0.219880 0.134834 76 0 153
0.018582 0.292218 0.276693 76 0 153
0.325656 -0.423953 -0.047900 76 0 153
0.155692 0.366486 -0.197666 76 0 153
0.074090 0.922189 -0.029743 76 0 153
-0.213402 0.189875 0.218737 76 0 153
-0.027656 0.881232 -0.119151 153 76 0
0.018387 0.556628 0.189532 76 0 153
0.303047 0.096148 -0.130452 76 0 153
0.224183 0.156250 0.083963 76 0 153
-0.114085 0.495345 -0.185214 76 0 153
0.115417 0.600854 0.128207 76 0 153
0.297242 -0.467495 0.132882 76 0 153
0.023252 0.711149 -0.121459 153 76 0
0.257426 -0.345536 0.194837 76 0 153
-0.280826 -0.397211 -0.135313 76 0 153
-0.160429 -0.364958 0.264624 76 0 153
0.310447 -0.187330 0.101000 76 0 153
0.148452 -0.460233 -0.293066 76 0 153
0.024487 0.997232 -0.062035 76 0 153
-0.303392 -0.540811 -0.042641 76 0 153
0.203350 0.144680 0.247195 76 0 153
-0.198753 0.285885 -0.200567 76 0 153
-0.299437 0.222969 -0.006982 76 0 153
0.323240 -0.433621 0.054672 76 0 153
-0.047113 0.725427 0.093457 153 76 0
0.072135 0.839170 -0.113236 153 76 0
-0.266444 -0.034393 0.156750 76 0 153
0.276295 -0.613685 -0.086974 76 0 153
-0.085782 0.598167 0.137545 76 0 153
-0.063112 0.105580 -0.317250 76 0 153
-0.124181 0.459495 -0.188507 76 0 153
0.039294 0.922189 0.077782 76 0 153
-0.075739 0.499854 -0.204651 76 0 153
0.118230 -0.234079 0.293999 76 0 153
-0.207626 0.489835 0.022358 76 0 153
-0.124946 0.191384 0.278058 76 0 153
0.189746 -0.009883 -0.269219 76 0 153
-0.072637 -0.452864 -0.315996 76 0 153
0.206969 0.298457 -0.205267 76 0 153
-0.252960 -0.615348 0.078705 76 0 153
-0.087391 0.847560 -0.080798 153 76 0
0.046638 -0.629433 -0.244964 76 0 153
0.251589 0.156250 0.155599 76 0 153
0.171631 0.602211 -0.058957 76 0 153
0.101295 0.005323 -0.312599 76 0 153
0.102644 0.472910 0.198172 76 0 153
0.035033 0.471672 0.216975 76 0 153
-0.050539 0.674758 -0.116978 153 76 0
-0.017730 0.687999 -0.125217 153 76 0
0.165046 -0.208476 0.274607 76 0 153
0.211455 0.007871 0.240976 76 0 153
0.035360 0.874307 0.112430 153 76 0
-0.010874 -0.163856 -0.324127 76 0 153
-0.150958 0.156250 0.132136 76 0 153
0.030372 0.240820 -0.307620 76 0 153
-0.139056 0.156725 -0.288538 76 0 153
-0.307932 -0.231624 0.017458 76 0 153
-0.268362 0.178204 -0.159145 76 0 153
0.115721 0.770983 -0.032476 153 76 0
-0.018932 -0.572524 -0.310077 76 0 153
-0.225576 0.247175 0.179520 76 0 153
0.034936 -0.629433 -0.116864 76 0 153
-0.190927 0.154036 0.241222 76 0 153
0.210827 -0.629433 -0.161694 76 0 153
0.219218 -0.449328 -0.246604 76 0 153
0.094975 0.874363 -0.092554 153 76 0
-0.096270 0.781034 -0.022647 153 76 0
-0.136704 -0.182859 -0.289562 76 0 153
-0.250642 -0.510076 0.177343 76 0 153
-0.101651 0.089899 0.292496 76 0 153
0.289085 0.289771 0.038459 76 0 153
0.017235 0.994354 0.067440 76 0 153
0.325623 -0.068309 0.036572 76 0 153
0.265493 -0.260280 0.184323 76 0 153
-0.224210 -0.090019 -0.223376 76 0 153
-0.109234 0.425571 -0.201297 76 0 153
-0.115756 0.673977 -0.016500 153 76 0
0.005694 -0.325974 -0.326309 76 0 153
0.264174 -0.211338 -0.197628 76 0 153
-0.149306 -0.629433 0.046455 76 0 153
0.180115 0.156250 0.188491 76 0 153
0.319963 0.180815 -0.070063 76 0 153
-0.013578 -0.213107 -0.323771 76 0 153
-0.217170 -0.505978 0.220964 76 0 153
0.011443 -0.589166 0.293188 76 0 153
0.218838 -0.439084 0.235311 76 0 153
-0.177738 -0.269246 -0.262927 76 0 153
0.212802 0.156250 0.217365 76 0 153
0.297025 -0.398228 0.133405 76 0 153
-0.167264 0.513810 0.111438 76 0 153
-0.282017 -0.588225 0.052090 76 0 153
-0.006985 -0.213217 0.313054 76 0 153
-0.101868 0.957955 0.036495 76 0 153
-0.171108 -0.505164 0.256430 76 0 153
0.220552 0.114051 0.233996 76 0 153
-0.165935 -0.554898 -0.264157 76 0 153
0.148758 -0.060967 0.281354 76 0 153
-0.217735 0.094291 0.220228 76 0 153
0.229959 -0.210823 -0.238362 76 0 153
-0.055348 0.156250 0.042744 76 0 153
-0.112800 0.566418 0.139264 76 0 153
0.247521 0.236319 -0.194539 76 0 153
0.077413 -0.629433 -0.118802 76 0 153
-0.131961 -0.629433 0.109166 76 0 153
-0.229809 -0.433198 0.204493 76 0 153
-0.141195 -0.593328 -0.259976 76 0 153
-0.244705 0.282649 -0.137348 76 0 153
0.323680 -0.092069 -0.062915 76 0 153
0.158955 -0.240442 -0.288715 76 0 153
-0.297430 -0.556589 -0.057532 76 0 153
0.200598 0.567011 -0.000159 76 0 153
-0.143748 0.236528 0.258320 76 0 153
0.067498 0.011583 0.307748 76 0 153
0.263024 0.299699 -0.120144 76 0 153
-0.077288 -0.629433 -0.244680 76 0 153
0.259113 0.341159 -0.046795 76 0 153
-0.221065 -0.629433 0.054342 76 0 153
0.252174 0.313442 0.114240 76 0 153
0.098934 -0.589450 -0.289824 76 0 153
0.209189 0.480615 -0.105066 76 0 153
-0.310097 0.042333 0.001014 76 0 153
0.062342 -0.618625 -0.272988 76 0 153
0.199705 0.352106 0.152638 76 0 153
-0.185742 0.156250 0.110033 76 0 153
-0.033824 0.999157 -0.007487 76 0 153
0.133359 0.664294 -0.046351 153 76 0
-0.104839 -0.435935 -0.302761 76 0 153
0.289713 -0.251250 0.151057 76 0 153
-0.066034 -0.323976 -0.316865 76 0 153
-0.173289 -0.431279 -0.266341 76 0 153
-0.121708 -0.581159 -0.277216 76 0 153
-0.200881 0.285123 0.186821 76 0 153
-0.246345 -0.628193 0.038041 76 0 153
0.288541 -0.101303 0.153886 76 0 153
-0.277182 -0.265505 0.132525 76 0 153
0.308187 -0.425151 0.106457 76 0 153
0.137755 0.406347 0.186314 76 0 153
0.327838 -0.228853 -0.031330 76 0 153
-0.250694 0.156250 0.079349 76 0 153
-0.308354 0.126254 0.014250 76 0 153
-0.129164 0.215311 -0.282612 76 0 153
-0.096498 -0.629433 0.120266 76 0 153
-0.308185 -0.197716 -0.027120 76 0 153
0.093504 -0.493383 -0.315826 76 0 153
-0.059905 0.156250 0.231991 76 0 153
0.154426 0.304401 0.229962 76 0 153
-0.097923 0.861590 0.052786 153 76 0
0.144176 0.632063 0.059084 76 0 153
-0.188102 -0.549165 0.237630 76 0 153
-0.083779 -0.008113 0.299899 76 0 153
-0.091398 0.922189 0.033419 76 0 153
-0.153854 0.372233 0.169479 76 0 153
-0.286045 -0.035601 0.111128 76 0 153
0.060194 0.721291 -0.108847 153 76 0
0.322798 0.204091 0.005689 76 0 153
0.133114 -0.383154 -0.299419 76 0 153
-0.072385 0.022782 0.304444 76 0 153
-0.129277 0.414033 -0.187471 76 0 153
-0.307749 -0.310004 -0.030430 76 0 153
-0.299547 -0.306235 -0.090118 76 0 153
0.230429 0.423416 -0.069518 76 0 153
-0.158344 0.384175 -0.172543 76 0 153
-0.215046 0.416377 -0.047280 76 0 153
0.293193 -0.465602 -0.154242 76 0 153
-0.048348 -0.186698 -0.319194 76 0 153
0.119606 -0.529034 0.292414 76 0 153
0.103459 0.121364 0.300117 76 0 153
0.044709 0.156250 0.229080 76 0 153
-0.223259 -0.629433 -0.034790 76 0 153
0.001946 -0.440628 -0.325815 76 0 153
0.320833 -0.033641 0.072950 76 0 153
0.054220 0.607517 -0.167404 76 0 153
0.322830 -0.106894 0.057784 76 0 153
-0.010794 0.146271 0.312553 76 0 153
-0.202467 -0.183389 -0.243952 76 0 153
0.327952 -0.528567 0.012130 76 0 153
-0.175306 -0.095879 -0.264794 76 0 153
-0.215609 0.439049 0.019382 76 0 153
0.289999 -0.275546 0.150367 76 0 153
0.238738 -0.486142 -0.230777 76 0 153
0.012513 -0.398195 -0.326572 76 0 153
-0.201320 -0.174384 0.233247 76 0 153
0.314909 0.053236 0.090230 76 0 153
-0.177186 -0.057988 0.251766 76 0 153
0.206656 0.322394 0.170551 76 0 153
0.202682 -0.308042 -0.259293 76 0 153
-0.140912 0.542900 -0.139100 76 0 153
0.186316 0.566172 0.065352 76 0 153
-0.047608 0.169829 0.306393 76 0 153
0.038978 0.350032 0.240392 76 0 153
0.017592 0.621882 0.150888 76 0 153
0.318710 -0.134739 0.081052 76 0 153
0.178385 -0.629433 -0.128759 76 0 153
0.150599 -0.629433 -0.117092 76 0 153
0.261448 0.344641 0.003406 76 0 153
0.110201 0.831891 -0.077390 153 76 0
0.120117 0.819926 -0.057982 153 76 0
0.145284 -0.161761 0.282793 76 0 153
-0.084491 0.988906 0.012575 76 0 153
0.297335 0.276463 0.022577 76 0 153
-0.310472 -0.473092 -0.001839 76 0 153
0.270541 0.102784 0.177745 76 0 153
0.217844 0.277953 0.196274 76 0 153
0.321369 -0.219378 -0.080465 76 0 153
-0.172938 -0.198947 0.255025 76 0 153
0.304737 0.164101 0.112820 76 0 153
0.202812 -0.592454 -0.228952 76 0 153
-0.054122 -0.629433 0.220578 76 0 153
0.162559 0.203530 0.268375 76 0 153
-0.078176 0.988716 0.033735 76 0 153
0.114870 0.762566 0.025602 153 76 0
-0.163584 0.156250 0.151880 76 0 153
0.214728 0.520518 -0.058190 76 0 153
-0.098444 0.816660 0.043019 153 76 0
-0.001828 -0.629433 0.004064 76 0 153
-0.194230 -0.629433 -0.007695 76 0 153
-0.192692 0.118059 0.239868 76 0 153
0.284039 0.156250 -0.004936 76 0 153
-0.231735 0.319365 -0.115364 76 0 153
0.278554 0.313767 -0.030260 76 0 153
-0.078229 -0.462997 0.302198 76 0 153
0.139520 0.156250 0.076718 76 0 153
-0.138616 -0.432002 0.277185 76 0 153
0.300597 0.271899 -0.024768 76 0 153
0.064324 0.459488 -0.227317 76 0 153
0.143378 -0.196437 0.283582 76 0 153
-0.040503 -0.141982 -0.320227 76 0 153
-0.065646 0.725491 -0.090831 153 76 0
-0.305450 -0.478682 -0.047897 76 0 153
-0.095417 0.353392 0.217050 76 0 153
-0.219659 0.395270 0.028994 76 0 153
-0.229770 -0.204142 -0.216130 76 0 153
-0.293499 0.127229 -0.104719 76 0 153
0.049011 0.922189 -0.051434 76 0 153
0.038796 0.253695 0.290519 76 0 153
-0.144708 -0.629433 0.070710 76 0 153
0.328742 0.060208 0.012878 76 0 153
-0.217595 -0.163305 0.220411 76 0 153
0.305774 -0.589373 -0.031192 76 0 153
0.323263 0.125191 0.054497 76 0 153
0.132749 -0.497248 -0.299570 76 0 153
0.011905 0.819846 -0.128165 153 76 0
-0.124553 -0.629433 0.215792 76 0 153
0.000962 0.922189 -0.023488 76 0 153
-0.215110 0.444394 -0.033947 76 0 153
0.290117 -0.133242 0.150082 76 0 153
0.032539 -0.629433 -0.028484 76 0 153
-0.229025 -0.629433 -0.074042 76 0 153
0.329585 -0.242081 0.006474 76 0 153
0.118956 0.869438 -0.059883 153 76 0
0.303210 -0.214307 -0.130058 76 0 153
-0.004421 0.922189 0.104241 76 0 153
-0.039501 0.136364 0.308773 76 0 153
0.004009 -0.629433 0.194399 76 0 153
0.262356 -0.155635 0.188412 76 0 153
0.261053 -0.429155 0.190110 76 0 153
0.102040 0.893303 0.065247 153 76 0
0.253873 0.295283 0.135943 76 0 153
-0.007510 0.710472 0.109439 153 76 0
0.170006 -0.161309 0.272553 76 0 153
0.211498 -0.104875 -0.252528 76 0 153
-0.203445 -0.402748 -0.243202 76 0 153
0.042910 0.199857 0.305009 76 0 153
-0.287256 -0.530369 -0.116924 76 0 153
0.196253 0.568606 0.026645 76 0 153
-0.240233 -0.017596 -0.202495 76 0 153
0.146058 0.331578 0.214500 76 0 153
0.031389 0.156250 0.003832 76 0 153
0.139775 0.663187 -0.014980 153 76 0
0.214001 -0.530866 0.237563 76 0 153
0.055006 0.383883 -0.237139 76 0 153
0.074693 0.801594 0.080089 153 76 0
-0.224423 0.369450 -0.061529 76 0 153
0.320810 -0.455362 -0.084710 76 0 153
0.322359 -0.366552 -0.072947 76 0 153
-0.270351 -0.360848 0.149017 76 0 153
0.163523 -0.311279 0.275238 76 0 153
-0.023980 0.809948 -0.110806 153 76 0
0.081381 -0.629433 0.227906 76 0 153
-0.207830 -0.110543 0.228252 76 0 153
-0.292144 -0.140185 0.096405 76 0 153
0.037555 -0.629433 0.064527 76 0 153
0.077204 -0.016990 -0.318055 76 0 153
0.005233 1.001587 -0.016244 76 0 153
-0.082511 -0.600997 -0.279353 76 0 153
-0.099361 -0.300393 -0.305030 76 0 153
0.103116 -0.161786 -0.311845 76 0 153
0.044274 0.768362 0.097324 153 76 0
-0.303406 -0.163966 0.051836 76 0 153
0.095628 0.790297 -0.070838 153 76 0
0.038496 0.922189 -0.009677 76 0 153
0.235631 -0.629433 -0.018368 76 0 153
-0.271223 0.143338 -0.158499 76 0 153
-0.041489 -0.252561 -0.320097 76 0 153
0.276562 -0.139069 -0.181483 76 0 153
0.293554 0.178376 -0.147048 76 0 153
-0.078285 0.274254 -0.282479 76 0 153
-0.117111 -0.629433 0.183770 76 0 153
0.086088 -0.487880 0.305300 76 0 153
0.133170 0.394094 -0.204524 76 0 153
-0.310062 -0.516652 0.000371 76 0 153
0.198428 -0.629433 -0.042142 76 0 153
0.113688 0.723684 0.041829 153 76 0
0.115942 0.156250 0.115467 76 0 153
-0.008584 -0.602731 -0.292588 76 0 153
-0.134246 0.475253 0.164916 76 0 153
-0.283833 0.110850 -0.128055 76 0 153
0.329786 0.035723 0.004946 76 0 153
-0.048140 0.429095 0.215945 76 0 153
-0.205142 0.262600 -0.208526 76 0 153
-0.302063 -0.096407 -0.073626 76 0 153
-0.301867 0.041503 -0.075109 76 0 153
-0.150097 -0.019137 0.272429 76 0 153
-0.001499 0.522487 0.203502 76 0 153
0.027366 0.067092 0.313031 76 0 153
-0.059052 0.922189 0.043389 76 0 153
0.033545 -0.616297 0.267808 76 0 153
0.246487 -0.440617 -0.220678 76 0 153
0.327526 -0.519221 -0.032003 76 0 153
-0.126698 0.342678 0.206119 76 0 153
0.272486 -0.521220 -0.186302 76 0 153
0.283597 -0.096200 -0.172315 76 0 153
-0.301306 -0.354448 -0.079376 76 0 153
0.318527 0.181133 0.069058 76 0 153
0.277844 -0.254356 -0.179813 76 0 153
-0.212563 -0.310143 0.224620 76 0 153
-0.105224 0.896872 -0.011656 153 76 0
-0.210632 -0.625009 0.140452 76 0 153
0.252557 0.138159 0.201182 76 0 153
0.034746 -0.118549 -0.323645 76 0 153
0.256517 -0.164154 -0.207607 76 0 153
0.325362 0.050207 0.038550 76 0 153
0.019802 0.018783 -0.325612 76 0 153
0.289512 0.232629 0.115034 76 0 153
0.039767 -0.074454 0.311399 76 0 153
0.277864 -0.526322 0.167197 76 0 153
0.106105 0.143421 -0.310607 76 0 153
-0.225112 0.145018 0.210615 76 0 153
0.168074 -0.044208 -0.284938 76 0 153
0.220523 0.173762 -0.243346 76 0 153
0.266582 0.149773 0.182904 76 0 153
-0.099776 0.562905 -0.163087 76 0 153
0.087356 -0.185527 0.305133 76 0 153
0.131587 0.820608 -0.017762 153 76 0
-0.112222 -0.415503 0.288118 76 0 153
-0.017742 0.922189 -0.039225 76 0 153
-0.054469 -0.629433 -0.228320 76 0 153
-0.045771 0.160023 -0.319168 76 0 153
0.053820 0.805118 0.092444 153 76 0
0.297459 0.051244 0.132358 76 0 153
0.186213 0.187536 -0.267212 76 0 153
-0.217107 0.107725 -0.232632 76 0 153
-0.214069 0.476787 -0.010816 76 0 153
-0.166064 0.454774 -0.149549 76 0 153
0.261074 -0.042130 0.190082 76 0 153
-0.222795 -0.076962 0.213634 76 0 153
0.236078 0.469228 -0.001237 76 0 153
0.329149 -0.181573 -0.021372 76 0 153
-0.138482 -0.538342 0.274828 76 0 153
0.110180 -0.212297 0.297333 76 0 153
-0.015664 -0.035186 0.311912 76 0 153
-0.303484 0.143012 -0.062828 76 0 153
0.323972 -0.033902 -0.060699 76 0 153
0.279761 -0.605296 0.087195 76 0 153
-0.146652 -0.295469 -0.285441 76 0 153
-0.109765 -0.488413 0.289135 76 0 153
0.187899 -0.629433 0.123837 76 0 153
-0.065750 0.993900 -0.001738 76 0 153
0.031647 0.620864 -0.161387 76 0 153
0.030089 0.644409 0.131587 153 76 0
-0.266519 0.300041 0.017102 76 0 153
0.186662 -0.175172 0.260000 76 0 153
0.158997 0.245741 0.257562 76 0 153
0.155613 -0.629433 -0.045993 76 0 153
0.282658 -0.014401 0.161953 76 0 153
0.266680 -0.571614 0.162323 76 0 153
0.273521 -0.296416 -0.185446 76 0 153
-0.246420 0.156250 0.014376 76 0 153
0.225640 0.489165 0.040341 76 0 153
-0.100388 0.114641 -0.304604 76 0 153
-0.046785 0.156250 0.257001 76 0 153
0.016278 -0.247364 -0.326076 76 0 153
0.146250 -0.629433 0.184274 76 0 153
0.017128 0.752126 0.104009 153 76 0
-0.009813 0.680136 0.116997 153 76 0
-0.182609 -0.027524 -0.259190 76 0 153
0.257672 -0.551697 0.185819 76 0 153
0.277799 0.272924 0.105828 76 0 153
0.324414 -0.019466 0.045755 76 0 153
-0.285919 -0.427879 0.111433 76 0 153
0.218137 -0.004408 -0.247434 76 0 153
0.036688 0.156250 0.185407 76 0 153
