ply
format ascii 1.0
element vertex 1269
property float x
property float y
property float z
property uchar red
property uchar green
property uchar blue
end_header
0.323164 -0.467447 -0.211637 127 0 127
0.633633 -0.261075 -0.012979 0 255 0
0.351975 -0.278518 0.102951 127 0 127
0.351975 0.616257 0.216662 127 0 127
-0.309774 -0.611452 -0.313836 76 153 0
-0.330186 -0.322735 0.215754 76 153 0
0.330963 -0.090655 -0.313836 153 0 76
0.484659 0.482087 0.343413 153 76 0
0.541980 0.677523 0.203266 153 76 0
-0.020270 0.462293 0.321805 153 0 76
0.021699 -0.405450 0.099525 0 127 127
-0.255205 0.467468 0.343413 153 0 76
-0.330186 -0.329916 0.300219 76 153 0
0.633633 -0.021378 0.263238 76 0 153
-0.301375 0.392719 0.001717 76 153 0
0.346781 0.028914 -0.321038 153 0 76
-0.301375 0.275912 0.223844 76 153 0
0.323164 0.065791 0.075825 127 0 127
-0.644256 -0.078249 -0.305271 127 127 0
-0.301375 0.077659 0.012992 76 153 0
-0.011814 0.655915 -0.173727 153 76 0
0.633633 -0.390540 -0.176089 0 255 0
-0.414883 -0.062156 -0.321038 153 0 76
0.021699 0.245924 -0.162266 0 127 127
0.385856 -0.003135 0.074634 76 0 153
-0.301375 -0.435191 0.227300 76 153 0
-0.023450 0.232164 -0.321038 153 0 76
0.002913 0.066014 0.321805 153 0 76
0.337718 0.283601 0.321805 153 76 0
0.590957 -0.467991 0.343413 0 0 255
-0.171316 -0.301487 0.321805 153 0 76
0.171778 -0.003135 0.214279 76 0 153
0.633633 0.537179 0.239894 0 255 0
0.662444 0.482073 -0.144020 0 255 0
0.323164 -0.260883 0.201673 127 0 127
0.200546 -0.035052 0.321805 0 0 255
0.012696 -0.154916 0.325201 0 0 255
0.351975 0.498777 -0.015567 127 0 127
-0.330186 -0.316010 0.090695 76 153 0
-0.644256 -0.435706 -0.187556 127 127 0
0.660681 -0.023059 -0.342647 0 255 0
-0.615445 0.296228 -0.075803 127 127 0
0.351975 0.319762 -0.098449 127 0 127
-0.158112 -0.003135 -0.042625 76 0 153
-0.600346 -0.683793 0.160621 76 0 153
-0.615445 0.325729 0.239842 127 127 0
0.458951 -0.650944 0.343413 0 0 255
0.471205 -0.068783 -0.321038 153 0 76
0.223188 -0.683793 0.295346 76 0 153
-0.563535 -0.705401 0.296558 76 0 153
0.662444 -0.575822 -0.047494 0 255 0
0.021699 -0.339593 -0.280092 0 127 127
0.435062 0.677523 -0.173540 153 76 0
0.235841 0.632918 -0.313836 153 0 76
0.214549 -0.024743 -0.088625 76 0 153
-0.323676 -0.518065 0.343413 153 0 76
0.397878 -0.024743 -0.183812 76 0 153
-0.146291 -0.063215 0.343413 153 0 76
0.126587 -0.451603 -0.321038 153 0 76
0.662444 0.142657 -0.029464 0 255 0
-0.330186 0.070279 -0.250889 76 153 0
0.186011 0.274731 0.321805 153 76 0
-0.301375 0.330985 -0.200571 76 153 0
0.217811 0.677523 0.122722 153 76 0
-0.644256 -0.590937 -0.202439 127 127 0
0.633633 -0.595635 -0.292992 0 255 0
-0.571350 -0.003135 0.102496 76 0 153
0.323164 0.144581 0.238757 127 0 127
0.043556 0.275767 0.321805 153 76 0
0.638930 -0.705401 0.080984 76 0 153
-0.007112 -0.140282 -0.147566 0 127 127
0.323164 -0.522216 -0.024158 127 0 127
-0.615445 0.183904 -0.006973 127 127 0
0.064677 0.433521 -0.313836 153 0 76
-0.269495 -0.368157 -0.313836 153 0 76
-0.615445 -0.173714 -0.207704 127 127 0
0.323164 -0.143681 -0.010307 127 0 127
0.652571 -0.297909 0.343413 0 0 255
-0.070575 -0.040395 0.343413 153 0 76
0.662444 0.019204 -0.021085 0 255 0
-0.615445 0.041050 0.179925 127 127 0
0.493665 0.350325 -0.342647 204 51 127
0.077397 -0.667185 0.343413 0 0 255
-0.007112 -0.583034 0.204112 0 127 127
0.662444 -0.665155 -0.338124 0 255 0
-0.471390 -0.015198 -0.341591 153 0 76
0.351975 0.195427 0.149515 127 0 127
-0.523688 0.268470 -0.342647 153 0 76
0.226144 -0.003135 -0.283680 76 0 153
-0.348663 0.677523 0.274318 153 76 0
-0.330186 -0.514877 -0.099850 76 153 0
-0.330186 0.485315 -0.291321 76 153 0
0.568327 0.630144 0.343413 153 76 0
0.351975 0.471145 -0.289062 127 0 127
-0.007112 -0.324125 0.117538 0 127 127
0.463285 0.394324 0.343413 153 76 0
0.327912 0.410107 -0.321038 153 0 76
0.323164 -0.560052 -0.293859 127 0 127
-0.026889 -0.074182 0.321805 153 0 76
0.300218 0.329982 -0.321038 153 0 76
0.037840 -0.009388 -0.321038 153 0 76
0.639918 0.170782 0.343413 153 76 0
0.558120 -0.024743 0.129504 76 0 153
0.613815 -0.683793 -0.220618 76 0 153
-0.475867 -0.366417 0.321805 153 0 76
-0.603464 0.677523 -0.300876 153 76 0
-0.301375 -0.651703 -0.290743 76 153 0
-0.556703 0.143241 0.343413 153 0 76
0.553982 0.344605 -0.342647 204 51 127
-0.045077 0.055391 0.321805 153 0 76
-0.644256 -0.263968 -0.001885 127 127 0
0.021699 0.082540 0.040266 0 127 127
-0.297227 0.655915 0.292299 153 76 0
0.323164 -0.334204 -0.271603 127 0 127
0.662444 0.652176 -0.243826 0 255 0
0.030507 -0.024743 0.153675 76 0 153
-0.000411 0.479000 -0.313836 153 0 76
-0.604976 -0.676015 0.343413 153 0 76
0.637882 0.303279 0.320004 0 255 0
-0.615445 0.381894 -0.300586 127 127 0
-0.615445 0.528491 0.009518 127 127 0
0.448394 -0.416363 -0.321038 153 0 76
-0.330186 -0.076138 -0.092718 76 153 0
0.621828 -0.225606 0.343413 0 0 255
-0.330186 -0.027745 -0.200310 76 153 0
0.662444 0.619059 0.235987 0 255 0
0.323164 0.234888 0.231062 127 0 127
-0.301375 -0.046575 0.198822 76 153 0
-0.396800 0.655915 0.278678 153 76 0
-0.009654 -0.521565 -0.321038 153 0 76
0.032451 -0.671231 0.343413 0 0 255
-0.448450 -0.705401 0.093512 76 0 153
0.339913 0.432922 0.312802 127 0 127
0.412337 0.018577 0.343413 153 76 0
0.468045 -0.003135 0.221548 76 0 153
0.021699 -0.471867 -0.160711 0 127 127
-0.301375 -0.655583 -0.010081 76 153 0
0.256410 -0.024743 -0.198232 76 0 153
-0.087626 -0.705401 0.225101 76 0 153
-0.007112 0.566967 -0.194513 0 127 127
-0.599238 -0.019499 0.343413 153 0 76
-0.578066 -0.266667 -0.342647 153 0 76
0.473970 -0.271709 -0.321038 153 0 76
-0.330186 -0.129205 -0.094276 76 153 0
0.199882 -0.594254 -0.313836 153 0 76
0.662444 0.429323 0.108190 0 255 0
0.307879 -0.364404 0.343413 0 0 255
0.351975 0.035756 -0.007557 127 0 127
0.523081 -0.177926 0.321805 0 0 255
-0.284729 0.415383 -0.321038 153 0 76
-0.615445 0.597209 -0.221796 127 127 0
-0.335934 -0.057316 0.343413 153 0 76
0.351975 0.590858 -0.050398 127 0 127
0.125925 0.655915 0.161133 153 76 0
0.021699 0.007077 -0.223716 0 127 127
-0.644256 0.616121 -0.186171 127 127 0
0.478741 -0.142272 0.321805 0 0 255
0.633633 -0.524172 0.270618 0 255 0
-0.330186 0.570217 0.079088 76 153 0
-0.181048 -0.138121 0.343413 153 0 76
-0.330186 -0.288474 -0.040117 76 153 0
-0.202873 0.248145 0.321805 153 0 76
0.021699 0.186159 -0.113334 0 127 127
0.323164 0.313188 -0.187728 127 0 127
-0.007112 -0.088733 0.079543 0 127 127
0.317647 0.655915 -0.150270 153 76 0
-0.465639 -0.227015 0.321805 153 0 76
-0.207308 0.384863 -0.313836 153 0 76
0.294181 -0.418956 -0.321038 153 0 76
0.194371 0.282402 -0.321038 153 0 76
0.323164 -0.457162 -0.279158 127 0 127
-0.092229 -0.024743 0.071003 76 0 153
0.633633 0.195139 0.259846 0 255 0
-0.143520 0.677523 -0.163608 153 76 0
-0.288251 -0.316533 0.343413 153 0 76
-0.330186 0.177006 -0.228559 76 153 0
-0.644256 0.083359 0.090898 127 127 0
0.662444 -0.218037 0.289198 0 255 0
0.633633 0.485963 -0.212317 0 255 0
0.608817 -0.683793 0.119368 76 0 153
-0.019367 -0.301114 0.343413 153 0 76
-0.007112 0.018541 0.107629 0 127 127
-0.644256 -0.312155 -0.238076 127 127 0
0.662444 -0.131799 0.302596 0 255 0
0.351975 0.387871 -0.240067 127 0 127
-0.146878 -0.466655 0.321805 153 0 76
0.633633 0.372581 0.265716 0 255 0
0.662444 -0.378917 -0.337809 0 255 0
-0.330186 0.483824 0.091201 76 153 0
0.021699 -0.266533 -0.270217 0 127 127
-0.111822 0.264557 -0.321038 153 0 76
-0.511449 -0.381929 -0.342647 153 0 76
-0.423490 -0.024743 0.302211 76 0 153
0.021699 0.399722 0.273620 0 127 127
0.633633 0.465533 0.100645 0 255 0
0.624208 0.372508 -0.342647 204 51 127
0.323164 -0.399785 0.007733 127 0 127
-0.644256 -0.315094 -0.119456 127 127 0
-0.409257 -0.705401 0.159920 76 0 153
-0.315846 -0.107105 -0.321038 153 0 76
-0.615445 0.428003 -0.305351 127 127 0
0.601420 -0.593256 0.321805 0 0 255
-0.376824 -0.296012 -0.321038 153 0 76
-0.355343 -0.003135 -0.237385 76 0 153
-0.615444 -0.019648 -0.245106 76 0 153
0.662444 -0.198626 0.048733 0 255 0
0.633633 -0.129023 -0.296549 0 255 0
0.340183 0.655915 0.171870 153 76 0
-0.330186 0.191606 0.147239 76 153 0
0.543142 0.655915 0.137039 153 76 0
0.633633 0.325922 -0.298653 0 255 0
-0.242169 -0.024743 -0.185008 76 0 153
-0.615445 0.155889 -0.068617 127 127 0
-0.644256 -0.059708 0.080488 127 127 0
0.159749 0.638421 0.343413 153 76 0
-0.615445 0.485335 -0.180087 127 127 0
0.012464 0.655915 -0.293508 153 76 0
-0.212529 0.655915 0.280829 153 76 0
0.633633 0.513174 0.130046 0 255 0
0.538580 0.013197 -0.342647 204 51 127
-0.207129 -0.479272 -0.321038 153 0 76
0.351975 0.394321 -0.172799 127 0 127
-0.615445 -0.520690 0.181290 127 127 0
0.456724 0.366529 -0.321038 153 0 76
0.495001 -0.003135 -0.262295 76 0 153
-0.271789 -0.683793 0.233524 76 0 153
0.351975 -0.531018 0.231784 127 0 127
-0.615445 -0.177601 0.142537 127 127 0
-0.020971 -0.024743 0.272383 76 0 153
-0.429236 0.293917 0.343413 153 0 76
-0.007112 -0.374731 -0.226708 0 127 127
0.633633 -0.650909 -0.073820 0 255 0
-0.301375 -0.243226 -0.069092 76 153 0
0.021699 0.175335 0.201578 0 127 127
-0.644256 0.227195 -0.151839 127 127 0
-0.162354 -0.003135 0.114511 76 0 153
-0.554285 -0.329032 -0.342647 153 0 76
0.021699 0.040464 0.282283 0 127 127
0.323164 0.103209 -0.037339 127 0 127
-0.086709 -0.003135 -0.066792 76 0 153
-0.644256 0.466410 -0.318310 127 127 0
0.633633 -0.389351 -0.011357 0 255 0
-0.051901 -0.165662 0.321805 153 0 76
0.633633 0.047120 0.122410 0 255 0
-0.007112 -0.250237 0.220610 0 127 127
0.534050 0.424026 -0.313836 153 0 76
-0.301375 0.206284 -0.201720 76 153 0
-0.644256 -0.521359 -0.151427 127 127 0
0.230897 0.369513 -0.321038 153 0 76
0.229588 0.210601 0.343413 153 76 0
-0.022732 0.677523 0.077065 153 76 0
0.662444 0.619214 -0.311016 0 255 0
-0.301375 -0.474545 -0.009485 76 153 0
-0.644256 -0.580751 -0.104705 127 127 0
0.323164 0.224376 -0.297528 127 0 127
-0.301375 0.196169 -0.293234 76 153 0
0.550915 0.171490 0.343413 153 76 0
0.132852 -0.705401 -0.006363 76 0 153
-0.466557 -0.683793 0.031257 76 0 153
-0.327333 -0.003135 0.233350 76 153 0
-0.615445 -0.603811 -0.295940 127 127 0
-0.577891 -0.210438 -0.313836 153 0 76
-0.058065 -0.650147 0.321805 153 0 76
0.323164 -0.565242 0.077241 127 0 127
-0.644256 0.549543 0.220039 127 127 0
-0.132571 -0.003135 -0.273613 76 0 153
-0.007112 0.345229 0.123917 0 127 127
0.021699 0.347301 -0.251645 0 127 127
0.208874 0.655915 0.055867 153 76 0
-0.171514 0.674376 0.343413 153 0 76
-0.007112 0.549994 0.262650 0 127 127
0.391163 -0.528423 0.321805 0 0 255
0.021699 0.069385 -0.031961 0 127 127
0.351975 0.428135 0.069616 127 0 127
0.021699 0.249978 0.202632 0 127 127
0.633633 -0.287208 -0.048710 0 255 0
-0.497922 0.303562 0.343413 153 0 76
0.300185 -0.092190 0.321805 0 0 255
-0.495810 -0.024743 -0.075200 76 0 153
-0.412919 -0.530701 0.321805 153 0 76
-0.305403 0.655915 0.103845 76 153 0
-0.055176 -0.705401 0.002150 76 0 153
-0.315467 0.047554 -0.313836 153 0 76
-0.301375 -0.406976 -0.312164 76 153 0
0.038931 -0.705401 -0.263420 76 0 153
0.608092 -0.086263 0.321805 0 0 255
0.147471 -0.024743 0.246195 76 0 153
-0.020803 0.621875 0.343413 153 0 76
0.323164 -0.603684 0.114882 127 0 127
0.590082 0.655915 -0.257597 153 76 0
-0.301375 0.265665 -0.058362 76 153 0
0.199103 -0.359412 0.321805 0 0 255
-0.354690 0.295767 -0.313836 153 0 76
0.021699 -0.351178 0.240991 0 127 127
0.549647 -0.357408 0.343413 0 0 255
-0.413417 -0.705401 -0.244108 76 0 153
0.323164 -0.172798 0.258368 127 0 127
0.633633 -0.621555 -0.342481 0 255 0
0.512992 -0.705401 -0.339958 76 0 153
0.164761 0.552963 -0.321038 153 0 76
-0.007112 -0.160226 -0.065309 0 127 127
0.529393 -0.683793 0.114703 76 0 153
0.323164 0.138147 0.018378 127 0 127
-0.615445 -0.358038 0.243614 127 127 0
0.021699 0.258921 -0.006941 0 127 127
0.305948 -0.669675 -0.321038 153 0 76
0.061734 0.677523 0.178074 153 76 0
0.134048 -0.312046 0.343413 0 0 255
-0.475862 0.575154 0.343413 153 0 76
-0.550536 -0.172299 -0.321038 153 0 76
-0.615445 -0.672859 -0.153831 127 127 0
-0.602898 -0.149297 0.343413 153 0 76
0.612516 0.655915 0.085941 153 76 0
-0.007112 -0.073359 0.004026 0 127 127
-0.484801 -0.188108 -0.342647 153 0 76
-0.316906 -0.186363 0.343413 153 0 76
-0.599337 0.645979 0.321805 153 0 76
-0.509080 0.640556 -0.321038 153 0 76
0.662444 0.365466 -0.134315 0 255 0
-0.406575 0.615436 0.321805 153 0 76
0.351975 0.024601 -0.125511 127 0 127
0.323164 -0.302712 -0.203596 127 0 127
0.174608 0.520215 0.343413 153 76 0
0.323164 0.555270 0.146990 127 0 127
0.046824 -0.090615 0.321805 0 0 255
-0.493578 -0.003135 -0.288937 76 0 153
-0.216825 0.383123 0.343413 153 0 76
0.192680 0.500496 -0.313836 153 0 76
0.662444 0.260391 0.246084 0 255 0
-0.007112 -0.481857 0.257106 0 127 127
0.659670 0.124182 -0.342647 0 255 0
0.238936 -0.024743 0.051337 76 0 153
-0.560247 0.327059 -0.342647 153 0 76
-0.007112 -0.282418 0.103795 0 127 127
-0.302438 0.627661 -0.313836 153 0 76
-0.615445 -0.348707 -0.190349 127 127 0
0.323164 -0.660928 -0.259966 127 0 127
0.323164 0.154497 0.285066 127 0 127
-0.330186 -0.223492 -0.195869 76 153 0
-0.330186 -0.219950 0.242884 76 153 0
-0.007112 -0.133122 0.022523 0 127 127
-0.301375 -0.547210 0.127649 76 153 0
0.323164 0.291285 0.040207 127 0 127
-0.615445 0.568097 -0.117103 127 127 0
-0.644256 -0.451114 0.132874 127 127 0
-0.007112 -0.633110 0.000661 0 127 127
-0.007112 -0.475199 -0.220600 0 127 127
0.662444 -0.448108 0.035780 0 255 0
0.351975 0.072710 -0.181690 127 0 127
-0.301375 0.322388 -0.276801 76 153 0
0.351975 0.592655 -0.134785 127 0 127
-0.153012 -0.015690 -0.310234 76 0 153
-0.615445 0.034057 -0.112096 127 127 0
-0.615445 -0.205469 0.314445 127 127 0
0.323164 0.299578 -0.244339 127 0 127
0.037595 -0.705401 0.119791 76 0 153
-0.228672 -0.096484 -0.321038 153 0 76
0.633633 -0.489156 0.136917 0 255 0
-0.301375 0.109281 -0.259866 76 153 0
-0.644256 0.649386 -0.054711 127 127 0
0.198380 0.655915 -0.188975 153 76 0
0.323164 -0.081353 -0.114702 127 0 127
-0.330186 -0.615632 -0.094493 76 153 0
0.323164 0.208911 0.055525 127 0 127
-0.615445 -0.147949 0.188262 127 127 0
-0.644256 0.614046 0.019924 127 127 0
0.662444 -0.655960 0.020606 0 255 0
0.323164 -0.557581 -0.053990 127 0 127
-0.157076 0.655915 -0.019338 153 76 0
0.546689 -0.218711 0.343413 0 0 255
0.662444 -0.522686 -0.327316 0 255 0
0.034620 -0.683793 0.032457 76 0 153
-0.634286 0.256078 0.343413 153 0 76
-0.300210 -0.683793 0.091854 76 0 153
-0.218384 -0.024743 0.033696 76 0 153
-0.440146 0.677523 0.070613 153 76 0
-0.615445 -0.438322 -0.227161 127 127 0
-0.157991 -0.003135 0.041981 76 0 153
0.021699 -0.332384 -0.104648 0 127 127
-0.267011 0.477392 -0.313836 153 0 76
0.633633 -0.020764 -0.055549 0 255 0
0.323164 -0.046139 -0.248368 127 0 127
0.174718 0.597441 0.343413 153 76 0
0.523660 -0.560181 0.343413 0 0 255
-0.301375 -0.472553 0.066794 76 153 0
0.323164 0.464637 0.201328 127 0 127
0.351975 0.103690 -0.107416 127 0 127
0.489579 0.142339 -0.340869 204 51 127
0.595634 -0.683793 -0.181027 76 0 153
-0.330186 -0.135532 -0.156910 76 153 0
0.281867 -0.705401 0.173972 76 0 153
-0.007112 -0.109467 -0.240705 0 127 127
0.351975 -0.218043 -0.082249 127 0 127
-0.213778 0.655915 0.030893 153 76 0
-0.334830 0.383901 0.321805 153 0 76
0.662444 0.534824 -0.290405 0 255 0
-0.409719 -0.003135 -0.258647 76 0 153
-0.428278 -0.683793 0.301967 76 0 153
0.148512 -0.003135 -0.160848 76 0 153
0.633633 -0.209125 -0.289950 0 255 0
0.288750 -0.619681 -0.313836 153 0 76
-0.301375 0.364330 0.258939 76 153 0
-0.615444 -0.007660 0.170707 76 0 153
0.662444 -0.684895 -0.032788 76 0 153
0.323164 -0.492097 0.250211 127 0 127
0.110109 0.073990 0.343413 153 76 0
0.419043 0.590554 0.321805 153 76 0
0.442565 -0.585253 -0.321038 153 0 76
-0.056813 0.196191 0.321805 153 0 76
0.229344 -0.101128 -0.321038 153 0 76
0.270947 -0.604884 0.343413 0 0 255
0.650876 0.559404 0.343413 153 76 0
-0.301375 -0.609817 0.293441 76 153 0
-0.301375 -0.365234 -0.149397 76 153 0
0.351975 -0.287049 -0.280491 127 0 127
-0.448803 0.169832 -0.313836 153 0 76
-0.644256 -0.487082 -0.310137 127 127 0
0.351975 -0.209745 -0.037011 127 0 127
0.251921 -0.409140 -0.321038 153 0 76
-0.576610 0.086308 -0.313836 153 0 76
0.351975 -0.637888 -0.134813 127 0 127
-0.539849 -0.529723 -0.342647 153 0 76
0.021699 -0.613420 -0.147003 0 127 127
-0.506315 -0.223570 -0.313836 153 0 76
0.139817 -0.705401 -0.084155 76 0 153
-0.007112 0.277495 -0.098553 0 127 127
0.662444 0.051817 0.303074 0 255 0
-0.051552 0.279188 0.321805 153 0 76
0.633633 0.595603 -0.342507 0 255 0
-0.330186 0.289472 -0.276840 76 153 0
0.323164 -0.128505 -0.207060 127 0 127
-0.615445 -0.048568 -0.020738 127 127 0
0.021699 0.375865 -0.008343 0 127 127
0.626167 0.655915 -0.281545 153 76 0
0.580067 -0.147491 -0.321038 204 51 127
-0.256108 -0.548546 0.343413 153 0 76
0.323164 -0.145031 -0.063939 127 0 127
-0.372062 -0.705401 0.315989 76 0 153
0.021699 -0.643455 0.273032 0 127 127
0.633633 0.491566 -0.284939 0 255 0
-0.353809 -0.003135 -0.153157 76 0 153
0.323164 -0.386620 0.130035 127 0 127
0.462879 0.592824 0.321805 153 76 0
0.263036 -0.705401 0.309866 76 0 153
-0.644256 -0.599659 -0.048318 127 127 0
-0.342256 0.653276 0.343413 153 0 76
-0.615445 -0.159533 0.253669 127 127 0
0.633633 0.169474 0.108211 0 255 0
-0.330186 0.582065 0.252443 76 153 0
-0.030814 0.655915 0.182696 153 76 0
-0.301375 0.456875 0.073577 76 153 0
0.021699 -0.558710 0.283303 0 127 127
-0.301375 0.630248 -0.085096 76 153 0
-0.113356 -0.705401 0.149368 76 0 153
-0.330186 -0.535985 0.042214 76 153 0
0.021699 -0.523237 0.053626 0 127 127
0.633633 -0.141345 0.198315 0 255 0
0.021699 -0.175529 0.082910 0 127 127
0.413781 0.655915 0.134308 153 76 0
0.633633 0.593840 0.309691 0 255 0
0.470186 0.677523 0.305208 153 76 0
-0.330186 -0.418450 0.116489 76 153 0
-0.615445 -0.366239 -0.128714 127 127 0
-0.530294 -0.659994 -0.313836 153 0 76
-0.330186 -0.267853 0.184940 76 153 0
0.351975 -0.639114 -0.014640 127 0 127
-0.301375 0.034789 -0.086634 76 153 0
0.662444 0.149506 0.042039 0 255 0
-0.644256 0.333371 -0.193740 127 127 0
-0.537670 -0.705401 -0.137929 76 0 153
-0.007112 -0.453021 0.211513 0 127 127
-0.007112 0.568643 0.190844 0 127 127
0.351975 0.231333 0.310754 127 0 127
0.323164 0.478267 0.111961 127 0 127
-0.599272 0.074880 0.343413 153 0 76
0.552284 0.677523 -0.169850 153 76 0
-0.310663 -0.176039 -0.321038 153 0 76
-0.644256 -0.099814 0.136533 127 127 0
0.311792 0.677523 -0.022267 153 76 0
0.021699 0.016571 -0.137643 0 127 127
-0.121743 -0.683793 -0.287017 76 0 153
0.511296 -0.606590 0.343413 0 0 255
0.662444 0.276023 0.032022 0 255 0
0.323164 -0.502505 -0.260279 127 0 127
-0.330186 -0.666430 -0.165688 76 153 0
0.351975 0.036695 0.187196 127 0 127
0.552656 0.065562 0.321805 153 76 0
-0.615445 -0.044984 -0.179892 127 127 0
0.455586 0.152021 -0.313836 153 0 76
-0.505082 -0.703600 0.342143 153 0 76
0.021699 -0.334387 -0.008200 0 127 127
0.298464 0.056228 0.343413 153 76 0
-0.041645 -0.003135 0.076472 76 0 153
-0.439835 -0.683793 -0.127127 76 0 153
-0.471390 -0.358887 -0.341038 153 0 76
0.328039 -0.498828 0.321805 0 0 255
-0.007112 0.215138 0.310621 0 127 127
-0.330186 -0.168778 -0.238492 76 153 0
-0.324903 -0.035885 -0.321038 153 0 76
-0.644256 0.268327 0.135518 127 127 0
0.021699 -0.404657 0.233001 0 127 127
0.634838 -0.352206 0.343413 0 0 255
-0.240422 -0.562834 -0.321038 153 0 76
0.633633 -0.246666 -0.092407 0 255 0
0.021699 0.553150 -0.066483 0 127 127
0.526667 -0.483104 0.321805 0 0 255
-0.528616 -0.024743 -0.045084 76 0 153
0.296293 -0.683793 0.050414 76 0 153
0.551256 -0.102432 -0.313836 153 0 76
0.323164 -0.164868 -0.259177 127 0 127
-0.523500 0.160020 0.321805 153 0 76
-0.644256 0.325939 -0.012106 127 127 0
-0.002742 -0.003135 -0.277843 76 0 153
-0.128247 0.474540 -0.321038 153 0 76
0.034426 -0.121178 -0.313836 153 0 76
-0.604052 0.655915 0.176016 153 76 0
0.662444 0.016677 0.099741 0 255 0
-0.215460 0.613918 -0.321038 153 0 76
0.048970 -0.024743 0.102595 76 0 153
0.021699 0.489686 0.072321 0 127 127
-0.615445 -0.204128 0.038791 127 127 0
0.021699 0.486077 -0.217497 0 127 127
-0.330186 0.389820 -0.280786 76 153 0
-0.301375 -0.249129 0.159587 76 153 0
0.073370 -0.024743 0.285312 76 0 153
0.329591 -0.400290 0.312802 127 0 127
0.021699 0.505897 0.141683 0 127 127
-0.561681 0.041577 0.381991 76 0 153
-0.496887 0.655915 0.283234 153 76 0
-0.007112 0.393494 0.121321 0 127 127
0.124401 -0.705401 -0.158152 76 0 153
0.021011 -0.326116 -0.321038 153 0 76
0.015036 -0.683793 0.203469 0 127 127
-0.007112 -0.088461 0.181418 0 127 127
-0.301375 0.320206 -0.032659 76 153 0
-0.644256 0.431704 0.242082 127 127 0
0.303108 -0.225000 -0.313836 153 0 76
0.662444 -0.599459 0.141931 0 255 0
0.662444 -0.006149 0.305888 0 255 0
0.021699 -0.303418 0.042844 0 127 127
0.633633 0.221583 0.000192 0 255 0
-0.330186 -0.613291 0.253854 76 153 0
0.455255 -0.683793 0.228257 76 0 153
-0.330186 -0.464738 0.207025 76 153 0
-0.273019 0.320670 -0.313836 153 0 76
0.662444 0.130036 -0.259719 0 255 0
-0.304393 -0.024743 0.021900 76 0 153
0.447270 0.497994 0.321805 153 76 0
0.633633 -0.066999 -0.277359 0 255 0
0.319938 -0.705401 -0.042294 76 0 153
-0.615445 -0.371960 -0.045703 127 127 0
-0.354113 0.677523 0.012168 153 76 0
-0.615445 -0.661296 -0.078545 127 127 0
0.633633 0.178413 -0.078601 0 255 0
0.662444 -0.391593 -0.126203 0 255 0
0.351975 -0.374061 -0.010165 127 0 127
-0.422715 -0.632691 0.343413 153 0 76
0.283881 0.677523 -0.165558 153 76 0
-0.479747 0.655915 0.110535 153 76 0
-0.069972 -0.439825 -0.321038 153 0 76
-0.615445 0.306859 -0.169021 127 127 0
0.633633 0.012685 -0.123679 0 255 0
-0.641294 -0.683793 -0.235606 76 0 153
-0.644256 0.182989 -0.227328 127 127 0
0.383979 0.201571 0.321805 153 76 0
0.585481 -0.229842 0.321805 0 0 255
0.662444 -0.499676 0.054397 0 255 0
-0.644256 -0.474780 -0.063893 127 127 0
0.633633 0.349257 0.301209 0 255 0
-0.312688 -0.139285 0.343413 153 0 76
-0.301375 -0.240569 -0.235509 76 153 0
-0.602218 0.677523 -0.196696 153 76 0
0.543128 -0.705401 -0.271416 76 0 153
0.351975 0.593049 -0.286758 127 0 127
-0.467760 -0.024743 0.088842 76 0 153
-0.615445 0.271177 -0.114256 127 127 0
0.559362 -0.003135 -0.075062 76 0 153
-0.478835 0.655915 -0.117474 153 76 0
-0.416147 0.206884 0.343413 153 0 76
0.598236 -0.483887 -0.313836 153 0 76
0.490025 -0.307193 0.343413 0 0 255
0.240569 0.376674 0.321805 153 76 0
-0.361069 0.114357 0.343413 153 0 76
-0.533984 -0.024743 -0.119960 76 0 153
-0.301375 -0.380603 0.248956 76 153 0
-0.194097 0.134180 0.343413 153 0 76
0.535967 -0.683793 0.262494 76 0 153
0.271173 0.655915 0.190923 153 76 0
-0.301375 -0.217956 -0.275955 76 153 0
-0.191161 -0.677362 0.321805 153 0 76
0.421895 -0.003135 -0.130432 76 0 153
0.224434 -0.705401 -0.131356 76 0 153
0.131526 -0.003135 -0.253649 76 0 153
-0.330186 0.497325 0.155386 76 153 0
-0.422655 0.677523 0.022131 153 76 0
-0.007112 -0.227392 -0.209743 0 127 127
0.348304 -0.024743 0.044297 76 0 153
-0.007112 0.159388 0.123179 0 127 127
-0.339839 -0.705401 -0.022186 76 0 153
-0.644256 -0.090930 -0.120221 127 127 0
-0.049031 -0.683793 -0.323568 76 0 153
0.434607 -0.024743 0.024351 76 0 153
-0.007112 -0.410461 0.289495 0 127 127
0.491673 0.006186 -0.342647 204 51 127
-0.128239 -0.705401 -0.151141 76 0 153
-0.128395 -0.165573 0.343413 153 0 76
0.503865 0.571794 -0.313836 153 0 76
0.021699 -0.371648 -0.058553 0 127 127
0.635567 0.416820 0.321805 153 76 0
0.293819 -0.683793 -0.077325 76 0 153
-0.162416 -0.024743 -0.241076 76 0 153
-0.623838 0.007557 -0.342647 127 127 0
-0.644256 -0.136733 0.024479 127 127 0
-0.374256 0.655915 0.195806 153 76 0
0.351975 0.326684 -0.032473 127 0 127
-0.007112 -0.401103 -0.135337 0 127 127
-0.340967 -0.420890 -0.321038 153 0 76
-0.330186 -0.239740 0.032505 76 153 0
-0.007112 -0.359824 0.091402 0 127 127
0.021699 -0.604748 -0.209956 0 127 127
-0.644256 0.190226 0.290168 127 127 0
0.633633 -0.382321 0.289573 0 255 0
0.662444 -0.665941 0.222631 0 255 0
0.471934 0.677523 -0.307216 153 76 0
-0.232044 -0.024743 -0.109940 76 0 153
-0.301375 -0.385669 0.307559 76 153 0
-0.063264 -0.306947 -0.321038 153 0 76
0.323164 0.383157 0.053602 127 0 127
-0.599789 0.677523 -0.014256 153 76 0
0.622705 0.655915 0.234430 153 76 0
-0.330186 0.133333 -0.094983 76 153 0
0.662444 0.130572 -0.108020 0 255 0
0.633633 0.287290 -0.153087 0 255 0
0.644769 -0.588961 0.320004 0 255 0
0.633633 -0.673572 0.254829 0 255 0
-0.615445 0.196569 -0.184122 127 127 0
-0.122515 -0.024743 0.124742 76 0 153
-0.007112 -0.168416 0.194435 0 127 127
-0.435284 0.655915 -0.225772 153 76 0
-0.226272 -0.705401 -0.237789 76 0 153
0.662444 0.001769 -0.170725 0 255 0
0.375740 0.567306 -0.321038 153 0 76
-0.644256 0.602725 0.080750 127 127 0
-0.447722 -0.003135 0.167854 76 0 153
0.351975 0.153476 -0.060942 127 0 127
-0.259086 0.015034 -0.313836 153 0 76
-0.007112 0.197817 0.035593 0 127 127
-0.308866 -0.003135 0.192984 76 0 153
-0.301375 -0.256614 0.280734 76 153 0
-0.615445 -0.431223 0.274717 127 127 0
0.351975 0.438510 0.245381 127 0 127
0.662444 0.345827 0.107058 0 255 0
0.588288 -0.705401 0.167821 76 0 153
0.404156 0.655915 -0.339209 153 76 0
-0.007112 -0.206787 -0.087536 0 127 127
0.021699 -0.595140 -0.027195 0 127 127
0.491588 0.269415 0.321805 153 76 0
0.031720 0.072446 -0.321038 153 0 76
-0.244878 0.677523 0.166389 153 76 0
0.323164 -0.206969 0.015490 127 0 127
-0.615445 0.181949 0.222947 127 127 0
0.250504 0.439697 0.343413 153 76 0
0.329287 -0.003135 -0.153426 76 0 153
-0.301375 0.312197 0.245006 76 153 0
-0.178031 -0.603023 0.343413 153 0 76
0.019383 0.655915 0.149137 153 76 0
-0.273512 -0.003135 0.099440 76 0 153
-0.532255 -0.683793 0.085001 76 0 153
0.633633 -0.477992 0.227554 0 255 0
0.323164 0.014246 -0.254544 127 0 127
0.323960 -0.665693 0.312802 127 0 127
-0.301375 -0.062085 -0.122610 76 153 0
0.564663 -0.003135 0.007241 76 0 153
0.538242 0.533075 -0.321038 153 0 76
-0.644255 -0.684630 -0.017933 76 0 153
-0.615445 -0.102818 0.027718 127 127 0
0.598962 0.576760 0.343413 153 76 0
-0.301375 0.360074 0.126321 76 153 0
0.131557 0.254473 0.321805 153 76 0
-0.392161 -0.003135 -0.108539 76 0 153
0.021699 -0.236393 0.247721 0 127 127
0.351975 0.451092 0.030423 127 0 127
0.351975 -0.520120 0.118668 127 0 127
0.633633 -0.114004 -0.000538 0 255 0
-0.301375 0.435460 0.258275 76 153 0
0.044711 -0.048774 0.321805 0 0 255
0.323164 -0.602501 0.284614 127 0 127
-0.007112 -0.556355 -0.135643 0 127 127
0.231895 0.677523 -0.013693 153 76 0
0.662444 0.168457 0.236881 0 255 0
-0.644256 0.220594 0.091788 127 127 0
0.273479 0.204560 -0.321038 153 0 76
0.520300 0.622421 -0.342647 204 51 127
-0.467178 -0.071615 0.383560 204 51 127
0.633633 -0.371039 0.108318 0 255 0
-0.301375 0.655834 -0.044406 76 153 0
-0.330186 0.149608 0.205053 76 153 0
-0.427516 -0.674566 0.343413 153 0 76
-0.313548 -0.024743 -0.039968 76 0 153
-0.561267 -0.683793 0.119311 76 0 153
-0.644256 -0.182459 -0.286442 127 127 0
0.468090 -0.392819 0.321805 0 0 255
-0.615445 -0.280686 0.227267 127 127 0
-0.615445 -0.144458 -0.165909 127 127 0
-0.301375 -0.363966 -0.036395 76 153 0
-0.410910 -0.705401 -0.341392 76 0 153
0.626145 -0.523295 0.321805 0 0 255
0.558515 0.406595 0.321805 153 76 0
0.402479 -0.024743 -0.035783 76 0 153
-0.615445 0.412276 -0.250761 127 127 0
-0.644256 -0.330383 -0.320193 127 127 0
-0.495435 0.471508 -0.342647 153 0 76
0.174780 -0.024743 0.117649 76 0 153
0.662444 0.402171 0.041325 0 255 0
0.504121 -0.024743 0.182510 76 0 153
-0.576514 -0.438850 -0.321038 153 0 76
-0.388308 -0.148933 0.321805 153 0 76
0.633633 -0.616754 -0.044019 0 255 0
-0.301375 0.380309 -0.097430 76 153 0
-0.330186 0.520626 -0.011785 76 153 0
-0.007112 0.615220 0.162073 0 127 127
0.662444 0.472971 0.211824 0 255 0
0.633633 -0.402375 -0.310247 0 255 0
-0.534048 0.447315 0.343413 153 0 76
-0.644256 0.180062 -0.314819 127 127 0
-0.007112 0.608468 -0.012794 0 127 127
0.633633 0.335197 0.050397 0 255 0
0.323164 -0.378006 -0.085070 127 0 127
-0.051774 -0.003135 -0.117674 76 0 153
0.021699 -0.216751 -0.291057 0 127 127
0.365702 0.655915 -0.080681 153 76 0
-0.301375 0.167398 0.253586 76 153 0
-0.420797 -0.584844 -0.321038 153 0 76
0.127749 0.655915 -0.213951 153 76 0
0.633633 -0.616833 0.204818 0 255 0
-0.118699 0.036083 -0.313836 153 0 76
0.162422 -0.619248 0.321805 0 0 255
-0.301375 0.397018 -0.219170 76 153 0
0.633633 -0.550112 0.236661 0 255 0
0.021699 -0.280420 0.270492 0 127 127
-0.575499 -0.003135 0.296962 76 0 153
-0.644256 0.085425 -0.116482 127 127 0
0.162939 0.677523 -0.038004 153 76 0
0.323164 0.615626 0.102133 127 0 127
0.518330 -0.024743 -0.078145 76 0 153
-0.589425 0.389323 0.321805 153 0 76
-0.083417 0.106095 0.321805 153 0 76
-0.615445 -0.436562 0.007818 127 127 0
0.021699 -0.476111 -0.012136 0 127 127
0.633633 0.594037 -0.139623 0 255 0
0.351975 -0.471068 -0.071724 127 0 127
0.408305 -0.683793 0.172909 76 0 153
0.265111 0.075208 -0.321038 153 0 76
0.633633 -0.110088 -0.059288 0 255 0
0.345706 -0.641553 0.343413 0 0 255
-0.396977 0.402564 -0.321038 153 0 76
-0.644256 0.359551 -0.321186 127 127 0
-0.644256 0.508945 0.131388 127 127 0
0.215108 -0.003135 0.193475 76 0 153
-0.472995 0.677523 -0.210890 153 76 0
0.633633 -0.659413 -0.192356 0 255 0
0.021699 0.084179 -0.255157 0 127 127
0.193922 0.355539 0.321805 153 76 0
0.351975 -0.332813 0.123220 127 0 127
0.021699 -0.048224 -0.180321 0 127 127
-0.315875 0.479061 0.343413 153 0 76
0.021699 -0.672290 -0.281329 0 127 127
0.457290 0.556898 -0.321038 153 0 76
0.623086 -0.024743 -0.287913 76 0 153
-0.611085 -0.354054 0.343413 153 0 76
0.662444 0.323014 -0.264647 0 255 0
-0.640654 -0.006204 0.339760 153 0 76
0.633633 0.491085 0.054086 0 255 0
0.021699 -0.454930 0.148672 0 127 127
-0.007112 0.083958 -0.146946 0 127 127
-0.301375 -0.182727 0.273652 76 153 0
-0.148382 0.029138 0.343413 153 0 76
-0.301375 -0.598553 0.069045 76 153 0
-0.481461 -0.705401 -0.191020 76 0 153
0.610295 0.168916 -0.313836 153 0 76
-0.644256 0.138334 -0.249884 127 127 0
0.118596 0.476732 -0.313836 153 0 76
0.633633 -0.020815 0.221739 76 0 153
-0.497857 -0.324567 -0.342647 153 0 76
0.576220 -0.024743 0.313974 76 0 153
0.178620 -0.683793 -0.009993 76 0 153
0.289881 -0.442408 0.321805 0 0 255
0.323164 0.084873 -0.079365 127 0 127
0.029016 0.574328 -0.321038 153 0 76
0.424463 -0.139378 0.321805 0 0 255
-0.301375 0.560993 0.048442 76 153 0
-0.013054 0.677523 0.126290 153 76 0
0.323164 0.064850 -0.292024 127 0 127
0.177372 -0.683793 -0.320379 76 0 153
0.306457 0.399206 0.321805 153 76 0
0.351975 -0.187590 -0.187097 127 0 127
0.478149 -0.191143 -0.313836 153 0 76
-0.644256 -0.003685 0.285917 127 127 0
0.351975 -0.318704 0.040959 127 0 127
0.633633 -0.297658 -0.336689 204 51 127
0.351975 0.537175 -0.170889 127 0 127
0.596998 -0.683793 -0.086201 76 0 153
-0.644256 0.316655 -0.052287 127 127 0
0.662444 -0.533755 -0.023606 0 255 0
-0.644256 -0.257852 -0.285527 127 127 0
-0.614407 -0.705401 0.291921 76 0 153
-0.423828 -0.260584 0.343413 153 0 76
-0.140002 -0.584101 -0.321038 153 0 76
0.662444 -0.361198 -0.173498 0 255 0
-0.178115 0.027380 -0.321038 153 0 76
-0.023073 0.063394 -0.313836 153 0 76
0.221379 0.655915 0.256304 153 76 0
0.323164 -0.055322 -0.293368 127 0 127
-0.609916 -0.365000 -0.321038 153 0 76
0.098390 -0.243385 0.343413 0 0 255
-0.330186 -0.406196 0.070397 76 153 0
-0.330186 -0.384971 -0.073466 76 153 0
-0.574851 0.232681 -0.313836 153 0 76
-0.615445 -0.608136 -0.246882 127 127 0
0.351975 -0.245369 0.271113 127 0 127
0.021699 -0.591928 -0.255350 0 127 127
0.421085 -0.705401 -0.123484 76 0 153
-0.301375 0.355699 0.200588 76 153 0
0.550572 -0.683793 -0.116585 76 0 153
-0.424778 -0.451971 0.343413 153 0 76
-0.615445 0.564641 0.156025 127 127 0
-0.301375 -0.558000 0.179043 76 153 0
0.550622 -0.341560 -0.321038 204 51 127
0.633633 -0.185717 0.133635 0 255 0
-0.424450 -0.683793 -0.309170 76 0 153
-0.419014 0.543046 -0.321038 153 0 76
-0.301375 0.332200 0.086631 76 153 0
0.087305 0.655915 -0.070361 153 76 0
-0.330186 -0.345341 0.153425 76 153 0
-0.174046 -0.535295 -0.313836 153 0 76
-0.158817 -0.086356 -0.321038 153 0 76
0.351975 -0.138438 0.093606 127 0 127
-0.330186 -0.064141 0.255695 76 153 0
-0.531668 0.025440 -0.321038 153 0 76
0.662444 -0.274952 0.149981 0 255 0
0.016381 -0.180899 -0.313836 153 0 76
0.430305 0.063580 0.321805 153 76 0
-0.406810 -0.683793 -0.042563 76 0 153
0.287362 0.598615 0.321805 153 76 0
-0.615445 -0.514126 0.035304 127 127 0
0.662444 0.434643 0.006382 0 255 0
-0.298238 -0.068520 0.321805 153 0 76
0.272492 -0.113381 -0.313836 153 0 76
0.633633 0.541005 -0.163048 0 255 0
0.662444 -0.252554 -0.044029 0 255 0
-0.007112 0.495327 -0.011605 0 127 127
-0.644256 -0.572117 -0.333366 127 127 0
-0.290664 -0.019125 0.343413 153 0 76
0.352439 0.677523 -0.151377 153 76 0
0.256194 0.126230 0.343413 153 76 0
-0.330186 -0.069978 -0.156102 76 153 0
-0.330186 0.016101 -0.285340 76 153 0
0.108900 0.677523 -0.275767 153 76 0
0.245038 -0.471650 0.321805 0 0 255
-0.301375 -0.043587 -0.233959 76 153 0
0.323164 0.168957 0.090654 127 0 127
-0.615445 -0.157563 -0.123092 127 127 0
0.323164 -0.621321 -0.178562 127 0 127
-0.330186 -0.207306 0.109585 76 153 0
0.542890 -0.005944 0.343413 153 76 0
0.021699 0.494274 -0.149014 0 127 127
0.002841 0.670583 -0.342647 153 76 0
-0.547811 0.294055 0.343413 153 0 76
0.351975 0.293507 0.158131 127 0 127
-0.280927 0.344368 0.321805 153 0 76
0.323164 -0.111949 -0.279788 127 0 127
0.323164 0.040281 0.238487 127 0 127
-0.615445 -0.295827 0.095158 127 127 0
0.280495 0.292492 -0.313836 153 0 76
0.633633 0.094899 0.069458 0 255 0
0.624531 0.655915 0.011082 153 76 0
0.351975 0.092065 0.100261 127 0 127
0.323164 0.564216 -0.151745 127 0 127
0.033954 -0.400319 -0.313836 153 0 76
0.522825 -0.024743 -0.282993 76 0 153
0.053193 0.085960 0.343413 153 76 0
-0.301375 0.586265 -0.055431 76 153 0
-0.242197 -0.096242 0.343413 153 0 76
0.351975 0.619737 0.035847 127 0 127
-0.007112 -0.640674 -0.191054 0 127 127
-0.330186 0.263195 -0.096124 76 153 0
0.662444 -0.569607 -0.195450 0 255 0
0.614603 0.677523 -0.179384 153 76 0
0.323164 -0.555191 0.037684 127 0 127
-0.186206 -0.024743 -0.100517 76 0 153
-0.195469 -0.272074 -0.321038 153 0 76
0.021699 0.313142 -0.168866 0 127 127
-0.301375 -0.197543 0.216001 76 153 0
0.243244 0.030260 0.321805 153 76 0
-0.330186 0.406556 0.135139 76 153 0
-0.330186 0.563755 0.192328 76 153 0
0.579599 0.677523 -0.055043 153 76 0
-0.007112 -0.254115 -0.018310 0 127 127
-0.209746 0.100116 -0.321038 153 0 76
-0.615445 0.381226 -0.098094 127 127 0
0.290053 -0.683793 -0.231802 76 0 153
-0.615445 -0.633644 0.087377 127 127 0
-0.330186 0.066194 -0.018912 76 153 0
-0.644256 0.578036 -0.039243 127 127 0
-0.615445 0.636096 0.086107 127 127 0
0.323164 -0.075817 0.099930 127 0 127
-0.301375 0.150525 -0.156733 76 153 0
-0.330186 0.510956 -0.237017 76 153 0
0.351975 -0.430739 -0.147696 127 0 127
-0.111902 -0.060227 0.321805 153 0 76
-0.343102 -0.209964 0.321805 153 0 76
-0.644256 0.367564 -0.143669 127 127 0
-0.330186 0.625318 0.310880 76 153 0
0.662444 -0.232828 -0.306240 0 255 0
-0.294409 -0.462764 0.321805 153 0 76
0.662444 -0.230205 0.172561 0 255 0
0.323164 -0.232023 0.306506 127 0 127
0.126477 0.139705 0.343413 153 76 0
0.569794 -0.024743 0.088773 76 0 153
-0.290558 -0.683793 0.299396 76 0 153
-0.330186 0.632350 -0.262761 76 153 0
0.124809 0.447957 0.343413 153 76 0
-0.341484 0.046612 0.343413 153 0 76
0.130156 -0.141854 -0.313836 153 0 76
-0.644256 0.080911 0.017042 127 127 0
0.633633 -0.433912 -0.036433 0 255 0
-0.146868 0.378061 0.343413 153 0 76
0.557825 0.443315 0.343413 153 76 0
0.138329 -0.021325 0.343413 0 0 255
0.270713 -0.332586 0.321805 0 0 255
0.662444 -0.190701 -0.252819 0 255 0
0.021699 -0.115000 0.000378 0 127 127
0.375000 -0.024743 0.139493 76 0 153
-0.644256 -0.530264 0.124251 127 127 0
-0.007112 -0.214423 -0.155657 0 127 127
0.246367 0.655915 -0.203566 153 76 0
-0.544165 -0.588455 -0.313836 153 0 76
-0.416770 -0.683793 0.106827 76 0 153
-0.326513 0.565934 -0.313836 76 153 0
0.662444 -0.615538 0.294925 0 255 0
0.527080 0.669162 0.320004 153 76 0
0.098468 -0.703600 0.323325 0 0 255
0.148286 0.092632 -0.321038 153 0 76
0.227453 0.468159 0.321805 153 76 0
-0.330186 -0.558427 -0.087407 76 153 0
-0.129504 0.655915 -0.291241 153 76 0
0.633633 0.163487 0.157153 0 255 0
-0.554757 -0.105212 0.343413 153 0 76
0.323164 -0.162561 0.152249 127 0 127
-0.266610 -0.277658 0.321805 153 0 76
-0.615445 0.230808 0.252478 127 127 0
-0.644256 -0.595548 0.062199 127 127 0
-0.488285 0.599885 -0.342647 153 0 76
0.127436 -0.683793 0.169788 76 0 153
0.295555 0.104948 0.343413 153 76 0
0.573315 0.677523 -0.102944 153 76 0
-0.615445 0.542766 -0.052179 127 127 0
0.388011 0.095070 -0.321038 153 0 76
0.323164 0.341888 0.038052 127 0 127
0.012696 0.373377 0.340834 153 76 0
-0.472573 0.677523 -0.302726 153 76 0
-0.355798 -0.640359 0.343413 153 0 76
0.535523 -0.536873 -0.342647 204 51 127
-0.556863 0.237907 0.343413 153 0 76
0.021699 -0.122650 0.145745 0 127 127
0.323164 -0.343304 0.058878 127 0 127
0.351975 -0.060909 0.013378 127 0 127
0.323164 0.407887 0.000124 127 0 127
-0.644256 0.057026 -0.220885 127 127 0
0.489405 0.495273 -0.321038 153 0 76
-0.644256 0.094923 -0.047562 127 127 0
-0.005107 -0.215808 0.321805 153 0 76
-0.301375 0.465891 -0.044488 76 153 0
0.323164 0.214551 0.180929 127 0 127
0.544825 0.326748 0.343413 153 76 0
-0.615445 -0.291995 -0.161338 127 127 0
-0.607796 -0.145117 -0.313836 153 0 76
-0.007112 -0.189843 0.039259 0 127 127
0.225508 -0.486954 -0.313836 153 0 76
-0.517308 0.677523 -0.100159 153 76 0
0.323164 -0.136927 0.284204 127 0 127
0.477647 0.218930 -0.313836 153 0 76
-0.177412 0.677523 0.049982 153 76 0
0.186098 -0.700997 0.320004 76 0 153
0.361628 -0.332861 0.343413 0 0 255
-0.577292 0.185173 -0.342647 153 0 76
-0.330186 0.297978 0.298137 76 153 0
0.540698 -0.705401 -0.213919 76 0 153
-0.407073 -0.118357 -0.321038 153 0 76
-0.006233 0.173967 -0.321038 153 0 76
0.617964 0.677523 0.299552 153 76 0
0.290728 -0.026889 0.343413 0 0 255
-0.522548 0.555365 0.343413 153 0 76
-0.301375 -0.490223 0.257321 76 153 0
-0.207361 -0.488461 0.321805 153 0 76
-0.499752 -0.435439 -0.342647 153 0 76
-0.330186 -0.102923 -0.233715 76 153 0
0.662444 -0.633723 -0.014170 0 255 0
-0.434478 -0.337095 0.343413 153 0 76
0.494467 0.138561 0.343413 153 76 0
0.323164 0.376909 -0.108747 127 0 127
-0.301375 0.585147 0.289239 76 153 0
0.350581 -0.438027 0.312802 127 0 127
-0.644256 -0.546830 0.287603 127 127 0
-0.615444 -0.004692 0.011185 76 0 153
0.082990 -0.059374 -0.313836 153 0 76
-0.615445 -0.504229 -0.080528 127 127 0
0.363934 0.655915 0.110955 153 76 0
-0.069790 0.655915 0.291532 153 76 0
-0.330186 -0.320925 -0.285793 76 153 0
-0.180020 0.139488 -0.321038 153 0 76
-0.007112 0.495934 -0.117953 0 127 127
0.662444 -0.345166 0.226174 0 255 0
-0.007112 0.420397 -0.086504 0 127 127
0.332069 0.592289 0.312802 127 0 127
0.439506 -0.297527 0.321805 0 0 255
0.021699 -0.061140 0.085300 0 127 127
0.621001 0.649779 -0.321038 204 51 127
0.662444 -0.467719 -0.325735 0 255 0
-0.425493 0.390466 0.343413 153 0 76
-0.330186 0.586495 -0.016311 76 153 0
0.323164 0.514370 -0.244737 127 0 127
0.662444 -0.230587 -0.009953 0 255 0
-0.210135 -0.318778 0.343413 153 0 76
-0.007112 -0.234821 -0.058634 0 127 127
-0.109806 -0.276941 0.343413 153 0 76
-0.278466 0.574090 -0.313836 153 0 76
-0.007112 -0.059270 -0.249579 0 127 127
0.156789 -0.360497 -0.321038 153 0 76
-0.615445 0.253263 -0.308443 127 127 0
-0.217930 0.292586 -0.313836 153 0 76
-0.523431 0.114358 0.343413 153 0 76
-0.264117 0.125693 0.343413 153 0 76
-0.330186 -0.164263 0.251857 76 153 0
-0.615445 0.138990 -0.280754 127 127 0
0.235044 -0.389504 0.343413 0 0 255
0.351975 -0.566083 -0.126622 127 0 127
0.351975 -0.268037 -0.023069 127 0 127
-0.644256 0.465128 0.129828 127 127 0
-0.246259 0.513146 0.343413 153 0 76
-0.318773 0.302996 0.343413 153 0 76
0.662444 0.416644 -0.061274 0 255 0
-0.090996 -0.024743 0.017494 76 0 153
0.545987 0.133016 -0.313836 153 0 76
0.323164 -0.468921 -0.165293 127 0 127
-0.007112 -0.487551 -0.122695 0 127 127
-0.216216 -0.705401 0.049785 76 0 153
-0.145662 0.677523 0.208344 153 76 0
0.351975 0.498275 -0.199034 127 0 127
-0.034728 -0.587737 -0.313836 153 0 76
0.351975 0.261879 0.242646 127 0 127
-0.007112 0.562992 -0.289250 0 127 127
-0.522662 -0.164083 0.321805 153 0 76
-0.420858 -0.683793 0.030911 76 0 153
0.519476 -0.705401 0.311543 76 0 153
-0.644256 -0.641989 0.035167 127 127 0
0.522835 -0.260939 0.343413 0 0 255
0.021699 0.154102 -0.248599 0 127 127
0.134189 -0.485588 0.321805 0 0 255
0.323164 0.233272 0.018811 127 0 127
-0.042275 -0.683793 0.251050 76 0 153
0.351975 0.539822 0.052022 127 0 127
0.520732 -0.449849 0.343413 0 0 255
-0.269216 0.138782 -0.313836 153 0 76
0.662444 0.560731 -0.076034 0 255 0
-0.022591 0.655915 -0.109663 153 76 0
0.554874 0.124701 0.321805 153 76 0
0.502298 -0.600625 -0.342647 204 51 127
-0.476020 -0.705401 0.267584 76 0 153
0.633633 -0.590523 0.071233 0 255 0
-0.389010 0.677523 0.157457 153 76 0
0.351975 -0.531531 0.306319 127 0 127
0.212791 -0.024743 -0.029109 76 0 153
0.373274 -0.660585 -0.321038 153 0 76
0.205264 -0.149000 0.343413 0 0 255
0.323164 0.252698 0.069051 127 0 127
0.402246 0.677523 0.253677 153 76 0
-0.330186 0.119231 -0.218788 76 153 0
-0.029803 -0.003135 0.195392 76 0 153
0.435192 -0.198255 -0.321038 153 0 76
-0.605247 -0.097489 -0.313836 153 0 76
0.662444 0.351714 -0.313915 0 255 0
-0.598926 -0.260015 0.321805 153 0 76
0.662444 0.462477 -0.297024 0 255 0
0.042016 0.368030 -0.321038 153 0 76
-0.615445 0.597725 0.219744 127 127 0
0.351975 -0.331865 -0.060548 127 0 127
-0.210589 -0.003135 -0.173080 76 0 153
-0.300146 -0.660488 0.343413 153 0 76
0.662444 -0.030717 0.017337 0 255 0
0.021699 -0.341433 -0.234135 0 127 127
0.427867 0.445621 0.343413 153 76 0
0.662444 0.359377 0.171517 0 255 0
0.521207 -0.281137 -0.313836 153 0 76
0.633633 0.038050 0.251155 0 255 0
-0.054454 -0.108983 0.321805 153 0 76
-0.119482 0.561609 -0.313836 153 0 76
0.513670 -0.325340 -0.321038 153 0 76
0.662444 -0.185589 0.105960 0 255 0
-0.512251 0.143516 -0.313836 153 0 76
-0.608389 -0.683793 0.043470 76 0 153
-0.335971 0.348407 -0.313836 153 0 76
-0.615445 0.320893 0.298511 127 127 0
-0.030830 -0.003135 -0.193845 76 0 153
-0.330186 -0.498789 0.300674 76 153 0
0.021699 0.458800 0.249068 0 127 127
0.185067 -0.683793 0.054637 76 0 153
-0.027801 -0.705401 -0.245966 76 0 153
0.130247 0.677523 0.235957 153 76 0
-0.330186 0.336761 -0.252657 76 153 0
-0.550667 -0.683793 0.211025 76 0 153
-0.360519 0.655915 0.238169 153 76 0
-0.027256 -0.683793 -0.117440 76 0 153
-0.615445 -0.225203 0.207652 127 127 0
0.334861 0.557478 0.343413 153 76 0
0.189612 -0.186821 0.343413 0 0 255
0.165909 -0.128521 0.343413 0 0 255
0.662444 0.292509 0.215341 0 255 0
-0.644256 0.460321 0.001100 127 127 0
0.391097 0.677523 -0.292966 153 76 0
-0.615445 -0.349690 0.198807 127 127 0
-0.330186 0.294263 -0.184325 76 153 0
-0.301375 -0.544389 -0.238410 76 153 0
0.322303 0.677523 0.053575 153 76 0
-0.330186 0.084530 0.266943 76 153 0
-0.159265 -0.683793 -0.084039 76 0 153
-0.615445 -0.655268 0.270150 127 127 0
0.078998 -0.024743 -0.032291 76 0 153
-0.515685 0.358079 0.321805 153 0 76
0.021699 -0.423613 -0.113157 0 127 127
0.662444 -0.699449 -0.204490 76 0 153
-0.301375 -0.416754 -0.151760 76 153 0
0.021699 0.122639 0.158243 0 127 127
0.181224 -0.024743 -0.301269 76 0 153
-0.330186 0.164560 0.093412 76 153 0
0.633633 0.626339 -0.090766 0 255 0
0.579685 0.471159 -0.342647 204 51 127
0.462404 0.677523 0.034877 153 76 0
0.633633 -0.237954 0.040266 0 255 0
-0.644256 -0.639307 -0.117740 127 127 0
0.021699 -0.547264 0.136262 0 127 127
0.495762 -0.024743 0.049823 76 0 153
0.332579 -0.576083 0.312802 127 0 127
0.393826 0.457500 0.321805 153 76 0
0.295017 -0.024743 0.233017 76 0 153
-0.131144 -0.705401 0.292533 76 0 153
-0.644256 -0.133073 0.221217 127 127 0
-0.301375 0.432158 0.016658 76 153 0
-0.342333 0.677523 -0.169451 153 76 0
0.286546 -0.683793 0.246471 76 0 153
0.633633 -0.300340 0.086820 0 255 0
0.351975 -0.430336 -0.294554 127 0 127
-0.644256 0.036264 0.136183 127 127 0
0.021699 -0.062726 0.237617 0 127 127
0.486157 -0.003135 0.131472 76 0 153
-0.330186 0.074819 -0.176458 76 153 0
0.516726 0.655915 0.232528 153 76 0
0.084053 0.224753 0.343413 153 76 0
0.182335 -0.024743 0.288065 76 0 153
0.662444 0.233239 -0.207065 0 255 0
0.105328 -0.117897 0.321805 0 0 255
-0.615445 0.620012 -0.093005 127 127 0
-0.644256 0.532153 0.282164 127 127 0
0.633633 0.179783 0.203021 0 255 0
0.637830 -0.661173 0.343413 0 0 255
-0.007112 0.487760 0.164366 0 127 127
0.323164 0.170157 -0.249623 127 0 127
0.012696 0.522292 0.329593 153 76 0
-0.615445 0.381239 0.011218 127 127 0
0.161833 0.083498 0.343413 153 76 0
0.511231 -0.003135 -0.029081 76 0 153
0.361068 0.677523 0.067849 153 76 0
0.092914 -0.024743 -0.273420 76 0 153
0.633633 0.395553 -0.042161 0 255 0
-0.360312 -0.683793 -0.306280 76 0 153
-0.301375 0.505168 -0.083351 76 153 0
0.349194 -0.683793 -0.016326 76 0 153
-0.644256 0.407440 -0.160608 127 127 0
-0.069462 -0.574286 0.321805 153 0 76
0.316121 0.534147 -0.313836 153 0 76
0.351975 0.469384 0.300706 127 0 127
0.633633 0.561929 0.114575 0 255 0
0.351975 -0.590679 -0.291444 127 0 127
-0.007112 0.303468 0.127291 0 127 127
-0.615445 0.270216 -0.194770 127 127 0
0.323164 0.041255 -0.078909 127 0 127
0.150555 -0.024743 0.086334 76 0 153
-0.079041 -0.683793 -0.175467 76 0 153
-0.301375 -0.516108 -0.283216 76 153 0
0.662444 -0.385973 0.159916 0 255 0
-0.059334 -0.223199 0.321805 153 0 76
0.570229 -0.392267 0.321805 0 0 255
0.633633 0.293760 0.063746 0 255 0
-0.235317 0.565852 0.321805 153 0 76
-0.330186 -0.375794 -0.219146 76 153 0
-0.644256 -0.041394 -0.097114 127 127 0
-0.615445 0.591609 -0.329049 153 0 76
-0.599855 -0.683793 -0.223092 76 0 153
0.323164 -0.065905 0.303196 127 0 127
0.323164 0.012677 0.294630 127 0 127
0.351975 0.184220 -0.130024 127 0 127
0.229904 -0.286152 -0.313836 153 0 76
-0.628635 -0.638437 -0.342647 127 127 0
-0.103383 -0.625010 0.321805 153 0 76
0.633633 -0.484168 -0.152817 0 255 0
0.459414 -0.705401 -0.294020 76 0 153
0.363863 -0.705401 -0.339252 76 0 153
-0.615445 -0.332179 -0.004089 127 127 0
-0.301375 -0.124627 0.286388 76 153 0
-0.007112 -0.672618 0.146760 0 127 127
-0.334411 0.249121 -0.321038 153 0 76
0.351975 -0.104410 0.043560 127 0 127
0.096095 -0.705401 -0.201078 76 0 153
-0.346389 -0.003135 0.116920 76 0 153
-0.301375 -0.162882 0.044048 76 153 0
0.021699 0.290824 0.292603 0 127 127
0.351975 0.485276 0.173659 127 0 127
-0.640654 -0.501150 0.330347 153 0 76
-0.228053 -0.360231 0.321805 153 0 76
0.438206 0.458913 -0.313836 153 0 76
0.662444 0.668571 -0.058045 153 76 0
-0.007112 -0.238949 0.033898 0 127 127
-0.053838 -0.276694 0.321805 153 0 76
-0.007112 -0.320500 0.233614 0 127 127
0.662444 0.210700 -0.024438 0 255 0
-0.615445 -0.235636 -0.132496 127 127 0
-0.607779 -0.297010 -0.321038 153 0 76
-0.330186 0.373746 -0.169370 76 153 0
-0.299611 0.047642 0.383261 76 0 153
-0.301375 -0.470912 -0.118114 76 153 0
0.662444 -0.525989 -0.161063 0 255 0
0.633633 0.250966 0.314119 0 255 0
0.633633 -0.193392 -0.112767 0 255 0
-0.644256 0.039413 -0.183705 127 127 0
0.346210 0.655741 0.343413 153 76 0
-0.100005 -0.024743 -0.278594 76 0 153
0.172522 -0.003135 0.034384 76 0 153
0.078346 0.655915 0.074852 153 76 0
0.633633 -0.401012 0.217104 0 255 0
0.662444 -0.422244 0.144568 0 255 0
-0.561544 0.677523 0.138914 153 76 0
-0.301375 0.410106 -0.035576 76 153 0
-0.644256 0.142957 0.302033 127 127 0
-0.615445 -0.120838 0.119895 127 127 0
-0.301375 0.216102 0.211666 76 153 0
-0.143105 -0.301328 -0.313836 153 0 76
-0.154775 -0.425407 0.343413 153 0 76
0.632709 0.096330 0.343413 153 76 0
-0.083924 -0.683793 0.018930 76 0 153
0.088618 0.035185 -0.313836 153 0 76
-0.608732 -0.705401 -0.130468 76 0 153
-0.301375 0.100973 0.094790 76 153 0
-0.007112 0.255855 -0.131374 0 127 127
-0.301375 -0.670270 0.135725 76 153 0
0.021699 -0.611326 0.205430 0 127 127
0.351975 -0.573392 0.187545 127 0 127
-0.143162 -0.683793 -0.218766 76 0 153
0.323164 0.415790 0.167897 127 0 127
0.551743 -0.037904 -0.313836 153 0 76
-0.601721 0.677523 0.053876 153 76 0
-0.033911 0.677523 -0.269150 153 76 0
0.662444 0.059621 0.071285 0 255 0
-0.301375 0.557227 0.103495 76 153 0
0.633633 0.427730 0.033673 0 255 0
0.323164 0.283160 0.261505 127 0 127
-0.644256 -0.544438 -0.194640 127 127 0
-0.565884 -0.393679 0.321805 153 0 76
0.561807 0.655915 -0.230369 153 76 0
-0.301375 0.124040 0.213505 76 153 0
