-0.505223 0.448478 0.295483 0.600000 0.300000 0.000000
0.036595 0.700930 0.078397 0.600000 0.000000 0.300000
0.172280 -0.624147 -0.516864 0.600000 0.300000 0.000000
0.015332 -0.411005 -0.516864 0.600000 0.300000 0.000000
0.479959 -0.256916 -0.089072 0.600000 0.300000 0.000000
-0.205407 0.170251 -0.516864 0.600000 0.300000 0.000000
0.216451 -0.130432 -0.516864 0.600000 0.300000 0.000000
-0.163558 0.556753 -0.516864 0.600000 0.300000 0.000000
0.500700 0.592712 0.197175 0.600000 0.000000 0.300000
-0.505223 -0.098099 0.481159 0.600000 0.300000 0.000000
0.359538 0.700930 0.413457 0.600000 0.000000 0.300000
0.479959 0.278708 -0.516788 0.600000 0.300000 0.000000
-0.509259 0.700904 0.531303 0.600000 0.000000 0.300000
0.420330 -0.706396 0.210052 0.300000 0.000000 0.600000
-0.211989 -0.436108 0.520171 0.600000 0.300000 0.000000
-0.505223 0.333156 -0.376083 0.600000 0.300000 0.000000
-0.461149 -0.719451 0.180177 0.300000 0.000000 0.600000
0.426940 0.241424 -0.516864 0.600000 0.300000 0.000000
0.337278 -0.160327 0.520171 0.600000 0.300000 0.000000
-0.505223 -0.180043 0.245747 0.600000 0.300000 0.000000
-0.505223 -0.208943 -0.297032 0.600000 0.300000 0.000000
0.400236 0.700930 0.472827 0.600000 0.000000 0.300000
0.284622 -0.066648 0.520171 0.600000 0.300000 0.000000
-0.090908 0.562694 0.548689 0.000000 1.000000 0.000000
-0.447586 -0.743749 0.442393 0.300000 0.000000 0.600000
-0.325791 0.700930 0.235538 0.600000 0.000000 0.300000
-0.409524 0.700930 0.260945 0.600000 0.000000 0.300000
0.479959 0.406214 -0.070490 0.600000 0.300000 0.000000
-0.505223 -0.263846 -0.321046 0.600000 0.300000 0.000000
0.479959 0.149135 0.282061 0.600000 0.300000 0.000000
-0.406975 -0.586132 0.520171 0.600000 0.300000 0.000000
-0.301255 0.168565 -0.516864 0.600000 0.300000 0.000000
0.394204 0.700930 0.211991 0.600000 0.000000 0.300000
0.262189 -0.750918 -0.224159 0.300000 0.000000 0.600000
0.150346 0.700930 0.131027 0.600000 0.000000 0.300000
0.320204 0.666533 0.455356 0.800000 0.200000 0.500000
0.474604 -0.340033 -0.516864 0.600000 0.300000 0.000000
-0.331780 -0.330297 0.520171 0.600000 0.300000 0.000000
-0.168220 0.346086 0.520171 0.600000 0.300000 0.000000
0.361715 -0.750918 -0.252316 0.300000 0.000000 0.600000
0.420330 -0.699024 -0.146012 0.300000 0.000000 0.600000
-0.124994 0.700930 0.213133 0.600000 0.000000 0.300000
0.089981 -0.326706 0.520171 0.600000 0.300000 0.000000
-0.333692 -0.626474 0.485708 0.600000 0.300000 0.000000
-0.470668 -0.284642 -0.516864 0.600000 0.300000 0.000000
0.479959 -0.399152 -0.464766 0.600000 0.300000 0.000000
-0.284730 -0.631284 0.442393 0.300000 0.000000 0.600000
-0.083724 -0.626474 0.467744 0.600000 0.300000 0.000000
-0.505223 0.347567 0.432990 0.600000 0.300000 0.000000
-0.505223 -0.541418 0.135007 0.600000 0.300000 0.000000
-0.141297 0.681231 -0.516864 0.600000 0.300000 0.000000
0.177761 -0.750918 -0.074308 0.300000 0.000000 0.600000
0.288979 0.700930 0.280943 0.600000 0.000000 0.300000
0.500700 0.562743 -0.267115 0.600000 0.000000 0.300000
0.500700 0.617679 -0.242625 0.600000 0.000000 0.300000
0.479959 0.321028 -0.283253 0.600000 0.300000 0.000000
-0.505223 0.398935 -0.456743 0.600000 0.300000 0.000000
-0.239945 0.700930 -0.105782 0.600000 0.000000 0.300000
0.006724 -0.750918 -0.242046 0.300000 0.000000 0.600000
-0.461149 -0.743972 -0.123054 0.300000 0.000000 0.600000
-0.302719 -0.043103 0.520171 0.600000 0.300000 0.000000
-0.158523 -0.133433 -0.516864 0.600000 0.300000 0.000000
-0.276725 0.346504 0.520171 0.600000 0.300000 0.000000
-0.505223 0.257976 0.309357 0.600000 0.300000 0.000000
0.129355 0.700930 0.033502 0.600000 0.000000 0.300000
0.500700 0.632337 0.465819 0.600000 0.000000 0.300000
-0.485013 -0.368731 0.520164 0.600000 0.300000 0.000000
0.135970 -0.028539 -0.516864 0.600000 0.300000 0.000000
0.479959 -0.202658 0.127178 0.600000 0.300000 0.000000
0.479959 -0.103091 0.144167 0.600000 0.300000 0.000000
0.173225 -0.255522 0.520171 0.600000 0.300000 0.000000
-0.352947 -0.205618 0.520171 0.600000 0.300000 0.000000
-0.424935 0.656626 -0.516864 0.600000 0.300000 0.000000
-0.140219 0.670270 0.489061 0.800000 0.200000 0.500000
0.500700 0.497099 -0.142924 0.600000 0.000000 0.300000
-0.133352 -0.699848 -0.516864 0.600000 0.300000 0.000000
-0.026376 -0.229734 0.520171 0.600000 0.300000 0.000000
-0.441263 0.039189 -0.516864 0.600000 0.300000 0.000000
-0.297983 0.700930 0.160793 0.600000 0.000000 0.300000
-0.149023 0.283367 0.520171 0.600000 0.300000 0.000000
-0.505223 -0.004843 0.464457 0.600000 0.300000 0.000000
0.431344 0.532237 0.548689 0.000000 1.000000 0.000000
-0.505223 0.015233 -0.415850 0.600000 0.300000 0.000000
-0.525964 0.504419 -0.331312 0.600000 0.000000 0.300000
0.424180 -0.555874 -0.516864 0.600000 0.300000 0.000000
-0.505223 -0.248048 -0.058963 0.600000 0.300000 0.000000
0.500700 0.472316 -0.340052 0.600000 0.000000 0.300000
0.170167 0.609529 0.566837 0.800000 0.200000 0.500000
-0.180852 -0.750918 0.186882 0.300000 0.000000 0.600000
-0.328787 0.004659 0.520171 0.600000 0.300000 0.000000
0.413940 -0.085091 -0.516864 0.600000 0.300000 0.000000
-0.505223 -0.321063 0.172748 0.600000 0.300000 0.000000
-0.505223 -0.081310 0.205597 0.600000 0.300000 0.000000
-0.102689 0.700930 -0.090760 0.600000 0.000000 0.300000
0.064654 0.700930 0.365821 0.600000 0.000000 0.300000
0.479959 -0.608446 0.469113 0.600000 0.300000 0.000000
-0.160552 -0.054064 0.520171 0.600000 0.300000 0.000000
-0.345076 -0.526309 -0.516864 0.600000 0.300000 0.000000
-0.505223 -0.207636 -0.393546 0.600000 0.300000 0.000000
-0.520011 0.584127 0.536383 0.600000 0.000000 0.300000
0.185206 -0.750918 0.132725 0.300000 0.000000 0.600000
-0.505223 -0.422708 0.279313 0.600000 0.300000 0.000000
0.169985 -0.084294 0.520171 0.600000 0.300000 0.000000
0.026550 -0.750918 -0.431685 0.300000 0.000000 0.600000
-0.505223 0.309778 -0.334405 0.600000 0.300000 0.000000
-0.305408 -0.599315 -0.516864 0.600000 0.300000 0.000000
0.116114 -0.750918 -0.030583 0.300000 0.000000 0.600000
-0.505223 0.422740 -0.349920 0.600000 0.300000 0.000000
0.002037 -0.585733 -0.516864 0.600000 0.300000 0.000000
-0.135303 -0.549448 -0.516864 0.600000 0.300000 0.000000
0.283256 0.700930 0.071098 0.600000 0.000000 0.300000
-0.055698 0.605897 0.506023 0.800000 0.200000 0.500000
-0.049706 0.107564 0.520171 0.600000 0.300000 0.000000
-0.466934 0.700930 -0.371525 0.600000 0.000000 0.300000
-0.091031 -0.750918 -0.303487 0.300000 0.000000 0.600000
0.059453 -0.750918 0.261318 0.300000 0.000000 0.600000
-0.505223 0.169944 -0.475262 0.600000 0.300000 0.000000
-0.505223 -0.310113 -0.133089 0.600000 0.300000 0.000000
-0.067052 0.698488 0.537225 0.600000 0.000000 0.300000
-0.393723 0.700930 -0.105637 0.600000 0.000000 0.300000
-0.505223 -0.021905 -0.045986 0.600000 0.300000 0.000000
-0.066920 -0.750918 0.190419 0.300000 0.000000 0.600000
-0.193055 -0.257773 -0.516864 0.600000 0.300000 0.000000
-0.505223 -0.595839 0.141759 0.600000 0.300000 0.000000
-0.505223 -0.052728 -0.272479 0.600000 0.300000 0.000000
0.500700 0.655583 -0.289894 0.600000 0.000000 0.300000
0.003777 0.596924 0.566837 0.800000 0.200000 0.500000
-0.171519 0.700930 0.149947 0.600000 0.000000 0.300000
0.109321 0.142211 -0.516864 0.600000 0.300000 0.000000
0.159579 0.653272 0.455356 0.800000 0.200000 0.500000
-0.525964 0.649772 0.257599 0.600000 0.000000 0.300000
-0.438436 0.243378 0.520171 0.600000 0.300000 0.000000
0.132901 0.700930 -0.478790 0.600000 0.000000 0.300000
-0.255060 0.700930 0.334823 0.600000 0.000000 0.300000
-0.381445 -0.750918 -0.319919 0.300000 0.000000 0.600000
0.384877 0.499343 -0.516864 0.600000 0.300000 0.000000
-0.505223 0.073888 -0.357150 0.600000 0.300000 0.000000
0.479959 0.365717 -0.030933 0.600000 0.300000 0.000000
0.273744 0.700930 -0.446394 0.600000 0.000000 0.300000
0.493940 0.452042 0.307248 0.600000 0.000000 0.300000
-0.109010 0.700930 0.381793 0.600000 0.000000 0.300000
0.344317 -0.750918 -0.474085 0.300000 0.000000 0.600000
0.165940 0.166298 -0.516864 0.600000 0.300000 0.000000
0.417526 0.305835 0.520171 0.600000 0.300000 0.000000
0.259671 -0.193538 -0.516864 0.600000 0.300000 0.000000
0.445732 -0.626474 0.172267 0.600000 0.300000 0.000000
-0.505223 0.279670 -0.146377 0.600000 0.300000 0.000000
-0.050069 0.700930 -0.391469 0.600000 0.000000 0.300000
-0.230497 -0.001550 0.520171 0.600000 0.300000 0.000000
-0.025710 0.700930 0.380588 0.600000 0.000000 0.300000
0.500700 0.545336 -0.176992 0.600000 0.000000 0.300000
-0.122301 -0.626109 -0.516864 0.600000 0.300000 0.000000
0.479959 -0.620879 0.290815 0.600000 0.300000 0.000000
0.139893 0.700930 0.364914 0.600000 0.000000 0.300000
-0.237920 0.700930 0.495705 0.600000 0.000000 0.300000
0.479959 0.314060 0.377213 0.600000 0.300000 0.000000
0.479959 0.446856 0.027465 0.600000 0.300000 0.000000
-0.505223 -0.257802 0.166799 0.600000 0.300000 0.000000
0.402692 0.107016 0.520171 0.600000 0.300000 0.000000
-0.144799 -0.750918 -0.431484 0.300000 0.000000 0.600000
-0.173713 0.700930 0.303307 0.600000 0.000000 0.300000
0.479959 -0.040197 -0.437930 0.600000 0.300000 0.000000
0.160826 -0.438635 0.520171 0.600000 0.300000 0.000000
-0.352560 0.030173 -0.516864 0.600000 0.300000 0.000000
0.172617 -0.750793 -0.516864 0.600000 0.300000 0.000000
-0.419344 0.700930 -0.291281 0.600000 0.000000 0.300000
0.479959 -0.094543 -0.138470 0.600000 0.300000 0.000000
0.479959 0.333876 0.232605 0.600000 0.300000 0.000000
-0.481739 0.700930 0.436970 0.600000 0.000000 0.300000
-0.468684 -0.008208 0.520171 0.600000 0.300000 0.000000
-0.505223 0.291171 0.193918 0.600000 0.300000 0.000000
0.479959 0.246637 -0.070467 0.600000 0.300000 0.000000
0.076607 0.700930 -0.297063 0.600000 0.000000 0.300000
-0.223377 -0.118056 0.520171 0.600000 0.300000 0.000000
0.479959 0.303790 0.482502 0.600000 0.300000 0.000000
-0.505223 0.171299 -0.274151 0.600000 0.300000 0.000000
-0.222223 -0.750918 -0.462218 0.300000 0.000000 0.600000
-0.070131 0.244574 -0.516864 0.600000 0.300000 0.000000
0.500700 0.466246 -0.434088 0.600000 0.000000 0.300000
0.479959 -0.420879 -0.108363 0.600000 0.300000 0.000000
0.137754 -0.246644 -0.516864 0.600000 0.300000 0.000000
0.479959 -0.378292 -0.017581 0.600000 0.300000 0.000000
-0.371540 -0.750918 0.153617 0.300000 0.000000 0.600000
0.290859 0.363830 -0.516864 0.600000 0.300000 0.000000
0.449619 -0.430778 -0.516864 0.600000 0.300000 0.000000
-0.187224 0.700930 -0.197651 0.600000 0.000000 0.300000
-0.505223 0.441874 0.342391 0.600000 0.300000 0.000000
-0.459039 0.296661 -0.516864 0.600000 0.300000 0.000000
-0.505223 0.168463 0.000489 0.600000 0.300000 0.000000
0.194086 0.488928 0.548689 0.000000 1.000000 0.000000
-0.342171 0.590545 -0.516864 0.600000 0.300000 0.000000
0.500700 0.471004 -0.386071 0.600000 0.000000 0.300000
0.176542 0.700930 0.486567 0.600000 0.000000 0.300000
-0.043452 -0.420135 0.520171 0.600000 0.300000 0.000000
-0.505223 -0.585913 0.026165 0.600000 0.300000 0.000000
0.479959 0.036107 0.344605 0.600000 0.300000 0.000000
0.195512 0.700930 -0.295090 0.600000 0.000000 0.300000
-0.380405 0.267887 0.520171 0.600000 0.300000 0.000000
0.315865 -0.263261 -0.516864 0.600000 0.300000 0.000000
0.479959 0.099999 -0.357222 0.600000 0.300000 0.000000
0.479959 0.399273 0.468609 0.600000 0.300000 0.000000
-0.477091 -0.526799 0.520171 0.600000 0.300000 0.000000
0.011218 -0.750918 0.139685 0.300000 0.000000 0.600000
-0.505223 -0.131756 -0.171882 0.600000 0.300000 0.000000
-0.043113 0.471103 0.540911 0.600000 0.000000 0.300000
-0.364431 0.700930 -0.156249 0.600000 0.000000 0.300000
0.213438 0.700930 0.050466 0.600000 0.000000 0.300000
-0.229725 -0.750918 0.279883 0.300000 0.000000 0.600000
-0.505223 -0.572925 -0.301356 0.600000 0.300000 0.000000
0.106210 0.255911 -0.516864 0.600000 0.300000 0.000000
-0.442593 0.700930 -0.467565 0.600000 0.000000 0.300000
0.097314 0.700930 0.114881 0.600000 0.000000 0.300000
-0.270954 -0.423441 -0.516864 0.600000 0.300000 0.000000
0.200705 -0.750918 -0.177310 0.300000 0.000000 0.600000
-0.505223 0.113141 -0.215005 0.600000 0.300000 0.000000
-0.122496 0.233962 0.520171 0.600000 0.300000 0.000000
-0.085764 -0.202983 -0.516864 0.600000 0.300000 0.000000
-0.103598 0.510794 -0.516864 0.600000 0.300000 0.000000
0.479959 -0.405698 -0.306004 0.600000 0.300000 0.000000
0.254017 0.028977 0.520171 0.600000 0.300000 0.000000
-0.504357 -0.626474 -0.458515 0.600000 0.300000 0.000000
-0.087597 -0.750918 0.386057 0.300000 0.000000 0.600000
-0.096800 0.700930 0.443089 0.600000 0.000000 0.300000
-0.364250 -0.750918 -0.057172 0.300000 0.000000 0.600000
0.479959 -0.412995 0.430725 0.600000 0.300000 0.000000
-0.505223 -0.057318 -0.167315 0.600000 0.300000 0.000000
-0.242438 -0.664949 -0.516864 0.600000 0.300000 0.000000
0.085143 0.700930 0.273728 0.600000 0.000000 0.300000
-0.267329 -0.407806 0.520171 0.600000 0.300000 0.000000
0.335151 -0.511337 -0.516864 0.600000 0.300000 0.000000
0.272795 0.251112 0.520171 0.600000 0.300000 0.000000
-0.230310 0.700930 -0.163136 0.600000 0.000000 0.300000
0.372888 0.196260 -0.516864 0.600000 0.300000 0.000000
0.251228 -0.593607 -0.516864 0.600000 0.300000 0.000000
-0.488484 0.700930 -0.416524 0.600000 0.000000 0.300000
0.479959 0.013375 -0.279674 0.600000 0.300000 0.000000
-0.316984 0.659723 0.455356 0.800000 0.200000 0.500000
-0.125219 -0.626474 0.497406 0.600000 0.300000 0.000000
-0.144710 0.700930 -0.132616 0.600000 0.000000 0.300000
-0.251919 0.143119 0.520171 0.600000 0.300000 0.000000
0.139988 0.700930 -0.213958 0.600000 0.000000 0.300000
0.500700 0.633498 0.299418 0.600000 0.000000 0.300000
0.382591 -0.750918 -0.344065 0.300000 0.000000 0.600000
0.478919 0.700930 -0.215797 0.600000 0.000000 0.300000
0.298071 -0.099864 -0.516864 0.600000 0.300000 0.000000
-0.423470 0.700930 -0.205903 0.600000 0.000000 0.300000
-0.385650 -0.421374 0.520171 0.600000 0.300000 0.000000
0.479959 -0.162037 -0.133819 0.600000 0.300000 0.000000
0.020117 0.700930 0.338393 0.600000 0.000000 0.300000
0.491556 0.461449 0.538685 0.600000 0.000000 0.300000
0.070698 -0.080172 -0.516864 0.600000 0.300000 0.000000
-0.270332 0.700930 -0.220559 0.600000 0.000000 0.300000
0.345502 0.341154 0.520171 0.600000 0.300000 0.000000
0.115421 -0.750918 -0.136494 0.300000 0.000000 0.600000
-0.126447 0.607892 0.466103 0.800000 0.200000 0.500000
-0.505223 -0.576494 0.220616 0.600000 0.300000 0.000000
0.451506 0.123832 -0.516864 0.600000 0.300000 0.000000
0.500700 0.554269 -0.481411 0.600000 0.000000 0.300000
-0.505223 -0.335576 0.487535 0.600000 0.300000 0.000000
-0.505223 -0.153288 0.364925 0.600000 0.300000 0.000000
0.479959 0.032920 0.291590 0.600000 0.300000 0.000000
-0.525964 0.598528 0.174892 0.600000 0.000000 0.300000
-0.208358 -0.615372 -0.516864 0.600000 0.300000 0.000000
0.066060 0.495662 -0.516864 0.600000 0.300000 0.000000
-0.347058 -0.480510 -0.516864 0.600000 0.300000 0.000000
-0.253917 -0.750918 -0.040353 0.300000 0.000000 0.600000
0.420330 -0.745396 0.049171 0.300000 0.000000 0.600000
-0.505223 -0.587765 0.450545 0.600000 0.300000 0.000000
-0.023556 -0.750918 0.227287 0.300000 0.000000 0.600000
-0.505223 0.226304 0.389113 0.600000 0.300000 0.000000
-0.108782 0.094592 -0.516864 0.600000 0.300000 0.000000
-0.493104 0.700930 -0.262869 0.600000 0.000000 0.300000
-0.399073 0.700930 -0.000988 0.600000 0.000000 0.300000
-0.505223 -0.013242 -0.248049 0.600000 0.300000 0.000000
-0.258796 0.700930 0.084372 0.600000 0.000000 0.300000
-0.144654 0.049786 0.520171 0.600000 0.300000 0.000000
-0.489333 -0.608726 0.519596 0.600000 0.300000 0.000000
0.365593 -0.750918 0.023421 0.300000 0.000000 0.600000
0.479959 -0.023574 -0.182841 0.600000 0.300000 0.000000
0.500700 0.489678 0.383379 0.600000 0.000000 0.300000
-0.154692 -0.305248 0.520171 0.600000 0.300000 0.000000
-0.505223 -0.343464 -0.084664 0.600000 0.300000 0.000000
0.420330 -0.749112 -0.200251 0.300000 0.000000 0.600000
0.371010 -0.750918 -0.428292 0.300000 0.000000 0.600000
0.441593 0.700930 -0.306513 0.600000 0.000000 0.300000
0.479959 -0.219917 -0.051677 0.600000 0.300000 0.000000
-0.273442 0.485324 -0.516864 0.600000 0.300000 0.000000
0.079473 0.700930 -0.183564 0.600000 0.000000 0.300000
-0.459136 -0.750918 -0.257887 0.300000 0.000000 0.600000
0.236967 0.616982 0.500375 0.800000 0.200000 0.500000
-0.525964 0.682105 -0.191050 0.600000 0.000000 0.300000
-0.427992 -0.750918 0.338662 0.300000 0.000000 0.600000
0.500700 0.558449 -0.335714 0.600000 0.000000 0.300000
0.214427 -0.006110 0.520171 0.600000 0.300000 0.000000
-0.184366 -0.750918 0.359760 0.300000 0.000000 0.600000
-0.067659 0.700930 -0.269325 0.600000 0.000000 0.300000
-0.031542 0.700930 -0.344953 0.600000 0.000000 0.300000
0.180908 -0.750918 -0.379415 0.300000 0.000000 0.600000
0.102704 -0.371061 0.520171 0.600000 0.300000 0.000000
-0.180314 0.512815 0.546118 1.000000 0.000000 0.000000
-0.525964 0.482856 0.073870 0.600000 0.000000 0.300000
-0.171865 0.700930 -0.260360 0.600000 0.000000 0.300000
-0.100166 0.670270 0.512641 0.800000 0.200000 0.500000
-0.505223 -0.019592 0.181873 0.600000 0.300000 0.000000
-0.078005 -0.040252 0.520171 0.600000 0.300000 0.000000
-0.247302 -0.750918 -0.418000 0.300000 0.000000 0.600000
0.264462 -0.750918 0.423966 0.300000 0.000000 0.600000
0.447724 -0.626474 -0.107416 0.600000 0.300000 0.000000
-0.505223 0.020327 -0.316394 0.600000 0.300000 0.000000
0.394225 0.675217 0.566837 0.800000 0.200000 0.500000
0.479959 0.354600 -0.450535 0.600000 0.300000 0.000000
0.012079 0.574343 -0.516864 0.600000 0.300000 0.000000
-0.291857 -0.337111 -0.516864 0.600000 0.300000 0.000000
0.142561 0.615826 -0.516864 0.600000 0.300000 0.000000
0.037945 0.700930 -0.319246 0.600000 0.000000 0.300000
0.479959 0.270731 -0.007149 0.600000 0.300000 0.000000
-0.505223 0.035641 -0.503213 0.600000 0.300000 0.000000
-0.245782 0.700930 0.011014 0.600000 0.000000 0.300000
0.169260 -0.210998 -0.516864 0.600000 0.300000 0.000000
0.500700 0.654505 -0.168320 0.600000 0.000000 0.300000
0.500700 0.576486 -0.016634 0.600000 0.000000 0.300000
0.478119 -0.153540 -0.516864 0.600000 0.300000 0.000000
0.246892 -0.238803 0.520171 0.600000 0.300000 0.000000
-0.473435 0.649189 -0.516864 0.600000 0.300000 0.000000
0.421310 -0.626474 -0.348391 0.600000 0.300000 0.000000
-0.142299 -0.750918 -0.387114 0.300000 0.000000 0.600000
0.479959 -0.017781 0.184821 0.600000 0.300000 0.000000
0.000105 0.012181 0.520171 0.600000 0.300000 0.000000
0.479959 -0.550425 -0.335331 0.600000 0.300000 0.000000
-0.295753 -0.578750 0.520171 0.600000 0.300000 0.000000
-0.181071 0.436423 0.520171 0.600000 0.300000 0.000000
-0.505223 -0.327002 -0.021459 0.600000 0.300000 0.000000
-0.271849 -0.209809 -0.516864 0.600000 0.300000 0.000000
0.277409 -0.726470 -0.516864 0.600000 0.300000 0.000000
-0.505223 -0.478541 0.350065 0.600000 0.300000 0.000000
0.084976 -0.166825 -0.516864 0.600000 0.300000 0.000000
-0.525964 0.564277 0.208938 0.600000 0.000000 0.300000
0.227852 0.616117 0.559666 0.800000 0.200000 0.500000
0.321649 -0.750918 -0.184494 0.300000 0.000000 0.600000
-0.005620 -0.205988 -0.516864 0.600000 0.300000 0.000000
0.454570 -0.010782 -0.516864 0.600000 0.300000 0.000000
-0.412567 0.700930 -0.367118 0.600000 0.000000 0.300000
0.111875 -0.750918 -0.221540 0.300000 0.000000 0.600000
0.082048 -0.334723 -0.516864 0.600000 0.300000 0.000000
-0.505223 -0.290957 0.079188 0.600000 0.300000 0.000000
-0.249204 0.700930 -0.402165 0.600000 0.000000 0.300000
0.192390 -0.750918 0.018086 0.300000 0.000000 0.600000
0.479959 0.254686 -0.349083 0.600000 0.300000 0.000000
0.448664 -0.626474 -0.025992 0.600000 0.300000 0.000000
-0.499267 0.700930 -0.334020 0.600000 0.000000 0.300000
0.500700 0.614780 -0.426908 0.600000 0.000000 0.300000
-0.405788 0.013106 -0.516864 0.600000 0.300000 0.000000
-0.186324 -0.351678 0.520171 0.600000 0.300000 0.000000
0.304235 0.700930 0.477665 0.600000 0.000000 0.300000
-0.525964 0.556722 -0.425028 0.600000 0.000000 0.300000
-0.525964 0.660256 -0.394995 0.600000 0.000000 0.300000
0.419474 -0.593670 0.520171 0.600000 0.300000 0.000000
0.004299 -0.150132 0.520171 0.600000 0.300000 0.000000
0.113507 0.122996 0.520171 0.600000 0.300000 0.000000
0.420330 -0.671977 -0.056934 0.300000 0.000000 0.600000
-0.258020 0.458575 0.540911 0.600000 0.000000 0.300000
-0.505223 -0.112672 0.076296 0.600000 0.300000 0.000000
0.403933 0.700930 -0.242741 0.600000 0.000000 0.300000
0.298598 0.700930 -0.021432 0.600000 0.000000 0.300000
0.416860 0.091621 -0.516864 0.600000 0.300000 0.000000
-0.461149 -0.717149 -0.312390 0.300000 0.000000 0.600000
-0.505223 -0.332723 0.268318 0.600000 0.300000 0.000000
0.479959 -0.288521 -0.461733 0.600000 0.300000 0.000000
0.179688 -0.316386 0.520171 0.600000 0.300000 0.000000
0.255089 0.700930 -0.212345 0.600000 0.000000 0.300000
-0.461149 -0.697247 -0.468117 0.300000 0.000000 0.600000
0.481948 0.452042 0.458611 0.600000 0.000000 0.300000
0.344070 0.700930 -0.504338 0.600000 0.000000 0.300000
0.091305 0.700930 -0.506501 0.600000 0.000000 0.300000
0.352017 -0.750918 0.419912 0.300000 0.000000 0.600000
0.124503 0.315142 -0.516864 0.600000 0.300000 0.000000
-0.461149 -0.731911 -0.421386 0.300000 0.000000 0.600000
0.296294 -0.015568 -0.516864 0.600000 0.300000 0.000000
-0.505223 -0.330303 0.389006 0.600000 0.300000 0.000000
-0.505223 0.072459 0.132925 0.600000 0.300000 0.000000
0.479959 0.259408 -0.233693 0.600000 0.300000 0.000000
0.288225 0.413891 0.520171 0.600000 0.300000 0.000000
-0.473780 -0.619203 -0.516864 0.600000 0.300000 0.000000
0.465073 0.492300 -0.516864 0.600000 0.300000 0.000000
-0.505223 -0.179242 0.099742 0.600000 0.300000 0.000000
-0.505223 -0.087173 0.250045 0.600000 0.300000 0.000000
0.479959 0.375865 -0.328511 0.600000 0.300000 0.000000
0.479959 0.413874 0.239036 0.600000 0.300000 0.000000
0.243529 0.700930 -0.377578 0.600000 0.000000 0.300000
-0.286655 -0.253609 0.520171 0.600000 0.300000 0.000000
0.199383 0.670270 0.460203 0.800000 0.200000 0.500000
-0.505223 -0.189190 0.399227 0.600000 0.300000 0.000000
0.467323 0.700930 0.139173 0.600000 0.000000 0.300000
-0.171372 0.700930 0.491666 0.600000 0.000000 0.300000
-0.469055 -0.626474 -0.433077 0.600000 0.300000 0.000000
0.222128 0.700930 0.133423 0.600000 0.000000 0.300000
-0.355439 -0.750918 -0.238248 0.300000 0.000000 0.600000
-0.072321 -0.631313 -0.516864 0.600000 0.300000 0.000000
0.479959 -0.286875 0.457537 0.600000 0.300000 0.000000
0.479959 0.010009 -0.438858 0.600000 0.300000 0.000000
0.479959 -0.363688 -0.384593 0.600000 0.300000 0.000000
-0.186897 0.516232 -0.516864 0.600000 0.300000 0.000000
-0.480404 0.243006 -0.516864 0.600000 0.300000 0.000000
-0.504823 -0.626474 0.345938 0.600000 0.300000 0.000000
0.479959 -0.582503 -0.039890 0.600000 0.300000 0.000000
0.176683 0.700930 0.244399 0.600000 0.000000 0.300000
0.300245 -0.750918 -0.132708 0.300000 0.000000 0.600000
0.479959 -0.285818 0.001639 0.600000 0.300000 0.000000
0.500700 0.601129 0.401602 0.600000 0.000000 0.300000
0.387167 -0.503673 0.520171 0.600000 0.300000 0.000000
-0.091668 -0.750918 -0.211664 0.300000 0.000000 0.600000
-0.151155 0.670270 0.555904 0.800000 0.200000 0.500000
-0.504886 0.188745 0.503150 0.600000 0.300000 0.000000
-0.525964 0.478969 0.428124 0.600000 0.000000 0.300000
0.340161 -0.023333 -0.516864 0.600000 0.300000 0.000000
-0.250340 -0.750918 -0.242322 0.300000 0.000000 0.600000
-0.505223 -0.378413 -0.359486 0.600000 0.300000 0.000000
0.479959 0.363529 0.014890 0.600000 0.300000 0.000000
-0.351416 -0.750918 0.381952 0.300000 0.000000 0.600000
-0.150462 -0.750918 -0.287558 0.300000 0.000000 0.600000
-0.354057 -0.112972 0.520171 0.600000 0.300000 0.000000
0.467992 -0.583969 0.518222 0.600000 0.300000 0.000000
-0.080368 -0.750918 0.076338 0.300000 0.000000 0.600000
-0.061762 0.670270 0.458274 0.800000 0.200000 0.500000
-0.373735 -0.623148 0.520171 0.600000 0.300000 0.000000
-0.127359 0.145186 0.520171 0.600000 0.300000 0.000000
0.394027 0.664271 -0.516864 0.600000 0.300000 0.000000
0.421005 -0.626474 -0.160868 0.600000 0.300000 0.000000
0.211743 0.560711 -0.516864 0.600000 0.300000 0.000000
-0.467515 0.700930 0.168436 0.600000 0.000000 0.300000
0.479959 0.255129 0.489600 0.600000 0.300000 0.000000
-0.460447 0.700930 0.491332 0.600000 0.000000 0.300000
-0.505223 -0.262737 -0.425810 0.600000 0.300000 0.000000
0.182521 0.639037 -0.516864 0.600000 0.300000 0.000000
-0.346994 0.700930 0.064484 0.600000 0.000000 0.300000
-0.411723 -0.750918 0.010508 0.300000 0.000000 0.600000
-0.525964 0.558411 -0.166839 0.600000 0.000000 0.300000
-0.078968 -0.750918 -0.514403 0.300000 0.000000 0.600000
0.479959 0.076338 0.196925 0.600000 0.300000 0.000000
-0.525964 0.655880 -0.342548 0.600000 0.000000 0.300000
-0.124402 0.613285 -0.516864 0.600000 0.300000 0.000000
0.479959 0.017164 -0.017510 0.600000 0.300000 0.000000
-0.228986 0.217319 -0.516864 0.600000 0.300000 0.000000
-0.032203 -0.524032 0.520171 0.600000 0.300000 0.000000
0.464709 0.700930 -0.133761 0.600000 0.000000 0.300000
-0.456062 0.700930 -0.058188 0.600000 0.000000 0.300000
0.091261 0.700930 -0.392383 0.600000 0.000000 0.300000
0.347861 0.700930 -0.159438 0.600000 0.000000 0.300000
-0.499389 -0.626474 -0.131461 0.600000 0.300000 0.000000
-0.222462 0.699277 0.536160 0.600000 0.000000 0.300000
0.245129 0.169252 0.520171 0.600000 0.300000 0.000000
0.500700 0.457248 0.109473 0.600000 0.000000 0.300000
0.254336 0.700930 0.037577 0.600000 0.000000 0.300000
-0.505223 -0.390054 -0.505950 0.600000 0.300000 0.000000
-0.345468 0.498494 -0.516864 0.600000 0.300000 0.000000
-0.403310 -0.690922 0.442393 0.300000 0.000000 0.600000
0.087669 -0.404989 -0.516864 0.600000 0.300000 0.000000
0.312992 0.217819 0.520171 0.600000 0.300000 0.000000
-0.257949 -0.568084 -0.516864 0.600000 0.300000 0.000000
0.479959 0.148997 0.368412 0.600000 0.300000 0.000000
0.250039 -0.326919 0.520171 0.600000 0.300000 0.000000
0.355133 -0.591822 -0.516864 0.600000 0.300000 0.000000
0.479959 0.411868 0.370871 0.600000 0.300000 0.000000
0.141804 0.700930 -0.055008 0.600000 0.000000 0.300000
0.068760 0.646080 0.455356 0.800000 0.200000 0.500000
-0.525964 0.587261 -0.509904 0.600000 0.000000 0.300000
-0.320399 0.136437 0.520171 0.600000 0.300000 0.000000
0.038916 -0.583987 0.520171 0.600000 0.300000 0.000000
0.182431 -0.495054 -0.516864 0.600000 0.300000 0.000000
0.239178 0.700930 -0.048076 0.600000 0.000000 0.300000
0.420961 0.700930 0.133792 0.600000 0.000000 0.300000
-0.505223 -0.177139 0.313881 0.600000 0.300000 0.000000
-0.135138 -0.750918 -0.130075 0.300000 0.000000 0.600000
-0.306755 -0.051572 -0.516864 0.600000 0.300000 0.000000
-0.252145 0.700930 0.176787 0.600000 0.000000 0.300000
-0.417944 0.700930 0.181584 0.600000 0.000000 0.300000
0.196593 0.700930 -0.036123 0.600000 0.000000 0.300000
-0.458920 0.102232 -0.516864 0.600000 0.300000 0.000000
-0.505223 0.097632 0.474816 0.600000 0.300000 0.000000
-0.525964 0.545530 -0.478531 0.600000 0.000000 0.300000
-0.525964 0.665554 0.133888 0.600000 0.000000 0.300000
0.500700 0.671604 0.503078 0.600000 0.000000 0.300000
0.150402 -0.750918 0.210124 0.300000 0.000000 0.600000
-0.322813 -0.750918 0.015453 0.300000 0.000000 0.600000
0.389145 0.700930 -0.451003 0.600000 0.000000 0.300000
0.346882 0.700930 -0.320847 0.600000 0.000000 0.300000
0.479959 -0.099479 0.006991 0.600000 0.300000 0.000000
0.173258 0.571102 0.548689 0.000000 1.000000 0.000000
-0.505223 0.217720 -0.475982 0.600000 0.300000 0.000000
-0.377412 0.146349 0.520171 0.600000 0.300000 0.000000
0.420330 -0.726600 0.375386 0.300000 0.000000 0.600000
-0.418204 -0.750918 -0.209166 0.300000 0.000000 0.600000
0.479959 -0.564526 -0.151758 0.600000 0.300000 0.000000
-0.525964 0.655122 -0.481165 0.600000 0.000000 0.300000
0.034189 -0.128463 -0.516864 0.600000 0.300000 0.000000
-0.218768 -0.626474 0.477200 0.600000 0.300000 0.000000
0.373964 0.700930 -0.080969 0.600000 0.000000 0.300000
-0.505223 -0.526168 -0.218257 0.600000 0.300000 0.000000
-0.505223 0.396522 -0.075505 0.600000 0.300000 0.000000
0.479959 0.311479 -0.060423 0.600000 0.300000 0.000000
0.500700 0.567994 0.479788 0.600000 0.000000 0.300000
0.479959 -0.508329 -0.378101 0.600000 0.300000 0.000000
-0.505223 0.387742 0.176108 0.600000 0.300000 0.000000
0.438500 -0.626474 -0.494239 0.600000 0.300000 0.000000
0.479959 0.186029 -0.024617 0.600000 0.300000 0.000000
0.479959 -0.222822 -0.438350 0.600000 0.300000 0.000000
-0.464148 -0.626474 0.360449 0.600000 0.300000 0.000000
-0.216384 -0.750918 0.044524 0.300000 0.000000 0.600000
0.345837 -0.210290 0.520171 0.600000 0.300000 0.000000
0.479959 -0.267293 -0.375445 0.600000 0.300000 0.000000
-0.461149 -0.642339 0.000510 0.300000 0.000000 0.600000
-0.350649 0.626277 0.513589 0.800000 0.200000 0.500000
-0.505223 0.344723 -0.086583 0.600000 0.300000 0.000000
-0.505223 -0.262661 -0.228602 0.600000 0.300000 0.000000
0.007185 -0.750918 -0.182356 0.300000 0.000000 0.600000
0.396031 0.555731 0.548689 0.000000 1.000000 0.000000
0.500700 0.689235 -0.366369 0.600000 0.000000 0.300000
0.377076 -0.626474 0.520128 0.600000 0.300000 0.000000
0.209086 -0.670644 -0.516864 0.600000 0.300000 0.000000
0.182232 0.685622 -0.516864 0.600000 0.300000 0.000000
0.030624 0.493457 0.548689 0.000000 1.000000 0.000000
-0.205567 0.203138 0.520171 0.600000 0.300000 0.000000
-0.036344 0.700930 0.475827 0.600000 0.000000 0.300000
0.479959 -0.214124 0.343411 0.600000 0.300000 0.000000
0.019833 -0.350994 0.520171 0.600000 0.300000 0.000000
0.370075 0.700930 0.002093 0.600000 0.000000 0.300000
-0.039034 -0.750918 -0.118022 0.300000 0.000000 0.600000
0.479959 0.170109 -0.297035 0.600000 0.300000 0.000000
-0.525964 0.686879 -0.094588 0.600000 0.000000 0.300000
-0.011349 -0.152727 -0.516864 0.600000 0.300000 0.000000
-0.505223 -0.003853 -0.476271 0.600000 0.300000 0.000000
0.048304 -0.750918 0.390551 0.300000 0.000000 0.600000
-0.245185 0.536108 -0.516864 0.600000 0.300000 0.000000
-0.117375 0.700930 -0.317818 0.600000 0.000000 0.300000
-0.183431 0.301954 -0.516864 0.600000 0.300000 0.000000
-0.505223 -0.109337 -0.319506 0.600000 0.300000 0.000000
0.479959 -0.477169 -0.342917 0.600000 0.300000 0.000000
0.004987 0.217610 -0.516864 0.600000 0.300000 0.000000
0.451713 0.195528 -0.516864 0.600000 0.300000 0.000000
0.479959 0.369154 0.438684 0.600000 0.300000 0.000000
0.275911 0.700930 -0.333756 0.600000 0.000000 0.300000
-0.505223 -0.110454 0.440754 0.600000 0.300000 0.000000
-0.505223 0.059229 0.232151 0.600000 0.300000 0.000000
-0.140901 -0.460794 0.520171 0.600000 0.300000 0.000000
0.466755 -0.048104 0.518752 0.600000 0.300000 0.000000
0.156428 0.054126 0.520171 0.600000 0.300000 0.000000
-0.279690 -0.750918 -0.125624 0.300000 0.000000 0.600000
-0.221825 0.007538 -0.516864 0.600000 0.300000 0.000000
-0.505223 -0.581360 -0.469965 0.600000 0.300000 0.000000
-0.299602 0.700930 -0.469885 0.600000 0.000000 0.300000
-0.461900 -0.202776 0.520171 0.600000 0.300000 0.000000
-0.505223 0.152824 0.451578 0.600000 0.300000 0.000000
-0.284974 0.224658 0.520171 0.600000 0.300000 0.000000
0.479959 -0.449801 -0.161414 0.600000 0.300000 0.000000
-0.442357 0.339681 0.520171 0.600000 0.300000 0.000000
-0.009736 0.300689 -0.516864 0.600000 0.300000 0.000000
0.479959 -0.066307 0.481971 0.600000 0.300000 0.000000
0.209944 0.670270 0.517181 0.800000 0.200000 0.500000
-0.185645 0.086891 -0.516864 0.600000 0.300000 0.000000
-0.107900 -0.750918 -0.014253 0.300000 0.000000 0.600000
-0.505223 0.212902 0.231863 0.600000 0.300000 0.000000
-0.027400 -0.626474 0.479308 0.600000 0.300000 0.000000
-0.461149 -0.626714 -0.345190 0.300000 0.000000 0.600000
-0.505223 -0.511650 0.304420 0.600000 0.300000 0.000000
0.410417 -0.750918 -0.036658 0.300000 0.000000 0.600000
0.299238 0.700930 -0.099627 0.600000 0.000000 0.300000
0.101903 -0.635719 0.442393 0.300000 0.000000 0.600000
0.500700 0.621655 -0.478122 0.600000 0.000000 0.300000
0.479959 0.084090 0.375641 0.600000 0.300000 0.000000
0.297735 -0.530322 0.520171 0.600000 0.300000 0.000000
-0.157878 -0.750918 0.305606 0.300000 0.000000 0.600000
0.314539 0.093084 0.520171 0.600000 0.300000 0.000000
0.217195 -0.750918 0.402821 0.300000 0.000000 0.600000
-0.505223 -0.616762 -0.377093 0.600000 0.300000 0.000000
-0.467190 0.602432 0.540911 0.600000 0.000000 0.300000
0.474715 0.700930 0.280734 0.600000 0.000000 0.300000
-0.461149 -0.645936 0.085293 0.300000 0.000000 0.600000
0.479959 0.264817 0.201044 0.600000 0.300000 0.000000
0.262859 -0.700440 0.442393 0.300000 0.000000 0.600000
0.273092 -0.750918 0.255536 0.300000 0.000000 0.600000
-0.435762 0.700930 0.077984 0.600000 0.000000 0.300000
-0.505223 0.412394 0.239328 0.600000 0.300000 0.000000
-0.008445 0.660740 -0.516864 0.600000 0.300000 0.000000
-0.448272 -0.054679 -0.516864 0.600000 0.300000 0.000000
-0.165538 0.700930 -0.044487 0.600000 0.000000 0.300000
-0.376471 -0.170184 0.520171 0.600000 0.300000 0.000000
0.191908 0.700930 0.205342 0.600000 0.000000 0.300000
-0.525964 0.525621 0.304803 0.600000 0.000000 0.300000
-0.505223 -0.540463 -0.514004 0.600000 0.300000 0.000000
0.390956 -0.376676 -0.516864 0.600000 0.300000 0.000000
-0.015523 -0.065547 -0.516864 0.600000 0.300000 0.000000
0.479959 0.036532 -0.244784 0.600000 0.300000 0.000000
0.307303 0.313549 -0.516864 0.600000 0.300000 0.000000
0.500700 0.543082 -0.394188 0.600000 0.000000 0.300000
-0.273675 0.582903 0.548689 0.000000 1.000000 0.000000
-0.186758 -0.750918 -0.249228 0.300000 0.000000 0.600000
-0.505223 0.135678 -0.091704 0.600000 0.300000 0.000000
0.479959 -0.429149 -0.243985 0.600000 0.300000 0.000000
0.479959 0.321658 0.141312 0.600000 0.300000 0.000000
0.059060 0.452042 0.521951 0.600000 0.000000 0.300000
0.479959 0.053075 0.045915 0.600000 0.300000 0.000000
0.479959 0.085301 0.286414 0.600000 0.300000 0.000000
-0.007684 0.700930 0.109950 0.600000 0.000000 0.300000
0.479959 0.357408 0.170747 0.600000 0.300000 0.000000
-0.505223 0.353823 0.060515 0.600000 0.300000 0.000000
-0.278472 -0.741839 0.442393 0.300000 0.000000 0.600000
-0.366717 0.433751 -0.516864 0.600000 0.300000 0.000000
-0.012683 0.700930 -0.051557 0.600000 0.000000 0.300000
0.369762 0.399839 -0.516864 0.600000 0.300000 0.000000
-0.505223 -0.019701 0.279338 0.600000 0.300000 0.000000
0.479906 0.091029 0.500892 0.600000 0.300000 0.000000
0.025214 0.670270 0.466478 0.800000 0.200000 0.500000
0.500700 0.624228 -0.102967 0.600000 0.000000 0.300000
-0.505223 0.336642 -0.237687 0.600000 0.300000 0.000000
-0.049540 -0.750918 -0.276964 0.300000 0.000000 0.600000
0.454662 0.159589 0.520171 0.600000 0.300000 0.000000
0.479959 -0.419324 0.133140 0.600000 0.300000 0.000000
-0.313070 -0.141675 -0.516864 0.600000 0.300000 0.000000
0.479959 0.028098 -0.377316 0.600000 0.300000 0.000000
0.122928 0.700930 0.440706 0.600000 0.000000 0.300000
0.420330 -0.698932 -0.091216 0.300000 0.000000 0.600000
-0.021659 0.521328 -0.516864 0.600000 0.300000 0.000000
-0.349443 0.540404 0.547004 0.000000 1.000000 0.000000
-0.333766 -0.750918 -0.124525 0.300000 0.000000 0.600000
0.215866 -0.750918 0.351485 0.300000 0.000000 0.600000
0.379135 -0.291795 0.520171 0.600000 0.300000 0.000000
-0.505223 -0.421377 -0.471516 0.600000 0.300000 0.000000
0.479959 -0.181206 0.040023 0.600000 0.300000 0.000000
0.500700 0.548640 0.430761 0.600000 0.000000 0.300000
-0.340159 -0.750918 0.096516 0.300000 0.000000 0.600000
0.418836 0.619689 -0.516864 0.600000 0.300000 0.000000
-0.505223 0.268377 0.483626 0.600000 0.300000 0.000000
-0.505223 -0.478949 -0.473021 0.600000 0.300000 0.000000
-0.505223 0.282617 0.395017 0.600000 0.300000 0.000000
-0.103003 -0.560703 0.520171 0.600000 0.300000 0.000000
0.081053 0.650745 -0.516864 0.600000 0.300000 0.000000
0.072556 0.606809 0.468668 0.800000 0.200000 0.500000
0.106659 -0.624877 -0.516864 0.600000 0.300000 0.000000
-0.178574 0.573944 0.548689 0.000000 1.000000 0.000000
-0.095082 -0.538938 -0.516864 0.600000 0.300000 0.000000
-0.505223 -0.034199 0.049700 0.600000 0.300000 0.000000
-0.352764 -0.748009 0.442393 0.300000 0.000000 0.600000
0.123864 -0.471172 -0.516864 0.600000 0.300000 0.000000
-0.497637 0.700930 0.212737 0.600000 0.000000 0.300000
0.332717 -0.118257 0.520171 0.600000 0.300000 0.000000
-0.139149 0.700930 -0.408226 0.600000 0.000000 0.300000
-0.374544 -0.750918 -0.143969 0.300000 0.000000 0.600000
-0.188076 0.130813 -0.516864 0.600000 0.300000 0.000000
-0.505223 0.183499 0.128897 0.600000 0.300000 0.000000
0.454912 0.700930 0.439258 0.600000 0.000000 0.300000
0.449784 -0.302411 0.520171 0.600000 0.300000 0.000000
-0.505223 0.267995 -0.447623 0.600000 0.300000 0.000000
-0.505223 -0.019297 -0.184561 0.600000 0.300000 0.000000
-0.032595 0.382945 -0.516864 0.600000 0.300000 0.000000
0.226679 -0.520512 0.520171 0.600000 0.300000 0.000000
0.164565 0.327236 0.520171 0.600000 0.300000 0.000000
0.417607 -0.750918 -0.503882 0.300000 0.000000 0.600000
0.117371 -0.018573 0.520171 0.600000 0.300000 0.000000
-0.505223 -0.492975 -0.079879 0.600000 0.300000 0.000000
-0.417398 -0.435053 -0.516864 0.600000 0.300000 0.000000
0.500700 0.656383 0.138431 0.600000 0.000000 0.300000
-0.355005 0.232184 0.520171 0.600000 0.300000 0.000000
-0.505223 -0.093735 -0.462925 0.600000 0.300000 0.000000
-0.061361 -0.457362 0.520171 0.600000 0.300000 0.000000
0.225913 -0.234841 -0.516864 0.600000 0.300000 0.000000
-0.298245 -0.382327 -0.516864 0.600000 0.300000 0.000000
0.497925 0.452042 -0.173273 0.600000 0.000000 0.300000
0.407209 0.700930 -0.367279 0.600000 0.000000 0.300000
-0.243078 -0.332691 0.520171 0.600000 0.300000 0.000000
-0.525964 0.475524 -0.209021 0.600000 0.000000 0.300000
-0.000859 -0.750918 0.428815 0.300000 0.000000 0.600000
0.479959 -0.239848 0.386347 0.600000 0.300000 0.000000
-0.017024 0.462687 -0.516864 0.600000 0.300000 0.000000
-0.277951 0.700930 -0.296569 0.600000 0.000000 0.300000
0.248923 -0.681270 -0.516864 0.600000 0.300000 0.000000
-0.461065 -0.750918 -0.170337 0.300000 0.000000 0.600000
-0.505223 0.023449 0.360312 0.600000 0.300000 0.000000
0.220351 -0.750918 0.154199 0.300000 0.000000 0.600000
-0.461149 -0.745571 -0.035045 0.300000 0.000000 0.600000
-0.369317 0.350881 -0.516864 0.600000 0.300000 0.000000
0.181428 -0.576570 0.520171 0.600000 0.300000 0.000000
0.257918 0.448822 -0.516864 0.600000 0.300000 0.000000
0.075794 -0.750918 0.166634 0.300000 0.000000 0.600000
-0.525964 0.548104 0.502656 0.600000 0.000000 0.300000
0.479959 0.183164 0.463255 0.600000 0.300000 0.000000
0.099406 0.265606 0.520171 0.600000 0.300000 0.000000
-0.136118 -0.166115 0.520171 0.600000 0.300000 0.000000
0.282821 -0.750918 -0.081399 0.300000 0.000000 0.600000
0.301597 0.569421 -0.516864 0.600000 0.300000 0.000000
-0.232294 0.581288 0.548689 0.000000 1.000000 0.000000
0.479959 -0.083830 -0.184052 0.600000 0.300000 0.000000
-0.505223 -0.507797 0.158485 0.600000 0.300000 0.000000
-0.505223 0.241296 0.061177 0.600000 0.300000 0.000000
0.479959 -0.241032 -0.163975 0.600000 0.300000 0.000000
-0.303148 0.700930 0.312502 0.600000 0.000000 0.300000
-0.505223 0.328867 -0.137417 0.600000 0.300000 0.000000
-0.505223 0.074707 -0.477508 0.600000 0.300000 0.000000
0.479959 -0.532180 -0.015894 0.600000 0.300000 0.000000
-0.464547 -0.626474 0.480596 0.600000 0.300000 0.000000
0.479959 -0.325780 -0.218861 0.600000 0.300000 0.000000
0.334574 0.700930 0.270128 0.600000 0.000000 0.300000
-0.151831 0.700930 0.074403 0.600000 0.000000 0.300000
0.353614 -0.021495 0.520171 0.600000 0.300000 0.000000
0.236750 -0.038991 -0.516864 0.600000 0.300000 0.000000
-0.505223 0.294631 0.022875 0.600000 0.300000 0.000000
-0.505223 0.228931 -0.011945 0.600000 0.300000 0.000000
0.460061 -0.626474 -0.372782 0.600000 0.300000 0.000000
0.104213 -0.750918 -0.384250 0.300000 0.000000 0.600000
-0.276833 -0.750918 -0.499611 0.300000 0.000000 0.600000
0.397452 -0.543147 0.520171 0.600000 0.300000 0.000000
0.479959 0.387013 -0.425793 0.600000 0.300000 0.000000
0.479959 -0.058698 0.349034 0.600000 0.300000 0.000000
-0.217603 -0.750918 0.426120 0.300000 0.000000 0.600000
0.466088 -0.250775 -0.516864 0.600000 0.300000 0.000000
0.479959 -0.063182 0.255853 0.600000 0.300000 0.000000
0.500700 0.572476 0.354145 0.600000 0.000000 0.300000
-0.505223 -0.402527 0.197842 0.600000 0.300000 0.000000
-0.505223 -0.074390 0.113921 0.600000 0.300000 0.000000
0.479959 -0.122943 0.303396 0.600000 0.300000 0.000000
0.479959 -0.524186 0.323665 0.600000 0.300000 0.000000
-0.082597 -0.514480 0.520171 0.600000 0.300000 0.000000
-0.343989 0.190496 -0.516864 0.600000 0.300000 0.000000
-0.311825 -0.701193 -0.516864 0.600000 0.300000 0.000000
0.420599 -0.110866 0.520171 0.600000 0.300000 0.000000
-0.127590 0.452042 0.523493 0.600000 0.000000 0.300000
0.500700 0.481531 0.224340 0.600000 0.000000 0.300000
-0.445212 -0.304279 0.520171 0.600000 0.300000 0.000000
0.479959 0.122262 0.443289 0.600000 0.300000 0.000000
0.083960 0.700930 0.496102 0.600000 0.000000 0.300000
-0.241232 0.700930 0.227765 0.600000 0.000000 0.300000
0.374111 0.696708 0.538892 0.600000 0.000000 0.300000
0.442695 -0.626474 -0.295084 0.600000 0.300000 0.000000
0.357191 0.630402 0.507558 0.800000 0.200000 0.500000
-0.053857 -0.195663 0.520171 0.600000 0.300000 0.000000
0.111010 -0.750918 0.108330 0.300000 0.000000 0.600000
0.021634 0.358852 0.520171 0.600000 0.300000 0.000000
-0.505223 0.389704 0.410611 0.600000 0.300000 0.000000
0.112980 -0.750918 0.255295 0.300000 0.000000 0.600000
-0.069069 -0.282800 -0.516864 0.600000 0.300000 0.000000
-0.185224 -0.642582 0.442393 0.300000 0.000000 0.600000
0.383331 -0.678174 0.442393 0.300000 0.000000 0.600000
0.072022 -0.750918 -0.241842 0.300000 0.000000 0.600000
0.479959 0.312738 -0.489459 0.600000 0.300000 0.000000
0.415198 0.428337 -0.516864 0.600000 0.300000 0.000000
-0.408795 -0.750918 -0.121291 0.300000 0.000000 0.600000
-0.254425 0.047655 0.520171 0.600000 0.300000 0.000000
0.088692 0.347249 -0.516864 0.600000 0.300000 0.000000
0.450953 -0.626474 -0.201789 0.600000 0.300000 0.000000
0.479959 0.125309 0.030954 0.600000 0.300000 0.000000
0.158479 0.507980 0.548689 0.000000 1.000000 0.000000
-0.525964 0.520008 -0.050642 0.600000 0.000000 0.300000
-0.505223 0.154260 -0.237600 0.600000 0.300000 0.000000
0.269537 0.637994 0.455356 0.800000 0.200000 0.500000
0.331994 0.415884 0.520171 0.600000 0.300000 0.000000
-0.525964 0.481227 -0.142926 0.600000 0.000000 0.300000
-0.262502 0.543358 0.548689 0.000000 1.000000 0.000000
-0.505223 -0.483436 0.064948 0.600000 0.300000 0.000000
0.111015 -0.068505 -0.516864 0.600000 0.300000 0.000000
-0.021854 0.605440 0.455567 0.800000 0.200000 0.500000
0.459789 0.337099 0.520163 0.600000 0.300000 0.000000
0.487864 0.700930 -0.032164 0.600000 0.000000 0.300000
-0.505223 0.131379 -0.140551 0.600000 0.300000 0.000000
-0.429953 0.670270 0.528380 0.800000 0.200000 0.500000
0.479959 -0.492038 0.006351 0.600000 0.300000 0.000000
-0.505223 0.135068 0.269677 0.600000 0.300000 0.000000
0.479959 0.423097 -0.268603 0.600000 0.300000 0.000000
0.500700 0.668185 0.266140 0.600000 0.000000 0.300000
0.162800 0.377595 -0.516864 0.600000 0.300000 0.000000
0.211917 -0.750918 -0.261981 0.300000 0.000000 0.600000
0.102454 0.575842 0.548689 0.000000 1.000000 0.000000
0.039522 -0.750918 -0.322371 0.300000 0.000000 0.600000
-0.505223 -0.316927 0.112040 0.600000 0.300000 0.000000
-0.427786 -0.494784 -0.516864 0.600000 0.300000 0.000000
-0.403096 -0.750918 -0.353739 0.300000 0.000000 0.600000
0.479959 0.205855 0.322812 0.600000 0.300000 0.000000
-0.221268 -0.678330 0.442393 0.300000 0.000000 0.600000
0.479959 0.252897 -0.138922 0.600000 0.300000 0.000000
-0.185766 0.700930 0.433810 0.600000 0.000000 0.300000
-0.383274 0.600066 -0.516864 0.600000 0.300000 0.000000
0.271637 0.700930 0.111414 0.600000 0.000000 0.300000
-0.525964 0.621588 0.076344 0.600000 0.000000 0.300000
-0.127714 0.354632 -0.516864 0.600000 0.300000 0.000000
-0.376503 -0.052821 -0.516864 0.600000 0.300000 0.000000
-0.505223 0.364559 0.288393 0.600000 0.300000 0.000000
0.381076 0.670270 0.455475 0.800000 0.200000 0.500000
0.479959 -0.420784 0.491956 0.600000 0.300000 0.000000
-0.461149 -0.661327 -0.129209 0.300000 0.000000 0.600000
-0.020553 -0.496858 -0.516864 0.600000 0.300000 0.000000
-0.505223 -0.141514 -0.120483 0.600000 0.300000 0.000000
0.319731 -0.750918 -0.342848 0.300000 0.000000 0.600000
-0.467035 -0.626474 -0.290207 0.600000 0.300000 0.000000
0.133391 0.411369 0.520171 0.600000 0.300000 0.000000
-0.374813 0.147766 -0.516864 0.600000 0.300000 0.000000
0.335165 -0.594892 0.520171 0.600000 0.300000 0.000000
-0.505223 0.172868 0.296564 0.600000 0.300000 0.000000
0.031648 0.700930 -0.366553 0.600000 0.000000 0.300000
0.479959 -0.443888 0.405255 0.600000 0.300000 0.000000
-0.505223 -0.531895 -0.303299 0.600000 0.300000 0.000000
-0.291868 0.394145 -0.516864 0.600000 0.300000 0.000000
-0.505223 -0.147295 0.459190 0.600000 0.300000 0.000000
0.414217 -0.723201 0.442393 0.300000 0.000000 0.600000
0.479959 -0.597416 -0.353898 0.600000 0.300000 0.000000
-0.171460 0.700930 0.236314 0.600000 0.000000 0.300000
0.479959 0.389425 -0.116262 0.600000 0.300000 0.000000
-0.353084 -0.227693 -0.516864 0.600000 0.300000 0.000000
-0.012740 -0.245270 -0.516864 0.600000 0.300000 0.000000
-0.476134 0.149988 0.520171 0.600000 0.300000 0.000000
0.248984 0.700930 0.195395 0.600000 0.000000 0.300000
-0.349039 0.665373 -0.516864 0.600000 0.300000 0.000000
0.129002 -0.107144 -0.516864 0.600000 0.300000 0.000000
-0.190275 -0.750918 -0.021166 0.300000 0.000000 0.600000
0.479959 0.288437 0.438529 0.600000 0.300000 0.000000
0.212638 0.027072 -0.516864 0.600000 0.300000 0.000000
-0.248230 0.670270 0.527144 0.800000 0.200000 0.500000
0.479959 -0.521349 -0.208361 0.600000 0.300000 0.000000
0.479959 -0.228734 0.264922 0.600000 0.300000 0.000000
0.479959 0.119840 0.309041 0.600000 0.300000 0.000000
0.429098 0.700930 -0.158639 0.600000 0.000000 0.300000
0.219639 0.391268 0.520171 0.600000 0.300000 0.000000
-0.505223 0.018317 -0.014460 0.600000 0.300000 0.000000
0.500700 0.483683 0.339130 0.600000 0.000000 0.300000
-0.117892 -0.750918 0.411810 0.300000 0.000000 0.600000
0.479959 0.068553 0.102539 0.600000 0.300000 0.000000
0.254450 0.247459 -0.516864 0.600000 0.300000 0.000000
0.088408 -0.692077 0.442393 0.300000 0.000000 0.600000
-0.358911 0.700930 -0.074768 0.600000 0.000000 0.300000
0.420330 -0.650087 0.282740 0.300000 0.000000 0.600000
0.479959 -0.179248 -0.211546 0.600000 0.300000 0.000000
-0.444775 0.700930 0.296377 0.600000 0.000000 0.300000
-0.400002 -0.016818 0.520171 0.600000 0.300000 0.000000
-0.525964 0.516666 0.346317 0.600000 0.000000 0.300000
-0.505223 -0.551722 -0.434130 0.600000 0.300000 0.000000
0.479959 -0.062707 -0.048134 0.600000 0.300000 0.000000
0.243099 0.381743 -0.516864 0.600000 0.300000 0.000000
-0.150164 -0.386025 -0.516864 0.600000 0.300000 0.000000
-0.461149 -0.735246 0.261169 0.300000 0.000000 0.600000
0.479959 -0.258993 0.192321 0.600000 0.300000 0.000000
0.298772 0.569420 0.548689 0.000000 1.000000 0.000000
-0.170374 -0.626474 0.518204 0.600000 0.300000 0.000000
-0.111926 -0.750918 0.325259 0.300000 0.000000 0.600000
0.063098 0.205684 0.520171 0.600000 0.300000 0.000000
-0.426879 -0.750918 -0.446056 0.300000 0.000000 0.600000
-0.298439 0.002076 -0.516864 0.600000 0.300000 0.000000
-0.057300 -0.313260 0.520171 0.600000 0.300000 0.000000
0.005379 0.561785 0.548689 0.000000 1.000000 0.000000
-0.109998 -0.750918 0.217897 0.300000 0.000000 0.600000
0.022579 -0.620704 0.520171 0.600000 0.300000 0.000000
-0.125239 -0.209084 0.520171 0.600000 0.300000 0.000000
0.102893 0.316117 0.520171 0.600000 0.300000 0.000000
-0.409115 0.700930 0.360075 0.600000 0.000000 0.300000
-0.525964 0.488681 0.267307 0.600000 0.000000 0.300000
-0.505223 0.424847 -0.148854 0.600000 0.300000 0.000000
0.479959 -0.387856 0.193496 0.600000 0.300000 0.000000
0.344558 -0.422278 0.520171 0.600000 0.300000 0.000000
0.261780 -0.750918 0.096924 0.300000 0.000000 0.600000
-0.382494 -0.750918 -0.395611 0.300000 0.000000 0.600000
-0.418798 -0.303888 -0.516864 0.600000 0.300000 0.000000
0.256312 0.700930 -0.481827 0.600000 0.000000 0.300000
0.057381 -0.750918 -0.456359 0.300000 0.000000 0.600000
-0.192792 0.463972 -0.516864 0.600000 0.300000 0.000000
0.230051 -0.750918 -0.382503 0.300000 0.000000 0.600000
-0.505194 0.452042 0.502155 1.000000 0.000000 0.000000
0.479959 0.005936 0.248999 0.600000 0.300000 0.000000
-0.505223 -0.329422 -0.223912 0.600000 0.300000 0.000000
-0.525964 0.637604 -0.000324 0.600000 0.000000 0.300000
