0.153952 -0.317894 0.499237 0.300000 0.000000 0.600000
0.053445 -0.762452 -0.207684 0.300000 0.000000 0.600000
-0.248527 0.645823 0.499237 0.300000 0.000000 0.600000
-0.007325 -0.393569 -0.569438 0.300000 0.000000 0.600000
0.515144 0.722952 -0.495143 0.300000 0.000000 0.600000
-0.259983 -0.079040 0.499237 0.300000 0.000000 0.600000
-0.344932 -0.418901 0.391917 0.300000 0.000000 0.600000
0.418361 -0.269051 0.499237 0.300000 0.000000 0.600000
-0.442392 -0.275393 0.499237 0.300000 0.000000 0.600000
0.309277 -0.150518 0.391917 0.300000 0.000000 0.600000
0.523902 0.598809 -0.441306 0.300000 0.000000 0.600000
0.218326 0.687076 -0.463926 0.300000 0.000000 0.600000
0.234936 -0.311475 0.391917 0.300000 0.000000 0.600000
0.089598 -0.507493 0.499237 0.300000 0.000000 0.600000
-0.430933 -0.353349 -0.539455 0.300000 0.000000 0.600000
-0.152774 -0.762452 0.032151 0.300000 0.000000 0.600000
0.391842 -0.762452 0.088830 0.300000 0.000000 0.600000
0.278419 -0.565218 -0.018347 0.300000 0.000000 0.600000
-0.548578 -0.055765 0.033001 0.300000 0.000000 0.600000
-0.522022 -0.757670 -0.352557 0.300000 0.000000 0.600000
0.466343 -0.557721 -0.067218 0.300000 0.000000 0.600000
0.303263 0.318745 0.391917 0.300000 0.000000 0.600000
0.229680 -0.565218 -0.396830 0.300000 0.000000 0.600000
0.252732 -0.762452 -0.046146 0.300000 0.000000 0.600000
0.522938 -0.073786 0.173118 0.300000 0.000000 0.600000
-0.548578 -0.569428 -0.477953 0.300000 0.000000 0.600000
0.436948 -0.564308 0.301266 0.300000 0.000000 0.600000
-0.310538 0.307209 0.499237 0.300000 0.000000 0.600000
-0.463922 -0.792062 0.254530 0.000000 1.000000 0.000000
-0.277045 -0.762452 0.097331 0.300000 0.000000 0.600000
0.059174 -0.729440 0.335721 0.300000 0.000000 0.600000
-0.528373 0.284755 -0.561494 0.300000 0.000000 0.600000
-0.539162 0.708236 0.496761 0.300000 0.000000 0.600000
0.493955 -0.285121 -0.297110 0.300000 0.000000 0.600000
0.236249 0.399330 -0.569438 0.300000 0.000000 0.600000
0.523676 -0.155041 0.339577 0.300000 0.000000 0.600000
0.493955 0.166773 -0.174421 0.300000 0.000000 0.600000
0.067808 0.205903 0.391917 0.300000 0.000000 0.600000
-0.286668 -0.762452 -0.143637 0.300000 0.000000 0.600000
0.145995 -0.207064 -0.569438 0.300000 0.000000 0.600000
0.523503 0.268069 0.351445 0.300000 0.000000 0.600000
0.272440 -0.514538 0.499237 0.300000 0.000000 0.600000
-0.548461 -0.690131 -0.512993 0.300000 0.000000 0.600000
-0.325096 0.472255 0.391917 0.300000 0.000000 0.600000
0.516131 -0.734481 -0.544922 0.300000 0.000000 0.600000
-0.547078 -0.367134 0.343017 0.300000 0.000000 0.600000
0.304211 0.619818 0.492305 0.300000 0.000000 0.600000
0.493955 0.424279 0.075021 0.300000 0.000000 0.600000
0.523937 -0.086479 -0.344964 0.300000 0.000000 0.600000
-0.397761 -0.762452 0.016184 0.300000 0.000000 0.600000
-0.243908 -0.590056 0.386674 0.300000 0.000000 0.600000
0.124123 0.344692 0.499237 0.300000 0.000000 0.600000
0.307699 -0.734429 -0.565325 0.300000 0.000000 0.600000
0.493955 -0.372872 -0.198329 0.300000 0.000000 0.600000
0.510206 -0.517695 -0.538391 0.300000 0.000000 0.600000
0.457170 0.478281 0.391917 0.300000 0.000000 0.600000
0.464649 0.511636 -0.566621 0.300000 0.000000 0.600000
-0.518596 -0.265443 -0.061364 0.300000 0.000000 0.600000
-0.346447 -0.538994 -0.569438 0.300000 0.000000 0.600000
0.085456 0.439638 0.391917 0.300000 0.000000 0.600000
0.522938 0.078075 0.012006 0.300000 0.000000 0.600000
0.523937 -0.651462 -0.461881 0.300000 0.000000 0.600000
-0.460863 -0.560120 0.391917 0.300000 0.000000 0.600000
-0.548578 0.317678 0.008186 0.300000 0.000000 0.600000
-0.415317 0.112152 0.479724 0.300000 0.000000 0.600000
-0.369559 -0.028289 0.479724 0.300000 0.000000 0.600000
0.523937 -0.428016 -0.424460 0.300000 0.000000 0.600000
0.245877 -0.778708 0.321267 0.300000 0.000000 0.600000
0.522212 0.346426 -0.503526 0.300000 0.000000 0.600000
-0.548578 0.543887 0.156263 0.300000 0.000000 0.600000
-0.296975 0.123452 0.391917 0.300000 0.000000 0.600000
-0.292222 -0.565218 -0.050303 0.300000 0.000000 0.600000
-0.354345 -0.565218 0.233371 0.300000 0.000000 0.600000
-0.278696 0.274752 -0.569438 0.300000 0.000000 0.600000
-0.149060 -0.148801 0.499237 0.300000 0.000000 0.600000
0.058201 0.555274 0.499237 0.300000 0.000000 0.600000
0.302433 0.173568 0.499237 0.300000 0.000000 0.600000
0.516539 0.062090 0.380336 0.300000 0.000000 0.600000
-0.031956 -0.018008 0.499237 0.300000 0.000000 0.600000
-0.134400 -0.565214 -0.479583 0.300000 0.000000 0.600000
0.267012 0.467828 0.391917 0.300000 0.000000 0.600000
-0.518683 -0.503259 -0.018993 0.300000 0.000000 0.600000
0.426282 -0.135607 0.391917 0.300000 0.000000 0.600000
-0.518596 0.157279 0.013296 0.300000 0.000000 0.600000
0.487711 0.655727 -0.257583 0.300000 0.000000 0.600000
0.228296 -0.762452 0.180481 0.300000 0.000000 0.600000
0.196314 0.687062 -0.064890 0.300000 0.000000 0.600000
-0.035785 -0.508951 0.499237 0.300000 0.000000 0.600000
0.522938 0.058897 0.189017 0.300000 0.000000 0.600000
0.493955 -0.183506 -0.250483 0.300000 0.000000 0.600000
-0.548578 -0.116931 -0.285267 0.300000 0.000000 0.600000
-0.243871 -0.762452 0.213833 0.300000 0.000000 0.600000
0.188825 -0.307880 -0.539455 0.300000 0.000000 0.600000
-0.539162 0.446148 0.470932 0.300000 0.000000 0.600000
-0.227142 -0.368102 0.479724 0.300000 0.000000 0.600000
0.219734 0.607594 0.391917 0.300000 0.000000 0.600000
-0.201487 0.126665 0.499237 0.300000 0.000000 0.600000
0.020939 -0.566219 0.192629 0.300000 0.000000 0.600000
-0.430511 0.614744 -0.539489 0.300000 0.000000 0.600000
-0.505324 0.739049 0.097741 0.300000 0.000000 0.600000
0.050814 -0.282354 0.479724 0.300000 0.000000 0.600000
0.426697 0.721567 -0.561492 0.300000 0.000000 0.600000
0.337158 0.040384 0.499237 0.300000 0.000000 0.600000
-0.416420 0.391128 0.479724 0.300000 0.000000 0.600000
0.307351 0.687062 0.256366 0.300000 0.000000 0.600000
-0.539162 -0.495567 0.478526 0.300000 0.000000 0.600000
0.423032 0.314373 0.391917 0.300000 0.000000 0.600000
-0.414823 -0.565218 -0.204540 0.300000 0.000000 0.600000
-0.539162 0.227794 0.483370 0.300000 0.000000 0.600000
-0.492796 -0.094983 0.581098 0.600000 0.000000 0.300000
-0.502146 0.084046 -0.569116 0.300000 0.000000 0.600000
0.462080 0.637707 0.391917 0.300000 0.000000 0.600000
0.523786 -0.050911 -0.110420 0.300000 0.000000 0.600000
-0.221308 0.689171 -0.569230 0.300000 0.000000 0.600000
-0.127122 0.739104 -0.238580 0.300000 0.000000 0.600000
0.523307 -0.708993 -0.256545 0.300000 0.000000 0.600000
-0.461274 -0.564135 0.122932 0.300000 0.000000 0.600000
0.523541 0.349809 -0.093659 0.300000 0.000000 0.600000
0.162416 0.738341 0.163158 0.300000 0.000000 0.600000
-0.548578 0.074338 -0.245061 0.300000 0.000000 0.600000
0.391352 -0.565218 -0.188021 0.300000 0.000000 0.600000
-0.376535 0.687077 -0.466252 0.300000 0.000000 0.600000
0.491131 0.737670 0.462593 0.300000 0.000000 0.600000
-0.087115 -0.671968 -0.569438 0.300000 0.000000 0.600000
0.509348 -0.311749 0.421186 0.300000 0.000000 0.600000
0.045004 0.106946 0.499237 0.300000 0.000000 0.600000
0.493955 0.394503 0.216570 0.300000 0.000000 0.600000
0.140886 -0.612231 0.386118 0.300000 0.000000 0.600000
0.427817 0.372892 0.499237 0.300000 0.000000 0.600000
0.149351 0.453630 0.499237 0.300000 0.000000 0.600000
-0.143789 -0.497429 0.479724 0.300000 0.000000 0.600000
-0.017614 -0.762452 -0.126013 0.300000 0.000000 0.600000
0.046125 -0.012136 0.391917 0.300000 0.000000 0.600000
-0.436262 -0.565221 0.017901 0.300000 0.000000 0.600000
-0.247079 -0.251418 0.391917 0.300000 0.000000 0.600000
-0.548578 -0.471519 0.312533 0.300000 0.000000 0.600000
-0.226810 0.419428 0.391917 0.300000 0.000000 0.600000
0.522938 0.261447 0.233603 0.300000 0.000000 0.600000
-0.278020 0.527656 0.499237 0.300000 0.000000 0.600000
-0.087782 0.622386 0.499237 0.300000 0.000000 0.600000
0.232197 -0.762452 -0.302227 0.300000 0.000000 0.600000
0.515324 0.721825 0.248769 0.300000 0.000000 0.600000
0.523937 -0.352396 -0.085616 0.300000 0.000000 0.600000
-0.372903 0.713325 0.391917 0.300000 0.000000 0.600000
0.466771 -0.623417 0.400111 0.300000 0.000000 0.600000
0.259460 0.100925 0.391917 0.300000 0.000000 0.600000
0.492485 -0.792062 -0.457603 0.000000 0.000000 1.000000
-0.270758 0.687071 -0.452602 0.300000 0.000000 0.600000
0.523180 0.059757 -0.218288 0.300000 0.000000 0.600000
0.210746 -0.191213 0.391917 0.300000 0.000000 0.600000
0.291076 0.388491 0.499237 0.300000 0.000000 0.600000
0.165739 0.277257 0.421186 0.300000 0.000000 0.600000
-0.124716 -0.565218 0.295162 0.300000 0.000000 0.600000
-0.113439 0.382381 -0.539455 0.300000 0.000000 0.600000
0.400871 0.687066 -0.343803 0.300000 0.000000 0.600000
0.366776 -0.406161 0.479724 0.300000 0.000000 0.600000
-0.425747 -0.605298 0.481984 0.300000 0.000000 0.600000
-0.545899 -0.104257 -0.539082 0.300000 0.000000 0.600000
0.523423 -0.445806 0.316345 0.300000 0.000000 0.600000
0.493955 -0.440674 -0.016517 0.300000 0.000000 0.600000
0.278729 0.700679 0.421186 0.300000 0.000000 0.600000
-0.548578 0.188838 0.191149 0.300000 0.000000 0.600000
-0.539162 0.340307 0.480593 0.300000 0.000000 0.600000
0.180090 -0.512823 -0.569438 0.300000 0.000000 0.600000
0.422137 0.158641 0.499237 0.300000 0.000000 0.600000
0.162620 0.687062 -0.356087 0.300000 0.000000 0.600000
0.031585 0.687062 -0.397380 0.300000 0.000000 0.600000
0.493955 0.191203 0.024031 0.300000 0.000000 0.600000
0.403301 0.687067 -0.137371 0.300000 0.000000 0.600000
0.434284 0.348911 -0.569438 0.300000 0.000000 0.600000
0.098676 -0.579360 -0.569438 0.300000 0.000000 0.600000
0.032121 -0.513986 0.391917 0.300000 0.000000 0.600000
0.319679 -0.566020 0.321413 0.300000 0.000000 0.600000
-0.434310 -0.342307 0.391917 0.300000 0.000000 0.600000
-0.183315 -0.776478 0.304574 0.300000 0.000000 0.600000
0.358140 -0.157688 -0.539455 0.300000 0.000000 0.600000
0.412936 0.203505 0.391917 0.300000 0.000000 0.600000
-0.241885 -0.540814 -0.569438 0.300000 0.000000 0.600000
-0.381224 -0.659741 -0.569438 0.300000 0.000000 0.600000
-0.548578 -0.175992 0.217522 0.300000 0.000000 0.600000
-0.144531 -0.067324 0.391917 0.300000 0.000000 0.600000
-0.548303 -0.228657 -0.529223 0.300000 0.000000 0.600000
-0.081118 -0.762452 0.228245 0.300000 0.000000 0.600000
0.204247 -0.742241 -0.561387 0.300000 0.000000 0.600000
0.320433 -0.355674 -0.569438 0.300000 0.000000 0.600000
0.523937 -0.165817 -0.145021 0.300000 0.000000 0.600000
-0.037794 0.035330 -0.569438 0.300000 0.000000 0.600000
0.018738 0.347179 -0.539455 0.300000 0.000000 0.600000
-0.548460 0.687800 -0.403629 0.300000 0.000000 0.600000
0.116909 0.642098 0.499237 0.300000 0.000000 0.600000
-0.438812 0.606381 0.490444 0.300000 0.000000 0.600000
-0.101482 -0.565218 -0.025479 0.300000 0.000000 0.600000
0.414170 0.602274 0.492126 0.300000 0.000000 0.600000
-0.538628 -0.755570 0.316123 0.300000 0.000000 0.600000
0.360912 -0.762452 -0.140100 0.300000 0.000000 0.600000
-0.548578 -0.064366 -0.083916 0.300000 0.000000 0.600000
-0.191704 0.687062 -0.165178 0.300000 0.000000 0.600000
0.145893 -0.762452 -0.154312 0.300000 0.000000 0.600000
-0.131399 -0.762452 -0.417409 0.300000 0.000000 0.600000
-0.012912 0.392865 0.421186 0.300000 0.000000 0.600000
-0.518596 0.192528 -0.427423 0.300000 0.000000 0.600000
-0.302582 -0.679327 0.335551 0.300000 0.000000 0.600000
0.388875 -0.480150 0.391917 0.300000 0.000000 0.600000
-0.017302 0.739095 -0.084188 0.300000 0.000000 0.600000
-0.233371 -0.565905 -0.356176 0.300000 0.000000 0.600000
-0.500564 0.259676 0.582826 0.600000 0.000000 0.300000
-0.044837 0.720169 0.443378 0.300000 0.000000 0.600000
-0.441295 -0.173232 0.391917 0.300000 0.000000 0.600000
0.385200 0.739340 0.121996 0.300000 0.000000 0.600000
0.502740 -0.754631 -0.131046 0.300000 0.000000 0.600000
0.033221 0.739128 -0.306167 0.300000 0.000000 0.600000
0.176537 -0.097008 0.499237 0.300000 0.000000 0.600000
0.517345 -0.738727 0.017020 0.300000 0.000000 0.600000
-0.013824 -0.210697 0.391917 0.300000 0.000000 0.600000
-0.435920 -0.392704 0.479724 0.300000 0.000000 0.600000
0.238416 0.496010 -0.539455 0.300000 0.000000 0.600000
-0.128570 0.687062 -0.403220 0.300000 0.000000 0.600000
-0.406199 0.302726 0.391917 0.300000 0.000000 0.600000
-0.471095 0.111012 0.391917 0.300000 0.000000 0.600000
0.026976 0.626530 0.391917 0.300000 0.000000 0.600000
0.118182 0.687062 0.008001 0.300000 0.000000 0.600000
0.383470 -0.656996 -0.569438 0.300000 0.000000 0.600000
0.360726 -0.163799 0.479724 0.300000 0.000000 0.600000
-0.219489 0.319862 0.421186 0.300000 0.000000 0.600000
-0.447431 0.197372 -0.569438 0.300000 0.000000 0.600000
-0.548578 -0.025649 0.220662 0.300000 0.000000 0.600000
0.522938 0.603766 0.095342 0.300000 0.000000 0.600000
-0.548578 -0.461482 -0.313476 0.300000 0.000000 0.600000
-0.085656 0.189856 0.499237 0.300000 0.000000 0.600000
-0.222855 0.738341 -0.378193 0.300000 0.000000 0.600000
-0.186337 0.566746 0.488196 0.300000 0.000000 0.600000
0.493955 0.369688 -0.404931 0.300000 0.000000 0.600000
-0.496437 -0.762219 -0.153235 0.300000 0.000000 0.600000
0.233932 -0.006990 0.391917 0.300000 0.000000 0.600000
-0.137144 -0.417711 0.391917 0.300000 0.000000 0.600000
0.337499 0.028146 -0.569438 0.300000 0.000000 0.600000
-0.329758 -0.208862 0.499237 0.300000 0.000000 0.600000
0.493955 0.485837 -0.392260 0.300000 0.000000 0.600000
0.523937 -0.634695 -0.322950 0.300000 0.000000 0.600000
0.523937 -0.467742 -0.238417 0.300000 0.000000 0.600000
0.117298 0.288323 -0.569438 0.300000 0.000000 0.600000
-0.053933 -0.762452 0.091016 0.300000 0.000000 0.600000
0.521912 -0.199922 -0.507641 0.300000 0.000000 0.600000
-0.548578 -0.637960 0.143808 0.300000 0.000000 0.600000
-0.209421 -0.565219 -0.253142 0.300000 0.000000 0.600000
0.416384 0.021513 0.421186 0.300000 0.000000 0.600000
-0.548578 0.366624 0.179157 0.300000 0.000000 0.600000
0.178013 0.643175 -0.569438 0.300000 0.000000 0.600000
-0.182239 0.659492 0.421186 0.300000 0.000000 0.600000
0.523401 0.526045 -0.079609 0.300000 0.000000 0.600000
0.301713 0.308721 -0.569438 0.300000 0.000000 0.600000
0.099176 -0.151748 0.391917 0.300000 0.000000 0.600000
-0.548578 0.622371 -0.017034 0.300000 0.000000 0.600000
-0.518596 0.386617 -0.062711 0.300000 0.000000 0.600000
-0.548578 0.237978 -0.188132 0.300000 0.000000 0.600000
-0.234817 -0.544413 0.499237 0.300000 0.000000 0.600000
0.482346 -0.735752 0.335360 0.300000 0.000000 0.600000
-0.324266 0.615564 -0.569438 0.300000 0.000000 0.600000
-0.053190 -0.127899 0.499237 0.300000 0.000000 0.600000
-0.409990 0.739340 -0.086059 0.300000 0.000000 0.600000
-0.340917 0.599692 0.479724 0.300000 0.000000 0.600000
0.317050 -0.565219 -0.440867 0.300000 0.000000 0.600000
0.407209 -0.762452 -0.393237 0.300000 0.000000 0.600000
0.038452 -0.565380 -0.218785 0.300000 0.000000 0.600000
0.523829 -0.223007 -0.013782 0.300000 0.000000 0.600000
0.169580 -0.566218 0.301493 0.300000 0.000000 0.600000
-0.526952 0.733304 -0.495947 0.300000 0.000000 0.600000
-0.267060 -0.355537 0.391917 0.300000 0.000000 0.600000
0.164724 0.152385 0.421186 0.300000 0.000000 0.600000
-0.548578 -0.388562 -0.425777 0.300000 0.000000 0.600000
-0.518596 0.536391 -0.278264 0.300000 0.000000 0.600000
-0.218825 0.739340 0.202526 0.300000 0.000000 0.600000
0.391456 -0.645248 0.342948 0.300000 0.000000 0.600000
-0.208910 -0.087280 -0.539455 0.300000 0.000000 0.600000
0.304286 -0.565218 -0.242027 0.300000 0.000000 0.600000
-0.518596 -0.085663 -0.390945 0.300000 0.000000 0.600000
-0.008852 0.125654 -0.539455 0.300000 0.000000 0.600000
-0.213732 0.739340 0.302310 0.300000 0.000000 0.600000
0.440634 0.684958 0.307506 0.300000 0.000000 0.600000
-0.318416 -0.063031 0.391917 0.300000 0.000000 0.600000
0.219721 -0.146639 -0.539455 0.300000 0.000000 0.600000
-0.424949 -0.564234 -0.480920 0.300000 0.000000 0.600000
-0.304885 0.739340 -0.264137 0.300000 0.000000 0.600000
-0.014436 -0.291868 -0.569438 0.300000 0.000000 0.600000
-0.518596 -0.214445 0.331840 0.300000 0.000000 0.600000
-0.500969 -0.762155 0.152887 0.300000 0.000000 0.600000
-0.313083 -0.565218 -0.171569 0.300000 0.000000 0.600000
-0.060936 0.140078 0.391917 0.300000 0.000000 0.600000
0.169987 -0.762452 -0.392130 0.300000 0.000000 0.600000
-0.548578 -0.356700 0.149117 0.300000 0.000000 0.600000
-0.094176 0.687062 -0.035504 0.300000 0.000000 0.600000
0.074335 0.477923 -0.569438 0.300000 0.000000 0.600000
-0.182853 0.083491 -0.539455 0.300000 0.000000 0.600000
-0.548578 -0.544581 0.163966 0.300000 0.000000 0.600000
-0.548578 -0.640391 -0.243568 0.300000 0.000000 0.600000
0.514336 -0.045507 0.499237 0.300000 0.000000 0.600000
0.523126 0.665603 -0.051988 0.300000 0.000000 0.600000
0.493955 0.393303 -0.202110 0.300000 0.000000 0.600000
0.514521 -0.522560 0.484098 0.300000 0.000000 0.600000
0.331337 0.687062 -0.212236 0.300000 0.000000 0.600000
0.493955 0.246011 -0.275203 0.300000 0.000000 0.600000
0.523937 -0.544810 -0.173968 0.300000 0.000000 0.600000
0.406213 -0.605298 0.485472 0.300000 0.000000 0.600000
-0.004592 -0.426647 0.391917 0.300000 0.000000 0.600000
-0.439388 -0.762452 -0.306833 0.300000 0.000000 0.600000
-0.198071 0.314200 -0.539455 0.300000 0.000000 0.600000
-0.518596 0.560228 -0.437274 0.300000 0.000000 0.600000
0.111810 0.738526 0.319604 0.300000 0.000000 0.600000
-0.548578 -0.010520 0.122921 0.300000 0.000000 0.600000
-0.548578 0.078541 -0.149171 0.300000 0.000000 0.600000
0.476657 0.739044 -0.165550 0.300000 0.000000 0.600000
-0.105813 -0.585744 0.385125 0.300000 0.000000 0.600000
-0.477566 -0.277387 -0.569438 0.300000 0.000000 0.600000
0.523177 -0.263695 0.112440 0.300000 0.000000 0.600000
-0.133275 -0.302924 0.479724 0.300000 0.000000 0.600000
0.017634 -0.628738 -0.569438 0.300000 0.000000 0.600000
-0.050585 0.309801 0.391917 0.300000 0.000000 0.600000
0.523937 -0.337157 -0.386618 0.300000 0.000000 0.600000
-0.518596 0.351011 -0.327280 0.300000 0.000000 0.600000
-0.408331 -0.109587 -0.539455 0.300000 0.000000 0.600000
0.162065 0.739340 -0.186085 0.300000 0.000000 0.600000
-0.333861 -0.762410 0.238817 0.300000 0.000000 0.600000
-0.518596 0.233649 -0.040429 0.300000 0.000000 0.600000
-0.093774 0.439512 0.421186 0.300000 0.000000 0.600000
0.083295 0.687062 -0.166922 0.300000 0.000000 0.600000
-0.309262 -0.762452 -0.455277 0.300000 0.000000 0.600000
-0.121070 -0.222231 -0.539455 0.300000 0.000000 0.600000
0.285256 -0.506525 -0.569438 0.300000 0.000000 0.600000
0.191272 0.736461 -0.539796 0.300000 0.000000 0.600000
-0.110140 -0.568312 -0.569438 0.300000 0.000000 0.600000
0.266291 -0.605298 0.480483 0.300000 0.000000 0.600000
-0.307869 -0.450254 0.479724 0.300000 0.000000 0.600000
0.187100 -0.232853 0.479724 0.300000 0.000000 0.600000
-0.346965 -0.153846 0.391917 0.300000 0.000000 0.600000
-0.406969 0.418719 0.391917 0.300000 0.000000 0.600000
0.493955 0.496498 -0.268812 0.300000 0.000000 0.600000
-0.548578 0.366982 0.279386 0.300000 0.000000 0.600000
0.273606 0.633654 -0.569438 0.300000 0.000000 0.600000
0.016410 -0.189649 0.499237 0.300000 0.000000 0.600000
-0.261154 -0.565218 0.134282 0.300000 0.000000 0.600000
-0.518596 -0.186246 0.075702 0.300000 0.000000 0.600000
-0.539162 -0.215820 0.495820 0.300000 0.000000 0.600000
0.054016 -0.202392 -0.569438 0.300000 0.000000 0.600000
-0.336502 0.687062 -0.120941 0.300000 0.000000 0.600000
-0.076366 -0.565246 0.063033 0.300000 0.000000 0.600000
-0.095169 -0.418238 -0.539455 0.300000 0.000000 0.600000
0.191225 -0.386669 0.421186 0.300000 0.000000 0.600000
-0.548578 0.135818 0.281411 0.300000 0.000000 0.600000
0.279771 0.214015 -0.569438 0.300000 0.000000 0.600000
-0.322579 0.256568 0.421186 0.300000 0.000000 0.600000
0.522963 -0.099780 0.264493 0.300000 0.000000 0.600000
0.481212 0.246422 0.499237 0.300000 0.000000 0.600000
0.282600 0.739340 -0.016042 0.300000 0.000000 0.600000
-0.284666 0.491508 -0.539455 0.300000 0.000000 0.600000
-0.328206 0.419111 0.499237 0.300000 0.000000 0.600000
0.378808 0.175915 -0.569438 0.300000 0.000000 0.600000
-0.447662 0.014579 0.499237 0.300000 0.000000 0.600000
-0.308347 -0.535515 0.421186 0.300000 0.000000 0.600000
-0.191676 -0.399204 -0.539455 0.300000 0.000000 0.600000
0.415961 0.714594 0.408530 0.300000 0.000000 0.600000
0.430484 -0.564596 -0.355409 0.300000 0.000000 0.600000
0.522947 -0.404481 0.235078 0.300000 0.000000 0.600000
0.485169 -0.542345 0.039244 0.300000 0.000000 0.600000
0.202332 0.212415 0.479724 0.300000 0.000000 0.600000
0.522938 0.180497 0.191765 0.300000 0.000000 0.600000
-0.095469 0.298607 0.479724 0.300000 0.000000 0.600000
0.070059 -0.346217 0.391917 0.300000 0.000000 0.600000
0.043183 -0.762452 -0.058445 0.300000 0.000000 0.600000
-0.548578 -0.548520 -0.357359 0.300000 0.000000 0.600000
0.420297 -0.401042 -0.569438 0.300000 0.000000 0.600000
0.024006 0.687062 0.195387 0.300000 0.000000 0.600000
-0.124706 0.731345 -0.550921 0.300000 0.000000 0.600000
-0.369122 0.739340 0.082396 0.300000 0.000000 0.600000
-0.452899 0.739340 0.198870 0.300000 0.000000 0.600000
0.522938 0.495652 0.025627 0.300000 0.000000 0.600000
0.493955 -0.480616 -0.333847 0.300000 0.000000 0.600000
-0.314786 -0.762452 -0.333955 0.300000 0.000000 0.600000
-0.533587 -0.044516 0.399945 0.300000 0.000000 0.600000
-0.151694 0.739340 0.142126 0.300000 0.000000 0.600000
0.514521 0.557326 0.428985 0.300000 0.000000 0.600000
-0.518665 0.619263 0.195484 0.300000 0.000000 0.600000
0.392858 0.687063 -0.044844 0.300000 0.000000 0.600000
-0.548578 -0.301226 0.027504 0.300000 0.000000 0.600000
-0.533587 0.281590 0.411453 0.300000 0.000000 0.600000
0.521985 0.109939 -0.504300 0.300000 0.000000 0.600000
0.160092 0.496607 0.421186 0.300000 0.000000 0.600000
0.494213 -0.239111 0.350235 0.300000 0.000000 0.600000
0.238865 -0.562888 -0.498966 0.300000 0.000000 0.600000
0.450805 0.119962 0.421186 0.300000 0.000000 0.600000
-0.461754 0.340434 -0.539581 0.300000 0.000000 0.600000
0.523058 -0.041547 -0.011805 0.300000 0.000000 0.600000
-0.548468 -0.479841 -0.512318 0.300000 0.000000 0.600000
0.334625 -0.762452 -0.008707 0.300000 0.000000 0.600000
-0.043285 -0.340958 0.479724 0.300000 0.000000 0.600000
-0.049131 0.205535 -0.539455 0.300000 0.000000 0.600000
-0.146613 -0.565218 0.120978 0.300000 0.000000 0.600000
-0.547764 0.448762 0.339120 0.300000 0.000000 0.600000
0.121091 -0.522247 0.391917 0.300000 0.000000 0.600000
-0.496593 -0.133007 0.499237 0.600000 0.000000 0.300000
-0.012447 0.712601 -0.566491 0.300000 0.000000 0.600000
-0.539162 0.027042 0.454917 0.300000 0.000000 0.600000
-0.048818 0.687062 0.275124 0.300000 0.000000 0.600000
-0.548578 0.242185 -0.359766 0.300000 0.000000 0.600000
0.523123 0.644614 0.319580 0.300000 0.000000 0.600000
-0.548578 0.596266 -0.102176 0.300000 0.000000 0.600000
0.028783 -0.727069 -0.569035 0.300000 0.000000 0.600000
-0.493529 -0.026983 -0.569242 0.300000 0.000000 0.600000
0.129204 0.075490 0.479724 0.300000 0.000000 0.600000
0.181564 -0.006144 0.479724 0.300000 0.000000 0.600000
-0.124717 -0.118910 -0.539455 0.300000 0.000000 0.600000
-0.429303 -0.565220 -0.308212 0.300000 0.000000 0.600000
0.206866 -0.565218 -0.070138 0.300000 0.000000 0.600000
0.127825 -0.383547 -0.569438 0.300000 0.000000 0.600000
-0.281829 -0.656236 -0.569438 0.300000 0.000000 0.600000
0.523771 -0.568102 0.261700 0.300000 0.000000 0.600000
0.523172 0.068224 0.291101 0.300000 0.000000 0.600000
-0.518596 0.490055 0.070566 0.300000 0.000000 0.600000
-0.332359 0.197183 -0.569438 0.300000 0.000000 0.600000
-0.161598 -0.509786 0.391917 0.300000 0.000000 0.600000
-0.510929 0.658535 -0.190248 0.300000 0.000000 0.600000
0.453060 0.683545 0.031317 0.300000 0.000000 0.600000
-0.497367 0.739097 -0.153124 0.300000 0.000000 0.600000
0.275826 0.687062 0.065575 0.300000 0.000000 0.600000
0.449780 -0.762452 -0.316247 0.300000 0.000000 0.600000
-0.548578 -0.655877 0.016982 0.300000 0.000000 0.600000
0.324273 -0.243431 0.479724 0.300000 0.000000 0.600000
0.523270 0.474553 0.334633 0.300000 0.000000 0.600000
0.523937 0.573461 -0.239813 0.300000 0.000000 0.600000
0.507269 -0.135653 0.499237 0.300000 0.000000 0.600000
-0.548578 -0.096458 -0.195645 0.300000 0.000000 0.600000
0.216255 0.687062 0.229232 0.300000 0.000000 0.600000
0.459074 0.395375 0.421186 0.300000 0.000000 0.600000
0.079665 0.265313 0.479724 0.300000 0.000000 0.600000
-0.281630 -0.565218 0.035970 0.300000 0.000000 0.600000
-0.166301 0.376564 0.479724 0.300000 0.000000 0.600000
-0.538085 0.726569 -0.005033 0.300000 0.000000 0.600000
0.287677 0.739340 -0.462786 0.300000 0.000000 0.600000
0.233481 -0.042537 -0.569438 0.300000 0.000000 0.600000
0.053560 -0.762255 0.255577 0.300000 0.000000 0.600000
0.506900 -0.400545 0.391917 0.300000 0.000000 0.600000
0.489944 -0.311850 -0.557084 0.300000 0.000000 0.600000
-0.336568 -0.336992 -0.569438 0.300000 0.000000 0.600000
-0.288336 0.103993 -0.569438 0.300000 0.000000 0.600000
0.135092 -0.687947 0.335775 0.300000 0.000000 0.600000
-0.491835 0.644909 0.421186 0.300000 0.000000 0.600000
0.309909 -0.499843 0.421186 0.300000 0.000000 0.600000
0.147131 0.558725 0.479724 0.300000 0.000000 0.600000
0.493955 0.143388 -0.064186 0.300000 0.000000 0.600000
0.369955 0.497654 -0.569438 0.300000 0.000000 0.600000
0.441797 0.739340 -0.401180 0.300000 0.000000 0.600000
-0.262601 -0.462869 -0.539455 0.300000 0.000000 0.600000
-0.424961 0.463665 -0.539455 0.300000 0.000000 0.600000
0.176343 -0.762452 -0.236879 0.300000 0.000000 0.600000
0.049401 -0.565271 -0.418304 0.300000 0.000000 0.600000
0.195770 0.687062 0.101940 0.300000 0.000000 0.600000
0.493955 -0.278611 0.226852 0.300000 0.000000 0.600000
0.234261 0.739340 -0.121280 0.300000 0.000000 0.600000
-0.161122 0.028258 0.391917 0.300000 0.000000 0.600000
0.448165 -0.762452 0.167001 0.300000 0.000000 0.600000
-0.548508 0.683466 0.332788 0.300000 0.000000 0.600000
-0.160666 0.185787 -0.569438 0.300000 0.000000 0.600000
-0.463180 0.189244 0.499237 0.300000 0.000000 0.600000
-0.181777 0.490383 -0.539455 0.300000 0.000000 0.600000
-0.301612 0.687062 0.170419 0.300000 0.000000 0.600000
-0.548578 0.376699 -0.452892 0.300000 0.000000 0.600000
-0.013215 0.235841 0.421186 0.300000 0.000000 0.600000
0.038085 0.738341 0.276044 0.300000 0.000000 0.600000
0.275345 -0.429579 0.499237 0.300000 0.000000 0.600000
0.518079 0.716764 0.163293 0.300000 0.000000 0.600000
0.074904 -0.094746 0.479724 0.300000 0.000000 0.600000
0.376571 -0.566944 -0.569438 0.300000 0.000000 0.600000
-0.435092 -0.632717 0.353643 0.300000 0.000000 0.600000
-0.518596 -0.401856 -0.255748 0.300000 0.000000 0.600000
-0.021448 0.485481 0.479724 0.300000 0.000000 0.600000
0.401762 0.612325 -0.569438 0.300000 0.000000 0.600000
-0.088684 -0.256751 0.421186 0.300000 0.000000 0.600000
-0.372939 0.537680 0.421186 0.300000 0.000000 0.600000
-0.168165 -0.762452 -0.341129 0.300000 0.000000 0.600000
-0.459423 0.720169 0.471254 0.300000 0.000000 0.600000
-0.025139 0.687062 -0.274175 0.300000 0.000000 0.600000
-0.542888 -0.538237 0.364058 0.300000 0.000000 0.600000
0.328625 0.207607 0.391917 0.300000 0.000000 0.600000
0.356789 -0.054716 0.479724 0.300000 0.000000 0.600000
0.523888 -0.695613 -0.067228 0.300000 0.000000 0.600000
0.522938 0.050257 0.105142 0.300000 0.000000 0.600000
-0.518596 0.491443 -0.199885 0.300000 0.000000 0.600000
-0.355608 -0.336190 0.421186 0.300000 0.000000 0.600000
0.312934 -0.762452 -0.405999 0.300000 0.000000 0.600000
0.493955 -0.425560 0.153524 0.300000 0.000000 0.600000
-0.518596 0.444826 -0.001950 0.300000 0.000000 0.600000
-0.518596 0.428848 -0.367083 0.300000 0.000000 0.600000
0.038579 0.337355 0.499237 0.300000 0.000000 0.600000
-0.245115 0.739340 0.031388 0.300000 0.000000 0.600000
-0.440627 -0.762452 -0.216041 0.300000 0.000000 0.600000
-0.145953 0.053028 0.499237 0.300000 0.000000 0.600000
0.106168 -0.416502 0.479724 0.300000 0.000000 0.600000
0.429869 -0.224422 0.421186 0.300000 0.000000 0.600000
-0.253006 -0.565218 0.306957 0.300000 0.000000 0.600000
-0.462270 -0.762452 0.069801 0.300000 0.000000 0.600000
0.309247 -0.674484 0.335634 0.300000 0.000000 0.600000
0.271127 -0.081821 0.421186 0.300000 0.000000 0.600000
-0.289830 0.371013 -0.569438 0.300000 0.000000 0.600000
0.095778 0.596695 -0.539455 0.300000 0.000000 0.600000
-0.170584 -0.234033 0.421186 0.300000 0.000000 0.600000
-0.116303 -0.762452 -0.043203 0.300000 0.000000 0.600000
-0.369526 -0.177371 -0.569438 0.300000 0.000000 0.600000
0.236399 -0.599723 0.398404 0.300000 0.000000 0.600000
-0.078941 -0.603212 0.499237 0.300000 0.000000 0.600000
-0.458630 -0.250417 0.421186 0.300000 0.000000 0.600000
0.523852 -0.697707 0.220594 0.300000 0.000000 0.600000
0.235581 0.447597 0.479724 0.300000 0.000000 0.600000
-0.518884 0.544002 0.350204 0.300000 0.000000 0.600000
0.437107 -0.724216 -0.569155 0.300000 0.000000 0.600000
0.202622 -0.565218 -0.155312 0.300000 0.000000 0.600000
0.151552 0.645270 0.421186 0.300000 0.000000 0.600000
-0.516255 -0.362326 0.421186 0.300000 0.000000 0.600000
-0.315663 -0.033446 -0.539455 0.300000 0.000000 0.600000
-0.548578 -0.240655 -0.212922 0.300000 0.000000 0.600000
0.125999 0.000700 -0.539455 0.300000 0.000000 0.600000
-0.066831 -0.063168 0.421186 0.300000 0.000000 0.600000
-0.424931 -0.762452 -0.486916 0.300000 0.000000 0.600000
-0.177649 0.478163 0.479724 0.300000 0.000000 0.600000
-0.046697 0.687062 0.076369 0.300000 0.000000 0.600000
0.481378 0.668236 -0.425482 0.300000 0.000000 0.600000
-0.548558 0.678902 -0.318760 0.300000 0.000000 0.600000
0.217362 0.130643 -0.539455 0.300000 0.000000 0.600000
-0.548578 0.449266 0.151045 0.300000 0.000000 0.600000
-0.548578 0.513808 -0.352088 0.300000 0.000000 0.600000
-0.525391 -0.545083 -0.563017 0.300000 0.000000 0.600000
-0.548578 -0.269892 -0.389589 0.300000 0.000000 0.600000
-0.548578 0.156165 0.100817 0.300000 0.000000 0.600000
-0.416371 0.687064 -0.373949 0.300000 0.000000 0.600000
0.076735 0.714856 0.499237 0.300000 0.000000 0.600000
0.031986 0.188452 0.499237 0.300000 0.000000 0.600000
-0.518596 -0.003491 -0.398596 0.300000 0.000000 0.600000
-0.518596 0.259800 0.308261 0.300000 0.000000 0.600000
-0.177234 -0.565218 -0.059833 0.300000 0.000000 0.600000
-0.358820 0.687062 -0.230125 0.300000 0.000000 0.600000
0.038385 -0.762452 -0.293550 0.300000 0.000000 0.600000
0.048465 0.688093 0.341560 0.300000 0.000000 0.600000
0.347613 0.331902 0.479724 0.300000 0.000000 0.600000
0.169469 0.457469 -0.569438 0.300000 0.000000 0.600000
-0.310802 -0.565402 -0.383373 0.300000 0.000000 0.600000
0.455824 -0.236958 -0.539197 0.300000 0.000000 0.600000
-0.431456 -0.565221 0.305426 0.300000 0.000000 0.600000
-0.459411 0.683854 -0.488805 0.300000 0.000000 0.600000
0.456362 0.683170 0.120742 0.300000 0.000000 0.600000
0.522938 0.081200 -0.360834 0.300000 0.000000 0.600000
0.131065 0.738341 0.076815 0.300000 0.000000 0.600000
0.057376 -0.630544 0.358351 0.300000 0.000000 0.600000
-0.145276 -0.565234 -0.201472 0.300000 0.000000 0.600000
-0.548578 -0.556465 -0.186363 0.300000 0.000000 0.600000
-0.518596 0.050336 0.284775 0.300000 0.000000 0.600000
-0.548578 -0.623815 0.224082 0.300000 0.000000 0.600000
0.184435 -0.762452 0.031352 0.300000 0.000000 0.600000
0.089371 -0.595358 0.499237 0.300000 0.000000 0.600000
0.523937 -0.515616 -0.027881 0.300000 0.000000 0.600000
-0.438812 -0.067260 0.497435 0.300000 0.000000 0.600000
0.523413 -0.005587 -0.384298 0.300000 0.000000 0.600000
-0.274682 0.687062 0.315527 0.300000 0.000000 0.600000
-0.031237 -0.565588 0.312063 0.300000 0.000000 0.600000
-0.030206 0.566378 0.479724 0.300000 0.000000 0.600000
-0.440918 0.687075 0.083238 0.300000 0.000000 0.600000
0.436722 0.560396 0.391917 0.300000 0.000000 0.600000
0.462605 0.229545 -0.567257 0.300000 0.000000 0.600000
-0.479957 -0.562745 -0.398336 0.300000 0.000000 0.600000
-0.364042 -0.597463 0.421186 0.300000 0.000000 0.600000
-0.333193 0.098944 0.479724 0.300000 0.000000 0.600000
0.278632 0.739340 -0.256471 0.300000 0.000000 0.600000
0.061364 0.738894 -0.525155 0.300000 0.000000 0.600000
-0.548578 -0.315793 -0.245725 0.300000 0.000000 0.600000
0.409573 -0.566475 0.391917 0.300000 0.000000 0.600000
-0.229683 -0.161615 0.479724 0.300000 0.000000 0.600000
0.504912 0.040481 -0.547944 0.300000 0.000000 0.600000
0.260906 0.738630 0.341823 0.300000 0.000000 0.600000
-0.548578 0.312722 0.115255 0.300000 0.000000 0.600000
0.493955 -0.100334 0.035802 0.300000 0.000000 0.600000
0.342578 0.502161 0.391917 0.300000 0.000000 0.600000
-0.548578 -0.411635 -0.096421 0.300000 0.000000 0.600000
0.416084 0.042352 -0.539455 0.300000 0.000000 0.600000
0.523937 -0.269834 -0.090170 0.300000 0.000000 0.600000
-0.465519 0.684899 -0.064707 0.300000 0.000000 0.600000
-0.548578 -0.688421 -0.132239 0.300000 0.000000 0.600000
0.429233 -0.052433 0.391917 0.300000 0.000000 0.600000
0.197761 0.718722 0.389277 0.300000 0.000000 0.600000
0.349806 -0.343336 0.391917 0.300000 0.000000 0.600000
0.309545 -0.435899 -0.539455 0.300000 0.000000 0.600000
0.329038 -0.762452 -0.245394 0.300000 0.000000 0.600000
-0.466667 0.035444 0.421186 0.300000 0.000000 0.600000
0.044642 0.687062 -0.024370 0.300000 0.000000 0.600000
-0.361820 0.056793 -0.569438 0.300000 0.000000 0.600000
0.491751 -0.304581 0.499237 0.300000 0.000000 0.600000
-0.284561 -0.296812 0.479724 0.300000 0.000000 0.600000
-0.254859 0.239015 0.479724 0.300000 0.000000 0.600000
-0.227565 0.687062 -0.093423 0.300000 0.000000 0.600000
0.064055 0.140462 -0.569438 0.300000 0.000000 0.600000
-0.520951 0.614529 -0.565287 0.300000 0.000000 0.600000
0.522938 0.199256 -0.377643 0.300000 0.000000 0.600000
-0.003702 -0.565974 -0.006401 0.300000 0.000000 0.600000
0.494187 -0.519741 -0.454981 0.300000 0.000000 0.600000
-0.286402 0.720169 0.487291 0.300000 0.000000 0.600000
-0.152682 0.639120 -0.539675 0.300000 0.000000 0.600000
0.523792 0.434324 -0.118799 0.300000 0.000000 0.600000
-0.484891 0.188680 0.421186 0.300000 0.000000 0.600000
-0.534348 -0.299631 0.499237 0.300000 0.000000 0.600000
0.361574 0.667259 -0.527364 0.300000 0.000000 0.600000
-0.405106 -0.502806 0.391917 0.300000 0.000000 0.600000
-0.548578 0.085278 -0.469690 0.300000 0.000000 0.600000
-0.518596 0.383674 -0.199137 0.300000 0.000000 0.600000
-0.151606 -0.762452 -0.201826 0.300000 0.000000 0.600000
0.176924 -0.525802 0.499237 0.300000 0.000000 0.600000
0.153174 -0.565218 -0.373800 0.300000 0.000000 0.600000
0.310230 -0.763308 0.269909 0.300000 0.000000 0.600000
-0.161929 0.191254 0.421186 0.300000 0.000000 0.600000
-0.518596 -0.153205 -0.095104 0.300000 0.000000 0.600000
-0.029858 0.291474 -0.569438 0.300000 0.000000 0.600000
-0.518596 0.095314 -0.316881 0.300000 0.000000 0.600000
0.486523 0.738905 -0.244669 0.300000 0.000000 0.600000
-0.213525 -0.762452 -0.049622 0.300000 0.000000 0.600000
-0.274857 -0.384162 -0.539455 0.300000 0.000000 0.600000
0.301934 0.040279 0.421186 0.300000 0.000000 0.600000
-0.473640 -0.563215 -0.053165 0.300000 0.000000 0.600000
-0.119341 0.043652 -0.569438 0.300000 0.000000 0.600000
0.509595 0.391185 0.499237 0.300000 0.000000 0.600000
0.491754 0.556825 -0.500478 0.300000 0.000000 0.600000
-0.457143 0.456378 0.499237 0.300000 0.000000 0.600000
-0.189919 0.004110 -0.539455 0.300000 0.000000 0.600000
-0.548578 -0.362255 0.260961 0.300000 0.000000 0.600000
0.204835 0.687062 -0.280623 0.300000 0.000000 0.600000
-0.026928 -0.762452 -0.217177 0.300000 0.000000 0.600000
0.281338 0.567429 0.421186 0.300000 0.000000 0.600000
-0.230353 0.327090 0.499237 0.300000 0.000000 0.600000
-0.204740 0.687062 -0.012648 0.300000 0.000000 0.600000
0.493955 0.211190 0.117587 0.300000 0.000000 0.600000
0.493955 0.467819 0.261480 0.300000 0.000000 0.600000
-0.208473 -0.566222 -0.434485 0.300000 0.000000 0.600000
0.523452 0.166218 0.360184 0.300000 0.000000 0.600000
-0.370639 0.687062 0.023263 0.300000 0.000000 0.600000
-0.365139 -0.276589 0.479724 0.300000 0.000000 0.600000
-0.215563 -0.006372 0.479724 0.300000 0.000000 0.600000
-0.311499 0.643451 0.421186 0.300000 0.000000 0.600000
-0.252434 0.687062 -0.227044 0.300000 0.000000 0.600000
0.275609 -0.235813 0.391917 0.300000 0.000000 0.600000
0.115683 -0.040573 0.421186 0.300000 0.000000 0.600000
0.279159 0.393177 0.421186 0.300000 0.000000 0.600000
-0.100079 0.739340 0.033522 0.300000 0.000000 0.600000
0.163010 -0.625798 -0.569438 0.300000 0.000000 0.600000
0.118271 -0.566222 0.241832 0.300000 0.000000 0.600000
-0.295346 0.739340 -0.077945 0.300000 0.000000 0.600000
0.454143 -0.199104 0.499237 0.300000 0.000000 0.600000
0.508271 -0.070566 -0.542064 0.300000 0.000000 0.600000
0.046603 -0.762452 0.059255 0.300000 0.000000 0.600000
0.139067 0.678108 -0.510877 0.300000 0.000000 0.600000
-0.365207 -0.778658 0.310301 0.300000 0.000000 0.600000
-0.422267 0.739340 -0.232396 0.300000 0.000000 0.600000
0.077558 -0.580580 0.421186 0.300000 0.000000 0.600000
0.201532 0.373576 0.499237 0.300000 0.000000 0.600000
-0.274644 -0.194995 -0.569438 0.300000 0.000000 0.600000
0.522938 0.395475 0.141971 0.300000 0.000000 0.600000
0.107388 -0.762452 0.198530 0.300000 0.000000 0.600000
0.493955 0.328346 -0.318610 0.300000 0.000000 0.600000
0.508946 -0.124436 0.419940 0.300000 0.000000 0.600000
-0.515792 0.579399 0.531725 0.600000 0.000000 0.300000
-0.487085 0.679877 0.157432 0.300000 0.000000 0.600000
0.047945 -0.565261 -0.135189 0.300000 0.000000 0.600000
-0.518829 -0.293994 0.347184 0.300000 0.000000 0.600000
-0.215694 -0.447105 0.492966 0.300000 0.000000 0.600000
0.286409 0.695364 0.499237 0.300000 0.000000 0.600000
-0.518596 0.525147 -0.112685 0.300000 0.000000 0.600000
-0.548578 0.144769 -0.212005 0.300000 0.000000 0.600000
0.082348 -0.565969 0.036176 0.300000 0.000000 0.600000
-0.215595 -0.724756 -0.569150 0.300000 0.000000 0.600000
0.354491 0.739340 -0.377481 0.300000 0.000000 0.600000
-0.247159 0.071807 0.421186 0.300000 0.000000 0.600000
0.118653 0.368618 0.421186 0.300000 0.000000 0.600000
0.347689 0.659571 0.391917 0.300000 0.000000 0.600000
-0.516873 0.236621 -0.493031 0.300000 0.000000 0.600000
0.481411 0.409649 -0.561403 0.300000 0.000000 0.600000
-0.373019 0.739340 0.228468 0.300000 0.000000 0.600000
-0.548556 -0.694931 -0.302929 0.300000 0.000000 0.600000
-0.389731 0.203031 0.479724 0.300000 0.000000 0.600000
-0.548578 0.120846 -0.057866 0.300000 0.000000 0.600000
-0.047546 -0.101668 -0.539455 0.300000 0.000000 0.600000
0.323202 0.687062 -0.291509 0.300000 0.000000 0.600000
0.418100 0.471273 0.499237 0.300000 0.000000 0.600000
-0.476784 -0.455334 0.499237 0.300000 0.000000 0.600000
0.493863 0.254195 0.421186 0.300000 0.000000 0.600000
-0.102964 0.687062 0.170841 0.300000 0.000000 0.600000
-0.137228 0.687062 -0.322757 0.300000 0.000000 0.600000
-0.548578 -0.166825 -0.351391 0.300000 0.000000 0.600000
-0.320845 -0.121860 0.479724 0.300000 0.000000 0.600000
0.343360 0.739318 0.191013 0.300000 0.000000 0.600000
0.121182 -0.756020 -0.545964 0.300000 0.000000 0.600000
0.494030 -0.501938 0.145725 0.300000 0.000000 0.600000
-0.258241 0.496030 0.421186 0.300000 0.000000 0.600000
0.449619 0.669932 0.499237 0.300000 0.000000 0.600000
0.288703 0.739340 -0.175778 0.300000 0.000000 0.600000
-0.518596 0.567738 0.058434 0.300000 0.000000 0.600000
-0.510674 0.659038 0.270775 0.300000 0.000000 0.600000
-0.340353 0.687062 -0.313850 0.300000 0.000000 0.600000
0.366187 -0.321636 0.479724 0.300000 0.000000 0.600000
-0.080501 -0.487150 -0.569438 0.300000 0.000000 0.600000
0.422741 -0.302673 0.421186 0.300000 0.000000 0.600000
-0.505355 0.466059 -0.523174 0.300000 0.000000 0.600000
0.029751 0.699050 0.421186 0.300000 0.000000 0.600000
0.522938 0.334244 0.256827 0.300000 0.000000 0.600000
-0.007300 -0.565838 -0.353530 0.300000 0.000000 0.600000
0.204130 0.619818 0.481227 0.300000 0.000000 0.600000
0.451803 -0.444523 0.421186 0.300000 0.000000 0.600000
-0.518596 0.530657 0.265649 0.300000 0.000000 0.600000
0.163934 0.279819 0.499237 0.300000 0.000000 0.600000
0.006631 0.160894 0.421186 0.300000 0.000000 0.600000
0.363669 -0.103772 0.421186 0.300000 0.000000 0.600000
0.492785 0.298369 -0.555543 0.300000 0.000000 0.600000
0.493955 0.263404 0.058970 0.300000 0.000000 0.600000
0.342817 -0.565719 0.499237 0.300000 0.000000 0.600000
-0.360663 -0.762452 -0.160901 0.300000 0.000000 0.600000
0.107927 0.739340 -0.319933 0.300000 0.000000 0.600000
-0.518596 -0.373206 0.063822 0.300000 0.000000 0.600000
-0.314372 0.687062 0.088090 0.300000 0.000000 0.600000
0.247000 -0.452823 0.421186 0.300000 0.000000 0.600000
0.143508 0.068576 -0.569438 0.300000 0.000000 0.600000
-0.361246 0.151143 0.421186 0.300000 0.000000 0.600000
-0.082336 0.685482 -0.481289 0.300000 0.000000 0.600000
0.301448 -0.117817 0.499237 0.300000 0.000000 0.600000
0.015635 -0.564122 -0.486048 0.300000 0.000000 0.600000
0.522938 -0.176124 0.152910 0.300000 0.000000 0.600000
-0.114975 0.696261 0.421186 0.300000 0.000000 0.600000
0.523937 0.649039 -0.354081 0.300000 0.000000 0.600000
0.075934 -0.122401 -0.539455 0.300000 0.000000 0.600000
-0.548578 -0.245728 0.189302 0.300000 0.000000 0.600000
0.523686 -0.572366 0.336785 0.300000 0.000000 0.600000
-0.548578 -0.330479 -0.098171 0.300000 0.000000 0.600000
-0.110137 0.091371 0.421186 0.300000 0.000000 0.600000
-0.548578 -0.658131 -0.060249 0.300000 0.000000 0.600000
-0.043321 0.687062 -0.390589 0.300000 0.000000 0.600000
-0.152842 0.285287 0.421186 0.300000 0.000000 0.600000
0.203264 -0.762452 -0.105888 0.300000 0.000000 0.600000
-0.325366 0.739340 0.333780 0.300000 0.000000 0.600000
-0.125282 -0.222211 0.499237 0.300000 0.000000 0.600000
0.444007 -0.555544 -0.513460 0.300000 0.000000 0.600000
0.403257 -0.092245 -0.569438 0.300000 0.000000 0.600000
0.351456 0.117016 0.497838 0.300000 0.000000 0.600000
0.493955 0.004802 -0.176788 0.300000 0.000000 0.600000
0.467263 -0.762271 0.067269 0.300000 0.000000 0.600000
0.081135 0.047000 0.421186 0.300000 0.000000 0.600000
-0.548578 -0.546595 0.245845 0.300000 0.000000 0.600000
0.523937 -0.308440 -0.221225 0.300000 0.000000 0.600000
-0.518596 0.164704 -0.358206 0.300000 0.000000 0.600000
0.184399 0.142737 0.499237 0.300000 0.000000 0.600000
0.357949 0.093228 -0.539455 0.300000 0.000000 0.600000
-0.042296 -0.432035 0.499237 0.300000 0.000000 0.600000
-0.465611 0.739341 -0.346145 0.300000 0.000000 0.600000
0.075930 0.738341 0.180974 0.300000 0.000000 0.600000
-0.101995 0.541397 0.421186 0.300000 0.000000 0.600000
0.409043 0.068842 0.479724 0.300000 0.000000 0.600000
0.493955 0.245159 -0.169889 0.300000 0.000000 0.600000
0.260779 -0.565218 -0.327808 0.300000 0.000000 0.600000
-0.548335 -0.317958 -0.525923 0.300000 0.000000 0.600000
-0.100338 -0.565218 -0.142449 0.300000 0.000000 0.600000
-0.381163 0.318436 0.479724 0.300000 0.000000 0.600000
-0.130230 0.132067 0.479724 0.300000 0.000000 0.600000
-0.266846 0.738069 -0.532914 0.300000 0.000000 0.600000
-0.518596 -0.032818 0.307866 0.300000 0.000000 0.600000
-0.292020 -0.200402 0.421186 0.300000 0.000000 0.600000
-0.548578 0.248769 -0.266401 0.300000 0.000000 0.600000
-0.308730 0.031962 0.391917 0.300000 0.000000 0.600000
-0.461074 -0.564150 -0.146862 0.300000 0.000000 0.600000
-0.228053 0.158241 0.421186 0.300000 0.000000 0.600000
-0.548578 0.461328 -0.070357 0.300000 0.000000 0.600000
-0.508910 0.662516 0.030664 0.300000 0.000000 0.600000
0.026177 0.558726 0.421186 0.300000 0.000000 0.600000
0.493955 0.591346 -0.096839 0.300000 0.000000 0.600000
-0.161512 0.584685 0.421186 0.300000 0.000000 0.600000
0.218460 -0.351505 0.479724 0.300000 0.000000 0.600000
0.522938 0.661247 0.026873 0.300000 0.000000 0.600000
0.493955 0.558066 -0.174582 0.300000 0.000000 0.600000
-0.127698 0.739340 -0.122810 0.300000 0.000000 0.600000
0.172632 -0.762452 -0.477129 0.300000 0.000000 0.600000
0.131517 -0.565218 -0.237762 0.300000 0.000000 0.600000
-0.154454 -0.762452 0.229464 0.300000 0.000000 0.600000
-0.048594 -0.605298 0.429175 0.300000 0.000000 0.600000
0.523937 -0.667456 -0.390088 0.300000 0.000000 0.600000
0.370715 0.739067 -0.515818 0.300000 0.000000 0.600000
0.247849 0.687062 -0.379961 0.300000 0.000000 0.600000
0.493955 -0.326187 0.087734 0.300000 0.000000 0.600000
-0.495263 -0.286823 0.559867 0.600000 0.000000 0.300000
-0.226148 -0.725974 0.335794 0.300000 0.000000 0.600000
0.015294 0.043015 0.479724 0.300000 0.000000 0.600000
0.514521 0.101687 0.451850 0.300000 0.000000 0.600000
0.164865 0.738341 0.236893 0.300000 0.000000 0.600000
-0.442183 0.739209 0.342764 0.300000 0.000000 0.600000
0.053800 0.738390 0.028059 0.300000 0.000000 0.600000
-0.008761 0.613793 -0.569438 0.300000 0.000000 0.600000
-0.060755 -0.564108 -0.492801 0.300000 0.000000 0.600000
0.334574 0.687062 0.121836 0.300000 0.000000 0.600000
-0.053472 -0.029096 -0.539455 0.300000 0.000000 0.600000
0.329345 -0.762452 -0.490486 0.300000 0.000000 0.600000
-0.497355 0.069382 0.499237 0.300000 0.000000 0.600000
-0.045066 -0.565559 0.134013 0.300000 0.000000 0.600000
-0.518110 -0.526750 -0.105175 0.300000 0.000000 0.600000
-0.221711 0.687062 0.076089 0.300000 0.000000 0.600000
-0.518596 -0.122287 0.041287 0.300000 0.000000 0.600000
0.058648 -0.389701 -0.539455 0.300000 0.000000 0.600000
-0.068501 -0.392347 0.391917 0.300000 0.000000 0.600000
0.522938 0.534052 0.255871 0.300000 0.000000 0.600000
0.252788 -0.324219 -0.569438 0.300000 0.000000 0.600000
0.493955 0.532906 0.080664 0.300000 0.000000 0.600000
-0.548578 -0.267838 -0.134688 0.300000 0.000000 0.600000
0.491791 -0.453416 -0.499921 0.300000 0.000000 0.600000
-0.533587 0.487669 0.408982 0.300000 0.000000 0.600000
0.045146 -0.252611 0.391917 0.300000 0.000000 0.600000
0.466666 -0.665131 0.335445 0.300000 0.000000 0.600000
0.405170 -0.565219 -0.268764 0.300000 0.000000 0.600000
-0.390272 0.666820 -0.569438 0.300000 0.000000 0.600000
-0.447089 0.039043 -0.539458 0.300000 0.000000 0.600000
0.331939 -0.565218 0.139783 0.300000 0.000000 0.600000
0.491817 0.543251 0.499237 0.300000 0.000000 0.600000
-0.548578 -0.575560 -0.013510 0.300000 0.000000 0.600000
0.368040 -0.229115 -0.539455 0.300000 0.000000 0.600000
-0.185541 -0.118900 0.421186 0.300000 0.000000 0.600000
-0.302235 -0.762452 0.171523 0.300000 0.000000 0.600000
0.522938 0.255007 -0.442052 0.300000 0.000000 0.600000
0.088331 -0.349470 0.499237 0.300000 0.000000 0.600000
-0.518596 0.089159 0.148906 0.300000 0.000000 0.600000
-0.487822 -0.428745 -0.569326 0.300000 0.000000 0.600000
-0.343154 -0.762452 0.063176 0.300000 0.000000 0.600000
0.360009 0.739340 -0.165513 0.300000 0.000000 0.600000
-0.548578 -0.096373 0.234224 0.300000 0.000000 0.600000
-0.079929 0.687062 -0.222775 0.300000 0.000000 0.600000
0.335551 -0.565922 0.251180 0.300000 0.000000 0.600000
-0.175617 -0.258312 -0.569438 0.300000 0.000000 0.600000
0.523926 0.641410 -0.499264 0.300000 0.000000 0.600000
0.493955 -0.006735 0.194134 0.300000 0.000000 0.600000
0.315312 -0.565218 0.043343 0.300000 0.000000 0.600000
0.216914 0.529439 0.391917 0.300000 0.000000 0.600000
0.523937 -0.574770 -0.496964 0.300000 0.000000 0.600000
0.523271 -0.220306 0.283229 0.300000 0.000000 0.600000
-0.424082 -0.208859 0.479724 0.300000 0.000000 0.600000
0.366445 0.268472 0.391917 0.300000 0.000000 0.600000
-0.379524 0.739340 -0.173718 0.300000 0.000000 0.600000
-0.192952 0.242747 -0.539455 0.300000 0.000000 0.600000
0.286990 0.087594 0.479724 0.300000 0.000000 0.600000
-0.461512 0.338888 0.499237 0.300000 0.000000 0.600000
-0.548437 -0.704450 -0.420753 0.300000 0.000000 0.600000
-0.469996 0.739341 0.276268 0.300000 0.000000 0.600000
0.522938 0.249098 -0.006273 0.300000 0.000000 0.600000
-0.548578 -0.234379 0.001636 0.300000 0.000000 0.600000
-0.094063 0.739340 0.308093 0.300000 0.000000 0.600000
-0.158232 0.634288 0.499237 0.300000 0.000000 0.600000
0.273176 0.687062 -0.087723 0.300000 0.000000 0.600000
-0.490503 -0.676979 -0.569287 0.300000 0.000000 0.600000
0.171448 0.230485 -0.569438 0.300000 0.000000 0.600000
-0.518687 -0.503675 0.087227 0.300000 0.000000 0.600000
-0.473005 0.579299 0.391917 0.300000 0.000000 0.600000
-0.078173 0.739331 0.224906 0.300000 0.000000 0.600000
0.257144 -0.666924 -0.569438 0.300000 0.000000 0.600000
0.022767 -0.458324 -0.539455 0.300000 0.000000 0.600000
0.493955 -0.073527 0.324056 0.300000 0.000000 0.600000
-0.548578 -0.409967 -0.191619 0.300000 0.000000 0.600000
-0.548578 0.018480 0.025956 0.300000 0.000000 0.600000
-0.431232 0.550225 -0.569438 0.300000 0.000000 0.600000
0.247345 0.566507 -0.539455 0.300000 0.000000 0.600000
-0.426916 0.677861 0.421186 0.300000 0.000000 0.600000
0.088211 0.739340 -0.214508 0.300000 0.000000 0.600000
