ply
format ascii 1.0
element vertex 617
property float x
property float y
property float z
property float nx
property float ny
property float nz
property uchar red
property uchar green
property uchar blue
property float opacity
end_header
-0.502041 0.418801 0.066829 1.000000 0.000000 0.000000 255 255 255 1.000000
-0.273122 -0.473905 -0.477878 0.000000 -0.000000 1.000000 255 255 255 1.000000
-0.480862 -0.408510 0.385688 0.000000 -0.000000 1.000000 255 255 255 1.000000
0.268903 -0.287689 -0.477878 0.000000 -0.000000 1.000000 255 255 255 1.000000
-0.068223 -0.771064 -0.345621 0.000000 -1.000000 -0.000000 255 255 255 1.000000
-0.502041 -0.194098 -0.112349 -1.000000 0.000000 0.000000 255 255 255 1.000000
-0.026132 -0.771064 -0.300925 0.000000 1.000000 0.000000 255 255 255 1.000000
0.516874 -0.648923 0.063984 1.000000 0.000000 0.000000 255 255 255 1.000000
-0.464173 -0.746960 0.385688 0.000000 0.000000 -1.000000 255 255 255 1.000000
0.007416 0.194466 0.425924 -1.000000 0.000000 0.000000 255 255 255 1.000000
-0.502041 -0.183208 -0.352444 1.000000 0.000000 0.000000 255 255 255 1.000000
-0.408989 -0.527640 -0.477878 0.000000 -0.000000 1.000000 255 255 255 1.000000
0.144398 -0.771064 0.137723 0.000000 -1.000000 -0.000000 255 255 255 1.000000
-0.480147 -0.052967 0.428143 0.000000 -0.000000 1.000000 255 255 255 1.000000
-0.066896 -0.771064 0.107955 0.000000 1.000000 0.000000 255 255 255 1.000000
0.186685 -0.771064 0.033437 0.000000 1.000000 0.000000 255 255 255 1.000000
-0.387786 -0.384140 0.428143 0.000000 0.000000 -1.000000 255 255 255 1.000000
0.516874 -0.057339 0.025181 -1.000000 0.000000 0.000000 255 255 255 1.000000
0.110941 0.166837 0.428143 0.000000 -0.000000 1.000000 255 255 255 1.000000
-0.497309 0.645512 -0.233572 -0.968812 0.247797 0.000000 255 255 255 1.000000
-0.433527 -0.074918 0.428143 0.000000 -0.000000 1.000000 255 255 255 1.000000
0.516874 -0.240057 -0.053641 1.000000 0.000000 0.000000 255 255 255 1.000000
-0.502041 -0.218553 0.066106 1.000000 0.000000 0.000000 255 255 255 1.000000
-0.502041 -0.090453 0.407172 -1.000000 0.000000 0.000000 255 255 255 1.000000
-0.502041 -0.436632 -0.139086 -1.000000 0.000000 0.000000 255 255 255 1.000000
0.044375 0.372725 -0.477878 0.000000 -0.000000 1.000000 255 255 255 1.000000
0.516874 -0.397572 0.120303 1.000000 0.000000 0.000000 255 255 255 1.000000
-0.502041 -0.629548 0.279818 1.000000 0.000000 0.000000 255 255 255 1.000000
-0.113408 0.544712 -0.477878 0.000000 0.000000 -1.000000 255 255 255 1.000000
-0.476705 0.540250 -0.477878 0.000000 -0.000000 1.000000 255 255 255 1.000000
-0.211772 0.022611 0.385688 0.000000 -0.000000 1.000000 255 255 255 1.000000
-0.502041 -0.202624 0.018017 -1.000000 0.000000 0.000000 255 255 255 1.000000
0.277468 -0.053758 0.385688 0.000000 0.000000 -1.000000 255 255 255 1.000000
0.516874 -0.191296 0.133192 1.000000 0.000000 0.000000 255 255 255 1.000000
0.311014 -0.397945 -0.477878 0.000000 -0.000000 1.000000 255 255 255 1.000000
0.114186 0.254934 0.428143 0.000000 -0.000000 1.000000 255 255 255 1.000000
0.089616 0.099259 0.448281 0.000000 1.000000 0.000000 255 255 255 1.000000
0.217368 -0.310433 -0.477878 0.000000 -0.000000 1.000000 255 255 255 1.000000
-0.108092 -0.365814 0.428143 0.000000 -0.000000 1.000000 255 255 255 1.000000
0.281783 -0.648696 -0.477878 0.000000 -0.000000 1.000000 255 255 255 1.000000
0.132349 0.757308 -0.195680 0.000000 1.000000 0.000000 255 255 255 1.000000
0.496912 0.296945 0.428143 0.000000 0.000000 -1.000000 255 255 255 1.000000
0.516874 -0.733331 -0.035365 -1.000000 0.000000 0.000000 255 255 255 1.000000
-0.502041 0.296226 0.101239 -1.000000 0.000000 0.000000 255 255 255 1.000000
-0.322873 0.757308 -0.323166 0.000000 -1.000000 -0.000000 255 255 255 1.000000
0.405218 0.752548 0.423192 -0.248729 -0.968573 -0.000000 255 255 255 1.000000
-0.502041 0.116061 0.148018 1.000000 0.000000 0.000000 255 255 255 1.000000
0.476768 0.250211 -0.477878 0.000000 0.000000 -1.000000 255 255 255 1.000000
0.163517 -0.001261 -0.477878 0.000000 -0.000000 1.000000 255 255 255 1.000000
-0.502041 0.298826 0.039236 1.000000 0.000000 0.000000 255 255 255 1.000000
0.443881 0.736530 0.323843 0.509092 0.860712 0.000000 255 255 255 1.000000
-0.240604 0.432731 0.385688 0.000000 -0.000000 1.000000 255 255 255 1.000000
-0.009470 -0.771064 -0.026560 0.000000 -1.000000 -0.000000 255 255 255 1.000000
0.516874 0.559127 -0.330701 -1.000000 0.000000 0.000000 255 255 255 1.000000
-0.160659 -0.173292 -0.477878 0.000000 0.000000 -1.000000 255 255 255 1.000000
-0.361115 0.741856 0.428143 0.000000 -0.000000 1.000000 255 255 255 1.000000
-0.501582 -0.788278 -0.423621 0.977298 -0.000000 0.211871 255 255 255 1.000000
0.354394 0.699522 0.385688 0.000000 -0.000000 1.000000 255 255 255 1.000000
-0.035416 -0.005485 0.387104 1.000000 0.000000 0.000000 255 255 255 1.000000
-0.324793 -0.412597 -0.477878 0.000000 -0.000000 1.000000 255 255 255 1.000000
-0.502041 -0.272362 -0.304772 1.000000 0.000000 0.000000 255 255 255 1.000000
0.318297 0.757308 -0.042303 0.000000 1.000000 0.000000 255 255 255 1.000000
-0.145313 0.757308 0.085911 0.000000 1.000000 0.000000 255 255 255 1.000000
0.320284 0.729919 -0.477878 0.000000 -0.000000 1.000000 255 255 255 1.000000
-0.043962 -0.673001 -0.477878 0.000000 -0.000000 1.000000 255 255 255 1.000000
-0.124530 -0.686590 0.428143 0.000000 -0.000000 1.000000 255 255 255 1.000000
-0.150332 0.313642 -0.477878 0.000000 -0.000000 1.000000 255 255 255 1.000000
0.076289 -0.155040 0.385688 0.000000 -0.000000 1.000000 255 255 255 1.000000
-0.076622 0.700283 0.428143 0.000000 -0.000000 1.000000 255 255 255 1.000000
0.165020 0.222507 0.385688 0.000000 0.000000 -1.000000 255 255 255 1.000000
0.516874 0.591617 0.289165 1.000000 0.000000 0.000000 255 255 255 1.000000
-0.384597 -0.242883 0.428143 0.000000 0.000000 -1.000000 255 255 255 1.000000
0.516874 -0.129217 0.372277 1.000000 0.000000 0.000000 255 255 255 1.000000
-0.427168 0.737685 0.015537 -0.496254 0.868177 0.000000 255 255 255 1.000000
0.154716 0.730797 -0.477878 0.000000 -0.000000 1.000000 255 255 255 1.000000
-0.282880 -0.258166 -0.477878 0.000000 0.000000 -1.000000 255 255 255 1.000000
-0.035416 0.538054 0.427767 1.000000 0.000000 0.000000 255 255 255 1.000000
0.064442 -0.070309 0.385688 0.000000 0.000000 -1.000000 255 255 255 1.000000
-0.436346 -0.813519 -0.445374 0.000000 -1.000000 -0.000000 0 0 0 1.000000
-0.406122 0.109422 -0.477878 0.000000 -0.000000 1.000000 255 255 255 1.000000
-0.487140 0.672861 0.341950 0.901595 -0.432582 -0.000000 255 255 255 1.000000
0.516874 0.160123 -0.197257 1.000000 0.000000 0.000000 255 255 255 1.000000
-0.405248 0.254136 0.385688 0.000000 -0.000000 1.000000 255 255 255 1.000000
0.399182 0.086769 0.385688 0.000000 -0.000000 1.000000 255 255 255 1.000000
0.516874 -0.433111 -0.123090 1.000000 0.000000 0.000000 255 255 255 1.000000
0.087074 -0.771064 0.255359 0.000000 1.000000 0.000000 255 255 255 1.000000
0.191696 0.757308 -0.445327 0.000000 -1.000000 -0.000000 255 255 255 1.000000
-0.378397 -0.771064 0.276524 0.000000 1.000000 0.000000 255 255 255 1.000000
-0.502041 0.573583 0.141042 -1.000000 0.000000 0.000000 255 255 255 1.000000
-0.502041 0.192674 -0.127421 1.000000 0.000000 0.000000 255 255 255 1.000000
-0.502041 -0.604875 0.347070 1.000000 0.000000 0.000000 255 255 255 1.000000
-0.080082 -0.244737 0.428143 0.000000 -0.000000 1.000000 255 255 255 1.000000
0.022739 -0.288465 0.385688 0.000000 0.000000 -1.000000 255 255 255 1.000000
0.463416 -0.535335 -0.477878 0.000000 -0.000000 1.000000 255 255 255 1.000000
-0.502041 0.561006 0.045057 1.000000 0.000000 0.000000 255 255 255 1.000000
0.516874 0.044303 0.116495 -1.000000 0.000000 0.000000 255 255 255 1.000000
0.176083 -0.401240 0.385688 0.000000 -0.000000 1.000000 255 255 255 1.000000
0.114046 -0.086692 0.385688 0.000000 0.000000 -1.000000 255 255 255 1.000000
0.442127 0.737623 -0.299082 -0.497075 -0.867708 -0.000000 255 255 255 1.000000
0.516874 -0.107593 -0.408670 -1.000000 0.000000 0.000000 255 255 255 1.000000
0.508220 0.657752 -0.369022 0.943738 0.330693 0.000000 255 255 255 1.000000
0.516874 -0.128284 -0.392893 1.000000 0.000000 0.000000 255 255 255 1.000000
-0.488501 -0.398478 0.428143 0.000000 -0.000000 1.000000 255 255 255 1.000000
-0.502041 0.230318 -0.092345 -1.000000 0.000000 0.000000 255 255 255 1.000000
-0.175285 -0.370166 -0.477878 0.000000 -0.000000 1.000000 255 255 255 1.000000
0.199005 -0.338084 0.385688 0.000000 0.000000 -1.000000 255 255 255 1.000000
0.516874 -0.162955 0.401118 -1.000000 0.000000 0.000000 255 255 255 1.000000
0.516874 -0.680533 -0.052448 1.000000 0.000000 0.000000 255 255 255 1.000000
0.123498 -0.634798 0.385688 0.000000 0.000000 -1.000000 255 255 255 1.000000
0.415148 0.518255 -0.477878 0.000000 0.000000 -1.000000 255 255 255 1.000000
-0.060463 0.205146 0.428143 0.000000 0.000000 -1.000000 255 255 255 1.000000
0.421064 -0.806258 0.336563 0.831404 -0.000000 0.555669 255 255 255 1.000000
-0.064051 0.505645 -0.477878 0.000000 -0.000000 1.000000 255 255 255 1.000000
-0.447618 -0.771064 0.353202 0.000000 1.000000 0.000000 255 255 255 1.000000
-0.326396 0.757308 0.362292 0.000000 -1.000000 -0.000000 255 255 255 1.000000
-0.024573 0.349354 -0.477878 0.000000 0.000000 -1.000000 255 255 255 1.000000
0.467827 0.362552 -0.477878 0.000000 -0.000000 1.000000 255 255 255 1.000000
-0.502041 0.292254 -0.351121 1.000000 0.000000 0.000000 255 255 255 1.000000
0.219700 -0.339760 0.428143 0.000000 -0.000000 1.000000 255 255 255 1.000000
0.516874 0.028794 -0.219568 1.000000 0.000000 0.000000 255 255 255 1.000000
0.304763 -0.304226 0.428143 0.000000 -0.000000 1.000000 255 255 255 1.000000
-0.225858 0.757308 0.009146 0.000000 -1.000000 -0.000000 255 255 255 1.000000
-0.152598 0.757308 0.306288 0.000000 1.000000 0.000000 255 255 255 1.000000
0.516874 -0.344690 0.337889 -1.000000 0.000000 0.000000 255 255 255 1.000000
0.222404 -0.526893 0.428143 0.000000 0.000000 -1.000000 255 255 255 1.000000
-0.502041 -0.286695 0.304331 1.000000 0.000000 0.000000 255 255 255 1.000000
-0.400791 0.047076 0.385688 0.000000 0.000000 -1.000000 255 255 255 1.000000
0.156090 -0.619942 0.428143 0.000000 -0.000000 1.000000 255 255 255 1.000000
0.164721 0.236128 -0.477878 0.000000 -0.000000 1.000000 255 255 255 1.000000
0.486295 0.698984 0.055364 0.794286 0.607544 0.000000 255 255 255 1.000000
0.495078 0.685838 -0.383000 0.854376 0.519656 0.000000 255 255 255 1.000000
0.516874 0.068095 -0.451582 -1.000000 0.000000 0.000000 255 255 255 1.000000
-0.076474 0.757308 0.298506 0.000000 1.000000 0.000000 255 255 255 1.000000
-0.326761 0.579002 0.428143 0.000000 -0.000000 1.000000 255 255 255 1.000000
0.299664 0.442532 0.385688 0.000000 -0.000000 1.000000 255 255 255 1.000000
0.340281 0.605571 0.428143 0.000000 -0.000000 1.000000 255 255 255 1.000000
-0.297544 -0.771064 0.216859 0.000000 -1.000000 -0.000000 255 255 255 1.000000
-0.496412 0.648841 -0.045611 0.962797 -0.270225 -0.000000 255 255 255 1.000000
-0.408198 -0.771064 -0.329513 0.000000 -1.000000 -0.000000 255 255 255 1.000000
0.516874 -0.084572 0.002481 1.000000 0.000000 0.000000 255 255 255 1.000000
-0.502041 -0.473645 -0.229461 -1.000000 0.000000 0.000000 255 255 255 1.000000
0.256121 0.011826 0.385688 0.000000 0.000000 -1.000000 255 255 255 1.000000
0.516874 0.080922 0.265274 1.000000 0.000000 0.000000 255 255 255 1.000000
0.516874 0.194419 0.067464 -1.000000 0.000000 0.000000 255 255 255 1.000000
-0.502041 -0.048210 -0.261135 -1.000000 0.000000 0.000000 255 255 255 1.000000
-0.344868 0.757308 0.039609 0.000000 -1.000000 -0.000000 255 255 255 1.000000
-0.422142 -0.771064 0.266845 0.000000 -1.000000 -0.000000 255 255 255 1.000000
0.516874 -0.644605 -0.330686 1.000000 0.000000 0.000000 255 255 255 1.000000
0.126399 0.757308 0.225069 0.000000 1.000000 0.000000 255 255 255 1.000000
-0.502041 -0.716048 0.017906 1.000000 0.000000 0.000000 255 255 255 1.000000
0.162717 0.757308 0.353962 0.000000 -1.000000 -0.000000 255 255 255 1.000000
0.080875 -0.280121 -0.477878 0.000000 0.000000 -1.000000 255 255 255 1.000000
0.007416 -0.253212 0.407891 -1.000000 0.000000 0.000000 255 255 255 1.000000
0.516874 -0.166524 0.103175 1.000000 0.000000 0.000000 255 255 255 1.000000
-0.130334 -0.398442 0.385688 0.000000 0.000000 -1.000000 255 255 255 1.000000
-0.326138 -0.215981 -0.477878 0.000000 -0.000000 1.000000 255 255 255 1.000000
-0.480567 0.685358 -0.231485 -0.856389 0.516332 0.000000 255 255 255 1.000000
-0.099023 -0.771064 -0.432241 0.000000 1.000000 0.000000 255 255 255 1.000000
0.514274 0.634790 -0.203760 0.984423 0.175816 0.000000 255 255 255 1.000000
0.203015 0.091170 0.428143 0.000000 0.000000 -1.000000 255 255 255 1.000000
0.331926 -0.771064 0.158889 0.000000 -1.000000 -0.000000 255 255 255 1.000000
-0.502041 0.427362 -0.370705 -1.000000 0.000000 0.000000 255 255 255 1.000000
-0.280544 0.493440 0.428143 0.000000 -0.000000 1.000000 255 255 255 1.000000
-0.172149 -0.318116 -0.477878 0.000000 0.000000 -1.000000 255 255 255 1.000000
-0.502041 -0.758531 -0.059804 -1.000000 0.000000 0.000000 255 255 255 1.000000
-0.179854 0.309783 0.428143 0.000000 -0.000000 1.000000 255 255 255 1.000000
0.516874 -0.273117 0.231714 -1.000000 0.000000 0.000000 255 255 255 1.000000
-0.502041 -0.250039 -0.006690 -1.000000 0.000000 0.000000 255 255 255 1.000000
-0.502041 0.395710 -0.144726 -1.000000 0.000000 0.000000 255 255 255 1.000000
-0.188943 -0.289848 0.385688 0.000000 -0.000000 1.000000 255 255 255 1.000000
-0.502041 0.336106 -0.029344 1.000000 0.000000 0.000000 255 255 255 1.000000
-0.235542 0.442270 -0.477878 0.000000 -0.000000 1.000000 255 255 255 1.000000
0.035492 -0.240937 0.385688 0.000000 -0.000000 1.000000 255 255 255 1.000000
-0.502041 0.454916 -0.300130 -1.000000 0.000000 0.000000 255 255 255 1.000000
0.383031 0.756342 -0.446244 0.114970 0.993369 0.000000 255 255 255 1.000000
0.248203 0.757308 0.164708 0.000000 1.000000 0.000000 255 255 255 1.000000
0.058164 -0.771064 -0.241719 0.000000 -1.000000 -0.000000 255 255 255 1.000000
0.016432 -0.714074 0.385688 0.000000 -0.000000 1.000000 255 255 255 1.000000
0.314543 0.386736 0.428143 0.000000 -0.000000 1.000000 255 255 255 1.000000
0.081071 0.757308 -0.330334 0.000000 -1.000000 -0.000000 255 255 255 1.000000
0.459872 -0.489772 0.428143 0.000000 0.000000 -1.000000 255 255 255 1.000000
-0.502041 -0.606187 0.082474 -1.000000 0.000000 0.000000 255 255 255 1.000000
0.516874 0.423140 -0.212120 1.000000 0.000000 0.000000 255 255 255 1.000000
-0.502041 -0.713881 0.296631 -1.000000 0.000000 0.000000 255 255 255 1.000000
0.244360 -0.379977 0.428143 0.000000 0.000000 -1.000000 255 255 255 1.000000
-0.260074 0.585189 -0.477878 0.000000 -0.000000 1.000000 255 255 255 1.000000
-0.124864 -0.594582 0.385688 0.000000 0.000000 -1.000000 255 255 255 1.000000
0.516874 -0.342468 -0.332941 1.000000 0.000000 0.000000 255 255 255 1.000000
-0.414050 -0.024469 -0.477878 0.000000 -0.000000 1.000000 255 255 255 1.000000
0.239441 -0.761920 0.428143 0.000000 -0.000000 1.000000 255 255 255 1.000000
-0.115123 -0.771064 0.297682 0.000000 -1.000000 -0.000000 255 255 255 1.000000
-0.305578 -0.077884 -0.477878 0.000000 0.000000 -1.000000 255 255 255 1.000000
-0.485031 0.677137 -0.343667 0.887221 -0.461344 -0.000000 255 255 255 1.000000
0.516874 0.243964 -0.180333 -1.000000 0.000000 0.000000 255 255 255 1.000000
0.516874 -0.439729 0.412090 -1.000000 0.000000 0.000000 255 255 255 1.000000
-0.107798 0.489053 0.428143 0.000000 -0.000000 1.000000 255 255 255 1.000000
-0.181272 -0.066725 -0.477878 0.000000 0.000000 -1.000000 255 255 255 1.000000
-0.397733 0.570194 0.428143 0.000000 -0.000000 1.000000 255 255 255 1.000000
0.385612 -0.771064 -0.200614 0.000000 1.000000 0.000000 255 255 255 1.000000
-0.502041 0.386309 -0.244500 -1.000000 0.000000 0.000000 255 255 255 1.000000
0.488254 -0.162358 0.385688 0.000000 -0.000000 1.000000 255 255 255 1.000000
-0.251674 -0.627458 0.428143 0.000000 0.000000 -1.000000 255 255 255 1.000000
0.396140 -0.663271 0.428143 0.000000 0.000000 -1.000000 255 255 255 1.000000
0.429455 -0.771064 -0.187390 0.000000 -1.000000 -0.000000 255 255 255 1.000000
-0.502041 0.526998 0.063300 -1.000000 0.000000 0.000000 255 255 255 1.000000
0.187534 0.026555 0.428143 0.000000 0.000000 -1.000000 255 255 255 1.000000
-0.502041 -0.015709 -0.299913 1.000000 0.000000 0.000000 255 255 255 1.000000
0.415921 -0.002717 0.428143 0.000000 0.000000 -1.000000 255 255 255 1.000000
-0.502041 0.340041 0.017861 1.000000 0.000000 0.000000 255 255 255 1.000000
0.168177 -0.637571 0.385688 0.000000 -0.000000 1.000000 255 255 255 1.000000
0.355449 0.644446 0.385688 0.000000 -0.000000 1.000000 255 255 255 1.000000
-0.502041 0.225376 0.117711 -1.000000 0.000000 0.000000 255 255 255 1.000000
0.051696 -0.771064 -0.191468 0.000000 1.000000 0.000000 255 255 255 1.000000
-0.354272 -0.370316 -0.477878 0.000000 0.000000 -1.000000 255 255 255 1.000000
0.373032 0.319368 -0.477878 0.000000 0.000000 -1.000000 255 255 255 1.000000
-0.052782 -0.771064 0.426849 0.000000 -1.000000 -0.000000 255 255 255 1.000000
0.437204 -0.316602 0.385688 0.000000 0.000000 -1.000000 255 255 255 1.000000
0.349073 -0.771064 -0.345041 0.000000 1.000000 0.000000 255 255 255 1.000000
0.302769 -0.633677 0.385688 0.000000 -0.000000 1.000000 255 255 255 1.000000
0.300591 -0.336572 -0.477878 0.000000 -0.000000 1.000000 255 255 255 1.000000
-0.465592 -0.813519 0.395102 0.000000 1.000000 0.000000 255 255 255 1.000000
0.175626 -0.442829 -0.477878 0.000000 0.000000 -1.000000 255 255 255 1.000000
0.060615 0.407483 0.428143 0.000000 0.000000 -1.000000 255 255 255 1.000000
0.512024 0.646101 -0.170205 -0.967804 -0.251704 -0.000000 255 255 255 1.000000
-0.443430 0.505594 -0.477878 0.000000 -0.000000 1.000000 255 255 255 1.000000
-0.420870 -0.530068 0.428143 0.000000 0.000000 -1.000000 255 255 255 1.000000
0.368610 -0.283403 -0.477878 0.000000 0.000000 -1.000000 255 255 255 1.000000
0.012357 0.612937 -0.477878 0.000000 -0.000000 1.000000 255 255 255 1.000000
-0.336224 0.396359 0.428143 0.000000 0.000000 -1.000000 255 255 255 1.000000
0.034658 0.757308 -0.042928 0.000000 1.000000 0.000000 255 255 255 1.000000
-0.035416 -0.554362 0.389550 1.000000 0.000000 0.000000 255 255 255 1.000000
0.007416 -0.623330 0.410264 1.000000 0.000000 0.000000 255 255 255 1.000000
-0.035416 -0.450702 0.398549 1.000000 0.000000 0.000000 255 255 255 1.000000
0.516874 0.126296 -0.372997 -1.000000 0.000000 0.000000 255 255 255 1.000000
-0.470772 -0.670466 0.385688 0.000000 0.000000 -1.000000 255 255 255 1.000000
0.073627 -0.172000 -0.477878 0.000000 0.000000 -1.000000 255 255 255 1.000000
0.516874 0.606032 -0.243600 1.000000 0.000000 0.000000 255 255 255 1.000000
-0.284252 -0.692086 0.385688 0.000000 -0.000000 1.000000 255 255 255 1.000000
-0.487070 0.673002 -0.296911 -0.901135 0.433538 0.000000 255 255 255 1.000000
0.432698 -0.400194 0.428143 0.000000 -0.000000 1.000000 255 255 255 1.000000
-0.446672 0.724177 -0.207778 -0.628200 0.778052 0.000000 255 255 255 1.000000
-0.200957 0.310241 -0.477878 0.000000 0.000000 -1.000000 255 255 255 1.000000
-0.289920 0.164571 0.385688 0.000000 -0.000000 1.000000 255 255 255 1.000000
0.492343 0.689932 0.390265 0.836663 0.547718 0.000000 255 255 255 1.000000
-0.502041 -0.009187 -0.020540 -1.000000 0.000000 0.000000 255 255 255 1.000000
-0.253885 -0.596018 0.428143 0.000000 0.000000 -1.000000 255 255 255 1.000000
0.495212 0.573285 0.385688 0.000000 -0.000000 1.000000 255 255 255 1.000000
0.516874 -0.075914 0.356623 1.000000 0.000000 0.000000 255 255 255 1.000000
0.516874 -0.737661 -0.233687 1.000000 0.000000 0.000000 255 255 255 1.000000
0.010237 -0.711286 0.428143 0.000000 -0.000000 1.000000 255 255 255 1.000000
0.090214 0.007994 0.428143 0.000000 -0.000000 1.000000 255 255 255 1.000000
0.006671 0.757308 -0.364458 0.000000 -1.000000 -0.000000 255 255 255 1.000000
0.516874 -0.554553 0.096662 1.000000 0.000000 0.000000 255 255 255 1.000000
0.156510 -0.666767 0.428143 0.000000 -0.000000 1.000000 255 255 255 1.000000
-0.502041 0.260226 -0.130372 -1.000000 0.000000 0.000000 255 255 255 1.000000
0.427730 -0.496702 0.385688 0.000000 -0.000000 1.000000 255 255 255 1.000000
-0.447614 0.723351 0.058365 -0.634742 0.772724 0.000000 255 255 255 1.000000
0.266277 -0.771064 0.252831 0.000000 -1.000000 -0.000000 255 255 255 1.000000
0.471113 0.213866 -0.477878 0.000000 -0.000000 1.000000 255 255 255 1.000000
0.070027 0.757308 -0.293545 0.000000 -1.000000 -0.000000 255 255 255 1.000000
-0.216663 0.757308 0.062170 0.000000 -1.000000 -0.000000 255 255 255 1.000000
0.481193 -0.745631 0.428143 0.000000 0.000000 -1.000000 255 255 255 1.000000
0.516874 -0.528024 0.255892 -1.000000 0.000000 0.000000 255 255 255 1.000000
-0.502041 -0.327730 0.379678 -1.000000 0.000000 0.000000 255 255 255 1.000000
0.066961 0.197324 0.428143 0.000000 -0.000000 1.000000 255 255 255 1.000000
0.288029 -0.672043 0.385688 0.000000 -0.000000 1.000000 255 255 255 1.000000
0.516874 -0.320883 0.414377 1.000000 0.000000 0.000000 255 255 255 1.000000
0.367725 -0.656334 0.428143 0.000000 -0.000000 1.000000 255 255 255 1.000000
-0.457842 0.677820 -0.477878 0.000000 -0.000000 1.000000 255 255 255 1.000000
0.284484 -0.771064 0.273038 0.000000 1.000000 0.000000 255 255 255 1.000000
-0.502041 0.328889 -0.111977 -1.000000 0.000000 0.000000 255 255 255 1.000000
0.516874 -0.743974 0.122914 1.000000 0.000000 0.000000 255 255 255 1.000000
-0.153010 0.572329 -0.477878 0.000000 0.000000 -1.000000 255 255 255 1.000000
0.087716 -0.592562 0.385688 0.000000 0.000000 -1.000000 255 255 255 1.000000
-0.012080 -0.524758 -0.477878 0.000000 -0.000000 1.000000 255 255 255 1.000000
0.055502 0.757308 0.367676 0.000000 -1.000000 -0.000000 255 255 255 1.000000
-0.502041 0.301295 0.414203 -1.000000 0.000000 0.000000 255 255 255 1.000000
0.081257 -0.771064 -0.119521 0.000000 1.000000 0.000000 255 255 255 1.000000
-0.057486 0.514595 0.428143 0.000000 0.000000 -1.000000 255 255 255 1.000000
-0.489370 0.668339 0.166022 -0.915768 0.401709 0.000000 255 255 255 1.000000
0.148167 0.280680 -0.477878 0.000000 -0.000000 1.000000 255 255 255 1.000000
0.060433 0.757308 0.070703 0.000000 -1.000000 -0.000000 255 255 255 1.000000
-0.170615 -0.460905 0.385688 0.000000 0.000000 -1.000000 255 255 255 1.000000
-0.502041 -0.152435 -0.132697 -1.000000 0.000000 0.000000 255 255 255 1.000000
0.514709 -0.268795 -0.477878 0.000000 0.000000 -1.000000 255 255 255 1.000000
0.516874 -0.284178 0.291374 -1.000000 0.000000 0.000000 255 255 255 1.000000
-0.455809 0.423589 0.385688 0.000000 0.000000 -1.000000 255 255 255 1.000000
0.453401 0.342982 0.428143 0.000000 0.000000 -1.000000 255 255 255 1.000000
-0.502041 -0.314520 -0.230426 1.000000 0.000000 0.000000 255 255 255 1.000000
0.455764 0.728590 -0.059721 -0.589498 -0.807770 -0.000000 255 255 255 1.000000
0.516874 0.093150 -0.092207 -1.000000 0.000000 0.000000 255 255 255 1.000000
0.112748 0.416576 0.385688 0.000000 -0.000000 1.000000 255 255 255 1.000000
-0.422769 0.654784 0.385688 0.000000 0.000000 -1.000000 255 255 255 1.000000
0.293153 0.757308 0.271531 0.000000 1.000000 0.000000 255 255 255 1.000000
-0.302203 -0.159686 0.385688 0.000000 -0.000000 1.000000 255 255 255 1.000000
-0.105774 0.217509 -0.477878 0.000000 -0.000000 1.000000 255 255 255 1.000000
-0.373220 -0.771064 -0.149885 0.000000 -1.000000 -0.000000 255 255 255 1.000000
0.516874 -0.759363 -0.088120 1.000000 0.000000 0.000000 255 255 255 1.000000
-0.318570 0.757308 -0.286168 0.000000 -1.000000 -0.000000 255 255 255 1.000000
0.207192 0.225626 0.385688 0.000000 0.000000 -1.000000 255 255 255 1.000000
0.503575 0.669611 -0.035106 -0.911891 -0.410432 -0.000000 255 255 255 1.000000
0.451460 0.731466 -0.191381 -0.560966 -0.827839 -0.000000 255 255 255 1.000000
0.118770 -0.771064 -0.285565 0.000000 -1.000000 -0.000000 255 255 255 1.000000
-0.253089 -0.749868 0.385688 0.000000 0.000000 -1.000000 255 255 255 1.000000
-0.449889 0.721356 -0.247187 -0.650368 0.759620 0.000000 255 255 255 1.000000
0.131063 0.246606 0.385688 0.000000 -0.000000 1.000000 255 255 255 1.000000
0.177302 0.757308 -0.178685 0.000000 -1.000000 -0.000000 255 255 255 1.000000
0.141719 -0.513883 0.428143 0.000000 -0.000000 1.000000 255 255 255 1.000000
0.367043 -0.453128 0.428143 0.000000 0.000000 -1.000000 255 255 255 1.000000
-0.114100 0.340203 -0.477878 0.000000 0.000000 -1.000000 255 255 255 1.000000
0.080642 -0.771064 -0.385895 0.000000 1.000000 0.000000 255 255 255 1.000000
0.341173 -0.771064 -0.427484 0.000000 1.000000 0.000000 255 255 255 1.000000
-0.502041 -0.338277 0.125549 -1.000000 0.000000 0.000000 255 255 255 1.000000
0.342582 0.253775 0.428143 0.000000 0.000000 -1.000000 255 255 255 1.000000
0.230489 -0.655281 -0.477878 0.000000 0.000000 -1.000000 255 255 255 1.000000
0.326207 -0.771064 -0.008612 0.000000 1.000000 0.000000 255 255 255 1.000000
0.007416 0.331859 0.414836 -1.000000 0.000000 0.000000 255 255 255 1.000000
-0.381696 -0.552327 0.428143 0.000000 -0.000000 1.000000 255 255 255 1.000000
0.403240 -0.771064 0.274977 0.000000 1.000000 0.000000 255 255 255 1.000000
0.516874 -0.395506 -0.063164 -1.000000 0.000000 0.000000 255 255 255 1.000000
0.516874 -0.591732 -0.017311 1.000000 0.000000 0.000000 255 255 255 1.000000
0.486329 -0.771064 0.370698 0.000000 1.000000 0.000000 255 255 255 1.000000
-0.176407 -0.243426 0.385688 0.000000 -0.000000 1.000000 255 255 255 1.000000
0.002146 0.757308 -0.216533 0.000000 -1.000000 -0.000000 255 255 255 1.000000
0.263506 -0.332735 0.428143 0.000000 0.000000 -1.000000 255 255 255 1.000000
-0.485943 0.385158 0.385688 0.000000 0.000000 -1.000000 255 255 255 1.000000
-0.178627 -0.130212 0.385688 0.000000 0.000000 -1.000000 255 255 255 1.000000
-0.502041 0.053644 0.247762 1.000000 0.000000 0.000000 255 255 255 1.000000
-0.426228 0.738149 0.236371 -0.490121 0.871654 0.000000 255 255 255 1.000000
-0.377463 0.745677 -0.477878 0.000000 -0.000000 1.000000 255 255 255 1.000000
0.516874 0.576254 0.101268 -1.000000 0.000000 0.000000 255 255 255 1.000000
-0.454919 0.533932 0.385688 0.000000 0.000000 -1.000000 255 255 255 1.000000
0.516874 -0.236161 -0.436971 1.000000 0.000000 0.000000 255 255 255 1.000000
0.272666 -0.771064 0.301424 0.000000 1.000000 0.000000 255 255 255 1.000000
-0.149377 -0.771064 -0.288428 0.000000 -1.000000 -0.000000 255 255 255 1.000000
-0.442434 -0.793932 0.314222 0.123531 0.000000 -0.992341 0 0 0 1.000000
0.043191 0.466855 -0.477878 0.000000 -0.000000 1.000000 255 255 255 1.000000
0.255294 -0.148565 0.385688 0.000000 0.000000 -1.000000 255 255 255 1.000000
0.248938 -0.771064 -0.379105 0.000000 -1.000000 -0.000000 255 255 255 1.000000
0.516874 0.290053 -0.324587 1.000000 0.000000 0.000000 255 255 255 1.000000
-0.269420 0.257916 0.428143 0.000000 -0.000000 1.000000 255 255 255 1.000000
0.491140 0.102708 -0.477878 0.000000 -0.000000 1.000000 255 255 255 1.000000
-0.130983 -0.593671 0.428143 0.000000 0.000000 -1.000000 255 255 255 1.000000
-0.196989 -0.746505 0.428143 0.000000 0.000000 -1.000000 255 255 255 1.000000
0.137911 0.426411 0.385688 0.000000 0.000000 -1.000000 255 255 255 1.000000
0.205296 0.741336 -0.477878 0.000000 -0.000000 1.000000 255 255 255 1.000000
0.492616 -0.796163 0.322575 -0.560629 -0.000000 0.828067 255 255 255 1.000000
-0.502041 -0.681644 -0.352951 1.000000 0.000000 0.000000 255 255 255 1.000000
0.505824 0.493703 0.385688 0.000000 0.000000 -1.000000 255 255 255 1.000000
-0.120557 0.757308 -0.190850 0.000000 -1.000000 -0.000000 255 255 255 1.000000
-0.502041 -0.042600 0.270105 -1.000000 0.000000 0.000000 255 255 255 1.000000
0.516874 0.441575 -0.001426 -1.000000 0.000000 0.000000 255 255 255 1.000000
0.253775 -0.712006 0.428143 0.000000 0.000000 -1.000000 255 255 255 1.000000
0.406851 0.317629 -0.477878 0.000000 0.000000 -1.000000 255 255 255 1.000000
-0.304302 -0.706927 -0.477878 0.000000 0.000000 -1.000000 255 255 255 1.000000
0.205705 0.305371 0.385688 0.000000 0.000000 -1.000000 255 255 255 1.000000
0.114952 -0.171248 0.428143 0.000000 -0.000000 1.000000 255 255 255 1.000000
-0.402923 -0.129891 -0.477878 0.000000 -0.000000 1.000000 255 255 255 1.000000
0.516874 0.032898 0.395886 -1.000000 0.000000 0.000000 255 255 255 1.000000
-0.502041 -0.426702 -0.026392 1.000000 0.000000 0.000000 255 255 255 1.000000
-0.502041 -0.231021 -0.209951 1.000000 0.000000 0.000000 255 255 255 1.000000
0.131695 -0.771064 -0.318684 0.000000 1.000000 0.000000 255 255 255 1.000000
0.516874 -0.422809 -0.238794 1.000000 0.000000 0.000000 255 255 255 1.000000
0.480432 -0.353179 0.428143 0.000000 0.000000 -1.000000 255 255 255 1.000000
0.516874 0.103475 0.244061 1.000000 0.000000 0.000000 255 255 255 1.000000
0.297721 0.757308 0.068060 0.000000 -1.000000 -0.000000 255 255 255 1.000000
-0.019887 -0.375556 0.385688 0.000000 0.000000 -1.000000 255 255 255 1.000000
0.516874 -0.065394 -0.278375 1.000000 0.000000 0.000000 255 255 255 1.000000
-0.319432 -0.442098 0.428143 0.000000 0.000000 -1.000000 255 255 255 1.000000
-0.456593 -0.047098 0.428143 0.000000 -0.000000 1.000000 255 255 255 1.000000
0.083477 0.524787 0.428143 0.000000 0.000000 -1.000000 255 255 255 1.000000
0.516874 -0.022827 -0.324956 1.000000 0.000000 0.000000 255 255 255 1.000000
0.243935 -0.635233 -0.477878 0.000000 0.000000 -1.000000 255 255 255 1.000000
-0.219855 0.757308 0.118896 0.000000 -1.000000 -0.000000 255 255 255 1.000000
0.102940 -0.116935 0.385688 0.000000 0.000000 -1.000000 255 255 255 1.000000
-0.056303 -0.389317 0.428143 0.000000 -0.000000 1.000000 255 255 255 1.000000
-0.107217 0.116340 -0.477878 0.000000 -0.000000 1.000000 255 255 255 1.000000
-0.499757 -0.347668 0.428143 0.000000 -0.000000 1.000000 255 255 255 1.000000
0.516874 -0.572166 0.014361 -1.000000 0.000000 0.000000 255 255 255 1.000000
-0.237028 -0.618656 0.385688 0.000000 0.000000 -1.000000 255 255 255 1.000000
-0.380386 -0.591645 0.385688 0.000000 0.000000 -1.000000 255 255 255 1.000000
-0.502041 -0.542133 0.210227 -1.000000 0.000000 0.000000 255 255 255 1.000000
0.516874 -0.686178 -0.411461 -1.000000 0.000000 0.000000 255 255 255 1.000000
0.053187 0.650584 -0.477878 0.000000 -0.000000 1.000000 255 255 255 1.000000
0.318377 -0.771064 -0.397191 0.000000 -1.000000 -0.000000 255 255 255 1.000000
-0.395823 0.750916 -0.041867 -0.285574 0.958357 0.000000 255 255 255 1.000000
0.516874 -0.007770 -0.359613 1.000000 0.000000 0.000000 255 255 255 1.000000
0.360819 -0.771064 0.349460 0.000000 1.000000 0.000000 255 255 255 1.000000
0.240573 -0.605350 0.428143 0.000000 -0.000000 1.000000 255 255 255 1.000000
0.319403 0.757308 0.038507 0.000000 1.000000 0.000000 255 255 255 1.000000
-0.469966 0.653923 0.428143 0.000000 0.000000 -1.000000 255 255 255 1.000000
0.462889 -0.486446 -0.477878 0.000000 -0.000000 1.000000 255 255 255 1.000000
-0.123634 -0.575597 -0.477878 0.000000 0.000000 -1.000000 255 255 255 1.000000
0.146395 0.757308 -0.302762 0.000000 1.000000 0.000000 255 255 255 1.000000
-0.502041 -0.317018 -0.175521 -1.000000 0.000000 0.000000 255 255 255 1.000000
0.484391 0.483776 -0.477878 0.000000 0.000000 -1.000000 255 255 255 1.000000
-0.350976 0.306693 -0.477878 0.000000 0.000000 -1.000000 255 255 255 1.000000
0.373087 -0.618091 -0.477878 0.000000 -0.000000 1.000000 255 255 255 1.000000
0.516874 -0.622601 0.141041 1.000000 0.000000 0.000000 255 255 255 1.000000
-0.093417 0.069542 0.428143 0.000000 0.000000 -1.000000 255 255 255 1.000000
-0.407596 0.505106 -0.477878 0.000000 0.000000 -1.000000 255 255 255 1.000000
0.516874 0.235046 0.124975 -1.000000 0.000000 0.000000 255 255 255 1.000000
-0.344538 -0.324911 0.385688 0.000000 -0.000000 1.000000 255 255 255 1.000000
-0.502041 -0.639813 -0.328076 1.000000 0.000000 0.000000 255 255 255 1.000000
0.503711 0.669334 0.096304 0.912741 0.408539 0.000000 255 255 255 1.000000
0.007416 0.420963 0.427360 1.000000 0.000000 0.000000 255 255 255 1.000000
0.516874 0.391834 -0.382620 1.000000 0.000000 0.000000 255 255 255 1.000000
-0.423934 -0.202329 0.385688 0.000000 0.000000 -1.000000 255 255 255 1.000000
0.394626 -0.237014 0.428143 0.000000 -0.000000 1.000000 255 255 255 1.000000
0.516874 0.115979 0.355245 -1.000000 0.000000 0.000000 255 255 255 1.000000
-0.385219 -0.272767 -0.477878 0.000000 0.000000 -1.000000 255 255 255 1.000000
-0.502041 0.551747 -0.373810 -1.000000 0.000000 0.000000 255 255 255 1.000000
-0.394791 0.646140 0.428143 0.000000 0.000000 -1.000000 255 255 255 1.000000
-0.330040 -0.751245 0.428143 0.000000 -0.000000 1.000000 255 255 255 1.000000
0.247310 -0.771064 -0.301318 0.000000 -1.000000 -0.000000 255 255 255 1.000000
0.007416 -0.403613 0.403468 -1.000000 0.000000 0.000000 255 255 255 1.000000
-0.502041 -0.535916 -0.449504 1.000000 0.000000 0.000000 255 255 255 1.000000
-0.159028 0.675012 -0.477878 0.000000 0.000000 -1.000000 255 255 255 1.000000
0.129291 -0.274804 0.385688 0.000000 -0.000000 1.000000 255 255 255 1.000000
-0.414566 -0.242890 0.385688 0.000000 -0.000000 1.000000 255 255 255 1.000000
0.020912 -0.585503 0.428143 0.000000 0.000000 -1.000000 255 255 255 1.000000
0.516874 0.061669 0.168043 -1.000000 0.000000 0.000000 255 255 255 1.000000
0.157178 0.384434 0.428143 0.000000 -0.000000 1.000000 255 255 255 1.000000
-0.502041 -0.672042 0.383777 -1.000000 0.000000 0.000000 255 255 255 1.000000
0.516874 -0.487255 0.219835 -1.000000 0.000000 0.000000 255 255 255 1.000000
-0.374047 0.370685 0.385688 0.000000 -0.000000 1.000000 255 255 255 1.000000
0.028491 0.717688 0.428143 0.000000 -0.000000 1.000000 255 255 255 1.000000
0.433643 -0.771064 0.230290 0.000000 -1.000000 -0.000000 255 255 255 1.000000
0.516874 -0.755395 0.146800 -1.000000 0.000000 0.000000 255 255 255 1.000000
0.099954 0.757308 0.321487 0.000000 1.000000 0.000000 255 255 255 1.000000
0.471577 -0.023521 0.385688 0.000000 -0.000000 1.000000 255 255 255 1.000000
-0.327046 -0.346685 -0.477878 0.000000 0.000000 -1.000000 255 255 255 1.000000
0.221184 0.420968 -0.477878 0.000000 0.000000 -1.000000 255 255 255 1.000000
-0.502041 -0.360389 0.256138 1.000000 0.000000 0.000000 255 255 255 1.000000
-0.032086 0.228700 0.385688 0.000000 -0.000000 1.000000 255 255 255 1.000000
-0.180109 -0.519856 0.385688 0.000000 -0.000000 1.000000 255 255 255 1.000000
-0.262423 -0.771064 -0.306188 0.000000 -1.000000 -0.000000 255 255 255 1.000000
0.290996 -0.708237 -0.477878 0.000000 0.000000 -1.000000 255 255 255 1.000000
0.516874 -0.233574 -0.359797 1.000000 0.000000 0.000000 255 255 255 1.000000
-0.502041 0.320452 -0.398159 1.000000 0.000000 0.000000 255 255 255 1.000000
0.269737 -0.771064 -0.034050 0.000000 -1.000000 -0.000000 255 255 255 1.000000
-0.456027 0.625474 0.385688 0.000000 0.000000 -1.000000 255 255 255 1.000000
0.041433 -0.718303 -0.477878 0.000000 -0.000000 1.000000 255 255 255 1.000000
-0.410024 0.746096 0.070471 -0.380787 0.924663 0.000000 255 255 255 1.000000
0.404879 0.540946 -0.477878 0.000000 -0.000000 1.000000 255 255 255 1.000000
0.403705 -0.771064 -0.331439 0.000000 -1.000000 -0.000000 255 255 255 1.000000
-0.412054 0.745139 -0.193688 0.394705 -0.918808 -0.000000 255 255 255 1.000000
-0.502041 -0.752058 0.266252 1.000000 0.000000 0.000000 255 255 255 1.000000
-0.424095 -0.813519 0.344527 0.000000 -1.000000 -0.000000 0 0 0 1.000000
0.429108 -0.576233 0.428143 0.000000 0.000000 -1.000000 255 255 255 1.000000
-0.154738 -0.272410 -0.477878 0.000000 -0.000000 1.000000 255 255 255 1.000000
-0.502041 0.357792 0.317703 -1.000000 0.000000 0.000000 255 255 255 1.000000
-0.478441 -0.229118 -0.477878 0.000000 0.000000 -1.000000 255 255 255 1.000000
0.494949 0.186462 0.428143 0.000000 0.000000 -1.000000 255 255 255 1.000000
0.134242 0.506968 0.385688 0.000000 -0.000000 1.000000 255 255 255 1.000000
0.396905 -0.597556 0.428143 0.000000 -0.000000 1.000000 255 255 255 1.000000
-0.502041 0.083457 -0.070454 1.000000 0.000000 0.000000 255 255 255 1.000000
-0.451868 -0.031068 -0.477878 0.000000 -0.000000 1.000000 255 255 255 1.000000
-0.502041 0.565266 -0.218571 1.000000 0.000000 0.000000 255 255 255 1.000000
-0.502041 0.254225 0.266790 1.000000 0.000000 0.000000 255 255 255 1.000000
0.496468 0.134202 0.385688 0.000000 0.000000 -1.000000 255 255 255 1.000000
0.376497 -0.771064 -0.022755 0.000000 1.000000 0.000000 255 255 255 1.000000
-0.502041 -0.759955 0.334901 -1.000000 0.000000 0.000000 255 255 255 1.000000
0.516874 0.495435 -0.121515 1.000000 0.000000 0.000000 255 255 255 1.000000
-0.502041 -0.108808 -0.122474 -1.000000 0.000000 0.000000 255 255 255 1.000000
-0.119274 0.699977 -0.477878 0.000000 0.000000 -1.000000 255 255 255 1.000000
0.193983 -0.262273 -0.477878 0.000000 0.000000 -1.000000 255 255 255 1.000000
-0.193526 -0.771064 -0.189810 0.000000 -1.000000 -0.000000 255 255 255 1.000000
-0.502041 0.364475 -0.430355 1.000000 0.000000 0.000000 255 255 255 1.000000
-0.502041 -0.275152 -0.253501 -1.000000 0.000000 0.000000 255 255 255 1.000000
-0.111328 0.757308 -0.278587 0.000000 1.000000 0.000000 255 255 255 1.000000
0.515224 0.233005 -0.477878 0.000000 -0.000000 1.000000 255 255 255 1.000000
0.147822 -0.090215 -0.477878 0.000000 0.000000 -1.000000 255 255 255 1.000000
0.128227 -0.771064 0.355037 0.000000 -1.000000 -0.000000 255 255 255 1.000000
0.198695 0.133816 0.385688 0.000000 -0.000000 1.000000 255 255 255 1.000000
0.267000 0.757308 -0.353343 0.000000 -1.000000 -0.000000 255 255 255 1.000000
0.386849 0.023597 0.428143 0.000000 0.000000 -1.000000 255 255 255 1.000000
-0.316864 0.757308 0.317742 0.000000 1.000000 0.000000 255 255 255 1.000000
0.516874 -0.652099 -0.017288 1.000000 0.000000 0.000000 255 255 255 1.000000
-0.502041 -0.135222 -0.054926 1.000000 0.000000 0.000000 255 255 255 1.000000
0.328932 0.757308 -0.201446 0.000000 1.000000 0.000000 255 255 255 1.000000
-0.338633 -0.176187 0.385688 0.000000 -0.000000 1.000000 255 255 255 1.000000
0.146324 0.757308 -0.076412 0.000000 -1.000000 -0.000000 255 255 255 1.000000
-0.502041 -0.618316 -0.416176 1.000000 0.000000 0.000000 255 255 255 1.000000
-0.059111 0.274690 0.385688 0.000000 -0.000000 1.000000 255 255 255 1.000000
-0.420316 -0.771064 0.103351 0.000000 1.000000 0.000000 255 255 255 1.000000
-0.251762 0.653164 0.428143 0.000000 -0.000000 1.000000 255 255 255 1.000000
0.329731 -0.771064 -0.045460 0.000000 1.000000 0.000000 255 255 255 1.000000
-0.042313 -0.580102 0.428143 0.000000 -0.000000 1.000000 255 255 255 1.000000
-0.144825 -0.771064 -0.252943 0.000000 1.000000 0.000000 255 255 255 1.000000
0.336990 -0.771064 0.397373 0.000000 1.000000 0.000000 255 255 255 1.000000
0.359481 -0.707356 -0.477878 0.000000 0.000000 -1.000000 255 255 255 1.000000
0.266459 0.100444 0.428143 0.000000 0.000000 -1.000000 255 255 255 1.000000
-0.378939 0.139401 0.385688 0.000000 0.000000 -1.000000 255 255 255 1.000000
0.019823 -0.771064 0.141079 0.000000 -1.000000 -0.000000 255 255 255 1.000000
-0.236598 -0.111469 0.428143 0.000000 -0.000000 1.000000 255 255 255 1.000000
0.368631 -0.755576 0.385688 0.000000 -0.000000 1.000000 255 255 255 1.000000
0.303454 -0.771064 0.166193 0.000000 -1.000000 -0.000000 255 255 255 1.000000
0.516874 -0.604254 -0.296544 1.000000 0.000000 0.000000 255 255 255 1.000000
-0.135445 -0.642108 0.428143 0.000000 0.000000 -1.000000 255 255 255 1.000000
-0.502041 0.526994 0.112650 -1.000000 0.000000 0.000000 255 255 255 1.000000
-0.502041 -0.307399 -0.055979 1.000000 0.000000 0.000000 255 255 255 1.000000
0.397813 -0.771064 -0.250751 0.000000 1.000000 0.000000 255 255 255 1.000000
-0.502041 0.176519 -0.035284 1.000000 0.000000 0.000000 255 255 255 1.000000
0.148179 0.757308 0.090796 0.000000 -1.000000 -0.000000 255 255 255 1.000000
-0.140924 0.757308 0.182343 0.000000 -1.000000 -0.000000 255 255 255 1.000000
0.408475 -0.309646 0.385688 0.000000 -0.000000 1.000000 255 255 255 1.000000
0.315157 -0.771064 -0.334029 0.000000 -1.000000 -0.000000 255 255 255 1.000000
0.455858 -0.771064 -0.148771 0.000000 1.000000 0.000000 255 255 255 1.000000
-0.502041 -0.027744 0.360188 1.000000 0.000000 0.000000 255 255 255 1.000000
0.516874 0.061222 0.307765 -1.000000 0.000000 0.000000 255 255 255 1.000000
-0.502041 -0.708295 0.267576 1.000000 0.000000 0.000000 255 255 255 1.000000
-0.116143 0.534560 0.385688 0.000000 -0.000000 1.000000 255 255 255 1.000000
0.003838 -0.771064 0.274116 0.000000 -1.000000 -0.000000 255 255 255 1.000000
0.516874 0.286434 0.034018 1.000000 0.000000 0.000000 255 255 255 1.000000
0.356489 -0.152759 0.385688 0.000000 0.000000 -1.000000 255 255 255 1.000000
0.095282 -0.032981 0.428143 0.000000 -0.000000 1.000000 255 255 255 1.000000
0.516874 -0.002053 0.021348 1.000000 0.000000 0.000000 255 255 255 1.000000
-0.410450 -0.771064 -0.028480 0.000000 -1.000000 -0.000000 255 255 255 1.000000
-0.502041 -0.375477 0.398223 -1.000000 0.000000 0.000000 255 255 255 1.000000
0.488060 0.223160 0.428143 0.000000 0.000000 -1.000000 255 255 255 1.000000
-0.011692 0.757308 -0.045720 0.000000 1.000000 0.000000 255 255 255 1.000000
-0.200122 -0.750395 -0.477878 0.000000 -0.000000 1.000000 255 255 255 1.000000
0.482855 -0.191107 0.428143 0.000000 0.000000 -1.000000 255 255 255 1.000000
-0.209870 0.046445 0.385688 0.000000 0.000000 -1.000000 255 255 255 1.000000
0.093049 -0.407462 0.428143 0.000000 -0.000000 1.000000 255 255 255 1.000000
0.151380 -0.030338 -0.477878 0.000000 -0.000000 1.000000 255 255 255 1.000000
0.221996 -0.473099 -0.477878 0.000000 -0.000000 1.000000 255 255 255 1.000000
-0.502041 0.229724 0.047179 1.000000 0.000000 0.000000 255 255 255 1.000000
-0.057661 0.066203 0.428143 0.000000 0.000000 -1.000000 255 255 255 1.000000
0.120419 -0.427763 0.428143 0.000000 0.000000 -1.000000 255 255 255 1.000000
-0.502041 -0.088260 -0.375352 1.000000 0.000000 0.000000 255 255 255 1.000000
0.379564 0.756569 0.179009 0.103339 0.994646 0.000000 255 255 255 1.000000
-0.474844 -0.771064 0.241129 0.000000 -1.000000 -0.000000 255 255 255 1.000000
-0.089500 -0.482763 0.385688 0.000000 -0.000000 1.000000 255 255 255 1.000000
0.516874 -0.458392 -0.477527 1.000000 0.000000 0.000000 255 255 255 1.000000
-0.502041 0.231767 0.354898 1.000000 0.000000 0.000000 255 255 255 1.000000
-0.502041 -0.140378 -0.420521 1.000000 0.000000 0.000000 255 255 255 1.000000
-0.502041 -0.369865 0.150788 1.000000 0.000000 0.000000 255 255 255 1.000000
-0.502041 -0.543383 -0.186563 1.000000 0.000000 0.000000 255 255 255 1.000000
0.290704 0.114279 0.428143 0.000000 0.000000 -1.000000 255 255 255 1.000000
0.467471 -0.638374 0.428143 0.000000 0.000000 -1.000000 255 255 255 1.000000
-0.502041 0.127347 -0.071506 -1.000000 0.000000 0.000000 255 255 255 1.000000
-0.483587 -0.196586 0.428143 0.000000 -0.000000 1.000000 255 255 255 1.000000
-0.461064 0.710885 0.042981 -0.725218 0.688520 0.000000 255 255 255 1.000000
-0.502041 0.226487 0.392721 -1.000000 0.000000 0.000000 255 255 255 1.000000
-0.062108 -0.109907 0.428143 0.000000 -0.000000 1.000000 255 255 255 1.000000
0.161220 -0.372927 -0.477878 0.000000 0.000000 -1.000000 255 255 255 1.000000
-0.500283 -0.258209 -0.477878 0.000000 -0.000000 1.000000 255 255 255 1.000000
0.418784 0.522237 0.385688 0.000000 0.000000 -1.000000 255 255 255 1.000000
-0.109955 0.757308 0.052691 0.000000 1.000000 0.000000 255 255 255 1.000000
-0.207360 -0.420619 0.385688 0.000000 -0.000000 1.000000 255 255 255 1.000000
0.452490 -0.205162 0.428143 0.000000 -0.000000 1.000000 255 255 255 1.000000
-0.311123 0.133679 0.428143 0.000000 -0.000000 1.000000 255 255 255 1.000000
-0.100822 -0.328244 0.385688 0.000000 0.000000 -1.000000 255 255 255 1.000000
-0.164677 -0.225449 -0.477878 0.000000 0.000000 -1.000000 255 255 255 1.000000
-0.502041 0.387046 -0.037494 -1.000000 0.000000 0.000000 255 255 255 1.000000
-0.274937 0.166012 0.428143 0.000000 0.000000 -1.000000 255 255 255 1.000000
-0.502041 0.468859 0.312305 -1.000000 0.000000 0.000000 255 255 255 1.000000
0.422936 -0.225839 0.385688 0.000000 -0.000000 1.000000 255 255 255 1.000000
0.014872 -0.094555 0.428143 0.000000 -0.000000 1.000000 255 255 255 1.000000
0.394465 -0.771064 -0.148370 0.000000 -1.000000 -0.000000 255 255 255 1.000000
-0.502041 -0.353456 -0.422559 -1.000000 0.000000 0.000000 255 255 255 1.000000
0.502218 0.331868 -0.477878 0.000000 0.000000 -1.000000 255 255 255 1.000000
-0.106517 -0.129315 0.484841 0.000000 -0.435541 0.900169 153 91 29 1.000000
-0.105758 -0.214669 0.428143 0.000000 0.000000 -1.000000 255 255 255 1.000000
-0.502041 -0.625003 -0.091244 1.000000 0.000000 0.000000 255 255 255 1.000000
-0.340495 0.430454 0.385688 0.000000 0.000000 -1.000000 255 255 255 1.000000
0.495584 0.298833 0.385688 0.000000 0.000000 -1.000000 255 255 255 1.000000
0.516874 0.217290 -0.248995 1.000000 0.000000 0.000000 255 255 255 1.000000
0.041439 0.506865 0.428143 0.000000 0.000000 -1.000000 255 255 255 1.000000
-0.231347 -0.116581 -0.477878 0.000000 0.000000 -1.000000 255 255 255 1.000000
-0.502041 0.461838 -0.456633 -1.000000 0.000000 0.000000 255 255 255 1.000000
-0.488463 0.528442 0.428143 0.000000 0.000000 -1.000000 255 255 255 1.000000
-0.404362 0.236004 0.428143 0.000000 -0.000000 1.000000 255 255 255 1.000000
0.466241 0.525495 0.385688 0.000000 0.000000 -1.000000 255 255 255 1.000000
-0.361507 -0.522742 0.428143 0.000000 0.000000 -1.000000 255 255 255 1.000000
-0.502041 -0.632711 0.398232 -1.000000 0.000000 0.000000 255 255 255 1.000000
-0.085462 -0.569284 -0.477878 0.000000 0.000000 -1.000000 255 255 255 1.000000
0.422668 0.048381 -0.477878 0.000000 0.000000 -1.000000 255 255 255 1.000000
0.472865 0.316063 -0.477878 0.000000 -0.000000 1.000000 255 255 255 1.000000
-0.152214 0.491551 0.428143 0.000000 0.000000 -1.000000 255 255 255 1.000000
-0.460175 0.685347 0.385688 0.000000 -0.000000 1.000000 255 255 255 1.000000
0.299222 -0.480167 0.385688 0.000000 0.000000 -1.000000 255 255 255 1.000000
-0.319758 0.456725 0.428143 0.000000 -0.000000 1.000000 255 255 255 1.000000
-0.460388 -0.452053 0.385688 0.000000 -0.000000 1.000000 255 255 255 1.000000
0.123804 -0.132880 0.385688 0.000000 0.000000 -1.000000 255 255 255 1.000000
0.110171 0.481820 0.428143 0.000000 0.000000 -1.000000 255 255 255 1.000000
0.516874 -0.742409 0.013180 -1.000000 0.000000 0.000000 255 255 255 1.000000
-0.502041 -0.074891 -0.105625 1.000000 0.000000 0.000000 255 255 255 1.000000
-0.432029 -0.564325 0.385688 0.000000 0.000000 -1.000000 255 255 255 1.000000
0.213453 -0.450947 0.428143 0.000000 0.000000 -1.000000 255 255 255 1.000000
0.490969 -0.771064 -0.312633 0.000000 1.000000 0.000000 255 255 255 1.000000
-0.484565 0.678083 -0.117826 -0.883921 0.467637 0.000000 255 255 255 1.000000
0.429775 -0.037931 0.385688 0.000000 0.000000 -1.000000 255 255 255 1.000000
0.516874 0.308259 0.345641 1.000000 0.000000 0.000000 255 255 255 1.000000
-0.502041 0.254254 -0.423231 -1.000000 0.000000 0.000000 255 255 255 1.000000
0.336289 -0.327817 0.428143 0.000000 0.000000 -1.000000 255 255 255 1.000000
-0.502041 0.441680 0.197945 -1.000000 0.000000 0.000000 255 255 255 1.000000
-0.077871 -0.067732 0.487920 1.000000 0.000000 0.000000 153 91 29 1.000000
0.298950 -0.165624 0.428143 0.000000 0.000000 -1.000000 255 255 255 1.000000
-0.421850 -0.198212 0.428143 0.000000 -0.000000 1.000000 255 255 255 1.000000
-0.060323 -0.031091 0.428143 0.000000 -0.000000 1.000000 255 255 255 1.000000
-0.502041 0.489807 0.253083 -1.000000 0.000000 0.000000 255 255 255 1.000000
0.073093 -0.113015 0.455715 0.000000 1.000000 0.000000 255 255 255 1.000000
0.155477 0.201493 0.428143 0.000000 -0.000000 1.000000 255 255 255 1.000000
-0.044086 0.757308 0.330971 0.000000 1.000000 0.000000 255 255 255 1.000000
-0.077390 0.156841 0.428143 0.000000 0.000000 -1.000000 255 255 255 1.000000
-0.139224 0.757308 -0.099498 0.000000 1.000000 0.000000 255 255 255 1.000000
0.007416 0.224343 0.404396 -1.000000 0.000000 0.000000 255 255 255 1.000000
0.516874 0.535490 0.066921 1.000000 0.000000 0.000000 255 255 255 1.000000
-0.184564 0.721191 0.428143 0.000000 -0.000000 1.000000 255 255 255 1.000000
-0.076203 0.544558 0.385688 0.000000 0.000000 -1.000000 255 255 255 1.000000
0.148516 -0.579089 0.385688 0.000000 -0.000000 1.000000 255 255 255 1.000000
0.227239 0.170603 0.385688 0.000000 -0.000000 1.000000 255 255 255 1.000000
0.341442 -0.236031 0.428143 0.000000 0.000000 -1.000000 255 255 255 1.000000
-0.446746 -0.771064 -0.247188 0.000000 1.000000 0.000000 255 255 255 1.000000
