-0.660198 -0.168747 -0.086468 0.300000 0.600000 0.000000
0.587011 0.008808 -0.135274 0.000000 1.000000 0.000000
0.462512 -0.471543 -0.018455 0.500000 0.500000 0.000000
0.029942 -0.489797 0.031071 0.600000 0.300000 0.000000
0.671079 -0.240761 -0.085060 0.500000 0.500000 0.000000
0.044689 0.784411 0.541051 0.300000 0.600000 0.000000
0.719643 -0.484307 0.040790 0.500000 0.500000 0.000000
0.636379 -0.182742 -0.035569 0.500000 0.500000 0.000000
-0.618716 -0.424755 -0.198666 0.000000 0.500000 0.500000
-0.565904 -0.396365 -0.165786 0.000000 0.500000 0.500000
-0.557916 -0.104962 -0.118957 0.000000 0.500000 0.500000
0.668254 -0.166278 -0.110020 0.500000 0.000000 0.500000
-0.663408 -0.487569 -0.135824 0.000000 0.500000 0.500000
0.072524 0.776556 0.454344 0.300000 0.600000 0.000000
-0.926632 0.091404 -0.119504 0.500000 0.500000 0.000000
-0.494196 -0.420251 -0.108055 0.300000 0.600000 0.000000
0.081996 -0.480540 -0.248950 0.600000 0.300000 0.000000
-0.708827 -0.486556 0.001565 0.000000 0.500000 0.500000
0.790524 0.017074 -0.038790 0.000000 1.000000 0.000000
0.131724 -0.489797 -0.031957 0.600000 0.300000 0.000000
-0.558579 -0.414071 0.010003 0.300000 0.600000 0.000000
0.072160 -0.143028 -0.098980 0.300000 0.600000 0.000000
-0.629024 -0.349138 -0.027309 0.300000 0.600000 0.000000
0.698623 -0.412068 -0.030076 0.500000 0.500000 0.000000
-0.566984 -0.337714 -0.038479 0.300000 0.600000 0.000000
-0.600565 -0.077504 -0.031406 0.000000 0.500000 0.500000
0.502216 -0.445067 0.026444 0.500000 0.500000 0.000000
-0.748538 -0.486557 -0.111167 0.000000 0.500000 0.500000
0.578086 0.067891 -0.044608 0.000000 1.000000 0.000000
0.605035 -0.267480 -0.032964 0.500000 0.500000 0.000000
0.642439 -0.340670 -0.033712 0.500000 0.500000 0.000000
0.513251 -0.426418 -0.141277 0.500000 0.500000 0.000000
0.072491 0.687735 0.561383 0.300000 0.600000 0.000000
-0.438804 -0.477585 -0.099211 0.000000 0.500000 0.500000
-0.925285 0.044178 -0.030177 0.500000 0.500000 0.000000
-0.581928 -0.003109 -0.139933 0.500000 0.500000 0.000000
0.073297 0.552873 -0.070545 0.300000 0.600000 0.000000
0.686439 -0.486558 0.030293 0.500000 0.500000 0.000000
0.022026 0.843673 0.087045 0.300000 0.600000 0.000000
0.841357 0.029421 -0.140806 0.000000 1.000000 0.000000
-0.600757 -0.445702 -0.244178 0.000000 0.500000 0.500000
-0.649028 -0.118667 -0.053701 0.300000 0.600000 0.000000
-0.759004 0.016733 -0.039018 0.500000 0.500000 0.000000
-0.042078 -0.158892 -0.133642 0.300000 0.600000 0.000000
0.603434 -0.039173 -0.033276 0.500000 0.500000 0.000000
-0.565855 -0.135531 -0.128274 0.000000 0.500000 0.500000
-0.059249 0.835594 0.230861 0.300000 0.600000 0.000000
-0.071050 -0.489797 -0.073364 0.600000 0.300000 0.000000
-0.081422 -0.426834 -0.185154 0.600000 0.300000 0.000000
-0.558068 -0.299789 -0.119184 0.000000 0.500000 0.500000
-0.549996 -0.159690 -0.103657 0.000000 0.500000 0.500000
-0.788760 0.080349 -0.042692 0.500000 0.500000 0.000000
-0.604914 -0.199108 -0.031418 0.000000 0.500000 0.500000
-0.060511 0.677228 -0.003197 0.300000 0.600000 0.000000
-0.666452 -0.460283 -0.242279 0.000000 0.500000 0.500000
-0.711036 -0.436993 -0.175410 0.000000 0.500000 0.500000
-0.006166 -0.313997 -0.020121 0.300000 0.600000 0.000000
-0.682877 -0.404315 -0.034491 0.300000 0.600000 0.000000
0.069284 -0.433721 -0.213716 0.600000 0.300000 0.000000
-0.630576 -0.142379 -0.136892 0.300000 0.600000 0.000000
0.064220 0.721633 0.077257 0.300000 0.600000 0.000000
0.680445 0.042983 -0.030415 0.000000 1.000000 0.000000
-0.448161 -0.471949 -0.151791 0.000000 0.500000 0.500000
-0.540679 -0.371802 -0.049313 0.300000 0.600000 0.000000
-0.656474 -0.250992 -0.074947 0.000000 0.500000 0.500000
0.027410 0.117484 -0.150434 0.300000 0.600000 0.000000
0.072982 -0.160012 -0.088134 0.300000 0.600000 0.000000
0.626612 -0.437270 0.050778 0.500000 0.500000 0.000000
0.956687 -0.010148 -0.081112 0.000000 1.000000 0.000000
-0.562648 -0.486571 -0.030254 0.000000 0.500000 0.500000
0.072830 -0.489797 -0.076663 0.600000 0.300000 0.000000
-0.044792 -0.092483 -0.043348 0.300000 0.600000 0.000000
-0.007585 0.487083 -0.017122 0.300000 0.600000 0.000000
0.018963 0.484472 0.571044 0.600000 0.000000 0.300000
0.579888 -0.069056 -0.131720 0.500000 0.000000 0.500000
0.029336 0.879850 0.356861 0.300000 0.600000 0.000000
-0.732709 -0.432629 -0.068772 0.000000 0.500000 0.500000
0.072101 0.460548 0.628585 0.600000 0.000000 0.300000
-0.037147 -0.211139 -0.138525 0.300000 0.600000 0.000000
0.641481 -0.109100 -0.038203 0.500000 0.500000 0.000000
0.682687 0.088103 -0.049474 0.000000 1.000000 0.000000
0.021591 0.575537 0.003608 0.300000 0.600000 0.000000
0.026599 0.694830 0.460893 0.300000 0.600000 0.000000
-0.546050 0.042992 -0.089286 0.500000 0.500000 0.000000
-0.658040 -0.020346 -0.095772 0.500000 0.500000 0.000000
0.072646 0.111192 -0.092550 0.300000 0.600000 0.000000
-0.470473 -0.480187 0.010966 0.000000 0.500000 0.500000
-0.892128 -0.011172 -0.086263 0.500000 0.500000 0.000000
0.665115 0.080991 -0.043120 0.000000 1.000000 0.000000
-0.052351 -0.133655 -0.054271 0.300000 0.600000 0.000000
-0.066244 -0.489797 0.036008 0.600000 0.300000 0.000000
0.873323 -0.006183 -0.109982 0.000000 1.000000 0.000000
-0.551187 -0.414448 0.002401 0.000000 0.500000 0.500000
-0.006665 0.671401 -0.097874 0.300000 0.600000 0.000000
0.652674 -0.486544 -0.074645 0.500000 0.500000 0.000000
-0.445844 -0.446658 -0.118006 0.000000 0.500000 0.500000
-0.006394 0.731660 0.156779 0.300000 0.600000 0.000000
0.568169 -0.100494 -0.118717 0.500000 0.000000 0.500000
0.576216 -0.412628 -0.184811 0.500000 0.000000 0.500000
-0.022877 -0.136617 -0.147173 0.300000 0.600000 0.000000
-0.601890 -0.487569 -0.184727 0.000000 0.500000 0.500000
-0.002052 0.275157 -0.153243 0.300000 0.600000 0.000000
0.019772 0.794069 0.008461 0.300000 0.600000 0.000000
-0.911405 0.018239 -0.135907 0.500000 0.500000 0.000000
-0.681604 -0.486556 -0.109616 0.000000 0.500000 0.500000
0.070974 0.245448 -0.103203 0.300000 0.600000 0.000000
-0.655039 -0.105583 -0.068179 0.000000 0.500000 0.500000
0.558545 0.074431 -0.086270 0.000000 1.000000 0.000000
-0.035388 -0.400646 -0.180325 0.600000 0.300000 0.000000
0.072400 0.487384 0.647600 0.600000 0.000000 0.300000
0.561118 -0.308402 -0.105696 0.500000 0.000000 0.500000
-0.556658 0.041249 -0.118875 0.500000 0.500000 0.000000
0.072359 0.124453 -0.077163 0.300000 0.600000 0.000000
0.055473 -0.088716 -0.041074 0.300000 0.600000 0.000000
-0.051676 0.587007 -0.025118 0.300000 0.600000 0.000000
0.996199 0.072681 -0.118764 0.000000 1.000000 0.000000
-0.983378 0.025858 -0.110659 0.500000 0.500000 0.000000
0.740726 0.099768 -0.071238 0.000000 1.000000 0.000000
-0.573024 0.052564 -0.039424 0.500000 0.500000 0.000000
0.566953 0.081521 -0.115095 0.000000 1.000000 0.000000
-0.654316 -0.487569 -0.219902 0.000000 0.500000 0.500000
0.566198 -0.487569 -0.038313 0.500000 0.500000 0.000000
0.482757 -0.463473 0.011862 0.500000 0.500000 0.000000
0.128553 -0.481603 0.043670 0.600000 0.300000 0.000000
-0.553784 -0.241190 -0.112685 0.000000 0.500000 0.500000
0.032637 0.697425 0.627930 0.300000 0.600000 0.000000
0.497778 -0.426290 -0.072785 0.500000 0.500000 0.000000
-0.154226 -0.448840 -0.150242 0.600000 0.300000 0.000000
-0.113042 -0.427012 -0.033715 0.600000 0.300000 0.000000
-0.548926 -0.245108 -0.098614 0.000000 0.500000 0.500000
-0.013834 0.703732 -0.072732 0.300000 0.600000 0.000000
0.719548 -0.477511 -0.216168 0.500000 0.500000 0.000000
0.730197 -0.440425 0.007515 0.500000 0.500000 0.000000
0.636598 -0.401608 0.004436 0.500000 0.000000 0.500000
-0.019999 0.876483 0.365064 0.300000 0.600000 0.000000
-0.614851 -0.404533 -0.180610 0.000000 0.500000 0.500000
-0.578310 -0.249321 -0.136992 0.000000 0.500000 0.500000
0.561702 -0.175373 -0.066782 0.500000 0.000000 0.500000
0.632248 -0.435285 -0.224029 0.500000 0.500000 0.000000
-0.060226 -0.058210 -0.084514 0.300000 0.600000 0.000000
-0.631149 0.094055 -0.058382 0.500000 0.500000 0.000000
-0.646090 -0.100042 -0.122266 0.000000 0.500000 0.500000
0.000907 0.886029 0.339331 0.300000 0.600000 0.000000
-0.548288 -0.179430 -0.104295 0.300000 0.600000 0.000000
0.665469 -0.319026 -0.116140 0.500000 0.000000 0.500000
0.066671 -0.184133 -0.057131 0.300000 0.600000 0.000000
-0.660035 -0.212508 -0.083561 0.300000 0.600000 0.000000
-0.453747 -0.445532 -0.024732 0.000000 0.500000 0.500000
0.686085 -0.458350 -0.238591 0.500000 0.500000 0.000000
0.453537 -0.459213 -0.119769 0.500000 0.500000 0.000000
-0.657589 -0.150159 -0.071006 0.300000 0.600000 0.000000
0.584919 -0.238139 -0.041242 0.500000 0.500000 0.000000
0.766895 -0.461606 -0.019887 0.500000 0.500000 0.000000
-0.045234 0.503965 0.590761 0.600000 0.000000 0.300000
0.697515 -0.485562 -0.215770 0.500000 0.500000 0.000000
0.014275 0.585535 -0.133425 0.300000 0.600000 0.000000
-0.655586 -0.293637 -0.064308 0.300000 0.600000 0.000000
-0.551638 -0.223173 -0.065304 0.000000 0.500000 0.500000
0.567833 -0.142001 -0.058990 0.500000 0.500000 0.000000
0.068489 0.698521 0.037540 0.300000 0.600000 0.000000
0.771151 -0.443690 -0.072818 0.500000 0.500000 0.000000
0.571011 -0.291145 -0.122970 0.500000 0.000000 0.500000
-0.677828 -0.486556 -0.072075 0.000000 0.500000 0.500000
-0.826328 0.066265 -0.033929 0.500000 0.500000 0.000000
0.820446 0.101132 -0.078093 0.000000 1.000000 0.000000
0.071278 0.371129 -0.070280 0.300000 0.600000 0.000000
0.051466 0.639967 0.531729 0.300000 0.600000 0.000000
-0.137157 -0.439972 -0.026627 0.600000 0.300000 0.000000
-0.108238 -0.489797 -0.017916 0.600000 0.300000 0.000000
0.574079 -0.487569 -0.189612 0.500000 0.500000 0.000000
-0.494825 -0.486556 -0.185308 0.000000 0.500000 0.500000
0.774803 -0.464964 -0.132808 0.500000 0.500000 0.000000
-0.666873 -0.376394 -0.051338 0.000000 0.500000 0.500000
-0.018785 0.758223 0.316136 0.300000 0.600000 0.000000
-0.564894 -0.486556 -0.173956 0.000000 0.500000 0.500000
0.550947 -0.447096 -0.232888 0.500000 0.500000 0.000000
0.748596 -0.440712 -0.147758 0.500000 0.500000 0.000000
-0.888509 0.072490 -0.136478 0.500000 0.500000 0.000000
0.005677 0.476731 0.705282 0.600000 0.000000 0.300000
-0.604196 -0.323434 -0.143737 0.000000 0.500000 0.500000
0.729428 -0.487569 -0.077620 0.500000 0.500000 0.000000
-0.041611 -0.100220 -0.134105 0.300000 0.600000 0.000000
-0.547724 -0.407180 -0.168379 0.300000 0.600000 0.000000
0.663594 -0.042980 -0.056523 0.500000 0.000000 0.500000
-0.033072 0.353455 -0.032587 0.300000 0.600000 0.000000
-0.054225 0.515860 0.661326 0.600000 0.000000 0.300000
0.996199 0.055427 -0.070777 0.000000 1.000000 0.000000
0.070881 0.707507 0.560839 0.300000 0.600000 0.000000
0.566767 -0.074817 -0.060284 0.500000 0.500000 0.000000
-0.657237 -0.178528 -0.078875 0.000000 0.500000 0.500000
-0.036526 -0.024276 -0.035175 0.300000 0.600000 0.000000
0.571025 0.009445 -0.052730 0.000000 1.000000 0.000000
0.072445 -0.318861 -0.105342 0.300000 0.600000 0.000000
0.733293 -0.475294 0.032771 0.500000 0.500000 0.000000
0.070093 0.686946 -0.033237 0.300000 0.600000 0.000000
-0.690733 -0.448088 0.044525 0.000000 0.500000 0.500000
-0.038286 0.460114 -0.136859 0.300000 0.600000 0.000000
0.577430 -0.174072 -0.127445 0.500000 0.500000 0.000000
-0.776748 0.100161 -0.073215 0.500000 0.500000 0.000000
-0.649795 -0.211937 -0.119070 0.300000 0.600000 0.000000
0.666741 -0.128530 -0.065718 0.500000 0.500000 0.000000
-0.759566 -0.448467 -0.041854 0.000000 0.500000 0.500000
0.610584 -0.487569 -0.086223 0.500000 0.500000 0.000000
0.570789 -0.394789 -0.011742 0.500000 0.000000 0.500000
0.524842 -0.420116 -0.145967 0.500000 0.500000 0.000000
-0.586380 -0.019354 -0.033100 0.500000 0.500000 0.000000
0.061610 0.440257 0.603767 0.600000 0.000000 0.300000
-0.006115 0.368623 -0.021163 0.300000 0.600000 0.000000
-0.765114 -0.461110 -0.061343 0.000000 0.500000 0.500000
-0.640006 -0.019004 -0.129383 0.500000 0.500000 0.000000
0.891493 -0.002115 -0.057849 0.000000 1.000000 0.000000
0.001417 0.872077 0.396574 0.300000 0.600000 0.000000
-0.045145 0.566596 -0.115254 0.300000 0.600000 0.000000
-0.046001 0.675496 0.616867 0.300000 0.600000 0.000000
-0.447270 -0.458787 -0.032473 0.000000 0.500000 0.500000
0.661478 -0.151447 -0.120611 0.500000 0.000000 0.500000
-0.602000 0.094500 -0.114872 0.500000 0.500000 0.000000
0.601145 -0.487569 0.024414 0.500000 0.500000 0.000000
-0.437278 -0.470205 -0.090797 0.000000 0.500000 0.500000
-0.056616 -0.320205 -0.114600 0.300000 0.600000 0.000000
0.628162 -0.191950 -0.140597 0.500000 0.500000 0.000000
0.029656 0.552979 0.559037 0.300000 0.600000 0.000000
0.034987 0.314782 -0.026621 0.300000 0.600000 0.000000
0.100933 -0.489797 -0.193574 0.600000 0.300000 0.000000
0.561330 -0.127166 -0.077421 0.500000 0.500000 0.000000
0.740657 -0.485997 -0.049447 0.500000 0.500000 0.000000
0.677720 -0.360883 -0.060109 0.500000 0.500000 0.000000
0.628861 -0.006113 -0.141407 0.000000 1.000000 0.000000
-0.904223 0.070251 -0.137974 0.500000 0.500000 0.000000
0.036366 -0.062373 -0.027239 0.300000 0.600000 0.000000
-0.565408 -0.027300 -0.120220 0.500000 0.500000 0.000000
-0.563865 0.027293 -0.128375 0.500000 0.500000 0.000000
0.735153 -0.425978 -0.091348 0.500000 0.500000 0.000000
0.709811 -0.007850 -0.104360 0.000000 1.000000 0.000000
0.719049 -0.417994 -0.049331 0.500000 0.000000 0.500000
-0.606441 -0.486556 -0.048901 0.000000 0.500000 0.500000
0.669147 -0.486609 -0.124788 0.500000 0.500000 0.000000
-0.651443 -0.147214 -0.116607 0.300000 0.600000 0.000000
0.625555 -0.362440 -0.017934 0.500000 0.000000 0.500000
0.743008 -0.449437 -0.183744 0.500000 0.500000 0.000000
0.564102 -0.200709 -0.112496 0.500000 0.000000 0.500000
0.733913 -0.440413 -0.168794 0.500000 0.500000 0.000000
-0.605809 -0.099367 -0.144282 0.300000 0.600000 0.000000
-0.059058 0.804892 0.228873 0.300000 0.600000 0.000000
0.745773 0.054702 -0.031628 0.000000 1.000000 0.000000
0.565733 -0.442326 0.053948 0.500000 0.500000 0.000000
-0.458758 -0.440752 -0.069389 0.000000 0.500000 0.500000
0.481410 -0.485934 -0.161887 0.500000 0.500000 0.000000
-0.551611 -0.214419 -0.108545 0.000000 0.500000 0.500000
-0.499724 -0.486849 -0.212395 0.000000 0.500000 0.500000
-0.843304 0.032148 -0.032570 0.500000 0.500000 0.000000
-0.459190 -0.439846 -0.059962 0.000000 0.500000 0.500000
-0.673354 -0.372039 -0.108963 0.300000 0.600000 0.000000
-0.623893 -0.043066 -0.138663 0.000000 0.500000 0.500000
0.663612 -0.083962 -0.117084 0.500000 0.000000 0.500000
0.642617 -0.224521 -0.135008 0.500000 0.500000 0.000000
-0.052979 0.823448 0.121473 0.300000 0.600000 0.000000
0.969653 0.007533 -0.128753 0.000000 1.000000 0.000000
-0.527621 -0.380100 -0.091752 0.000000 0.500000 0.500000
0.513808 -0.414439 -0.056791 0.500000 0.000000 0.500000
-0.574629 -0.319920 -0.036347 0.300000 0.600000 0.000000
-0.648198 -0.456089 -0.244345 0.000000 0.500000 0.500000
0.027161 0.604997 0.535257 0.300000 0.600000 0.000000
-0.517985 -0.487569 -0.043745 0.000000 0.500000 0.500000
0.996199 0.016852 -0.061325 0.000000 1.000000 0.000000
-0.588355 -0.284914 -0.141223 0.000000 0.500000 0.500000
0.746652 -0.463671 0.013555 0.500000 0.500000 0.000000
-0.647298 -0.487569 -0.113912 0.000000 0.500000 0.500000
0.051598 0.292535 -0.136452 0.300000 0.600000 0.000000
0.564874 -0.149284 -0.064333 0.500000 0.500000 0.000000
-0.004024 -0.231053 -0.153129 0.300000 0.600000 0.000000
0.990473 0.076418 -0.133853 0.000000 1.000000 0.000000
-0.660124 -0.418476 0.002930 0.000000 0.500000 0.500000
-0.518243 -0.425438 -0.009038 0.000000 0.500000 0.500000
-0.646780 -0.486556 -0.182480 0.000000 0.500000 0.500000
-0.023428 0.619762 0.530693 0.300000 0.600000 0.000000
0.057205 0.771191 0.205557 0.300000 0.600000 0.000000
0.072130 0.820961 0.161209 0.300000 0.600000 0.000000
0.048674 0.266341 -0.035080 0.300000 0.600000 0.000000
-0.008795 0.550512 -0.141210 0.300000 0.600000 0.000000
-0.698194 0.027596 -0.033476 0.500000 0.500000 0.000000
0.073311 0.608654 -0.056529 0.300000 0.600000 0.000000
0.665950 -0.272671 -0.063912 0.500000 0.500000 0.000000
0.690887 -0.452533 0.056879 0.500000 0.500000 0.000000
0.649630 -0.487569 -0.002144 0.500000 0.500000 0.000000
0.490846 -0.487569 -0.062323 0.500000 0.500000 0.000000
-0.741044 -0.461166 0.001006 0.000000 0.500000 0.500000
0.683320 -0.364998 -0.075565 0.500000 0.500000 0.000000
-0.559648 0.088483 -0.123351 0.500000 0.500000 0.000000
0.563987 -0.135805 -0.112290 0.500000 0.000000 0.500000
-0.060151 -0.204321 -0.088688 0.300000 0.600000 0.000000
-0.517535 -0.411462 -0.139804 0.000000 0.500000 0.500000
0.565467 -0.169005 -0.114674 0.500000 0.000000 0.500000
-0.015214 -0.472929 0.089666 0.600000 0.300000 0.000000
0.070888 0.787071 0.166022 0.300000 0.600000 0.000000
0.929084 0.045877 -0.144045 0.000000 1.000000 0.000000
0.615642 -0.167261 -0.144492 0.500000 0.000000 0.500000
-0.018865 -0.489794 0.070072 0.600000 0.300000 0.000000
-0.036336 0.785140 0.533779 0.300000 0.600000 0.000000
-0.574948 -0.168922 -0.037139 0.300000 0.600000 0.000000
0.624544 -0.225196 -0.143263 0.500000 0.000000 0.500000
0.771547 -0.484092 -0.143155 0.500000 0.500000 0.000000
-0.480984 -0.480645 0.022367 0.000000 0.500000 0.500000
-0.055039 -0.150437 -0.114128 0.300000 0.600000 0.000000
-0.607028 -0.212346 -0.144223 0.300000 0.600000 0.000000
-0.007402 0.822316 0.043421 0.300000 0.600000 0.000000
-0.611352 0.024574 -0.142339 0.500000 0.500000 0.000000
0.989438 -0.009526 -0.077988 0.000000 1.000000 0.000000
0.072850 0.182120 -0.087739 0.300000 0.600000 0.000000
0.588361 -0.372337 -0.153912 0.500000 0.500000 0.000000
0.656506 -0.485750 0.042027 0.500000 0.500000 0.000000
-0.633834 -0.224678 -0.040308 0.300000 0.600000 0.000000
-0.816157 -0.008916 -0.074918 0.500000 0.500000 0.000000
-0.629502 -0.415215 -0.188121 0.000000 0.500000 0.500000
0.506849 -0.487569 -0.151987 0.500000 0.500000 0.000000
0.057507 0.363641 -0.130136 0.300000 0.600000 0.000000
-0.042823 0.305194 -0.132905 0.300000 0.600000 0.000000
-0.551012 -0.487569 0.008142 0.000000 0.500000 0.500000
0.769893 -0.449242 -0.131656 0.500000 0.500000 0.000000
-0.019605 -0.215851 -0.025463 0.300000 0.600000 0.000000
0.993782 0.047819 -0.143031 0.000000 1.000000 0.000000
0.720919 0.087538 -0.048628 0.000000 1.000000 0.000000
-0.129201 -0.489797 -0.015925 0.600000 0.300000 0.000000
-0.032635 0.487247 -0.138734 0.300000 0.600000 0.000000
-0.057016 0.707065 0.566667 0.300000 0.600000 0.000000
0.032486 0.608945 0.672854 0.300000 0.600000 0.000000
0.643525 -0.486208 0.034713 0.500000 0.500000 0.000000
0.602436 0.006664 -0.141462 0.000000 1.000000 0.000000
-0.610366 -0.293482 -0.032405 0.000000 0.500000 0.500000
-0.588522 -0.443693 -0.242062 0.000000 0.500000 0.500000
0.508409 -0.418947 -0.099165 0.500000 0.500000 0.000000
-0.557781 -0.171342 -0.118756 0.000000 0.500000 0.500000
-0.576289 -0.150186 -0.137878 0.300000 0.600000 0.000000
-0.562877 -0.345858 -0.134016 0.000000 0.500000 0.500000
0.065935 0.737676 -0.006313 0.300000 0.600000 0.000000
-0.557009 -0.439074 0.047784 0.000000 0.500000 0.500000
-0.444087 -0.449522 -0.043692 0.000000 0.500000 0.500000
0.075135 -0.346334 -0.111680 0.300000 0.600000 0.000000
0.592642 -0.219959 -0.034145 0.500000 0.000000 0.500000
0.479362 -0.470505 0.006783 0.500000 0.500000 0.000000
0.562160 0.013666 -0.068097 0.000000 1.000000 0.000000
-0.025187 -0.462992 -0.261029 0.600000 0.300000 0.000000
0.818971 -0.010409 -0.082427 0.000000 1.000000 0.000000
-0.442868 -0.446620 -0.073688 0.000000 0.500000 0.500000
0.652501 -0.352200 -0.141196 0.500000 0.000000 0.500000
0.066208 0.837777 0.159307 0.300000 0.600000 0.000000
0.469184 -0.453624 -0.008899 0.500000 0.500000 0.000000
-0.511908 -0.413446 -0.036800 0.300000 0.600000 0.000000
-0.059407 0.260726 -0.098659 0.300000 0.600000 0.000000
-0.596198 -0.061574 -0.032168 0.000000 0.500000 0.500000
0.070192 0.166810 -0.067021 0.300000 0.600000 0.000000
0.559812 -0.032345 -0.092554 0.500000 0.500000 0.000000
0.559893 -0.290930 -0.091885 0.500000 0.500000 0.000000
-0.627359 -0.314368 -0.037021 0.000000 0.500000 0.500000
-0.109712 -0.441133 0.021039 0.600000 0.300000 0.000000
0.591736 -0.446265 0.070219 0.500000 0.500000 0.000000
-0.444257 -0.483631 -0.043930 0.000000 0.500000 0.500000
-0.593376 -0.011407 -0.142210 0.500000 0.500000 0.000000
0.560196 -0.210914 -0.072955 0.500000 0.000000 0.500000
0.514278 -0.487569 -0.011405 0.500000 0.500000 0.000000
0.922143 0.067806 -0.034310 0.000000 1.000000 0.000000
-0.775374 0.071089 -0.137415 0.500000 0.500000 0.000000
0.556049 -0.464901 -0.241387 0.500000 0.500000 0.000000
0.005362 0.549109 0.692560 0.600000 0.000000 0.300000
0.597322 -0.422824 -0.199552 0.500000 0.500000 0.000000
-0.679852 -0.487569 0.042685 0.000000 0.500000 0.500000
0.626933 -0.380974 -0.012806 0.500000 0.500000 0.000000
-0.149219 -0.440022 -0.078290 0.600000 0.300000 0.000000
0.060868 0.659759 0.622656 0.300000 0.600000 0.000000
0.065313 0.271899 -0.118731 0.300000 0.600000 0.000000
0.859899 0.081583 -0.043516 0.000000 1.000000 0.000000
0.068683 0.092093 -0.110966 0.300000 0.600000 0.000000
0.534832 -0.442631 -0.217295 0.500000 0.500000 0.000000
0.066065 0.826037 0.422328 0.300000 0.600000 0.000000
-0.561230 -0.247626 -0.126249 0.300000 0.600000 0.000000
-0.532785 -0.440675 -0.219095 0.000000 0.500000 0.500000
-0.155203 -0.489108 -0.031570 0.600000 0.300000 0.000000
0.675474 -0.487569 -0.138766 0.500000 0.500000 0.000000
-0.460977 -0.464820 -0.003001 0.000000 0.500000 0.500000
-0.655818 -0.234245 -0.072005 0.000000 0.500000 0.500000
-0.747618 -0.485995 -0.049050 0.000000 0.500000 0.500000
0.452571 -0.486461 -0.099613 0.500000 0.500000 0.000000
0.529282 -0.486556 -0.002600 0.500000 0.500000 0.000000
0.647060 -0.075181 -0.041882 0.500000 0.500000 0.000000
-0.004858 0.869164 0.140009 0.300000 0.600000 0.000000
0.536468 -0.486556 -0.080551 0.500000 0.500000 0.000000
0.069398 0.746013 0.091319 0.300000 0.600000 0.000000
0.604854 -0.113328 -0.033000 0.500000 0.500000 0.000000
0.737606 -0.487428 0.011408 0.500000 0.500000 0.000000
-0.626124 -0.337719 -0.031053 0.300000 0.600000 0.000000
-0.058048 0.058793 -0.105379 0.300000 0.600000 0.000000
0.566892 -0.415919 0.008869 0.500000 0.000000 0.500000
0.764187 -0.472813 -0.160779 0.500000 0.500000 0.000000
0.734108 0.061917 -0.140855 0.000000 1.000000 0.000000
0.682708 -0.486174 -0.073379 0.500000 0.500000 0.000000
0.598740 -0.163050 -0.139979 0.500000 0.500000 0.000000
-0.748031 -0.006352 -0.109728 0.500000 0.500000 0.000000
-0.682785 0.099576 -0.103649 0.500000 0.500000 0.000000
0.580082 0.101064 -0.077751 0.000000 1.000000 0.000000
0.180509 -0.484816 -0.073940 0.600000 0.300000 0.000000
0.615634 -0.250388 -0.029425 0.500000 0.000000 0.500000
0.056607 0.251019 -0.042749 0.300000 0.600000 0.000000
0.534179 -0.486557 -0.102458 0.500000 0.500000 0.000000
-0.608061 -0.403537 0.006616 0.000000 0.500000 0.500000
-0.759600 -0.477975 -0.135499 0.000000 0.500000 0.500000
0.467801 -0.459515 -0.159503 0.500000 0.500000 0.000000
0.552272 -0.420768 0.001609 0.500000 0.500000 0.000000
-0.458258 -0.486414 -0.136083 0.000000 0.500000 0.500000
0.071084 0.752446 0.458831 0.300000 0.600000 0.000000
0.631169 -0.040789 -0.141927 0.500000 0.000000 0.500000
-0.547122 -0.167511 -0.088753 0.000000 0.500000 0.500000
-0.049527 0.454954 -0.124087 0.300000 0.600000 0.000000
0.876861 0.065944 -0.033865 0.000000 1.000000 0.000000
0.072630 0.081278 -0.078972 0.300000 0.600000 0.000000
0.996199 0.046184 -0.132919 0.000000 1.000000 0.000000
-0.562640 0.099922 -0.101908 0.500000 0.500000 0.000000
-0.627428 -0.067233 -0.036121 0.300000 0.600000 0.000000
0.072502 -0.194043 -0.097351 0.300000 0.600000 0.000000
-0.566071 -0.443215 -0.234727 0.000000 0.500000 0.500000
-0.057813 0.658014 -0.002840 0.300000 0.600000 0.000000
-0.023890 0.880145 0.226511 0.300000 0.600000 0.000000
0.829945 0.047125 -0.143797 0.000000 1.000000 0.000000
0.009135 0.728942 0.152576 0.300000 0.600000 0.000000
-0.512876 -0.487569 -0.073615 0.000000 0.500000 0.500000
-0.060115 0.298920 -0.080792 0.300000 0.600000 0.000000
-0.498120 -0.430428 -0.151632 0.000000 0.500000 0.500000
-0.608393 -0.444274 0.071025 0.000000 0.500000 0.500000
-0.046924 0.109803 -0.046147 0.300000 0.600000 0.000000
-0.051980 0.766766 0.155180 0.300000 0.600000 0.000000
-0.549673 -0.193444 -0.107834 0.300000 0.600000 0.000000
0.717200 -0.432817 -0.173283 0.500000 0.500000 0.000000
-0.027154 0.666911 0.639047 0.300000 0.600000 0.000000
0.066226 0.490471 -0.052485 0.300000 0.600000 0.000000
0.071859 0.826425 0.362260 0.300000 0.600000 0.000000
-0.657543 -0.056686 -0.077394 0.000000 0.500000 0.500000
0.692141 0.100514 -0.074986 0.000000 1.000000 0.000000
0.667419 -0.150229 -0.106512 0.500000 0.500000 0.000000
0.631388 -0.143382 -0.139907 0.500000 0.500000 0.000000
-0.026246 0.771729 0.558900 0.300000 0.600000 0.000000
0.598916 -0.486113 -0.249801 0.500000 0.500000 0.000000
0.571716 -0.263475 -0.124017 0.500000 0.000000 0.500000
0.590660 -0.058125 -0.035343 0.500000 0.000000 0.500000
-0.656805 -0.088642 -0.074573 0.000000 0.500000 0.500000
-0.059410 0.114523 -0.075061 0.300000 0.600000 0.000000
-0.802873 0.019258 -0.136587 0.500000 0.500000 0.000000
0.073481 0.675815 -0.019078 0.300000 0.600000 0.000000
-0.592866 -0.225020 -0.141576 0.000000 0.500000 0.500000
0.026235 0.862760 0.131915 0.300000 0.600000 0.000000
0.531701 -0.487569 -0.045177 0.500000 0.500000 0.000000
0.120067 -0.436723 0.008666 0.600000 0.300000 0.000000
0.042757 0.848836 0.118390 0.300000 0.600000 0.000000
0.073005 0.298024 -0.084084 0.300000 0.600000 0.000000
-0.678568 -0.410616 -0.021739 0.000000 0.500000 0.500000
0.071213 0.798910 0.211103 0.300000 0.600000 0.000000
-0.617177 -0.370474 -0.158493 0.300000 0.600000 0.000000
-0.516362 -0.445639 0.046597 0.000000 0.500000 0.500000
0.700822 0.063021 -0.033283 0.000000 1.000000 0.000000
0.069227 0.610216 -0.078281 0.300000 0.600000 0.000000
0.911089 0.024274 -0.139782 0.000000 1.000000 0.000000
0.666864 -0.036767 -0.112128 0.500000 0.000000 0.500000
0.712077 -0.450986 0.046587 0.500000 0.500000 0.000000
-0.637356 0.001559 -0.042764 0.500000 0.500000 0.000000
0.608373 -0.191576 -0.141961 0.500000 0.500000 0.000000
-0.740128 -0.486556 -0.104469 0.000000 0.500000 0.500000
0.032079 0.794059 0.014514 0.300000 0.600000 0.000000
-0.565928 -0.105604 -0.045615 0.000000 0.500000 0.500000
-0.803521 0.051503 -0.142926 0.500000 0.500000 0.000000
0.729401 -0.487569 -0.004455 0.500000 0.500000 0.000000
-0.653036 0.064384 -0.033554 0.500000 0.500000 0.000000
0.005594 0.617985 0.524489 0.300000 0.600000 0.000000
0.465395 -0.484540 -0.029938 0.500000 0.500000 0.000000
0.669398 -0.209175 -0.075936 0.500000 0.500000 0.000000
-0.056764 -0.169159 -0.109480 0.300000 0.600000 0.000000
-0.724216 -0.005768 -0.063317 0.500000 0.500000 0.000000
0.518534 -0.412400 -0.117212 0.500000 0.500000 0.000000
0.495082 -0.486557 -0.114488 0.500000 0.500000 0.000000
0.721505 -0.417379 -0.095457 0.500000 0.500000 0.000000
0.653821 -0.233232 -0.129908 0.500000 0.000000 0.500000
0.765428 -0.455425 -0.160017 0.500000 0.500000 0.000000
0.564356 -0.182691 -0.112956 0.500000 0.000000 0.500000
-0.050777 -0.118413 -0.122267 0.300000 0.600000 0.000000
-0.045618 -0.489797 -0.087738 0.600000 0.300000 0.000000
0.015160 0.616841 0.675243 0.300000 0.600000 0.000000
-0.633166 -0.390634 -0.165870 0.300000 0.600000 0.000000
0.007975 0.555444 -0.142323 0.300000 0.600000 0.000000
-0.035118 0.631108 0.652409 0.300000 0.600000 0.000000
0.559785 -0.099041 -0.086625 0.500000 0.500000 0.000000
-0.614865 -0.436513 0.052212 0.000000 0.500000 0.500000
0.595219 -0.008686 -0.033893 0.000000 1.000000 0.000000
-0.969646 0.071215 -0.036588 0.500000 0.500000 0.000000
-0.660983 -0.325812 -0.079867 0.300000 0.600000 0.000000
-0.692475 -0.008083 -0.070730 0.500000 0.500000 0.000000
-0.060348 0.826808 0.260263 0.300000 0.600000 0.000000
0.873521 0.065785 -0.140086 0.000000 1.000000 0.000000
0.559502 -0.145089 -0.097446 0.500000 0.000000 0.500000
-0.614870 -0.485557 0.064295 0.000000 0.500000 0.500000
-0.556677 -0.487569 -0.166587 0.000000 0.500000 0.500000
0.454724 -0.476452 -0.125831 0.500000 0.500000 0.000000
-0.537044 -0.358523 -0.077648 0.000000 0.500000 0.500000
-0.639134 -0.145903 -0.129375 0.000000 0.500000 0.500000
0.554731 -0.391165 -0.027342 0.500000 0.000000 0.500000
0.521542 -0.401386 -0.091775 0.500000 0.000000 0.500000
0.452384 -0.467875 -0.059904 0.500000 0.500000 0.000000
-0.443261 -0.458013 -0.119974 0.000000 0.500000 0.500000
-0.757017 -0.487169 -0.041051 0.000000 0.500000 0.500000
-0.661761 -0.001368 -0.117187 0.500000 0.500000 0.000000
-0.609949 -0.487569 0.004775 0.000000 0.500000 0.500000
0.010495 0.742614 0.597188 0.300000 0.600000 0.000000
0.850044 0.099611 -0.103474 0.000000 1.000000 0.000000
0.636069 -0.121079 -0.035436 0.500000 0.500000 0.000000
-0.556419 -0.132151 -0.118809 0.300000 0.600000 0.000000
-0.552921 -0.486556 -0.202469 0.000000 0.500000 0.500000
0.613749 -0.478293 0.080849 0.500000 0.500000 0.000000
0.943065 0.100976 -0.096608 0.000000 1.000000 0.000000
-0.558982 -0.410753 -0.180522 0.300000 0.600000 0.000000
0.721223 -0.487569 -0.013548 0.500000 0.500000 0.000000
-0.442718 -0.487395 -0.082222 0.000000 0.500000 0.500000
0.681925 0.076756 -0.040291 0.000000 1.000000 0.000000
-0.055850 0.674067 0.597739 0.300000 0.600000 0.000000
0.562229 -0.094142 -0.065354 0.500000 0.000000 0.500000
0.851739 -0.007175 -0.066167 0.000000 1.000000 0.000000
0.973298 -0.009840 -0.094353 0.000000 1.000000 0.000000
-0.038564 0.769460 0.230101 0.300000 0.600000 0.000000
0.074924 -0.419429 -0.185327 0.600000 0.300000 0.000000
-0.951632 0.061694 -0.033019 0.500000 0.500000 0.000000
0.464002 -0.486244 -0.082592 0.500000 0.500000 0.000000
-0.168088 -0.469696 -0.054696 0.600000 0.300000 0.000000
-0.729152 -0.442754 -0.171783 0.000000 0.500000 0.500000
-0.057256 -0.112966 -0.108156 0.300000 0.600000 0.000000
-0.621634 -0.138316 -0.033060 0.300000 0.600000 0.000000
0.538758 -0.486558 -0.119636 0.500000 0.500000 0.000000
0.037074 0.526752 -0.018105 0.300000 0.600000 0.000000
-0.638175 -0.035077 -0.131787 0.300000 0.600000 0.000000
-0.003303 0.196490 -0.020652 0.300000 0.600000 0.000000
0.624713 -0.327405 -0.029013 0.500000 0.000000 0.500000
-0.590338 -0.487569 0.054701 0.000000 0.500000 0.500000
-0.568448 -0.406317 -0.177140 0.000000 0.500000 0.500000
-0.756101 -0.477235 -0.019093 0.000000 0.500000 0.500000
-0.049946 -0.113129 -0.050229 0.300000 0.600000 0.000000
0.571519 -0.293284 -0.050192 0.500000 0.000000 0.500000
-0.060116 -0.081701 -0.080797 0.300000 0.600000 0.000000
0.066859 0.794047 0.268359 0.300000 0.600000 0.000000
-0.575933 -0.418342 -0.190249 0.000000 0.500000 0.500000
0.596036 -0.056437 -0.138890 0.500000 0.500000 0.000000
-0.608442 -0.345885 -0.025700 0.000000 0.500000 0.500000
-0.124187 -0.429455 -0.119080 0.600000 0.300000 0.000000
0.543855 -0.487569 -0.041400 0.500000 0.500000 0.000000
-0.626629 -0.443452 0.061507 0.000000 0.500000 0.500000
0.069112 0.666658 0.008809 0.300000 0.600000 0.000000
-0.009360 -0.489797 -0.066547 0.600000 0.300000 0.000000
-0.666954 -0.432443 0.022960 0.000000 0.500000 0.500000
0.478812 -0.486559 -0.034120 0.500000 0.500000 0.000000
-0.867890 0.031603 -0.141240 0.500000 0.500000 0.000000
0.755475 -0.462992 -0.002525 0.500000 0.500000 0.000000
0.702224 -0.436983 -0.193376 0.500000 0.500000 0.000000
0.009519 -0.123227 -0.020318 0.300000 0.600000 0.000000
-0.656312 0.045036 -0.030006 0.500000 0.500000 0.000000
0.066042 0.174206 -0.117506 0.300000 0.600000 0.000000
0.034374 0.663973 0.496768 0.300000 0.600000 0.000000
-0.539688 -0.429051 -0.191911 0.000000 0.500000 0.500000
-0.643400 0.005185 -0.126994 0.500000 0.500000 0.000000
0.862819 0.018472 -0.037857 0.000000 1.000000 0.000000
-0.613280 -0.288944 -0.141261 0.000000 0.500000 0.500000
-0.682050 -0.383872 -0.090790 0.300000 0.600000 0.000000
0.615965 -0.486556 0.008867 0.500000 0.500000 0.000000
0.719092 -0.487569 -0.061382 0.500000 0.500000 0.000000
0.697578 -0.428567 0.001269 0.500000 0.500000 0.000000
0.658769 -0.159850 -0.052777 0.500000 0.500000 0.000000
0.064901 0.398267 -0.053961 0.300000 0.600000 0.000000
-0.812175 0.102409 -0.084515 0.500000 0.500000 0.000000
0.582364 -0.092484 -0.042954 0.500000 0.500000 0.000000
-0.625428 -0.227738 -0.034156 0.300000 0.600000 0.000000
0.667603 -0.089679 -0.111253 0.500000 0.000000 0.500000
-0.624088 -0.452317 0.076894 0.000000 0.500000 0.500000
-0.592396 -0.256310 -0.143012 0.300000 0.600000 0.000000
-0.767050 -0.454029 -0.089036 0.000000 0.500000 0.500000
-0.747849 0.058736 -0.032431 0.500000 0.500000 0.000000
-0.598181 -0.392815 -0.003484 0.000000 0.500000 0.500000
-0.565934 -0.074541 -0.129190 0.000000 0.500000 0.500000
0.607602 -0.047109 -0.030448 0.500000 0.000000 0.500000
0.115623 -0.409169 -0.092537 0.600000 0.300000 0.000000
-0.040629 -0.393604 -0.003881 0.600000 0.300000 0.000000
0.005763 0.621797 -0.119920 0.300000 0.600000 0.000000
0.561422 -0.006324 -0.071808 0.000000 1.000000 0.000000
-0.893305 0.096518 -0.111852 0.500000 0.500000 0.000000
0.034277 0.874007 0.185484 0.300000 0.600000 0.000000
0.072721 -0.257977 -0.079046 0.300000 0.600000 0.000000
-0.643645 -0.174135 -0.046597 0.300000 0.600000 0.000000
-0.747879 -0.487569 -0.133914 0.000000 0.500000 0.500000
-0.048535 0.543355 0.585860 0.300000 0.600000 0.000000
0.068758 0.075263 -0.111183 0.300000 0.600000 0.000000
0.666478 -0.254160 -0.108808 0.500000 0.500000 0.000000
0.910100 0.056919 -0.032069 0.000000 1.000000 0.000000
-0.647236 -0.487569 -0.090925 0.000000 0.500000 0.500000
-0.453528 -0.471929 -0.012989 0.000000 0.500000 0.500000
-0.003404 0.805621 0.021992 0.300000 0.600000 0.000000
-0.548199 0.052359 -0.073829 0.500000 0.500000 0.000000
0.640922 -0.486566 -0.082684 0.500000 0.500000 0.000000
0.745142 0.046872 -0.143847 0.000000 1.000000 0.000000
0.601714 -0.039990 -0.140307 0.500000 0.500000 0.000000
-0.615670 -0.381809 -0.161369 0.000000 0.500000 0.500000
-0.546974 -0.113170 -0.098323 0.300000 0.600000 0.000000
0.667623 -0.435899 0.039059 0.500000 0.500000 0.000000
-0.479211 -0.441461 -0.169238 0.000000 0.500000 0.500000
0.029689 0.797481 0.535594 0.300000 0.600000 0.000000
-0.688711 -0.486556 -0.126660 0.000000 0.500000 0.500000
0.605815 0.091795 -0.118919 0.000000 1.000000 0.000000
0.027117 -0.458588 0.089151 0.600000 0.300000 0.000000
0.521743 -0.439368 0.026363 0.500000 0.500000 0.000000
0.681524 -0.009257 -0.097284 0.000000 1.000000 0.000000
0.640087 -0.300835 -0.035024 0.500000 0.000000 0.500000
-0.548016 -0.487511 0.060893 0.000000 0.500000 0.500000
0.447721 -0.455351 -0.090434 0.500000 0.500000 0.000000
0.071791 0.409684 -0.100805 0.300000 0.600000 0.000000
-0.127613 -0.489797 -0.104020 0.600000 0.300000 0.000000
-0.487324 -0.428836 -0.054345 0.000000 0.500000 0.500000
-0.676234 -0.448595 -0.234024 0.000000 0.500000 0.500000
0.647897 -0.094645 -0.042441 0.500000 0.500000 0.000000
-0.622508 -0.487569 -0.118985 0.000000 0.500000 0.500000
0.709399 0.013258 -0.041340 0.000000 1.000000 0.000000
-0.525513 -0.487569 -0.144068 0.000000 0.500000 0.500000
0.551895 -0.487569 -0.179173 0.500000 0.500000 0.000000
0.047919 0.579742 -0.121632 0.300000 0.600000 0.000000
0.671691 -0.087395 -0.078021 0.500000 0.000000 0.500000
0.017119 -0.401571 0.014864 0.600000 0.300000 0.000000
-0.979841 0.082580 -0.129736 0.500000 0.500000 0.000000
-0.446501 -0.476704 -0.027345 0.000000 0.500000 0.500000
0.649539 -0.310015 -0.043312 0.500000 0.500000 0.000000
0.616309 -0.053959 -0.142612 0.500000 0.500000 0.000000
0.660144 -0.486558 -0.152131 0.500000 0.500000 0.000000
0.042034 0.858303 0.139584 0.300000 0.600000 0.000000
-0.048907 -0.192228 -0.048826 0.300000 0.600000 0.000000
-0.698875 -0.453706 0.044175 0.000000 0.500000 0.500000
-0.763473 -0.445728 -0.084927 0.000000 0.500000 0.500000
-0.054116 0.790596 0.322773 0.300000 0.600000 0.000000
0.561131 -0.335321 -0.061159 0.500000 0.000000 0.500000
0.652229 -0.075404 -0.128416 0.500000 0.500000 0.000000
-0.977952 -0.004238 -0.112892 0.500000 0.500000 0.000000
0.867911 0.038263 -0.031354 0.000000 1.000000 0.000000
-0.013511 0.512446 -0.015996 0.300000 0.600000 0.000000
0.749048 0.004490 -0.125953 0.000000 1.000000 0.000000
0.589805 -0.431034 0.037594 0.500000 0.500000 0.000000
0.650256 -0.008939 -0.042816 0.000000 1.000000 0.000000
0.561462 0.084220 -0.071608 0.000000 1.000000 0.000000
0.640134 -0.094115 -0.136902 0.500000 0.500000 0.000000
0.046590 0.671929 -0.082894 0.300000 0.600000 0.000000
0.731086 0.100972 -0.096627 0.000000 1.000000 0.000000
-0.031452 -0.489797 -0.074213 0.600000 0.300000 0.000000
0.475323 -0.484565 -0.172368 0.500000 0.500000 0.000000
-0.685287 0.099494 -0.069861 0.500000 0.500000 0.000000
-0.703233 -0.450944 -0.217092 0.000000 0.500000 0.500000
0.591528 -0.106313 -0.139228 0.500000 0.000000 0.500000
-0.063214 -0.486864 -0.246281 0.600000 0.300000 0.000000
-0.605498 -0.441155 -0.234356 0.000000 0.500000 0.500000
-0.029390 0.150041 -0.143974 0.300000 0.600000 0.000000
-0.929549 0.102042 -0.082670 0.500000 0.500000 0.000000
-0.727587 0.025598 -0.033873 0.500000 0.500000 0.000000
-0.011551 0.479024 -0.149383 0.300000 0.600000 0.000000
-0.646461 -0.150077 -0.053148 0.000000 0.500000 0.500000
-0.051586 0.767775 0.391602 0.300000 0.600000 0.000000
0.627715 -0.310819 -0.031060 0.500000 0.000000 0.500000
0.669799 -0.401781 -0.013570 0.500000 0.500000 0.000000
-0.454346 -0.441510 -0.089284 0.000000 0.500000 0.500000
0.571888 -0.446446 -0.237903 0.500000 0.500000 0.000000
0.123391 -0.485344 -0.220444 0.600000 0.300000 0.000000
-0.641100 0.026851 -0.033624 0.500000 0.500000 0.000000
0.635790 -0.487569 -0.119818 0.500000 0.500000 0.000000
0.746214 0.003813 -0.048976 0.000000 1.000000 0.000000
-0.960183 0.028682 -0.140659 0.500000 0.500000 0.000000
0.675642 0.024151 -0.034161 0.000000 1.000000 0.000000
0.631265 -0.259334 -0.034001 0.500000 0.500000 0.000000
0.667302 -0.200629 -0.062288 0.500000 0.000000 0.500000
-0.571347 -0.364569 -0.023683 0.300000 0.600000 0.000000
-0.537645 -0.413686 -0.007496 0.000000 0.500000 0.500000
-0.625654 -0.487569 -0.106590 0.000000 0.500000 0.500000
-0.059719 0.826818 0.340416 0.300000 0.600000 0.000000
-0.074770 -0.489797 -0.007152 0.600000 0.300000 0.000000
-0.695978 -0.401608 -0.081046 0.300000 0.600000 0.000000
-0.117669 -0.426981 -0.130531 0.600000 0.300000 0.000000
-0.604147 -0.487569 -0.144760 0.000000 0.500000 0.500000
0.072905 0.757607 0.054934 0.300000 0.600000 0.000000
0.456138 -0.447818 -0.075326 0.500000 0.500000 0.000000
-0.567157 -0.176584 -0.044585 0.000000 0.500000 0.500000
-0.062764 -0.331009 -0.096492 0.300000 0.600000 0.000000
-0.648046 -0.372629 -0.142898 0.000000 0.500000 0.500000
0.619914 0.088759 -0.123462 0.000000 1.000000 0.000000
0.071102 0.801547 0.441298 0.300000 0.600000 0.000000
-0.658358 -0.261641 -0.092589 0.000000 0.500000 0.500000
-0.517833 -0.435768 -0.191587 0.000000 0.500000 0.500000
0.030740 0.881712 0.219463 0.300000 0.600000 0.000000
0.009237 -0.489796 0.057583 0.600000 0.300000 0.000000
0.586383 -0.408567 -0.183327 0.500000 0.000000 0.500000
-0.548135 -0.063158 -0.079301 0.000000 0.500000 0.500000
-0.643193 -0.346478 -0.037938 0.300000 0.600000 0.000000
0.622752 0.092199 -0.055604 0.000000 1.000000 0.000000
0.064295 0.456959 -0.052013 0.300000 0.600000 0.000000
0.902031 0.058474 -0.141540 0.000000 1.000000 0.000000
-0.509981 -0.427454 -0.162198 0.000000 0.500000 0.500000
-0.593564 -0.229132 -0.032696 0.000000 0.500000 0.500000
0.017331 0.557391 -0.002658 0.300000 0.600000 0.000000
0.520302 -0.487143 0.042148 0.500000 0.500000 0.000000
0.027639 0.725222 -0.056468 0.300000 0.600000 0.000000
0.650413 -0.167642 -0.129998 0.500000 0.500000 0.000000
0.072748 0.811984 0.353058 0.300000 0.600000 0.000000
0.076024 -0.354007 -0.116303 0.300000 0.600000 0.000000
-0.543049 -0.435105 0.036271 0.000000 0.500000 0.500000
-0.107265 -0.426272 -0.024132 0.600000 0.300000 0.000000
0.067195 0.774007 0.160774 0.300000 0.600000 0.000000
-0.004418 0.576221 0.546777 0.300000 0.600000 0.000000
0.648228 -0.485972 0.060254 0.500000 0.500000 0.000000
0.514899 -0.424796 -0.034878 0.500000 0.500000 0.000000
-0.577326 -0.486398 0.038255 0.000000 0.500000 0.500000
-0.002771 0.089783 -0.153202 0.300000 0.600000 0.000000
0.957553 0.066399 -0.139964 0.000000 1.000000 0.000000
0.067037 0.450868 -0.116087 0.300000 0.600000 0.000000
-0.652275 -0.389629 -0.153554 0.300000 0.600000 0.000000
-0.734706 0.098556 -0.108775 0.500000 0.500000 0.000000
0.817403 0.059562 -0.032595 0.000000 1.000000 0.000000
-0.524709 -0.413440 -0.015454 0.300000 0.600000 0.000000
-0.763040 -0.471033 -0.055217 0.000000 0.500000 0.500000
0.588613 -0.356949 -0.026357 0.500000 0.500000 0.000000
0.549467 -0.358474 -0.105065 0.500000 0.000000 0.500000
0.058127 0.183336 -0.044509 0.300000 0.600000 0.000000
-0.533766 -0.487569 0.000713 0.000000 0.500000 0.500000
0.568533 -0.023100 -0.056459 0.000000 1.000000 0.000000
-0.584582 -0.023145 -0.140461 0.500000 0.500000 0.000000
0.616851 -0.352601 -0.020263 0.500000 0.000000 0.500000
-0.043042 0.759322 0.379492 0.300000 0.600000 0.000000
0.113860 -0.417740 -0.036218 0.600000 0.300000 0.000000
0.071010 0.139774 -0.103026 0.300000 0.600000 0.000000
-0.665482 -0.486556 -0.104969 0.000000 0.500000 0.500000
0.939803 -0.007255 -0.066570 0.000000 1.000000 0.000000
-0.662051 0.029477 -0.140817 0.500000 0.500000 0.000000
-0.054667 0.191257 -0.115134 0.300000 0.600000 0.000000
-0.618069 -0.395185 -0.173417 0.300000 0.600000 0.000000
0.709188 0.050537 -0.143118 0.000000 1.000000 0.000000
0.560209 -0.073245 -0.072888 0.500000 0.000000 0.500000
-0.644282 -0.224036 -0.126881 0.300000 0.600000 0.000000
-0.571972 -0.487569 -0.015755 0.000000 0.500000 0.500000
0.623551 -0.487569 -0.169348 0.500000 0.500000 0.000000
-0.714420 -0.486556 -0.008461 0.000000 0.500000 0.500000
-0.624200 -0.155371 -0.035846 0.000000 0.500000 0.500000
0.996199 0.063738 -0.056788 0.000000 1.000000 0.000000
-0.752751 0.081542 -0.043488 0.500000 0.500000 0.000000
-0.033536 -0.302519 -0.032467 0.300000 0.600000 0.000000
0.005647 0.484265 0.569981 0.600000 0.000000 0.300000
-0.748446 -0.444668 -0.150443 0.000000 0.500000 0.500000
0.886758 0.005791 -0.046329 0.000000 1.000000 0.000000
-0.533646 -0.420343 -0.002754 0.000000 0.500000 0.500000
0.570878 0.052755 -0.052949 0.000000 1.000000 0.000000
-0.639163 -0.124175 -0.129353 0.000000 0.500000 0.500000
-0.597349 -0.206185 -0.144003 0.300000 0.600000 0.000000
0.166084 -0.485381 -0.015242 0.600000 0.300000 0.000000
0.000495 -0.346991 -0.160086 0.300000 0.600000 0.000000
-0.722217 -0.429601 -0.067016 0.000000 0.500000 0.500000
0.669734 -0.376635 -0.036638 0.500000 0.500000 0.000000
-0.018812 -0.489797 -0.141566 0.600000 0.300000 0.000000
-0.695298 -0.486556 -0.168159 0.000000 0.500000 0.500000
-0.000537 -0.489797 0.011580 0.600000 0.300000 0.000000
-0.648559 -0.487569 -0.194831 0.000000 0.500000 0.500000
-0.497426 -0.487569 -0.064840 0.000000 0.500000 0.500000
-0.548880 -0.132289 -0.106185 0.300000 0.600000 0.000000
0.677547 -0.486557 0.023275 0.500000 0.500000 0.000000
0.065404 0.095905 -0.055451 0.300000 0.600000 0.000000
-0.058355 0.586010 -0.042225 0.300000 0.600000 0.000000
0.040045 0.766418 -0.013715 0.300000 0.600000 0.000000
0.660351 -0.379279 -0.146331 0.500000 0.500000 0.000000
-0.578768 -0.458113 0.074676 0.000000 0.500000 0.500000
-0.666031 -0.486556 -0.052398 0.000000 0.500000 0.500000
-0.983378 0.087982 -0.069184 0.500000 0.500000 0.000000
0.046280 0.841807 0.109405 0.300000 0.600000 0.000000
0.597107 -0.487569 -0.169850 0.500000 0.500000 0.000000
0.184556 -0.474179 -0.079854 0.600000 0.300000 0.000000
-0.549209 -0.292931 -0.107943 0.300000 0.600000 0.000000
0.718185 -0.485863 -0.157881 0.500000 0.500000 0.000000
-0.055710 -0.489797 -0.025505 0.600000 0.300000 0.000000
0.897458 0.019960 -0.036862 0.000000 1.000000 0.000000
0.543807 -0.487569 0.002453 0.500000 0.500000 0.000000
-0.435057 -0.480497 -0.087924 0.000000 0.500000 0.500000
0.481513 -0.478556 -0.183911 0.500000 0.500000 0.000000
-0.604597 0.017293 -0.143683 0.500000 0.500000 0.000000
-0.757776 -0.447888 -0.119933 0.000000 0.500000 0.500000
-0.669674 -0.487569 -0.200295 0.000000 0.500000 0.500000
-0.001118 0.569618 0.687357 0.600000 0.000000 0.300000
-0.064584 -0.437553 0.045567 0.600000 0.300000 0.000000
0.030697 0.637094 0.517652 0.300000 0.600000 0.000000
0.017569 0.421522 0.582019 0.300000 0.000000 0.600000
0.616849 -0.025511 -0.143796 0.000000 1.000000 0.000000
-0.665605 0.044323 -0.030148 0.500000 0.500000 0.000000
-0.525316 -0.448842 -0.231626 0.000000 0.500000 0.500000
-0.457579 -0.481793 -0.166093 0.000000 0.500000 0.500000
-0.537304 -0.353042 -0.097533 0.300000 0.600000 0.000000
-0.705119 -0.442604 0.026354 0.000000 0.500000 0.500000
0.594223 0.087675 -0.048834 0.000000 1.000000 0.000000
-0.660159 -0.230540 -0.085919 0.300000 0.600000 0.000000
0.655638 -0.486646 -0.120060 0.500000 0.500000 0.000000
-0.514096 -0.487566 0.036447 0.000000 0.500000 0.500000
-0.558091 -0.220251 -0.119219 0.000000 0.500000 0.500000
0.006626 0.801840 0.016203 0.300000 0.600000 0.000000
0.559367 0.097772 -0.082140 0.000000 1.000000 0.000000
-0.700673 -0.487569 -0.180317 0.000000 0.500000 0.500000
-0.967875 0.019085 -0.136472 0.500000 0.500000 0.000000
-0.445044 -0.474101 -0.042414 0.000000 0.500000 0.500000
0.595142 -0.291387 -0.138563 0.500000 0.500000 0.000000
-0.676302 -0.487569 -0.180218 0.000000 0.500000 0.500000
0.012222 -0.363495 -0.007927 0.300000 0.600000 0.000000
0.054946 0.382798 -0.040513 0.300000 0.600000 0.000000
0.070787 0.799209 0.220383 0.300000 0.600000 0.000000
0.985309 0.004538 -0.126026 0.000000 1.000000 0.000000
-0.052070 0.854031 0.318527 0.300000 0.600000 0.000000
0.011470 0.164703 -0.153433 0.300000 0.600000 0.000000
-0.945404 0.047463 -0.030188 0.500000 0.500000 0.000000
0.481540 -0.435474 -0.052555 0.500000 0.500000 0.000000
0.604460 -0.069283 -0.140840 0.500000 0.500000 0.000000
0.560859 -0.487569 -0.089694 0.500000 0.500000 0.000000
-0.551781 -0.389767 -0.149220 0.000000 0.500000 0.500000
0.670222 -0.283131 -0.099565 0.500000 0.000000 0.500000
0.862261 0.066603 -0.033996 0.000000 1.000000 0.000000
-0.056134 0.687621 0.524971 0.300000 0.600000 0.000000
0.003047 -0.398121 0.012512 0.600000 0.300000 0.000000
0.627014 -0.098949 -0.033166 0.500000 0.500000 0.000000
-0.660731 -0.369524 -0.046963 0.000000 0.500000 0.500000
0.101267 -0.392485 -0.091845 0.600000 0.300000 0.000000
-0.482462 -0.440674 -0.006924 0.000000 0.500000 0.500000
-0.556895 -0.310353 -0.052789 0.300000 0.600000 0.000000
-0.650939 -0.107733 -0.056562 0.300000 0.600000 0.000000
-0.450511 -0.480743 -0.150187 0.000000 0.500000 0.500000
0.472949 -0.444618 -0.156837 0.500000 0.500000 0.000000
0.118502 -0.442563 -0.203206 0.600000 0.300000 0.000000
0.697366 0.008613 -0.129474 0.000000 1.000000 0.000000
0.558749 -0.220645 -0.080191 0.500000 0.000000 0.500000
-0.058953 0.469198 0.652633 0.600000 0.000000 0.300000
0.510285 -0.428480 -0.151594 0.500000 0.500000 0.000000
-0.050722 0.815813 0.456878 0.300000 0.600000 0.000000
0.637312 -0.286719 -0.033752 0.500000 0.000000 0.500000
-0.659305 -0.486556 -0.207244 0.000000 0.500000 0.500000
-0.625423 0.019828 -0.139128 0.500000 0.500000 0.000000
-0.083561 -0.486761 0.062944 0.600000 0.300000 0.000000
0.586378 -0.474449 -0.247740 0.500000 0.500000 0.000000
0.746920 -0.483315 0.003913 0.500000 0.500000 0.000000
-0.089210 -0.433355 0.016766 0.600000 0.300000 0.000000
0.710295 -0.486548 -0.036002 0.500000 0.500000 0.000000
-0.857158 0.100581 -0.075322 0.500000 0.500000 0.000000
0.072907 -0.006145 -0.092323 0.300000 0.600000 0.000000
-0.753361 -0.486540 -0.083128 0.000000 0.500000 0.500000
0.721502 0.064600 -0.140322 0.000000 1.000000 0.000000
0.066492 0.710212 0.495933 0.300000 0.600000 0.000000
0.541276 -0.453225 -0.235722 0.500000 0.500000 0.000000
-0.524577 -0.406481 -0.031913 0.000000 0.500000 0.500000
0.068591 0.563085 -0.097761 0.300000 0.600000 0.000000
-0.544455 -0.422747 -0.181121 0.000000 0.500000 0.500000
0.633706 0.094921 -0.059678 0.000000 1.000000 0.000000
0.820488 0.098907 -0.107012 0.000000 1.000000 0.000000
-0.513708 -0.486557 -0.120391 0.000000 0.500000 0.500000
0.637576 -0.213281 -0.036082 0.500000 0.500000 0.000000
-0.048405 0.452613 -0.047589 0.300000 0.600000 0.000000
-0.547425 -0.231310 -0.090999 0.000000 0.500000 0.500000
