ply
format ascii 1.0
element vertex 1274
property float x
property float y
property float z
property uchar red
property uchar green
property uchar blue
end_header
-0.390518 0.700930 -0.354365 153 0 76
-0.504869 0.214097 0.503246 153 76 0
0.500700 0.649468 0.041552 153 0 76
0.322273 0.602263 -0.516864 153 76 0
-0.021951 -0.750918 -0.216710 76 0 153
-0.505223 -0.198790 0.084426 153 76 0
0.479959 -0.325975 -0.428233 153 76 0
-0.134238 0.468092 -0.516864 153 76 0
0.383004 0.700930 0.478794 153 0 76
0.479959 -0.007548 -0.018056 153 76 0
0.107138 -0.626474 0.459987 153 76 0
-0.505223 -0.415292 0.018789 153 76 0
-0.305897 0.700930 0.470449 153 0 76
0.205316 0.529418 0.546244 0 255 0
0.352607 0.684587 0.540911 204 51 127
0.500700 0.608898 0.031385 153 0 76
0.479959 -0.206507 -0.040426 153 76 0
0.370646 0.700930 0.166757 153 0 76
-0.209100 -0.237006 -0.516864 153 76 0
0.479959 0.253940 -0.480009 153 76 0
-0.090347 -0.156752 0.520171 153 76 0
0.073265 0.284194 -0.516864 153 76 0
-0.324172 -0.538776 0.520171 153 76 0
-0.116199 -0.750918 0.214958 76 0 153
0.479959 0.274840 0.060444 153 76 0
-0.239360 -0.224887 0.520171 153 76 0
-0.505223 -0.031426 -0.510992 153 76 0
-0.505223 -0.572553 0.345000 153 76 0
0.479959 -0.181929 -0.374531 153 76 0
-0.487140 0.041902 0.519999 153 76 0
-0.236052 0.700930 0.438345 153 0 76
-0.505223 0.008741 0.244831 153 76 0
-0.465786 -0.626474 0.378828 76 0 153
-0.082618 -0.246450 0.520171 153 76 0
-0.505223 -0.260134 -0.149132 153 76 0
-0.505223 -0.598579 0.100673 153 76 0
0.479959 -0.326305 0.105248 153 76 0
0.260788 0.611624 -0.516864 153 76 0
0.356181 -0.750918 -0.249331 76 0 153
0.184112 0.700930 -0.036762 153 0 76
0.205134 0.419967 -0.516864 153 76 0
-0.505223 -0.183521 -0.165568 153 76 0
-0.505223 0.050766 -0.064728 153 76 0
-0.505223 0.381300 -0.014795 153 76 0
-0.134786 0.700930 -0.500857 153 76 0
0.479959 0.279091 0.109688 153 76 0
0.500700 0.504413 0.132050 153 0 76
-0.117229 0.191271 0.520171 153 76 0
0.287411 0.637850 -0.516864 153 76 0
0.131334 -0.066404 -0.516864 153 76 0
0.186496 0.696733 0.538873 153 0 76
-0.069555 -0.196878 0.520171 153 76 0
-0.190871 -0.719679 0.442393 76 0 153
0.398743 -0.697375 -0.516864 153 76 0
0.500700 0.502907 0.031744 153 0 76
0.479959 0.341033 -0.137828 153 76 0
0.018915 0.328060 -0.516864 153 76 0
-0.505223 -0.269591 -0.477768 153 76 0
-0.182805 0.189164 -0.516864 153 76 0
0.132572 0.231534 -0.516864 153 76 0
-0.263545 0.700930 0.487056 153 0 76
-0.361745 -0.573539 0.520171 153 76 0
0.308939 -0.099935 0.520171 153 76 0
0.479959 0.293139 0.212647 153 76 0
0.500700 0.479547 0.302935 153 0 76
0.160458 -0.750918 0.309767 76 0 153
-0.093624 0.452042 0.525938 153 76 0
0.316651 -0.750918 -0.225964 76 0 153
0.153030 0.345116 -0.516864 153 76 0
-0.164102 0.592711 0.540911 204 51 127
0.102037 0.595409 0.540911 204 51 127
-0.505223 -0.277710 0.274365 153 76 0
0.306794 -0.469325 0.520171 153 76 0
0.204913 0.700930 -0.120309 153 0 76
0.420330 -0.713111 -0.202641 76 0 153
-0.166086 0.452042 0.536116 153 0 76
-0.461235 -0.626474 -0.037843 153 76 0
0.308830 -0.475101 -0.516864 153 76 0
-0.373641 0.093131 0.520171 153 76 0
0.479959 0.325150 -0.049305 153 76 0
-0.461149 -0.708348 -0.200653 76 0 153
-0.505223 0.030890 0.361970 153 76 0
-0.075681 0.700930 -0.403760 153 0 76
-0.500917 0.659312 -0.516864 153 76 0
-0.415002 0.700930 0.000603 153 0 76
0.348977 0.510625 -0.516864 153 76 0
-0.237116 -0.363762 -0.516864 153 76 0
-0.415132 -0.630924 -0.516864 153 76 0
-0.505223 -0.004754 0.472154 153 76 0
0.479959 -0.348457 -0.275477 153 76 0
0.479959 -0.468730 0.017899 153 76 0
-0.076282 -0.750918 -0.029531 76 0 153
-0.264687 0.613119 -0.516864 153 76 0
-0.032756 0.233745 0.520171 153 76 0
-0.301317 -0.095624 -0.516864 153 76 0
0.479959 0.170268 0.080493 153 76 0
0.261275 -0.553167 -0.516864 153 76 0
-0.376976 0.700930 -0.322083 153 0 76
0.429927 -0.185994 0.520171 153 76 0
0.045939 0.700930 0.044765 153 0 76
-0.505223 -0.467342 -0.143383 153 76 0
0.214975 -0.671199 0.442393 76 0 153
0.055596 -0.149788 0.520171 153 76 0
0.479959 0.181256 -0.504185 153 76 0
-0.503944 -0.626474 -0.440967 153 76 0
0.340413 -0.165971 -0.516864 153 76 0
0.479959 0.103106 0.481367 153 76 0
0.333274 0.700930 0.350597 153 0 76
0.479959 -0.077456 -0.146526 153 76 0
-0.372683 -0.750918 -0.108913 76 0 153
0.084650 0.516641 -0.516864 153 76 0
0.479959 -0.477190 -0.255297 153 76 0
-0.372846 0.670270 0.542482 153 0 76
-0.505223 -0.419453 -0.138874 153 76 0
0.415423 -0.281980 0.520171 153 76 0
0.069128 0.653152 0.455356 204 51 127
0.371177 0.700930 0.217482 153 0 76
0.479959 0.380452 -0.027611 153 76 0
-0.505223 0.416082 -0.246702 153 76 0
0.328877 -0.750918 0.071810 76 0 153
0.184604 -0.717752 -0.516864 153 76 0
-0.525964 0.650693 -0.237125 153 0 76
0.117829 -0.750918 -0.315751 76 0 153
-0.177405 -0.750918 -0.305361 76 0 153
-0.471342 -0.626474 -0.000652 76 0 153
0.470117 -0.528121 -0.516864 153 76 0
-0.412767 -0.626474 0.495624 153 76 0
0.479959 -0.512244 0.232533 153 76 0
0.479959 0.395603 -0.495420 153 76 0
-0.028226 -0.114909 0.520171 153 76 0
-0.505223 -0.100727 0.061996 153 76 0
0.456302 -0.626474 -0.424696 153 76 0
-0.169029 -0.399033 0.520171 153 76 0
0.391798 0.635573 0.538094 204 51 127
-0.365825 -0.750918 -0.459288 76 0 153
-0.525964 0.572211 0.207887 153 0 76
-0.115742 -0.283712 0.520171 153 76 0
0.487826 0.452042 0.367593 153 76 0
0.479959 -0.024706 0.214297 153 76 0
-0.505223 -0.136306 -0.060957 153 76 0
-0.505223 0.068630 -0.301631 153 76 0
0.070151 -0.750918 -0.137844 76 0 153
-0.505223 -0.328553 0.154972 153 76 0
-0.394019 -0.750918 -0.288634 76 0 153
0.111347 0.168007 0.520171 153 76 0
0.399774 -0.130030 0.520171 153 76 0
0.338981 0.700930 -0.506691 153 0 76
-0.329500 -0.750918 -0.280629 76 0 153
0.420330 -0.647719 0.067477 76 0 153
-0.525964 0.646373 -0.481351 153 0 76
0.115275 -0.290610 0.520171 153 76 0
0.479959 0.328677 -0.345960 153 76 0
0.162047 -0.431977 0.520171 153 76 0
0.355340 0.656257 0.455356 204 51 127
-0.505223 0.018223 0.317744 153 76 0
-0.221737 -0.750918 0.323059 76 0 153
0.479959 -0.154677 -0.494802 153 76 0
-0.445148 0.368546 0.520171 153 76 0
-0.505223 0.118492 0.438627 153 76 0
0.171234 -0.594829 -0.516864 153 76 0
0.297666 0.696717 -0.516864 153 0 76
-0.130623 -0.059339 -0.516864 153 76 0
-0.505223 0.286754 -0.080248 153 76 0
-0.192830 -0.481969 -0.516864 153 76 0
0.423977 -0.626474 0.204674 76 0 153
0.479959 -0.290807 0.476911 153 76 0
-0.356014 -0.750918 0.051606 76 0 153
-0.352052 -0.025873 -0.516864 153 76 0
-0.175397 -0.312366 -0.516864 153 76 0
0.478718 -0.227413 0.506493 153 76 0
-0.265482 -0.750918 0.309250 76 0 153
-0.416305 0.670270 0.537332 204 51 127
0.121034 -0.511466 0.520171 153 76 0
-0.525964 0.519050 0.314974 153 0 76
0.212456 -0.321854 -0.516864 153 76 0
-0.111541 -0.118229 -0.516864 153 76 0
0.086465 0.700930 -0.249038 153 0 76
-0.353478 0.700930 0.391865 153 0 76
-0.415560 -0.494708 0.520171 153 76 0
0.369223 -0.750918 -0.206909 76 0 153
-0.141576 -0.445891 0.520171 153 76 0
0.092440 -0.634106 -0.516864 153 76 0
-0.236226 0.700930 -0.089278 153 0 76
0.291410 0.324686 0.520171 153 76 0
0.479959 -0.210757 0.370710 153 76 0
-0.282487 0.700930 -0.211923 153 0 76
-0.041204 -0.750918 0.028801 76 0 153
0.438606 -0.458358 0.520171 153 76 0
0.149159 0.647675 -0.516864 153 76 0
-0.505223 0.115555 -0.363393 153 76 0
0.459060 0.241825 0.520171 153 76 0
-0.221754 -0.750918 0.016091 76 0 153
0.240321 0.700930 0.153422 153 0 76
-0.505223 -0.177422 0.233737 153 76 0
-0.317517 -0.621689 -0.516864 153 76 0
0.145449 -0.057781 0.520171 153 76 0
0.500700 0.509954 -0.065398 153 0 76
0.479959 -0.089208 0.373902 153 76 0
-0.042871 0.544374 -0.516864 153 76 0
-0.001567 0.645047 0.455356 204 51 127
-0.519387 0.700211 -0.401168 153 0 76
-0.505223 0.428606 0.161520 153 76 0
0.430058 0.700930 0.487333 153 0 76
-0.042719 -0.658352 -0.516864 153 76 0
-0.505223 0.266828 -0.177550 153 76 0
-0.505223 0.394154 0.496872 153 76 0
0.216144 0.254747 -0.516864 153 76 0
0.000989 0.700930 0.506076 153 0 76
-0.005470 0.331682 0.520171 153 76 0
0.479959 -0.409895 0.152479 153 76 0
-0.307651 0.700930 0.140268 153 0 76
0.420330 -0.741478 0.129281 76 0 153
-0.090073 -0.041117 -0.516864 153 76 0
0.376379 -0.310725 0.520171 153 76 0
-0.127363 -0.719739 -0.516864 153 76 0
-0.481118 -0.626474 0.059595 153 76 0
-0.221123 0.118900 -0.516864 153 76 0
-0.457094 -0.203301 0.520171 153 76 0
-0.341452 -0.638623 0.442393 76 0 153
-0.509925 0.700930 0.235722 153 0 76
-0.505223 0.389268 -0.280426 153 76 0
-0.362374 0.259099 -0.516864 153 76 0
-0.117207 0.700930 -0.304507 153 0 76
-0.325119 -0.040470 -0.516864 153 76 0
-0.267346 -0.750918 -0.074455 76 0 153
0.417306 0.069540 -0.516864 153 76 0
0.481908 0.452042 -0.346553 153 76 0
0.479959 0.165718 -0.472906 153 76 0
0.420330 -0.703809 0.240336 76 0 153
-0.404638 -0.177647 -0.516864 153 76 0
0.425579 0.700930 -0.410029 153 0 76
-0.505223 0.425870 -0.150344 153 76 0
-0.255425 0.670270 0.510916 204 51 127
0.251734 0.445462 0.520171 153 0 76
0.340352 0.369160 0.520171 153 76 0
-0.380809 -0.750918 0.301678 76 0 153
-0.286612 -0.750918 -0.450330 76 0 153
-0.095571 0.059642 -0.516864 153 76 0
-0.364561 0.049012 0.520171 153 76 0
0.435291 -0.103307 0.520171 153 76 0
0.348572 0.700930 0.511665 153 0 76
-0.041875 -0.750918 -0.110194 76 0 153
-0.382947 -0.267967 0.520171 153 76 0
0.333609 0.700930 0.130041 153 0 76
-0.059977 0.221715 0.520171 153 76 0
0.154831 0.501485 -0.516864 153 76 0
0.479959 0.278817 0.424663 153 76 0
0.479959 0.317779 -0.217165 153 76 0
0.318805 0.671940 0.566837 204 51 127
-0.505223 0.266816 -0.513695 153 76 0
-0.000323 -0.497769 0.520171 153 76 0
0.420330 -0.639758 -0.315755 76 0 153
0.401702 0.670270 0.496243 204 51 127
-0.129270 0.597692 0.565693 204 51 127
0.479959 -0.324443 -0.461776 153 76 0
-0.505223 -0.304400 -0.370150 153 76 0
-0.139588 0.608425 0.521868 204 51 127
-0.505223 -0.497853 0.283325 153 76 0
0.479959 -0.342199 0.056628 153 76 0
-0.072451 -0.663920 -0.516864 153 76 0
-0.505223 0.173532 0.483794 153 76 0
-0.311103 -0.708236 -0.516864 153 76 0
0.323432 -0.750918 -0.042878 76 0 153
-0.017650 0.428498 0.520171 153 76 0
-0.445334 -0.750918 0.068983 76 0 153
0.288588 -0.705361 -0.516864 153 76 0
0.255542 -0.745972 -0.516864 76 0 153
-0.481243 -0.626474 -0.123508 153 76 0
-0.505223 0.361612 -0.167094 153 76 0
-0.244683 0.647212 0.455356 204 51 127
0.420330 -0.749696 0.220404 76 0 153
-0.182441 -0.521364 0.520171 153 76 0
0.036498 -0.750918 -0.391001 76 0 153
0.260661 -0.750918 0.439700 76 0 153
-0.505223 0.267100 -0.006475 153 76 0
-0.103871 0.619233 -0.516864 153 76 0
-0.525964 0.640579 0.447140 153 0 76
-0.264896 0.700930 -0.499883 153 0 76
0.420330 -0.670088 0.305851 76 0 153
0.479959 0.389357 0.269250 153 76 0
-0.054534 0.144798 0.520171 153 76 0
-0.258572 0.492233 0.548689 0 255 0
-0.228295 0.700930 0.197059 153 0 76
-0.270267 0.700930 -0.292131 153 0 76
-0.505223 -0.125938 -0.318445 153 76 0
0.087827 -0.731186 0.442393 76 0 153
0.269058 -0.037738 0.520171 153 76 0
0.479959 0.365833 0.130087 153 76 0
0.304062 -0.750918 0.189962 76 0 153
-0.501421 0.143456 -0.516864 153 76 0
-0.149303 0.608819 0.457022 204 51 127
-0.227946 -0.626474 0.462379 153 76 0
0.386260 -0.750918 0.261560 76 0 153
-0.505223 0.094944 -0.101043 153 76 0
-0.375753 0.700930 -0.232374 153 0 76
0.479959 0.003753 -0.069579 153 76 0
-0.505223 0.095190 -0.037803 153 76 0
0.385736 -0.050513 -0.516864 153 76 0
-0.075611 0.108921 0.520171 153 76 0
0.420330 -0.732949 0.253246 76 0 153
-0.505223 -0.125803 0.273839 153 76 0
-0.505223 0.288944 0.229347 153 76 0
0.406119 -0.626474 0.496239 153 76 0
-0.104583 0.355441 -0.516864 153 76 0
-0.487926 0.700930 0.114902 153 0 76
0.459467 0.165366 0.520168 153 76 0
-0.305148 -0.004939 -0.516864 153 76 0
-0.374557 0.400235 0.520171 153 76 0
0.295594 0.582874 -0.516864 153 76 0
-0.431295 0.521402 0.548689 0 255 0
-0.505223 -0.525833 0.253957 153 76 0
0.479959 0.115394 0.122368 153 76 0
0.479959 0.262311 -0.033491 153 76 0
0.479959 0.390817 -0.277819 153 76 0
-0.247052 -0.750918 -0.046019 76 0 153
0.367016 -0.314766 -0.516864 153 76 0
-0.296266 0.312056 0.520171 153 76 0
-0.505223 0.361457 0.221519 153 76 0
0.479959 -0.579852 -0.367378 153 76 0
-0.164203 0.700930 0.396220 153 0 76
-0.241407 -0.750918 -0.120380 76 0 153
-0.409714 0.235240 0.520171 153 76 0
0.479959 -0.525235 0.086745 153 76 0
-0.079547 0.670270 0.490468 204 51 127
0.193221 -0.750918 -0.045544 76 0 153
-0.051027 0.606984 -0.516864 153 76 0
0.479959 0.038959 0.029379 153 76 0
0.153982 -0.403340 0.520171 153 76 0
-0.183431 -0.568855 0.520171 153 76 0
-0.505223 -0.400796 0.426629 153 76 0
0.069154 -0.241199 -0.516864 153 76 0
-0.505223 -0.182973 0.167878 153 76 0
0.086232 0.620698 -0.516864 153 76 0
-0.369621 0.700930 -0.505242 153 76 0
-0.505223 -0.228650 -0.509463 153 76 0
-0.518337 0.452042 0.410936 153 0 76
0.278491 0.382770 -0.516864 153 76 0
0.445895 0.700930 0.214589 153 0 76
0.257205 0.700930 0.504757 153 0 76
0.234145 -0.070979 -0.516864 153 76 0
-0.525964 0.540278 0.422927 153 0 76
0.040138 -0.700361 0.442393 76 0 153
0.393569 0.635838 0.468573 204 51 127
-0.505223 0.187280 0.392170 153 76 0
0.448612 0.192640 -0.516864 153 76 0
0.479959 0.237465 0.308634 153 76 0
-0.090022 0.700930 -0.106063 153 0 76
0.323936 -0.072971 -0.516864 153 76 0
0.099162 -0.396389 0.520171 153 76 0
-0.099481 0.198762 -0.516864 153 76 0
0.476418 0.700930 0.495524 153 0 76
0.481028 0.452042 0.323936 153 0 76
-0.484599 -0.462614 -0.516864 153 76 0
0.223294 0.471442 0.540911 153 0 76
0.500700 0.687295 0.322437 153 0 76
-0.383487 0.700930 -0.042212 153 0 76
-0.283329 0.700930 0.329409 153 0 76
-0.525964 0.667761 -0.490964 153 0 76
0.500700 0.487068 0.067116 153 0 76
0.331549 0.182903 -0.516864 153 76 0
-0.462460 -0.626474 -0.203598 153 76 0
0.465109 0.282563 -0.516864 153 76 0
0.004846 -0.750918 0.017376 76 0 153
0.322272 -0.143051 -0.516864 153 76 0
0.500700 0.552343 -0.210654 153 0 76
-0.461149 -0.653362 0.014725 76 0 153
-0.304453 -0.750918 -0.468290 76 0 153
0.281420 -0.626474 0.443240 153 76 0
0.479959 0.110062 0.292864 153 76 0
0.001825 0.142984 0.520171 153 76 0
0.185677 0.612765 0.509482 204 51 127
-0.505223 -0.564129 -0.371897 153 76 0
-0.350027 -0.726413 0.442393 76 0 153
0.294350 -0.254582 -0.516864 153 76 0
-0.525964 0.569543 0.506917 153 0 76
0.171100 -0.750918 0.076790 76 0 153
0.479959 -0.445714 0.132911 153 76 0
0.453205 -0.626474 -0.491905 153 76 0
-0.505223 -0.445412 0.380037 153 76 0
-0.461149 -0.714348 -0.112009 76 0 153
0.339891 -0.750918 -0.291547 76 0 153
0.174344 -0.750918 0.182193 76 0 153
-0.424672 0.569525 0.548689 0 255 0
0.479959 -0.246670 0.046663 153 76 0
0.042781 -0.750918 -0.125975 76 0 153
-0.050797 -0.750918 0.254059 76 0 153
0.116768 0.669518 0.455356 204 51 127
0.347202 0.458145 0.540911 0 255 0
0.122512 0.426935 -0.516864 153 76 0
-0.418728 0.700930 0.335930 153 0 76
-0.103826 -0.643651 0.442393 76 0 153
0.288088 0.700930 -0.079329 153 0 76
-0.279508 0.640550 0.455356 204 51 127
0.312850 -0.711343 -0.516864 153 76 0
-0.505223 -0.207939 -0.494344 153 76 0
-0.046672 0.700930 -0.134571 153 0 76
0.479959 -0.379732 0.338239 153 76 0
0.166359 0.601451 -0.516864 153 76 0
0.371511 0.660638 -0.516864 153 76 0
-0.505223 0.322292 0.297562 153 76 0
0.015478 -0.149833 -0.516864 153 76 0
0.479959 0.132882 -0.195705 153 76 0
-0.477338 0.700930 -0.382978 153 0 76
0.234554 0.683130 0.540911 204 51 127
0.237082 0.613328 -0.516864 153 76 0
-0.479167 0.700930 0.176808 153 0 76
0.119428 -0.195269 -0.516864 153 76 0
-0.331087 -0.750918 -0.447815 76 0 153
-0.382956 -0.355049 -0.516864 153 76 0
0.270652 0.101520 -0.516864 153 76 0
-0.482096 0.700930 -0.516527 153 76 0
-0.008862 -0.750918 0.091248 76 0 153
0.363291 0.700930 0.253827 153 0 76
-0.257118 -0.750918 -0.138752 76 0 153
-0.379050 -0.000196 0.520171 153 76 0
0.420330 -0.725519 -0.454057 76 0 153
-0.097649 -0.750918 -0.237777 76 0 153
-0.282232 0.454666 -0.516864 153 76 0
0.399094 -0.728183 0.442393 76 0 153
0.500700 0.571171 -0.084219 153 0 76
0.479959 0.088547 -0.379532 153 76 0
0.479959 -0.527491 0.252906 153 76 0
-0.409629 0.700930 0.492423 153 0 76
-0.505223 -0.130116 -0.226437 153 76 0
0.479959 -0.307486 -0.253225 153 76 0
-0.486705 -0.417502 -0.516864 153 76 0
-0.525964 0.682227 0.156610 153 0 76
0.479959 0.036646 -0.417742 153 76 0
0.423000 0.593987 0.548689 0 255 0
-0.362788 0.627761 0.545157 204 51 127
0.139100 0.045417 -0.516864 153 76 0
-0.505223 0.061624 0.332538 153 76 0
0.327281 -0.750918 -0.506548 153 76 0
0.479959 -0.351487 -0.504185 153 76 0
0.421682 0.661387 0.455356 204 51 127
-0.310282 0.700930 0.170243 153 0 76
-0.123708 -0.626474 0.465943 153 76 0
-0.505223 0.116139 0.143193 153 76 0
0.137082 -0.556264 0.520171 153 76 0
0.479959 -0.448436 -0.022025 153 76 0
-0.113168 0.700930 0.019169 153 0 76
-0.525964 0.493266 -0.100875 153 0 76
0.479959 0.420745 -0.142222 153 76 0
-0.287336 -0.694815 -0.516864 153 76 0
-0.019904 0.183808 0.520171 153 76 0
0.197370 0.700930 -0.428389 153 0 76
-0.525964 0.467130 -0.375845 153 0 76
-0.525964 0.617899 -0.176160 153 0 76
0.234923 0.700930 -0.255975 153 0 76
-0.217169 -0.300609 -0.516864 153 76 0
0.028580 0.700930 0.336488 153 0 76
0.500700 0.548284 0.144542 153 0 76
0.059511 0.700930 -0.242831 153 0 76
0.026605 -0.516149 -0.516864 153 76 0
-0.017215 0.595070 0.542261 153 0 76
0.500700 0.503333 0.339832 153 0 76
-0.186468 -0.158100 -0.516864 153 76 0
-0.525964 0.595369 0.159438 153 0 76
-0.459476 0.127363 -0.516864 153 76 0
0.393254 0.700930 -0.132751 153 0 76
-0.476009 0.336191 -0.516864 153 76 0
-0.525964 0.642722 -0.413962 153 0 76
-0.335971 0.700930 0.427410 153 0 76
-0.505223 0.325779 -0.300660 153 76 0
-0.421786 -0.417310 -0.516864 153 76 0
-0.368964 -0.411035 0.520171 153 76 0
0.180256 -0.668656 -0.516864 153 76 0
0.329836 -0.370937 0.520171 153 76 0
-0.076228 0.700930 0.011701 153 0 76
0.301063 -0.750918 -0.130014 76 0 153
0.039141 0.587113 0.540911 153 0 76
0.500700 0.606499 -0.025891 153 0 76
-0.081582 0.660083 0.567891 204 51 127
-0.322685 -0.069516 0.520171 153 76 0
-0.245571 -0.263617 -0.516864 153 76 0
-0.525964 0.513280 0.185502 153 0 76
-0.505223 -0.094549 -0.352664 153 76 0
0.372474 0.054222 -0.516864 153 76 0
0.204877 0.433272 0.520171 153 76 0
-0.505223 -0.570306 -0.137858 153 76 0
-0.505223 -0.476546 -0.423162 153 76 0
-0.505223 -0.042165 0.362680 153 76 0
-0.125313 0.680576 0.542614 153 0 76
0.169763 -0.049958 0.520171 153 76 0
-0.385833 -0.697794 0.442393 76 0 153
-0.339229 -0.463503 0.520171 153 76 0
-0.505223 -0.252611 -0.304487 153 76 0
-0.505223 0.409310 0.130549 153 76 0
0.193478 0.182726 0.520171 153 76 0
-0.505223 -0.238980 0.392735 153 76 0
-0.505223 0.034275 0.053253 153 76 0
-0.505223 0.118106 -0.011142 153 76 0
-0.106324 0.700930 0.043314 153 0 76
0.426623 -0.521971 -0.516864 153 76 0
-0.505223 -0.302825 -0.429067 153 76 0
0.457122 0.700930 0.155403 153 0 76
-0.505223 0.269517 -0.378870 153 76 0
-0.515760 0.700928 -0.297225 153 0 76
-0.449456 -0.626474 0.498935 153 76 0
0.332490 -0.337486 -0.516864 153 76 0
0.191089 0.361666 0.520171 153 76 0
-0.525964 0.487029 -0.016677 153 0 76
0.479959 -0.369365 0.024332 153 76 0
0.295688 -0.362922 0.520171 153 76 0
-0.525964 0.655375 -0.051073 153 0 76
-0.246065 0.225981 0.520171 153 76 0
-0.525964 0.624500 -0.335879 153 0 76
-0.437953 0.700930 0.201627 153 0 76
0.365482 0.700930 0.023760 153 0 76
0.094360 -0.088509 -0.516864 153 76 0
0.228970 -0.379361 0.520171 153 76 0
0.330952 -0.750918 0.152142 76 0 153
-0.118925 -0.672686 -0.516864 153 76 0
0.500700 0.656148 0.369132 153 0 76
0.500700 0.564123 0.370641 153 0 76
0.500700 0.516095 0.382805 153 0 76
0.303450 0.285433 -0.516864 153 76 0
0.053212 -0.661163 -0.516864 153 76 0
0.464788 0.700930 -0.464062 153 0 76
0.095931 0.354143 -0.516864 153 76 0
-0.505223 -0.394843 -0.399559 153 76 0
-0.525964 0.479817 -0.404695 153 0 76
-0.505223 0.173535 0.147128 153 76 0
0.479959 -0.593124 0.331963 153 76 0
0.479959 -0.331259 0.004766 153 76 0
0.471399 -0.071174 -0.516864 153 76 0
-0.044329 0.419930 -0.516864 153 76 0
0.479959 -0.545550 0.377543 153 76 0
0.479204 0.700930 -0.295837 153 0 76
-0.340307 -0.750918 0.234453 76 0 153
0.184762 0.272987 -0.516864 153 76 0
0.479959 -0.453748 0.036032 153 76 0
-0.487536 0.700930 0.225927 153 0 76
-0.395320 -0.750918 -0.422289 76 0 153
-0.505223 -0.445583 -0.502141 153 76 0
-0.236759 0.700930 -0.128034 153 0 76
-0.453144 0.158350 -0.516864 153 76 0
-0.298288 -0.474593 0.520171 153 76 0
-0.505223 -0.238677 0.481020 153 76 0
-0.139484 0.700930 -0.127848 153 0 76
0.479959 -0.156919 0.356034 153 76 0
0.194778 -0.750918 0.331533 76 0 153
-0.505223 -0.399421 0.295359 153 76 0
0.394223 -0.558596 -0.516864 153 76 0
0.257699 0.537838 -0.516864 153 76 0
0.370553 -0.750918 -0.117191 76 0 153
-0.505223 -0.269854 0.364929 153 76 0
0.479959 0.234326 0.228347 153 76 0
0.401395 -0.750918 -0.085920 76 0 153
0.479959 0.238509 -0.432894 153 76 0
0.159953 -0.573703 0.520171 153 76 0
0.473455 -0.626474 -0.299548 153 76 0
0.167959 -0.336390 -0.516864 153 76 0
0.078450 -0.750918 0.263733 76 0 153
-0.139624 -0.750918 0.211491 76 0 153
-0.505223 -0.340874 0.132535 153 76 0
0.390228 -0.389909 -0.516864 153 76 0
0.072940 0.700930 0.326464 153 0 76
-0.525964 0.638776 0.510809 153 0 76
-0.505223 0.231346 0.025485 153 76 0
-0.463834 0.700930 -0.015176 153 0 76
0.479959 -0.192003 -0.011896 153 76 0
0.466580 -0.626474 0.387001 153 76 0
0.350246 0.255030 -0.516864 153 76 0
-0.461149 -0.703877 -0.342599 76 0 153
0.479959 -0.223912 -0.094012 153 76 0
-0.337082 0.080121 -0.516864 153 76 0
-0.162985 -0.750918 -0.512585 76 0 153
-0.505223 -0.381973 0.156649 153 76 0
-0.048585 0.630347 0.455356 204 51 127
-0.180831 0.364586 0.520171 153 76 0
0.170585 -0.104831 0.520171 153 76 0
0.029592 0.700930 0.123975 153 0 76
0.466698 -0.142590 0.518775 153 76 0
0.273366 -0.750918 -0.218837 76 0 153
0.432941 -0.603595 0.520171 153 76 0
0.479959 0.087336 -0.439831 153 76 0
-0.506512 0.452042 0.295000 153 76 0
0.320016 0.683831 -0.516864 153 76 0
0.386960 0.700930 0.099547 153 0 76
-0.094962 0.700930 0.321802 153 0 76
0.315525 0.601286 0.540911 0 255 0
-0.461149 -0.721637 0.243853 76 0 153
0.190031 0.127315 -0.516864 153 76 0
-0.505223 0.411304 0.405023 153 76 0
0.073911 0.700930 0.259272 153 0 76
0.227908 0.439569 0.520171 153 76 0
-0.284892 0.618949 0.546314 204 51 127
-0.076980 -0.487044 0.520171 153 76 0
-0.424782 0.013029 0.520171 153 76 0
0.315214 -0.195413 0.520171 153 76 0
0.025578 -0.570574 0.520171 153 76 0
0.001063 0.700930 0.470471 153 0 76
0.396866 0.700930 -0.321007 153 0 76
-0.155317 -0.750918 0.072649 76 0 153
0.479959 -0.256341 0.016479 153 76 0
0.479959 -0.001316 -0.201255 153 76 0
-0.002903 -0.548914 0.520171 153 76 0
0.479959 -0.415970 -0.218508 153 76 0
-0.230560 0.260869 0.520171 153 76 0
-0.273664 0.452042 0.535012 153 0 76
0.187916 -0.008422 -0.516864 153 76 0
0.039239 0.593117 -0.516864 153 76 0
0.225772 -0.632149 0.442393 76 0 153
0.479959 -0.028225 -0.508565 153 76 0
-0.115459 -0.225413 -0.516864 153 76 0
0.269631 0.620082 0.544634 204 51 127
-0.505223 0.020845 -0.146885 153 76 0
-0.474357 -0.602496 -0.516864 153 76 0
0.479959 0.349122 0.021157 153 76 0
0.500700 0.458263 0.032045 153 0 76
-0.294450 -0.098239 0.520171 153 76 0
-0.085370 -0.065872 -0.516864 153 76 0
0.157679 0.220385 0.520171 153 76 0
-0.274947 -0.333819 -0.516864 153 76 0
0.479959 -0.059742 -0.485750 153 76 0
-0.124579 -0.508705 -0.516864 153 76 0
-0.485420 -0.626474 0.338251 153 76 0
0.391962 -0.699866 0.442393 76 0 153
-0.505223 0.450591 -0.404363 153 76 0
0.203136 -0.299031 0.520171 153 76 0
0.094966 0.016527 -0.516864 153 76 0
0.479959 -0.181474 -0.297134 153 76 0
-0.505223 0.385131 -0.155073 153 76 0
0.237796 0.700930 0.328094 153 0 76
0.111170 -0.150465 -0.516864 153 76 0
0.192754 -0.750918 -0.432389 76 0 153
-0.069165 -0.618262 -0.516864 153 76 0
-0.505223 0.222061 -0.368238 153 76 0
-0.258485 -0.528024 -0.516864 153 76 0
0.351074 0.460452 -0.516864 153 76 0
-0.525964 0.643206 -0.109933 153 0 76
-0.461149 -0.687806 -0.421164 76 0 153
-0.347892 0.700930 -0.415860 153 0 76
0.003418 0.700930 -0.108764 153 0 76
0.500700 0.488949 -0.366862 153 0 76
0.479959 -0.154614 -0.316140 153 76 0
0.188913 -0.016967 0.520171 153 76 0
0.393544 -0.225524 -0.516864 153 76 0
0.196640 0.700930 0.348085 153 0 76
-0.505223 -0.422904 0.358118 153 76 0
-0.204615 -0.750918 0.058932 76 0 153
0.174213 -0.750918 -0.494620 76 0 153
0.201423 0.130476 0.520171 153 76 0
0.080297 0.700930 0.522437 153 0 76
-0.228001 -0.182521 0.520171 153 76 0
-0.226088 -0.750918 0.150211 76 0 153
0.267708 0.680576 0.566370 204 51 127
-0.505223 -0.008393 -0.429545 153 76 0
-0.322973 -0.750918 0.285074 76 0 153
0.042491 0.565768 0.548689 0 255 0
0.479959 -0.359523 0.363552 153 76 0
-0.368556 0.700930 0.510145 153 0 76
-0.525964 0.632183 -0.212248 153 0 76
-0.495398 0.526189 0.540911 153 0 76
-0.042374 0.700930 0.180643 153 0 76
0.154110 0.035943 0.520171 153 76 0
0.192445 -0.237559 -0.516864 153 76 0
0.348307 0.429773 0.520171 153 76 0
-0.165377 -0.020387 0.520171 153 76 0
0.324344 0.551579 0.548689 0 255 0
-0.461149 -0.661848 -0.102725 76 0 153
-0.505223 -0.564528 -0.014713 153 76 0
0.479959 -0.004095 0.165281 153 76 0
-0.418735 0.431544 0.520171 153 76 0
0.420330 -0.749134 0.272944 76 0 153
0.479959 -0.546125 -0.496580 153 76 0
0.500700 0.508092 -0.291377 153 0 76
-0.505223 0.112630 0.377063 153 76 0
0.303123 0.700930 0.188821 153 0 76
-0.303164 0.638420 0.455356 204 51 127
0.500700 0.680281 -0.112993 153 0 76
0.085841 0.348983 0.520171 153 76 0
-0.174689 -0.750918 0.174953 76 0 153
-0.498199 0.700930 0.395444 153 0 76
0.399500 0.700930 -0.246699 153 0 76
-0.271816 0.700930 -0.350443 153 0 76
0.479959 -0.376339 0.407092 153 76 0
-0.176637 0.273656 -0.516864 153 76 0
0.411970 0.304914 0.520171 153 76 0
0.200933 0.670270 0.518790 204 51 127
-0.183074 0.700930 -0.393559 153 0 76
0.387529 0.065497 0.520171 153 76 0
0.329087 0.011381 0.520171 153 76 0
-0.412987 -0.750918 -0.241935 76 0 153
0.217327 0.594119 -0.516864 153 76 0
-0.454282 -0.413127 0.520171 153 76 0
-0.201251 -0.750918 0.091026 76 0 153
-0.505223 -0.603923 0.274263 153 76 0
-0.367742 0.628366 0.462344 204 51 127
0.420330 -0.627638 0.056480 76 0 153
0.323390 0.492034 -0.516864 153 76 0
0.479959 -0.426355 0.448322 153 76 0
-0.134833 0.563711 0.548689 0 255 0
-0.425059 0.700930 -0.021115 153 0 76
0.420330 -0.704965 -0.282926 76 0 153
0.396337 -0.750918 0.105624 76 0 153
0.479959 -0.419864 0.470578 153 76 0
0.160137 0.700930 0.190978 153 0 76
0.013649 0.058848 0.520171 153 76 0
-0.051356 0.700930 -0.495910 153 0 76
0.449378 -0.340322 -0.516864 153 76 0
0.479959 -0.621460 0.488299 153 76 0
0.300338 0.483817 0.548689 0 255 0
-0.191460 -0.750918 -0.230608 76 0 153
-0.099813 0.082668 0.520171 153 76 0
0.425561 -0.626474 0.424737 153 76 0
-0.343185 0.184933 0.520171 153 76 0
0.163608 0.408935 0.520171 153 76 0
-0.505223 -0.551911 0.030230 153 76 0
0.477658 0.700930 -0.016415 153 0 76
-0.210201 0.594534 0.540911 204 51 127
0.389170 0.510069 -0.516864 153 76 0
0.479959 -0.421425 -0.328738 153 76 0
-0.268488 0.249531 -0.516864 153 76 0
0.500700 0.462004 0.073114 153 0 76
0.305322 0.358198 0.520171 153 76 0
0.479959 -0.012970 -0.048005 153 76 0
-0.505223 -0.417562 -0.439875 153 76 0
-0.321789 0.700930 -0.191526 153 0 76
-0.339349 -0.750918 0.126494 76 0 153
-0.401486 0.700930 -0.467161 153 0 76
-0.242479 0.700930 0.501197 153 0 76
-0.525964 0.562286 -0.487243 153 0 76
0.479959 0.228505 -0.238772 153 76 0
-0.272334 0.380173 0.520171 153 76 0
0.479959 0.276815 -0.491109 153 76 0
-0.447171 0.328314 0.520171 153 76 0
0.229666 -0.750918 0.203774 76 0 153
-0.339567 -0.750918 0.067433 76 0 153
0.274287 -0.513608 0.520171 153 76 0
0.447750 0.469329 0.540911 153 0 76
-0.505223 -0.550285 0.107548 153 76 0
0.479959 0.298648 0.097523 153 76 0
-0.525964 0.609579 -0.423000 153 0 76
-0.088352 -0.750918 -0.163208 76 0 153
-0.519175 0.700292 0.077531 153 0 76
0.479959 -0.296765 0.271012 153 76 0
0.245405 -0.750918 0.277935 76 0 153
-0.505223 0.421395 -0.322777 153 76 0
0.479344 0.700930 0.049043 153 0 76
-0.334144 0.380616 -0.516864 153 76 0
-0.433493 -0.750918 -0.494228 76 0 153
0.479959 0.124234 -0.508895 153 76 0
-0.399637 0.492241 0.548689 0 255 0
0.500700 0.672113 -0.405483 153 0 76
0.091486 0.279549 0.520171 153 76 0
0.223663 0.700930 0.358534 153 0 76
0.007670 -0.491160 -0.516864 153 76 0
0.193800 0.549960 0.548689 0 255 0
0.428063 0.700930 0.263632 153 0 76
0.225131 -0.045850 0.520171 153 76 0
-0.351070 -0.237745 -0.516864 153 76 0
0.479959 -0.111999 0.348548 153 76 0
-0.115009 0.274332 0.520171 153 76 0
-0.055054 0.059085 0.520171 153 76 0
-0.431671 -0.135132 0.520171 153 76 0
-0.505223 -0.078432 0.461549 153 76 0
-0.273450 0.700930 -0.094365 153 0 76
-0.505223 -0.318937 -0.474394 153 76 0
-0.118952 -0.750918 -0.196941 76 0 153
-0.230331 0.700930 0.047736 153 0 76
-0.319358 0.516998 0.548689 0 255 0
-0.461149 -0.660446 0.293395 76 0 153
0.217906 -0.750918 -0.215338 76 0 153
-0.505223 -0.161241 0.447057 153 76 0
0.479959 -0.469108 0.219693 153 76 0
-0.390877 -0.750918 -0.468665 76 0 153
-0.091313 0.596152 0.554941 204 51 127
-0.215982 0.645593 0.455356 204 51 127
0.349119 0.629414 0.500551 204 51 127
-0.469892 -0.247142 0.520171 153 76 0
0.479959 0.113784 -0.248239 153 76 0
-0.168540 0.700930 -0.440040 153 0 76
-0.124632 0.645031 0.455356 204 51 127
-0.259746 0.538193 0.548689 0 255 0
0.479959 0.081476 -0.056472 153 76 0
0.379916 0.465586 -0.516864 153 76 0
-0.124061 -0.750918 -0.360900 76 0 153
0.406657 -0.433963 0.520171 153 76 0
-0.213375 -0.109973 -0.516864 153 76 0
0.021798 0.670270 0.533177 204 51 127
0.109672 -0.459387 -0.516864 153 76 0
-0.461182 -0.003912 0.520171 153 76 0
0.479959 0.121261 -0.027866 153 76 0
0.479959 0.226256 0.480827 153 76 0
-0.179864 0.700930 -0.155232 153 0 76
-0.525964 0.551533 -0.101404 153 0 76
-0.159071 -0.750918 -0.343866 76 0 153
-0.505223 0.283961 -0.455137 153 76 0
-0.525964 0.679302 0.278143 153 0 76
-0.419394 0.670270 0.467696 204 51 127
0.023199 -0.218690 -0.516864 153 76 0
-0.348196 -0.193498 0.520171 153 76 0
-0.264048 0.088541 -0.516864 153 76 0
-0.505223 -0.546744 -0.465572 153 76 0
0.227750 0.347185 -0.516864 153 76 0
-0.505223 -0.185664 -0.502128 153 76 0
0.148080 -0.230804 0.520171 153 76 0
0.479959 -0.469624 -0.489079 153 76 0
-0.307891 -0.750918 0.103211 76 0 153
0.430908 0.226391 -0.516864 153 76 0
-0.505223 -0.523438 0.144672 153 76 0
-0.060486 -0.704822 0.442393 76 0 153
0.500700 0.462596 -0.303174 153 0 76
-0.359811 0.670270 0.456274 204 51 127
0.168190 0.700930 0.212484 153 0 76
0.263958 0.071314 -0.516864 153 76 0
-0.261882 0.434181 0.520171 153 76 0
-0.505223 -0.376275 0.202885 153 76 0
0.017578 0.700930 0.426416 153 0 76
0.091212 0.700930 -0.049708 153 0 76
0.489793 0.452042 0.538495 153 0 76
0.289424 0.700930 -0.252397 153 0 76
-0.263238 0.700930 0.262305 153 0 76
0.378698 -0.750918 0.149390 76 0 153
0.256822 0.700930 -0.087096 153 0 76
0.158622 0.227954 -0.516864 153 76 0
-0.505223 -0.220529 0.222049 153 76 0
-0.505223 0.056029 -0.268481 153 76 0
0.064536 -0.733940 -0.516864 153 76 0
-0.497378 0.700930 -0.253718 153 0 76
0.478975 -0.498386 0.505741 153 76 0
-0.187095 -0.011005 -0.516864 153 76 0
0.411946 0.450211 0.520171 153 0 76
-0.505223 0.039877 0.479819 153 76 0
-0.276066 -0.462906 -0.516864 153 76 0
0.461926 0.700930 0.442979 153 0 76
-0.505223 0.303897 0.069613 153 76 0
-0.098341 0.226100 0.520171 153 76 0
0.294022 -0.527755 0.520171 153 76 0
-0.525964 0.672788 -0.284168 153 0 76
0.439127 0.700930 0.085098 153 0 76
0.420330 -0.730157 0.012221 76 0 153
0.049377 -0.558578 0.520171 153 76 0
-0.166114 -0.750918 -0.399020 76 0 153
0.328150 0.121502 -0.516864 153 76 0
0.104920 0.087827 0.520171 153 76 0
-0.144735 -0.750918 0.019023 76 0 153
0.479959 0.260323 -0.106996 153 76 0
0.479959 -0.303197 0.497311 153 76 0
0.224145 -0.436905 -0.516864 153 76 0
-0.505223 -0.499780 0.227056 153 76 0
0.201081 -0.046815 -0.516864 153 76 0
-0.362018 -0.651195 0.442393 76 0 153
0.183187 0.303193 -0.516864 153 76 0
0.479959 0.209303 -0.150835 153 76 0
-0.525964 0.484272 -0.483468 153 0 76
-0.013731 -0.531450 -0.516864 153 76 0
-0.212019 0.612707 0.455600 204 51 127
-0.525964 0.505249 0.423263 153 0 76
0.479959 -0.550613 -0.170520 153 76 0
0.479959 -0.222716 0.118784 153 76 0
0.207508 0.700930 0.000643 153 0 76
-0.505223 -0.025641 0.101625 153 76 0
-0.028234 -0.551518 0.520171 153 76 0
0.149232 -0.750918 0.416715 76 0 153
-0.125630 0.241938 -0.516864 153 76 0
0.320179 0.625876 0.546196 204 51 127
-0.272770 -0.181220 0.520171 153 76 0
-0.080188 -0.258146 -0.516864 153 76 0
-0.109945 -0.750918 0.305594 76 0 153
0.476296 -0.626474 -0.066919 153 76 0
-0.317702 0.115721 -0.516864 153 76 0
0.479959 0.347928 -0.398515 153 76 0
0.420330 -0.723956 -0.407134 76 0 153
-0.445470 0.024139 -0.516864 153 76 0
0.458722 -0.303102 0.520171 153 76 0
0.479959 0.256156 0.354731 153 76 0
0.479959 -0.582588 -0.206956 153 76 0
0.182981 0.572969 -0.516864 153 76 0
-0.197105 -0.320006 -0.516864 153 76 0
-0.219482 0.670270 0.505520 204 51 127
0.300890 0.700930 0.317739 153 0 76
0.068277 0.083180 -0.516864 153 76 0
0.479959 -0.184846 -0.416587 153 76 0
0.411999 -0.371152 -0.516864 153 76 0
-0.322299 0.250692 -0.516864 153 76 0
0.133216 -0.499387 -0.516864 153 76 0
0.253396 -0.601072 -0.516864 153 76 0
-0.108694 -0.750918 0.077332 76 0 153
-0.296193 0.700930 -0.421667 153 0 76
0.479959 -0.330905 -0.361265 153 76 0
-0.505223 -0.127884 0.221556 153 76 0
0.500700 0.508328 0.429985 153 0 76
-0.440937 -0.668537 -0.516864 153 76 0
0.086492 0.055722 0.520171 153 76 0
-0.435513 -0.750918 0.147799 76 0 153
-0.419823 0.700930 0.087230 153 0 76
0.267361 -0.434540 -0.516864 153 76 0
0.163759 -0.750918 -0.448492 76 0 153
0.274228 -0.750918 0.360215 76 0 153
0.479959 -0.607266 0.158411 153 76 0
-0.003352 -0.197846 -0.516864 153 76 0
0.413272 0.088556 0.520171 153 76 0
-0.067290 -0.750918 -0.206023 76 0 153
0.479959 -0.264712 -0.358357 153 76 0
-0.505223 -0.240222 -0.013079 153 76 0
0.164976 0.700930 0.280883 153 0 76
-0.463083 -0.626474 0.042703 153 76 0
0.479959 -0.138227 0.028809 153 76 0
-0.397524 0.700930 0.014885 153 0 76
0.457045 -0.157062 -0.516864 153 76 0
-0.505223 0.103087 -0.332964 153 76 0
-0.461149 -0.723901 0.051710 76 0 153
-0.261348 -0.089148 -0.516864 153 76 0
-0.505223 -0.281650 -0.444355 153 76 0
0.456322 -0.626474 -0.348777 153 76 0
0.420330 -0.691122 -0.185956 76 0 153
0.375666 0.469106 0.540911 153 0 76
-0.145765 0.503108 -0.516864 153 76 0
-0.027085 -0.750918 -0.009142 76 0 153
0.393656 0.700930 0.422238 153 0 76
0.042320 0.700930 -0.334507 153 0 76
-0.047390 0.700930 0.381446 153 0 76
0.500700 0.645346 -0.443886 153 0 76
-0.505223 -0.427596 0.106427 153 76 0
-0.188618 -0.636665 0.442393 76 0 153
0.479959 0.343101 0.124851 153 76 0
-0.489375 0.700930 0.434519 153 0 76
-0.311974 -0.685716 -0.516864 153 76 0
0.457246 -0.626474 0.497526 153 76 0
-0.273665 -0.571558 0.520171 153 76 0
-0.325422 0.515092 -0.516864 153 76 0
-0.388910 0.700930 0.369318 153 0 76
0.261647 0.700930 -0.415927 153 0 76
-0.461149 -0.726910 -0.358883 76 0 153
-0.483198 0.561534 -0.516864 153 76 0
0.479959 0.384139 -0.203740 153 76 0
-0.298068 -0.750918 -0.325522 76 0 153
0.479959 0.411954 -0.313377 153 76 0
-0.262550 -0.037024 -0.516864 153 76 0
-0.505223 0.074484 0.045641 153 76 0
-0.505223 -0.011947 -0.098188 153 76 0
-0.200969 0.700930 -0.472600 153 0 76
-0.023098 0.571451 -0.516864 153 76 0
-0.327228 0.435791 -0.516864 153 76 0
-0.505223 0.316669 0.246745 153 76 0
0.479959 0.043838 0.007394 153 76 0
-0.000613 0.700930 -0.360706 153 0 76
-0.005644 -0.750918 0.388900 76 0 153
-0.505223 -0.072794 -0.269394 153 76 0
-0.117681 0.700930 0.448790 153 0 76
0.479959 0.385722 0.344821 153 76 0
-0.505223 0.397814 -0.200830 153 76 0
-0.458535 -0.391346 -0.516864 153 76 0
-0.329609 -0.207128 -0.516864 153 76 0
-0.300426 -0.542440 -0.516864 153 76 0
0.288780 0.700930 0.158601 153 0 76
0.111555 -0.750918 -0.244672 76 0 153
0.479959 -0.058899 0.410828 153 76 0
-0.525964 0.452176 -0.247000 153 0 76
0.056287 -0.260046 -0.516864 153 76 0
0.341523 0.337822 -0.516864 153 76 0
-0.344608 0.700930 -0.173239 153 0 76
0.087625 -0.293992 0.520171 153 76 0
0.325296 0.700930 -0.027463 153 0 76
0.111271 0.700930 0.252415 153 0 76
0.473519 0.700930 -0.401986 153 0 76
0.404169 -0.650074 0.442393 76 0 153
-0.505223 0.353315 0.030623 153 76 0
-0.325751 -0.376063 -0.516864 153 76 0
0.420330 -0.627508 0.314749 153 76 0
0.479959 0.445646 -0.398001 153 0 76
-0.012217 -0.237561 -0.516864 153 76 0
0.416246 -0.359724 0.520171 153 76 0
0.500700 0.555676 -0.116344 153 0 76
0.500700 0.474516 -0.449341 153 0 76
-0.132988 -0.750918 0.360789 76 0 153
0.479959 0.155621 -0.158537 153 76 0
-0.252709 0.004043 0.520171 153 76 0
0.127224 -0.603252 0.520171 153 76 0
0.350414 0.281947 0.520171 153 76 0
-0.449847 0.650965 0.536517 204 51 127
-0.183222 -0.237454 0.520171 153 76 0
-0.505223 -0.268927 0.461490 153 76 0
-0.029673 -0.638294 0.442393 76 0 153
-0.107768 0.039584 -0.516864 153 76 0
-0.382521 -0.750918 -0.341106 76 0 153
0.159283 0.700930 -0.508987 153 0 76
0.142688 -0.382734 0.520171 153 76 0
0.500700 0.581156 -0.435831 153 0 76
0.003325 0.253631 -0.516864 153 76 0
-0.388555 0.700930 0.459259 153 0 76
0.208031 -0.750918 0.134258 76 0 153
-0.480475 -0.626474 -0.316477 153 76 0
0.479959 -0.248492 -0.019975 153 76 0
-0.505223 -0.216325 -0.417578 153 76 0
0.479959 -0.151734 -0.162574 153 76 0
-0.506499 0.700930 0.482885 153 0 76
0.420330 -0.707285 -0.333026 76 0 153
0.460798 -0.626474 0.083766 153 76 0
0.479959 -0.539925 0.020374 153 76 0
0.373788 -0.681970 -0.516864 153 76 0
0.348677 -0.750918 0.198679 76 0 153
-0.017533 -0.241604 0.520171 153 76 0
-0.461149 -0.655745 -0.166476 76 0 153
0.234467 -0.464558 -0.516864 153 76 0
0.088982 0.700930 -0.170335 153 0 76
-0.319590 -0.580345 0.520171 153 76 0
0.176562 0.700930 -0.220585 153 0 76
-0.461149 -0.665429 0.089854 76 0 153
-0.439149 0.586280 -0.516864 153 76 0
-0.505223 -0.132725 0.414672 153 76 0
0.002825 0.700930 0.175618 153 0 76
-0.198841 0.553033 -0.516864 153 76 0
0.339067 0.221089 0.520171 153 76 0
-0.505223 -0.258790 0.171270 153 76 0
-0.215071 -0.071581 -0.516864 153 76 0
-0.461149 -0.658004 -0.310628 76 0 153
0.479959 -0.347300 -0.104140 153 76 0
0.172728 0.700930 0.453618 153 0 76
-0.498655 -0.354352 -0.516864 153 76 0
0.479959 -0.401679 0.057648 153 76 0
0.181620 0.119356 0.520171 153 76 0
-0.103042 -0.282445 -0.516864 153 76 0
-0.505223 0.097530 0.074854 153 76 0
0.479959 -0.557361 -0.293435 153 76 0
-0.006838 -0.123749 -0.516864 153 76 0
0.213921 0.405731 0.520171 153 76 0
-0.176345 0.690054 -0.516864 153 0 76
0.479959 0.071063 0.105521 153 76 0
0.479959 -0.389479 -0.283225 153 76 0
-0.041262 0.377036 -0.516864 153 76 0
0.258533 0.670270 0.504194 204 51 127
-0.266660 -0.750918 0.030245 76 0 153
-0.064952 0.606022 0.545846 204 51 127
0.053709 0.700930 -0.130157 153 0 76
0.479959 0.118808 0.444892 153 76 0
-0.505223 -0.425429 -0.227047 153 76 0
-0.345863 -0.552956 -0.516864 153 76 0
-0.229260 0.121863 0.520171 153 76 0
-0.505223 0.048434 0.270924 153 76 0
0.117408 -0.114268 -0.516864 153 76 0
0.006547 0.700930 -0.020982 153 0 76
-0.270434 0.700930 -0.141032 153 0 76
-0.169455 0.700930 0.290171 153 0 76
-0.050248 -0.750918 -0.240587 76 0 153
0.479959 0.044076 0.427419 153 76 0
-0.505223 0.205517 -0.144002 153 76 0
0.367003 0.671526 0.566837 204 51 127
0.372522 0.115157 -0.516864 153 76 0
0.336882 0.125002 0.520171 153 76 0
0.425867 0.489144 -0.516864 153 76 0
-0.295436 -0.411551 -0.516864 153 76 0
0.453083 0.008538 -0.516864 153 76 0
0.479959 0.038279 -0.369638 153 76 0
0.479959 -0.284165 -0.372224 153 76 0
-0.505223 -0.146445 -0.500242 153 76 0
0.479959 0.060634 0.310062 153 76 0
0.411387 0.700930 -0.017372 153 0 76
-0.123354 0.700930 0.075239 153 0 76
0.420330 -0.707874 0.052753 76 0 153
-0.278985 0.515530 -0.516864 153 76 0
-0.412118 -0.750918 0.281397 76 0 153
0.167717 0.434078 -0.516864 153 76 0
-0.505223 0.191951 -0.027805 153 76 0
-0.461149 -0.642918 0.277956 76 0 153
-0.040234 -0.093341 -0.516864 153 76 0
0.242416 -0.203566 -0.516864 153 76 0
0.420330 -0.643248 -0.475858 76 0 153
-0.505223 -0.083539 -0.124375 153 76 0
-0.505223 -0.459198 -0.035668 153 76 0
-0.505223 -0.591449 0.182658 153 76 0
0.074631 0.472768 0.548689 0 255 0
-0.149080 0.406732 0.520171 153 76 0
0.176830 -0.067647 -0.516864 153 76 0
0.136226 -0.452910 -0.516864 153 76 0
0.479959 0.235651 0.046244 153 76 0
0.479959 -0.609197 0.313826 153 76 0
-0.505223 -0.153004 -0.308259 153 76 0
0.203649 0.700930 -0.066290 153 0 76
0.178503 -0.742962 0.442393 76 0 153
-0.134196 -0.151451 0.520171 153 76 0
-0.400441 0.700930 -0.180412 153 0 76
-0.080803 0.351506 -0.516864 153 76 0
-0.401939 0.284642 -0.516864 153 76 0
0.479959 -0.053144 0.018041 153 76 0
0.415001 -0.124706 -0.516864 153 76 0
-0.475602 0.495809 -0.516864 153 76 0
-0.166327 -0.750918 -0.073575 76 0 153
0.030154 -0.750918 -0.015454 76 0 153
0.479959 0.046261 -0.212988 153 76 0
0.066835 0.499291 -0.516864 153 76 0
-0.473576 0.470901 0.540911 153 0 76
0.228379 0.700930 0.277519 153 0 76
0.186985 -0.750918 -0.409814 76 0 153
0.479959 0.142784 0.325108 153 76 0
0.369995 0.700930 -0.039340 153 0 76
-0.100011 0.394481 0.520171 153 76 0
-0.399546 -0.167837 0.520171 153 76 0
0.061447 0.055628 0.520171 153 76 0
-0.461149 -0.650655 -0.443497 76 0 153
-0.296985 0.620097 0.519613 204 51 127
0.200552 -0.750918 -0.259741 76 0 153
-0.505223 -0.594786 -0.264778 153 76 0
0.479959 -0.434480 -0.099277 153 76 0
-0.322994 0.296779 -0.516864 153 76 0
0.479959 -0.390684 0.318795 153 76 0
0.303156 -0.432513 -0.516864 153 76 0
-0.505223 -0.490116 -0.233895 153 76 0
0.500700 0.565768 -0.004486 153 0 76
-0.253732 0.565409 -0.516864 153 76 0
-0.103808 0.143116 0.520171 153 76 0
0.263613 -0.750918 -0.152870 76 0 153
0.091818 0.331743 -0.516864 153 76 0
-0.193101 0.700930 -0.371825 153 0 76
0.096398 0.607776 0.491095 204 51 127
-0.185611 -0.696071 -0.516864 153 76 0
-0.525964 0.500460 0.344952 153 0 76
0.371332 0.700930 0.125364 153 0 76
0.444837 0.371171 0.520171 153 76 0
-0.503222 -0.626474 -0.002003 153 76 0
0.047626 0.255918 -0.516864 153 76 0
0.479959 0.209422 0.232349 153 76 0
-0.087729 0.700930 -0.024344 153 0 76
-0.220613 0.700930 -0.047027 153 0 76
0.045146 0.229259 0.520171 153 76 0
0.090391 -0.186632 0.520171 153 76 0
-0.165679 -0.020599 -0.516864 153 76 0
0.303134 -0.667404 -0.516864 153 76 0
-0.267570 0.700930 -0.167658 153 0 76
-0.344088 0.004014 -0.516864 153 76 0
-0.495193 0.358903 0.517190 153 76 0
0.123375 0.046850 0.520171 153 76 0
-0.146499 0.700930 -0.380255 153 0 76
0.423068 0.681469 0.540911 204 51 127
-0.011843 0.700930 -0.239798 153 0 76
0.479959 0.204867 -0.074266 153 76 0
-0.431070 0.316036 -0.516864 153 76 0
-0.525964 0.539974 -0.200383 153 0 76
-0.372791 0.700930 0.104921 153 0 76
0.352796 0.080703 0.520171 153 76 0
-0.505223 -0.224282 -0.266351 153 76 0
0.500700 0.522181 -0.461935 153 0 76
-0.009280 0.700930 -0.151078 153 0 76
0.500700 0.605589 0.124185 153 0 76
0.240494 -0.241598 -0.516864 153 76 0
-0.505223 0.345085 0.091532 153 76 0
0.497298 0.581488 -0.516864 153 0 76
0.479959 0.246409 -0.256158 153 76 0
0.112609 0.700930 0.454561 153 0 76
0.479959 -0.208698 0.165109 153 76 0
-0.195870 0.611614 0.506105 204 51 127
-0.367140 0.700930 -0.277260 153 0 76
0.140979 0.609739 0.474263 204 51 127
-0.040280 -0.750918 -0.342911 76 0 153
0.095162 -0.332101 -0.516864 153 76 0
-0.505223 -0.069866 -0.019235 153 76 0
-0.525964 0.605727 -0.264914 153 0 76
-0.525964 0.506599 -0.176499 153 0 76
0.420330 -0.722893 -0.149361 76 0 153
-0.145253 0.216534 -0.516864 153 76 0
0.454401 -0.091903 -0.516864 153 76 0
0.460518 0.213307 0.520128 153 76 0
0.385113 0.580984 -0.516864 153 76 0
0.363762 -0.604079 -0.516864 153 76 0
0.479959 -0.569442 0.367286 153 76 0
-0.150838 0.700930 -0.308252 153 0 76
0.479959 0.378903 -0.354612 153 76 0
0.331545 0.700930 -0.235726 153 0 76
-0.505223 -0.432633 -0.341675 153 76 0
0.240447 0.700930 0.210104 153 0 76
0.479959 -0.233435 -0.232695 153 76 0
0.260700 0.700930 0.243449 153 0 76
0.479959 0.238261 -0.380976 153 76 0
-0.265572 -0.750918 -0.403121 76 0 153
0.072446 0.670270 0.512288 204 51 127
0.468525 -0.626474 -0.215556 153 76 0
-0.461149 -0.677596 0.144906 76 0 153
-0.473634 -0.157734 -0.516864 153 76 0
-0.087222 -0.750918 0.035848 76 0 153
-0.056638 -0.750918 -0.412736 76 0 153
0.479959 0.323827 0.223288 153 76 0
-0.505223 -0.240088 -0.197987 153 76 0
-0.433357 0.098480 0.520171 153 76 0
0.479959 -0.364634 0.264782 153 76 0
0.127304 -0.750918 0.428781 76 0 153
-0.334145 -0.382890 0.520171 153 76 0
0.479959 -0.608888 -0.104658 153 76 0
-0.163301 0.679753 0.566837 204 51 127
-0.505223 -0.164923 0.003026 153 76 0
-0.016975 -0.750918 -0.462251 76 0 153
-0.348933 0.626067 0.500211 204 51 127
0.479959 -0.457644 -0.432267 153 76 0
-0.036341 0.700930 0.211900 153 0 76
0.223706 0.000984 -0.516864 153 76 0
0.261090 0.700930 -0.311727 153 0 76
-0.505223 -0.418231 0.333796 153 76 0
0.019606 0.700930 -0.157243 153 0 76
-0.505223 -0.529010 0.173490 153 76 0
-0.026042 -0.632978 -0.516864 153 76 0
-0.109651 -0.526050 -0.516864 153 76 0
-0.505223 -0.040845 -0.345519 153 76 0
-0.505223 0.296022 0.309600 153 76 0
0.500700 0.569654 0.488407 153 0 76
0.241167 -0.750918 0.069734 76 0 153
-0.505223 -0.307593 0.333193 153 76 0
0.479959 -0.625399 -0.195534 153 76 0
-0.430387 0.653996 0.455356 204 51 127
-0.200916 -0.733500 -0.516864 153 76 0
0.405824 0.700930 0.307427 153 0 76
0.282301 -0.750918 -0.333852 76 0 153
0.216144 -0.750918 -0.150803 76 0 153
-0.180664 0.700930 0.145799 153 0 76
0.491349 0.452042 -0.121771 153 0 76
0.479959 -0.056791 -0.407030 153 76 0
0.460026 0.579879 0.540911 153 0 76
-0.505223 0.438385 -0.345464 153 76 0
0.076950 0.700930 -0.375220 153 0 76
0.017449 0.084311 -0.516864 153 76 0
-0.262638 -0.056500 0.520171 153 76 0
-0.060966 0.700930 0.043318 153 0 76
-0.505223 -0.123332 -0.253287 153 76 0
-0.422998 0.700930 -0.252114 153 0 76
0.466290 0.601870 0.540911 153 0 76
0.069407 0.700930 0.219536 153 0 76
-0.525964 0.470528 0.164788 153 0 76
-0.517884 0.700676 0.130231 153 0 76
0.479959 -0.604307 -0.037215 153 76 0
0.479959 0.287615 0.463453 153 76 0
0.058040 0.192866 -0.516864 153 76 0
-0.505223 -0.033831 0.474447 153 76 0
0.260684 0.431473 -0.516864 153 76 0
0.479959 -0.283236 -0.225806 153 76 0
0.464320 -0.380442 0.519532 153 76 0
0.479959 -0.399782 0.373172 153 76 0
0.425646 0.336369 0.520171 153 76 0
0.416386 0.572326 -0.516864 153 76 0
0.259347 -0.750918 -0.443180 76 0 153
-0.146255 -0.750918 0.280201 76 0 153
0.479959 -0.169365 0.246435 153 76 0
-0.155972 -0.750918 0.259573 76 0 153
-0.505223 -0.001947 -0.256176 153 76 0
-0.215594 -0.626474 0.483220 153 76 0
0.046409 0.700930 0.171616 153 0 76
-0.068988 -0.174730 0.520171 153 76 0
0.468536 0.700930 -0.056956 153 0 76
-0.424674 -0.344517 -0.516864 153 76 0
-0.525964 0.661224 0.497066 153 0 76
0.136041 0.645637 0.455356 204 51 127
0.104665 0.109325 -0.516864 153 76 0
-0.505223 0.444174 -0.498814 153 76 0
0.500700 0.637128 -0.498160 153 0 76
0.212749 0.206004 0.520171 153 76 0
0.179147 -0.560406 0.520171 153 76 0
-0.363277 0.489534 0.548689 0 255 0
0.118301 0.416421 0.520171 153 76 0
-0.233973 -0.293292 0.520171 153 76 0
-0.433179 0.670270 0.508085 204 51 127
0.441193 0.700930 -0.204788 153 0 76
0.318498 0.700930 0.077163 153 0 76
-0.505223 0.039819 0.311438 153 76 0
-0.359232 -0.750918 -0.241275 76 0 153
-0.155492 0.700930 -0.459251 153 0 76
0.085338 -0.115535 0.520171 153 76 0
-0.307214 -0.705408 0.442393 76 0 153
-0.289980 0.059250 0.520171 153 76 0
0.001492 0.700930 -0.177478 153 0 76
0.402364 -0.750918 0.021066 76 0 153
-0.525964 0.470357 -0.035526 153 0 76
-0.193143 0.056430 0.520171 153 76 0
0.085292 0.700930 -0.226619 153 0 76
0.376423 0.155132 0.520171 153 76 0
-0.448877 0.239605 0.520171 153 76 0
-0.418330 -0.750918 0.374685 76 0 153
0.479959 -0.124623 0.081000 153 76 0
0.479959 -0.096949 0.458907 153 76 0
-0.331106 0.700930 0.027524 153 0 76
-0.327546 0.700930 -0.461150 153 0 76
0.479959 -0.502991 -0.337540 153 76 0
-0.397396 0.595571 0.548689 0 255 0
-0.242160 -0.750918 0.361928 76 0 153
-0.461149 -0.643369 0.198356 76 0 153
