ply
format ascii 1.0
element vertex 1282
property float x
property float y
property float z
property uchar red
property uchar green
property uchar blue
end_header
-0.429161 0.261888 -0.266577 76 0 153
-0.648973 0.373491 -0.215927 76 0 153
0.689135 -0.433650 -0.165601 76 0 153
-0.093140 -0.165946 -0.236034 76 0 153
0.113795 -0.572364 0.259745 76 0 153
-0.271052 0.494187 0.222817 76 0 153
0.588384 -0.417755 -0.266577 76 0 153
0.455102 -0.458100 -0.075703 76 0 153
-0.582004 -0.052500 0.259745 0 127 127
0.663043 -0.458100 0.195799 76 0 153
0.597644 0.064684 0.224062 153 76 0
-0.675735 -0.212790 -0.100827 76 0 153
-0.648973 0.049558 0.103016 76 0 153
0.132698 0.280090 -0.220401 76 0 153
0.152045 -0.335384 0.200145 0 0 255
0.536919 0.588167 0.259745 76 0 153
-0.648973 -0.424966 0.212248 76 0 153
0.689135 0.065742 0.214018 153 76 0
0.160037 0.097443 -0.266577 76 0 153
0.715897 -0.017693 0.120903 76 0 153
-0.443134 0.706054 0.087077 76 0 153
0.192271 -0.114890 -0.257657 76 0 153
-0.584270 -0.707880 -0.119732 76 0 153
-0.275017 -0.707880 -0.125294 76 0 153
-0.380235 -0.707880 0.033507 76 0 153
0.308083 -0.420563 -0.257657 76 0 153
0.037719 -0.570061 -0.266577 76 0 153
-0.550090 -0.707880 -0.013575 76 0 153
-0.289120 0.071185 0.259745 0 127 127
-0.188824 -0.165946 0.199694 76 0 153
-0.648973 0.100378 0.223733 76 0 153
0.689135 -0.217522 0.112286 76 0 153
-0.620092 -0.707880 0.181056 76 0 153
0.357508 0.262248 0.129459 76 0 153
-0.666814 -0.705449 0.111953 76 0 153
-0.508643 0.262248 -0.101033 76 0 153
-0.376373 0.048151 0.166763 153 76 0
-0.648973 -0.032165 0.053090 76 0 153
0.350069 -0.152780 -0.266577 76 0 153
0.585996 -0.141550 0.172381 0 0 255
0.452597 0.494187 -0.164357 76 0 153
-0.648973 0.482231 -0.014903 76 0 153
0.018221 -0.362202 0.133124 153 0 76
-0.459948 -0.450320 -0.266577 76 0 153
-0.364305 -0.185694 0.259745 0 127 127
0.379635 -0.458100 -0.030757 76 0 153
0.395909 0.327275 0.152635 0 0 255
-0.403644 -0.148105 0.169519 0 0 255
0.050418 -0.287429 0.250824 76 153 0
0.488364 -0.165946 0.153394 76 0 153
0.689135 -0.268180 0.208780 76 0 153
-0.322334 -0.148105 -0.112810 76 0 153
0.084997 0.262248 0.149542 76 0 153
0.385905 -0.104611 0.116663 0 0 255
-0.458105 -0.110482 0.114659 0 0 255
-0.459200 -0.707880 0.107934 76 0 153
-0.266166 -0.362202 0.051634 153 0 76
-0.383013 0.706054 -0.081341 76 0 153
-0.648973 -0.305867 -0.149064 76 0 153
-0.073117 -0.380043 0.082305 153 0 76
0.542045 0.274142 0.259745 153 0 76
-0.028480 -0.707880 -0.157763 76 0 153
-0.675735 0.562313 0.042830 76 0 153
-0.449126 -0.380043 -0.133580 153 0 76
-0.297793 -0.165946 0.079524 0 0 255
-0.617321 0.442351 0.259745 0 127 127
0.701756 0.243728 -0.266577 76 0 153
-0.102264 -0.380043 0.155702 153 0 76
-0.153817 0.048151 0.208239 153 76 0
0.689135 0.163069 0.203160 76 0 153
0.138149 0.262248 -0.134417 76 0 153
0.648952 0.289740 0.259745 153 0 76
0.689135 0.059984 -0.131389 153 76 0
0.458479 0.309360 -0.257657 76 0 153
0.688443 -0.458100 0.025116 76 0 153
-0.448971 -0.707880 0.018072 76 0 153
-0.114572 0.706054 -0.138309 76 0 153
-0.250169 -0.111324 0.072163 0 0 255
0.400024 -0.707880 -0.266022 76 0 153
0.356494 -0.145392 0.259745 153 0 76
0.255089 -0.165946 -0.113053 76 0 153
0.107175 0.111430 0.099815 0 0 255
-0.569180 -0.347289 0.095554 0 0 255
0.013225 0.048120 0.250824 76 153 0
0.406230 0.706054 0.136950 76 0 153
-0.440791 0.262248 0.154546 76 0 153
-0.529283 -0.278561 0.114405 0 0 255
-0.229855 -0.707880 0.181188 76 0 153
0.689135 -0.246890 -0.036519 76 0 153
0.595070 0.460080 -0.266577 76 0 153
0.218403 -0.562517 -0.266577 76 0 153
0.099967 0.317363 0.114252 0 0 255
0.298365 -0.707880 -0.238049 76 0 153
0.172094 -0.380043 0.013788 153 0 76
-0.358306 -0.380043 0.090469 153 0 76
0.197753 0.706054 0.068576 76 0 153
0.446155 0.544783 -0.266577 76 0 153
-0.502032 0.262248 0.048460 76 0 153
-0.227125 -0.148105 0.039620 76 0 153
0.553807 -0.707880 0.030716 76 0 153
0.583597 -0.344549 0.169079 0 0 255
0.417030 -0.114486 -0.257657 76 0 153
-0.611876 0.280090 0.190489 76 0 153
0.679958 -0.707880 -0.014622 76 0 153
-0.675735 0.446935 0.212642 76 0 153
0.113192 -0.148105 -0.078953 76 0 153
-0.637607 -0.458100 -0.224959 76 0 153
0.291993 0.706054 0.121440 76 0 153
-0.324133 -0.458100 0.083574 76 0 153
0.294195 0.155200 0.183886 0 0 255
-0.046422 0.706054 -0.080008 76 0 153
0.376065 0.048151 0.214351 153 76 0
-0.329654 -0.277198 0.110601 0 0 255
-0.254228 -0.362202 -0.219454 153 0 76
0.168416 -0.058897 0.069520 0 0 255
-0.029330 -0.707880 0.223432 76 0 153
-0.401567 -0.707880 0.121496 76 0 153
0.300236 -0.332756 -0.266577 76 0 153
-0.675735 0.464496 0.134497 76 0 153
-0.648973 -0.365618 -0.078965 153 0 76
0.098527 -0.108756 0.114403 0 0 255
-0.523170 0.494187 -0.167989 76 0 153
0.689135 -0.339154 -0.014436 76 0 153
0.094609 0.534915 0.268666 76 0 153
0.651094 0.706054 0.246341 76 0 153
-0.170644 0.652035 -0.266577 76 0 153
0.712733 0.706054 -0.166701 76 0 153
-0.547087 -0.362202 -0.014185 153 0 76
0.028769 -0.165946 -0.135431 76 0 153
0.537104 -0.689594 0.259745 76 0 153
0.485352 -0.458100 0.236622 76 0 153
0.248307 0.494187 -0.220617 76 0 153
0.223969 0.706054 -0.200924 76 0 153
-0.206187 0.065993 -0.193006 153 76 0
-0.516968 0.355651 0.091612 0 0 255
-0.303813 -0.165946 -0.017785 76 0 153
-0.224138 0.706054 -0.144368 76 0 153
0.715897 -0.614892 -0.084655 76 0 153
0.123633 -0.458100 0.086939 76 0 153
0.221152 0.410776 0.250824 76 153 0
-0.129871 0.494187 -0.082434 76 0 153
-0.408900 -0.321870 0.154480 0 0 255
-0.192169 -0.299991 -0.257657 76 0 153
-0.563706 -0.707880 -0.266307 76 0 153
-0.094570 0.048151 -0.089908 153 76 0
-0.489407 -0.165946 0.033069 76 0 153
0.689135 0.451982 -0.109841 76 0 153
-0.668902 0.461764 -0.266577 76 0 153
0.002748 -0.559908 0.259745 76 0 153
-0.276767 -0.342860 0.259745 0 127 127
-0.499277 0.192804 -0.266577 76 0 153
-0.425938 0.091926 0.259745 0 127 127
-0.394820 -0.066940 0.153000 0 0 255
0.689135 -0.414431 0.207159 76 0 153
-0.648973 -0.291327 -0.065065 76 0 153
-0.167837 -0.340898 0.113848 0 0 255
0.095486 0.048151 0.193102 153 76 0
-0.373618 -0.707880 0.169189 76 0 153
0.093409 0.494187 0.136694 76 0 153
-0.675735 -0.628218 0.200774 76 0 153
0.315012 0.671243 0.268666 76 0 153
-0.247568 0.234618 -0.266577 76 0 153
-0.268767 0.627071 0.259745 76 0 153
-0.226319 -0.124546 0.198658 0 0 255
-0.483588 0.048151 0.088246 153 76 0
-0.552683 0.062126 0.259745 0 127 127
-0.495324 -0.458100 -0.023967 76 0 153
-0.561463 0.227421 0.259745 0 127 127
-0.126584 -0.568924 0.259745 76 0 153
0.499335 -0.689562 -0.266577 76 0 153
-0.675735 -0.270121 0.143914 76 0 153
0.715897 -0.436643 -0.063201 76 0 153
-0.314752 0.065993 0.160593 0 0 255
0.230005 0.122841 0.199921 0 0 255
-0.079958 0.048151 -0.207090 153 76 0
0.711036 0.673010 -0.266577 76 0 153
-0.079144 0.706054 0.104189 76 0 153
-0.336650 0.262248 0.221784 76 0 153
-0.675735 0.614594 0.068788 76 0 153
0.015406 0.706054 0.082022 76 0 153
-0.262029 0.706054 -0.266418 76 0 153
-0.522667 -0.165946 -0.175721 76 0 153
0.212108 0.327912 -0.266577 76 0 153
-0.620321 0.088496 -0.266577 76 0 153
0.279745 0.014402 0.259745 153 0 76
0.437676 0.646111 -0.266577 76 0 153
0.492650 -0.620468 0.259745 76 0 153
-0.145812 -0.631682 -0.266577 76 0 153
0.715897 0.292715 -0.007465 76 0 153
0.503780 0.494187 0.129950 76 0 153
0.689135 0.100292 -0.058377 76 0 153
-0.021785 0.679292 0.267376 76 0 153
-0.666814 -0.701138 -0.202281 76 0 153
0.458639 0.576954 0.259745 76 0 153
-0.020827 0.262248 -0.166395 76 0 153
-0.338255 0.043646 -0.266577 76 0 153
-0.298271 0.360117 0.197471 0 0 255
0.137730 -0.465908 0.259745 76 0 153
0.219638 -0.380043 -0.058259 153 0 76
-0.239247 -0.458100 0.213827 76 0 153
0.622863 0.188771 -0.266577 76 0 153
0.094565 -0.707880 -0.219832 76 0 153
-0.157805 0.262248 0.183714 76 0 153
0.231709 -0.454024 -0.266577 76 0 153
0.570416 -0.148105 -0.041414 76 0 153
0.687691 -0.366489 -0.266577 153 0 76
-0.447153 0.256118 0.259745 0 127 127
-0.549744 -0.418109 0.259745 0 127 127
0.419951 -0.334933 0.091066 0 0 255
0.368969 0.065993 0.161253 153 76 0
0.655923 0.706054 0.150423 76 0 153
0.559402 -0.458100 0.147709 76 0 153
0.715897 0.688689 -0.105866 76 0 153
0.036299 -0.458100 -0.126112 76 0 153
-0.104086 0.494187 -0.013403 76 0 153
0.537384 -0.372317 -0.257657 76 0 153
0.191536 -0.362202 -0.151809 153 0 76
-0.466249 -0.707880 -0.041322 76 0 153
0.715897 0.057739 -0.071636 76 0 153
0.665069 -0.235075 -0.266577 76 0 153
-0.062870 -0.458100 -0.224051 76 0 153
0.694196 -0.707880 0.184681 76 0 153
-0.044449 0.108110 0.097248 0 0 255
0.148575 -0.158883 -0.266577 76 0 153
-0.554224 -0.165946 -0.239977 76 0 153
-0.675735 -0.457128 0.174899 76 0 153
-0.205293 -0.362202 -0.108342 153 0 76
0.374601 0.706054 0.072168 76 0 153
0.168565 -0.285350 0.198409 0 0 255
0.640499 -0.707880 -0.087178 76 0 153
-0.324452 -0.105037 0.153926 0 0 255
-0.426423 -0.707880 -0.086375 76 0 153
-0.647051 0.706054 -0.098627 76 0 153
0.699026 -0.356119 0.259745 76 0 153
-0.158017 -0.500538 0.259745 76 0 153
0.354043 -0.497248 0.259745 76 0 153
-0.675735 0.673507 -0.169413 76 0 153
0.422693 -0.380043 -0.159576 153 0 76
0.689135 0.129226 -0.143684 76 0 153
-0.629187 -0.490366 -0.266577 76 0 153
-0.675735 -0.675389 0.023271 76 0 153
0.134685 -0.165946 0.085914 76 0 153
0.395523 0.232734 0.259745 153 0 76
-0.045099 0.262248 0.207031 76 0 153
0.689135 -0.020801 0.027838 76 0 153
0.715897 -0.026610 -0.059439 76 0 153
0.534238 0.304145 0.096372 0 0 255
-0.648973 0.099422 0.047548 76 0 153
-0.037774 0.445603 0.250824 76 153 0
-0.675735 0.380895 -0.005940 76 0 153
0.126625 0.532050 -0.266577 76 0 153
-0.048221 -0.165946 -0.135865 76 0 153
-0.419119 0.090267 0.093483 0 0 255
-0.140466 -0.304546 0.156292 0 0 255
-0.648973 -0.239452 -0.190967 76 0 153
0.259975 0.588612 0.259745 76 0 153
0.715897 0.590366 0.120967 76 0 153
-0.675735 -0.167700 0.182853 76 0 153
0.408296 0.297403 0.259745 153 0 76
0.305734 -0.458100 0.002760 76 0 153
-0.376732 -0.380043 -0.229223 153 0 76
-0.675735 -0.377542 -0.216382 76 0 153
-0.648973 0.329776 -0.082833 76 0 153
-0.218023 0.706054 0.000094 76 0 153
0.689135 -0.323381 0.082889 76 0 153
-0.675735 0.515983 0.126316 76 0 153
-0.389459 0.061589 0.224062 153 76 0
0.539957 -0.084918 0.104244 0 0 255
-0.409350 -0.362435 0.224062 153 0 76
0.214294 -0.694959 -0.266577 76 0 153
-0.252752 0.387038 0.259745 0 127 127
-0.430289 0.443349 -0.266577 76 0 153
0.582469 0.031461 0.259745 153 0 76
-0.041550 -0.476559 -0.266577 76 0 153
0.668494 -0.458100 -0.040036 76 0 153
0.448411 -0.458100 0.092528 76 0 153
0.165689 0.436611 -0.266577 76 0 153
-0.203742 -0.471619 -0.266577 76 0 153
-0.180574 0.262248 -0.219681 76 0 153
0.689135 0.030832 -0.217057 153 76 0
-0.421332 -0.215653 -0.257657 76 0 153
-0.675371 -0.593621 -0.266577 76 0 153
-0.675735 -0.610781 0.054010 76 0 153
0.715897 0.509417 0.068255 76 0 153
-0.566530 0.101868 0.172598 0 0 255
0.529901 -0.707880 0.133300 76 0 153
-0.136377 -0.165946 0.102409 76 0 153
-0.445708 0.363104 0.259745 0 127 127
-0.092125 -0.278031 0.098343 0 0 255
0.596310 -0.362202 -0.151839 153 0 76
0.216603 -0.707880 -0.111421 76 0 153
0.420480 -0.707880 0.119579 76 0 153
-0.231441 -0.148105 -0.147575 76 0 153
-0.131343 -0.458100 0.207117 76 0 153
0.096294 -0.077869 -0.266577 76 0 153
-0.092430 0.151946 0.174684 0 0 255
0.715897 -0.603315 0.024689 76 0 153
0.653608 0.065993 -0.179021 153 76 0
0.617259 0.520074 -0.266577 76 0 153
-0.034805 -0.384089 0.250824 76 153 0
-0.465677 0.048151 -0.228862 153 76 0
0.670897 0.016612 0.273126 153 0 76
0.315891 0.069833 0.259745 153 0 76
-0.255902 -0.458100 0.146835 76 0 153
-0.296125 0.494187 -0.204654 76 0 153
-0.550829 0.531268 0.268666 76 0 153
-0.444069 0.600770 0.259745 76 0 153
-0.404514 -0.380043 -0.073694 153 0 76
-0.121400 -0.458100 -0.226296 76 0 153
0.533889 -0.148105 0.137570 76 0 153
0.379437 0.126085 0.259745 153 0 76
0.619569 -0.148105 -0.191272 76 0 153
0.066412 0.369297 0.181564 0 0 255
-0.284153 0.274161 -0.257657 76 0 153
-0.275116 0.174102 0.259745 0 127 127
-0.479627 0.075042 0.259745 0 127 127
-0.066675 0.706054 0.203550 76 0 153
0.072535 -0.155898 -0.266577 76 0 153
-0.348594 0.280090 -0.040748 76 0 153
-0.516153 0.346910 0.173310 0 0 255
0.480838 -0.458100 0.005652 76 0 153
0.332009 0.280090 -0.030289 76 0 153
0.715897 -0.659934 0.021883 76 0 153
-0.535174 0.143958 -0.257657 76 0 153
-0.067507 0.494187 -0.151847 76 0 153
0.580286 0.706054 0.163979 76 0 153
0.500943 0.606191 -0.266577 76 0 153
-0.420801 0.494187 -0.171721 76 0 153
0.485555 -0.707880 -0.119688 76 0 153
0.689135 0.367331 -0.033920 76 0 153
0.715897 -0.247819 0.006670 76 0 153
-0.165588 -0.458100 -0.022824 76 0 153
0.327918 -0.707880 0.125260 76 0 153
-0.532302 -0.707880 -0.113981 76 0 153
-0.648973 -0.334733 0.082427 76 0 153
-0.556442 0.457080 0.259745 0 127 127
0.715897 0.444140 0.213877 76 0 153
0.115969 -0.694191 -0.266577 76 0 153
-0.560053 0.088707 0.074418 0 0 255
0.220129 -0.058897 0.158913 0 0 255
-0.636465 0.706054 0.208061 76 0 153
-0.454182 -0.275505 0.114247 0 0 255
-0.648973 0.476207 0.037637 76 0 153
-0.305996 -0.702531 0.250824 76 0 153
0.578770 -0.148105 0.221888 76 0 153
-0.421715 -0.707880 0.231075 76 0 153
0.566333 -0.152196 -0.266577 76 0 153
0.150230 -0.157827 0.250824 76 153 0
-0.048848 0.538791 0.267190 76 0 153
0.294726 -0.380043 0.116968 153 0 76
-0.061626 -0.064393 0.250824 76 153 0
0.431739 -0.165946 0.193708 76 0 153
-0.633522 -0.165946 -0.174609 76 0 153
0.032502 -0.148105 0.118547 76 0 153
0.212099 0.262248 -0.146679 76 0 153
-0.057048 -0.458100 0.148842 76 0 153
0.384844 -0.458100 -0.224851 76 0 153
-0.516142 -0.065195 0.173389 0 0 255
0.146851 0.494187 -0.061534 76 0 153
0.016756 -0.458100 0.100613 76 0 153
0.652120 -0.380043 -0.106215 153 0 76
-0.044098 -0.458100 -0.135608 76 0 153
0.578400 -0.030086 0.259745 153 0 76
-0.488495 -0.516557 -0.266577 76 0 153
0.673776 -0.636512 -0.266577 76 0 153
0.714562 0.345702 -0.266577 76 0 153
-0.199782 0.280090 -0.073481 76 0 153
0.320256 0.527635 -0.266577 76 0 153
0.299426 -0.294868 0.112369 0 0 255
-0.317597 -0.165946 0.221878 76 0 153
-0.675735 0.318255 0.026098 76 0 153
-0.644422 -0.351849 0.268666 0 127 127
0.364779 0.373645 -0.266577 76 0 153
-0.062277 0.048151 0.082381 153 76 0
-0.368669 -0.096479 0.087011 0 0 255
-0.675687 0.653321 -0.266577 76 0 153
-0.048672 -0.362202 -0.004623 153 0 76
0.652459 -0.173371 0.259745 153 0 76
-0.437221 0.354279 -0.257657 76 0 153
0.328129 0.065993 0.010424 153 76 0
0.370079 0.609861 -0.266577 76 0 153
-0.648973 -0.004046 -0.194053 76 0 153
-0.050516 -0.654754 0.259745 76 0 153
0.487192 0.329116 0.197971 0 0 255
-0.335814 -0.707880 -0.118496 76 0 153
-0.648973 -0.452984 0.027544 76 0 153
-0.491261 -0.311079 0.101504 0 0 255
0.689135 0.296946 -0.139403 76 0 153
-0.633880 0.494187 -0.118217 76 0 153
0.358865 -0.165946 0.056777 76 0 153
0.248174 0.114929 0.114380 0 0 255
-0.219130 -0.570749 -0.266577 76 0 153
-0.608141 -0.684959 -0.266577 76 0 153
-0.604215 -0.380043 0.157060 153 0 76
0.455258 0.262248 0.202475 76 0 153
0.044522 -0.362202 0.207834 153 0 76
0.279873 0.407576 0.259745 153 0 76
-0.101989 0.274883 0.250824 76 153 0
0.715897 0.516664 0.251261 76 0 153
0.335040 -0.380043 -0.195659 153 0 76
0.231410 0.706054 -0.146352 76 0 153
-0.090210 -0.707880 -0.239156 76 0 153
-0.598834 0.494187 0.103724 76 0 153
-0.640042 -0.165946 0.044698 76 0 153
-0.009439 0.277514 -0.266577 76 0 153
0.245203 -0.329358 0.068083 0 0 255
0.368356 -0.103610 -0.257657 76 0 153
-0.625405 0.139335 -0.257657 76 0 153
0.169187 0.262248 0.158409 76 0 153
-0.414850 -0.458100 0.037801 76 0 153
0.321789 0.706054 0.004361 76 0 153
0.243232 -0.086132 0.068290 0 0 255
-0.413555 0.494187 -0.062453 76 0 153
-0.240597 0.706054 0.241151 76 0 153
0.027055 0.234480 0.250824 76 153 0
0.549773 0.048151 0.127692 153 76 0
0.424110 0.065993 -0.113187 153 76 0
-0.285292 -0.380043 0.127329 153 0 76
0.627086 -0.707880 -0.231839 76 0 153
0.689135 0.215865 -0.154094 76 0 153
-0.174505 0.706054 -0.225240 76 0 153
0.430672 0.706054 0.026842 76 0 153
-0.119372 0.048151 0.088480 153 76 0
0.048134 -0.148105 -0.213021 76 0 153
0.236661 0.494187 0.257195 153 0 76
0.126854 0.706054 0.119152 76 0 153
0.468905 0.262248 -0.206050 76 0 153
-0.538976 -0.458100 -0.215440 76 0 153
0.603279 0.048151 -0.160254 153 76 0
0.407540 -0.067223 0.198021 0 0 255
-0.090507 0.369297 0.087251 0 0 255
-0.413824 0.700913 -0.266577 76 0 153
-0.324158 0.706054 0.191232 76 0 153
-0.138830 -0.111486 0.113877 0 0 255
0.570907 -0.707880 0.181546 76 0 153
-0.129260 -0.103827 0.176015 0 0 255
0.096523 -0.310962 0.068868 0 0 255
0.139963 -0.362202 -0.079388 153 0 76
-0.568942 0.314562 0.179513 0 0 255
-0.450495 -0.121749 0.162384 0 0 255
-0.441262 -0.707880 -0.138260 76 0 153
-0.648973 0.234355 -0.143713 76 0 153
-0.010710 0.065993 0.165570 153 76 0
0.498919 -0.707880 -0.035672 76 0 153
0.477983 -0.707880 0.216184 76 0 153
-0.560372 -0.110132 0.191309 0 0 255
0.225932 0.048151 0.011598 153 76 0
-0.170722 -0.274369 0.071545 0 0 255
-0.675735 -0.304683 0.185106 76 0 153
-0.064090 -0.315043 0.068830 0 0 255
0.661097 -0.362202 0.210244 153 0 76
-0.416861 -0.458100 -0.033791 76 0 153
0.240490 -0.030462 -0.257657 76 0 153
0.582020 -0.380043 -0.047615 153 0 76
-0.088170 0.280090 -0.095602 76 0 153
0.058202 -0.458100 0.009114 76 0 153
-0.165366 0.494187 0.204795 76 0 153
0.082020 0.267507 0.250824 76 153 0
0.715897 0.096147 -0.232861 76 0 153
0.505957 0.065993 -0.142640 153 76 0
0.506649 0.383110 -0.257657 76 0 153
-0.230672 0.494187 0.152631 76 0 153
0.207006 -0.362202 0.159447 153 0 76
0.130631 -0.362202 -0.240462 153 0 76
-0.648973 -0.113060 0.088525 76 0 153
0.606535 0.250585 -0.266577 76 0 153
0.205920 0.065993 -0.114795 153 76 0
-0.505816 -0.341863 0.259745 0 127 127
-0.368702 -0.280034 0.170597 0 0 255
-0.185682 0.262248 -0.120511 76 0 153
-0.560570 0.706054 -0.050724 76 0 153
0.514306 0.070437 0.259745 153 0 76
-0.669215 0.004924 -0.266577 76 0 153
0.579085 0.494187 0.120958 76 0 153
0.114584 0.192625 0.250824 76 153 0
0.715897 0.421056 0.036363 76 0 153
0.003712 -0.107166 -0.257657 76 0 153
0.706977 -0.707492 0.093577 76 0 153
-0.384191 -0.071861 0.259745 0 127 127
-0.648973 0.012099 -0.122537 76 0 153
-0.306766 -0.458100 0.136535 76 0 153
-0.048746 -0.165946 0.065923 76 0 153
0.132504 0.147795 0.177893 0 0 255
-0.305307 -0.707880 0.085975 76 0 153
0.715897 -0.567421 -0.038758 76 0 153
-0.305668 0.048151 -0.146106 153 76 0
0.385954 0.149925 0.200290 0 0 255
-0.149372 0.087968 0.068652 0 0 255
0.219264 0.048151 -0.209323 153 76 0
0.117323 -0.458100 -0.072102 76 0 153
0.544172 0.065993 0.219347 153 76 0
-0.643523 -0.458100 -0.110276 76 0 153
-0.246094 -0.707880 -0.165151 76 0 153
0.706913 0.563966 -0.266577 76 0 153
0.388557 -0.451694 0.268666 153 0 76
0.346994 -0.333078 0.259745 153 0 76
-0.648973 0.380822 0.186564 76 0 153
-0.543634 0.048151 0.124905 153 76 0
0.153563 -0.116876 0.199986 0 0 255
-0.675735 0.278879 0.178343 76 0 153
0.531371 0.280090 -0.093770 76 0 153
-0.395584 0.369245 0.153081 0 0 255
0.715897 -0.179957 -0.210366 76 0 153
-0.514927 -0.707880 -0.053851 76 0 153
0.528996 0.055692 -0.266577 76 0 153
-0.461725 0.090342 0.068431 0 0 255
-0.648973 -0.193909 0.105507 76 0 153
0.400566 0.706054 0.231696 76 0 153
-0.304361 -0.062515 0.114791 0 0 255
-0.221587 -0.047213 -0.266577 76 0 153
-0.495984 -0.148105 -0.068930 76 0 153
-0.648973 0.145108 -0.005398 76 0 153
-0.132987 -0.017755 0.250824 76 153 0
0.002275 0.706054 -0.157176 76 0 153
0.542326 0.579851 -0.266577 76 0 153
-0.079907 0.065993 0.005971 153 76 0
0.144751 -0.707880 -0.126583 76 0 153
0.109690 -0.065377 0.177798 0 0 255
0.416362 0.111640 0.099126 0 0 255
0.301331 0.313509 -0.257657 76 0 153
0.490898 -0.362202 -0.149781 153 0 76
0.247437 0.367772 0.114457 0 0 255
0.510043 0.262248 -0.151963 76 0 153
-0.312510 -0.165946 -0.157549 76 0 153
-0.675735 -0.461282 0.088281 76 0 153
0.211392 -0.402578 0.250824 76 153 0
0.145354 -0.273814 0.113643 0 0 255
-0.042393 -0.165946 -0.203240 76 0 153
0.353211 -0.362202 -0.044155 153 0 76
-0.510130 0.398998 -0.257657 76 0 153
-0.675735 -0.118912 0.179555 76 0 153
0.279644 0.280090 -0.175090 76 0 153
0.715897 -0.352319 -0.053225 76 0 153
-0.622005 0.505090 -0.266577 76 0 153
0.377436 -0.165946 -0.091426 76 0 153
0.186199 -0.314179 -0.257657 76 0 153
-0.465374 -0.272995 0.194933 0 0 255
-0.063861 -0.108299 -0.266577 76 0 153
0.033181 -0.458100 -0.073775 76 0 153
-0.476314 0.102695 0.200205 0 0 255
0.715897 -0.518213 -0.025294 76 0 153
-0.568247 0.280090 -0.022520 76 0 153
0.293933 0.262248 -0.067344 76 0 153
0.487045 -0.116606 0.155900 0 0 255
0.476847 0.262248 0.154869 76 0 153
-0.648973 -0.417510 -0.068866 76 0 153
-0.482450 0.219394 0.259745 0 127 127
-0.254526 -0.272995 0.096062 0 0 255
0.659484 -0.380043 -0.221328 153 0 76
0.139712 -0.057640 -0.257657 76 0 153
-0.492988 0.065993 -0.105204 153 76 0
-0.117069 0.591629 -0.266577 76 0 153
-0.578385 -0.258528 0.259745 0 127 127
0.231682 -0.318916 0.153136 0 0 255
0.396047 -0.181464 0.259745 153 0 76
0.071920 0.494187 -0.123972 76 0 153
0.068850 0.100437 0.071932 0 0 255
0.689135 0.445816 -0.042060 76 0 153
0.689135 0.019337 0.104224 76 0 153
-0.135730 0.676854 0.268666 76 0 153
-0.672835 -0.420105 -0.266577 76 0 153
0.299688 0.048151 -0.217716 153 76 0
0.318277 -0.380043 0.047755 153 0 76
-0.483680 0.706054 -0.205102 76 0 153
0.046733 -0.126576 0.250824 76 153 0
0.051334 -0.458100 0.152622 76 0 153
0.291817 0.456747 -0.257657 76 0 153
-0.541098 -0.707880 0.079901 76 0 153
-0.120997 -0.362202 0.208906 153 0 76
0.181808 0.494187 -0.023878 76 0 153
0.715897 0.663891 0.142722 76 0 153
0.162388 0.494187 -0.163799 76 0 153
-0.325307 -0.707880 0.158832 76 0 153
0.623516 0.599598 0.259745 76 0 153
0.596389 0.330884 0.259745 153 0 76
0.378407 -0.058897 0.100143 0 0 255
-0.407827 0.139841 0.154367 0 0 255
0.301046 -0.077983 0.154167 0 0 255
-0.675735 0.658958 -0.001788 76 0 153
0.110487 -0.458100 -0.173855 76 0 153
-0.457154 0.304786 -0.266577 76 0 153
-0.257001 0.048151 -0.226711 153 76 0
-0.673194 0.706054 0.105671 76 0 153
0.301562 0.706054 0.208766 76 0 153
0.454843 -0.707880 0.025084 76 0 153
0.604859 0.643233 -0.266577 76 0 153
0.535963 0.706054 0.228728 76 0 153
-0.103475 0.048151 0.140357 153 76 0
-0.675735 -0.495381 -0.009176 76 0 153
-0.325409 -0.310631 0.154026 0 0 255
0.544117 -0.094397 0.155026 0 0 255
0.062244 -0.380043 0.031523 153 0 76
-0.129478 0.323419 0.087783 0 0 255
0.352073 -0.165946 -0.137217 76 0 153
0.116555 -0.458100 0.215652 76 0 153
0.550216 -0.458100 0.210060 76 0 153
0.403525 0.048151 0.125659 153 76 0
-0.001509 -0.426507 -0.266577 76 0 153
-0.675735 0.561155 0.154637 76 0 153
0.350447 0.494187 0.098278 76 0 153
-0.575768 -0.569492 0.259745 76 0 153
0.399513 -0.458100 0.216512 76 0 153
-0.485514 0.494187 0.001815 76 0 153
0.655803 -0.707880 0.213901 76 0 153
-0.675735 -0.202800 0.055605 76 0 153
-0.404452 -0.113496 -0.257657 76 0 153
0.689135 0.470016 0.116008 76 0 153
-0.165769 -0.211650 -0.257657 76 0 153
-0.084432 0.494187 -0.100537 76 0 153
-0.585850 -0.165946 -0.136253 76 0 153
-0.501542 0.262248 -0.219604 76 0 153
-0.378433 0.593637 0.259745 76 0 153
-0.240319 -0.458100 0.064017 76 0 153
0.037017 -0.233899 -0.257657 76 0 153
0.050566 -0.030202 -0.266577 76 0 153
-0.246284 0.104498 0.070516 0 0 255
0.214083 0.494187 -0.109932 76 0 153
-0.260902 -0.659908 -0.266577 76 0 153
0.301832 -0.110652 0.199312 0 0 255
0.365000 0.453277 0.259745 153 0 76
-0.280508 -0.235412 0.259745 0 127 127
0.238346 0.280090 0.011012 76 0 153
-0.415367 0.280090 -0.107807 76 0 153
0.282075 0.048151 0.222322 153 76 0
-0.459419 0.154291 0.114797 0 0 255
-0.462023 -0.165946 0.077857 76 0 153
-0.538036 -0.458100 -0.122406 76 0 153
0.662755 -0.165946 -0.244868 76 0 153
0.453555 -0.165946 0.097468 0 0 255
0.294405 -0.539079 -0.266577 76 0 153
-0.275008 -0.362202 0.178623 153 0 76
-0.178514 -0.058897 0.098777 0 0 255
0.094847 0.494187 0.229001 76 0 153
-0.455392 -0.203120 0.259745 0 127 127
0.416115 0.369297 0.176147 0 0 255
-0.617053 -0.362202 0.059470 153 0 76
0.024833 -0.148105 0.006586 76 0 153
0.715897 -0.521906 -0.124757 76 0 153
-0.675735 0.510823 0.065879 76 0 153
-0.033960 -0.458100 0.202775 76 0 153
0.265483 0.262248 0.085807 76 0 153
-0.211403 0.313187 0.167626 0 0 255
-0.448115 0.655585 0.259745 76 0 153
0.143450 0.085643 0.250824 76 153 0
-0.675735 0.431896 -0.070192 76 0 153
0.672205 0.494187 -0.216947 76 0 153
0.352921 0.357394 0.259745 153 0 76
-0.252220 -0.062684 0.106676 0 0 255
0.042276 -0.435798 0.258170 76 153 0
-0.248679 0.087484 0.195181 0 0 255
0.495560 -0.165946 0.218878 76 0 153
0.711787 -0.016238 0.259745 76 0 153
0.619015 0.280090 -0.226505 76 0 153
0.715897 -0.589249 0.083117 76 0 153
0.651288 0.048151 0.139523 153 76 0
-0.675735 -0.396780 -0.152559 76 0 153
0.461829 0.494187 0.161229 76 0 153
-0.490655 0.154456 0.167479 0 0 255
-0.558097 -0.058897 0.080625 0 0 255
-0.154709 0.322464 0.199453 0 0 255
0.029251 0.376467 0.250824 76 153 0
-0.364141 0.494187 0.223348 76 0 153
-0.623783 -0.004263 0.259745 0 127 127
0.670075 0.706054 0.009571 76 0 153
-0.300526 -0.614938 0.259745 76 0 153
0.073949 0.262248 0.033468 76 0 153
-0.049266 -0.148105 -0.022816 76 0 153
0.099040 -0.707880 0.203405 76 0 153
-0.619651 -0.227774 -0.266577 76 0 153
0.428709 0.437570 -0.257657 76 0 153
0.676775 -0.148105 -0.081967 76 0 153
-0.257615 -0.458100 -0.037328 76 0 153
0.372630 0.705378 -0.266577 76 0 153
-0.597826 -0.458100 -0.001997 76 0 153
-0.528165 0.395780 0.259745 0 127 127
-0.513931 0.706054 0.158991 76 0 153
-0.600288 0.494187 -0.202116 76 0 153
-0.027139 -0.458100 -0.048455 76 0 153
-0.158489 -0.604404 0.259745 76 0 153
-0.325085 -0.051164 -0.266577 76 0 153
-0.675735 0.454093 -0.167184 76 0 153
-0.301670 0.109643 0.070256 0 0 255
0.528327 -0.644373 -0.266577 76 0 153
0.093279 0.665455 0.268666 76 0 153
-0.081474 0.511879 -0.266577 76 0 153
-0.401950 0.509027 -0.266577 76 0 153
-0.535213 0.548800 -0.266577 76 0 153
-0.393782 -0.492560 0.259745 76 0 153
0.296374 -0.579080 0.259745 76 0 153
-0.607003 0.494187 0.056769 76 0 153
0.019082 0.706054 0.257371 76 0 153
-0.480065 -0.554646 0.259745 76 0 153
-0.250374 -0.321569 0.156255 0 0 255
-0.324106 0.317135 0.153889 0 0 255
0.715897 -0.151888 0.066045 76 0 153
0.388250 -0.380043 0.125081 0 0 255
-0.554783 0.325401 0.115370 0 0 255
-0.180594 -0.327699 0.179921 0 0 255
0.220797 0.037799 0.252275 76 153 0
-0.648199 -0.504130 0.259745 76 0 153
-0.141399 0.472054 -0.257657 76 0 153
0.009910 -0.362202 0.077004 153 0 76
-0.294940 -0.494111 0.259745 76 0 153
0.120146 -0.380043 0.137581 153 0 76
0.342865 0.065993 -0.115690 153 76 0
0.715897 -0.082326 -0.040113 76 0 153
-0.225347 0.612759 -0.266577 76 0 153
0.483003 -0.458100 -0.217129 76 0 153
-0.648973 0.006198 -0.042343 76 0 153
0.212600 0.584980 0.259745 76 0 153
0.146435 0.318317 0.198762 0 0 255
0.600316 0.506961 0.259745 76 0 153
-0.366906 0.599661 -0.266577 76 0 153
0.053070 0.262248 0.090593 76 0 153
-0.290783 0.313700 0.085242 0 0 255
-0.675735 0.230949 0.143109 76 0 153
0.502758 -0.148105 -0.117868 76 0 153
-0.675735 0.665729 0.143678 76 0 153
0.573615 0.140547 0.259745 153 0 76
-0.675735 0.701424 0.053623 76 0 153
0.466081 0.065993 0.163998 153 76 0
-0.045397 0.280090 0.075883 76 0 153
-0.515599 0.706054 0.066326 76 0 153
-0.675735 -0.039767 0.240875 76 0 153
-0.675735 -0.177257 0.257169 76 0 153
-0.001430 -0.282344 -0.266577 76 0 153
-0.407699 0.284167 0.112151 76 0 153
0.431547 -0.669169 0.259745 76 0 153
-0.032956 0.706054 0.026157 76 0 153
-0.382983 0.132056 0.114733 0 0 255
0.715897 -0.053976 -0.191047 76 0 153
0.292318 0.160617 0.259745 153 0 76
0.302063 -0.707880 -0.174600 76 0 153
0.666833 0.130267 0.261397 153 0 76
-0.453441 -0.431624 0.259745 0 127 127
0.124746 0.706054 -0.163471 76 0 153
0.118756 0.574672 0.259745 76 0 153
-0.532293 0.306768 0.259745 0 127 127
0.178357 0.706054 -0.223320 76 0 153
-0.315318 0.538545 -0.266577 76 0 153
-0.139393 0.706054 0.168841 76 0 153
-0.455862 -0.171986 -0.266577 76 0 153
0.263388 -0.631351 -0.266577 76 0 153
-0.167899 -0.707880 -0.219918 76 0 153
0.607996 0.219990 0.259745 153 0 76
-0.478580 -0.491722 0.259745 76 0 153
-0.094092 0.145152 0.095636 0 0 255
0.382747 -0.272995 0.159497 0 0 255
-0.259112 0.262248 -0.086105 76 0 153
-0.648973 0.159180 -0.087792 76 0 153
0.322185 -0.148105 -0.223942 76 0 153
0.403861 0.280090 -0.172171 76 0 153
0.495561 -0.380043 0.177854 153 0 76
0.488143 -0.130934 0.073779 0 0 255
-0.074568 0.304534 0.116540 0 0 255
0.198884 0.280090 -0.210670 76 0 153
-0.250870 0.222669 0.259745 0 127 127
0.162453 -0.707880 0.062954 76 0 153
-0.152171 -0.165946 0.056488 76 0 153
-0.555461 -0.458100 0.158117 76 0 153
-0.675735 -0.109416 -0.002208 76 0 153
-0.675735 0.196599 0.188851 76 0 153
-0.407143 0.105988 0.196549 0 0 255
0.494498 0.087516 0.082526 0 0 255
0.600345 0.706054 -0.023922 76 0 153
-0.536973 0.154764 0.115213 0 0 255
-0.384515 0.322482 0.068285 0 0 255
0.460335 -0.328121 -0.257657 76 0 153
-0.598951 -0.707880 -0.172938 76 0 153
0.659716 -0.380043 -0.015866 153 0 76
0.520831 0.213494 -0.266577 76 0 153
-0.012510 -0.362202 -0.091389 153 0 76
0.715897 -0.558638 0.233741 76 0 153
0.456694 -0.085441 0.192986 0 0 255
-0.477841 -0.380043 -0.036403 153 0 76
0.092632 0.154027 0.115023 0 0 255
-0.675735 -0.401290 0.005915 76 0 153
0.715897 0.208226 0.077054 76 0 153
-0.059009 -0.432544 -0.266577 76 0 153
0.115074 -0.165946 -0.181040 76 0 153
-0.523369 0.701633 0.259745 76 0 153
0.233657 0.309019 0.152929 0 0 255
-0.553343 0.479157 -0.266577 76 0 153
-0.310513 0.048151 -0.209853 153 76 0
-0.629958 -0.096150 0.268666 0 127 127
0.401158 0.490024 0.268666 153 0 76
-0.330895 0.048151 -0.092105 153 76 0
0.577794 0.494187 -0.067600 76 0 153
0.617148 0.494187 -0.177085 76 0 153
-0.330638 -0.066894 0.259745 0 127 127
0.715897 0.297958 0.186120 76 0 153
0.328466 0.320281 0.197894 0 0 255
0.142372 0.706054 0.165966 76 0 153
0.105175 -0.380043 0.088087 153 0 76
0.075133 0.706054 0.026727 76 0 153
0.313782 0.572912 0.259745 76 0 153
0.669257 -0.707880 -0.261184 76 0 153
0.132032 0.494187 0.035082 76 0 153
-0.201500 0.529537 -0.266577 76 0 153
0.376498 -0.380043 0.025135 153 0 76
0.143659 -0.380043 -0.138829 153 0 76
0.004240 -0.486821 -0.266577 76 0 153
-0.530009 -0.335563 0.070606 0 0 255
0.427566 -0.165946 -0.092594 76 0 153
-0.109508 -0.661949 0.259745 76 0 153
0.297044 -0.305148 0.192722 0 0 255
0.655606 -0.148105 0.152682 76 0 153
0.311025 0.703667 -0.266577 76 0 153
-0.117471 -0.296757 0.250824 76 153 0
0.433434 -0.650655 -0.266577 76 0 153
0.016927 0.262248 -0.097607 76 0 153
0.403543 -0.511896 0.259745 76 0 153
-0.156240 0.706054 -0.076178 76 0 153
-0.160318 -0.066767 0.200043 0 0 255
0.575566 -0.296111 -0.257657 76 0 153
-0.478180 0.494187 -0.228260 76 0 153
0.166227 0.048151 0.160458 153 76 0
0.063539 0.065993 0.154003 153 76 0
0.506381 -0.165946 -0.057638 76 0 153
-0.648973 0.369823 -0.160796 76 0 153
0.689135 -0.420345 0.079256 76 0 153
0.065319 -0.596022 0.259745 76 0 153
0.715897 -0.041047 0.184158 76 0 153
0.080971 0.706054 -0.078610 76 0 153
0.087436 0.446852 0.250824 76 153 0
0.622234 -0.458100 -0.249455 76 0 153
-0.565736 0.706054 0.132042 76 0 153
0.659346 0.494187 0.156401 76 0 153
0.326884 0.097672 0.114428 0 0 255
0.308662 -0.192047 0.259745 153 0 76
0.052461 -0.707880 -0.159910 76 0 153
-0.427345 -0.277956 0.259745 0 127 127
-0.324281 -0.119166 -0.266577 76 0 153
0.715897 0.125054 0.216618 76 0 153
0.697967 0.706054 0.062384 76 0 153
0.048805 0.494187 0.084494 76 0 153
-0.610025 0.584723 -0.266577 76 0 153
-0.120129 0.516947 0.259745 76 0 153
-0.675735 -0.068299 0.037629 76 0 153
0.135588 -0.361598 0.250824 76 153 0
-0.240617 0.262248 -0.172091 76 0 153
-0.408211 -0.005169 0.259745 0 127 127
-0.333909 0.360301 0.104745 0 0 255
0.380306 0.303818 0.113187 0 0 255
-0.632088 -0.120127 -0.266577 76 0 153
-0.056778 -0.248732 0.250824 76 153 0
0.623250 0.706054 -0.072833 76 0 153
0.288155 0.285184 0.259745 153 0 76
-0.675735 -0.286214 0.098422 76 0 153
0.209111 0.323484 0.097032 0 0 255
0.463955 -0.342625 0.116781 0 0 255
0.081415 0.065993 -0.025118 153 76 0
0.715897 0.187755 -0.247519 76 0 153
0.047246 0.198310 -0.257657 76 0 153
0.545927 -0.329510 0.196091 0 0 255
0.307136 0.111409 0.200136 0 0 255
0.095253 0.423615 -0.266577 76 0 153
0.515529 -0.380043 -0.216853 153 0 76
-0.303609 0.152888 0.151735 0 0 255
-0.050775 -0.380043 0.148806 153 0 76
0.033668 0.282178 0.250824 76 153 0
-0.034240 0.347448 0.250824 76 153 0
0.682053 -0.763034 0.228373 153 0 76
0.243359 0.259343 0.268666 153 0 76
-0.557450 0.494187 -0.085580 76 0 153
-0.080991 0.086425 0.154238 0 0 255
0.489382 0.358304 0.112943 0 0 255
0.170028 -0.102976 0.152375 0 0 255
-0.374091 0.310736 0.189945 0 0 255
-0.603688 -0.165946 0.128868 76 0 153
-0.437040 0.065993 0.026344 153 76 0
-0.668535 -0.690038 0.217041 76 0 153
-0.378743 -0.527325 -0.266577 76 0 153
-0.262285 0.048151 -0.062295 153 76 0
0.183155 0.135933 0.250824 76 153 0
-0.289679 -0.404876 0.259745 0 127 127
0.042543 -0.690038 0.255574 76 0 153
-0.237306 -0.273391 0.199813 0 0 255
0.674466 -0.117823 -0.266577 76 0 153
-0.378390 0.048151 0.088827 0 0 255
0.426350 -0.291546 0.259745 153 0 76
0.534015 0.089454 0.177717 0 0 255
-0.498644 -0.458100 0.032268 76 0 153
0.159528 -0.148105 0.159915 76 0 153
0.065174 -0.613885 -0.266577 76 0 153
0.160163 -0.380043 0.087396 0 0 255
0.689135 -0.184632 -0.170155 76 0 153
0.237485 -0.707880 0.135519 76 0 153
-0.482837 -0.458100 -0.109940 76 0 153
0.043597 0.280090 -0.241340 76 0 153
0.412990 0.246110 -0.257657 76 0 153
0.382971 -0.601215 -0.266577 76 0 153
-0.588424 0.706054 -0.147369 76 0 153
0.301577 -0.148105 -0.036119 76 0 153
0.172983 -0.524252 -0.266577 76 0 153
0.093299 -0.458100 -0.251766 76 0 153
0.327455 0.340008 0.155718 0 0 255
0.539723 0.065993 0.052299 153 76 0
-0.584998 -0.156013 0.259745 0 127 127
-0.648973 0.243291 -0.075505 76 0 153
-0.099032 0.314652 -0.257657 76 0 153
-0.491833 -0.295991 0.259745 0 127 127
0.271964 0.280090 0.176423 76 0 153
0.165630 -0.665252 -0.266577 76 0 153
-0.469104 0.298800 0.152838 0 0 255
0.551089 0.262248 0.209821 76 0 153
-0.339253 -0.148105 0.178200 0 0 255
0.109227 0.362364 0.095206 0 0 255
-0.238962 -0.148105 -0.097175 76 0 153
-0.189003 -0.380043 0.145330 153 0 76
0.204209 0.048151 0.070312 153 76 0
-0.309776 -0.165946 -0.228730 76 0 153
0.422421 -0.148105 -0.178052 76 0 153
0.596613 -0.659621 0.259745 76 0 153
0.381928 -0.328079 0.199051 0 0 255
-0.455750 0.494187 0.142959 76 0 153
0.528189 -0.458100 0.080360 76 0 153
0.170408 -0.458100 0.150693 76 0 153
0.671951 0.262248 0.136096 76 0 153
-0.493438 -0.148105 0.123218 76 0 153
0.218626 -0.458100 -0.058452 76 0 153
0.409651 0.365812 0.074715 0 0 255
0.060596 -0.071133 0.098279 0 0 255
-0.122817 0.388666 0.250824 76 153 0
-0.206694 0.040062 0.268666 0 127 127
0.206558 -0.148105 0.221116 76 0 153
-0.081783 -0.557657 -0.266577 76 0 153
-0.532995 -0.134931 0.259745 0 127 127
0.176553 -0.362202 -0.222938 153 0 76
0.636736 0.549097 0.259745 76 0 153
0.715897 -0.660690 -0.079034 76 0 153
0.231853 0.706054 0.217559 76 0 153
-0.675735 -0.655820 -0.034981 76 0 153
-0.274384 0.494187 0.176802 76 0 153
-0.252398 0.085220 -0.266577 76 0 153
-0.419702 0.280090 0.045084 76 0 153
0.444182 0.214031 0.259745 153 0 76
0.329773 -0.058897 0.113035 0 0 255
-0.329205 -0.539979 -0.266577 76 0 153
-0.104980 -0.707880 -0.012108 76 0 153
-0.320258 -0.707880 -0.255933 76 0 153
-0.328858 0.262248 0.093548 76 0 153
0.453327 -0.062162 0.104720 0 0 255
0.629244 -0.458100 -0.070026 76 0 153
-0.675735 0.622239 -0.156966 76 0 153
0.404498 -0.365886 -0.266577 76 0 153
0.271041 -0.707880 0.102567 76 0 153
-0.212455 -0.453785 0.268666 0 127 127
0.554065 0.262248 -0.037632 76 0 153
-0.246532 -0.285164 0.259745 0 127 127
-0.675735 0.427954 -0.221015 76 0 153
-0.567568 -0.380043 0.127870 153 0 76
-0.404388 -0.121146 0.070374 0 0 255
0.689135 0.328132 -0.217386 76 0 153
0.491041 -0.428302 -0.266577 76 0 153
0.121459 -0.240324 -0.266577 76 0 153
0.661287 -0.148105 0.222326 76 0 153
0.157863 -0.458100 -0.111114 76 0 153
-0.352592 -0.707880 -0.189152 76 0 153
-0.409446 0.706054 0.165130 76 0 153
-0.369406 -0.165946 0.097680 76 0 153
0.340483 -0.458100 0.145859 76 0 153
-0.018246 0.494187 0.134545 76 0 153
0.322429 -0.165946 0.174850 76 0 153
0.715897 -0.215772 -0.139813 76 0 153
-0.635130 0.702938 -0.266577 76 0 153
0.615567 0.093267 0.259745 153 0 76
0.096243 0.104936 0.152114 0 0 255
0.485229 0.154364 0.114545 0 0 255
-0.227436 -0.389743 -0.266577 76 0 153
-0.450668 -0.458100 -0.172033 76 0 153
-0.470894 -0.362758 0.224062 153 0 76
-0.207273 -0.193970 -0.266577 76 0 153
0.689135 0.046967 0.067564 153 76 0
-0.092128 0.328292 0.174005 0 0 255
0.481408 0.065993 -0.186915 153 76 0
0.131359 0.706054 0.013603 76 0 153
-0.438607 0.048151 0.071982 153 76 0
-0.547102 0.280090 -0.188647 76 0 153
-0.675735 0.442889 0.071434 76 0 153
-0.655816 -0.770214 0.226666 153 76 0
0.379354 -0.277008 0.070743 0 0 255
0.397884 0.477349 -0.266577 76 0 153
0.512967 -0.230839 -0.266577 76 0 153
0.190217 -0.419687 -0.266577 76 0 153
-0.160325 0.262248 -0.043039 76 0 153
-0.568115 0.625557 0.259745 76 0 153
-0.225178 0.280642 0.198539 76 0 153
-0.241938 -0.458100 -0.094940 76 0 153
-0.092645 -0.207826 0.250824 76 153 0
-0.459027 -0.684843 -0.266577 76 0 153
-0.352108 -0.399911 0.259745 0 127 127
0.301995 -0.707880 -0.067498 76 0 153
0.187309 0.661163 0.259745 76 0 153
-0.050369 0.669734 -0.266577 76 0 153
0.143252 -0.322435 0.110750 0 0 255
0.311340 0.706054 0.164121 76 0 153
-0.337564 0.519887 0.259745 76 0 153
0.345592 0.494187 -0.198384 76 0 153
-0.453122 0.098150 0.158768 0 0 255
0.120911 -0.362202 -0.003892 153 0 76
-0.254657 -0.117604 -0.257657 76 0 153
-0.541555 -0.208251 -0.257657 76 0 153
-0.149200 -0.396389 -0.266577 76 0 153
-0.675735 -0.684637 -0.115775 76 0 153
-0.055989 0.346442 0.152850 0 0 255
-0.022155 0.077674 0.250824 76 153 0
0.372537 0.262248 -0.041241 76 0 153
-0.506466 -0.677059 0.259745 76 0 153
0.262112 -0.380043 -0.139314 153 0 76
0.195486 0.494187 -0.235304 76 0 153
-0.429396 -0.305350 -0.266577 76 0 153
-0.675735 -0.136579 -0.199724 76 0 153
0.276076 0.048151 0.158452 153 76 0
0.238126 0.165608 -0.266577 76 0 153
-0.473772 0.365866 0.199937 0 0 255
-0.481795 -0.380043 0.097119 153 0 76
0.568449 -0.293933 0.114940 0 0 255
0.715897 -0.344118 -0.166645 76 0 153
0.015138 0.381528 -0.257657 76 0 153
0.048252 -0.165946 -0.055953 76 0 153
-0.186270 0.280090 0.011299 76 0 153
-0.547098 -0.380043 0.168521 0 0 255
-0.064069 0.596047 0.259745 76 0 153
0.715897 -0.040173 -0.112998 76 0 153
0.063649 -0.362202 -0.103428 153 0 76
0.021720 0.280090 -0.002372 76 0 153
-0.118934 0.280090 -0.184969 76 0 153
-0.648973 0.239327 0.078416 76 0 153
0.673217 -0.289440 -0.257657 76 0 153
-0.348473 -0.348370 -0.257657 76 0 153
0.386367 -0.018096 -0.266577 76 0 153
0.055036 0.065993 -0.151809 153 76 0
0.206179 -0.380043 0.114961 153 0 76
0.383845 -0.707880 -0.184945 76 0 153
0.262565 -0.683978 -0.266577 76 0 153
-0.371781 0.494187 -0.172903 76 0 153
0.352118 -0.380043 -0.146318 153 0 76
0.660126 0.494187 0.071964 76 0 153
-0.220299 -0.348352 0.071749 0 0 255
-0.576384 0.494187 -0.034182 76 0 153
-0.032245 0.564027 -0.266577 76 0 153
0.220797 -0.256005 0.251790 76 153 0
-0.302733 0.315493 -0.257657 76 0 153
-0.675687 -0.646803 -0.266577 76 0 153
-0.648973 0.124149 0.168766 76 0 153
-0.615637 0.706054 0.023036 76 0 153
0.380639 -0.707880 0.231024 76 0 153
0.183077 -0.165946 0.073914 76 0 153
0.641625 0.262868 0.224062 76 0 153
-0.290309 -0.707880 -0.217184 76 0 153
-0.641693 0.266237 0.224062 76 0 153
0.620012 -0.217328 0.259745 153 0 76
-0.054915 0.706054 0.247240 76 0 153
-0.382952 0.494187 0.067892 76 0 153
0.603424 -0.586158 -0.266577 76 0 153
-0.049723 0.706054 -0.207716 76 0 153
0.534086 -0.165946 -0.195121 76 0 153
0.149239 0.262248 0.209201 76 0 153
-0.096177 0.280090 -0.002263 76 0 153
-0.294685 -0.165946 -0.080691 76 0 153
-0.217633 -0.707880 0.090716 76 0 153
0.153242 0.706054 0.076429 76 0 153
0.085650 -0.380043 0.213550 153 0 76
-0.188005 0.306334 0.259745 76 153 0
0.517762 0.406657 0.259745 153 0 76
-0.672931 0.423113 0.259745 76 0 153
0.279537 -0.707880 0.192265 76 0 153
-0.591015 0.262248 -0.082732 76 0 153
0.210923 0.494187 0.111651 76 0 153
-0.526112 0.134633 0.259745 0 127 127
0.592521 -0.090017 -0.257657 76 0 153
0.054364 0.575895 -0.266577 76 0 153
-0.648973 0.238688 -0.222281 76 0 153
-0.147334 0.294004 -0.266577 76 0 153
-0.453729 -0.611410 -0.266577 76 0 153
-0.003219 0.481542 0.259745 76 0 153
-0.187661 -0.458100 0.044037 76 0 153
-0.675735 -0.259662 0.059176 76 0 153
0.434623 0.376710 0.259745 153 0 76
0.014016 -0.388414 0.250824 76 153 0
0.104991 -0.272995 0.093625 0 0 255
0.340873 0.438450 -0.266577 76 0 153
0.325802 0.280090 0.038700 76 0 153
-0.160580 0.706054 -0.125196 76 0 153
-0.485618 0.174449 0.259745 0 127 127
0.454032 0.110077 0.162008 0 0 255
-0.304247 0.669379 -0.266577 76 0 153
-0.151528 -0.165946 -0.076477 76 0 153
0.545884 0.104571 0.112401 0 0 255
0.535373 0.706054 -0.040916 76 0 153
0.112956 0.262248 0.075953 76 0 153
-0.453142 -0.148105 0.003481 76 0 153
-0.675735 -0.341580 0.150885 76 0 153
0.689135 0.110300 0.032463 76 0 153
-0.667589 0.559878 -0.266577 76 0 153
0.578309 0.048151 -0.028799 153 76 0
0.337843 -0.317858 0.178789 0 0 255
0.689135 0.012244 -0.139193 76 0 153
-0.045719 0.262248 -0.069074 76 0 153
0.715897 0.464765 0.080298 76 0 153
-0.672945 -0.295909 -0.266577 76 0 153
-0.619341 -0.016349 -0.257657 76 0 153
0.715897 0.546815 -0.177464 76 0 153
0.207345 -0.553219 0.259745 76 0 153
0.672459 0.706054 -0.247389 76 0 153
0.080841 -0.041314 0.250824 76 153 0
-0.423674 0.494187 -0.217985 76 0 153
0.461964 0.431153 0.259745 153 0 76
0.213414 0.169038 0.250824 76 153 0
-0.108820 0.110321 -0.266577 76 0 153
0.337929 0.657967 -0.266577 76 0 153
0.599985 0.494187 0.160620 76 0 153
-0.002452 0.048151 0.010936 153 76 0
0.672679 0.174653 0.259745 153 0 76
0.689135 -0.315559 0.217509 76 0 153
-0.582873 0.162134 -0.257657 76 0 153
0.264566 -0.363005 -0.266577 76 0 153
0.689135 -0.088063 0.096035 76 0 153
0.389868 -0.283300 -0.257657 76 0 153
0.220457 -0.165946 -0.081467 76 0 153
-0.072664 0.422504 -0.257657 76 0 153
0.159646 0.091341 0.115715 0 0 255
-0.092407 -0.276919 0.174630 0 0 255
0.715897 0.382257 -0.172766 76 0 153
-0.648973 -0.269102 -0.115668 76 0 153
-0.253298 0.512647 0.259745 76 0 153
-0.249914 0.321903 0.109850 0 0 255
-0.352367 -0.707880 0.069340 76 0 153
-0.136750 -0.133179 0.250824 76 153 0
0.669482 -0.301071 0.268666 76 0 153
0.072994 0.048151 -0.110946 153 76 0
0.184016 -0.321551 0.171628 0 0 255
0.570046 0.280090 0.107936 0 0 255
-0.022737 -0.165946 0.011446 76 0 153
0.496245 -0.164014 -0.266577 76 0 153
0.101832 0.706054 -0.266146 76 0 153
0.451913 -0.304789 0.083135 0 0 255
0.146216 0.185359 -0.266577 76 0 153
0.670150 -0.492052 0.259745 76 0 153
0.210908 -0.458100 0.066462 76 0 153
0.030494 0.496840 -0.266577 76 0 153
0.033309 -0.380043 -0.214880 153 0 76
-0.675735 0.012538 0.043719 76 0 153
0.715897 -0.649683 -0.220823 76 0 153
-0.675735 0.540809 -0.171781 76 0 153
0.449742 0.706054 -0.187991 76 0 153
-0.675735 -0.470136 -0.150158 76 0 153
0.508464 -0.165946 0.036917 76 0 153
0.038646 0.706054 0.217325 76 0 153
0.610266 -0.707880 0.130722 76 0 153
-0.495561 -0.332817 -0.257657 76 0 153
-0.132140 -0.458100 -0.168268 76 0 153
-0.403837 -0.458100 0.227245 76 0 153
-0.236379 -0.059909 0.153107 0 0 255
0.115283 0.494187 -0.134063 76 0 153
-0.648973 0.309406 0.100528 76 0 153
0.146315 -0.707880 -0.193202 76 0 153
0.166444 0.154562 0.068392 0 0 255
0.055650 0.054684 0.224062 153 76 0
0.142899 0.315696 0.154545 0 0 255
-0.139789 0.298239 0.250824 76 153 0
0.678259 -0.458100 0.100003 76 0 153
0.398733 0.048151 -0.144994 153 76 0
-0.430540 0.262248 -0.022058 76 0 153
-0.629198 -0.458100 0.087021 76 0 153
0.518400 -0.373107 0.224062 153 0 76
0.522830 0.494187 0.264521 153 0 76
-0.214565 0.155192 0.189791 0 0 255
0.715897 0.563659 0.012605 76 0 153
0.184534 -0.481196 0.259745 76 0 153
-0.074864 0.706054 -0.117872 76 0 153
0.715897 0.391558 0.153485 76 0 153
0.520107 0.494187 -0.218853 76 0 153
0.454439 0.692234 -0.266577 76 0 153
-0.648973 -0.128832 -0.109712 76 0 153
-0.673649 -0.225860 -0.266577 76 0 153
0.715897 0.270942 0.035692 76 0 153
0.666573 0.065993 -0.020852 153 76 0
-0.503586 -0.380043 -0.103327 153 0 76
0.485890 0.128948 -0.266577 76 0 153
-0.236325 -0.527239 -0.266577 76 0 153
-0.446877 -0.643385 0.259745 76 0 153
-0.235085 -0.438253 -0.257657 76 0 153
-0.297110 0.706054 0.240400 76 0 153
0.367117 0.262248 0.175994 76 0 153
0.150243 0.368149 0.153726 0 0 255
-0.035242 -0.362202 0.059702 153 0 76
0.715897 0.651978 0.002958 76 0 153
0.634215 -0.707880 -0.134931 76 0 153
-0.126541 -0.004284 -0.266577 76 0 153
-0.675735 0.344274 0.206948 76 0 153
0.358913 -0.458100 -0.093483 76 0 153
0.619348 0.494187 -0.092386 76 0 153
-0.303055 -0.103327 0.068351 0 0 255
0.311776 -0.380043 0.166354 153 0 76
0.124920 0.288590 0.250824 76 153 0
0.105023 0.305195 0.188282 0 0 255
0.110783 -0.362202 -0.180049 153 0 76
-0.258114 0.364826 0.173640 0 0 255
0.628096 -0.458100 0.022707 76 0 153
0.004002 -0.195484 0.250824 76 153 0
0.426057 0.065993 -0.009013 153 76 0
0.628160 -0.165946 -0.012567 76 0 153
0.715897 0.032618 0.199563 76 0 153
0.493015 -0.362202 -0.102592 153 0 76
0.076718 -0.380043 0.123773 153 0 76
-0.613035 0.107007 0.259745 0 127 127
0.439826 0.083778 -0.257657 76 0 153
0.439531 -0.236432 -0.257657 76 0 153
-0.197198 -0.148105 0.127481 76 0 153
0.715897 0.028198 0.017586 76 0 153
0.715897 -0.676807 -0.020016 76 0 153
0.398413 0.048151 -0.227940 153 76 0
0.204158 -0.606545 0.259745 76 0 153
0.078538 -0.148105 0.141953 76 0 153
-0.446857 -0.380043 -0.219874 153 0 76
-0.135867 0.065993 -0.047187 153 76 0
0.593758 0.706054 -0.238960 76 0 153
-0.343573 -0.602122 -0.266577 76 0 153
0.294507 0.312332 0.078526 0 0 255
0.607546 -0.458100 0.149406 76 0 153
-0.675735 0.192427 0.000020 76 0 153
-0.446410 0.706054 -0.173386 76 0 153
0.248055 0.676210 0.268666 76 0 153
-0.351943 0.048151 -0.053380 153 76 0
0.689135 -0.217288 -0.229690 76 0 153
-0.351555 -0.469964 0.259745 0 127 127
-0.230395 -0.458100 0.106978 76 0 153
-0.518184 0.494187 0.175070 76 0 153
0.324600 -0.333574 0.114668 0 0 255
-0.432713 0.494187 0.049024 76 0 153
0.188403 -0.148105 -0.226520 76 0 153
0.115179 0.399490 0.250824 76 153 0
-0.590215 -0.380043 -0.120147 153 0 76
0.540240 -0.707880 -0.205058 76 0 153
0.134094 0.048151 0.041282 153 76 0
-0.529850 0.292254 -0.266577 76 0 153
0.526199 -0.458100 -0.226309 76 0 153
0.044889 -0.173380 0.250824 76 153 0
0.246540 0.048151 0.053139 153 76 0
0.507736 0.694887 -0.266577 76 0 153
0.369896 -0.332671 -0.266577 76 0 153
0.114549 0.065993 -0.103855 153 76 0
-0.581919 0.048151 -0.109376 153 76 0
0.715897 -0.259765 0.242910 76 0 153
0.604864 0.494187 0.079080 76 0 153
-0.560083 0.364104 0.259745 0 127 127
-0.179121 0.129313 0.090408 0 0 255
0.173822 0.065993 -0.238580 153 76 0
0.141500 -0.010504 -0.257657 76 0 153
-0.598129 0.415539 -0.266577 76 0 153
0.494058 0.065993 -0.055294 153 76 0
0.478891 0.510181 0.259745 153 0 76
0.011834 -0.707880 -0.137030 76 0 153
0.322227 0.367131 -0.257657 76 0 153
0.538065 -0.472340 -0.266577 76 0 153
0.265401 -0.270946 0.261395 153 0 76
0.560153 0.441165 0.259745 153 0 76
-0.276481 0.494187 -0.147646 76 0 153
0.184173 0.085431 0.175806 153 76 0
0.264718 0.706054 -0.062624 76 0 153
-0.467779 0.545106 -0.266577 76 0 153
-0.558676 -0.469582 -0.266577 76 0 153
-0.638269 -0.458100 0.152042 76 0 153
-0.648973 0.112097 0.125568 76 0 153
0.467749 0.040016 -0.266577 76 0 153
0.412608 -0.142969 0.107558 0 0 255
0.715897 -0.487117 0.220271 76 0 153
-0.055473 0.039718 0.250824 76 153 0
0.689135 -0.372419 0.116789 76 0 153
0.655315 -0.458100 -0.139762 76 0 153
-0.675735 -0.230620 0.182018 76 0 153
-0.675735 -0.063018 0.130011 76 0 153
0.311009 0.517333 0.259745 76 0 153
0.237005 -0.281007 -0.266577 76 0 153
-0.449698 -0.380043 0.056757 153 0 76
-0.675735 -0.024440 -0.026057 76 0 153
0.601636 0.663271 0.268666 76 0 153
0.448742 0.625062 0.259745 76 0 153
-0.506256 -0.424272 -0.266577 76 0 153
-0.100852 -0.458100 0.148832 76 0 153
