ply
format ascii 1.0
element vertex 1275
property float x
property float y
property float z
property uchar red
property uchar green
property uchar blue
end_header
-0.125845 0.351368 -0.077948 153 0 76
0.136444 -0.636781 0.114492 76 153 0
0.147830 -0.238680 0.153392 76 153 0
-0.028371 -0.495680 0.208805 76 153 0
0.156279 -0.142617 -0.136414 76 153 0
-0.114695 0.159080 -0.159133 76 153 0
-0.109068 0.040958 -0.169713 76 153 0
-0.094706 -0.138768 -0.178156 76 153 0
-0.067827 0.140434 -0.187233 76 153 0
-0.058040 0.546792 -0.072809 153 0 76
-0.125877 0.122579 -0.156264 76 153 0
-0.185648 -0.299816 -0.080196 76 153 0
-0.153046 0.272931 0.088784 76 153 0
-0.050735 0.796407 -0.034322 153 0 76
0.068203 0.870629 0.021317 153 0 76
0.181509 -0.499887 -0.101713 76 153 0
0.096759 -0.133651 0.189281 76 153 0
0.104953 -0.201042 0.185040 76 153 0
0.066312 0.614034 0.062503 153 0 76
0.165308 -0.319305 -0.125316 76 153 0
-0.004990 0.132860 -0.200645 76 153 0
-0.112724 0.111147 0.175143 76 153 0
0.077957 0.075513 -0.189441 76 153 0
0.210513 -0.566296 -0.008207 76 153 0
-0.048295 0.354143 0.147138 153 0 76
-0.163249 -0.458762 -0.118635 76 153 0
0.125927 -0.080600 0.171762 76 153 0
-0.195313 -0.355336 0.061246 76 153 0
-0.131003 0.002725 0.161789 76 153 0
0.201164 -0.413867 -0.059156 76 153 0
0.029397 -0.413587 -0.201250 76 153 0
-0.127295 0.083085 0.164834 76 153 0
0.104879 -0.278234 0.184766 76 153 0
-0.129310 -0.035871 -0.154797 76 153 0
-0.028473 -0.623651 -0.074508 76 153 0
0.083955 0.108839 -0.186665 76 153 0
-0.040099 0.984109 -0.048324 76 0 153
-0.126388 0.402319 0.040064 153 0 76
0.176255 -0.088912 0.118624 76 153 0
0.021874 -0.394471 0.210593 76 153 0
-0.015942 -0.632807 -0.143270 76 153 0
-0.195907 0.063852 0.059106 76 153 0
-0.043972 0.023549 0.205735 76 153 0
-0.057903 0.967960 -0.025403 76 0 153
-0.176223 -0.152518 0.106805 76 153 0
-0.093453 -0.628713 0.180759 76 153 0
0.207110 -0.547739 0.043306 76 153 0
-0.011063 0.187472 0.200767 76 153 0
0.176964 0.052292 -0.109773 76 153 0
-0.085116 0.455964 -0.076934 153 0 76
-0.065334 0.701174 0.021561 153 0 76
0.104957 0.486753 -0.045321 153 0 76
-0.147532 -0.544059 -0.137619 76 153 0
0.169495 0.295549 -0.039993 153 0 76
-0.027076 0.340425 -0.149966 153 0 76
0.116243 -0.007845 -0.169977 76 153 0
0.059704 -0.285279 0.203483 76 153 0
0.053948 0.769038 0.049231 153 0 76
0.173750 0.274150 0.057050 76 153 0
0.204074 -0.301704 0.057036 76 153 0
0.205118 -0.173115 -0.044649 76 153 0
-0.030450 0.495040 -0.100906 153 0 76
0.113820 0.436343 -0.055192 153 0 76
0.072181 0.664923 0.039382 153 0 76
0.208710 -0.327063 -0.025603 76 153 0
0.134986 0.091262 -0.156319 76 153 0
0.179902 -0.206850 0.113621 76 153 0
0.116798 -0.222858 -0.169612 76 153 0
-0.039895 -0.379072 -0.198188 76 153 0
-0.050018 0.417023 -0.115370 153 0 76
-0.190914 -0.628280 0.056812 76 153 0
-0.145555 -0.215385 -0.139681 76 153 0
0.039707 -0.141165 0.208164 76 153 0
0.002510 -0.090320 0.211013 76 153 0
0.173848 -0.477100 0.122886 76 153 0
0.111908 -0.050210 0.181054 76 153 0
-0.163398 -0.011718 0.126828 76 153 0
0.044712 0.055055 -0.198750 76 153 0
0.189785 -0.614488 0.091534 76 153 0
-0.160772 0.111026 0.129556 76 153 0
-0.061164 0.608071 -0.052959 153 0 76
0.054203 -0.409508 0.205136 76 153 0
0.037149 0.453822 0.120256 153 0 76
0.006196 0.447246 -0.118450 153 0 76
0.116524 0.469443 0.034856 153 0 76
-0.191547 -0.577048 0.073575 76 153 0
-0.067013 0.455418 0.101514 153 0 76
0.070366 0.921359 0.004286 153 0 76
0.159646 0.343626 0.002313 153 0 76
-0.021536 0.561421 0.095787 153 0 76
-0.147308 -0.496311 -0.137852 76 153 0
0.110319 -0.154614 -0.173585 76 153 0
-0.201631 -0.412377 0.029913 76 153 0
-0.031689 0.134283 0.206019 76 153 0
-0.185611 -0.304379 0.088685 76 153 0
-0.102835 0.485343 -0.032294 153 0 76
0.210768 -0.260626 0.009959 76 153 0
-0.103481 -0.105398 0.181397 76 153 0
-0.142428 -0.166788 -0.142907 76 153 0
0.003399 1.000701 0.038448 76 0 153
-0.088284 0.280751 0.154015 76 153 0
0.153265 -0.636642 -0.070325 76 153 0
-0.003627 0.917993 0.069994 153 0 76
0.059628 0.216202 -0.179039 76 153 0
0.202888 -0.308412 -0.052957 76 153 0
0.110626 0.328943 0.125322 153 0 76
0.208366 0.087266 0.035535 76 153 0
-0.102251 0.457334 0.060570 153 0 76
-0.007619 0.349468 0.157729 153 0 76
0.142941 0.366078 -0.045540 153 0 76
0.109407 0.269002 -0.140524 76 153 0
0.099795 -0.638245 -0.158103 76 153 0
0.178598 0.122319 0.113100 76 153 0
0.069891 -0.008101 0.200359 76 153 0
0.192857 -0.632785 -0.056707 76 153 0
-0.081940 0.543071 0.054935 153 0 76
0.062390 -0.411996 -0.194487 76 153 0
0.152549 0.039238 0.148692 76 153 0
-0.056068 0.314981 0.158867 153 0 76
0.050680 0.945318 0.054089 76 0 153
0.210503 -0.466979 0.016800 76 153 0
0.072686 -0.631874 0.130518 76 153 0
-0.082829 -0.514993 0.192667 76 153 0
0.100167 0.376341 0.111396 153 0 76
-0.005111 -0.139078 -0.202659 76 153 0
-0.152507 0.067658 -0.132182 76 153 0
-0.098911 -0.209132 -0.175772 76 153 0
-0.028327 0.435855 0.125496 153 0 76
0.001382 0.790382 0.070598 153 0 76
0.125898 0.096808 0.171784 76 153 0
0.013527 0.916206 -0.061363 153 0 76
0.199934 0.178991 0.034915 76 153 0
0.131706 0.230453 0.142743 76 153 0
-0.191181 -0.580030 -0.066229 76 153 0
0.173348 -0.045497 -0.115260 76 153 0
0.207079 0.144919 0.013937 76 153 0
0.022934 -0.354870 -0.202072 76 153 0
0.071797 -0.095704 0.199677 76 153 0
-0.113931 -0.213082 0.174480 76 153 0
0.105591 0.281828 0.147530 76 153 0
-0.069401 -0.233642 -0.189782 76 153 0
0.030198 0.616548 -0.075995 153 0 76
-0.021645 -0.078094 -0.201276 76 153 0
0.099630 -0.451296 0.187855 76 153 0
-0.025243 0.702481 0.068763 153 0 76
-0.196938 0.128308 0.047836 76 153 0
-0.113047 0.221401 -0.146483 76 153 0
-0.175098 0.029545 -0.100393 76 153 0
0.178225 -0.561991 -0.106749 76 153 0
0.047417 0.048020 0.206580 76 153 0
0.207646 -0.224907 -0.032357 76 153 0
-0.110282 -0.409503 -0.168912 76 153 0
0.099328 0.135100 0.185485 76 153 0
-0.181983 -0.412607 -0.087882 76 153 0
-0.126398 0.137144 0.162249 76 153 0
-0.201059 -0.479749 -0.026074 76 153 0
0.160969 -0.521225 -0.130964 76 153 0
0.044792 0.841419 0.057283 153 0 76
-0.146251 -0.306444 0.147342 76 153 0
-0.030052 -0.442238 -0.200204 76 153 0
0.049123 0.814931 -0.045749 153 0 76
0.069542 0.851754 -0.004242 153 0 76
0.197027 0.128542 0.074151 76 153 0
-0.003272 -0.619345 0.024577 76 153 0
-0.174451 -0.627553 -0.091373 76 153 0
0.030950 -0.637652 0.181733 76 153 0
-0.039007 -0.252469 0.206757 76 153 0
0.073003 0.305747 -0.149758 153 0 76
-0.200035 -0.408068 -0.032451 76 153 0
-0.177515 -0.372907 0.104548 76 153 0
0.010566 -0.609943 0.210267 76 153 0
-0.146561 -0.434014 -0.138631 76 153 0
0.056667 0.642874 -0.056299 153 0 76
0.072704 -0.608505 0.199045 76 153 0
0.140189 -0.429930 -0.152099 76 153 0
0.025822 0.675468 -0.067653 153 0 76
-0.047159 0.646645 0.065015 153 0 76
0.033004 0.996847 0.064690 76 0 153
-0.167033 0.215032 -0.083413 76 153 0
0.210743 -0.500119 0.008620 76 153 0
0.198041 0.191297 -0.023352 76 153 0
0.062495 0.301720 0.163685 153 0 76
-0.101402 0.257130 -0.144577 76 153 0
-0.202531 -0.211421 -0.014529 76 153 0
0.204024 -0.271223 0.057217 76 153 0
-0.026229 -0.351613 -0.200692 76 153 0
0.018287 -0.053102 0.210496 76 153 0
0.202280 -0.042509 0.063495 76 153 0
-0.202862 -0.121893 0.018072 76 153 0
-0.128278 0.367373 0.069914 153 0 76
0.074484 -0.549673 0.198715 76 153 0
0.148663 -0.460230 -0.143841 76 153 0
0.202756 -0.609674 0.059362 76 153 0
0.089445 0.170674 -0.176464 76 153 0
-0.057089 0.443152 -0.103419 153 0 76
0.175495 -0.614202 -0.109635 76 153 0
0.107044 0.309587 -0.127487 153 0 76
-0.034476 0.297448 0.170753 153 0 76
-0.196860 -0.158900 0.055676 76 153 0
0.050244 0.227948 0.187454 76 153 0
0.023649 0.266181 -0.174503 76 153 0
-0.075649 -0.158146 0.195389 76 153 0
0.154098 -0.046198 -0.138690 76 153 0
0.089519 0.517822 0.065066 153 0 76
0.169149 0.179625 -0.105554 76 153 0
0.158911 -0.637326 0.083227 76 153 0
0.073523 0.553019 -0.063803 153 0 76
-0.194900 -0.174942 -0.054385 76 153 0
-0.155936 0.010385 -0.128010 76 153 0
-0.085475 0.549561 -0.036489 153 0 76
-0.072891 -0.551244 0.196908 76 153 0
0.193506 -0.352537 -0.079547 76 153 0
-0.107868 -0.523442 -0.170505 76 153 0
-0.193014 -0.109677 0.069476 76 153 0
0.060878 -0.205968 -0.194907 76 153 0
0.139282 -0.494454 -0.152846 76 153 0
0.201391 0.071679 0.065656 76 153 0
0.119453 -0.396555 -0.167865 76 153 0
-0.032036 0.869008 0.060455 153 0 76
-0.182833 -0.551978 -0.086275 76 153 0
-0.197781 0.159436 0.002434 76 153 0
-0.173210 0.041411 0.112068 76 153 0
-0.024507 -0.379753 0.209297 76 153 0
0.206972 -0.518725 0.043974 76 153 0
-0.200702 -0.339982 0.037225 76 153 0
0.052367 -0.623037 0.066718 76 153 0
0.088826 -0.176396 -0.184980 76 153 0
0.001879 0.681849 0.078071 153 0 76
0.035926 -0.619691 0.007755 76 153 0
-0.100326 0.502025 0.035651 153 0 76
-0.191946 -0.518849 0.072465 76 153 0
-0.091087 -0.624794 -0.001857 76 153 0
0.210506 -0.100803 -0.008384 76 153 0
-0.198282 0.006840 0.049323 76 153 0
0.174031 -0.183504 -0.114223 76 153 0
-0.175353 -0.131790 -0.099948 76 153 0
0.081093 0.422468 0.107882 153 0 76
0.142960 0.315459 0.094589 153 0 76
0.063952 0.791119 0.033720 153 0 76
0.168137 -0.170912 0.130593 76 153 0
0.203638 0.108393 -0.048894 76 153 0
0.133833 0.411283 0.028246 153 0 76
0.186460 0.174138 0.084027 76 153 0
0.187637 -0.131518 -0.091491 76 153 0
0.160501 0.001413 -0.131695 76 153 0
-0.008154 -0.183826 -0.202540 76 153 0
0.025407 0.174601 0.202152 76 153 0
-0.125983 -0.637360 -0.117802 76 153 0
0.054898 0.676147 0.059311 153 0 76
-0.160088 -0.637174 0.050332 76 153 0
0.024203 -0.080202 -0.201911 76 153 0
0.064783 0.737964 0.033311 153 0 76
-0.190577 0.014462 0.076295 76 153 0
0.107314 0.524240 0.001722 153 0 76
0.003141 0.967697 0.072723 76 0 153
-0.051455 0.392488 0.130693 153 0 76
-0.203113 -0.430908 -0.003285 76 153 0
0.092946 0.586062 0.020041 153 0 76
-0.147384 -0.625309 0.140258 76 153 0
0.081040 -0.602940 -0.188056 76 153 0
-0.058709 -0.624599 -0.065943 76 153 0
-0.168549 -0.396133 -0.111038 76 153 0
0.146670 0.139433 0.150602 76 153 0
-0.136856 -0.368163 0.156633 76 153 0
0.066528 0.511836 -0.081849 153 0 76
0.008392 0.016908 -0.202826 76 153 0
-0.091074 0.298947 -0.137983 76 153 0
0.165100 0.264460 -0.076307 76 153 0
0.012998 0.383873 -0.136422 153 0 76
0.090838 -0.359865 -0.184116 76 153 0
-0.004108 -0.438920 0.211085 76 153 0
0.016313 0.579695 -0.086765 153 0 76
0.184346 -0.261753 0.105858 76 153 0
-0.046692 -0.466318 0.205139 76 153 0
-0.137011 0.294703 -0.094812 76 153 0
0.161872 0.113672 -0.129058 76 153 0
-0.150382 -0.297571 -0.134645 76 153 0
-0.093621 -0.577019 0.187115 76 153 0
0.154996 -0.520778 0.145958 76 153 0
-0.060545 -0.558850 -0.192900 76 153 0
0.101569 -0.126136 -0.178548 76 153 0
0.204533 0.039269 0.055095 76 153 0
-0.106614 0.421015 0.072403 153 0 76
0.019146 0.942736 0.070907 76 0 153
-0.128749 -0.144412 0.163640 76 153 0
0.138930 -0.357882 -0.153133 76 153 0
0.042332 0.776577 -0.051025 153 0 76
0.189097 0.195392 -0.058237 76 153 0
-0.172666 -0.231412 0.113019 76 153 0
0.135096 -0.354040 0.164669 76 153 0
0.056884 0.270480 -0.166471 76 153 0
-0.097387 0.399553 -0.087014 153 0 76
-0.058063 0.731493 0.032099 153 0 76
0.007994 0.038061 0.210897 76 153 0
0.030274 -0.190483 -0.201139 76 153 0
0.164110 -0.399703 0.135691 76 153 0
-0.151643 -0.099278 0.141631 76 153 0
0.153544 -0.127319 0.147654 76 153 0
0.005846 0.269282 0.183245 76 153 0
-0.069783 0.112643 -0.189155 76 153 0
0.181751 -0.044949 0.109965 76 153 0
0.190221 0.218071 0.046614 76 153 0
-0.067320 -0.431462 -0.190529 76 153 0
-0.197870 -0.052515 0.051329 76 153 0
-0.066699 -0.636071 -0.174083 76 153 0
-0.039888 0.606447 -0.070768 153 0 76
0.193882 -0.207691 -0.078673 76 153 0
-0.172518 -0.270923 0.113277 76 153 0
0.141768 0.306541 -0.092201 153 0 76
0.120400 -0.327607 -0.167242 76 153 0
-0.086058 0.110954 0.190614 76 153 0
-0.177575 -0.451415 -0.096061 76 153 0
0.192722 0.227001 -0.008907 76 153 0
0.166983 0.321079 0.016642 153 0 76
0.099938 0.060015 -0.179416 76 153 0
0.145503 -0.182176 0.155623 76 153 0
-0.044184 0.660753 -0.056649 153 0 76
0.077397 0.055783 0.197673 76 153 0
-0.170546 0.254554 -0.051530 76 153 0
-0.124517 -0.080360 -0.158699 76 153 0
0.057845 -0.443703 0.204042 76 153 0
0.196359 -0.600062 -0.072133 76 153 0
0.132395 0.193863 -0.143718 76 153 0
-0.038376 -0.009635 -0.198501 76 153 0
-0.094431 0.519242 -0.031310 153 0 76
-0.090926 0.058925 -0.180168 76 153 0
-0.026066 0.492516 0.110804 153 0 76
0.160859 -0.216497 -0.131259 76 153 0
0.022527 0.078310 -0.202124 76 153 0
0.183798 0.260173 0.026314 76 153 0
-0.200790 -0.472217 0.036531 76 153 0
0.072213 0.971735 0.006566 76 0 153
-0.168219 -0.031752 -0.111538 76 153 0
-0.056927 -0.177753 -0.193906 76 153 0
0.139203 0.395622 -0.016186 153 0 76
-0.187783 0.211072 -0.016557 76 153 0
0.070032 0.942994 0.021942 76 0 153
0.119256 -0.147860 0.176373 76 153 0
-0.029847 0.289884 -0.165797 76 153 0
-0.139873 -0.131595 -0.145356 76 153 0
0.076724 0.662598 -0.019630 153 0 76
-0.054548 0.686589 -0.040636 153 0 76
0.059008 -0.052795 0.203692 76 153 0
0.117674 0.110039 -0.168544 76 153 0
0.066670 -0.258117 0.201390 76 153 0
0.016580 -0.195010 0.210894 76 153 0
-0.048960 0.054008 0.204445 76 153 0
0.084545 0.634109 -0.003881 153 0 76
-0.013318 0.544429 -0.093230 153 0 76
-0.201646 0.113205 0.025516 76 153 0
0.092859 -0.504259 0.191219 76 153 0
-0.067930 0.564445 0.066449 153 0 76
0.210841 -0.157435 0.008096 76 153 0
0.195182 -0.343269 0.084038 76 153 0
-0.148581 -0.101030 -0.136524 76 153 0
0.075092 0.477709 0.094195 153 0 76
0.208376 -0.212444 0.036584 76 153 0
0.164831 0.221881 -0.097490 76 153 0
-0.194468 -0.217897 0.064290 76 153 0
-0.198792 -0.556520 -0.038493 76 153 0
-0.024708 -0.246462 -0.200885 76 153 0
0.199225 -0.248362 0.073322 76 153 0
-0.058546 -0.621767 -0.015539 76 153 0
0.145660 0.289803 0.104182 153 0 76
0.190931 -0.010029 -0.085302 76 153 0
0.134722 0.261545 -0.120838 76 153 0
0.062033 0.891897 0.037238 153 0 76
-0.009397 -0.459941 -0.202492 76 153 0
-0.030612 0.464830 -0.108540 153 0 76
-0.046105 -0.118602 0.205298 76 153 0
-0.138629 -0.424466 0.154933 76 153 0
-0.002241 0.653511 0.081978 153 0 76
0.153461 -0.299298 -0.139115 76 153 0
-0.053093 -0.337809 0.203359 76 153 0
0.119942 0.404340 0.072140 153 0 76
-0.028825 0.911971 0.062368 153 0 76
0.187349 -0.145559 0.100419 76 153 0
-0.200461 -0.004831 -0.030377 76 153 0
0.081385 0.611366 -0.031575 153 0 76
0.017782 -0.458983 0.210847 76 153 0
-0.164317 -0.057943 -0.117224 76 153 0
0.205301 -0.478826 -0.043761 76 153 0
-0.183195 0.120468 -0.083614 76 153 0
-0.057832 0.734955 -0.023715 153 0 76
-0.132185 0.325042 0.092806 153 0 76
-0.141145 -0.636674 0.087526 76 153 0
0.094015 -0.305236 -0.182568 76 153 0
-0.069369 -0.629941 -0.106017 76 153 0
-0.063123 -0.292291 0.200074 76 153 0
0.111525 -0.234298 0.181273 76 153 0
0.159042 -0.634339 -0.013090 76 153 0
-0.060193 1.000701 0.014950 76 0 153
0.182570 -0.366209 -0.100407 76 153 0
-0.202305 -0.341293 -0.016303 76 153 0
-0.006838 0.067418 -0.202592 76 153 0
0.072973 0.149620 0.195033 76 153 0
-0.069137 0.253272 -0.163864 76 153 0
0.174207 -0.503890 0.122342 76 153 0
-0.060092 0.045653 -0.193026 76 153 0
0.028904 0.809779 0.065890 153 0 76
0.045751 -0.633534 -0.141510 76 153 0
0.001851 0.294843 -0.167631 76 153 0
0.051512 -0.492407 0.205740 76 153 0
-0.175095 -0.545669 0.108775 76 153 0
0.131897 0.048009 0.167248 76 153 0
-0.020388 0.226753 -0.183397 76 153 0
0.052042 0.980870 0.052894 76 0 153
-0.014425 -0.621576 -0.199073 76 153 0
-0.074177 -0.263125 -0.188003 76 153 0
-0.172091 -0.492727 0.114022 76 153 0
-0.184651 -0.414441 0.090922 76 153 0
-0.118812 0.312760 0.116568 153 0 76
-0.036823 -0.203191 0.207206 76 153 0
0.039207 0.903666 -0.052836 153 0 76
-0.039529 0.941182 0.057210 76 0 153
-0.184431 -0.023189 -0.083030 76 153 0
-0.018616 0.026229 -0.201662 76 153 0
0.093803 0.252994 -0.155609 76 153 0
-0.029865 0.832479 -0.053777 153 0 76
0.066751 0.807611 -0.017257 153 0 76
0.198914 -0.217064 0.074188 76 153 0
-0.171352 -0.431993 0.115157 76 153 0
-0.194858 -0.465958 -0.054535 76 153 0
0.177080 0.236460 0.075445 76 153 0
0.155301 0.342534 -0.033861 153 0 76
-0.133314 0.395190 0.006332 153 0 76
-0.074938 0.162119 0.189261 76 153 0
-0.089114 -0.031693 -0.181133 76 153 0
0.160916 0.325946 0.044710 153 0 76
0.053466 0.541178 0.090887 153 0 76
-0.043692 -0.227098 -0.197408 76 153 0
-0.095894 -0.429781 0.185878 76 153 0
0.203339 0.158628 -0.024772 76 153 0
-0.035876 -0.620384 0.026916 76 153 0
-0.048488 0.604580 0.073430 153 0 76
0.109284 -0.628086 -0.054901 76 153 0
0.179024 -0.086108 -0.106649 76 153 0
-0.088841 0.571852 0.014306 153 0 76
-0.040989 -0.638438 0.181071 76 153 0
0.210957 -0.303569 0.005091 76 153 0
-0.123766 -0.229465 -0.159268 76 153 0
0.044503 -0.197871 0.207179 76 153 0
0.187467 -0.280282 -0.091808 76 153 0
-0.048413 0.768983 0.046689 153 0 76
-0.187929 -0.328012 -0.074889 76 153 0
-0.010856 -0.486531 -0.202435 76 153 0
0.208529 -0.347105 0.035373 76 153 0
-0.038205 -0.636825 -0.161919 76 153 0
0.064630 0.869082 -0.023477 153 0 76
-0.163513 0.307747 -0.009215 153 0 76
0.137854 -0.551912 -0.154018 76 153 0
0.109088 -0.455115 -0.174290 76 153 0
0.203819 -0.014339 -0.049610 76 153 0
0.129864 -0.611825 -0.159305 76 153 0
0.205863 0.127322 0.041282 76 153 0
0.073226 0.466413 -0.090833 153 0 76
0.060757 0.459256 0.109263 153 0 76
-0.136089 -0.493447 0.157368 76 153 0
-0.096738 0.173563 0.176507 76 153 0
0.053142 -0.575923 -0.197018 76 153 0
-0.142509 0.370143 0.002359 153 0 76
0.125680 0.440662 -0.018114 153 0 76
-0.195556 -0.239068 -0.052028 76 153 0
0.000739 -0.408442 -0.202888 76 153 0
-0.147146 0.327489 -0.053218 153 0 76
0.137022 -0.245344 -0.154702 76 153 0
-0.159125 -0.323733 0.132480 76 153 0
0.004895 0.518935 0.108965 153 0 76
-0.023481 1.000701 0.045967 76 0 153
0.066735 0.351836 0.143813 153 0 76
0.083986 -0.623421 0.025155 76 153 0
0.156716 -0.612549 -0.134488 76 153 0
0.196905 -0.317170 0.079786 76 153 0
0.037034 0.308633 0.168529 153 0 76
0.158389 -0.578535 0.142600 76 153 0
0.128085 -0.617739 0.167947 76 153 0
-0.177830 -0.063757 0.104009 76 153 0
-0.078814 0.574689 -0.038417 153 0 76
-0.035301 -0.067088 0.207517 76 153 0
0.174012 -0.449619 -0.113651 76 153 0
0.167710 -0.143827 0.131158 76 153 0
-0.203343 -0.249404 0.002572 76 153 0
0.062423 1.000109 0.033101 76 0 153
0.200754 0.134957 -0.051848 76 153 0
-0.202494 -0.084939 -0.014822 76 153 0
-0.114812 -0.257728 -0.165925 76 153 0
-0.154760 -0.525819 0.137835 76 153 0
-0.076753 -0.585621 -0.186897 76 153 0
0.202184 -0.427272 0.063813 76 153 0
-0.111072 -0.120068 -0.168392 76 153 0
-0.109161 0.483002 0.010894 153 0 76
0.164262 -0.456469 0.135505 76 153 0
-0.019291 0.735793 0.067390 153 0 76
0.027992 0.726073 -0.059314 153 0 76
-0.058760 0.824452 0.026756 153 0 76
-0.141199 -0.005331 -0.144085 76 153 0
-0.196059 -0.620770 -0.039656 76 153 0
-0.202436 -0.586601 -0.015270 76 153 0
0.101849 -0.407821 0.186756 76 153 0
0.103022 -0.108069 0.186147 76 153 0
0.054218 0.114320 -0.196174 76 153 0
0.132179 -0.484953 0.167035 76 153 0
0.018461 0.093298 0.210489 76 153 0
0.087271 0.197821 -0.172370 76 153 0
-0.092423 0.244396 0.162704 76 153 0
0.014834 -0.600410 -0.202266 76 153 0
-0.153742 0.176830 -0.117614 76 153 0
0.201938 -0.369592 -0.056372 76 153 0
-0.119077 0.442843 0.019779 153 0 76
0.095154 -0.278751 -0.181962 76 153 0
0.195161 -0.460355 -0.075694 76 153 0
0.185084 0.066568 0.103859 76 153 0
-0.160957 -0.524184 -0.121664 76 153 0
0.185660 0.244216 -0.031493 76 153 0
0.151052 0.276416 -0.094348 76 153 0
0.156238 -0.345269 0.144844 76 153 0
0.157490 -0.410745 -0.134824 76 153 0
-0.129342 0.093710 -0.154771 76 153 0
0.170170 -0.311005 0.127905 76 153 0
-0.111920 -0.405886 0.176207 76 153 0
-0.198950 0.142617 -0.016931 76 153 0
-0.122763 -0.021333 0.168406 76 153 0
-0.203327 -0.457266 0.002179 76 153 0
-0.196081 -0.116642 -0.050138 76 153 0
-0.151021 -0.390592 -0.133977 76 153 0
-0.010459 0.696084 -0.066536 153 0 76
0.107567 0.110722 0.183105 76 153 0
-0.187627 0.179079 0.057641 76 153 0
-0.189298 0.125651 0.075865 76 153 0
0.125798 0.356199 -0.085623 153 0 76
-0.014893 0.882131 -0.059701 153 0 76
0.047944 -0.512807 -0.198086 76 153 0
0.075321 0.697816 0.009123 153 0 76
-0.025248 -0.138157 0.209153 76 153 0
-0.174781 0.106092 0.108776 76 153 0
-0.026050 0.254054 -0.176329 76 153 0
-0.156692 0.046381 0.135482 76 153 0
0.116342 0.484512 0.011882 153 0 76
0.067026 0.580155 -0.062397 153 0 76
0.152599 -0.068834 0.148640 76 153 0
-0.111094 -0.340733 -0.168376 76 153 0
-0.020585 1.000605 -0.056212 76 0 153
0.198095 -0.124420 -0.068086 76 153 0
-0.174045 0.167205 -0.088570 76 153 0
-0.063000 0.750012 0.004212 153 0 76
-0.160515 -0.053746 0.130642 76 153 0
0.139410 -0.568293 0.161127 76 153 0
0.172766 -0.228699 0.124471 76 153 0
-0.194525 0.075987 -0.055732 76 153 0
0.036338 0.573343 0.091317 153 0 76
-0.202213 0.064931 -0.017023 76 153 0
-0.118381 0.440826 -0.018082 153 0 76
-0.131796 -0.590847 0.161137 76 153 0
0.090073 0.556192 -0.039786 153 0 76
0.205090 -0.282424 -0.044787 76 153 0
0.025278 -0.358440 0.210160 76 153 0
0.102665 0.187170 0.174683 76 153 0
-0.040932 0.272225 0.176760 76 153 0
0.210708 -0.366803 -0.003218 76 153 0
-0.197907 0.029442 -0.042798 76 153 0
-0.121194 -0.544540 0.169594 76 153 0
0.098156 -0.325413 0.188373 76 153 0
0.209448 -0.461084 -0.019821 76 153 0
0.199624 -0.558359 -0.063851 76 153 0
0.191443 -0.454931 0.092727 76 153 0
-0.035124 0.779296 -0.050967 153 0 76
-0.200112 -0.281091 0.040411 76 153 0
-0.050966 -0.611704 -0.194834 76 153 0
-0.182294 -0.024397 0.095677 76 153 0
0.200563 -0.476500 0.069593 76 153 0
0.190263 -0.514433 0.094661 76 153 0
0.113459 -0.050528 -0.171787 76 153 0
0.003702 1.000701 -0.020393 76 0 153
0.183256 -0.592901 -0.098765 76 153 0
-0.001427 0.195484 -0.191308 76 153 0
-0.062053 -0.397951 -0.192425 76 153 0
0.036332 0.555174 -0.086895 153 0 76
0.011933 -0.159420 0.211074 76 153 0
0.202038 -0.251818 -0.056010 76 153 0
-0.077806 -0.480926 0.194825 76 153 0
-0.198653 -0.294667 -0.039168 76 153 0
-0.093979 -0.304804 0.186881 76 153 0
-0.126746 -0.629681 0.016763 76 153 0
-0.071087 0.625957 -0.031961 153 0 76
0.069952 -0.632903 0.190148 76 153 0
-0.131764 -0.382706 -0.152782 76 153 0
0.038956 0.632657 0.078234 153 0 76
0.127744 -0.629415 0.041630 76 153 0
-0.115448 0.272199 -0.128582 76 153 0
0.069620 -0.545969 -0.192423 76 153 0
0.137249 -0.088841 -0.154516 76 153 0
0.006567 0.559789 0.099727 153 0 76
-0.199840 -0.033886 -0.033400 76 153 0
0.111904 0.224731 -0.152042 76 153 0
-0.203120 -0.381944 0.011422 76 153 0
-0.057978 0.851389 0.029071 153 0 76
0.103555 -0.370261 0.185650 76 153 0
-0.187279 -0.353094 0.084800 76 153 0
0.032411 -0.624621 -0.085060 76 153 0
0.071114 -0.229580 0.199921 76 153 0
0.158213 -0.631702 0.130724 76 153 0
0.091567 -0.496128 -0.183803 76 153 0
-0.026080 0.646943 -0.069663 153 0 76
-0.018720 0.960071 -0.060425 76 0 153
-0.193458 -0.084773 0.067927 76 153 0
0.114391 0.355913 0.108413 153 0 76
0.057303 -0.174959 0.204204 76 153 0
0.153692 0.224326 0.120923 76 153 0
-0.021771 -0.395937 -0.201260 76 153 0
0.088095 0.610570 0.019032 153 0 76
-0.052754 0.859180 -0.031352 153 0 76
0.104339 -0.629866 0.090077 76 153 0
0.051385 0.452362 -0.107313 153 0 76
0.210850 -0.205764 0.007860 76 153 0
0.176411 -0.418910 -0.110010 76 153 0
-0.161221 0.086139 0.129708 76 153 0
-0.144740 0.212387 0.126799 76 153 0
0.154532 -0.273846 -0.138237 76 153 0
0.056334 0.260693 0.177893 76 153 0
-0.156511 0.130968 -0.124328 76 153 0
0.040247 -0.462424 -0.199667 76 153 0
0.017358 0.605429 0.089511 153 0 76
0.106880 0.390636 -0.089136 153 0 76
-0.188480 0.069949 0.082004 76 153 0
0.159153 0.318059 -0.050442 153 0 76
-0.094553 0.355196 0.120308 153 0 76
0.210038 0.108468 -0.010762 76 153 0
0.205334 0.020481 -0.043601 76 153 0
-0.022804 0.104049 -0.200911 76 153 0
-0.161676 0.091934 -0.120714 76 153 0
0.172519 0.163551 0.113618 76 153 0
-0.076569 0.352774 -0.126018 153 0 76
0.096627 -0.413952 -0.181178 76 153 0
0.076295 -0.049069 -0.190035 76 153 0
-0.203189 -0.328234 0.009627 76 153 0
-0.083973 -0.636682 -0.141060 76 153 0
-0.000361 -0.033102 -0.202845 76 153 0
0.063214 0.726305 -0.029012 153 0 76
0.046309 -0.004207 0.206807 76 153 0
0.021610 0.476145 0.117802 153 0 76
0.121481 0.069414 -0.166530 76 153 0
0.174230 0.099116 -0.113321 76 153 0
0.208751 -0.445012 0.033704 76 153 0
0.193443 0.107479 0.086596 76 153 0
-0.128931 -0.484688 -0.155108 76 153 0
0.208206 -0.077158 0.037924 76 153 0
-0.049124 0.879295 0.045862 153 0 76
-0.111581 -0.499144 -0.168056 76 153 0
0.066209 -0.077316 -0.193427 76 153 0
-0.154572 -0.637512 -0.078433 76 153 0
0.210343 -0.517199 -0.009197 76 153 0
-0.011159 0.389535 -0.134170 153 0 76
-0.095964 0.537089 -0.006908 153 0 76
-0.162047 -0.151796 0.128615 76 153 0
-0.068153 0.513419 0.081882 153 0 76
-0.169670 -0.610273 -0.108309 76 153 0
-0.201176 0.073599 0.033492 76 153 0
0.008227 0.859332 -0.061981 153 0 76
0.184818 -0.637543 0.039028 76 153 0
-0.085107 0.590479 -0.005227 153 0 76
0.060504 0.832621 0.040208 153 0 76
-0.065318 0.296750 -0.152710 76 153 0
0.197583 0.017690 0.077896 76 153 0
-0.075213 -0.082766 -0.187557 76 153 0
-0.197769 -0.134643 0.051820 76 153 0
0.008587 -0.293993 -0.202818 76 153 0
-0.098531 -0.079061 -0.175989 76 153 0
-0.066404 0.098823 0.198948 76 153 0
0.158652 -0.040054 0.142321 76 153 0
0.038564 0.988954 -0.054872 76 0 153
-0.059967 0.936286 0.013565 153 0 76
-0.187715 0.190322 -0.040405 76 153 0
-0.178308 -0.075711 -0.094778 76 153 0
-0.033380 1.000701 -0.010798 76 0 153
-0.186991 -0.465050 0.085472 76 153 0
0.210689 -0.417913 0.012006 76 153 0
0.047697 0.713208 0.058725 153 0 76
-0.198019 -0.523230 -0.042251 76 153 0
-0.091371 0.024899 0.188177 76 153 0
0.072588 0.180216 0.190355 76 153 0
-0.001824 -0.622963 0.082172 76 153 0
0.129635 0.151406 0.163429 76 153 0
0.015809 -0.272403 0.210924 76 153 0
0.147310 0.234959 -0.116547 76 153 0
-0.140742 0.359019 0.045523 153 0 76
-0.075680 -0.228750 0.195376 76 153 0
-0.038072 0.921877 -0.048436 153 0 76
-0.070811 -0.623313 0.038515 76 153 0
0.054648 0.347345 -0.141889 153 0 76
-0.050251 -0.627002 0.103282 76 153 0
0.015175 -0.625103 0.101285 76 153 0
-0.202951 -0.037417 0.015761 76 153 0
0.168054 0.140250 0.125723 76 153 0
0.190342 -0.586256 0.094794 76 153 0
-0.050866 0.937456 -0.032251 153 0 76
0.024242 -0.438632 -0.201906 76 153 0
-0.000242 -0.340755 -0.202850 76 153 0
0.145563 -0.206734 0.155565 76 153 0
-0.171560 0.282010 -0.001727 76 153 0
-0.203128 0.097047 -0.002916 76 153 0
0.087675 0.421735 -0.094935 153 0 76
-0.150734 -0.279796 0.142663 76 153 0
-0.193866 -0.605609 0.064847 76 153 0
0.025023 0.237374 -0.181410 76 153 0
-0.137881 -0.634321 -0.061174 76 153 0
0.081842 -0.064088 0.196001 76 153 0
-0.185952 -0.495842 -0.079489 76 153 0
0.027206 0.150702 0.205590 76 153 0
0.070258 -0.326564 0.200227 76 153 0
0.053691 0.133605 0.203098 76 153 0
-0.180018 0.176180 0.080436 76 153 0
0.066679 0.017993 -0.193296 76 153 0
-0.064392 -0.023805 0.199616 76 153 0
0.050576 -0.632762 0.144749 76 153 0
0.049510 0.847753 -0.045448 153 0 76
-0.017907 0.024886 0.209894 76 153 0
-0.097028 -0.376477 0.185228 76 153 0
0.141097 0.110810 0.159270 76 153 0
0.141942 0.172954 0.148552 76 153 0
0.210404 -0.272610 -0.010973 76 153 0
0.067320 0.969624 -0.021544 76 0 153
0.114403 0.076531 0.179568 76 153 0
-0.037746 0.195635 0.195432 76 153 0
-0.124698 -0.350102 0.166941 76 153 0
-0.093397 -0.210465 0.186858 76 153 0
-0.129370 0.059081 0.163130 76 153 0
-0.089338 -0.377559 -0.181015 76 153 0
0.183263 -0.638150 -0.028813 76 153 0
0.107618 -0.303105 0.183129 76 153 0
-0.147014 0.308164 0.078604 153 0 76
0.190595 -0.197295 0.094320 76 153 0
-0.001773 -0.497627 0.211176 76 153 0
0.083433 -0.275754 0.195318 76 153 0
0.066110 0.414042 -0.112024 153 0 76
0.034113 0.526891 -0.094096 153 0 76
-0.166654 0.288559 0.038018 76 153 0
0.135244 0.388632 -0.042839 153 0 76
-0.154970 -0.471947 0.137580 76 153 0
-0.029674 -0.572074 -0.200253 76 153 0
-0.140831 0.368228 -0.021472 153 0 76
-0.040631 -0.281654 0.206423 76 153 0
-0.158542 0.324657 0.009683 153 0 76
-0.143548 0.046931 -0.141775 76 153 0
0.048658 0.921233 0.054351 153 0 76
0.134964 0.216243 -0.135768 76 153 0
-0.077095 0.436630 -0.091932 153 0 76
-0.109782 -0.033020 -0.169242 76 153 0
-0.114261 -0.572769 0.174662 76 153 0
0.199428 0.195154 0.000801 76 153 0
-0.137567 -0.204527 0.155951 76 153 0
0.132243 -0.631034 -0.049135 76 153 0
-0.203205 -0.506265 0.009212 76 153 0
0.023370 -0.132356 -0.202016 76 153 0
-0.066930 0.012198 -0.190671 76 153 0
0.206764 0.075254 -0.036649 76 153 0
-0.075388 0.630959 0.024990 153 0 76
0.188614 -0.040435 -0.089655 76 153 0
0.091220 -0.014548 0.191974 76 153 0
0.115005 0.167736 -0.162561 76 153 0
0.186716 -0.301526 0.101608 76 153 0
0.129448 -0.004346 0.169100 76 153 0
0.095858 0.460295 0.080127 153 0 76
-0.104853 0.320280 -0.119140 153 0 76
0.099069 -0.571940 -0.179870 76 153 0
0.072872 0.250204 -0.166501 76 153 0
0.198220 -0.183676 -0.067741 76 153 0
0.198296 -0.435899 -0.067529 76 153 0
-0.044374 0.550395 0.089548 153 0 76
0.193080 -0.047009 0.088934 76 153 0
-0.100493 0.019445 -0.174868 76 153 0
0.024110 -0.321045 0.210308 76 153 0
0.098037 -0.629896 -0.090031 76 153 0
0.151106 0.177207 -0.129269 76 153 0
-0.042187 -0.141544 -0.197717 76 153 0
-0.155353 -0.414385 -0.128719 76 153 0
-0.172733 -0.575065 -0.104531 76 153 0
0.111027 -0.482407 -0.173180 76 153 0
0.089593 0.400430 0.109452 153 0 76
-0.166854 -0.591316 0.121992 76 153 0
0.205750 -0.588187 0.049924 76 153 0
-0.189327 -0.192146 -0.071388 76 153 0
0.141710 0.369586 0.054158 153 0 76
0.186696 0.109411 -0.091909 76 153 0
0.201591 -0.582551 -0.057172 76 153 0
-0.033259 -0.630193 -0.124323 76 153 0
-0.173305 0.230383 -0.060864 76 153 0
0.185925 0.137147 -0.088457 76 153 0
0.067215 -0.149441 0.201227 76 153 0
0.208883 -0.397133 0.032584 76 153 0
0.190061 -0.406953 -0.086934 76 153 0
0.090918 -0.219429 0.192104 76 153 0
-0.075131 0.300263 0.155050 76 153 0
-0.071401 0.354713 0.136316 153 0 76
0.194361 0.068239 -0.077557 76 153 0
0.114815 -0.601675 0.179223 76 153 0
0.210587 -0.594833 0.014623 76 153 0
0.158668 0.185053 0.126941 76 153 0
0.151388 0.090522 0.149904 76 153 0
-0.158429 -0.565853 -0.124974 76 153 0
-0.133729 -0.616522 0.157223 76 153 0
0.088668 0.355816 -0.121746 153 0 76
-0.111482 0.234716 0.152173 76 153 0
0.164365 0.253785 0.092294 76 153 0
-0.000579 -0.636569 0.171628 76 153 0
0.141051 -0.111618 0.159779 76 153 0
0.016378 0.777821 -0.061090 153 0 76
-0.039244 -0.598625 0.206567 76 153 0
0.148790 0.145311 -0.138991 76 153 0
-0.191716 -0.039397 0.073108 76 153 0
-0.150270 0.278451 -0.082427 76 153 0
-0.111656 0.199695 0.161390 76 153 0
0.080507 -0.624091 0.049374 76 153 0
-0.118565 -0.454397 0.171584 76 153 0
0.036964 0.033043 -0.200288 76 153 0
-0.121724 -0.255062 0.169040 76 153 0
-0.086185 -0.008329 0.190755 76 153 0
-0.008908 0.392672 0.141755 153 0 76
0.001077 0.243005 0.189702 76 153 0
-0.001434 0.564333 -0.090252 153 0 76
0.015358 0.993710 -0.062921 76 0 153
0.020501 0.336322 -0.153597 153 0 76
-0.131375 0.378443 -0.043742 153 0 76
0.131218 -0.638237 -0.116434 76 153 0
-0.202342 -0.204880 0.024313 76 153 0
-0.066877 -0.633876 0.188574 76 153 0
0.136548 -0.300272 -0.155091 76 153 0
0.002247 0.249385 -0.179891 76 153 0
0.151541 0.365571 0.010753 153 0 76
0.206205 -0.191024 0.047708 76 153 0
-0.045158 1.000701 0.037271 76 0 153
0.200819 0.053838 -0.060396 76 153 0
-0.003695 -0.569268 -0.202715 76 153 0
-0.059997 0.660952 0.048152 153 0 76
-0.130749 -0.046970 0.161997 76 153 0
0.074644 -0.332033 -0.190626 76 153 0
0.181654 -0.308369 -0.102181 76 153 0
0.210916 0.064738 0.006154 76 153 0
-0.158773 -0.345519 -0.124548 76 153 0
0.103894 0.497372 0.049416 153 0 76
-0.060750 0.800134 0.020863 153 0 76
-0.072829 0.555123 -0.055118 153 0 76
0.087952 0.563716 0.048657 153 0 76
0.148644 0.318216 -0.073426 153 0 76
-0.062470 0.786644 0.000495 153 0 76
0.025798 0.314710 -0.159982 153 0 76
-0.031926 0.754647 0.060892 153 0 76
-0.063366 -0.632834 0.136574 76 153 0
0.067165 -0.130886 -0.193161 76 153 0
0.128250 0.434930 0.022374 153 0 76
0.033285 0.428070 0.128424 153 0 76
-0.086553 -0.307998 -0.182496 76 153 0
-0.197210 -0.486407 0.054417 76 153 0
-0.049122 -0.386174 0.204463 76 153 0
0.146075 0.016196 0.155075 76 153 0
0.028029 0.100731 -0.201331 76 153 0
0.202745 -0.560865 0.061805 76 153 0
-0.171062 0.193470 0.093285 76 153 0
0.190522 -0.546951 -0.085374 76 153 0
-0.091016 0.482936 0.066357 153 0 76
-0.060611 0.712095 -0.022292 153 0 76
0.060922 -0.376242 -0.194895 76 153 0
0.205017 -0.129007 0.053493 76 153 0
0.090338 0.214820 0.175592 76 153 0
-0.199725 -0.073642 0.042299 76 153 0
0.205919 -0.141075 -0.040756 76 153 0
-0.001092 0.797635 -0.061939 153 0 76
0.162003 -0.026439 -0.129866 76 153 0
0.048186 0.101626 0.206297 76 153 0
-0.101677 -0.633182 0.110849 76 153 0
0.086341 0.328241 0.143142 153 0 76
0.092818 -0.635048 -0.127961 76 153 0
-0.043125 -0.513132 0.205910 76 153 0
0.102532 0.536491 0.023847 153 0 76
0.206297 -0.423910 -0.038917 76 153 0
0.208786 -0.542478 -0.024960 76 153 0
-0.030054 -0.622364 0.068120 76 153 0
-0.197225 -0.396312 0.054362 76 153 0
-0.082692 -0.637625 0.153423 76 153 0
0.168922 -0.540863 -0.120617 76 153 0
-0.025841 0.237568 0.188684 76 153 0
-0.092569 -0.479307 -0.179294 76 153 0
0.185406 -0.350952 0.104006 76 153 0
-0.184360 -0.116273 0.091590 76 153 0
-0.092634 0.383856 0.107715 153 0 76
-0.114507 0.412138 -0.055230 153 0 76
0.207884 -0.256222 0.039536 76 153 0
-0.171131 -0.637774 -0.000820 76 153 0
0.206094 -0.094671 -0.039906 76 153 0
0.124054 -0.534146 -0.164796 76 153 0
0.087052 0.138448 -0.182759 76 153 0
-0.070771 0.210158 0.181835 76 153 0
-0.041567 -0.194135 -0.197845 76 153 0
-0.202694 -0.013605 0.021536 76 153 0
-0.016461 -0.233891 0.210322 76 153 0
-0.200283 -0.174631 0.039581 76 153 0
-0.018603 0.594197 0.090099 153 0 76
0.014692 0.895456 0.069661 153 0 76
-0.202117 0.042208 -0.017775 76 153 0
-0.155365 -0.380694 0.137099 76 153 0
-0.173934 0.222422 0.072517 76 153 0
0.137036 -0.630211 -0.016918 76 153 0
0.054011 -0.027756 0.205194 76 153 0
0.004730 0.134359 0.209000 76 153 0
0.121997 -0.453903 0.174570 76 153 0
-0.186753 -0.266869 0.086025 76 153 0
-0.007809 0.319831 0.167841 153 0 76
0.135377 0.038502 -0.156053 76 153 0
-0.082031 -0.628815 -0.087270 76 153 0
-0.185483 0.033080 -0.080582 76 153 0
0.208529 -0.015769 -0.027029 76 153 0
0.210890 -0.009992 0.006831 76 153 0
-0.105808 -0.627147 -0.025357 76 153 0
-0.038582 0.964053 0.058041 76 0 153
-0.135364 0.192809 0.142364 76 153 0
-0.119118 -0.636391 -0.139319 76 153 0
-0.142472 -0.633477 -0.035863 76 153 0
-0.110668 -0.523660 0.177033 76 153 0
0.210411 -0.105601 0.019178 76 153 0
-0.051960 -0.349758 -0.195288 76 153 0
-0.196757 -0.424404 -0.047707 76 153 0
-0.071385 -0.337548 -0.189068 76 153 0
0.179331 0.280623 0.017879 76 153 0
-0.049732 0.334484 -0.145695 153 0 76
-0.115336 -0.637746 0.128701 76 153 0
0.194772 -0.386940 0.084983 76 153 0
-0.054236 0.624398 0.064378 153 0 76
0.050623 0.189184 0.195437 76 153 0
-0.032690 -0.314409 -0.199670 76 153 0
0.189769 0.233319 0.030059 76 153 0
0.016666 -0.380821 -0.202505 76 153 0
-0.178795 -0.240915 -0.093862 76 153 0
0.095120 -0.624823 -0.023003 76 153 0
-0.049450 0.705293 0.051303 153 0 76
-0.200757 -0.223831 0.036794 76 153 0
0.023716 0.409745 -0.127053 153 0 76
0.030624 0.498737 0.110532 153 0 76
-0.023973 0.318983 -0.157782 153 0 76
0.208505 -0.583872 -0.027209 76 153 0
-0.031195 0.111178 0.207883 76 153 0
-0.192995 0.118330 -0.058108 76 153 0
-0.175999 -0.481601 -0.098818 76 153 0
0.111957 0.457913 0.055549 153 0 76
-0.154095 -0.419746 0.138645 76 153 0
-0.109884 0.065036 -0.169175 76 153 0
-0.142219 -0.193479 -0.143107 76 153 0
0.210174 -0.033954 0.022423 76 153 0
-0.175430 0.254294 0.040386 76 153 0
0.107326 0.462450 -0.053990 153 0 76
0.120549 -0.538564 0.175523 76 153 0
0.195864 -0.067963 -0.074048 76 153 0
-0.171231 -0.354742 -0.106973 76 153 0
0.200866 -0.633279 0.012149 76 153 0
-0.067358 -0.497136 -0.190517 76 153 0
0.131398 -0.186507 -0.159243 76 153 0
0.073049 0.157250 -0.185599 76 153 0
-0.027200 0.178526 -0.191982 76 153 0
0.074793 -0.460482 0.198605 76 153 0
-0.091515 -0.352907 -0.179854 76 153 0
-0.186758 -0.157919 0.086013 76 153 0
0.169767 -0.131555 -0.120050 76 153 0
0.165867 -0.100088 -0.125162 76 153 0
0.031835 -0.053844 -0.200940 76 153 0
-0.203027 -0.581203 0.013818 76 153 0
-0.064907 -0.623367 -0.041666 76 153 0
0.141522 -0.374737 0.159392 76 153 0
0.097329 0.028384 -0.180804 76 153 0
-0.133686 -0.061470 -0.151203 76 153 0
-0.153801 0.330042 -0.028065 153 0 76
-0.200907 -0.259349 0.035611 76 153 0
-0.075753 0.481589 -0.077352 153 0 76
-0.056816 0.068089 -0.193937 76 153 0
0.186268 0.034136 0.101753 76 153 0
0.198805 0.031978 -0.066117 76 153 0
-0.092941 0.550118 0.016492 153 0 76
-0.149359 0.350479 0.013806 153 0 76
-0.084098 0.391967 -0.103122 153 0 76
-0.053291 0.145822 0.199415 76 153 0
0.159563 -0.384468 -0.132353 76 153 0
0.108048 -0.256323 0.183116 76 153 0
-0.149545 -0.000963 0.143904 76 153 0
-0.049956 -0.099754 -0.195845 76 153 0
-0.029547 -0.545977 0.208655 76 153 0
-0.164441 -0.206321 -0.117060 76 153 0
0.190484 -0.511964 -0.085444 76 153 0
-0.125142 0.346312 0.090383 153 0 76
-0.015704 -0.621631 -0.056514 76 153 0
-0.050277 0.206125 -0.181624 76 153 0
0.193562 -0.162681 0.087811 76 153 0
0.209878 -0.231107 0.024754 76 153 0
0.109715 -0.633583 0.169408 76 153 0
-0.011427 1.000701 0.022017 76 0 153
-0.102188 0.511593 0.013091 153 0 76
-0.125923 0.416322 -0.014184 153 0 76
-0.200810 -0.157906 -0.028018 76 153 0
0.159017 -0.164368 -0.133502 76 153 0
0.110273 0.152279 0.176908 76 153 0
0.098191 0.516712 -0.042154 153 0 76
-0.183733 -0.519056 0.092974 76 153 0
0.061672 -0.460439 -0.194687 76 153 0
-0.197972 -0.577772 0.050830 76 153 0
0.142699 0.242478 0.127835 76 153 0
0.128025 0.323797 0.109898 153 0 76
-0.168177 0.021438 0.119983 76 153 0
-0.199722 -0.221461 -0.033970 76 153 0
-0.173972 -0.207685 0.110736 76 153 0
0.046456 -0.624760 0.089017 76 153 0
0.065347 -0.351642 0.201788 76 153 0
-0.118863 0.022086 -0.162980 76 153 0
-0.128200 -0.602742 -0.155540 76 153 0
0.115346 0.477937 -0.021635 153 0 76
0.076831 0.095778 0.198008 76 153 0
-0.074377 -0.630123 0.113455 76 153 0
-0.188775 -0.252805 -0.072920 76 153 0
-0.052042 -0.049438 -0.195265 76 153 0
-0.100428 -0.618358 -0.173274 76 153 0
-0.153568 0.233504 0.106858 76 153 0
0.020818 -0.521975 0.210727 76 153 0
0.158760 0.059279 0.142205 76 153 0
0.099376 -0.556228 0.187981 76 153 0
0.075152 0.684081 -0.014163 153 0 76
-0.125518 0.243039 0.137494 76 153 0
0.104574 -0.174553 0.185257 76 153 0
-0.202801 -0.380810 -0.011252 76 153 0
0.111617 0.335523 -0.112085 153 0 76
0.128133 -0.032957 0.170094 76 153 0
0.067550 -0.626856 -0.087143 76 153 0
-0.060838 0.476918 0.098797 153 0 76
-0.192988 -0.376978 -0.061200 76 153 0
0.195634 0.178487 0.056362 76 153 0
-0.107993 0.278512 0.141136 76 153 0
0.127872 0.307426 -0.109074 153 0 76
-0.167887 -0.341237 0.120424 76 153 0
-0.016799 -0.118003 0.210058 76 153 0
0.060426 0.760364 -0.031506 153 0 76
0.027249 -0.621632 -0.054746 76 153 0
-0.117728 -0.574558 -0.163839 76 153 0
-0.132549 -0.390697 0.160519 76 153 0
0.210473 -0.550791 0.017573 76 153 0
0.204609 -0.021982 0.055110 76 153 0
0.108617 -0.628374 0.068726 76 153 0
0.002996 0.732577 -0.063242 153 0 76
0.053351 0.401400 0.130240 153 0 76
0.071703 -0.491939 -0.191678 76 153 0
0.110765 -0.073644 -0.173334 76 153 0
0.097089 -0.522292 -0.180932 76 153 0
-0.152717 -0.148387 -0.131926 76 153 0
0.048442 1.000701 0.016437 76 0 153
0.142958 -0.130536 -0.149675 76 153 0
0.186548 -0.230562 -0.093535 76 153 0
0.016572 -0.621174 0.060567 76 153 0
0.051861 0.747387 0.052119 153 0 76
0.076378 -0.520830 0.198038 76 153 0
0.022055 1.000701 0.018378 76 0 153
0.026503 0.754878 0.066745 153 0 76
0.007473 0.962058 -0.064139 76 0 153
0.083763 0.377535 -0.115081 153 0 76
0.060353 0.891876 -0.031044 153 0 76
-0.167207 -0.260065 -0.113073 76 153 0
-0.020079 0.412549 -0.125576 153 0 76
0.084980 -0.014787 -0.186632 76 153 0
-0.086551 0.505320 -0.055072 153 0 76
0.161838 0.064228 -0.130068 76 153 0
-0.024513 0.073246 0.209183 76 153 0
-0.053095 -0.447196 -0.194972 76 153 0
-0.005670 -0.186636 0.211024 76 153 0
-0.174843 -0.637661 -0.028487 76 153 0
0.143661 -0.434482 0.157389 76 153 0
-0.176524 0.050963 -0.097898 76 153 0
-0.010862 0.472236 0.119287 153 0 76
0.184309 0.181747 -0.077118 76 153 0
-0.071120 -0.383387 0.197546 76 153 0
-0.072172 0.661603 -0.007627 153 0 76
0.135572 -0.636266 -0.095387 76 153 0
0.135595 -0.159943 0.164259 76 153 0
-0.076922 0.402998 0.112343 153 0 76
-0.198115 -0.618872 0.037797 76 153 0
0.070052 0.744667 0.009270 153 0 76
-0.022089 0.645533 0.079249 153 0 76
-0.048034 0.439931 0.116852 153 0 76
-0.196710 -0.304740 0.056217 76 153 0
0.012957 -0.009021 -0.202649 76 153 0
-0.027812 0.759394 -0.054861 153 0 76
0.064450 0.852646 0.032574 153 0 76
-0.073037 -0.342575 0.196758 76 153 0
-0.033768 0.798368 0.059621 153 0 76
-0.144200 -0.248306 0.149483 76 153 0
-0.134248 -0.085462 0.159124 76 153 0
0.016346 0.347431 0.158374 153 0 76
0.097273 -0.231130 -0.180834 76 153 0
-0.199050 -0.624549 0.013868 76 153 0
0.159685 -0.224732 0.141081 76 153 0
-0.158977 -0.636474 0.106619 76 153 0
0.203306 -0.390484 -0.051450 76 153 0
-0.037320 0.821593 0.057273 153 0 76
-0.165110 -0.005882 -0.116176 76 153 0
-0.041215 1.000701 -0.034703 76 0 153
0.068679 0.714981 0.029250 153 0 76
-0.085289 0.099098 -0.183020 76 153 0
0.186187 -0.012933 0.102250 76 153 0
-0.109502 -0.629090 0.062688 76 153 0
-0.114726 0.023852 0.174356 76 153 0
-0.101874 -0.013358 -0.174080 76 153 0
0.206987 -0.616127 -0.024951 76 153 0
-0.028670 0.006374 0.208736 76 153 0
0.174485 0.208607 0.095109 76 153 0
0.090926 0.254602 0.165054 76 153 0
-0.194606 0.176648 0.019408 76 153 0
-0.099929 -0.627265 -0.045928 76 153 0
0.173269 0.075180 -0.115174 76 153 0
0.061685 -0.638531 -0.165742 76 153 0
-0.074448 -0.574109 0.196137 76 153 0
-0.096503 0.080104 -0.177148 76 153 0
-0.186301 0.213040 0.033635 76 153 0
0.081461 0.609286 0.041310 153 0 76
0.178868 -0.609375 0.114297 76 153 0
0.082071 0.650920 0.009038 153 0 76
0.000567 0.058630 0.210937 76 153 0
-0.132292 0.378368 0.048630 153 0 76
-0.102701 -0.631832 -0.091539 76 153 0
0.026747 -0.550795 -0.201587 76 153 0
-0.075695 -0.419714 0.195732 76 153 0
0.201087 -0.111267 0.067791 76 153 0
-0.028636 0.350264 0.154368 153 0 76
-0.180673 0.247695 0.002495 76 153 0
-0.021823 0.933144 -0.056341 153 0 76
0.155928 -0.542406 0.145167 76 153 0
-0.112882 0.068610 0.175572 76 153 0
-0.198579 -0.449354 0.047875 76 153 0
-0.164979 -0.105264 0.124737 76 153 0
0.002191 0.817383 0.070687 153 0 76
0.109428 0.309720 0.134346 153 0 76
-0.101129 -0.490808 0.182882 76 153 0
0.064013 0.812383 0.033598 153 0 76
-0.028478 0.373677 -0.137258 153 0 76
-0.201280 -0.427675 -0.024333 76 153 0
-0.058979 -0.605444 0.201362 76 153 0
-0.157432 -0.577046 0.134582 76 153 0
0.148796 -0.572925 -0.144080 76 153 0
-0.090508 0.318285 0.139030 153 0 76
-0.070152 0.318986 -0.142565 76 153 0
-0.178944 -0.109176 -0.093583 76 153 0
-0.144859 0.092011 0.148795 76 153 0
0.047051 0.503801 -0.095162 153 0 76
-0.151978 -0.050184 -0.132825 76 153 0
0.203386 -0.499427 -0.051164 76 153 0
-0.174019 0.138870 -0.096750 76 153 0
-0.042823 0.817876 -0.044700 153 0 76
-0.139942 0.145960 0.148586 76 153 0
0.005845 0.682128 -0.069662 153 0 76
-0.084718 -0.161065 -0.183473 76 153 0
-0.048574 0.529808 0.091804 153 0 76
0.035157 -0.158342 -0.200518 76 153 0
-0.010061 0.771211 0.069339 153 0 76
-0.105430 -0.020151 0.180421 76 153 0
0.011769 0.308384 0.171578 153 0 76
0.072945 0.643817 0.045255 153 0 76
0.031390 0.879532 -0.056667 153 0 76
-0.029013 0.709776 -0.057830 153 0 76
0.052253 -0.229753 -0.197200 76 153 0
0.209299 -0.347655 -0.020983 76 153 0
0.008950 0.649251 -0.074322 153 0 76
0.210590 0.087406 0.014549 76 153 0
0.209206 0.031887 0.029397 76 153 0
-0.142606 -0.154237 0.151120 76 153 0
0.049081 -0.633885 0.194746 76 153 0
0.020573 -0.079455 0.210407 76 153 0
0.037995 0.077535 0.208512 76 153 0
0.167003 0.295669 0.057087 153 0 76
-0.024717 -0.035352 0.209161 76 153 0
0.204691 -0.537785 -0.046484 76 153 0
0.172088 -0.233002 -0.116982 76 153 0
-0.027121 -0.624266 0.205458 76 153 0
-0.203289 -0.292063 0.001212 76 153 0
0.048615 -0.244635 0.206335 76 153 0
0.184108 -0.105136 0.106087 76 153 0
0.044586 -0.620269 -0.013325 76 153 0
-0.134315 -0.292736 0.159069 76 153 0
-0.017585 0.149892 0.205966 76 153 0
0.129079 0.202046 0.153166 76 153 0
-0.148827 0.256834 0.104346 76 153 0
-0.043346 0.669361 0.063786 153 0 76
0.132995 -0.411088 -0.158010 76 153 0
0.065843 -0.388506 0.201639 76 153 0
0.059251 0.940453 -0.035978 76 0 153
0.201639 -0.056474 -0.057446 76 153 0
0.210667 -0.545387 -0.004256 76 153 0
-0.034612 0.889766 0.058769 153 0 76
0.147411 -0.633843 0.059182 76 153 0
-0.177414 -0.170722 -0.096342 76 153 0
0.024906 -0.626933 0.204747 76 153 0
-0.200437 0.133883 0.022295 76 153 0
-0.060370 0.984347 0.028039 76 0 153
0.201500 -0.162397 0.066303 76 153 0
0.073544 0.687408 0.027212 153 0 76
0.150040 -0.473143 0.151274 76 153 0
-0.141847 -0.563693 -0.143463 76 153 0
0.209317 -0.122138 -0.020851 76 153 0
0.117291 0.013041 -0.169288 76 153 0
0.042804 -0.349008 -0.199142 76 153 0
0.019300 0.942673 -0.062489 76 0 153
0.025779 -0.001622 0.209862 76 153 0
-0.146087 -0.602319 -0.138957 76 153 0
-0.163541 0.155955 0.117867 76 153 0
0.017489 0.732739 0.070211 153 0 76
-0.019606 -0.619946 -0.026390 76 153 0
0.045811 0.659781 0.069575 153 0 76
0.048754 0.626125 -0.065996 153 0 76
-0.147161 -0.562563 0.146393 76 153 0
-0.060139 0.832503 -0.014382 153 0 76
-0.007735 0.046541 -0.202557 76 153 0
0.006872 0.539371 0.104163 153 0 76
0.058266 0.564640 -0.073310 153 0 76
0.113263 0.030341 0.180277 76 153 0
0.070320 0.772923 0.002836 153 0 76
0.131892 -0.237335 0.167252 76 153 0
0.044568 0.687438 -0.056631 153 0 76
0.119730 0.397534 -0.067878 153 0 76
-0.154610 -0.234886 -0.129624 76 153 0
0.137268 0.355024 -0.068238 153 0 76
-0.113965 0.138269 -0.163125 76 153 0
0.026804 -0.271093 -0.201580 76 153 0
-0.201966 -0.608344 -0.013504 76 153 0
-0.200968 0.111417 -0.022992 76 153 0
-0.191298 0.190289 -0.019212 76 153 0
0.073902 -0.190259 -0.190891 76 153 0
0.194668 0.149192 0.073502 76 153 0
-0.181076 0.241050 0.024423 76 153 0
0.061470 1.000701 -0.014169 76 0 153
-0.111406 0.462489 -0.022791 153 0 76
-0.001865 -0.630987 0.143163 76 153 0
-0.067102 0.527824 -0.070429 153 0 76
0.148557 -0.067583 -0.144309 76 153 0
0.205203 -0.385266 0.052591 76 153 0
-0.200246 -0.525776 0.039760 76 153 0
-0.008420 0.755448 -0.061166 153 0 76
0.006827 -0.227150 0.211272 76 153 0
0.018695 0.442797 0.127168 153 0 76
0.139454 -0.321835 0.161090 76 153 0
-0.053942 -0.429302 0.203123 76 153 0
-0.174646 -0.216712 -0.101185 76 153 0
0.083896 -0.186281 0.195119 76 153 0
0.209214 -0.125131 0.029983 76 153 0
0.064212 -0.306848 0.202129 76 153 0
-0.011957 -0.619199 -0.005632 76 153 0
-0.063847 0.670585 -0.030610 153 0 76
0.173973 -0.515026 -0.113656 76 153 0
-0.161147 0.180760 0.114370 76 153 0
0.056814 -0.630874 -0.124020 76 153 0
-0.031194 -0.597808 -0.199855 76 153 0
0.020841 0.226041 0.192870 76 153 0
0.190677 -0.330694 -0.085778 76 153 0
-0.089864 0.200526 0.174685 76 153 0
0.155587 -0.257625 0.145524 76 153 0
0.150554 -0.395691 0.150775 76 153 0
-0.183228 -0.625159 0.084123 76 153 0
-0.199193 -0.344091 -0.036546 76 153 0
0.209615 -0.613185 0.005195 76 153 0
-0.203220 -0.553117 0.008829 76 153 0
0.003497 -0.302187 0.211382 76 153 0
0.025398 -0.236347 -0.201759 76 153 0
-0.049544 0.768514 -0.036457 153 0 76
-0.112895 0.152914 0.169803 76 153 0
0.179222 -0.634992 0.085953 76 153 0
-0.018370 -0.299662 0.210079 76 153 0
0.013193 -0.628767 -0.120522 76 153 0
0.126957 0.140220 -0.158908 76 153 0
0.053690 -0.622040 -0.042904 76 153 0
-0.158017 0.287858 0.068144 76 153 0
0.194675 0.149738 -0.064828 76 153 0
-0.096555 0.339525 -0.117606 153 0 76
0.132919 -0.005905 -0.158073 76 153 0
0.142218 -0.501299 0.158554 76 153 0
-0.069648 -0.461045 0.198076 76 153 0
0.175351 -0.384093 0.120603 76 153 0
-0.010416 -0.624125 -0.084352 76 153 0
