ply
format ascii 1.0
element vertex 1260
property float x
property float y
property float z
property uchar red
property uchar green
property uchar blue
end_header
-0.383295 -0.090480 0.132758 0 127 127
0.255635 -0.090480 -0.053101 0 127 127
-0.599373 -0.090480 0.071171 0 127 127
-0.664105 0.234850 -0.328441 127 0 127
0.347959 -0.055641 -0.414587 76 153 0
-0.009360 0.352525 0.399063 153 76 0
0.102614 -0.118061 -0.268279 0 127 127
0.113208 0.114010 -0.428377 76 153 0
0.641412 0.059304 -0.295666 0 127 127
0.594289 0.525311 -0.455959 76 153 0
0.270313 -0.276028 -0.414587 76 153 0
-0.673299 0.349435 0.411458 76 0 153
0.022151 -0.090480 -0.294833 0 127 127
-0.057854 0.277272 0.370609 153 76 0
-0.491647 -0.090480 0.323933 0 127 127
0.535971 -0.430650 0.111533 153 0 76
0.595740 0.033372 -0.428377 76 153 0
0.064625 -0.118061 0.336009 0 127 127
-0.283831 -0.427562 -0.428377 76 153 0
0.149492 0.515189 0.454226 76 0 153
0.508780 0.486149 -0.414587 76 153 0
0.259262 -0.090480 0.025437 0 127 127
0.246849 0.201677 -0.428377 76 153 0
0.011926 -0.090480 0.172689 0 127 127
0.252146 0.511691 0.454226 76 0 153
0.641412 0.346982 -0.046281 0 127 127
-0.645718 -0.264756 0.209083 127 0 127
-0.112592 0.277272 -0.051011 127 0 127
0.569390 0.550328 -0.414587 76 153 0
0.250442 0.288292 -0.428377 76 153 0
-0.276717 -0.430650 -0.052787 153 0 76
0.549737 0.580667 -0.137109 153 0 76
0.042977 0.512768 0.399063 153 76 0
-0.186447 0.277272 -0.367254 127 0 127
-0.023870 -0.155896 -0.414587 76 153 0
0.623025 -0.014264 -0.262507 0 127 127
0.592372 -0.464773 0.311722 127 127 0
-0.223077 0.292448 -0.428377 76 153 0
0.001374 -0.486187 -0.455959 255 0 0
0.545063 -0.565684 -0.455959 255 0 0
-0.645718 0.375760 -0.332158 127 0 127
0.390269 0.436214 0.454226 76 0 153
0.591757 -0.498322 -0.455959 255 0 0
0.344499 0.249690 0.355220 127 0 127
-0.662790 0.626636 -0.259684 127 0 127
-0.384715 -0.118061 0.302122 0 127 127
0.446725 -0.421456 0.414762 0 0 255
0.623025 -0.077926 0.012167 0 127 127
-0.482688 -0.430650 -0.028030 153 0 76
-0.407921 -0.469342 0.311722 127 127 0
0.516359 0.303713 -0.428377 76 153 0
0.641412 -0.424401 -0.265387 0 127 127
-0.084633 -0.118061 0.383915 0 127 127
-0.022419 -0.397094 0.454226 76 0 153
-0.645718 0.002088 -0.020053 127 0 127
0.053922 0.146089 0.426645 76 0 153
0.525388 0.297867 0.426645 76 0 153
0.538534 -0.325943 -0.414587 76 153 0
0.623025 -0.214391 0.289308 0 127 127
-0.309485 -0.430650 -0.207198 153 0 76
0.641412 -0.501224 -0.209227 0 0 255
-0.207836 0.338832 0.426645 76 0 153
0.013146 -0.430650 -0.187799 153 0 76
0.181515 -0.407028 0.454226 76 0 153
-0.043035 -0.204472 0.454226 76 0 153
-0.623159 -0.118061 -0.159859 0 127 127
-0.664105 -0.526635 0.164890 0 255 0
-0.000594 -0.430650 0.201872 153 0 76
-0.094937 0.427582 -0.414587 76 153 0
0.003210 0.617488 -0.428377 76 153 0
0.641412 -0.160019 0.369179 0 127 127
-0.457330 0.402239 0.454226 76 0 153
0.386326 -0.486031 -0.455959 255 0 0
0.641412 0.562603 -0.169280 0 127 127
-0.334831 -0.094636 0.454226 76 0 153
0.504801 0.259331 0.454226 76 0 153
0.203851 -0.090480 0.077150 0 127 127
-0.384452 -0.430650 0.240773 153 0 76
0.641412 -0.350228 -0.007464 0 127 127
-0.645718 0.255808 0.396449 76 0 153
-0.645718 -0.414940 0.263204 127 0 127
0.425257 0.285315 0.426645 76 0 153
0.641412 -0.098402 -0.285980 0 127 127
-0.112953 0.508841 0.426645 76 0 153
-0.664105 0.534145 0.375273 127 0 127
0.254623 -0.469723 0.450799 76 0 153
0.542807 -0.401927 0.426645 76 0 153
0.482307 0.249240 -0.428377 76 153 0
0.623025 0.204640 -0.196394 0 127 127
-0.488193 -0.434279 0.399063 0 0 255
0.623025 0.043305 0.128208 0 127 127
-0.439765 -0.216343 -0.428377 76 153 0
0.566279 0.409258 0.454226 76 0 153
0.623025 0.322650 -0.182400 0 127 127
0.623025 -0.143439 0.216990 0 127 127
-0.664105 0.484036 0.364129 127 0 127
-0.664105 -0.352884 -0.155836 127 0 127
-0.394489 0.520607 0.426645 76 0 153
0.336637 -0.192045 -0.414587 76 153 0
0.031831 0.433236 -0.428377 76 153 0
0.589922 0.277272 -0.321665 127 0 127
-0.123314 -0.430650 0.317694 153 0 76
0.279649 0.626636 -0.430775 76 153 0
-0.130658 -0.430650 -0.392504 153 0 76
-0.387621 0.277272 0.100563 127 0 127
-0.004451 0.009420 0.434181 76 0 153
0.524868 -0.184658 0.426645 76 0 153
0.623025 -0.172078 0.018558 0 127 127
-0.645718 -0.311067 0.275864 127 0 127
0.487697 -0.269670 0.426645 76 0 153
0.623025 -0.458777 0.157003 0 127 127
-0.664105 0.079971 0.118822 127 0 127
-0.136900 0.277272 -0.198679 127 0 127
0.318560 -0.118061 0.348916 0 127 127
-0.401645 0.249690 -0.336528 127 0 127
-0.383799 -0.118061 -0.177321 0 127 127
0.360899 -0.391194 -0.414587 76 153 0
0.508815 0.201317 -0.414587 76 153 0
0.621116 0.582055 -0.455959 0 127 127
0.623025 -0.404244 0.231526 0 127 127
0.523695 -0.469497 -0.455959 255 0 0
0.184108 -0.090480 0.225022 0 127 127
-0.339170 0.602445 0.399063 255 0 0
-0.664105 -0.290919 -0.055806 127 0 127
-0.642843 -0.241458 -0.414587 76 153 0
-0.613745 0.599054 -0.132268 204 51 127
0.641412 0.027423 -0.195728 0 127 127
-0.449094 0.277272 0.329967 127 0 127
-0.139934 0.277272 0.226200 127 0 127
0.606615 0.580667 0.068311 0 127 127
-0.241930 -0.118061 0.112784 0 127 127
-0.107230 -0.090480 0.282618 0 127 127
-0.414082 -0.430650 0.064083 153 0 76
0.442794 -0.118061 -0.082653 0 127 127
0.623025 -0.051824 0.269196 0 127 127
-0.013486 0.277272 0.084611 127 0 127
-0.337023 0.148175 0.426645 76 0 153
-0.387449 0.055532 0.454226 76 0 153
-0.628375 -0.096652 0.399063 0 127 127
-0.138040 0.336744 -0.414587 76 153 0
-0.664105 -0.319594 0.372155 127 0 127
0.553571 0.599054 -0.280203 153 0 76
-0.582901 0.403424 0.426645 76 0 153
0.170167 0.415315 -0.414587 76 153 0
-0.391602 0.126644 0.426645 76 0 153
0.262459 -0.180228 -0.428377 76 153 0
0.428489 -0.430650 -0.309163 153 0 76
0.409011 0.249690 -0.235098 127 0 127
-0.645718 0.006413 0.078711 127 0 127
0.641412 0.490845 0.021828 0 127 127
0.228495 -0.430650 0.285232 153 0 76
0.595856 0.513681 0.454226 76 0 153
0.345386 -0.428778 -0.455959 255 0 0
0.258469 -0.090480 0.191218 0 127 127
-0.181579 -0.218459 -0.414587 76 153 0
0.585785 -0.310906 -0.428377 76 153 0
0.162451 -0.430650 -0.054778 153 0 76
-0.478768 0.626636 0.401376 255 0 0
0.641412 0.137337 -0.342874 0 127 127
-0.409561 0.274925 0.399063 127 0 127
-0.088755 -0.430650 -0.074880 153 0 76
-0.639830 -0.090480 0.306423 0 127 127
-0.664105 0.093484 -0.022743 127 0 127
0.623025 0.125901 0.022658 0 127 127
-0.146793 -0.090480 -0.100710 0 127 127
-0.133366 0.250339 -0.428377 76 153 0
-0.447728 -0.090480 -0.197614 0 127 127
0.021578 -0.641343 -0.455959 255 0 0
0.137699 -0.421456 0.406179 0 0 255
0.095928 -0.516105 -0.455959 255 0 0
-0.379487 -0.449393 0.454226 76 0 153
0.340561 0.348560 0.454226 76 0 153
0.152431 0.569075 -0.455959 76 153 0
-0.567122 0.533231 -0.414587 76 153 0
0.482353 -0.430650 -0.049051 153 0 76
0.237155 -0.410004 0.426645 76 0 153
-0.145316 -0.430033 0.454226 76 0 153
0.276649 0.516864 -0.414587 76 153 0
-0.594190 0.565227 0.454226 76 0 153
-0.664105 -0.005512 -0.287269 127 0 127
-0.664105 0.565279 0.073662 127 0 127
-0.116731 -0.115582 -0.414587 76 153 0
-0.664105 -0.362980 -0.014670 127 0 127
-0.282801 -0.118061 -0.114567 0 127 127
0.230395 -0.180893 0.426645 76 0 153
0.595443 0.426577 0.406698 76 0 153
-0.290870 0.109428 -0.428377 76 153 0
-0.664105 -0.626696 -0.323580 0 255 0
0.223300 -0.430650 -0.411837 76 153 0
-0.165843 -0.430650 -0.139430 153 0 76
-0.645718 0.213760 0.156337 127 0 127
-0.523941 -0.241618 0.454226 76 0 153
0.623025 0.290087 0.092992 127 0 127
-0.318149 -0.118061 -0.040910 0 127 127
0.378173 -0.090480 0.053847 0 127 127
0.411629 0.388546 0.454226 76 0 153
0.050363 -0.262170 0.426645 76 0 153
-0.098711 0.249690 0.043318 127 0 127
0.641412 0.399978 -0.271612 0 127 127
0.091567 0.249690 0.208056 127 0 127
0.623025 -0.011517 -0.410169 76 153 0
0.511429 -0.595341 0.311722 127 127 0
-0.524106 -0.090480 -0.212247 0 127 127
0.641412 -0.136892 -0.125152 0 127 127
-0.365369 0.432461 -0.414587 76 153 0
0.641412 -0.351268 0.350071 0 127 127
0.641412 0.230598 0.149267 0 127 127
-0.432546 0.249690 0.075466 127 0 127
-0.636687 0.498742 0.454226 76 0 153
-0.120918 -0.430650 0.229821 153 0 76
-0.518251 -0.495714 -0.455959 255 0 0
0.219783 -0.430650 -0.140956 153 0 76
-0.265713 0.277272 -0.222368 127 0 127
-0.339051 0.277272 -0.044962 127 0 127
-0.044586 -0.090480 -0.305684 0 127 127
-0.028400 0.570761 0.426645 76 0 153
-0.262981 0.249690 0.016129 127 0 127
-0.285089 -0.118061 0.212496 0 127 127
-0.445782 0.517681 -0.455959 76 153 0
-0.006210 -0.430650 0.268025 153 0 76
-0.252710 0.249690 0.346815 127 0 127
-0.276600 0.481246 0.426645 76 0 153
-0.114635 0.311119 0.426645 76 0 153
-0.664105 0.393139 0.187074 127 0 127
-0.664105 -0.576973 0.281033 0 255 0
-0.611079 0.275007 0.454226 76 0 153
0.641412 -0.108736 -0.038343 0 127 127
0.000424 0.495429 0.426645 76 0 153
-0.645718 -0.202975 -0.107059 127 0 127
-0.209088 -0.430650 0.192177 153 0 76
-0.062188 0.288045 -0.428377 76 153 0
-0.350958 -0.430650 -0.252529 153 0 76
0.641412 0.360226 0.221286 0 127 127
0.031549 0.626636 0.419786 255 0 0
0.096075 -0.009652 0.426645 76 0 153
0.080404 0.071786 0.426645 76 0 153
-0.356965 -0.285176 0.454226 76 0 153
0.548327 -0.430650 0.311077 153 0 76
-0.323963 0.249690 0.380631 127 0 127
0.384652 0.532801 0.454226 76 0 153
0.160756 -0.519940 -0.455959 255 0 0
0.372028 -0.090480 0.202184 0 127 127
-0.519232 -0.090480 0.060879 0 127 127
-0.583499 0.599054 -0.038694 204 51 127
0.489668 -0.303282 -0.414587 76 153 0
0.441596 0.105383 0.426645 76 0 153
-0.664105 0.304643 0.188362 127 0 127
-0.365960 -0.430650 -0.102651 153 0 76
0.194382 0.277272 -0.361423 127 0 127
-0.634734 0.580667 0.005155 127 0 127
-0.010167 0.249690 -0.198977 127 0 127
-0.580518 -0.202948 -0.414587 76 153 0
-0.597673 -0.631116 0.311722 127 127 0
0.454939 0.249690 -0.341659 127 0 127
-0.288338 -0.430650 0.312008 153 0 76
-0.608619 -0.118061 -0.328575 0 127 127
-0.664105 0.447696 -0.091506 127 0 127
0.320688 0.127861 -0.414587 76 153 0
0.080027 -0.090480 0.054260 0 127 127
0.202945 -0.118061 0.012681 0 127 127
-0.265088 -0.118061 -0.020465 0 127 127
0.472791 -0.430650 -0.225961 153 0 76
0.000648 -0.469723 0.440166 76 0 153
0.601599 0.249690 0.345633 127 0 127
-0.160163 -0.118061 0.219095 0 127 127
0.254343 0.568569 -0.455959 76 153 0
-0.247129 -0.090480 -0.094710 0 127 127
-0.627919 -0.118061 0.178429 0 127 127
-0.464505 -0.305588 -0.414587 76 153 0
0.641412 0.051391 0.035098 0 127 127
0.100352 -0.242005 -0.428377 76 153 0
-0.359468 -0.387495 0.426645 76 0 153
-0.618652 0.249690 -0.378131 127 0 127
0.339198 0.626636 0.414194 255 0 0
0.025045 0.371572 0.454226 76 0 153
-0.645718 0.423333 0.131609 127 0 127
0.332985 -0.101974 -0.428377 76 153 0
-0.139009 0.571473 0.400338 255 0 0
-0.517377 0.249690 -0.301253 127 0 127
0.650606 -0.354230 0.414067 76 0 153
-0.645718 0.471771 0.314814 127 0 127
-0.016016 0.277272 0.022374 127 0 127
0.352916 0.277272 -0.035437 127 0 127
0.602300 -0.115360 -0.414587 76 153 0
-0.353611 0.249690 0.183473 127 0 127
-0.205397 -0.118061 -0.020224 0 127 127
0.167120 0.249690 -0.056850 127 0 127
-0.467518 -0.000836 0.426645 76 0 153
0.623025 0.504707 -0.239504 0 127 127
0.485101 -0.090480 -0.348012 0 127 127
-0.158610 -0.118061 -0.208027 0 127 127
0.045585 -0.401074 -0.414587 76 153 0
0.098589 0.622381 -0.455959 76 153 0
-0.616328 0.277272 0.354376 127 0 127
0.623025 -0.213352 0.191785 0 127 127
-0.664105 -0.414531 0.045875 127 0 127
0.386580 0.277272 0.329807 127 0 127
0.523461 -0.066624 0.426645 76 0 153
-0.645718 -0.279229 -0.209199 127 0 127
0.318610 -0.118061 -0.315322 0 127 127
-0.503945 0.567995 0.426645 255 0 0
-0.664105 0.429936 -0.399997 127 0 127
0.038193 -0.090480 -0.081587 0 127 127
0.453521 0.277272 0.167898 127 0 127
-0.020249 0.406693 -0.414587 76 153 0
-0.645718 -0.082013 -0.362691 127 0 127
-0.038795 -0.252297 -0.414587 76 153 0
-0.645718 0.057188 0.155949 127 0 127
0.574126 0.249690 0.103686 127 0 127
0.183128 0.553468 0.454226 76 0 153
0.269323 0.074753 0.454226 76 0 153
-0.510275 -0.159607 -0.414587 76 153 0
-0.571573 0.277272 -0.341648 127 0 127
-0.356315 0.213822 0.426645 76 0 153
0.140783 0.006366 -0.428377 76 153 0
-0.599689 0.013279 -0.414587 76 153 0
0.064939 -0.472811 0.311722 127 127 0
-0.645718 0.227863 -0.118555 127 0 127
0.009824 -0.090480 -0.244268 0 127 127
0.311732 0.243697 0.426645 76 0 153
0.076931 0.549766 -0.414587 76 153 0
-0.427303 0.249690 -0.271618 127 0 127
0.425988 0.284763 -0.414587 127 0 127
-0.582932 0.599054 0.088507 204 51 127
-0.664105 0.498023 0.000261 127 0 127
-0.195489 -0.430650 0.327103 153 0 76
0.147137 0.516434 -0.455959 76 153 0
0.100267 -0.467505 0.399063 0 0 255
-0.618101 0.249690 0.143383 127 0 127
-0.185720 0.277272 -0.050943 127 0 127
-0.012161 -0.430650 0.368580 153 0 76
-0.468820 0.221705 -0.414587 76 153 0
-0.393709 0.249690 -0.405157 127 0 127
-0.645718 -0.462925 -0.042367 127 0 127
-0.262176 0.249690 -0.085994 127 0 127
0.038589 -0.118061 0.265538 0 127 127
-0.356345 0.521042 0.454226 76 0 153
0.445687 0.579590 -0.414587 76 153 0
-0.561800 0.102800 0.426645 76 0 153
-0.229151 -0.383147 -0.428377 76 153 0
-0.124357 -0.090480 0.028938 0 127 127
-0.060333 -0.090480 0.218978 0 127 127
-0.453769 0.249690 -0.066971 127 0 127
-0.171210 -0.447547 -0.414587 76 153 0
0.559989 -0.118061 0.329367 0 127 127
0.454070 -0.430650 0.356786 153 0 76
0.479541 0.403017 -0.414587 76 153 0
0.446257 -0.430650 -0.126275 153 0 76
-0.322282 -0.090480 0.088677 0 127 127
-0.575773 -0.430650 -0.151127 153 0 76
0.377367 -0.021279 -0.428377 76 153 0
0.176193 -0.144592 -0.428377 76 153 0
-0.086794 -0.639979 -0.455959 255 0 0
-0.387392 -0.090480 0.006780 0 127 127
0.273923 -0.594853 0.311722 127 127 0
0.025122 0.249690 -0.055010 127 0 127
-0.184204 -0.464826 0.454226 76 0 153
-0.638238 0.404568 0.399063 76 0 153
-0.673299 0.582067 0.417488 76 0 153
0.464928 -0.118061 0.066144 0 127 127
0.074621 -0.090480 0.004939 0 127 127
-0.645718 -0.207305 0.130111 127 0 127
-0.427324 -0.029723 -0.428377 76 153 0
-0.664105 0.567835 -0.414407 127 0 127
-0.291287 0.565409 -0.455959 76 153 0
-0.178611 0.455492 -0.414587 76 153 0
0.380411 -0.169645 0.426645 76 0 153
-0.199570 0.277272 -0.320761 127 0 127
-0.243804 0.422983 -0.414587 76 153 0
0.296562 -0.181398 0.454226 76 0 153
-0.664105 0.502859 -0.220430 127 0 127
0.283903 -0.323327 -0.428377 76 153 0
-0.348876 -0.118061 0.013400 0 127 127
0.486522 -0.495200 0.311722 127 127 0
0.519269 -0.118061 0.294246 0 127 127
0.509172 -0.430650 0.039749 153 0 76
0.624878 0.626636 -0.388415 0 127 127
-0.059169 0.371442 0.454226 76 0 153
-0.273133 0.249690 -0.371376 127 0 127
0.094151 -0.118061 0.160156 0 127 127
0.580348 0.619740 0.449589 76 0 153
-0.370956 -0.430650 0.146236 153 0 76
-0.451007 -0.118061 -0.111007 0 127 127
0.021518 0.206184 0.454226 76 0 153
-0.306295 0.249690 0.280085 127 0 127
0.049115 -0.118061 -0.226055 0 127 127
0.026321 -0.313845 -0.428377 76 153 0
-0.382315 0.366254 -0.414587 76 153 0
-0.406439 -0.430650 -0.206059 153 0 76
-0.047130 0.249690 -0.112610 127 0 127
0.169179 -0.354617 0.454226 76 0 153
-0.205593 0.249690 0.383383 127 0 127
-0.379702 -0.244291 0.454226 76 0 153
0.139950 -0.090480 -0.000042 0 127 127
0.517668 -0.118061 0.168884 0 127 127
0.556883 -0.090480 -0.143998 0 127 127
0.325502 -0.430650 -0.348295 153 0 76
0.435285 0.519217 0.454226 76 0 153
-0.118079 0.360005 0.426645 76 0 153
0.345289 0.464622 0.426645 76 0 153
0.641412 -0.069734 -0.344555 0 127 127
-0.519403 -0.391029 0.426645 76 0 153
-0.614368 -0.171238 0.454226 76 0 153
-0.244085 -0.118061 0.312993 0 127 127
0.454138 -0.118061 0.155952 0 127 127
0.641412 0.224883 0.326297 0 127 127
0.377999 -0.430650 -0.273568 153 0 76
-0.664105 0.098115 -0.134386 127 0 127
-0.024753 0.249690 -0.350010 127 0 127
0.643711 0.570497 0.448566 76 0 153
0.079453 0.486799 0.426645 76 0 153
-0.182080 -0.090480 0.063765 0 127 127
-0.538847 0.277272 -0.411345 76 153 0
0.237855 -0.519679 0.311722 127 127 0
0.217972 0.046872 0.426645 76 0 153
0.489185 -0.118061 -0.079855 0 127 127
-0.645319 -0.430650 0.172979 153 0 76
-0.110007 -0.077911 0.426645 76 0 153
0.303470 0.516310 -0.452465 76 153 0
0.397791 0.425063 -0.414587 76 153 0
-0.195497 0.426073 0.454226 76 0 153
-0.488815 -0.430650 0.247180 153 0 76
0.397910 0.249690 -0.107175 127 0 127
0.542676 0.617290 0.399063 153 0 76
0.624263 0.314070 -0.455959 0 127 127
-0.664105 -0.336918 -0.351582 127 0 127
-0.645718 -0.435063 -0.413733 76 153 0
-0.167535 -0.430650 0.045564 153 0 76
0.113487 0.619740 0.451116 76 0 153
-0.516100 -0.587522 0.311722 127 127 0
0.557616 -0.430650 0.030040 153 0 76
-0.664105 -0.157659 -0.420272 127 0 127
-0.490033 0.277272 0.234051 127 0 127
0.608146 -0.118061 -0.205448 0 127 127
-0.664105 -0.615890 0.107917 0 255 0
-0.664105 0.261653 0.328832 127 0 127
-0.398509 -0.090480 0.072032 0 127 127
-0.664105 0.046126 -0.424418 127 0 127
0.226251 0.277272 -0.021357 127 0 127
-0.574026 0.599054 -0.098549 204 51 127
-0.546476 0.030173 0.426645 76 0 153
-0.342604 0.249690 0.033262 127 0 127
-0.001188 -0.090480 0.358232 0 127 127
0.008232 0.339343 -0.428377 76 153 0
0.623025 0.527982 0.384967 0 127 127
0.623025 0.468263 -0.131511 0 127 127
0.534925 0.277272 0.293695 127 0 127
-0.223780 0.235810 0.454226 76 0 153
-0.171533 -0.430650 -0.045339 153 0 76
-0.024923 -0.468098 0.399063 0 0 255
-0.561231 -0.118061 -0.043550 0 127 127
-0.112199 0.249690 -0.008174 127 0 127
0.643711 -0.196157 0.442546 76 0 153
0.153597 -0.405744 -0.414587 76 153 0
-0.269866 -0.430650 0.359576 153 0 76
-0.645718 0.030677 -0.176267 127 0 127
0.419929 -0.051187 0.426645 76 0 153
0.287172 0.324093 0.454226 76 0 153
-0.142626 0.277272 -0.381629 127 0 127
-0.318644 0.249690 -0.215112 127 0 127
-0.223154 0.579134 0.399063 255 0 0
0.641412 0.095558 -0.261387 0 127 127
-0.502166 0.249690 -0.161077 127 0 127
-0.560412 -0.124804 0.454226 76 0 153
-0.645718 0.098374 -0.208105 127 0 127
0.419492 -0.118061 -0.324377 0 127 127
0.366786 0.275976 0.426645 76 0 153
-0.411114 -0.421456 0.411613 76 0 153
0.549616 -0.465652 0.454226 76 0 153
0.641412 -0.423966 0.302343 0 127 127
-0.070999 -0.118061 0.043951 0 127 127
0.106031 0.439558 -0.428377 76 153 0
0.094050 -0.324707 0.454226 76 0 153
0.021431 0.492327 -0.428377 76 153 0
0.641412 0.523820 -0.399834 0 127 127
0.641412 0.445637 0.102806 0 127 127
0.494149 -0.003957 0.426645 76 0 153
0.531990 -0.177804 -0.414587 76 153 0
0.104886 0.359889 0.454226 76 0 153
-0.467740 -0.118061 0.002157 0 127 127
0.641412 0.485179 0.383242 0 127 127
0.468311 -0.350846 0.454226 76 0 153
-0.075713 0.232280 0.454226 76 0 153
-0.163247 0.035812 -0.414587 76 153 0
-0.337198 0.626488 -0.455959 76 153 0
0.623025 0.312834 0.340287 0 127 127
0.597383 0.599054 -0.266708 153 0 76
-0.645718 -0.020711 -0.194873 127 0 127
-0.489699 -0.090480 -0.085537 0 127 127
-0.406679 0.527758 -0.414587 76 153 0
-0.209403 -0.430650 0.123103 153 0 76
0.461605 0.249690 -0.386969 127 0 127
-0.619718 -0.344284 -0.428377 127 127 0
0.442583 0.318982 0.454226 76 0 153
0.001924 -0.090480 0.041896 0 127 127
0.174394 0.104684 0.426645 76 0 153
0.623025 0.092428 0.189084 0 127 127
0.523048 0.249690 -0.054912 127 0 127
-0.436049 0.299031 -0.414587 76 153 0
-0.177924 -0.061735 0.426645 76 0 153
0.641412 -0.594540 0.217806 0 0 255
-0.566354 0.187469 0.426645 76 0 153
-0.207514 0.560177 -0.455959 76 153 0
-0.664105 0.081112 -0.304212 127 0 127
-0.582567 -0.103544 0.399063 0 127 127
0.521170 -0.541887 0.311722 127 127 0
0.213995 0.291514 0.454226 76 0 153
-0.066509 0.300631 0.408893 76 0 153
0.600377 0.249690 -0.358925 127 0 127
-0.106811 0.430708 0.426645 76 0 153
0.201965 -0.118061 -0.390792 0 127 127
-0.645718 -0.180768 0.300759 127 0 127
0.170320 0.249690 -0.272947 127 0 127
0.145886 -0.124007 0.426645 76 0 153
-0.197175 -0.635798 -0.455959 255 0 0
-0.456563 0.085770 0.454226 76 0 153
0.616012 0.277272 -0.181202 0 127 127
-0.225980 -0.118061 -0.331554 0 127 127
0.641412 0.116256 -0.034016 0 127 127
-0.502170 -0.109529 0.399063 0 127 127
-0.266685 -0.326806 -0.414587 76 153 0
0.379714 -0.118061 -0.070919 0 127 127
0.623025 0.535195 -0.317049 0 127 127
0.203005 0.206934 0.454226 76 0 153
0.129441 -0.430650 -0.377437 153 0 76
0.043816 0.408756 0.404603 153 76 0
0.480946 -0.118061 -0.397965 0 127 127
-0.074815 -0.090480 0.349032 0 127 127
0.406949 0.208380 0.426645 76 0 153
-0.432097 0.620849 0.399063 255 0 0
-0.096904 0.277272 -0.224476 127 0 127
-0.074671 -0.118061 -0.074384 0 127 127
-0.645718 0.161634 -0.065516 127 0 127
-0.323747 -0.002305 -0.414587 76 153 0
-0.664105 -0.561380 -0.083699 0 255 0
-0.664105 -0.340100 -0.294563 127 0 127
-0.089057 0.560210 -0.455959 76 153 0
0.098877 -0.430650 -0.066074 153 0 76
-0.452590 0.249690 -0.377915 127 0 127
0.579053 -0.118061 -0.320377 0 127 127
-0.618136 -0.407666 0.409171 76 0 153
0.467526 -0.118061 -0.267393 0 127 127
0.352592 -0.430650 0.308369 153 0 76
-0.664105 0.360490 -0.068503 127 0 127
-0.217798 -0.118061 -0.170634 0 127 127
-0.568632 0.580667 0.049174 204 51 127
0.046356 -0.232176 -0.414587 76 153 0
-0.555596 -0.430650 0.377452 153 0 76
0.133988 -0.430650 0.311493 153 0 76
-0.059236 -0.118061 0.111408 0 127 127
0.641412 0.405409 -0.196408 0 127 127
0.088180 0.366911 -0.414587 76 153 0
-0.552318 -0.118061 0.331459 0 127 127
-0.664105 -0.539507 -0.445609 0 255 0
0.068856 -0.090480 0.285058 0 127 127
0.073300 -0.118061 -0.059429 0 127 127
-0.634356 0.580667 0.389912 76 0 153
-0.579876 0.599054 0.224595 204 51 127
-0.664105 -0.015438 0.149003 127 0 127
0.617268 0.352015 0.454226 76 0 153
-0.080145 -0.454789 0.311722 127 127 0
0.102133 0.160548 0.426645 76 0 153
-0.269336 -0.030282 -0.414587 76 153 0
-0.503577 -0.430650 -0.386046 153 0 76
0.573922 -0.476619 0.400487 0 0 255
-0.230424 0.523565 -0.414587 76 153 0
-0.306561 0.234229 0.426645 76 0 153
0.356488 -0.031445 0.426645 76 0 153
-0.353119 -0.320143 -0.414587 127 127 0
-0.522421 0.370318 0.454226 76 0 153
-0.213092 -0.090480 0.379824 0 127 127
0.623025 0.004686 0.035735 0 127 127
-0.555559 0.321726 0.454226 76 0 153
0.623742 -0.106300 0.426645 76 0 153
-0.664105 0.480818 -0.398154 127 0 127
0.641412 0.561858 0.006821 0 127 127
-0.294630 -0.090480 0.364519 0 127 127
0.059039 -0.111854 -0.428377 76 153 0
0.064155 0.249690 -0.364455 127 0 127
-0.645718 0.039024 0.374739 127 0 127
0.322796 -0.090480 -0.385019 0 127 127
-0.663551 0.626636 -0.367100 127 0 127
0.203970 -0.118061 -0.070147 0 127 127
0.134836 0.249690 0.154848 127 0 127
0.017441 0.137436 -0.414587 76 153 0
0.567999 0.249690 -0.242857 127 0 127
0.181194 -0.090480 0.179902 0 127 127
-0.265074 0.249690 -0.326887 127 0 127
-0.265329 0.167104 0.454226 76 0 153
-0.663705 0.338401 0.454226 76 0 153
0.501776 0.249690 -0.344827 127 0 127
-0.317258 0.505438 0.426645 76 0 153
-0.361759 -0.476619 0.407387 0 0 255
-0.320706 -0.021671 0.454226 76 0 153
-0.212314 -0.271900 -0.428377 76 153 0
0.304136 -0.517894 -0.455959 255 0 0
0.147357 -0.430650 0.204544 153 0 76
0.379223 0.249690 0.172372 127 0 127
-0.673299 -0.096522 0.404853 76 0 153
0.559566 0.580667 -0.182146 153 0 76
-0.451700 0.233607 0.426645 76 0 153
0.543179 -0.112651 -0.428377 76 153 0
0.641412 -0.415947 -0.221052 0 127 127
0.096910 0.041366 -0.414587 76 153 0
-0.060594 -0.427006 -0.455959 255 0 0
0.546167 0.022881 -0.428377 76 153 0
-0.664105 0.591649 0.124839 127 0 127
-0.126800 0.277272 0.144615 127 0 127
-0.324357 -0.118061 -0.326819 0 127 127
0.113927 -0.433267 -0.455959 255 0 0
0.217650 0.249690 0.041586 127 0 127
0.140782 -0.462312 0.454226 76 0 153
-0.586867 -0.243394 0.454226 76 0 153
-0.045213 -0.430650 0.109201 153 0 76
0.487025 0.277272 -0.259650 127 0 127
0.149328 -0.118061 -0.210500 0 127 127
-0.053084 0.249690 0.264154 127 0 127
-0.257198 0.626636 0.425071 255 0 0
-0.322650 -0.090480 -0.137271 0 127 127
0.641412 -0.542410 0.299867 0 0 255
-0.249039 -0.007674 0.454226 76 0 153
-0.623442 -0.430650 0.334637 127 0 127
-0.462170 -0.448440 -0.428377 76 153 0
-0.368438 0.576821 -0.414587 76 153 0
-0.645718 -0.050267 -0.011415 127 0 127
0.601861 -0.414492 0.399063 76 0 153
-0.617907 -0.076421 -0.414587 76 153 0
0.641412 -0.309372 -0.082185 0 127 127
0.552714 0.442719 0.426645 76 0 153
-0.313186 -0.289362 0.426645 76 0 153
0.335726 0.277272 0.247543 127 0 127
-0.645718 0.132418 -0.455849 127 0 127
-0.499525 -0.054956 0.426645 76 0 153
-0.004441 0.146681 0.399063 153 76 0
0.286899 0.025947 -0.428377 76 153 0
0.324733 0.277272 -0.244574 127 0 127
-0.618136 -0.301895 0.412246 76 0 153
0.623025 -0.377987 -0.136537 0 127 127
0.377716 0.201050 -0.428377 76 153 0
0.623025 0.117983 -0.170964 0 127 127
-0.604916 0.277272 -0.025188 127 0 127
-0.664105 -0.378669 0.386479 127 0 127
0.272598 0.277019 0.399063 127 0 127
0.641412 0.268022 0.368218 0 127 127
-0.485889 -0.379752 0.454226 76 0 153
-0.152102 0.296457 -0.428377 76 153 0
-0.596268 -0.118061 0.106407 0 127 127
-0.538805 0.249690 0.395626 127 0 127
0.623025 -0.453131 -0.154527 0 127 127
0.503390 0.277272 0.132897 127 0 127
0.178459 0.249690 0.127814 127 0 127
-0.664105 -0.334678 -0.207623 127 0 127
-0.228451 -0.090480 0.145506 0 127 127
-0.149176 -0.594226 -0.455959 255 0 0
-0.506344 0.277272 0.073247 127 0 127
-0.414422 -0.118061 -0.046204 0 127 127
-0.242380 0.277272 -0.056823 127 0 127
0.387494 -0.458380 0.426645 76 0 153
0.024395 -0.088046 0.426645 153 76 0
-0.288823 -0.239660 0.426645 76 0 153
-0.673299 -0.328299 0.419487 76 0 153
-0.585562 0.580667 -0.241070 204 51 127
-0.379420 -0.449874 -0.455959 255 0 0
0.567011 -0.075987 0.454226 76 0 153
-0.560898 -0.394672 -0.428377 76 153 0
0.623025 0.000330 0.102489 0 127 127
0.130671 0.426128 0.454226 76 0 153
-0.339161 -0.090480 0.306540 0 127 127
0.552221 0.249690 -0.389696 127 0 127
0.365426 -0.430650 -0.094011 153 0 76
-0.607426 0.041638 0.454226 76 0 153
-0.289696 0.436658 0.426645 76 0 153
-0.229962 -0.430650 -0.028156 153 0 76
0.546149 -0.140549 0.426645 76 0 153
0.058948 -0.356445 0.426645 76 0 153
-0.567767 0.475937 -0.414587 76 153 0
0.324086 0.396747 0.426645 76 0 153
-0.368855 0.295583 0.454226 76 0 153
0.544626 0.277272 -0.301563 127 0 127
0.487152 0.167150 0.454226 76 0 153
-0.513497 0.277272 -0.028196 127 0 127
0.590258 -0.249584 -0.414587 76 153 0
-0.544511 0.599054 -0.418214 76 153 0
0.446797 -0.136819 0.454226 76 0 153
0.277630 -0.090480 -0.109750 0 127 127
-0.402174 -0.118061 -0.099080 0 127 127
-0.145250 -0.590385 0.311722 127 127 0
-0.047983 -0.430650 0.283402 153 0 76
-0.664105 -0.072854 -0.068012 127 0 127
0.300155 0.249690 0.093190 127 0 127
-0.663258 -0.194460 0.426645 76 0 153
0.600956 0.580667 -0.111868 153 0 76
0.641412 0.252178 -0.260883 0 127 127
-0.384717 -0.090480 -0.244325 0 127 127
-0.127791 0.503889 -0.414587 76 153 0
-0.645718 0.045186 -0.259186 127 0 127
-0.296659 0.517818 -0.455959 76 153 0
-0.449088 -0.118061 0.327076 0 127 127
0.514553 0.576387 -0.455959 76 153 0
0.495007 -0.090480 -0.009769 0 127 127
-0.566644 -0.168268 0.426645 76 0 153
-0.050858 0.277272 -0.071510 127 0 127
0.281476 -0.076705 0.426645 76 0 153
0.406558 -0.285395 0.454226 76 0 153
-0.257089 0.249690 0.084248 127 0 127
-0.189075 -0.177872 0.426645 76 0 153
-0.367217 -0.013073 0.454226 76 0 153
0.069135 0.207235 -0.414587 76 153 0
-0.274713 0.363344 0.426645 76 0 153
0.300282 -0.145151 0.426645 76 0 153
-0.664105 -0.266684 -0.262834 127 0 127
-0.336752 -0.118061 -0.394981 0 127 127
0.357790 -0.320895 0.426645 76 0 153
-0.664105 -0.562288 0.093138 0 255 0
0.138784 0.277272 0.337253 127 0 127
-0.505644 -0.115687 0.454226 76 0 153
-0.645718 -0.006988 0.295684 127 0 127
-0.185068 0.257395 0.454226 76 0 153
-0.169589 -0.118061 0.023853 0 127 127
0.045462 0.461432 0.454226 76 0 153
-0.312046 0.015138 0.426645 76 0 153
0.324494 0.277272 -0.165292 127 0 127
-0.553612 0.277272 0.095118 127 0 127
0.394490 -0.090480 -0.235023 0 127 127
0.108716 0.249690 -0.247275 127 0 127
0.067120 -0.090480 -0.145653 0 127 127
-0.472197 0.561650 -0.414587 76 153 0
-0.458433 0.575483 0.454226 153 76 0
0.358621 -0.583674 0.311722 127 127 0
0.065368 0.249690 0.317081 127 0 127
0.049496 0.277272 -0.332831 127 0 127
0.568054 0.354811 0.454226 76 0 153
0.475558 0.519236 -0.455959 76 153 0
-0.270321 -0.090480 -0.300850 0 127 127
-0.035010 -0.090480 -0.185748 0 127 127
-0.031656 -0.059014 0.454226 76 0 153
0.085741 -0.080994 0.426645 76 0 153
0.641412 0.195645 0.061225 0 127 127
-0.643679 0.151566 0.426645 76 0 153
-0.664105 0.577401 0.205926 127 0 127
0.359052 -0.563962 -0.455959 255 0 0
-0.581184 -0.430650 -0.296844 153 0 76
-0.481517 -0.090480 0.170330 0 127 127
-0.488198 0.147879 0.454226 76 0 153
-0.464235 0.249690 0.150035 127 0 127
0.462349 0.249690 0.295659 127 0 127
0.413193 -0.090480 0.362229 0 127 127
0.512936 0.599054 0.222398 153 0 76
-0.644439 -0.442861 0.399063 76 0 153
-0.025075 -0.240773 0.426645 153 76 0
-0.618322 0.249690 0.272698 127 0 127
-0.664105 -0.358643 0.065364 127 0 127
0.577739 0.249690 0.025944 127 0 127
0.623025 -0.036463 0.320083 0 127 127
0.623025 0.191310 0.282244 0 127 127
-0.525741 0.277272 0.204344 127 0 127
0.648328 -0.440567 0.399063 76 0 153
-0.511652 -0.118061 -0.253245 0 127 127
0.409104 -0.124824 -0.428377 76 153 0
-0.173903 0.277272 0.272803 127 0 127
-0.664105 -0.622474 0.187257 0 255 0
0.113664 -0.118061 0.349468 0 127 127
-0.645718 -0.266381 0.332884 127 0 127
0.402123 0.277272 -0.027350 127 0 127
-0.327970 0.276203 -0.428377 76 153 0
0.186285 -0.090480 -0.099575 0 127 127
-0.528245 -0.430650 -0.346279 153 0 76
0.641412 -0.582537 -0.234087 0 0 255
0.535799 0.580667 -0.342465 153 0 76
0.036391 0.071439 0.426645 153 76 0
0.115413 -0.375713 -0.428377 76 153 0
-0.570991 -0.472895 0.399063 76 0 153
-0.664105 0.281739 -0.185722 127 0 127
-0.292559 -0.086921 -0.428377 76 153 0
-0.635400 -0.261468 0.426645 76 0 153
0.403160 -0.421456 0.408599 0 0 255
0.376381 0.184637 0.454226 76 0 153
0.198501 -0.342358 -0.414587 76 153 0
0.552617 0.205105 -0.414587 76 153 0
-0.196524 -0.430650 -0.107791 153 0 76
-0.529633 -0.118061 -0.175259 0 127 127
-0.664105 -0.360169 -0.409767 127 0 127
0.459161 0.624735 -0.428377 76 153 0
0.168881 -0.430650 -0.004355 153 0 76
-0.664105 -0.096509 0.041490 127 0 127
0.248990 -0.430650 -0.197039 153 0 76
0.623025 -0.294737 0.201017 0 127 127
-0.224147 0.350114 -0.414587 76 153 0
-0.664105 -0.383615 0.292570 127 0 127
-0.641485 -0.025744 -0.414587 76 153 0
-0.312152 -0.175250 0.426645 76 0 153
0.053285 -0.019772 -0.414587 76 153 0
-0.492283 0.516822 -0.414587 76 153 0
0.546071 0.249690 0.259596 127 0 127
0.421160 -0.172939 -0.414587 76 153 0
0.310474 0.525278 0.454226 76 0 153
-0.585154 -0.430650 0.003238 153 0 76
-0.315969 0.277272 0.151960 127 0 127
0.056812 0.341435 0.454226 76 0 153
-0.364107 0.249690 -0.308275 127 0 127
-0.406110 -0.179471 -0.428377 76 153 0
-0.085169 -0.180847 0.454226 76 0 153
-0.322357 -0.430650 -0.003140 153 0 76
0.613916 -0.055489 -0.428377 76 153 0
-0.605959 -0.369469 0.426645 76 0 153
0.213683 -0.029562 -0.428377 76 153 0
0.500685 -0.118061 -0.130888 0 127 127
-0.567717 0.460037 0.426645 76 0 153
-0.484759 -0.220765 -0.414587 76 153 0
-0.081567 -0.353931 0.454226 76 0 153
-0.215330 0.249690 -0.387546 127 0 127
0.167155 0.277272 -0.188680 127 0 127
0.187940 -0.430650 0.135722 153 0 76
0.239957 -0.430650 0.218007 153 0 76
0.251036 0.249690 0.142971 127 0 127
0.512699 0.591189 -0.116594 153 0 76
0.148011 0.179376 -0.428377 76 153 0
-0.027277 0.326759 0.454226 76 0 153
-0.645718 -0.035602 0.067052 127 0 127
-0.649086 -0.306264 -0.455959 127 0 127
0.115554 0.277272 0.068297 127 0 127
-0.624106 -0.110319 0.454226 76 0 153
0.641412 0.319799 0.237529 0 127 127
-0.124763 -0.199026 0.454226 76 0 153
-0.664105 0.332637 0.329018 127 0 127
0.399001 -0.240322 -0.428377 76 153 0
0.641412 0.583476 0.297824 0 127 127
-0.645718 -0.364574 0.219880 127 0 127
0.641412 -0.640182 0.057437 0 0 255
-0.645718 0.135494 0.124130 127 0 127
0.332857 -0.090480 -0.242479 0 127 127
-0.004451 0.263878 0.439803 76 0 153
-0.512062 -0.090480 -0.377458 0 127 127
0.187858 -0.100639 -0.428377 76 153 0
-0.544135 0.599345 0.454226 76 0 153
0.598823 -0.090480 -0.281743 0 127 127
0.249462 0.571473 0.408863 76 0 153
0.057884 0.277272 0.141223 127 0 127
-0.022043 0.553857 -0.414587 76 153 0
0.413230 0.249690 0.231889 127 0 127
0.526213 -0.262984 0.454226 76 0 153
-0.181283 -0.307461 -0.414587 76 153 0
0.233963 0.153742 0.426645 76 0 153
0.469112 -0.476619 0.419456 0 0 255
0.641412 -0.086532 -0.083832 0 127 127
0.147935 0.277272 -0.229805 127 0 127
0.239965 -0.118061 -0.332714 0 127 127
0.574396 -0.406417 -0.428377 76 153 0
0.625224 -0.369139 0.454226 76 0 153
-0.645718 0.379267 0.331612 127 0 127
0.641412 -0.406060 0.000739 0 127 127
-0.634319 0.168835 -0.414587 127 0 127
-0.466769 -0.430650 -0.295246 153 0 76
0.372917 -0.118061 -0.302692 0 127 127
0.289633 -0.026805 -0.414587 76 153 0
0.641412 0.594405 -0.236788 0 127 127
0.253417 0.381701 -0.428377 76 153 0
0.641412 -0.638694 -0.252683 0 0 255
0.430400 0.277272 -0.318916 127 0 127
0.088749 0.277272 -0.108883 127 0 127
-0.615799 -0.470393 -0.455959 255 0 0
0.039406 0.249690 -0.299873 127 0 127
0.272446 0.277272 -0.392692 127 0 127
-0.374875 -0.313414 0.426645 76 0 153
-0.256323 -0.130138 -0.414587 76 153 0
-0.544973 -0.090480 -0.123223 0 127 127
-0.548113 0.277272 0.340579 127 0 127
-0.026699 0.364932 -0.428377 76 153 0
0.641412 0.311152 0.032393 0 127 127
0.557277 -0.090480 -0.066478 0 127 127
0.623025 -0.341578 -0.358340 0 127 127
-0.664105 0.073947 -0.067125 127 0 127
-0.412673 0.577883 0.399063 255 0 0
-0.458105 -0.090480 -0.323991 0 127 127
-0.171010 0.249690 0.003417 127 0 127
-0.405316 0.210627 -0.428377 76 153 0
-0.174746 0.249690 0.239487 127 0 127
0.454080 0.558178 0.454226 153 0 76
0.553293 0.580667 0.302280 153 0 76
-0.645718 0.479806 0.080477 127 0 127
0.324862 -0.118061 0.137807 0 127 127
0.623025 0.143765 -0.069306 0 127 127
0.575046 0.148831 0.454226 76 0 153
0.376686 -0.118061 0.363903 0 127 127
-0.645718 -0.470757 -0.316027 127 0 127
0.641412 0.224203 -0.430806 0 127 127
0.360072 -0.430650 0.350923 153 0 76
0.075374 -0.430650 0.252083 153 0 76
0.148909 -0.448685 -0.414587 76 153 0
0.178904 -0.090480 0.363289 0 127 127
-0.361402 0.447095 0.454226 76 0 153
-0.467397 0.277272 -0.163182 127 0 127
0.210990 0.558734 -0.455959 76 153 0
0.013805 0.571473 0.417733 255 0 0
0.190137 -0.029359 0.454226 76 0 153
0.641412 -0.047189 0.228215 0 127 127
0.623025 -0.152298 -0.023373 0 127 127
0.256210 0.249690 -0.212402 127 0 127
-0.395087 0.277272 0.026886 127 0 127
-0.239211 -0.089955 0.454226 76 0 153
0.406269 -0.398966 -0.428377 76 153 0
-0.440962 -0.090480 0.380170 0 127 127
0.307744 -0.118061 -0.179342 0 127 127
-0.322004 -0.129746 0.426645 76 0 153
0.083990 -0.196407 0.426645 76 0 153
0.574745 0.540471 0.426645 76 0 153
0.035803 -0.332827 0.454226 76 0 153
0.399459 -0.090480 -0.148549 0 127 127
-0.205694 -0.107270 -0.414587 76 153 0
-0.149176 0.077328 0.426645 76 0 153
-0.444680 -0.312661 0.426645 76 0 153
0.580361 0.249690 -0.100949 127 0 127
-0.355653 0.516310 -0.429151 76 153 0
-0.577169 0.580667 0.286041 204 51 127
-0.076680 0.579042 0.454226 76 0 153
0.452063 0.357834 -0.414587 76 153 0
0.641412 -0.593778 -0.168929 0 0 255
-0.495617 0.476178 -0.428377 76 153 0
-0.066509 -0.114639 0.424897 76 0 153
0.196765 0.626636 -0.447187 76 153 0
-0.664105 -0.638289 -0.074300 0 255 0
0.357935 0.097729 0.426645 76 0 153
-0.115262 0.249690 -0.094285 127 0 127
-0.629089 -0.430650 0.219020 127 0 127
0.438222 -0.536727 0.311722 127 127 0
-0.061829 0.139554 -0.428377 76 153 0
-0.212096 0.249690 -0.210227 127 0 127
-0.531307 0.533797 -0.455959 76 153 0
0.623025 0.149370 0.169942 0 127 127
0.641412 0.356068 -0.320514 0 127 127
-0.059904 -0.021216 -0.428377 76 153 0
0.641412 0.336528 -0.242133 0 127 127
-0.242302 -0.118061 -0.234760 0 127 127
0.111539 0.277272 -0.171370 127 0 127
0.022531 -0.090480 0.004283 0 127 127
0.240804 -0.090480 -0.154062 0 127 127
0.623025 -0.368867 0.076497 0 127 127
0.614628 0.249690 0.299512 127 0 127
0.433684 -0.167293 0.426645 76 0 153
0.623025 -0.364635 -0.418896 0 127 127
0.052303 -0.441344 0.454226 76 0 153
0.169334 0.619740 0.453674 76 0 153
-0.634835 0.584345 0.454226 76 0 153
-0.664105 -0.228140 0.234515 127 0 127
-0.427394 -0.090480 -0.251189 0 127 127
-0.544179 0.277272 -0.209870 127 0 127
-0.442364 -0.476198 0.399063 0 0 255
0.262107 -0.118061 0.111627 0 127 127
-0.290443 -0.381701 0.426645 76 0 153
-0.421884 -0.435507 -0.414587 153 0 76
0.084732 0.271866 0.426645 76 0 153
0.501729 0.277272 0.375334 127 0 127
-0.580944 -0.090480 -0.215747 0 127 127
0.548861 -0.090480 0.071253 0 127 127
-0.369442 0.340256 0.454226 76 0 153
-0.498308 -0.090480 -0.011825 0 127 127
0.449015 -0.446419 -0.414587 76 153 0
0.456056 -0.315993 0.426645 76 0 153
0.180592 -0.090480 -0.241030 0 127 127
0.246033 0.184755 0.454226 76 0 153
0.006647 0.249690 -0.111538 127 0 127
0.251986 -0.395723 -0.414587 76 153 0
0.114391 -0.090480 0.232220 0 127 127
0.420959 0.063843 0.426645 76 0 153
-0.573787 -0.090480 0.184943 0 127 127
0.050365 0.249690 -0.227964 127 0 127
0.623025 -0.315503 0.110568 0 127 127
0.254760 -0.430650 -0.032877 153 0 76
0.501228 -0.118061 0.366947 0 127 127
0.620317 0.494956 -0.428377 0 127 127
0.576220 0.249690 -0.058455 127 0 127
0.376894 -0.118061 0.291349 0 127 127
-0.432375 0.559910 -0.455959 76 153 0
-0.579877 -0.031647 0.454226 76 0 153
0.641412 0.053925 -0.098910 0 127 127
-0.121305 -0.090480 -0.032366 0 127 127
0.641412 0.597096 0.253193 0 127 127
-0.555128 0.594400 0.399063 255 0 0
0.641412 -0.280760 0.065167 0 127 127
0.421772 -0.090480 -0.386946 0 127 127
-0.664105 0.037433 -0.345606 127 0 127
-0.043238 -0.395545 -0.428377 76 153 0
0.599149 0.580667 0.018072 153 0 76
0.082417 0.593917 -0.428377 76 153 0
0.148854 -0.250655 0.454226 76 0 153
-0.664105 -0.111906 -0.149839 127 0 127
-0.005802 -0.118061 0.111086 0 127 127
0.250109 0.277272 0.041159 127 0 127
-0.015983 0.167812 -0.414587 76 153 0
0.623025 0.043284 -0.330583 0 127 127
-0.137268 0.137289 0.426645 76 0 153
-0.051054 0.443395 -0.414587 76 153 0
0.397744 0.277272 -0.141864 127 0 127
-0.146565 -0.333744 0.454226 76 0 153
-0.664105 0.135183 -0.032890 127 0 127
0.394655 -0.239161 0.454226 76 0 153
-0.620412 -0.605019 -0.455959 255 0 0
-0.144204 0.617677 -0.428377 76 153 0
-0.616789 -0.334040 0.454226 76 0 153
0.623025 -0.360981 0.159849 0 127 127
0.571447 -0.430650 -0.347970 153 0 76
0.317673 -0.118061 -0.113149 0 127 127
-0.253603 -0.591811 0.311722 127 127 0
0.305034 0.249690 0.205824 127 0 127
0.120114 -0.430650 -0.266661 153 0 76
0.234760 0.258406 0.426645 76 0 153
-0.057163 0.083651 0.454226 76 0 153
0.375603 0.514685 -0.414587 76 153 0
0.406014 -0.313041 -0.414587 76 153 0
0.381353 -0.118061 -0.020593 0 127 127
-0.374453 -0.133155 0.426645 76 0 153
0.641412 -0.489577 -0.251723 0 127 127
-0.669196 0.177958 0.399063 76 0 153
-0.500585 0.431038 0.454226 76 0 153
0.202458 0.371265 0.426645 76 0 153
0.332289 0.564772 -0.414587 76 153 0
0.151625 0.172180 0.426645 76 0 153
0.365167 -0.090480 -0.387240 0 127 127
0.601023 0.249690 -0.151373 127 0 127
0.641412 0.025066 0.366409 0 127 127
0.216458 0.249690 0.280492 127 0 127
0.372822 0.624560 -0.428377 76 153 0
-0.556014 -0.090480 -0.362658 0 127 127
0.270339 0.368015 0.454226 76 0 153
0.234007 0.453171 -0.414587 76 153 0
0.641412 0.113417 0.243609 0 127 127
0.623025 -0.368833 0.204878 0 127 127
-0.441301 -0.101191 0.454226 76 0 153
-0.055252 -0.100941 -0.414587 0 127 127
0.274095 -0.118061 -0.234838 0 127 127
0.127513 -0.118061 0.119118 0 127 127
-0.562023 -0.315570 0.426645 76 0 153
0.623025 -0.472200 -0.342530 0 127 127
0.641412 0.466124 0.326276 0 127 127
-0.047654 0.249690 0.222157 127 0 127
-0.664105 0.597235 -0.215633 127 0 127
0.641412 0.537311 0.313105 0 127 127
-0.128079 -0.256595 -0.414587 76 153 0
-0.227163 0.249690 -0.274392 127 0 127
-0.199000 -0.426053 -0.451694 255 0 0
0.105680 -0.430650 0.015292 153 0 76
0.641412 0.200364 -0.027167 0 127 127
0.650606 -0.156001 0.412689 76 0 153
0.312857 0.571473 0.413327 76 0 153
-0.645718 0.625760 -0.002604 127 0 127
0.502056 -0.118061 0.214235 0 127 127
0.623025 0.355662 0.391545 0 127 127
0.131957 0.277272 0.001079 127 0 127
0.322688 -0.466511 0.311722 127 127 0
-0.429274 0.337358 0.454226 76 0 153
-0.111354 0.277272 0.280645 127 0 127
-0.645718 0.405092 -0.003379 127 0 127
0.623025 -0.031339 -0.011168 0 127 127
0.602757 0.258868 0.454226 76 0 153
0.231139 0.352285 0.454226 76 0 153
-0.123403 0.249690 -0.316826 127 0 127
-0.150299 0.202758 0.426645 76 0 153
-0.236021 -0.430650 0.312883 153 0 76
0.003936 -0.118061 0.390219 0 127 127
-0.314633 0.042918 -0.428377 76 153 0
-0.235943 0.374975 0.454226 76 0 153
0.641412 -0.073742 0.352614 0 127 127
-0.664105 0.502111 -0.355017 127 0 127
-0.569438 -0.118061 -0.287188 0 127 127
-0.170539 -0.000296 0.454226 76 0 153
-0.645718 0.537042 -0.165219 127 0 127
0.007353 0.277272 0.274198 127 0 127
-0.664105 0.285711 -0.318595 127 0 127
0.641412 0.359775 0.151236 0 127 127
0.371719 0.277272 0.092362 127 0 127
0.218374 -0.134568 0.426645 76 0 153
-0.666404 0.527825 0.447438 76 0 153
-0.197670 0.114793 -0.428377 76 153 0
-0.313642 -0.397801 -0.428377 76 153 0
-0.645718 0.535141 -0.063171 127 0 127
-0.183105 0.182226 0.454226 76 0 153
0.360054 0.330054 -0.414587 76 153 0
-0.429182 0.437673 0.454226 76 0 153
-0.056297 0.249690 0.164559 127 0 127
-0.068477 -0.434628 0.426645 76 0 153
-0.664105 -0.589000 -0.405406 0 255 0
-0.645718 0.191115 0.119031 127 0 127
0.641412 -0.209328 -0.430529 0 127 127
0.599357 -0.430650 0.121855 153 0 76
0.029989 -0.394918 0.454226 76 0 153
-0.037056 -0.430650 0.178698 153 0 76
-0.664105 0.172919 -0.305558 127 0 127
-0.611675 0.277272 0.230367 127 0 127
-0.623477 0.457493 -0.428377 76 153 0
0.563422 0.484486 0.426645 76 0 153
0.641412 0.520840 -0.058994 0 127 127
0.641412 -0.530238 -0.396581 0 0 255
-0.321863 -0.510291 0.311722 127 127 0
0.317617 0.463097 -0.428377 76 153 0
-0.664105 0.226906 -0.247759 127 0 127
-0.391205 -0.590038 -0.455959 255 0 0
0.480373 -0.635878 -0.455959 255 0 0
-0.590094 -0.118061 -0.013013 0 127 127
0.287108 -0.118061 0.260268 0 127 127
-0.604264 -0.090480 -0.088400 0 127 127
-0.042699 -0.118061 -0.131536 0 127 127
-0.032008 0.072890 -0.428377 76 153 0
-0.328003 -0.118061 0.171596 0 127 127
0.540285 -0.090480 0.355608 0 127 127
0.304199 0.249690 -0.335078 127 0 127
0.121034 -0.430650 0.255223 153 0 76
-0.304727 -0.118061 0.297377 0 127 127
-0.664105 -0.185966 -0.193000 127 0 127
-0.169615 0.496479 -0.414587 76 153 0
0.619840 0.599054 -0.014470 153 0 76
0.039841 0.277272 0.019810 127 0 127
0.157586 0.249690 0.083680 127 0 127
0.374430 0.277272 -0.387930 127 0 127
0.173508 0.491580 0.426645 76 0 153
-0.317863 -0.473824 0.399063 0 0 255
0.590647 -0.118061 0.387354 0 127 127
-0.664105 -0.284771 0.176263 127 0 127
-0.483515 0.484463 0.454226 76 0 153
0.641412 -0.448749 0.016672 0 127 127
0.361121 -0.430650 0.073183 153 0 76
-0.051311 -0.511206 -0.455959 255 0 0
0.526217 -0.034093 -0.414587 76 153 0
0.535165 -0.432529 0.399063 0 0 255
-0.645718 -0.256451 -0.334448 127 0 127
-0.157015 0.529746 0.426645 76 0 153
-0.300952 -0.563681 -0.455959 255 0 0
0.454623 0.277272 -0.203363 127 0 127
-0.664105 0.135290 -0.349506 127 0 127
-0.473461 0.118495 -0.414587 76 153 0
-0.173472 -0.118061 -0.144009 0 127 127
-0.506980 0.277272 -0.256273 127 0 127
0.026902 -0.430650 0.135079 153 0 76
-0.542427 0.264185 0.454226 76 0 153
0.595128 0.100380 0.454226 76 0 153
-0.348618 0.249690 -0.113484 127 0 127
-0.604139 0.251870 0.399063 127 0 127
-0.625923 0.277272 -0.102554 127 0 127
-0.620143 0.599054 -0.413432 76 153 0
-0.468176 -0.090480 -0.137359 0 127 127
0.275089 0.277272 0.330920 127 0 127
0.540772 0.599054 0.011473 153 0 76
0.022975 0.249690 0.125953 127 0 127
0.553697 -0.118061 -0.386122 0 127 127
-0.462876 0.249690 -0.195522 127 0 127
0.641412 -0.231158 -0.108418 0 127 127
0.118426 -0.090480 -0.348742 0 127 127
-0.645718 0.304913 -0.222109 127 0 127
-0.145226 -0.118061 0.174721 0 127 127
0.641412 0.560848 0.080273 0 127 127
0.110763 0.489007 0.454226 76 0 153
0.361923 0.277272 -0.109007 127 0 127
-0.422629 0.457748 -0.428377 76 153 0
-0.546877 0.499577 0.454226 76 0 153
0.007151 -0.430650 -0.375691 153 0 76
-0.051529 0.249690 -0.193109 127 0 127
-0.018890 -0.118061 0.327181 0 127 127
-0.035797 0.249690 -0.255670 127 0 127
-0.053004 -0.501335 0.311722 127 127 0
0.159084 0.249690 0.313350 127 0 127
0.444031 0.249690 0.057964 127 0 127
-0.645718 0.001995 -0.327266 127 0 127
-0.645718 -0.414662 0.132766 127 0 127
0.238664 -0.118061 0.259174 0 127 127
0.205041 0.249690 -0.170878 127 0 127
-0.117275 -0.047436 0.454226 76 0 153
0.185881 0.305336 0.426645 76 0 153
0.608798 -0.090480 0.289221 0 127 127
-0.533474 -0.639635 0.311722 127 127 0
-0.221307 -0.359275 0.426645 76 0 153
0.641412 -0.175783 -0.256559 0 127 127
-0.645718 -0.037208 -0.370494 127 0 127
0.641412 0.346239 0.009264 0 127 127
-0.645718 0.091081 -0.408596 127 0 127
0.058563 -0.118061 -0.300218 0 127 127
0.522455 0.580667 -0.205627 153 0 76
0.294896 -0.090480 0.066913 0 127 127
-0.641364 -0.430650 0.078974 127 0 127
-0.451183 0.039988 -0.414587 76 153 0
-0.645718 0.213375 -0.439749 76 153 0
-0.403061 0.244367 0.426645 76 0 153
-0.289096 -0.430650 -0.156417 153 0 76
-0.664105 -0.140537 -0.045549 127 0 127
0.057939 -0.118061 0.111517 0 127 127
-0.167550 -0.090480 -0.374653 0 127 127
-0.191919 0.277272 0.310363 127 0 127
-0.339880 -0.118061 -0.173711 0 127 127
-0.593248 -0.090480 0.244056 0 127 127
-0.645718 -0.355539 0.179102 127 0 127
-0.514082 -0.118061 0.352135 0 127 127
0.641412 0.275104 -0.034007 0 127 127
-0.104107 0.277272 -0.146764 127 0 127
0.308277 0.223747 -0.414587 76 153 0
-0.645718 -0.459663 -0.248580 127 0 127
-0.664105 -0.108112 0.277631 127 0 127
0.623025 0.511669 -0.009109 0 127 127
-0.645718 -0.356406 -0.098065 127 0 127
0.236835 0.249690 -0.346512 127 0 127
-0.594558 -0.090480 0.304538 0 127 127
-0.428811 -0.118061 0.220579 0 127 127
-0.461464 -0.430650 -0.063760 153 0 76
-0.645718 -0.054169 -0.135464 127 0 127
0.441096 -0.233416 0.454226 76 0 153
-0.593527 0.160993 -0.414587 76 153 0
0.135278 -0.118061 0.304602 0 127 127
0.252283 0.626636 0.424824 255 0 0
-0.645718 0.347032 0.048003 127 0 127
-0.442981 -0.365889 0.454226 76 0 153
-0.167128 -0.255797 0.426645 76 0 153
-0.664105 -0.452940 0.269579 127 0 127
-0.033645 -0.090480 -0.235307 0 127 127
0.623025 -0.467966 -0.405448 0 127 127
-0.240792 0.249690 -0.154889 127 0 127
-0.011834 -0.090480 -0.047270 0 127 127
-0.664105 -0.603751 -0.198639 0 255 0
-0.408054 -0.315655 0.454226 76 0 153
0.409666 -0.382729 0.454226 76 0 153
-0.664105 -0.522064 -0.220923 0 255 0
0.043816 0.240986 0.411701 76 0 153
0.623025 -0.174990 0.112550 0 127 127
0.623025 0.599350 -0.299288 153 0 76
0.055076 -0.118061 0.200102 0 127 127
-0.266694 0.249690 0.164178 127 0 127
-0.288956 -0.463656 -0.455959 255 0 0
0.357919 0.465038 -0.414587 76 153 0
0.018545 0.542501 -0.455959 76 153 0
0.118514 -0.118061 0.077860 0 127 127
-0.621265 0.399894 0.454226 76 0 153
0.142626 0.037918 0.454226 76 0 153
0.641412 0.519536 0.096606 0 127 127
0.367675 0.277272 -0.171004 127 0 127
0.319784 -0.423348 0.426645 0 0 255
-0.253624 0.249690 0.271628 127 0 127
0.442177 0.277272 -0.064635 127 0 127
0.623025 0.175370 -0.348693 0 127 127
0.486043 0.588229 -0.428377 76 153 0
-0.645718 0.429350 -0.056910 127 0 127
-0.645718 -0.312154 0.234499 127 0 127
0.643711 -0.288374 0.452182 76 0 153
-0.311616 0.103535 0.454226 76 0 153
-0.645718 0.094888 0.198419 127 0 127
0.384444 0.577711 0.426645 255 0 0
0.292109 -0.430650 -0.188663 153 0 76
0.641412 -0.406395 -0.331771 0 127 127
-0.256923 -0.090480 0.225013 0 127 127
-0.530560 0.277272 -0.370828 127 0 127
-0.664105 0.443499 0.235075 127 0 127
-0.619254 -0.118061 0.047635 0 127 127
0.587973 0.249690 0.152153 127 0 127
-0.535392 0.595896 0.157012 204 51 127
0.551632 0.563101 0.454226 76 0 153
0.641412 0.152989 -0.270765 0 127 127
-0.481737 0.217971 0.454226 76 0 153
-0.645718 -0.203668 -0.262626 127 0 127
-0.103388 -0.118061 0.236898 0 127 127
0.541908 0.249690 0.171763 127 0 127
0.492576 0.619740 0.450127 76 0 153
0.623025 -0.473339 0.103803 0 127 127
-0.119236 -0.167719 -0.428377 76 153 0
0.641412 0.521422 -0.272506 0 127 127
-0.329864 0.277272 0.109200 127 0 127
