ply
format ascii 1.0
element vertex 1283
property float x
property float y
property float z
property uchar red
property uchar green
property uchar blue
end_header
0.713878 0.256767 -0.057377 76 153 0
-0.392729 -0.447410 0.190816 0 255 0
0.107295 0.235428 0.178772 76 153 0
-0.059128 0.046579 -0.234311 0 127 127
0.409492 0.256767 -0.055499 76 153 0
-0.662519 -0.256983 0.170629 76 153 0
-0.665383 -0.444047 -0.207137 76 0 153
-0.837626 0.235428 -0.046918 76 153 0
0.203465 0.036267 -0.212792 0 0 255
-0.236585 0.036267 0.037627 76 153 0
-0.686739 -0.378252 -0.133157 76 0 153
0.548829 0.235428 0.297469 76 153 0
0.054074 -0.426071 0.032963 0 255 0
-0.662522 -0.078733 0.218352 76 153 0
0.040218 -0.030787 0.016767 153 76 0
-0.284389 0.036267 0.165190 76 153 0
-0.663960 0.064507 0.056070 127 0 127
0.707389 0.177803 -0.166222 153 0 76
-0.701619 0.235428 -0.150170 255 0 0
-0.683883 0.235428 0.279276 76 153 0
0.698161 0.191223 0.087935 153 0 76
-0.686739 -0.342597 -0.174772 76 153 0
-0.618185 0.235428 0.282893 76 153 0
-0.662519 -0.246243 0.130138 76 153 0
0.172042 0.301962 -0.255650 0 127 127
0.311933 0.105942 -0.212973 204 51 127
-0.800941 0.256767 -0.023197 76 153 0
-0.624435 -0.426071 -0.054547 0 255 0
-0.088630 0.235428 0.249926 76 153 0
-0.462560 -0.447410 0.023370 0 255 0
-0.186215 0.043380 0.127089 76 153 0
0.481914 0.043380 0.211010 0 0 255
0.687491 0.003396 -0.077726 76 0 153
-0.677987 0.235428 0.237453 76 153 0
-0.367258 0.036267 -0.173918 76 153 0
0.153268 0.043380 0.106661 0 0 255
0.036661 0.004608 -0.214852 76 0 153
-0.564133 -0.426071 0.203179 0 255 0
0.536496 0.235428 -0.028541 76 153 0
0.239662 0.043380 -0.184852 0 0 255
-0.631263 0.043380 0.032012 76 153 0
-0.045927 -0.426071 0.071458 0 255 0
-0.881246 0.256767 -0.107874 76 153 0
-0.704262 0.256767 0.262044 76 153 0
0.062575 0.284160 -0.234311 0 127 127
-0.442658 0.043380 -0.024913 76 153 0
0.140784 -0.447410 0.001764 0 255 0
-0.604011 -0.447410 0.060037 0 255 0
0.259870 -0.023408 -0.234311 0 127 127
0.617078 0.039921 -0.227199 0 0 255
-0.651449 0.256767 0.202964 76 153 0
0.213626 0.235428 0.008467 76 153 0
-0.321972 0.256767 0.249594 76 153 0
0.384780 0.145511 -0.255650 0 127 127
-0.663960 -0.477205 0.180185 204 51 127
0.360453 -0.447410 -0.017785 0 255 0
0.303659 0.256767 0.032032 76 153 0
0.221817 0.043380 -0.125178 0 0 255
0.003365 0.119771 -0.226613 127 127 0
-0.161401 0.256767 0.059712 76 153 0
0.292522 0.036267 0.127482 0 0 255
0.157358 -0.426071 -0.196465 0 255 0
-0.686739 -0.391693 0.159620 153 76 0
0.116906 0.256767 -0.145572 76 153 0
-0.288862 -0.447410 -0.000762 0 255 0
-0.668312 0.256767 -0.011836 76 153 0
0.625328 -0.426071 0.038196 0 255 0
0.100119 -0.447410 -0.089174 0 255 0
-0.263210 0.132891 -0.255650 0 127 127
0.229726 -0.447410 -0.227730 0 255 0
0.411524 0.286760 -0.234311 0 127 127
0.388693 0.235428 0.127975 76 153 0
0.731270 -0.083528 -0.236366 153 0 76
0.385438 -0.426071 -0.192657 0 255 0
-0.315852 0.036267 0.208735 76 153 0
-0.685722 -0.532179 0.235463 153 76 0
0.706369 0.256767 0.048356 76 153 0
-0.707860 0.235428 0.199186 76 153 0
0.258518 -0.447410 -0.186133 0 255 0
-0.212509 0.256767 -0.145308 76 153 0
-0.024975 0.235428 0.136072 76 153 0
-0.662519 -0.262704 -0.070535 76 153 0
0.008209 0.111029 0.208632 127 127 0
-0.077065 0.256767 -0.082561 76 153 0
-0.406970 0.235428 0.305399 76 153 0
0.597794 0.165341 0.235140 153 76 0
-0.628542 0.235428 -0.065183 76 153 0
-0.058673 0.043380 -0.074230 76 153 0
-0.611562 -0.426071 -0.172260 0 255 0
0.431961 -0.426071 -0.238675 0 255 0
-0.670983 0.256767 0.308884 76 153 0
0.093694 -0.426071 0.091311 0 255 0
0.036661 0.178873 0.129644 76 0 153
-0.566130 0.256767 0.138694 76 153 0
-0.132879 -0.447410 -0.054906 0 255 0
0.011711 0.291255 -0.255650 0 127 127
-0.308218 0.242476 -0.234311 0 127 127
0.040218 0.177345 0.184380 76 0 153
-0.016513 0.052642 0.235140 0 255 0
-0.162314 0.098201 0.213801 0 255 0
0.266520 0.256767 -0.076678 76 153 0
0.008209 0.037911 -0.178251 76 0 153
-0.491555 -0.426071 0.135845 0 255 0
0.730695 -0.352655 0.110397 153 0 76
0.008209 0.203695 0.204034 76 0 153
-0.662519 -0.264559 0.103730 76 153 0
0.177460 0.235428 0.000825 76 153 0
-0.443299 -0.447410 -0.013058 0 255 0
-0.027149 -0.447410 -0.134415 0 255 0
0.449829 -0.447410 -0.194030 0 255 0
0.243198 0.036267 0.033863 0 0 255
0.042640 -0.426071 -0.020613 0 255 0
-0.660447 0.180148 -0.227199 0 127 127
0.409070 -0.034895 -0.234311 0 127 127
-0.371157 0.235428 0.211797 76 153 0
0.205496 -0.426071 -0.023806 0 255 0
-0.475258 0.235428 -0.070916 76 153 0
0.212285 0.249748 -0.255650 0 127 127
0.653083 -0.447410 0.206579 0 255 0
-0.027231 0.256767 -0.087515 76 153 0
0.731312 -0.075093 -0.103373 153 0 76
-0.033629 -0.426071 -0.041122 0 255 0
0.358973 0.310117 -0.234311 0 127 127
0.731609 0.034124 -0.206491 153 0 76
-0.061952 0.256767 -0.167753 76 153 0
0.078606 -0.447410 -0.138164 0 255 0
-0.243031 -0.447410 0.132109 0 255 0
-0.163974 -0.426071 0.151964 0 255 0
0.074295 0.163443 -0.227199 204 51 127
-0.272891 -0.020240 0.235140 255 0 0
-0.548752 0.106187 0.235140 0 255 0
-0.487353 0.235428 0.046806 76 153 0
0.252778 0.235428 0.026896 76 153 0
0.036661 0.084908 -0.096096 76 0 153
0.529900 0.256767 0.104435 76 153 0
0.686808 0.043380 -0.047914 0 0 255
-0.115523 0.256767 0.205111 76 153 0
0.555683 -0.447410 -0.187483 0 255 0
-0.289586 -0.426071 0.025488 0 255 0
0.129820 0.235428 0.319304 76 153 0
0.730658 -0.303416 0.082534 153 0 76
-0.415919 0.282309 -0.234311 0 127 127
-0.474037 -0.007908 -0.234311 0 127 127
-0.502873 0.036267 -0.122490 76 153 0
-0.642790 0.235428 0.162795 76 153 0
-0.180159 0.279828 -0.234311 0 127 127
0.036661 -0.023954 -0.156308 76 0 153
0.360464 0.078839 0.213801 153 76 0
0.036661 0.057662 0.041490 76 0 153
0.549506 0.256767 0.259984 76 153 0
-0.120295 -0.447410 0.073662 0 255 0
0.479506 0.177086 -0.234311 0 127 127
-0.547390 0.235428 0.216600 76 153 0
-0.574119 -0.021626 0.235140 255 0 0
-0.301912 0.256767 0.158970 76 153 0
0.927878 0.256767 0.072638 76 153 0
-0.312538 -0.047258 -0.255650 0 127 127
0.207597 -0.426071 0.206827 0 255 0
-0.435395 0.256767 0.280742 76 153 0
0.632570 0.235428 0.267020 76 153 0
-0.609342 0.091973 0.213801 0 255 0
0.045691 0.235428 -0.089573 76 153 0
0.158216 0.133532 -0.227199 204 51 127
0.707389 -0.327071 -0.100098 153 0 76
-0.544933 -0.426071 -0.021257 0 255 0
0.068425 0.036267 -0.164557 0 0 255
0.469932 0.256767 -0.180363 76 153 0
0.418137 0.201587 -0.234311 0 127 127
0.126484 0.035059 0.235140 153 76 0
0.708830 -0.456943 -0.159742 0 0 255
-0.284182 0.080507 -0.234311 0 127 127
0.495785 0.199708 0.235140 153 76 0
0.569911 -0.023116 0.235140 255 0 0
-0.019368 0.043380 0.052653 76 153 0
-0.625832 0.189737 0.235140 0 255 0
0.434318 0.229732 0.213801 153 76 0
0.361650 0.195878 -0.227199 204 51 127
-0.558038 0.165701 -0.212973 0 127 127
0.436602 0.098965 0.213801 153 76 0
0.601119 0.235428 -0.252926 0 127 127
0.221528 0.235428 -0.154015 76 153 0
0.616880 -0.447410 0.072788 0 255 0
-0.662683 -0.041261 -0.109294 76 153 0
0.061556 -0.003779 -0.156643 153 76 0
-0.723607 0.256767 0.170002 76 153 0
0.054443 0.025122 0.102366 76 0 153
-0.317295 -0.034883 0.213801 255 0 0
0.130842 0.043380 -0.058918 0 0 255
-0.288730 0.235428 -0.057538 76 153 0
-0.254100 0.043380 -0.020460 76 153 0
0.804563 0.256767 -0.141409 76 153 0
0.011766 -0.013504 -0.167765 76 0 153
-0.182611 0.256767 -0.165115 76 153 0
-0.218190 0.256767 0.016134 76 153 0
-0.494513 0.256767 0.208956 76 153 0
-0.403681 -0.000529 0.235140 255 0 0
0.334664 -0.447410 0.073133 0 255 0
0.512904 0.129520 0.235140 153 76 0
0.674391 -0.447410 -0.239301 0 255 0
0.730610 0.202923 0.056706 153 0 76
-0.308248 -0.447410 0.082565 0 255 0
0.528513 0.278255 -0.255650 0 127 127
0.731610 -0.344601 -0.123714 153 0 76
-0.006016 0.204796 -0.013006 127 127 0
0.222330 0.164795 -0.212973 204 51 127
-0.039511 0.022093 -0.234311 0 127 127
0.200802 0.256767 0.237782 76 153 0
-0.016463 -0.426071 0.160037 0 255 0
0.708830 0.007184 -0.034703 76 0 153
0.687491 -0.017918 -0.153187 76 0 153
-0.592263 0.235428 0.022768 76 153 0
-0.596258 -0.041372 -0.255650 0 127 127
-0.556297 0.256767 0.107773 76 153 0
-0.537085 0.208238 -0.212973 0 127 127
0.279895 0.231789 -0.227199 204 51 127
0.348461 0.256767 -0.231905 76 153 0
-0.688922 0.214090 0.110603 255 0 0
-0.766919 0.256767 -0.042959 76 153 0
-0.490327 0.235428 0.349726 76 153 0
0.069717 0.043380 -0.063888 0 0 255
-0.210146 0.215041 -0.227199 0 127 127
-0.662519 -0.197118 0.024053 76 153 0
-0.528229 0.276970 -0.234311 0 127 127
0.376627 0.115291 -0.227199 204 51 127
0.730610 0.154921 0.167455 153 0 76
0.008209 0.110612 -0.075456 127 127 0
0.123731 -0.426071 -0.119640 0 255 0
0.040218 0.147567 -0.123557 76 0 153
-0.662519 -0.113167 0.169354 76 153 0
0.569957 0.256767 -0.177149 76 153 0
0.185259 -0.447410 0.099486 0 255 0
0.845381 0.256767 0.321224 76 153 0
-0.570907 0.237182 -0.234311 76 153 0
-0.067462 -0.024167 0.235140 255 0 0
-0.255143 -0.447410 -0.012548 0 255 0
-0.185440 0.169035 0.235140 0 255 0
-0.551944 -0.447410 0.078753 0 255 0
-0.515225 -0.447410 -0.103945 0 255 0
0.612013 0.235428 0.148130 76 153 0
0.623857 0.256767 0.299852 76 153 0
0.333559 -0.447410 -0.238187 0 255 0
0.259904 0.256767 -0.014633 76 153 0
0.558819 0.248312 -0.255650 0 127 127
-0.451103 0.256767 -0.023551 76 153 0
-0.323472 0.195379 -0.234311 0 127 127
-0.174467 0.256767 0.092200 76 153 0
0.707389 -0.237798 -0.062970 153 0 76
-0.456336 0.074379 -0.227199 0 127 127
0.809894 0.235428 -0.010713 76 153 0
-0.686739 -0.235351 0.002947 76 153 0
0.650046 0.118020 0.235140 153 76 0
-0.082101 0.047033 -0.255650 0 127 127
0.156366 0.036267 -0.108273 0 0 255
0.036661 0.082676 -0.026916 76 0 153
0.588246 -0.447410 -0.021688 0 255 0
-0.389612 0.140344 0.235140 0 255 0
-0.686739 -0.466329 -0.206337 76 0 153
0.054443 0.214846 -0.134984 76 0 153
0.060184 0.256767 0.107660 76 153 0
0.043721 0.235428 0.339158 76 153 0
0.707389 -0.260829 -0.096624 153 0 76
0.712386 0.050715 0.090454 153 0 76
-0.082552 0.256767 0.029668 76 153 0
0.061556 -0.020036 0.104829 153 76 0
-0.515470 0.235428 -0.065178 76 153 0
-0.424611 0.256767 0.135852 76 153 0
-0.578977 0.313670 -0.254433 0 127 127
0.760023 0.214090 -0.141644 0 255 0
-0.607936 -0.426071 0.147829 0 255 0
-0.017632 0.202813 -0.227199 0 127 127
0.011766 -0.028144 -0.194214 76 0 153
0.890243 0.256767 0.322857 76 153 0
0.712386 0.062939 0.199810 153 0 76
-0.686739 0.087168 -0.156589 76 153 0
-0.240323 0.264143 -0.255650 0 127 127
-0.454280 -0.014100 -0.255650 0 127 127
-0.636775 -0.447410 0.058491 0 255 0
0.058289 -0.447410 0.059063 0 255 0
0.039695 0.146706 -0.255650 0 127 127
-0.881632 0.256767 0.071618 76 153 0
0.269439 0.064612 -0.227199 204 51 127
-0.030362 0.256767 -0.193718 76 153 0
0.670291 0.235428 0.284134 76 153 0
0.123874 0.043380 0.187199 0 0 255
0.148880 0.256767 0.090298 76 153 0
0.363081 -0.426071 0.074339 0 255 0
-0.726572 0.256767 0.102012 76 153 0
-0.256926 0.235428 -0.156121 76 153 0
-0.462953 0.036267 -0.142457 76 153 0
0.309633 0.256767 0.321231 76 153 0
0.354983 0.145460 -0.255650 0 127 127
-0.443739 0.256767 0.344844 76 153 0
0.256552 -0.042581 0.233531 255 0 0
-0.038079 0.313670 -0.254503 0 127 127
-0.436702 0.040008 -0.255650 0 127 127
-0.068750 0.259183 -0.234311 0 127 127
-0.649734 0.206988 0.163552 127 0 127
-0.663401 -0.163116 -0.220066 76 153 0
0.687491 -0.459344 0.207833 0 0 255
-0.649734 0.048657 0.121509 127 0 127
-0.663960 -0.452752 0.042039 204 51 127
0.687491 -0.014105 -0.114557 76 0 153
0.628061 -0.447410 -0.200104 0 255 0
0.008209 -0.024035 -0.088776 76 0 153
-0.686739 -0.045676 0.171173 76 153 0
0.605816 0.265232 -0.234311 0 127 127
-0.101444 -0.447410 -0.160786 0 255 0
-0.693094 0.235428 -0.094352 255 0 0
-0.686739 0.012530 0.133605 76 153 0
0.434857 0.136729 -0.234311 0 127 127
0.054443 0.201855 -0.191761 76 0 153
-0.662554 -0.042961 -0.198814 76 153 0
-0.377372 0.148985 -0.234311 0 127 127
-0.669113 0.279261 -0.234311 0 127 127
-0.040432 -0.037731 0.213801 255 0 0
0.036661 0.183664 0.042847 76 0 153
-0.583724 -0.447410 0.191117 0 255 0
-0.596804 0.002875 -0.234311 0 127 127
0.061208 0.235428 0.185349 76 153 0
-0.686739 -0.292014 0.168925 76 153 0
0.545254 0.178022 -0.255650 0 127 127
0.392023 0.151794 0.213801 153 76 0
-0.644693 -0.034862 0.189985 153 0 76
0.412780 -0.426071 0.030924 0 255 0
-0.654150 0.256767 0.132243 76 153 0
-0.578474 0.088136 -0.227199 0 127 127
0.139919 0.256767 0.132232 76 153 0
-0.006016 0.087356 -0.155609 127 127 0
0.402455 -0.426071 0.220368 0 255 0
-0.686739 -0.196603 0.144871 76 153 0
-0.009573 -0.002540 0.105853 76 0 153
0.036661 0.037806 -0.208407 76 0 153
-0.814950 0.256767 -0.168821 76 153 0
0.550291 0.225755 -0.234311 0 127 127
0.621972 0.256767 -0.152152 76 153 0
-0.097733 -0.447410 -0.034831 0 255 0
-0.686730 -0.180854 -0.244588 76 153 0
-0.303459 0.036267 0.018396 76 153 0
0.801698 0.235428 0.152534 76 153 0
0.403822 0.235428 0.335964 76 153 0
0.607520 -0.426071 -0.138763 0 255 0
0.008209 0.214069 -0.172404 127 127 0
0.597518 0.188733 0.213801 153 76 0
0.284001 -0.426071 0.103611 0 255 0
0.500005 -0.447410 -0.075929 0 255 0
-0.314681 0.137293 -0.234311 0 127 127
-0.448063 0.170741 -0.227199 0 127 127
0.307170 0.192719 0.213801 153 76 0
0.731610 0.192151 -0.199769 153 0 76
0.856490 0.256767 0.206008 76 153 0
0.824925 0.254835 -0.234311 0 127 127
0.421377 -0.447410 0.072144 0 255 0
0.373610 0.235428 0.258267 76 153 0
-0.663110 -0.226248 -0.205791 76 153 0
0.306327 0.043380 -0.028473 0 0 255
0.731280 -0.212525 0.215570 153 0 76
0.449593 0.285818 -0.234311 0 127 127
-0.686739 0.180299 0.004208 76 153 0
-0.132843 0.103662 0.235140 0 255 0
-0.479733 0.235428 0.008207 76 153 0
0.888801 0.256767 0.277429 76 153 0
0.763722 0.273215 -0.255650 0 127 127
-0.184571 -0.426071 -0.153942 0 255 0
-0.164698 0.235428 -0.143209 76 153 0
-0.908110 0.255600 -0.255650 0 127 127
-0.593583 -0.428018 0.235140 0 255 0
-0.257887 0.256767 0.235992 76 153 0
0.179800 0.060337 -0.255650 0 127 127
0.225700 0.054677 -0.255650 0 127 127
0.011216 0.235428 -0.093049 76 0 153
0.139207 -0.034012 0.235140 255 0 0
-0.400168 -0.426071 -0.090970 0 255 0
0.241564 0.163232 -0.234311 0 127 127
-0.543322 -0.447410 0.115400 0 255 0
-0.613688 -0.070426 -0.243771 0 127 127
0.620107 0.043380 -0.183313 0 0 255
-0.309487 0.235428 0.080238 76 153 0
-0.380638 0.256767 0.173016 76 153 0
0.465568 -0.001954 -0.234311 0 127 127
0.217460 -0.426071 -0.113007 0 255 0
0.849130 0.235428 0.166862 76 153 0
0.328553 0.034330 0.235140 153 76 0
0.525785 0.104987 -0.227199 204 51 127
-0.484506 0.030763 -0.234311 0 127 127
-0.425523 0.060122 0.235140 0 255 0
0.008209 0.116707 -0.009816 127 127 0
0.940358 0.256767 0.033830 76 153 0
0.461808 0.256767 0.166485 76 153 0
0.126539 0.123997 -0.227199 204 51 127
0.418767 0.043380 0.164527 0 0 255
0.879636 0.238148 0.363172 76 153 0
-0.233881 0.256767 0.326220 76 153 0
0.036661 0.154764 0.099877 76 0 153
-0.466904 0.235428 0.259153 76 153 0
0.777814 0.256767 0.274337 76 153 0
-0.260551 -0.447410 0.231369 0 255 0
0.289141 -0.426071 -0.099801 0 255 0
-0.649734 0.147228 -0.181006 127 0 127
-0.785715 0.301484 -0.255650 0 127 127
-0.491113 0.235428 0.172259 76 153 0
0.232060 0.097099 0.213801 153 76 0
0.222819 -0.426071 0.160270 0 255 0
-0.469793 0.153225 -0.234311 0 127 127
0.787072 0.214787 0.171860 0 255 0
0.036661 0.078149 0.088270 76 0 153
0.787072 0.215143 0.005318 0 255 0
-0.511183 0.069198 -0.227199 0 127 127
-0.717351 0.235428 -0.005777 76 153 0
-0.554858 -0.054188 -0.234311 0 127 127
0.731610 -0.014512 0.022697 153 0 76
-0.727605 0.214090 0.067235 255 0 0
-0.686739 0.069540 0.149179 76 153 0
-0.311514 -0.428648 0.235140 0 255 0
0.630960 0.235428 -0.007115 76 153 0
-0.525448 0.256767 -0.110124 76 153 0
-0.624682 0.235428 0.123458 76 153 0
0.712386 0.097639 0.128781 153 0 76
-0.101960 -0.426071 -0.089346 0 255 0
0.731610 -0.433175 -0.190755 153 0 76
0.707389 -0.133066 -0.176249 153 0 76
-0.483992 0.256767 0.143289 76 153 0
0.731211 -0.218938 -0.222511 153 0 76
0.316841 0.060770 0.213801 153 76 0
0.703741 0.043380 -0.152758 153 0 76
0.707389 -0.193153 -0.100623 153 0 76
0.571604 0.081815 -0.212973 204 51 127
-0.125228 -0.447410 0.043100 0 255 0
0.929131 0.235428 -0.030228 76 153 0
-0.263005 -0.447410 0.026382 0 255 0
-0.654753 -0.034862 0.100419 153 0 76
-0.443583 0.223531 -0.212973 0 127 127
0.600819 0.036267 0.008724 0 0 255
0.708830 -0.465165 0.146018 0 0 255
0.562662 0.256767 0.110907 76 153 0
-0.686739 0.106573 -0.003626 76 153 0
0.128953 0.036267 -0.090598 0 0 255
-0.297472 0.235428 -0.012948 76 153 0
0.008209 0.028803 -0.205394 76 0 153
0.408207 0.256767 -0.149605 76 153 0
0.698161 0.139760 -0.165551 153 0 76
0.707389 0.035029 0.206900 153 0 76
0.045489 0.043380 0.190877 0 0 255
-0.487233 0.106761 0.235140 0 255 0
-0.671961 -0.131942 0.236475 76 153 0
-0.485351 -0.426071 -0.150301 0 255 0
0.443179 -0.426071 0.104651 0 255 0
0.694604 0.042724 -0.080640 0 0 255
0.522090 0.044412 -0.234311 0 127 127
-0.314382 -0.426071 -0.241415 0 255 0
-0.335255 0.067740 -0.227199 0 127 127
0.008209 0.150829 0.192075 76 0 153
-0.597405 -0.447410 -0.108799 0 255 0
-0.650889 -0.426071 -0.127331 0 255 0
-0.802720 0.256767 -0.136661 76 153 0
-0.587815 0.235428 0.267170 76 153 0
0.620227 0.043380 0.079985 0 0 255
0.062147 -0.447410 0.159651 0 255 0
0.542212 -0.070426 -0.244919 0 127 127
-0.054650 -0.426071 -0.127533 0 255 0
0.294175 -0.019329 -0.234311 0 127 127
0.293519 0.090706 0.213801 153 76 0
-0.531971 -0.011816 -0.234311 0 127 127
-0.009573 0.017723 0.158735 76 0 153
-0.277473 0.256767 0.038972 76 153 0
-0.379272 -0.001101 -0.255650 0 127 127
0.731610 -0.113667 -0.040270 153 0 76
0.731610 0.051476 -0.045909 153 0 76
-0.218299 -0.447410 -0.025762 0 255 0
0.545560 0.256767 0.351196 76 153 0
0.036661 0.076583 0.207387 76 0 153
0.317688 0.036267 -0.098240 0 0 255
0.349679 0.043380 0.143591 0 0 255
0.011766 -0.020869 -0.139019 76 0 153
0.707389 -0.261002 -0.149576 153 0 76
0.717792 0.235428 -0.144541 76 153 0
-0.320233 0.043380 0.149310 76 153 0
-0.662519 -0.115469 0.103013 76 153 0
-0.663960 0.124595 0.068467 127 0 127
-0.201580 0.306684 -0.234311 0 127 127
0.373048 -0.003622 0.213801 255 0 0
-0.399886 -0.447410 0.071591 0 255 0
-0.662519 -0.073695 0.087950 76 153 0
-0.008629 -0.034862 0.025155 76 0 153
0.647584 -0.447410 0.102698 0 255 0
0.171211 0.256767 0.297487 76 153 0
-0.228474 -0.447410 0.105233 0 255 0
0.660524 0.036267 0.190640 0 0 255
0.480701 0.145975 -0.255650 0 127 127
0.712386 0.172035 -0.080345 153 0 76
0.207110 0.036267 0.104084 0 0 255
0.061556 0.015557 0.033055 153 76 0
0.341927 0.107603 -0.212973 204 51 127
-0.593618 0.256767 -0.134925 76 153 0
0.825734 0.256767 0.341795 76 153 0
-0.856148 0.235428 -0.242441 0 127 127
0.457259 0.094444 -0.234311 0 127 127
-0.766128 0.235428 -0.186764 76 153 0
0.731026 -0.233657 -0.038935 153 0 76
0.712386 0.082079 -0.089242 153 0 76
-0.338125 -0.447410 0.103355 0 255 0
0.707891 -0.549073 0.168428 204 51 127
0.156746 -0.426071 0.011640 0 255 0
-0.659536 0.037254 -0.227199 76 153 0
0.001118 -0.034862 0.059429 76 0 153
0.373005 0.202985 -0.255650 0 127 127
-0.063627 0.256767 0.194056 76 153 0
0.725583 0.256767 0.142612 76 153 0
0.437055 -0.426071 0.157088 0 255 0
-0.825659 0.256767 0.064401 76 153 0
0.026363 -0.426071 0.086973 0 255 0
-0.077671 -0.447410 -0.127215 0 255 0
-0.473079 -0.447410 -0.042064 0 255 0
-0.335924 0.256767 0.181939 76 153 0
-0.200179 0.235428 0.360390 76 153 0
0.223312 0.256767 0.303320 76 153 0
0.568317 -0.426071 -0.214670 0 255 0
-0.686739 -0.121290 -0.219587 76 153 0
0.640975 0.187990 0.213801 153 76 0
-0.676813 -0.010963 -0.184498 76 0 153
-0.470226 0.256767 -0.088898 76 153 0
-0.651444 -0.426071 0.133932 0 255 0
-0.009693 0.043380 0.200732 76 153 0
0.646006 -0.070426 -0.254939 0 127 127
0.731391 0.098558 0.041683 153 0 76
0.214899 0.006698 0.235140 255 0 0
-0.006487 -0.447410 0.207385 0 255 0
0.313279 0.282959 -0.234311 0 127 127
0.651062 0.054023 -0.227199 204 51 127
0.590837 0.197095 -0.234311 0 127 127
0.440883 0.036695 -0.234311 0 127 127
-0.457449 0.076859 -0.255650 0 127 127
-0.311091 -0.447410 -0.126377 0 255 0
0.942926 0.235428 -0.123387 76 153 0
-0.324410 0.036267 -0.225541 76 153 0
0.731610 -0.046350 0.102139 153 0 76
0.149386 0.258292 -0.255650 0 127 127
0.289678 0.041463 -0.255650 0 127 127
0.581664 0.256767 0.154800 76 153 0
0.545009 0.235428 0.058812 76 153 0
-0.332121 -0.447410 -0.038636 0 255 0
0.707389 -0.243586 -0.017166 153 0 76
-0.325883 0.235428 0.326253 76 153 0
0.104787 -0.447410 -0.003266 0 255 0
-0.081876 0.235428 -0.063734 76 153 0
-0.342001 0.256767 0.361351 76 153 0
0.117251 0.235428 0.063936 76 153 0
0.290712 0.235428 0.237008 76 153 0
0.409939 -0.032402 0.235140 255 0 0
0.708830 -0.031376 0.013839 76 0 153
0.150645 -0.056907 -0.255650 0 127 127
0.730169 0.231873 0.107468 0 255 0
0.035267 -0.009817 -0.183327 76 0 153
0.145756 0.147023 0.213801 153 76 0
-0.663960 -0.476781 -0.180199 204 51 127
-0.686738 0.216785 0.190230 76 153 0
0.699455 -0.447410 -0.074646 0 0 255
0.707390 -0.398560 0.136898 204 51 127
0.562515 -0.447410 0.020787 0 255 0
-0.343486 0.012796 -0.234311 0 127 127
-0.395903 -0.426071 0.167208 0 255 0
-0.909292 0.235428 0.201973 76 153 0
-0.429788 0.036267 0.093986 76 153 0
0.362238 0.235428 0.072199 76 153 0
0.056959 -0.426071 -0.198690 0 255 0
-0.561415 0.036267 -0.128769 76 153 0
0.731197 0.080589 0.100006 153 0 76
0.450001 0.050589 0.235140 153 76 0
-0.012686 0.256767 0.121806 76 153 0
0.135053 0.256767 0.057994 76 153 0
0.053272 0.256767 0.266726 76 153 0
0.278380 0.297069 -0.234311 0 127 127
-0.587918 0.256767 0.314164 76 153 0
-0.478497 -0.447410 -0.214692 0 255 0
0.590954 0.176695 -0.255650 0 127 127
-0.721411 0.256767 0.224527 76 153 0
-0.438732 0.120969 -0.227199 0 127 127
0.521395 0.235428 -0.168371 76 153 0
0.320167 -0.426071 0.027922 0 255 0
-0.379961 0.215634 -0.212973 0 127 127
0.338981 0.256767 0.090571 76 153 0
-0.202799 0.145492 0.213801 0 255 0
0.341980 -0.447410 0.144454 0 255 0
-0.163923 0.036267 0.176378 76 153 0
-0.662519 -0.188677 -0.176793 76 153 0
-0.006016 0.088255 -0.188190 127 127 0
0.500646 -0.032630 0.235140 255 0 0
0.164595 0.256767 -0.091431 76 153 0
0.348223 -0.043958 0.234748 255 0 0
-0.272672 0.180771 -0.227199 0 127 127
0.377570 0.036267 -0.101630 0 0 255
0.728060 -0.188861 0.235574 153 0 76
0.061556 0.009623 -0.113023 153 76 0
0.282230 0.256767 0.106794 76 153 0
-0.686739 0.043180 -0.035744 76 153 0
0.521437 0.256767 -0.197479 76 153 0
0.612808 -0.447410 0.206175 0 255 0
0.687905 0.235428 -0.186389 76 153 0
-0.347776 -0.447410 0.193762 0 255 0
-0.459720 -0.447410 0.083781 0 255 0
0.576876 0.036267 -0.102168 0 0 255
0.121800 -0.447410 0.221916 0 255 0
-0.569094 0.256767 0.014509 76 153 0
0.143634 0.036267 -0.000764 0 0 255
0.802849 0.235428 -0.229364 76 153 0
0.103992 0.151999 -0.255650 0 127 127
-0.257738 0.076385 0.213801 0 255 0
0.300095 -0.447410 -0.196472 0 255 0
0.698161 0.208710 -0.077898 153 0 76
-0.145148 -0.426071 -0.005598 0 255 0
-0.808077 0.235428 0.190687 76 153 0
0.250145 0.036267 -0.136944 0 0 255
0.008209 0.048027 0.117174 76 0 153
-0.465874 0.036267 -0.212198 76 153 0
-0.156673 0.235428 -0.074260 76 153 0
0.382418 0.256767 0.110814 76 153 0
0.304593 -0.447410 0.155843 0 255 0
0.436097 0.272934 -0.255650 0 127 127
-0.845554 0.302506 -0.255650 0 127 127
-0.686739 0.036296 -0.125060 76 153 0
0.569979 0.122655 -0.255650 0 127 127
-0.280026 -0.426071 -0.234722 0 255 0
0.828805 0.235428 0.050783 76 153 0
0.677994 -0.022291 -0.255650 0 127 127
0.298372 -0.447410 0.120304 0 255 0
-0.065420 -0.447410 -0.250707 0 255 0
0.731610 0.169899 -0.025631 153 0 76
-0.599684 0.061321 -0.255650 0 127 127
0.619479 0.256767 0.089491 76 153 0
-0.754464 0.235428 0.146673 76 153 0
0.311204 0.169823 -0.227199 204 51 127
0.193236 0.179546 -0.212973 204 51 127
-0.735843 0.235428 -0.087274 76 153 0
0.602453 0.212121 0.235140 153 76 0
0.614263 0.235428 0.341321 76 153 0
0.698161 0.206266 0.170915 153 0 76
0.293187 0.115817 -0.255650 0 127 127
-0.266954 0.272857 -0.255650 0 127 127
-0.686739 -0.085043 0.205763 76 153 0
0.557386 0.036267 0.105110 0 0 255
-0.103407 0.151003 -0.227199 0 127 127
0.111203 0.101328 -0.212973 204 51 127
-0.289868 0.235428 0.106143 76 153 0
-0.021427 -0.426071 -0.209256 0 255 0
0.293830 -0.447410 -0.159266 0 255 0
0.353877 0.256767 -0.159417 76 153 0
0.790890 0.250244 0.363172 76 153 0
0.040218 0.040994 -0.162054 76 0 153
0.633231 -0.048362 0.213801 255 0 0
0.731610 -0.162535 -0.156966 153 0 76
0.538616 0.256767 -0.111129 76 153 0
-0.872481 0.256767 0.129306 76 153 0
-0.826510 0.235428 -0.151783 76 153 0
0.707389 -0.014078 -0.059755 153 0 76
0.787091 0.256767 -0.069923 76 153 0
-0.373900 0.052011 -0.255650 0 127 127
0.691860 0.256767 0.264280 76 153 0
0.623661 0.235428 -0.051869 76 153 0
-0.804859 0.256767 0.161608 76 153 0
0.599796 0.092020 -0.255650 0 127 127
-0.462362 -0.426071 -0.110450 0 255 0
-0.344067 -0.426071 0.217483 0 255 0
0.656031 0.235428 -0.224371 76 153 0
0.097102 -0.049088 0.225278 255 0 0
-0.414478 0.043380 -0.095044 76 153 0
-0.450151 0.177685 0.213801 0 255 0
0.621392 0.113678 -0.255650 0 127 127
-0.713277 0.256767 -0.088052 76 153 0
-0.628545 0.235428 0.320946 76 153 0
-0.496573 0.036267 0.061469 76 153 0
-0.388076 0.256767 0.031288 76 153 0
0.731610 0.010615 0.076177 153 0 76
-0.097889 -0.426071 -0.191976 0 255 0
-0.685555 0.236057 0.363172 76 153 0
0.351138 -0.426071 0.172570 0 255 0
-0.197862 0.043380 -0.215501 76 153 0
-0.195614 0.043380 0.070350 76 153 0
0.562943 -0.447410 -0.089172 0 255 0
0.395913 0.235428 0.058087 76 153 0
-0.305697 -0.025401 -0.234311 0 127 127
0.011991 -0.011780 -0.234311 76 0 153
0.715943 -0.431722 0.078813 0 255 0
-0.129807 0.235428 0.057186 76 153 0
0.707389 -0.371483 -0.192792 153 0 76
-0.662519 -0.276152 0.035701 76 153 0
-0.663519 0.009898 -0.065185 76 153 0
0.382480 0.057330 0.235140 153 76 0
-0.110327 0.256767 -0.001523 76 153 0
0.488772 0.256767 0.068801 76 153 0
0.492274 -0.447410 -0.029458 0 255 0
-0.662519 -0.188216 0.132276 76 153 0
0.863879 0.235428 -0.163897 76 153 0
-0.609037 0.036267 0.010196 76 153 0
0.265354 0.043380 0.061978 0 0 255
0.097749 0.210050 -0.234311 0 127 127
0.006972 0.256767 0.286231 76 153 0
-0.663491 0.089497 0.119791 76 153 0
0.093091 -0.426071 -0.016841 0 255 0
0.706997 -0.034862 -0.099667 76 0 153
0.259590 -0.447410 -0.128629 0 255 0
0.706780 0.010630 0.235140 255 0 0
-0.662519 -0.374439 0.121863 153 76 0
-0.576163 -0.447410 -0.178525 0 255 0
-0.526440 0.021275 -0.255650 0 127 127
-0.006016 0.146536 0.087813 127 127 0
-0.325674 0.235428 0.276926 76 153 0
0.708830 -0.018882 0.139052 76 0 153
0.077883 0.235428 -0.071151 76 153 0
0.491658 0.071274 -0.234311 0 127 127
0.193483 -0.000267 -0.234311 0 127 127
-0.093644 0.014422 0.213801 255 0 0
-0.593078 0.235428 0.050847 76 153 0
-0.482494 0.083858 -0.227199 0 127 127
0.682410 0.124858 0.235140 153 76 0
0.054443 0.126956 0.193221 76 0 153
0.799715 0.256767 0.239798 76 153 0
0.036661 0.232352 0.283505 76 0 153
-0.686739 -0.158813 0.043037 76 153 0
0.336889 0.256767 0.335563 76 153 0
0.731610 -0.138454 0.083760 153 0 76
-0.663960 -0.051056 -0.234592 0 127 127
0.476208 -0.447410 0.178203 0 255 0
-0.591065 0.288685 -0.255650 0 127 127
0.731610 0.191058 -0.163160 153 0 76
0.687491 -0.475356 0.121364 0 0 255
-0.800893 0.256767 0.351102 76 153 0
0.525341 0.185677 -0.234311 0 127 127
0.708830 0.007159 -0.218479 76 0 153
0.278677 0.235428 0.335470 76 153 0
-0.377527 0.235428 0.155526 76 153 0
0.859857 0.256767 0.242539 76 153 0
-0.322673 0.163829 0.235140 0 255 0
-0.438578 0.256767 0.094211 76 153 0
-0.663960 0.184609 0.046606 127 0 127
0.731033 -0.522484 -0.224186 153 0 76
0.756005 0.214133 -0.255650 0 255 0
0.321720 0.157101 0.213801 153 76 0
-0.501307 0.235428 -0.122230 76 153 0
0.707937 -0.352417 -0.055370 153 0 76
0.582262 -0.426071 0.056905 0 255 0
0.232525 0.212304 -0.234311 0 127 127
0.658031 -0.447410 0.074020 0 255 0
-0.013247 -0.003833 -0.179411 76 0 153
0.344087 -0.426071 -0.223150 0 255 0
0.365828 0.235428 -0.253646 0 127 127
0.770129 0.214090 -0.167434 0 255 0
-0.458104 -0.447410 0.188677 0 255 0
0.513660 -0.447410 -0.011238 0 255 0
-0.166129 -0.447410 -0.117418 0 255 0
0.662629 0.286885 -0.255650 0 127 127
-0.359980 -0.426071 -0.078920 0 255 0
0.744062 0.235428 -0.153253 76 153 0
-0.643409 -0.426071 -0.241591 0 255 0
0.707399 -0.289455 0.223579 153 0 76
0.205158 0.235428 0.286944 76 153 0
-0.238496 0.256767 -0.175195 76 153 0
0.132151 0.043380 0.023646 0 0 255
0.535698 0.043380 -0.056633 0 0 255
-0.613446 0.006517 0.213801 255 0 0
0.920240 0.235428 0.153574 76 153 0
-0.663960 0.140851 0.154057 127 0 127
0.086283 -0.426071 0.182248 0 255 0
-0.539403 -0.447410 0.231248 0 255 0
0.089358 0.256767 -0.147922 76 153 0
0.023066 -0.049088 -0.059407 76 0 153
0.712386 0.111270 -0.035480 153 0 76
0.510612 -0.042842 -0.255650 0 127 127
-0.611815 0.201513 -0.234311 0 127 127
0.707392 -0.347306 0.063198 153 0 76
-0.521560 -0.426071 -0.143545 0 255 0
0.417928 0.256767 0.161649 76 153 0
-0.778147 0.235428 -0.096032 76 153 0
-0.201345 -0.426071 -0.225647 0 255 0
-0.518317 0.174204 -0.212973 0 127 127
-0.474966 0.268896 -0.255650 0 127 127
0.364612 0.256767 0.019082 76 153 0
-0.094547 0.235428 -0.015633 76 153 0
-0.021205 -0.426071 0.094971 0 255 0
-0.211260 -0.426071 -0.069662 0 255 0
0.405991 -0.447410 -0.144502 0 255 0
0.730969 -0.327451 0.019495 153 0 76
0.892424 0.256767 -0.030476 76 153 0
0.047518 0.203973 0.228027 76 0 153
-0.616392 -0.426071 -0.122863 0 255 0
0.687491 0.013160 0.046043 76 0 153
-0.824925 0.256767 -0.000779 76 153 0
0.275663 0.235428 0.175029 76 153 0
-0.662522 -0.299633 0.217898 76 153 0
-0.384115 -0.447410 -0.084081 0 255 0
-0.226176 0.101150 -0.227199 0 127 127
-0.663134 -0.370072 0.162477 153 76 0
-0.159661 0.173179 -0.227199 0 127 127
0.623185 0.122139 -0.227199 204 51 127
-0.329484 0.256767 0.032094 76 153 0
-0.649734 0.145325 0.000109 127 0 127
-0.500040 -0.447410 -0.034818 0 255 0
0.005769 0.256767 0.081376 76 153 0
-0.181236 -0.055774 -0.255650 0 127 127
0.707464 -0.383096 -0.119569 153 0 76
0.407166 0.161438 0.235140 153 76 0
0.519673 0.036267 0.109102 0 0 255
0.669138 0.193745 -0.234311 0 127 127
-0.402991 0.235428 0.344057 76 153 0
0.707389 -0.137754 0.015710 153 0 76
0.860877 0.235428 0.063204 76 153 0
0.393068 0.231872 0.231324 153 76 0
0.342210 -0.447410 -0.110619 0 255 0
0.036661 0.126184 -0.184285 76 0 153
0.063906 0.025790 0.235140 153 76 0
-0.482291 0.043380 -0.190699 76 153 0
0.040218 -0.010714 0.134397 153 76 0
0.034056 0.235428 0.141418 76 0 153
0.145175 -0.447410 -0.029272 0 255 0
-0.451567 0.235428 0.194203 76 153 0
0.300441 0.235428 -0.068441 76 153 0
0.252033 0.144341 0.213801 153 76 0
-0.330494 0.212064 0.213801 0 255 0
0.712386 0.196986 -0.039762 153 0 76
0.361949 -0.426071 -0.058133 0 255 0
-0.517107 -0.426071 -0.050419 0 255 0
0.606624 0.256767 -0.200398 76 153 0
0.054443 0.178060 0.103735 76 0 153
0.555066 0.285828 -0.234311 0 127 127
-0.418906 0.190677 0.213801 0 255 0
0.862739 0.283985 -0.255650 0 127 127
-0.662519 -0.127084 0.065306 76 153 0
-0.257184 0.231872 0.217842 0 255 0
0.600534 0.256767 0.325267 76 153 0
-0.544070 0.256767 0.061097 76 153 0
0.444034 0.036267 -0.094000 0 0 255
0.698161 0.115256 0.034724 153 0 76
-0.178770 0.235428 -0.189575 76 153 0
0.036661 0.177356 -0.027174 76 0 153
-0.444112 -0.426071 -0.164801 0 255 0
-0.039724 0.043380 -0.124617 76 153 0
-0.686007 -0.459316 -0.254780 76 0 153
-0.138028 0.043380 0.147434 76 153 0
-0.686203 -0.137782 -0.253981 76 153 0
0.099197 0.235428 0.086877 76 153 0
0.226104 0.036267 -0.064189 0 0 255
0.707389 -0.245910 -0.121864 153 0 76
0.538132 0.043380 -0.111179 0 0 255
0.290630 0.043380 0.072798 0 0 255
0.239868 0.064824 -0.234311 0 127 127
0.707389 -0.164756 0.101446 153 0 76
0.731610 0.020375 -0.137790 153 0 76
0.088862 0.109098 0.213801 153 76 0
-0.078395 0.256767 -0.125230 76 153 0
0.508499 -0.447410 0.209143 0 255 0
0.295840 -0.426071 0.138354 0 255 0
0.182051 0.235428 -0.184931 76 153 0
0.343679 0.256767 0.201592 76 153 0
0.434017 -0.447410 -0.012106 0 255 0
0.731610 -0.177159 -0.009772 153 0 76
0.556625 -0.447410 -0.006125 0 255 0
0.493093 0.235428 -0.046345 76 153 0
0.427526 0.235428 0.003535 76 153 0
0.081031 0.005485 -0.255650 0 127 127
0.375531 0.256767 -0.044212 76 153 0
0.516859 -0.447410 -0.098352 0 255 0
0.552372 0.235428 -0.142202 76 153 0
0.174903 0.036267 -0.200595 0 0 255
0.731610 -0.357392 -0.156666 153 0 76
-0.549270 0.256767 -0.123577 76 153 0
0.011766 0.017046 -0.146183 76 0 153
-0.678041 0.235428 0.074177 76 153 0
0.489671 0.256767 -0.154169 76 153 0
0.008209 0.148499 -0.111495 127 127 0
0.707389 -0.222991 0.108368 153 0 76
-0.642621 -0.004997 0.015445 153 0 76
0.707389 -0.069667 -0.073658 153 0 76
-0.686739 -0.288868 0.039871 76 153 0
0.206839 -0.447410 -0.193519 0 255 0
-0.415646 0.018780 -0.234311 0 127 127
0.712386 0.129898 0.103471 153 0 76
-0.422200 0.235428 0.114047 76 153 0
-0.234383 0.235428 0.064351 76 153 0
-0.565901 0.178914 0.235140 0 255 0
0.730941 -0.377705 -0.227569 153 0 76
0.160221 0.235428 -0.026453 76 153 0
0.731476 -0.349814 -0.073729 153 0 76
-0.450477 0.036267 0.114502 76 153 0
0.441179 -0.432966 0.235140 0 255 0
0.717432 0.115629 -0.255650 0 127 127
0.657132 -0.447410 0.143195 0 255 0
-0.114108 0.018299 -0.255650 0 127 127
0.205746 0.256767 0.111875 76 153 0
0.650840 0.256767 -0.186972 76 153 0
0.310778 0.256767 0.210443 76 153 0
0.731610 -0.156553 0.059736 153 0 76
0.731056 0.123267 0.017108 153 0 76
-0.363106 0.235428 0.114580 76 153 0
0.350533 0.060412 -0.212973 204 51 127
-0.714894 0.256767 -0.166526 76 153 0
0.651155 -0.426071 -0.154694 0 255 0
0.110503 -0.426071 -0.197472 0 255 0
-0.566303 0.235428 0.312553 76 153 0
0.546717 0.235428 0.160522 76 153 0
0.267731 0.036267 0.088952 0 0 255
-0.489561 0.256767 -0.164181 76 153 0
-0.649734 0.146632 0.084285 127 0 127
-0.491019 -0.447410 -0.178572 0 255 0
0.363773 0.235428 -0.091172 76 153 0
-0.841452 0.256767 0.111426 76 153 0
0.036661 0.144631 0.055013 76 0 153
0.415825 0.067053 -0.234311 0 127 127
-0.171428 0.071179 0.213801 0 255 0
-0.185628 -0.447410 0.108195 0 255 0
0.221949 0.235428 0.047718 76 153 0
-0.509573 -0.447410 -0.067653 0 255 0
-0.662766 -0.552238 -0.194415 76 0 153
-0.686739 -0.327996 0.076067 76 153 0
0.614198 -0.447410 0.178027 0 255 0
0.698161 0.122064 0.008388 153 0 76
0.505721 -0.447410 -0.225240 0 255 0
0.008209 0.195148 0.061476 76 0 153
0.563076 0.043380 0.215463 0 0 255
-0.628022 0.172309 -0.234311 0 127 127
-0.544823 0.235428 0.252189 76 153 0
0.238221 0.235428 -0.037165 76 153 0
0.106001 -0.068933 -0.255650 0 127 127
-0.002200 0.256767 -0.012171 76 153 0
-0.686739 -0.431445 -0.218271 76 0 153
-0.662960 0.231872 -0.060670 127 0 127
-0.296570 0.141695 -0.212973 0 127 127
0.698161 0.161958 0.052152 153 0 76
-0.663960 0.088096 0.219166 127 0 127
-0.419934 0.112826 0.213801 0 255 0
-0.047980 0.149694 -0.212973 0 127 127
-0.242118 -0.426071 0.032711 0 255 0
0.178593 -0.047278 -0.255650 0 127 127
-0.327043 0.256767 -0.172831 76 153 0
0.623634 0.235428 0.114290 76 153 0
0.590330 0.102409 0.213801 153 76 0
0.628588 0.256767 0.145488 76 153 0
0.707389 -0.278944 -0.211804 153 0 76
0.276498 0.043380 -0.143089 0 0 255
-0.535147 0.043380 0.205360 76 153 0
0.223977 0.034816 -0.234311 0 127 127
-0.662519 -0.170128 0.189395 76 153 0
-0.124625 0.235428 -0.132259 76 153 0
-0.610172 0.235428 -0.137363 76 153 0
-0.358770 -0.447410 -0.019595 0 255 0
0.258148 0.256767 0.196799 76 153 0
0.013918 -0.426071 -0.169106 0 255 0
0.707389 -0.091989 -0.189523 153 0 76
-0.368015 0.036267 -0.096713 76 153 0
0.904063 0.235428 0.270596 76 153 0
-0.264032 0.256767 0.167240 76 153 0
-0.545369 0.000388 -0.255650 0 127 127
0.365617 -0.426071 -0.164209 0 255 0
0.644678 -0.025131 -0.255650 0 127 127
-0.663519 -0.037675 -0.013604 76 153 0
-0.632855 0.235428 0.093215 76 153 0
-0.686739 -0.246990 -0.119281 76 153 0
-0.026283 0.235428 -0.140857 76 153 0
0.036661 0.112491 -0.110741 76 0 153
-0.307073 0.256767 0.198858 76 153 0
-0.662519 -0.314055 -0.014362 76 153 0
-0.684575 0.180701 0.235750 76 153 0
-0.110017 0.235428 -0.043681 76 153 0
0.527542 0.256767 0.284450 76 153 0
-0.652434 0.195157 -0.255650 0 127 127
0.008209 0.041209 -0.029696 127 127 0
0.054547 -0.447410 0.003603 0 255 0
0.132846 0.256767 -0.178220 76 153 0
0.438570 0.043380 0.074708 0 0 255
-0.045399 0.266647 -0.255650 0 127 127
0.426513 -0.426071 -0.202639 0 255 0
-0.160208 -0.447410 -0.149078 0 255 0
0.707389 -0.215987 -0.169181 153 0 76
-0.658787 0.068589 -0.215487 0 127 127
-0.071559 0.192726 -0.227199 0 127 127
-0.662519 -0.217424 0.080183 76 153 0
-0.663960 0.182141 0.118466 127 0 127
0.731610 -0.071070 0.040177 153 0 76
0.067501 0.256767 0.346409 76 153 0
0.725010 0.235428 0.167426 76 153 0
0.591541 0.235428 -0.080887 76 153 0
-0.509707 0.169820 0.213801 0 255 0
-0.700291 0.235428 0.339607 76 153 0
-0.394147 0.043380 0.052608 76 153 0
0.517791 0.235428 0.193131 76 153 0
0.650137 0.235428 -0.042749 76 153 0
0.008209 0.102111 0.153186 76 0 153
-0.885262 0.256767 0.339478 76 153 0
-0.663519 -0.285432 -0.224289 76 153 0
-0.390816 0.243008 -0.255650 0 127 127
0.275313 0.235428 -0.001250 76 153 0
0.008209 0.023036 0.045678 76 0 153
0.731275 -0.151166 -0.233857 153 0 76
0.766046 0.235428 0.220257 0 255 0
0.730484 -0.203476 -0.250006 153 0 76
-0.183895 0.009778 0.213801 255 0 0
0.731443 -0.293868 0.045014 153 0 76
0.839667 0.256767 0.288972 76 153 0
0.410793 0.256767 0.126672 76 153 0
-0.649734 0.213892 -0.168666 127 0 127
-0.334129 -0.426071 0.156829 0 255 0
-0.226926 0.036267 -0.123787 76 153 0
-0.685766 -0.349051 -0.029486 76 153 0
0.251589 0.116632 -0.234311 0 127 127
-0.686674 -0.042122 0.211629 76 153 0
0.161617 0.101972 -0.234311 0 127 127
0.389396 -0.447410 -0.021988 0 255 0
-0.337943 0.256767 0.140768 76 153 0
-0.257152 0.157468 0.213801 0 255 0
-0.181808 0.256767 0.014347 76 153 0
0.896766 0.256767 0.182405 76 153 0
-0.184765 0.036267 -0.153094 76 153 0
0.383336 0.162482 -0.227199 204 51 127
0.491390 0.213479 -0.234311 0 127 127
-0.231013 0.235428 0.026421 76 153 0
-0.063604 -0.447410 0.072257 0 255 0
-0.022234 -0.426071 0.225079 0 255 0
-0.663960 0.041981 0.072246 127 0 127
0.179011 0.256767 0.060717 76 153 0
0.615539 0.235428 -0.171491 76 153 0
0.946930 0.235428 0.165305 76 153 0
-0.775614 0.256767 -0.167611 76 153 0
0.303431 0.206779 -0.234311 0 127 127
-0.767759 0.235428 0.209179 76 153 0
-0.356717 0.121487 -0.227199 0 127 127
-0.686739 0.177604 -0.167643 76 153 0
0.054443 0.092956 0.162393 76 0 153
-0.116737 0.135762 -0.255650 0 127 127
0.343126 0.235428 0.276821 76 153 0
0.328941 0.235428 0.042100 76 153 0
0.753029 0.235428 0.313995 0 255 0
-0.651212 0.231872 -0.112356 127 0 127
-0.179173 0.256767 0.276567 76 153 0
-0.539003 0.133039 0.235140 0 255 0
-0.528255 0.235428 -0.175891 76 153 0
-0.668788 -0.421613 -0.256640 76 0 153
0.933970 0.256767 0.302457 76 153 0
-0.161764 -0.006577 -0.234311 0 127 127
0.557390 0.107484 0.213801 153 76 0
0.455123 -0.038087 -0.234311 0 127 127
-0.582783 0.145114 -0.234311 0 127 127
0.010651 -0.032191 0.235140 255 0 0
-0.193596 -0.447410 -0.036262 0 255 0
0.296732 0.205213 0.235140 153 76 0
0.325958 -0.426071 -0.111518 0 255 0
-0.686729 -0.265584 0.223124 76 153 0
0.339342 0.235428 -0.210512 76 153 0
-0.662662 -0.119641 -0.251413 76 153 0
-0.262922 0.311037 -0.255650 0 127 127
-0.285399 0.256767 0.326719 76 153 0
-0.199530 0.235428 0.222884 76 153 0
-0.618357 -0.447410 -0.208510 0 255 0
0.149747 0.028327 -0.255650 0 127 127
-0.068660 -0.447410 0.142340 0 255 0
-0.686739 0.067808 0.034377 76 153 0
-0.331322 0.235428 -0.151203 76 153 0
-0.651217 0.043380 0.206273 76 153 0
-0.300319 0.256767 -0.091446 76 153 0
-0.490262 0.235428 0.087391 76 153 0
-0.285702 0.279892 -0.234311 0 127 127
-0.666260 -0.436119 0.202248 153 76 0
-0.662519 -0.164367 0.120038 76 153 0
-0.284760 0.072025 0.213801 0 255 0
-0.411541 0.235428 0.084499 76 153 0
-0.358240 0.235428 -0.144526 76 153 0
0.587415 0.256767 0.039243 76 153 0
0.732346 0.256767 -0.127767 76 153 0
0.628027 0.256767 0.248860 76 153 0
-0.686739 0.056218 -0.106370 76 153 0
0.583868 0.235428 0.292093 76 153 0
0.090974 -0.426071 -0.049541 0 255 0
0.854934 0.235428 0.341049 76 153 0
0.495909 0.256767 0.152680 76 153 0
0.707389 -0.155644 0.039745 153 0 76
-0.010005 -0.447410 0.113811 0 255 0
-0.035242 0.075523 0.213801 0 255 0
0.160577 0.256767 0.348297 76 153 0
0.707389 -0.299867 -0.138959 153 0 76
0.094364 -0.031406 -0.234311 0 127 127
0.161276 -0.426071 0.132835 0 255 0
0.297267 0.005185 0.235140 255 0 0
0.217340 0.203964 -0.255650 0 127 127
-0.320466 0.305169 -0.234311 0 127 127
-0.429957 0.256767 0.209044 76 153 0
0.673898 0.098505 -0.255650 0 127 127
0.249107 -0.009624 -0.255650 0 127 127
0.171461 0.106977 0.213801 153 76 0
0.394566 0.036267 -0.008773 0 0 255
-0.307728 -0.447410 0.173534 0 255 0
-0.604585 0.165559 -0.255650 0 127 127
-0.197398 0.235428 -0.077566 76 153 0
0.707389 -0.272984 0.151365 153 0 76
-0.008526 -0.447410 -0.102204 0 255 0
0.649700 0.235428 0.096529 76 153 0
-0.686739 -0.230983 0.087649 76 153 0
0.011858 -0.426071 0.059741 0 255 0
-0.234577 0.256767 -0.020097 76 153 0
0.753148 0.232390 0.345157 0 255 0
0.803013 0.235428 0.074205 76 153 0
0.036661 0.064032 0.125479 76 0 153
-0.070260 -0.427351 0.235140 0 255 0
0.858249 0.235428 -0.069212 76 153 0
-0.662519 -0.337012 -0.155511 76 153 0
-0.687818 0.235428 0.018321 255 0 0
-0.389211 0.282471 -0.234311 0 127 127
0.707390 -0.303341 -0.236793 153 0 76
0.152248 0.256767 -0.199593 76 153 0
0.437835 0.125638 0.213801 153 76 0
0.597216 -0.426071 -0.225115 0 255 0
0.464463 -0.426071 -0.066405 0 255 0
-0.292814 0.164764 -0.234311 0 127 127
0.190437 -0.426071 0.018271 0 255 0
-0.244192 0.175246 -0.212973 0 127 127
-0.613727 -0.447410 0.127751 0 255 0
0.708830 -0.459542 0.191812 0 0 255
0.339565 0.235428 0.177587 76 153 0
0.043927 -0.034862 0.162652 153 76 0
0.150238 0.235428 0.260198 76 153 0
-0.724257 0.235428 0.310329 76 153 0
0.625058 0.313670 -0.239412 0 127 127
0.202043 -0.426071 0.081790 0 255 0
-0.082333 -0.054542 -0.255650 0 127 127
-0.686739 -0.515811 -0.226240 76 0 153
0.501695 0.256767 0.260710 76 153 0
0.640249 0.235428 0.045017 76 153 0
0.731610 -0.096751 0.073716 153 0 76
0.448611 -0.426071 -0.217650 0 255 0
-0.239004 -0.426071 -0.169333 0 255 0
-0.100467 -0.033931 0.213801 255 0 0
0.578320 0.256767 -0.071897 76 153 0
-0.655973 0.235428 0.314386 76 153 0
-0.273109 0.256767 -0.009140 76 153 0
0.707389 -0.349640 0.122990 153 0 76
-0.711586 0.235428 0.126739 255 0 0
0.561409 0.043380 -0.124173 0 0 255
0.611488 -0.426071 0.000306 0 255 0
0.008209 0.115368 -0.116168 76 0 153
-0.163302 -0.447410 0.034081 0 255 0
-0.541332 0.043380 -0.072431 76 153 0
0.044426 0.256767 -0.142682 76 153 0
0.172443 -0.426071 0.221689 0 255 0
0.707397 -0.606176 0.204176 204 51 127
0.731141 -0.227157 0.023826 153 0 76
0.040218 -0.019766 0.193700 153 76 0
-0.003472 0.299759 -0.234311 0 127 127
0.620927 -0.000092 0.213801 255 0 0
-0.078168 -0.447410 -0.079940 0 255 0
-0.908005 0.285101 -0.255650 0 127 127
-0.643663 0.043380 -0.062523 76 153 0
0.505470 -0.447410 0.048782 0 255 0
0.158700 0.022041 0.232336 153 76 0
0.036661 0.224963 0.313676 76 0 153
-0.532813 0.235428 0.299118 76 153 0
-0.126032 -0.426071 0.179541 0 255 0
0.484134 0.283353 -0.234311 0 127 127
-0.552375 0.256767 0.271745 76 153 0
0.188939 0.208498 0.235140 153 76 0
0.707389 -0.077138 -0.141484 153 0 76
-0.151431 -0.447410 0.091883 0 255 0
0.593680 0.043380 -0.039449 0 0 255
-0.663482 0.098422 0.093257 76 153 0
-0.326322 -0.426071 0.016912 0 255 0
-0.266649 -0.042849 0.213801 255 0 0
0.464344 0.043380 0.137701 0 0 255
0.730891 -0.307193 -0.005867 153 0 76
0.731610 -0.149657 0.132180 153 0 76
0.731228 -0.348706 0.084115 153 0 76
-0.485712 0.256767 0.113186 76 153 0
-0.266162 -0.028909 -0.234311 0 127 127
-0.642621 0.012585 0.069469 153 0 76
-0.541561 -0.426071 -0.255462 0 255 0
0.731610 -0.015751 0.064561 153 0 76
0.158112 -0.447410 -0.179910 0 255 0
0.707389 -0.091290 -0.118066 153 0 76
0.707389 -0.074699 -0.209682 153 0 76
0.422846 -0.426071 -0.152659 0 255 0
0.707389 -0.202937 -0.066006 153 0 76
0.210935 -0.038813 -0.234311 0 127 127
0.507000 0.256767 -0.065508 76 153 0
0.161603 0.043380 -0.144531 0 0 255
0.054443 0.226771 -0.015643 76 0 153
-0.094511 0.036267 0.070849 76 153 0
0.380629 -0.005475 -0.234311 0 127 127
-0.663520 -0.323337 -0.235346 76 153 0
-0.218407 -0.426071 0.208182 0 255 0
0.011766 0.019987 0.143150 76 0 153
-0.615918 -0.023573 -0.255650 0 127 127
-0.245326 -0.426071 0.109229 0 255 0
0.730610 -0.248769 0.073212 153 0 76
-0.007578 -0.426071 -0.036209 0 255 0
0.280238 0.235428 -0.087600 76 153 0
-0.663960 0.206412 -0.003593 127 0 127
-0.663960 0.228814 -0.212207 127 0 127
0.623046 -0.426071 -0.180902 0 255 0
0.795666 0.235428 0.207586 76 153 0
-0.584866 0.036267 -0.209415 76 153 0
0.234307 0.256767 -0.116317 76 153 0
0.337446 -0.426071 0.088585 0 255 0
0.314272 -0.042798 -0.234311 0 127 127
0.288445 0.235428 0.035856 76 153 0
0.731610 -0.267192 -0.140841 153 0 76
-0.853530 0.256767 0.331593 76 153 0
-0.495174 0.231872 -0.214866 0 127 127
-0.578677 0.043380 -0.043780 76 153 0
0.029743 0.189472 -0.234311 0 127 127
-0.072890 0.169546 -0.212973 0 127 127
0.706558 0.022041 -0.168168 76 0 153
-0.696260 0.256767 0.316732 76 153 0
-0.068539 0.091161 -0.234311 0 127 127
0.374382 0.092694 -0.255650 0 127 127
0.271943 0.107485 -0.212973 204 51 127
0.641489 -0.426071 -0.061102 0 255 0
-0.122708 -0.019568 -0.255650 0 127 127
0.652930 0.235428 -0.069439 76 153 0
-0.527410 0.235428 0.143631 76 153 0
0.708830 -0.470991 -0.211009 0 0 255
-0.425848 0.090139 -0.234311 0 127 127
-0.662519 -0.324210 -0.074762 76 153 0
0.045687 -0.426071 -0.173629 0 255 0
-0.189437 0.043380 0.011310 76 153 0
-0.403784 -0.447410 0.023606 0 255 0
-0.625615 0.256767 0.241316 76 153 0
-0.001182 0.256767 -0.104102 76 153 0
-0.686739 -0.371480 -0.158782 76 0 153
0.568729 -0.447410 -0.041838 0 255 0
0.694604 0.041379 0.052077 0 0 255
0.191564 0.235428 0.340304 76 153 0
0.074723 0.222579 -0.227199 204 51 127
0.635503 -0.426071 0.177609 0 255 0
0.706361 -0.034862 0.175944 76 0 153
0.423172 0.256767 0.090490 76 153 0
0.008209 0.189539 -0.071108 127 127 0
-0.662680 -0.459273 0.159993 153 76 0
0.397633 0.309223 -0.234311 0 127 127
0.477340 -0.426071 0.013657 0 255 0
0.672821 0.256767 0.091136 76 153 0
0.633207 0.121101 0.213801 153 76 0
-0.112546 0.156888 0.235140 0 255 0
0.523539 -0.426071 0.168961 0 255 0
0.281321 0.036267 -0.068881 0 0 255
-0.686737 0.048237 0.216961 76 153 0
0.203864 -0.447410 0.007353 0 255 0
0.707389 -0.388178 -0.214001 153 0 76
0.257772 0.256767 -0.217566 76 153 0
-0.663960 0.142838 -0.055577 127 0 127
-0.476273 0.036267 -0.006226 76 153 0
0.493170 -0.447410 0.093771 0 255 0
0.712386 0.054368 -0.065005 153 0 76
-0.686739 -0.315676 -0.154527 76 153 0
0.282197 0.250409 -0.255650 0 127 127
-0.234640 0.256767 -0.076218 76 153 0
-0.656012 -0.458521 -0.255650 204 51 127
0.228600 0.062577 0.213801 153 76 0
-0.107196 0.183526 0.213801 0 255 0
0.731610 -0.105630 -0.182131 153 0 76
0.036661 0.196946 -0.052128 76 0 153
0.212251 0.235428 0.141762 76 153 0
0.730610 0.169836 0.113471 153 0 76
-0.663960 0.028821 0.137436 127 0 127
0.219770 0.283528 -0.255650 0 127 127
-0.387269 0.189170 0.235140 0 255 0
0.506901 0.036267 0.177774 0 0 255
-0.286083 -0.426071 0.200915 0 255 0
-0.333459 0.256767 -0.067700 76 153 0
0.006081 -0.044806 -0.234311 0 127 127
0.436787 0.094946 -0.212973 204 51 127
-0.219595 0.143627 0.235140 0 255 0
0.381133 -0.426071 0.049715 0 255 0
-0.019298 0.084439 -0.227199 0 127 127
0.629676 0.043380 -0.125944 0 0 255
0.728094 0.234794 0.000048 153 0 76
0.707389 -0.151703 0.157113 153 0 76
0.548000 -0.000644 0.213801 255 0 0
-0.540935 0.235428 0.099868 76 153 0
0.137221 0.003949 -0.234311 0 127 127
-0.589155 0.256767 -0.026462 76 153 0
-0.533707 -0.447410 -0.124518 0 255 0
-0.261631 0.256767 0.071901 76 153 0
0.707389 -0.548923 -0.235569 153 0 76
0.699888 0.048785 0.228027 153 76 0
0.403134 -0.060515 -0.234311 0 127 127
0.014640 0.235428 -0.142943 76 153 0
0.698161 0.159358 -0.042736 153 0 76
0.590465 0.235428 -0.191627 76 153 0
0.957782 0.299162 -0.244822 0 127 127
0.129189 0.235428 0.119820 76 153 0
