ply
format ascii 1.0
element vertex 1277
property float x
property float y
property float z
property uchar red
property uchar green
property uchar blue
end_header
-0.380667 0.377779 0.574623 76 0 153
0.083535 -0.745994 0.195781 153 0 76
0.321099 0.149191 -0.497696 153 0 76
0.287836 -0.327978 0.469058 153 76 0
0.204970 -0.745994 0.328740 153 0 76
0.444563 0.504862 0.346570 153 0 76
-0.302060 -0.468040 0.391273 153 76 0
-0.229751 -0.055971 -0.497696 153 0 76
0.267595 -0.745994 0.085567 153 0 76
-0.430065 -0.633827 0.391273 153 0 76
0.422217 0.533969 -0.497696 153 0 76
0.296787 -0.712658 0.421516 153 76 0
-0.119017 0.393498 -0.497696 153 0 76
-0.444406 -0.270961 0.418639 153 76 0
-0.157071 -0.745994 -0.487326 153 0 76
-0.198573 -0.745994 -0.199635 153 0 76
-0.090774 -0.370528 -0.497696 153 0 76
0.132038 -0.427848 0.469058 153 76 0
0.444563 -0.478379 -0.233966 153 0 76
0.444563 -0.676149 -0.259532 153 0 76
-0.202999 -0.480052 0.391273 153 76 0
0.444563 0.149950 -0.217849 153 0 76
-0.425088 -0.646923 0.468867 153 76 0
0.261792 0.698088 -0.497696 153 0 76
0.387516 0.348100 0.391273 153 0 76
0.276859 0.770810 0.356720 153 0 76
0.050305 0.770810 0.362075 153 0 76
0.283486 0.181054 -0.497696 153 0 76
-0.444406 0.023596 0.041174 153 0 76
0.360363 -0.434771 0.469058 153 76 0
-0.386759 0.152873 0.574623 76 0 153
-0.310082 -0.208410 0.469058 153 76 0
-0.115002 -0.543894 -0.497696 153 0 76
-0.444406 0.612384 0.038089 153 0 76
0.444563 0.509731 0.313651 153 0 76
-0.444406 -0.374949 0.298881 153 0 76
0.444563 0.122929 -0.432289 153 0 76
0.444563 -0.182254 0.407458 153 76 0
-0.306010 0.526269 -0.497696 153 0 76
-0.232547 0.478050 0.391273 153 76 0
-0.444406 0.653776 0.094779 153 0 76
-0.444406 0.709658 0.266669 153 0 76
-0.400446 -0.408150 0.469058 153 76 0
0.085528 -0.684830 0.469058 153 76 0
-0.444406 -0.188308 0.061568 153 0 76
0.223764 0.468059 0.391273 153 76 0
-0.444406 -0.343870 0.212291 153 0 76
0.242396 -0.042022 -0.497696 153 0 76
-0.444406 -0.430410 0.440800 153 76 0
0.172238 -0.073246 0.391273 153 76 0
0.444563 -0.443139 -0.377697 153 0 76
0.236609 0.245261 0.391273 153 76 0
0.444563 -0.364039 0.200617 153 0 76
0.033920 -0.296941 0.469058 153 76 0
0.229794 0.770810 0.119202 153 0 76
-0.354420 -0.119338 0.469058 153 76 0
-0.444406 0.272387 -0.444174 153 0 76
0.444563 -0.297241 0.135945 153 0 76
0.389437 0.699295 -0.497696 153 0 76
-0.070364 -0.031512 -0.497696 153 0 76
-0.301232 -0.092735 0.469058 153 76 0
-0.444406 -0.064498 0.083877 153 0 76
-0.444406 0.489751 0.046263 153 0 76
0.237109 -0.217937 0.469058 153 76 0
0.046997 0.741589 0.469058 153 76 0
-0.419950 0.286105 0.391273 153 0 76
-0.350352 0.455332 0.564801 76 0 153
-0.138228 -0.341459 0.391273 153 76 0
-0.444406 0.752851 -0.496076 153 0 76
-0.444406 -0.150380 0.216748 153 0 76
-0.421780 0.580000 0.469058 153 76 0
0.021845 0.375027 0.391273 153 76 0
0.243110 -0.213132 -0.497696 153 0 76
0.315538 -0.664297 -0.497696 153 0 76
-0.444406 -0.177910 -0.345699 153 0 76
-0.346766 0.039959 -0.497696 153 0 76
-0.444406 0.401456 0.365822 153 0 76
0.166043 0.285113 0.469058 153 76 0
-0.444406 -0.246249 -0.030137 153 0 76
-0.413385 0.177058 -0.497696 153 0 76
-0.199379 0.542904 0.469058 153 76 0
-0.444406 0.685226 -0.014425 153 0 76
-0.245518 -0.163445 0.391273 153 76 0
-0.296614 0.423011 -0.497696 153 0 76
-0.444406 -0.226829 -0.173774 153 0 76
-0.356493 -0.061860 0.499051 153 76 0
0.042222 0.708340 0.469058 153 76 0
-0.117114 -0.174783 0.391273 153 76 0
-0.444406 0.416072 -0.121576 153 0 76
0.316134 0.770810 -0.398069 153 0 76
-0.261158 -0.659811 0.469058 153 76 0
-0.092202 0.450250 -0.497696 153 0 76
0.007444 -0.745994 0.283022 153 0 76
0.444563 -0.647871 0.406433 153 0 76
0.411441 -0.527179 -0.497696 153 0 76
-0.107284 0.770810 0.185644 153 0 76
0.181206 -0.745994 -0.317490 153 0 76
0.444563 -0.023237 -0.492430 153 0 76
-0.304587 -0.365321 0.469058 153 76 0
0.340515 -0.108216 0.469058 153 76 0
-0.047256 -0.727528 -0.497696 153 0 76
0.444563 0.629504 -0.106707 153 0 76
0.444563 -0.492198 0.297581 153 0 76
-0.444406 -0.738516 0.141902 153 0 76
0.185584 0.348741 0.469058 153 76 0
-0.003924 -0.008349 -0.497696 153 0 76
0.444563 0.428634 -0.071161 153 0 76
0.076271 0.237277 -0.497696 153 0 76
0.286052 -0.745994 0.002222 153 0 76
0.244172 -0.745994 -0.047790 153 0 76
-0.301364 0.097407 0.469058 153 76 0
0.356000 -0.745994 -0.153525 153 0 76
-0.113891 0.615616 0.469058 153 76 0
0.431655 0.770810 -0.106544 153 0 76
0.444563 -0.625195 -0.471864 153 0 76
0.059203 0.586048 0.391273 153 76 0
0.340949 0.770810 0.293057 153 0 76
-0.224619 -0.159152 0.469058 153 76 0
0.444563 0.601766 -0.464378 153 0 76
-0.444406 0.654166 -0.069795 153 0 76
-0.370938 0.770810 0.008283 153 0 76
-0.131772 -0.488410 0.469058 153 76 0
-0.444406 -0.546251 -0.027786 153 0 76
-0.394091 -0.745994 0.171194 153 0 76
0.444563 0.043820 0.402310 153 76 0
-0.444406 0.090596 -0.207533 153 0 76
-0.202725 0.070661 0.469058 153 76 0
-0.359890 0.024468 0.391273 153 76 0
0.101344 -0.296807 -0.497696 153 0 76
-0.276961 0.770810 0.334422 153 0 76
0.161109 0.548171 0.469058 153 76 0
0.388735 0.066841 -0.497696 153 0 76
-0.222112 0.770810 -0.462467 153 0 76
0.349804 0.040950 -0.497696 153 0 76
0.444563 -0.184390 0.158852 153 0 76
0.043896 -0.745994 -0.130004 153 0 76
-0.151270 -0.595019 -0.497696 153 0 76
-0.307713 -0.651515 0.391273 153 76 0
0.444563 0.688718 -0.087027 153 0 76
-0.173264 0.576368 0.391273 153 76 0
0.131978 0.639322 0.469058 153 76 0
-0.336482 0.739714 -0.497696 153 0 76
0.444563 0.299849 -0.094536 153 0 76
-0.135516 -0.745994 0.158287 153 0 76
0.045980 -0.633103 -0.497696 153 0 76
-0.384414 -0.052315 -0.497696 153 0 76
-0.397657 0.514925 0.391273 153 0 76
0.075874 0.465039 -0.497696 153 0 76
0.444563 -0.454075 -0.039156 153 0 76
-0.182748 0.422983 0.469058 153 76 0
-0.029139 -0.499597 0.391273 153 76 0
-0.443354 0.065917 0.453453 153 76 0
-0.444406 -0.622562 -0.294827 153 0 76
0.444563 -0.154224 -0.183612 153 0 76
-0.444406 -0.384542 0.340661 153 0 76
0.421975 -0.559880 0.469058 153 76 0
-0.417397 0.482899 -0.497696 153 0 76
0.042795 0.770810 -0.017802 153 0 76
-0.436565 0.140282 -0.497696 153 0 76
-0.369682 0.770810 0.235063 153 0 76
0.101293 -0.201810 -0.497696 153 0 76
-0.444406 0.360534 -0.031379 153 0 76
-0.261681 0.755274 0.391273 153 0 76
-0.444406 -0.500470 -0.067231 153 0 76
0.357342 -0.745994 -0.248026 153 0 76
0.015939 -0.096838 -0.497696 153 0 76
-0.137723 -0.745994 0.112367 153 0 76
-0.444406 -0.151638 -0.315383 153 0 76
0.444563 -0.056561 0.360124 153 0 76
-0.105099 0.225235 -0.497696 153 0 76
0.444563 -0.282969 0.099919 153 0 76
-0.350352 0.688312 0.543433 153 76 0
-0.082233 0.641912 -0.497696 153 0 76
-0.444406 -0.011146 -0.223813 153 0 76
0.409589 0.243153 0.469058 153 76 0
-0.212284 0.770810 0.238535 153 0 76
-0.227136 -0.352380 0.391273 153 76 0
-0.372523 -0.745994 0.309896 153 0 76
-0.221181 0.346705 0.391273 153 76 0
0.140726 -0.745994 0.221168 153 0 76
-0.444406 0.435554 0.096164 153 0 76
0.444563 -0.227702 -0.179945 153 0 76
-0.176906 -0.745994 0.062070 153 0 76
-0.018961 0.107054 -0.497696 153 0 76
0.166717 -0.712658 0.397257 153 76 0
-0.444406 -0.375006 0.037690 153 0 76
0.013574 0.516620 0.469058 153 76 0
-0.444406 0.415485 0.153160 153 0 76
-0.301708 -0.281222 -0.497696 153 0 76
0.444563 -0.324491 -0.331264 153 0 76
-0.444406 -0.712180 -0.397617 153 0 76
0.204427 0.648393 -0.497696 153 0 76
0.444563 0.001727 -0.173322 153 0 76
0.444563 -0.585217 0.426266 153 76 0
0.444563 -0.633479 0.325856 153 0 76
-0.140854 0.770810 -0.189387 153 0 76
-0.297689 -0.289356 0.391273 153 76 0
-0.255668 0.074348 0.391273 153 76 0
0.298086 0.540274 0.469058 153 76 0
0.172791 0.202610 -0.497696 153 0 76
0.191216 0.377351 -0.497696 153 0 76
-0.444406 0.280070 0.444752 153 76 0
-0.321494 0.590140 0.469058 153 76 0
-0.420161 0.770810 -0.214326 153 0 76
0.444563 0.567401 0.129075 153 0 76
0.444563 0.141135 0.220676 153 0 76
-0.444406 -0.230441 0.367260 153 0 76
0.019690 -0.745994 0.316082 153 0 76
0.414997 0.651405 -0.497696 153 0 76
-0.015772 -0.366705 0.469058 153 76 0
-0.347483 -0.192216 -0.497696 153 0 76
0.197125 -0.487418 0.391273 153 76 0
0.373390 0.770810 -0.131968 153 0 76
0.444563 -0.721452 -0.025874 153 0 76
-0.363401 0.596706 -0.497696 153 0 76
0.239746 -0.019485 0.469058 153 76 0
0.230187 0.461127 0.469058 153 76 0
-0.398711 0.739623 -0.497696 153 0 76
-0.419210 -0.661481 -0.497696 153 0 76
-0.240048 0.453237 -0.497696 153 0 76
0.074427 0.770810 -0.214742 153 0 76
0.171256 -0.745994 -0.163232 153 0 76
-0.265667 -0.220294 -0.497696 153 0 76
0.249761 -0.533649 0.469058 153 76 0
0.295021 -0.431079 -0.497696 153 0 76
-0.444406 0.467066 -0.111378 153 0 76
-0.444406 0.236994 -0.134302 153 0 76
0.444563 0.062534 -0.169087 153 0 76
-0.271776 0.770810 -0.293063 153 0 76
-0.215143 0.227375 0.469058 153 76 0
0.342375 -0.745994 0.019336 153 0 76
-0.440955 -0.709759 -0.497696 153 0 76
0.225882 -0.001860 -0.497696 153 0 76
-0.383275 0.329854 -0.497696 153 0 76
-0.205566 0.455047 0.469058 153 76 0
0.348162 -0.661204 0.391273 153 76 0
-0.173021 -0.745994 -0.316296 153 0 76
-0.444406 -0.020553 -0.039509 153 0 76
-0.444406 0.749198 -0.007700 153 0 76
0.249780 -0.313404 0.391273 153 76 0
-0.385302 0.629408 -0.497696 153 0 76
0.444563 0.103977 -0.378141 153 0 76
-0.382438 0.367993 -0.497696 153 0 76
-0.262783 -0.685171 0.391273 153 76 0
0.031722 0.339077 0.469058 153 76 0
0.444563 0.373265 -0.055743 153 0 76
0.444563 -0.283093 -0.335431 153 0 76
0.341065 0.209645 -0.497696 153 0 76
0.163701 0.145218 -0.497696 153 0 76
0.078547 0.671834 0.391273 153 76 0
0.392023 0.507079 -0.497696 153 0 76
0.133264 -0.745994 -0.389308 153 0 76
0.444563 -0.054849 0.291150 153 0 76
0.444563 -0.443222 -0.208226 153 0 76
0.129908 0.684647 0.469058 153 76 0
0.156102 0.449201 0.469058 153 76 0
0.021745 0.431766 -0.497696 153 0 76
0.444563 -0.640920 -0.317331 153 0 76
0.362811 0.550357 0.469058 153 76 0
-0.444406 0.534077 0.144904 153 0 76
-0.423877 0.770810 -0.110940 153 0 76
0.301627 0.210385 0.469058 153 76 0
-0.332317 0.467948 0.469058 153 76 0
-0.065130 -0.524427 -0.497696 153 0 76
0.444563 0.369018 0.022688 153 0 76
0.085599 -0.745994 -0.192093 153 0 76
0.077515 -0.427160 0.391273 153 76 0
0.105823 0.061513 0.469058 153 76 0
0.088309 0.324061 0.469058 153 76 0
-0.420985 -0.745994 0.083536 153 0 76
-0.444406 -0.008096 0.106815 153 0 76
0.185200 -0.745994 0.371023 153 0 76
-0.268625 0.322345 0.391273 153 76 0
-0.400357 0.243886 0.543783 76 0 153
-0.444406 0.457570 -0.205323 153 0 76
0.047393 -0.348750 0.469058 153 76 0
-0.202143 -0.636860 0.469058 153 76 0
-0.389247 0.229516 -0.497696 153 0 76
0.444563 -0.588364 0.024671 153 0 76
0.444563 -0.062872 0.008898 153 0 76
0.149394 0.103219 0.469058 153 76 0
0.444563 0.693386 0.326038 153 0 76
-0.380783 -0.058683 0.574623 76 0 153
0.444563 0.400265 -0.019692 153 0 76
0.224573 0.770810 0.020331 153 0 76
0.137384 0.770810 -0.033152 153 0 76
0.326796 -0.395074 0.391273 153 76 0
-0.031615 0.309245 0.469058 153 76 0
0.444563 0.403783 0.407016 153 0 76
0.444563 -0.641617 -0.102617 153 0 76
0.198115 -0.745994 0.242420 153 0 76
-0.144167 0.770810 -0.250859 153 0 76
0.444563 0.373371 -0.424739 153 0 76
-0.444406 0.222357 -0.046927 153 0 76
0.259025 -0.745994 -0.340787 153 0 76
-0.302319 0.249949 0.469058 153 76 0
0.244089 0.351104 -0.497696 153 0 76
0.444563 0.049989 0.134159 153 0 76
0.280149 0.256115 0.469058 153 76 0
0.245778 -0.182700 0.391273 153 76 0
0.163391 -0.745994 0.159511 153 0 76
0.444282 0.349975 -0.497696 153 0 76
0.371917 -0.619354 -0.497696 153 0 76
-0.167746 0.428084 -0.497696 153 0 76
0.422952 0.735104 0.391273 153 0 76
0.444563 0.081757 -0.271780 153 0 76
-0.400357 0.025046 0.547893 76 0 153
0.102334 -0.721430 -0.497696 153 0 76
0.444563 -0.624084 -0.158588 153 0 76
0.291622 0.770810 0.091125 153 0 76
-0.444406 0.748348 -0.384743 153 0 76
-0.444406 0.013840 -0.362282 153 0 76
-0.400357 -0.086902 0.497435 153 76 0
0.106352 -0.003496 0.469058 153 76 0
-0.444406 0.003664 -0.270940 153 0 76
0.444563 0.183438 0.251882 153 0 76
-0.444406 -0.694663 0.290625 153 0 76
0.444563 -0.088046 0.413536 153 76 0
-0.117805 -0.051717 -0.497696 153 0 76
0.353787 -0.726371 -0.497696 153 0 76
-0.100028 -0.003089 0.391273 153 76 0
0.113188 -0.058410 0.391273 153 76 0
-0.052648 0.400100 -0.497696 153 0 76
-0.006334 0.065525 -0.497696 153 0 76
-0.271771 0.694690 0.391273 153 0 76
0.194758 -0.390017 0.391273 153 76 0
-0.444406 -0.171122 -0.404918 153 0 76
-0.444406 0.638495 0.209201 153 0 76
-0.444406 -0.560086 -0.328771 153 0 76
0.375507 0.297259 0.391273 153 0 76
0.444563 -0.274272 0.376120 153 0 76
0.444563 0.061285 -0.030406 153 0 76
0.444563 -0.442784 0.279565 153 0 76
0.161280 -0.245846 0.391273 153 76 0
-0.368429 -0.253419 0.469058 153 76 0
0.444563 -0.054252 -0.138888 153 0 76
-0.444406 -0.497159 -0.307828 153 0 76
-0.444406 0.250466 -0.311976 153 0 76
0.091921 0.705341 -0.497696 153 0 76
0.247765 0.770810 0.366645 153 0 76
0.327764 -0.745994 -0.096924 153 0 76
-0.115476 -0.603551 0.469058 153 76 0
-0.444406 0.042307 0.304773 153 0 76
0.430699 0.032142 -0.497696 153 0 76
-0.277866 -0.651039 -0.497696 153 0 76
-0.444406 0.699100 0.116265 153 0 76
-0.180284 -0.745994 -0.039943 153 0 76
-0.444406 -0.425855 -0.183716 153 0 76
-0.045457 0.600313 0.469058 153 76 0
0.444563 -0.355565 -0.139362 153 0 76
-0.309529 0.770810 0.141687 153 0 76
-0.300924 -0.444126 0.469058 153 76 0
-0.083452 0.231788 0.391273 153 76 0
0.444563 -0.126687 -0.209966 153 0 76
-0.444406 0.189151 -0.170957 153 0 76
-0.343453 -0.745994 -0.189769 153 0 76
-0.302722 -0.274090 0.469058 153 76 0
0.380389 -0.344558 -0.497696 153 0 76
-0.324773 0.255252 0.391273 153 76 0
-0.444406 -0.564519 0.034243 153 0 76
-0.066273 0.745100 -0.497696 153 0 76
-0.379109 0.685430 0.494753 153 76 0
-0.193971 0.174440 0.469058 153 76 0
0.312254 0.647695 0.391273 204 51 127
0.033192 -0.274597 0.391273 153 76 0
0.142961 -0.093419 -0.497696 153 0 76
-0.377580 0.624198 0.530175 76 0 153
0.395077 -0.496513 0.391273 153 0 76
0.444478 -0.240290 0.448139 153 76 0
0.001955 0.567621 0.391273 153 76 0
-0.444406 -0.073583 0.344727 153 0 76
-0.444406 0.078248 -0.256611 153 0 76
0.444563 -0.015863 -0.391809 153 0 76
-0.366147 0.770810 -0.062456 153 0 76
0.396469 -0.745994 0.106431 153 0 76
-0.444406 -0.560620 -0.469565 153 0 76
-0.438395 -0.745994 -0.197862 153 0 76
-0.322090 0.713471 0.391273 153 0 76
0.444563 0.377876 0.183692 153 0 76
-0.172883 -0.421557 0.391273 153 76 0
0.165266 0.596720 0.391273 153 76 0
-0.097290 0.696653 0.391273 153 0 76
0.444563 0.297929 -0.359970 153 0 76
-0.386660 0.594245 0.469058 153 76 0
0.216867 0.568509 0.469058 153 76 0
0.128307 0.770810 -0.199187 153 0 76
0.316475 -0.745994 -0.195641 153 0 76
0.275375 -0.745994 -0.403741 153 0 76
0.444563 0.607481 0.239980 153 0 76
0.186760 -0.712658 0.456125 153 76 0
-0.248638 0.684065 -0.497696 153 0 76
0.444563 0.467375 0.285430 153 0 76
0.380172 -0.155206 -0.497696 153 0 76
-0.444406 -0.616163 0.135228 153 0 76
0.088575 -0.167203 -0.497696 153 0 76
-0.444406 0.060809 -0.102932 153 0 76
0.092034 0.770810 -0.426053 153 0 76
0.107031 -0.745994 -0.246375 153 0 76
-0.316474 -0.592808 0.391273 153 76 0
-0.364312 0.003554 -0.497696 153 0 76
0.354284 -0.745994 0.081597 153 0 76
0.213270 0.496397 0.391273 153 76 0
-0.175103 0.276474 0.469058 153 76 0
0.431753 -0.609776 -0.497696 153 0 76
0.444563 -0.018558 0.419344 153 76 0
-0.255400 -0.573121 0.469058 153 76 0
0.193970 -0.095815 0.469058 153 76 0
-0.101720 0.770810 0.126387 153 0 76
-0.444406 0.075906 0.053050 153 0 76
-0.047368 -0.745994 0.311175 153 0 76
-0.444406 -0.104955 0.405606 153 0 76
0.038839 -0.194478 -0.497696 153 0 76
-0.125201 -0.745994 -0.018771 153 0 76
-0.421533 0.462564 0.469058 153 76 0
-0.023216 0.153599 -0.497696 153 0 76
-0.042310 -0.330582 -0.497696 153 0 76
-0.335442 -0.622668 0.391273 153 76 0
0.084003 0.183532 0.391273 153 76 0
0.221808 -0.263737 0.391273 153 76 0
0.444563 0.197240 0.027554 153 0 76
0.417851 0.770810 0.242052 153 0 76
0.279897 0.280768 0.391273 153 76 0
0.444563 -0.675956 -0.476263 153 0 76
-0.308042 -0.359277 -0.497696 153 0 76
-0.444406 -0.110742 -0.341513 153 0 76
-0.281396 -0.387496 0.469058 153 76 0
-0.444406 -0.258337 0.355312 153 0 76
0.269715 -0.476334 -0.497696 153 0 76
-0.024723 0.770810 -0.116380 153 0 76
0.185635 -0.287598 -0.497696 153 0 76
-0.444406 0.552475 0.034970 153 0 76
0.250050 0.020835 -0.497696 153 0 76
0.444563 -0.477816 -0.145419 153 0 76
-0.444406 0.111197 0.105435 153 0 76
0.427161 -0.710769 0.391273 153 0 76
-0.061837 0.045287 -0.497696 153 0 76
-0.146551 0.041617 0.391273 153 76 0
0.444563 -0.653108 -0.367529 153 0 76
-0.044159 -0.596702 0.391273 153 76 0
-0.081954 0.336798 0.391273 153 76 0
-0.444406 0.372703 0.247738 153 0 76
-0.417512 0.003500 0.391273 153 0 76
-0.309527 0.605609 0.391273 153 76 0
0.037174 -0.745994 0.234000 153 0 76
-0.077767 -0.745994 -0.129398 153 0 76
0.444563 -0.297106 0.270491 153 0 76
-0.444406 -0.706275 0.400625 153 0 76
0.444563 0.701519 -0.026495 153 0 76
0.444563 0.096251 -0.337903 153 0 76
-0.054606 -0.745994 0.273896 153 0 76
-0.444406 0.507980 -0.403728 153 0 76
-0.124457 -0.722728 0.391273 153 0 76
0.036035 -0.188035 0.469058 153 76 0
-0.444406 -0.311637 0.221850 153 0 76
0.244132 -0.281854 0.469058 153 76 0
0.146681 -0.196345 -0.497696 153 0 76
0.380642 0.167064 0.391273 153 76 0
0.444563 -0.158366 -0.343241 153 0 76
-0.444406 -0.304761 0.150949 153 0 76
0.062987 0.252502 0.391273 153 76 0
0.401745 -0.092168 0.391273 153 0 76
-0.444406 -0.539911 -0.188064 153 0 76
-0.444406 -0.671527 0.226610 153 0 76
-0.223564 0.770810 -0.270860 153 0 76
0.444563 0.021151 0.143089 153 0 76
0.082850 -0.391081 0.469058 153 76 0
0.444563 0.597567 -0.023753 153 0 76
0.272757 0.770810 -0.235208 153 0 76
-0.208625 0.770810 0.011511 153 0 76
0.175615 -0.456812 -0.497696 153 0 76
-0.237924 0.766252 -0.497696 153 0 76
0.444563 -0.199368 -0.046785 153 0 76
0.423906 0.118901 0.391273 153 0 76
0.345288 0.042055 0.469058 153 76 0
-0.095883 -0.138700 0.391273 153 76 0
0.136738 0.212633 0.391273 153 76 0
-0.444406 0.455666 0.201844 153 0 76
-0.353874 0.134018 0.469058 153 76 0
-0.363958 0.770810 -0.354940 153 0 76
0.444563 0.085228 0.048046 153 0 76
-0.261275 0.321406 -0.497696 153 0 76
0.444563 -0.168161 -0.273698 153 0 76
0.188995 0.770810 0.346033 153 0 76
-0.444406 0.119483 -0.264187 153 0 76
0.129442 -0.679044 -0.497696 153 0 76
-0.444406 0.481636 0.185007 153 0 76
0.444563 -0.512614 -0.479714 153 0 76
0.027658 -0.515593 0.391273 153 76 0
0.016317 0.156766 0.469058 153 76 0
-0.150624 0.460018 -0.497696 153 0 76
0.392223 -0.565742 0.469058 153 76 0
0.044590 -0.151346 0.469058 153 76 0
0.253480 -0.422451 0.391273 153 76 0
0.444563 0.039335 -0.352114 153 0 76
0.444563 0.623338 -0.337113 153 0 76
-0.387169 0.131559 0.530175 76 0 153
-0.261928 0.630028 -0.497696 153 0 76
-0.365049 -0.628017 0.391273 153 76 0
-0.054480 0.770810 0.442286 153 0 76
0.016752 0.573722 -0.497696 153 0 76
0.349107 0.253458 0.469058 153 76 0
0.193970 0.770810 0.184208 153 0 76
-0.444406 -0.078273 -0.467754 153 0 76
-0.124370 -0.547071 0.391273 153 76 0
-0.444406 0.125660 -0.200144 153 0 76
0.368166 0.458226 0.391273 153 76 0
-0.444406 0.209150 -0.106049 153 0 76
0.444563 0.600851 -0.058944 153 0 76
0.224634 0.138469 0.391273 153 76 0
0.126501 -0.745994 -0.171036 153 0 76
-0.419693 -0.547444 0.469058 153 76 0
-0.370033 0.102529 0.391273 153 0 76
-0.093186 -0.106877 -0.497696 153 0 76
-0.372666 0.307557 0.530175 76 0 153
-0.187083 0.111543 -0.497696 153 0 76
0.231384 0.770810 -0.254196 153 0 76
0.062877 0.400368 -0.497696 153 0 76
0.014452 0.019471 0.469058 153 76 0
0.328825 0.770810 0.115939 153 0 76
-0.015088 -0.335790 0.391273 153 76 0
0.208307 -0.494155 -0.497696 153 0 76
0.444563 0.198870 -0.049951 153 0 76
0.444563 0.724108 -0.467890 153 0 76
0.364603 -0.745994 0.344035 153 0 76
0.444563 0.492638 -0.049972 153 0 76
0.159648 -0.224078 0.469058 153 76 0
0.442975 -0.538168 0.391273 153 0 76
0.289563 0.473545 0.469058 153 76 0
0.313383 0.770810 -0.167354 153 0 76
0.265753 0.619723 0.391273 204 51 127
0.257747 -0.745994 0.239752 153 0 76
0.444563 -0.403566 0.364539 153 0 76
-0.105777 -0.409666 0.391273 153 76 0
-0.252256 -0.745994 -0.460545 153 0 76
0.371728 0.770810 -0.057720 153 0 76
-0.444406 -0.114571 0.125837 153 0 76
-0.381614 0.213477 0.574623 76 0 153
-0.406768 0.543395 0.469058 153 76 0
-0.370282 -0.745994 -0.053331 153 0 76
-0.444406 0.401894 -0.467002 153 0 76
0.325149 -0.196951 0.391273 153 76 0
-0.444406 -0.316847 0.342710 153 0 76
-0.442416 0.770810 -0.190239 153 0 76
-0.160316 -0.712658 0.405895 153 0 76
-0.318068 0.770810 0.369723 153 0 76
-0.441589 -0.406873 0.391273 153 0 76
0.444563 0.120487 -0.290189 153 0 76
-0.444406 0.022841 -0.427736 153 0 76
0.444563 -0.237615 -0.252403 153 0 76
0.444563 0.009131 -0.349397 153 0 76
0.034422 0.749340 -0.497696 153 0 76
-0.189468 -0.212412 0.469058 153 76 0
0.444563 0.699892 -0.268577 153 0 76
0.164085 -0.745994 0.279563 153 0 76
0.369457 -0.040395 0.391273 153 0 76
-0.444406 0.529966 -0.345780 153 0 76
-0.444406 -0.514710 -0.363444 153 0 76
-0.374988 -0.712658 0.446308 153 76 0
-0.444406 0.148127 0.317171 153 0 76
0.195549 0.496831 0.469058 153 76 0
0.387022 -0.584332 -0.497696 153 0 76
-0.134894 0.770810 -0.304207 153 0 76
0.249901 -0.061866 0.391273 153 76 0
0.128002 -0.627575 0.391273 153 76 0
0.444563 -0.631922 0.076664 153 0 76
0.444563 0.268863 0.368539 153 0 76
-0.344400 -0.562238 -0.497696 153 0 76
-0.417918 0.645402 0.391273 153 0 76
0.154440 -0.503263 -0.497696 153 0 76
-0.108937 0.770810 0.017492 153 0 76
-0.444406 0.020506 0.004740 153 0 76
0.097907 0.391638 0.391273 153 76 0
-0.444406 0.508498 -0.170076 153 0 76
-0.102672 -0.440604 0.391273 153 76 0
0.234091 0.770810 0.067117 153 0 76
0.231094 0.571427 -0.497696 153 0 76
-0.094469 -0.745994 -0.433538 153 0 76
-0.392034 0.718766 0.508967 76 0 153
0.444563 -0.343914 -0.292799 153 0 76
0.444563 -0.038089 0.029996 153 0 76
-0.059508 -0.419313 0.469058 153 76 0
-0.071104 0.565200 -0.497696 153 0 76
-0.344525 0.561849 0.469058 153 76 0
0.366719 0.738557 0.469058 153 76 0
0.206848 -0.219786 0.469058 153 76 0
0.000230 -0.139994 0.469058 153 76 0
0.444563 0.259624 -0.076718 153 0 76
0.444563 0.639530 -0.019184 153 0 76
-0.030081 0.430123 0.391273 153 76 0
-0.444406 -0.723382 0.173626 153 0 76
-0.444406 -0.259457 0.089814 153 0 76
0.411052 -0.365216 0.391273 153 0 76
-0.373073 0.415395 0.391273 153 0 76
0.444563 0.739937 -0.142984 153 0 76
0.101408 0.770810 0.189874 153 0 76
-0.122802 0.770810 0.069750 153 0 76
0.131851 0.770810 0.197834 153 0 76
-0.361230 -0.406081 -0.497696 153 0 76
-0.444406 -0.442438 -0.380534 153 0 76
0.391624 0.146996 0.469058 153 76 0
-0.084212 0.770810 0.365090 153 0 76
0.421218 -0.271060 -0.497696 153 0 76
0.274841 0.770810 -0.160804 153 0 76
-0.444406 -0.123074 0.157347 153 0 76
0.133959 0.770810 -0.168368 153 0 76
-0.444406 0.163975 -0.307851 153 0 76
-0.444406 -0.146875 0.262484 153 0 76
-0.444406 0.705709 -0.041903 153 0 76
0.077050 0.175552 0.469058 153 76 0
0.444563 0.264385 0.433480 153 76 0
0.438972 0.244525 -0.497696 153 0 76
-0.164829 0.589328 -0.497696 153 0 76
-0.032185 -0.646201 0.469058 153 76 0
0.106492 0.770810 0.421177 153 0 76
0.431511 -0.175579 0.467038 153 76 0
0.243989 0.341168 0.469058 153 76 0
0.414543 0.416397 0.391273 153 0 76
-0.024836 -0.051254 -0.497696 153 0 76
0.444563 -0.660131 0.184770 153 0 76
-0.378968 0.741641 0.469058 153 76 0
-0.328846 0.247003 -0.497696 153 0 76
0.050225 0.770810 0.142173 153 0 76
-0.444406 -0.479078 0.348877 153 0 76
0.027289 -0.519103 -0.497696 153 0 76
0.444563 -0.347604 -0.440554 153 0 76
0.444563 -0.724521 -0.242084 153 0 76
-0.444406 -0.476986 0.285949 153 0 76
-0.444406 0.190554 0.346368 153 0 76
0.278107 -0.336297 -0.497696 153 0 76
-0.152755 0.628960 0.469058 153 76 0
-0.408949 -0.374349 -0.497696 153 0 76
0.060774 0.556551 0.469058 153 76 0
0.444563 -0.522601 -0.041680 153 0 76
0.444563 0.081498 -0.472543 153 0 76
-0.174174 -0.585025 0.391273 153 76 0
0.204597 -0.260044 -0.497696 153 0 76
0.094709 0.482404 0.469058 153 76 0
-0.444406 0.210291 -0.251892 153 0 76
0.370078 0.095720 0.469058 153 76 0
-0.298350 0.723903 -0.497696 153 0 76
0.260452 0.770810 0.308947 153 0 76
-0.147443 -0.555061 -0.497696 153 0 76
-0.377243 -0.245057 -0.497696 153 0 76
-0.251840 -0.283130 0.469058 153 76 0
-0.151141 -0.103879 -0.497696 153 0 76
0.444563 0.377152 0.081174 153 0 76
-0.444406 -0.132731 -0.425328 153 0 76
-0.444406 0.641312 -0.100880 153 0 76
-0.423657 0.450153 0.391273 153 0 76
-0.444406 -0.396708 0.148818 153 0 76
0.444563 0.318991 0.404486 153 0 76
0.413693 0.677370 0.391273 153 0 76
-0.113195 -0.745994 -0.323239 153 0 76
0.420040 -0.745994 0.240524 153 0 76
0.291390 0.404831 -0.497696 153 0 76
0.444563 0.060128 0.101858 153 0 76
0.444563 0.276806 0.085749 153 0 76
-0.444406 -0.609818 0.331101 153 0 76
0.322803 0.512664 0.391273 153 76 0
-0.444406 -0.099148 -0.409125 153 0 76
0.319303 0.770810 0.443402 153 76 0
-0.229140 0.534041 0.391273 153 76 0
0.444563 -0.698436 -0.342691 153 0 76
0.444563 -0.391657 0.087429 153 0 76
-0.444406 -0.338883 -0.476730 153 0 76
-0.258648 -0.745994 0.192587 153 0 76
0.444563 0.163410 0.172718 153 0 76
-0.444406 0.602224 0.068139 153 0 76
0.444563 -0.144400 0.075272 153 0 76
0.419942 0.770810 0.210080 153 0 76
0.444563 0.641053 -0.387713 153 0 76
-0.394794 -0.474630 0.391273 153 0 76
-0.276591 0.573729 0.391273 153 76 0
-0.155621 -0.399702 -0.497696 153 0 76
0.413928 -0.474823 0.469058 153 76 0
0.444563 0.284748 -0.419035 153 0 76
-0.153957 0.666610 0.391273 153 76 0
-0.444406 -0.561900 -0.067387 153 0 76
0.267135 0.316788 0.391273 153 76 0
0.428612 0.715070 0.468124 153 76 0
-0.350213 -0.295398 0.391273 153 76 0
-0.444406 -0.638744 -0.420820 153 0 76
0.254837 -0.745835 -0.497696 153 0 76
0.444563 -0.391623 -0.461192 153 0 76
0.134831 -0.745994 0.006831 153 0 76
-0.426355 0.239759 0.391273 153 76 0
-0.444406 -0.398807 -0.003594 153 0 76
0.027002 -0.455576 -0.497696 153 0 76
0.213661 -0.670585 0.469058 153 76 0
-0.182532 -0.527077 0.391273 153 76 0
-0.011265 0.738212 0.391273 153 0 76
0.070292 -0.018613 -0.497696 153 0 76
-0.077993 -0.607483 0.469058 153 76 0
0.444563 0.699876 0.171034 153 0 76
-0.254587 0.190409 0.469058 153 76 0
0.444563 -0.313038 -0.141467 153 0 76
0.247617 0.668370 0.469058 204 51 127
-0.229785 0.770810 -0.360794 153 0 76
0.237297 -0.460998 -0.497696 153 0 76
-0.091087 -0.578647 -0.497696 153 0 76
0.444563 -0.331292 0.044892 153 0 76
0.212584 0.326492 0.391273 153 76 0
0.444563 -0.055422 0.391444 153 0 76
-0.444406 0.633249 -0.475316 153 0 76
0.174517 -0.745994 0.025260 153 0 76
-0.272412 -0.745994 0.029054 153 0 76
-0.341490 0.770810 0.249528 153 0 76
0.173968 0.219482 0.391273 153 76 0
0.047674 -0.334357 0.391273 153 76 0
0.444563 0.104822 0.290146 153 0 76
-0.444406 -0.281552 0.302486 153 0 76
-0.444406 0.130867 -0.170445 153 0 76
-0.206768 0.586596 0.391273 153 76 0
-0.444406 -0.603094 0.063840 153 0 76
0.444563 -0.676102 0.358260 153 0 76
0.423146 0.770810 0.369692 153 0 76
-0.344109 -0.745994 -0.136492 153 0 76
-0.216484 -0.452760 -0.497696 153 0 76
-0.444406 0.646509 -0.206741 153 0 76
0.192644 0.770810 0.148442 153 0 76
0.143126 0.266691 0.391273 153 76 0
-0.444406 0.166614 -0.139163 153 0 76
0.444563 -0.393346 0.418961 153 76 0
0.444563 0.109130 0.137463 153 0 76
0.360951 -0.220575 0.391273 153 76 0
-0.289066 0.571825 -0.497696 153 0 76
-0.133228 0.677137 -0.497696 153 0 76
-0.434720 0.524288 0.465128 153 76 0
-0.444406 0.269316 -0.361598 153 0 76
-0.188989 -0.745994 0.204578 153 0 76
0.076383 -0.561622 0.391273 153 76 0
-0.444406 0.384636 0.133687 153 0 76
-0.412668 0.365958 0.391273 153 0 76
0.064247 -0.745994 -0.151072 153 0 76
0.444563 0.135384 0.035799 153 0 76
0.287541 -0.676344 0.469058 153 76 0
0.074738 -0.242222 -0.497696 153 0 76
0.288557 0.636639 -0.497696 153 0 76
-0.186758 0.770810 -0.134366 153 0 76
-0.264832 -0.745994 -0.367887 153 0 76
-0.319186 -0.712658 0.467756 153 76 0
-0.221018 -0.173660 -0.497696 153 0 76
0.215766 -0.573904 0.469058 153 76 0
0.348073 0.710922 -0.497696 153 0 76
-0.244222 0.132734 -0.497696 153 0 76
0.444563 0.030053 -0.001419 153 0 76
-0.238126 -0.446982 0.469058 153 76 0
-0.444406 0.290010 -0.149011 153 0 76
0.429315 -0.363720 0.467885 153 76 0
-0.444406 0.635217 0.409955 153 0 76
0.444563 -0.699561 0.255478 153 0 76
-0.444406 0.023832 0.439343 153 76 0
0.444563 -0.489756 0.410712 153 76 0
-0.307400 0.165383 0.469058 153 76 0
0.305162 0.650190 0.469058 204 51 127
0.444563 0.340272 0.320375 153 0 76
0.444563 0.494781 -0.284305 153 0 76
0.444563 0.323560 0.223341 153 0 76
-0.187896 0.119618 0.469058 153 76 0
-0.139624 0.770810 0.144949 153 0 76
0.363589 -0.509352 -0.497696 153 0 76
0.092565 -0.745994 0.045141 153 0 76
-0.444406 0.451342 0.120727 153 0 76
-0.437101 -0.242648 -0.497696 153 0 76
0.370245 0.770810 0.434359 153 0 76
0.008687 0.266470 -0.497696 153 0 76
-0.444406 0.407940 0.436228 153 76 0
-0.444406 -0.192587 -0.226245 153 0 76
0.444563 -0.713215 -0.191979 153 0 76
0.444563 -0.285837 -0.046651 153 0 76
-0.360328 0.350688 0.391273 153 76 0
-0.444406 0.452825 -0.445134 153 0 76
-0.123537 0.124051 0.391273 153 76 0
0.019766 0.770810 -0.163943 153 0 76
0.388174 0.770810 0.107725 153 0 76
0.070702 -0.007629 0.391273 153 76 0
-0.444406 0.199501 0.096315 153 0 76
-0.444406 -0.438748 0.019567 153 0 76
0.394218 0.593662 0.469058 153 76 0
0.444563 -0.185260 -0.226720 153 0 76
0.126315 -0.534992 -0.497696 153 0 76
-0.444406 -0.654317 -0.302389 153 0 76
-0.117250 -0.638036 -0.497696 153 0 76
-0.180915 0.745015 0.391273 153 0 76
0.363218 -0.230747 0.469058 153 76 0
-0.444406 0.177613 -0.064901 153 0 76
-0.260483 0.078918 0.469058 153 76 0
-0.444406 0.586756 -0.012185 153 0 76
-0.444406 -0.411173 0.280987 153 0 76
0.444563 -0.567263 -0.080728 153 0 76
-0.089198 0.231403 0.469058 153 76 0
-0.291895 0.642461 0.469058 153 76 0
-0.163613 0.377717 -0.497696 153 0 76
-0.444406 0.258891 0.183983 153 0 76
0.444563 -0.078992 0.198668 153 0 76
0.412229 -0.745994 0.049242 153 0 76
0.184639 -0.745994 -0.023040 153 0 76
0.444563 0.527546 -0.387242 153 0 76
0.444563 0.097942 -0.414399 153 0 76
0.444563 -0.332849 0.341092 153 0 76
0.444563 0.217327 -0.440539 153 0 76
-0.444406 -0.232800 0.269686 153 0 76
0.444563 -0.399607 0.054685 153 0 76
0.081853 -0.509410 0.469058 153 76 0
-0.410182 0.318998 0.391273 153 0 76
0.373880 0.240661 -0.497696 153 0 76
0.444563 -0.245429 -0.428829 153 0 76
-0.300772 -0.745994 0.150511 153 0 76
0.305254 -0.745994 -0.055523 153 0 76
-0.343596 -0.316921 0.469058 153 76 0
0.274572 -0.745994 0.143151 153 0 76
-0.078471 -0.284143 0.469058 153 76 0
-0.320938 -0.744120 0.391273 153 0 76
0.151879 0.579742 0.469058 153 76 0
0.378352 -0.209285 -0.497696 153 0 76
-0.088648 0.591183 -0.497696 153 0 76
0.444563 -0.671638 -0.216780 153 0 76
-0.444406 0.315215 -0.222813 153 0 76
-0.247490 -0.745994 -0.080443 153 0 76
-0.208395 0.770810 0.291280 153 0 76
0.444563 -0.411428 0.191520 153 0 76
-0.444406 0.588779 -0.323272 153 0 76
0.164432 -0.745994 -0.217840 153 0 76
-0.044746 -0.092911 -0.497696 153 0 76
-0.444406 0.411767 -0.360962 153 0 76
0.236827 -0.518269 -0.497696 153 0 76
-0.093867 -0.712658 0.468011 153 76 0
-0.196576 -0.010657 0.391273 153 76 0
0.275786 -0.745994 0.301076 153 0 76
-0.362068 0.209091 0.391273 153 76 0
-0.444406 0.126598 0.277668 153 0 76
-0.350798 0.542375 -0.497696 153 0 76
0.080353 0.192706 -0.497696 153 0 76
0.371754 -0.108528 -0.497696 153 0 76
-0.444406 -0.605407 -0.153969 153 0 76
0.444563 -0.666981 -0.421528 153 0 76
0.137441 0.433668 0.391273 153 76 0
-0.188427 -0.745994 0.374192 153 0 76
0.444563 0.545315 0.195927 153 0 76
-0.430785 -0.745994 0.363809 153 0 76
-0.004156 0.490221 -0.497696 153 0 76
-0.240475 0.770810 -0.178305 153 0 76
0.330615 -0.638545 0.469058 153 76 0
0.343847 0.770810 -0.455367 153 0 76
0.444563 -0.647689 -0.264987 153 0 76
-0.059412 0.770810 0.290612 153 0 76
0.261964 0.500638 -0.497696 153 0 76
0.273765 0.168247 0.391273 153 76 0
-0.272060 -0.100299 0.469058 153 76 0
-0.185019 -0.745994 -0.083872 153 0 76
-0.195259 -0.590008 0.469058 153 76 0
0.444563 0.224777 0.397459 153 0 76
-0.096786 0.768840 0.391273 153 0 76
-0.070337 -0.509535 0.469058 153 76 0
-0.444406 0.510475 0.267236 153 0 76
0.314085 0.065245 -0.497696 153 0 76
0.130919 -0.745994 0.389723 153 0 76
-0.109874 0.157087 -0.497696 153 0 76
-0.127965 -0.279175 -0.497696 153 0 76
-0.444406 0.725869 -0.438013 153 0 76
0.443054 0.041941 0.454800 153 76 0
0.444563 -0.150224 0.105219 153 0 76
-0.444406 -0.287120 0.372407 153 0 76
0.101484 0.770810 -0.057209 153 0 76
0.081814 0.071264 0.391273 153 76 0
0.109924 -0.109579 0.391273 153 76 0
0.337248 -0.605234 0.391273 153 76 0
0.132736 -0.745994 -0.494772 153 0 76
-0.444406 0.719484 0.438076 153 76 0
0.169016 -0.598164 0.391273 153 76 0
-0.444406 -0.418602 -0.422969 153 0 76
0.444563 -0.004410 0.081813 153 0 76
0.237526 -0.688521 0.469058 153 76 0
-0.444242 -0.511427 -0.497696 153 0 76
0.194826 -0.215267 -0.497696 153 0 76
0.258548 -0.559424 0.391273 153 76 0
0.356103 0.622809 0.469058 204 51 127
-0.053390 -0.268494 -0.497696 153 0 76
0.444563 0.372032 -0.164884 153 0 76
0.444563 0.180756 -0.215041 153 0 76
0.218861 -0.164216 0.391273 153 76 0
0.444563 -0.706193 -0.104947 153 0 76
-0.058380 -0.691096 0.391273 153 76 0
-0.379662 0.734679 0.391273 153 0 76
-0.098977 -0.301514 0.391273 153 76 0
-0.444406 -0.403153 0.223128 153 0 76
-0.444406 0.675997 -0.469303 153 0 76
0.444563 -0.416600 -0.075485 153 0 76
-0.110410 -0.396826 -0.497696 153 0 76
-0.444406 -0.159134 -0.073634 153 0 76
0.230240 -0.697236 0.391273 153 0 76
0.246376 -0.698469 -0.497696 153 0 76
-0.288228 -0.145948 0.469058 153 76 0
0.329493 0.253293 0.391273 153 76 0
0.413694 0.632239 0.391273 153 0 76
-0.361111 0.718766 0.508643 153 76 0
0.444563 0.665535 0.028512 153 0 76
0.118095 -0.694004 0.391273 153 76 0
-0.031276 -0.668403 -0.497696 153 0 76
-0.260928 0.348331 0.469058 153 76 0
-0.294820 -0.745994 -0.323994 153 0 76
0.145847 -0.482427 0.391273 153 76 0
-0.444406 -0.074438 0.374716 153 0 76
-0.059888 -0.745994 0.211181 153 0 76
-0.351373 0.314272 0.469058 153 76 0
0.351573 0.153941 -0.497696 153 0 76
-0.026862 0.770810 -0.416479 153 0 76
-0.421919 0.703896 0.391273 153 0 76
0.444563 0.038312 -0.470998 153 0 76
-0.348711 0.770810 0.096065 153 0 76
0.399794 0.770810 -0.190811 153 0 76
-0.066559 0.161279 0.391273 153 76 0
0.235294 0.770810 -0.068619 153 0 76
-0.015264 -0.745994 0.248515 153 0 76
-0.396092 -0.719959 0.391273 153 0 76
-0.281380 -0.745994 0.387939 153 0 76
-0.444406 -0.610381 -0.099591 153 0 76
-0.184444 -0.127363 0.469058 153 76 0
0.444563 -0.468202 0.188480 153 0 76
0.444563 0.751502 0.415005 153 0 76
-0.444406 0.327665 0.163802 153 0 76
0.339087 -0.303866 -0.497696 153 0 76
-0.293265 0.498080 0.391273 153 76 0
0.444563 0.162190 -0.278517 153 0 76
0.382142 0.027479 0.391273 153 0 76
-0.202341 -0.357367 -0.497696 153 0 76
-0.301103 -0.550402 -0.497696 153 0 76
-0.341654 0.123898 -0.497696 153 0 76
-0.131938 0.770810 -0.379446 153 0 76
0.444563 0.299567 0.261409 153 0 76
0.201644 0.750632 -0.497696 153 0 76
0.321037 -0.446516 -0.497696 153 0 76
-0.444406 -0.562907 0.309901 153 0 76
-0.444406 -0.321900 -0.331059 153 0 76
0.071064 -0.745994 0.308460 153 0 76
-0.298555 0.033570 0.391273 153 76 0
0.212910 -0.170269 0.469058 153 76 0
0.140346 -0.359753 0.469058 153 76 0
-0.444406 0.681989 -0.159672 153 0 76
-0.343097 0.583927 0.391273 153 76 0
0.364780 -0.745994 -0.085688 153 0 76
0.144994 -0.745994 -0.241298 153 0 76
-0.008268 -0.493795 0.469058 153 76 0
-0.171316 -0.023247 -0.497696 153 0 76
-0.444406 0.040184 -0.383705 153 0 76
-0.266355 -0.426864 0.391273 153 76 0
0.444563 0.739826 -0.258902 153 0 76
-0.425190 -0.745994 -0.248625 153 0 76
0.183099 0.770810 -0.287281 153 0 76
-0.132337 0.633260 -0.497696 153 0 76
-0.014521 0.729936 0.469058 153 76 0
-0.320854 0.073702 0.391273 153 76 0
0.195217 -0.661314 -0.497696 153 0 76
-0.394478 -0.095197 0.546581 76 0 153
-0.181346 0.284603 0.391273 153 76 0
0.444563 -0.248582 -0.014290 153 0 76
-0.444406 0.321808 0.205497 153 0 76
-0.438302 -0.075524 -0.497696 153 0 76
-0.444406 -0.319553 0.024755 153 0 76
-0.444406 -0.735814 -0.304750 153 0 76
-0.034075 0.442517 -0.497696 153 0 76
-0.386603 0.475929 0.469058 153 76 0
0.423085 0.770810 0.094296 153 0 76
0.018982 -0.039555 0.469058 153 76 0
-0.270318 0.254843 0.391273 153 76 0
0.300753 0.226557 0.391273 153 76 0
-0.444406 0.583244 0.176249 153 0 76
0.444563 -0.059749 -0.066337 153 0 76
-0.294969 0.416739 0.391273 153 76 0
0.444563 0.360591 -0.109217 153 0 76
-0.444406 0.544460 0.419162 153 76 0
-0.444406 0.101330 -0.055928 153 0 76
-0.348678 0.770810 -0.153971 153 0 76
0.231179 0.387714 0.469058 153 76 0
0.073647 -0.745994 0.226665 153 0 76
0.348245 0.329865 -0.497696 153 0 76
-0.321200 0.323383 -0.497696 153 0 76
0.177934 0.770810 -0.343289 153 0 76
0.412434 -0.687845 -0.497696 153 0 76
0.392362 -0.315832 0.469058 153 76 0
-0.045049 -0.424903 0.391273 153 76 0
0.444563 -0.464861 -0.402850 153 0 76
-0.444406 -0.014644 -0.473974 153 0 76
-0.282998 0.770810 -0.150476 153 0 76
-0.444406 0.711886 -0.301286 153 0 76
-0.358551 -0.455967 0.469058 153 76 0
0.444563 -0.340455 -0.240269 153 0 76
-0.444406 0.664221 0.407759 153 76 0
0.094792 -0.745994 0.345063 153 0 76
0.444563 0.388516 -0.233011 153 0 76
-0.444406 0.040211 0.136858 153 0 76
0.444563 -0.198481 0.124987 153 0 76
-0.096270 0.643879 0.469058 153 76 0
0.444563 0.228603 -0.209321 153 0 76
-0.444406 0.301270 0.421556 153 76 0
-0.444406 -0.069934 -0.071967 153 0 76
-0.444406 -0.254144 0.217769 153 0 76
0.316974 -0.267487 0.469058 153 76 0
0.246243 0.770810 0.164829 153 0 76
-0.444406 0.142219 0.175383 153 0 76
-0.444406 0.596229 -0.245287 153 0 76
-0.177654 0.553387 -0.497696 153 0 76
-0.390493 -0.614366 0.469058 153 76 0
-0.444406 0.192613 0.421035 153 76 0
-0.153211 -0.708552 0.469058 153 76 0
0.444523 -0.036594 0.447454 153 76 0
0.368592 0.655904 -0.497696 153 0 76
0.444563 0.332053 -0.018856 153 0 76
0.087100 0.510942 -0.497696 153 0 76
-0.419511 -0.745994 0.036168 153 0 76
0.406826 -0.745994 -0.418158 153 0 76
0.380896 0.497409 0.391273 153 0 76
-0.115507 0.635738 0.391273 153 76 0
0.185706 -0.550119 -0.497696 153 0 76
-0.400405 -0.593695 -0.497696 153 0 76
-0.037808 -0.180262 0.391273 153 76 0
-0.037361 0.113194 0.391273 153 76 0
0.145125 0.503181 0.469058 153 76 0
0.262438 0.041038 0.391273 153 76 0
-0.417382 0.770810 0.395227 153 0 76
-0.444406 0.079074 0.303482 153 0 76
0.351593 -0.745994 -0.041354 153 0 76
0.444563 -0.284327 -0.236769 153 0 76
-0.252571 0.181110 -0.497696 153 0 76
-0.444406 0.708158 0.199351 153 0 76
-0.277925 -0.684853 0.469058 153 76 0
0.042545 0.770810 0.257919 153 0 76
-0.060397 -0.157806 0.391273 153 76 0
0.164624 0.770810 -0.426972 153 0 76
-0.310345 -0.624024 0.469058 153 76 0
-0.234293 -0.675501 -0.497696 153 0 76
0.444563 -0.155222 -0.382471 153 0 76
0.270876 0.759019 0.469058 153 76 0
0.038738 0.693240 -0.497696 153 0 76
-0.173251 0.319419 0.391273 153 76 0
-0.415847 -0.314990 0.391273 153 0 76
-0.444406 0.441395 0.315745 153 0 76
0.411816 0.770810 -0.343755 153 0 76
0.172401 -0.446156 0.391273 153 76 0
-0.381452 0.076274 -0.497696 153 0 76
-0.064713 -0.228368 0.391273 153 76 0
0.155274 -0.484543 0.469058 153 76 0
-0.444406 -0.722106 0.227639 153 0 76
-0.444406 -0.196862 0.221067 153 0 76
0.444563 -0.282868 0.318484 153 0 76
-0.352988 0.069031 0.391273 153 76 0
-0.394296 0.271026 -0.497696 153 0 76
-0.444406 -0.155140 -0.370516 153 0 76
-0.255647 0.589014 -0.497696 153 0 76
0.444563 -0.086767 -0.466225 153 0 76
-0.122914 0.459282 0.469058 153 76 0
-0.226302 0.770810 -0.325630 153 0 76
-0.346347 -0.685396 0.391273 153 0 76
0.444563 -0.280654 -0.378476 153 0 76
-0.056570 0.366710 0.469058 153 76 0
-0.444406 0.592116 0.124429 153 0 76
-0.259368 -0.712658 0.462620 153 76 0
0.444563 0.434186 0.088913 153 0 76
-0.382568 0.073858 0.530175 76 0 153
0.444563 0.151013 0.126084 153 0 76
0.169179 0.238401 -0.497696 153 0 76
-0.405933 0.227300 0.469058 153 76 0
0.444563 0.510101 -0.137069 153 0 76
0.311796 -0.532531 0.469058 153 76 0
-0.006014 -0.202463 -0.497696 153 0 76
-0.162112 0.164037 0.391273 153 76 0
-0.444406 0.144086 -0.027536 153 0 76
0.444563 0.321281 -0.329378 153 0 76
0.444563 0.758358 -0.170457 153 0 76
-0.228878 -0.745994 -0.402161 153 0 76
0.322381 0.472548 0.391273 153 76 0
0.180453 -0.124264 -0.497696 153 0 76
0.444563 -0.527658 -0.197772 153 0 76
-0.444406 -0.461928 -0.285002 153 0 76
-0.444406 0.643787 -0.336513 153 0 76
-0.374162 0.133328 -0.497696 153 0 76
-0.006079 0.322904 0.391273 153 76 0
0.444563 0.414039 0.380533 153 0 76
-0.444406 0.400312 -0.236166 153 0 76
0.248108 -0.745994 0.030672 153 0 76
0.444563 0.001912 -0.296126 153 0 76
0.394793 -0.745994 0.206468 153 0 76
0.074299 -0.745994 -0.367005 153 0 76
-0.444406 0.256947 -0.071835 153 0 76
0.184902 -0.319487 0.469058 153 76 0
-0.444406 0.088305 -0.415188 153 0 76
-0.444406 0.755924 0.071864 153 0 76
-0.350352 0.303553 0.547748 76 0 153
0.444563 -0.551071 -0.376699 153 0 76
0.194461 0.429514 0.391273 153 76 0
-0.217678 0.770810 0.360024 153 0 76
0.442307 -0.678693 0.456483 153 76 0
-0.187845 -0.176536 0.391273 153 76 0
0.444563 0.235545 0.117384 153 0 76
0.444563 0.219425 0.157343 153 0 76
-0.337324 0.770810 0.314680 153 0 76
-0.290040 0.053873 -0.497696 153 0 76
0.444563 -0.195936 0.297481 153 0 76
0.361639 0.770810 0.082826 153 0 76
0.316734 0.587511 0.469058 153 76 0
-0.444406 -0.131637 -0.482966 153 0 76
-0.068176 -0.681315 -0.497696 153 0 76
0.444563 -0.478713 0.091754 153 0 76
0.444563 -0.388255 -0.188966 153 0 76
-0.189664 -0.712658 0.441689 153 76 0
-0.444406 -0.493484 0.033658 153 0 76
-0.392204 -0.495518 -0.497696 153 0 76
0.444563 -0.400581 -0.301850 153 0 76
-0.444406 0.347645 -0.141289 153 0 76
0.412582 -0.745994 -0.364121 153 0 76
0.444563 0.312578 0.175154 153 0 76
-0.145030 -0.046613 0.391273 153 76 0
0.202550 -0.745994 -0.239934 153 0 76
0.388826 -0.048388 -0.497696 153 0 76
0.444563 0.646570 -0.161105 153 0 76
0.089727 0.770810 -0.258513 153 0 76
-0.400357 0.577118 0.534486 76 0 153
0.444563 0.231122 0.332713 153 0 76
-0.016897 -0.745994 0.213482 153 0 76
-0.444406 -0.046655 0.015400 153 0 76
-0.268543 -0.303146 0.391273 153 76 0
-0.101582 0.097771 -0.497696 153 0 76
0.444563 0.120398 0.239883 153 0 76
-0.280428 0.770810 -0.405523 153 0 76
-0.319543 -0.608373 -0.497696 153 0 76
-0.077752 0.572332 0.469058 153 76 0
-0.432210 0.649471 0.466615 153 76 0
-0.007585 -0.621243 0.391273 153 76 0
-0.198255 -0.240427 0.391273 153 76 0
0.083981 -0.745994 -0.090221 153 0 76
0.012173 0.770810 0.206053 153 0 76
-0.154204 -0.745994 -0.163657 153 0 76
-0.302226 0.770810 -0.178374 153 0 76
-0.400357 0.277171 0.564524 76 0 153
-0.052219 0.461021 0.469058 153 76 0
-0.045502 -0.360177 0.469058 153 76 0
0.355243 -0.745994 -0.278308 153 0 76
-0.071494 0.035457 0.469058 153 76 0
0.233665 -0.745994 -0.018385 153 0 76
-0.012051 0.380986 -0.497696 153 0 76
0.444563 -0.208354 -0.011168 153 0 76
0.444563 0.155892 -0.399992 153 0 76
-0.293910 0.714883 0.391273 153 0 76
-0.174176 -0.745994 -0.439289 153 0 76
0.113974 0.192348 -0.497696 153 0 76
-0.444406 -0.633660 -0.196770 153 0 76
0.019332 0.212690 -0.497696 153 0 76
0.123368 -0.745994 -0.444857 153 0 76
0.230873 -0.745994 -0.342420 153 0 76
0.444563 0.525404 -0.261738 153 0 76
-0.311177 -0.410443 0.391273 153 76 0
0.290006 -0.604662 0.391273 153 76 0
-0.444406 -0.722758 0.038084 153 0 76
-0.157977 -0.339034 0.469058 153 76 0
-0.444406 -0.163348 0.400185 153 76 0
0.444563 0.153500 0.279774 153 0 76
0.444563 0.722320 0.146038 153 0 76
-0.242842 0.770810 0.056774 153 0 76
0.203367 -0.522177 0.391273 153 76 0
-0.367814 -0.015456 0.391273 153 0 76
-0.444406 -0.201283 -0.035557 153 0 76
0.234659 0.739786 0.391273 153 0 76
-0.444406 0.481878 -0.379554 153 0 76
-0.444406 -0.044699 -0.128217 153 0 76
-0.254510 0.385176 0.391273 153 76 0
-0.416498 0.388542 -0.497696 153 0 76
0.391902 0.770810 -0.241848 153 0 76
-0.208064 -0.047227 0.391273 153 76 0
-0.444406 -0.313628 -0.265812 153 0 76
-0.444406 0.027341 -0.055086 153 0 76
0.387987 0.126481 -0.497696 153 0 76
-0.075470 -0.611414 0.391273 153 76 0
-0.444406 0.192733 -0.203053 153 0 76
0.155391 0.333079 0.469058 153 76 0
-0.334836 -0.745994 0.107543 153 0 76
-0.444406 -0.593796 -0.313502 153 0 76
-0.074552 0.134152 -0.497696 153 0 76
-0.444406 -0.122884 -0.157014 153 0 76
-0.163186 -0.505450 0.469058 153 76 0
-0.401004 -0.745994 0.296104 153 0 76
-0.202291 -0.565226 -0.497696 153 0 76
0.444563 0.373819 0.387396 153 0 76
0.218483 0.103655 -0.497696 153 0 76
0.332607 0.095729 -0.497696 153 0 76
-0.444406 -0.712912 -0.110792 153 0 76
0.444563 -0.143968 -0.238530 153 0 76
0.010458 -0.745994 -0.081747 153 0 76
-0.373647 0.770810 0.443756 153 76 0
-0.147430 -0.702424 -0.497696 153 0 76
0.156697 0.114538 0.391273 153 76 0
0.074662 0.770810 0.030894 153 0 76
0.041785 -0.745994 0.267020 153 0 76
-0.113251 -0.703900 -0.497696 153 0 76
-0.366926 0.251244 0.391273 153 0 76
-0.416991 0.425979 0.469058 153 76 0
-0.326142 0.466185 0.391273 153 76 0
0.444563 0.243553 -0.402180 153 0 76
-0.074400 0.504919 -0.497696 153 0 76
-0.362714 -0.745994 0.009595 153 0 76
-0.170537 -0.745994 -0.360799 153 0 76
-0.429386 -0.745994 0.306194 153 0 76
0.225858 -0.115216 0.391273 153 76 0
-0.282496 0.770810 0.450055 153 76 0
-0.075231 0.770810 -0.312064 153 0 76
-0.180298 -0.543354 -0.497696 153 0 76
0.315789 -0.387796 -0.497696 153 0 76
0.231175 -0.471351 0.391273 153 76 0
0.045691 -0.745994 -0.424743 153 0 76
0.180175 0.407917 -0.497696 153 0 76
-0.045543 -0.562943 0.391273 153 76 0
0.444563 -0.346192 0.004526 153 0 76
0.444563 0.550935 -0.497035 153 0 76
0.304013 0.770810 -0.283106 153 0 76
0.444563 -0.264226 0.232889 153 0 76
-0.262855 -0.745994 0.088029 153 0 76
-0.161340 0.214504 -0.497696 153 0 76
-0.444406 -0.148267 0.004763 153 0 76
-0.444406 0.191800 0.192691 153 0 76
0.444563 0.665146 0.361514 153 0 76
-0.444406 0.563776 -0.101077 153 0 76
-0.444406 0.000110 0.238864 153 0 76
0.165311 0.331009 -0.497696 153 0 76
-0.179033 0.677212 0.469058 153 76 0
-0.009775 0.290745 0.469058 153 76 0
0.169303 0.401467 0.391273 153 76 0
0.011776 -0.479106 -0.497696 153 0 76
-0.444406 0.558306 0.110349 153 0 76
0.207569 0.160697 0.391273 153 76 0
-0.444406 0.350756 0.282514 153 0 76
-0.124567 -0.081360 -0.497696 153 0 76
-0.129181 0.264935 -0.497696 153 0 76
0.017280 0.373909 -0.497696 153 0 76
0.246590 -0.016158 0.391273 153 76 0
-0.357413 -0.379881 0.391273 153 76 0
-0.444406 -0.013523 0.354958 153 0 76
-0.444406 0.770799 0.259027 153 0 76
0.444563 -0.621119 0.117872 153 0 76
-0.011304 0.507043 0.391273 153 76 0
0.444563 -0.392192 -0.027174 153 0 76
0.171313 -0.397534 -0.497696 153 0 76
0.444563 -0.285500 0.043998 153 0 76
-0.386954 -0.095197 0.472446 153 76 0
-0.444406 -0.270432 -0.057944 153 0 76
0.343668 0.770810 -0.187636 153 0 76
-0.079775 -0.745994 0.325462 153 0 76
0.031364 -0.745994 0.386696 153 0 76
-0.437604 -0.580474 -0.497696 153 0 76
0.444563 0.668625 0.118518 153 0 76
0.328451 0.576522 -0.497696 153 0 76
0.444563 -0.493361 0.200648 153 0 76
-0.052717 -0.149229 -0.497696 153 0 76
0.444563 -0.106055 -0.267208 153 0 76
0.444563 -0.384255 0.297932 153 0 76
-0.444406 0.594327 0.333633 153 0 76
0.367131 0.177146 -0.497696 153 0 76
-0.444406 -0.464574 -0.405071 153 0 76
0.061940 -0.617436 0.469058 153 76 0
0.415317 0.770810 0.429433 153 0 76
0.046097 0.528100 0.469058 153 76 0
-0.280001 0.107189 0.391273 153 76 0
0.444563 0.478745 -0.010009 153 0 76
-0.444406 -0.335791 -0.011149 153 0 76
0.252152 -0.333292 0.469058 153 76 0
-0.444406 -0.621584 0.197186 153 0 76
-0.222594 -0.102911 0.391273 153 76 0
0.171338 0.641023 -0.497696 153 0 76
-0.417683 -0.190832 0.391273 153 0 76
-0.299582 0.552751 0.469058 153 76 0
-0.400357 0.493250 0.555099 76 0 153
0.444563 0.425576 -0.326658 153 0 76
-0.154727 0.770810 0.032393 153 0 76
0.195426 0.770810 0.404321 153 0 76
0.320003 -0.704843 -0.497696 153 0 76
-0.344264 -0.050572 0.469058 153 76 0
-0.361726 -0.562645 0.469058 153 76 0
-0.444406 0.666341 0.207601 153 0 76
-0.277389 -0.487223 0.391273 153 76 0
