ply
format ascii 1.0
element vertex 1271
property float x
property float y
property float z
property uchar red
property uchar green
property uchar blue
end_header
0.569378 0.056624 -0.253488 153 0 76
0.535718 -0.012548 -0.006316 153 0 76
0.740853 0.150051 -0.131003 255 0 0
0.641741 0.312456 -0.253488 153 0 76
0.764971 -0.188657 -0.195417 255 0 0
0.640482 0.524090 0.051555 0 0 255
0.175341 -0.257164 -0.253488 153 0 76
-0.230809 0.219077 -0.271577 153 0 76
0.514284 -0.012548 -0.179661 153 0 76
-0.802735 0.174585 0.152348 0 255 0
-0.363538 -0.426930 0.246972 76 0 153
-0.768558 0.023630 -0.035615 153 0 76
0.474407 0.520096 -0.271577 76 153 0
-0.549490 0.137442 0.255922 76 0 153
0.764971 -0.168660 0.159261 255 0 0
0.432301 -0.038914 0.283150 127 0 127
-0.148362 0.048638 0.283150 127 0 127
0.740853 0.108017 0.175980 255 0 0
0.054008 -0.537127 0.026897 204 51 127
0.183563 0.563283 0.314100 127 0 127
0.764971 -0.101147 -0.158006 255 0 0
-0.010582 -0.513008 0.098048 204 51 127
0.714539 -0.513008 -0.018746 204 51 127
-0.268037 0.319472 0.246972 76 0 153
0.019070 -0.012548 -0.206557 153 0 76
0.669899 -0.150619 0.319328 127 0 127
0.378824 0.023630 0.006983 153 0 76
0.764971 0.528247 -0.255118 255 0 0
-0.544309 0.474467 -0.295696 76 153 0
-0.678678 0.044429 -0.295696 153 0 76
-0.440997 0.023630 -0.050340 153 0 76
0.046011 -0.012548 0.029518 153 0 76
0.022261 -0.513008 -0.261024 153 0 76
0.777031 -0.508592 0.252117 76 0 153
0.699469 -0.012548 -0.009764 153 0 76
-0.403991 -0.537127 -0.170979 204 51 127
-0.300731 -0.012548 -0.251567 153 0 76
-0.385894 0.023630 0.052283 153 0 76
-0.541216 0.360187 -0.271577 153 0 76
-0.051512 -0.435955 -0.295696 0 127 127
0.516044 -0.561245 0.249911 127 0 127
0.667373 0.226073 -0.271577 153 0 76
0.499065 0.524090 0.218972 0 0 255
-0.778617 -0.076384 0.174399 0 255 0
0.591088 -0.012548 0.197709 153 0 76
-0.225823 -0.419422 -0.295696 0 127 127
0.072972 0.023630 0.107325 153 0 76
0.514315 -0.096477 0.283150 127 0 127
-0.814795 -0.442158 0.259604 153 0 76
-0.262575 0.023630 0.236220 153 0 76
-0.495223 0.524090 0.001942 0 0 255
0.569026 0.007742 0.307268 127 0 127
-0.276476 -0.535870 0.283150 127 0 127
0.720174 -0.006524 -0.271577 153 0 76
-0.170502 -0.506357 0.319328 127 0 127
0.705841 0.133070 0.335844 127 0 127
-0.745847 0.103951 0.246972 153 0 76
-0.006979 -0.006229 -0.253488 153 0 76
0.740853 0.317649 -0.155977 255 0 0
0.764971 0.290602 -0.252911 255 0 0
0.243001 -0.478987 0.319328 127 0 127
0.557439 0.295520 0.307268 127 0 127
-0.339538 -0.471426 -0.295696 0 127 127
-0.120712 -0.012548 -0.210491 153 0 76
0.740853 0.490746 -0.089415 255 0 0
-0.346460 0.440339 0.246972 76 0 153
-0.024629 0.524090 -0.046196 0 0 255
-0.802735 0.434366 0.126613 0 255 0
0.377395 0.572327 0.266597 127 127 0
0.279032 0.023630 0.175225 153 0 76
-0.654670 0.023630 -0.207681 153 0 76
-0.026487 0.077897 -0.295469 153 0 76
0.637015 -0.513008 0.052569 204 51 127
0.764971 -0.500978 -0.035082 255 0 0
0.704238 0.076986 -0.295696 153 0 76
0.672741 -0.400125 0.283150 127 0 127
-0.406825 0.524090 -0.237403 0 0 255
-0.050196 -0.537127 -0.256898 204 51 127
0.167851 0.023630 0.006670 153 0 76
0.764971 0.431175 -0.138481 255 0 0
-0.802735 0.253670 -0.225021 0 255 0
-0.413193 -0.537127 -0.032139 204 51 127
0.090798 -0.513008 0.109790 204 51 127
0.460037 -0.487228 -0.253488 153 0 76
0.298744 -0.012548 0.005747 153 0 76
-0.392531 -0.506041 -0.253488 204 51 127
0.275758 -0.497158 0.246972 127 0 127
0.172070 -0.196962 0.283150 127 0 127
0.114131 -0.046261 0.283150 127 0 127
0.635766 0.524090 -0.253294 0 0 255
0.717713 -0.537127 0.049216 204 51 127
-0.082949 0.199206 -0.253488 153 0 76
-0.407195 0.524090 0.140430 0 0 255
-0.491978 0.023630 0.185716 153 0 76
0.059848 -0.513008 0.177832 204 51 127
0.038120 0.524090 0.229131 127 127 0
-0.349797 0.236830 0.283150 76 0 153
0.764971 -0.421042 -0.075601 255 0 0
-0.136712 -0.012548 0.142930 153 0 76
-0.024532 -0.166136 -0.271577 153 0 76
-0.226536 -0.537127 -0.193275 204 51 127
-0.510211 -0.494595 -0.253488 204 51 127
-0.125849 0.524090 0.175973 0 0 255
0.717465 -0.243919 -0.253488 153 0 76
0.740853 0.320083 0.009735 255 0 0
0.595994 -0.012548 0.011017 153 0 76
-0.799721 -0.311164 0.283150 153 0 76
0.332715 0.303834 0.307268 127 0 127
0.163500 -0.513008 0.232673 127 0 127
-0.371435 0.023630 0.227977 153 0 76
-0.634896 -0.063879 -0.295696 153 0 76
0.652910 -0.012548 0.038774 153 0 76
0.343782 -0.550311 0.319328 127 0 127
0.159000 0.023630 -0.075332 153 0 76
0.204294 -0.296305 0.307268 127 0 127
0.493007 0.023630 -0.221683 153 0 76
0.405151 0.095407 -0.253488 153 0 76
0.140975 0.118124 0.283150 127 0 127
-0.352752 0.043158 -0.253488 153 0 76
-0.778617 0.413446 0.241193 0 255 0
0.724892 -0.054003 -0.295696 255 0 0
-0.435848 0.524090 -0.152914 0 0 255
-0.598670 -0.012548 0.136121 153 0 76
-0.042616 0.023630 -0.161319 153 0 76
0.159358 -0.003420 -0.295696 153 0 76
0.036097 -0.012548 0.237334 153 0 76
0.147599 0.314427 0.307268 127 0 127
-0.778617 -0.341228 -0.143447 0 255 0
0.038269 -0.285890 0.307268 127 0 127
-0.238090 -0.219236 0.246972 76 0 153
0.096685 0.441409 0.319328 127 0 127
0.602143 0.224575 0.283150 127 0 127
0.764971 0.438109 -0.284785 255 0 0
-0.802735 0.443367 -0.261438 0 255 0
-0.026138 -0.337025 -0.253488 153 0 76
-0.802735 -0.225368 -0.251931 0 255 0
0.449389 -0.537127 0.208323 204 51 127
0.097152 0.548209 0.143746 0 0 255
0.508789 0.345682 0.283150 127 0 127
0.499638 -0.552877 -0.295696 0 127 127
0.571231 0.548209 0.170456 0 0 255
0.392747 -0.134043 0.283150 127 0 127
-0.583729 -0.015048 -0.253488 153 0 76
0.740853 0.464995 -0.043688 255 0 0
0.740853 0.207625 -0.050730 255 0 0
0.636070 -0.066815 -0.294058 153 0 76
-0.013871 0.524090 0.062281 0 0 255
0.455849 -0.012548 0.144239 153 0 76
0.187796 0.499574 -0.253488 153 0 76
-0.442087 -0.486588 0.283150 76 0 153
0.777031 0.520644 0.263330 76 0 153
0.696923 0.548209 -0.092170 0 0 255
0.763419 -0.548633 -0.295696 255 0 0
-0.054169 -0.012102 0.246972 153 0 76
-0.794270 -0.235608 0.283150 153 0 76
-0.352115 -0.012548 -0.076520 153 0 76
-0.031378 -0.012548 0.158276 153 0 76
-0.206914 0.548209 -0.241583 0 0 255
0.621027 0.073433 0.283150 127 0 127
-0.802735 -0.153569 -0.086439 0 255 0
0.355180 -0.012548 0.115660 153 0 76
-0.598399 0.095915 -0.253488 153 0 76
0.604004 0.519004 -0.295696 76 153 0
0.161354 0.529153 -0.295696 76 153 0
-0.629813 -0.012548 -0.007416 153 0 76
-0.404228 0.240810 0.283150 76 0 153
-0.540328 0.082736 -0.253488 153 0 76
0.740853 -0.290370 0.067600 255 0 0
-0.058639 0.473150 0.283150 127 0 127
-0.204353 0.023630 0.184986 153 0 76
0.336713 -0.291023 0.283150 127 0 127
-0.071842 0.263545 -0.253488 153 0 76
0.074918 0.115515 -0.253488 153 0 76
-0.020883 -0.281868 0.283150 127 0 127
-0.295918 -0.374748 0.283150 76 0 153
-0.588801 0.023630 -0.084547 153 0 76
0.538823 0.554402 -0.271577 76 153 0
0.126707 0.023630 0.078491 153 0 76
0.536618 -0.193796 0.307268 127 0 127
-0.545285 0.053669 0.283150 76 0 153
0.207624 0.417775 0.283150 127 0 127
-0.679995 0.402485 -0.271577 153 0 76
0.238453 -0.012548 -0.212505 153 0 76
0.549208 -0.537127 0.165859 204 51 127
-0.283669 0.282830 0.283150 76 0 153
-0.589967 -0.513008 -0.210096 204 51 127
-0.186844 0.023630 -0.140208 153 0 76
0.163895 -0.467526 0.319328 127 0 127
-0.246819 0.455930 -0.253488 153 0 76
-0.133174 0.077897 -0.273693 153 0 76
-0.366184 0.548209 0.200087 0 0 255
0.090503 0.393247 -0.253488 153 0 76
-0.802735 0.068297 -0.135452 0 255 0
-0.355863 -0.080877 0.283150 76 0 153
0.764971 0.520334 -0.146011 255 0 0
-0.802735 0.478655 0.000345 0 255 0
0.432952 0.173274 0.283150 127 0 127
0.104357 0.548209 0.218324 0 0 255
-0.216582 0.023630 -0.020035 153 0 76
0.740853 0.388998 0.029991 255 0 0
0.551135 -0.027313 -0.253488 153 0 76
-0.799235 0.209421 0.283150 153 0 76
0.663631 -0.347218 0.283150 127 0 127
-0.390530 -0.385516 -0.253488 153 0 76
0.026471 -0.089300 0.307268 127 0 127
-0.724347 0.509257 -0.295696 76 153 0
-0.362235 -0.151596 -0.253488 153 0 76
-0.270666 0.524090 0.231218 0 0 255
0.764971 0.161466 0.203841 255 0 0
0.740853 0.340949 -0.055462 255 0 0
0.363537 0.497230 -0.253488 153 0 76
-0.802735 0.358515 -0.090693 0 255 0
0.466244 -0.018517 -0.295696 153 0 76
-0.107494 -0.513008 0.057663 204 51 127
-0.337440 -0.267025 0.283150 76 0 153
-0.291877 -0.164206 0.246972 76 0 153
0.398486 0.023630 0.191498 153 0 76
0.432407 0.501106 -0.295696 76 153 0
0.550799 0.140669 -0.271577 153 0 76
0.527054 0.023630 -0.059385 153 0 76
0.740853 0.152436 0.112982 255 0 0
-0.177277 -0.328402 -0.253488 153 0 76
0.538261 -0.513008 0.071243 204 51 127
-0.766427 0.529554 0.246972 0 255 0
-0.716422 -0.523528 -0.271577 0 127 127
0.740853 0.414278 -0.203622 255 0 0
0.382853 0.548209 0.112376 0 0 255
0.214770 0.023630 -0.132341 153 0 76
0.380130 0.540999 -0.295696 76 153 0
-0.033920 0.317848 0.283150 127 0 127
0.121131 0.023630 0.205099 153 0 76
0.112456 0.440350 -0.295696 76 153 0
-0.802735 0.328005 -0.246076 0 255 0
-0.688897 -0.537127 -0.123722 204 51 127
-0.383915 0.065840 0.283150 76 0 153
0.297779 -0.513008 0.025001 204 51 127
0.326834 0.524090 -0.055465 0 0 255
-0.258004 0.127236 0.283150 76 0 153
0.092305 0.044946 0.283150 127 0 127
0.735082 0.524090 0.120780 0 0 255
-0.184041 0.474941 0.246972 76 0 153
-0.111648 0.511930 -0.253488 153 0 76
-0.275905 -0.112244 -0.271577 153 0 76
-0.383768 0.039691 -0.295696 153 0 76
-0.759686 0.427616 -0.284601 153 0 76
0.263887 -0.033910 0.283150 127 0 127
0.378544 0.023630 -0.111450 153 0 76
-0.329901 -0.561245 -0.272817 0 127 127
0.472542 0.563283 0.313273 127 0 127
-0.543147 0.548209 -0.134710 0 0 255
-0.267659 -0.350702 0.246972 76 0 153
-0.778617 -0.398320 0.157357 0 255 0
-0.539319 -0.071517 0.246972 76 0 153
0.028961 0.398135 -0.253488 153 0 76
-0.778617 -0.225084 0.062557 0 255 0
-0.482366 0.095479 0.246972 76 0 153
-0.451366 -0.355177 0.283150 76 0 153
-0.052522 0.460986 -0.253488 153 0 76
-0.311165 0.213704 0.246972 76 0 153
-0.105857 0.290809 0.319328 127 0 127
0.294709 -0.267887 0.307268 127 0 127
-0.778617 0.203992 0.061549 0 255 0
0.103127 0.280293 0.307268 127 0 127
0.303746 0.023630 -0.136010 153 0 76
-0.154269 0.216028 0.283150 76 0 153
0.701081 0.548209 0.192771 0 0 255
-0.418025 -0.537127 -0.109375 204 51 127
-0.304543 0.368682 -0.271577 153 0 76
-0.382687 0.212381 -0.253488 153 0 76
-0.038999 -0.537127 -0.113967 204 51 127
-0.602036 -0.114774 -0.271577 153 0 76
0.740853 0.200219 -0.105017 255 0 0
-0.020279 0.333459 -0.253488 153 0 76
0.740853 -0.505300 0.089873 255 0 0
0.739614 0.182195 0.283150 127 0 127
-0.590901 0.551938 0.246972 127 127 0
-0.084853 -0.531840 0.283150 127 0 127
0.216484 0.313380 -0.253488 153 0 76
0.310712 0.524090 -0.250252 153 0 76
-0.802735 0.246053 0.128185 0 255 0
0.033941 -0.347547 0.307268 127 0 127
0.384702 -0.057615 -0.253488 153 0 76
0.392704 0.042821 0.283150 127 0 127
0.719823 0.019918 0.319328 127 0 127
0.743787 -0.303748 0.319328 127 0 127
0.734052 0.058786 0.283150 76 0 153
-0.225597 0.524090 -0.180298 0 0 255
-0.689272 0.572327 0.279034 127 127 0
0.740853 -0.288465 -0.229251 255 0 0
-0.613220 -0.420885 -0.253488 153 0 76
-0.665478 -0.334231 -0.253488 153 0 76
-0.672354 0.022035 0.246972 153 0 76
-0.775676 -0.361596 0.283150 153 0 76
0.657905 0.023630 0.165048 153 0 76
0.740853 -0.441539 0.109278 255 0 0
-0.778617 0.175367 -0.030183 0 255 0
0.764971 0.511948 0.055329 255 0 0
0.673967 -0.537127 -0.261294 0 127 127
0.037995 0.548209 0.151211 0 0 255
0.524239 -0.017895 0.283150 127 0 127
-0.734656 0.548209 0.025296 0 0 255
-0.512442 0.137957 -0.271577 153 0 76
-0.712545 0.023630 -0.136354 153 0 76
0.230361 -0.537127 0.086936 204 51 127
-0.778617 -0.138303 0.177072 0 255 0
0.764971 -0.089623 0.079679 255 0 0
0.072369 0.028080 -0.295696 153 0 76
-0.257307 -0.012548 -0.180836 153 0 76
-0.181273 -0.291357 0.319328 127 0 127
-0.673159 0.023630 -0.075657 153 0 76
-0.452670 0.023630 -0.193696 153 0 76
0.740853 0.567404 -0.060022 255 0 0
0.325889 0.537351 0.283150 127 0 127
0.343334 -0.446579 -0.253488 0 127 127
-0.000716 -0.432406 -0.253488 0 127 127
-0.754071 0.196089 0.246972 153 0 76
-0.186629 -0.441400 0.283150 127 0 127
-0.453149 -0.198221 0.283150 76 0 153
-0.275520 0.023630 0.117275 153 0 76
-0.778617 -0.511549 -0.080392 0 255 0
0.637152 0.528215 0.283150 127 0 127
-0.584975 0.524090 0.025384 0 0 255
0.740853 -0.292353 -0.025390 255 0 0
-0.299388 0.524090 -0.210782 0 0 255
0.178406 -0.513008 0.154874 204 51 127
0.623408 -0.513008 -0.014305 204 51 127
-0.802735 -0.143757 -0.254844 0 255 0
0.644472 -0.210207 -0.271577 153 0 76
0.364205 0.512877 0.319328 127 0 127
-0.457307 -0.436655 -0.295696 0 127 127
-0.150850 0.562660 0.319328 127 0 127
0.054781 -0.012548 -0.090584 153 0 76
-0.764830 -0.443335 -0.295696 0 127 127
-0.513090 0.023630 0.081459 153 0 76
-0.773091 0.372462 -0.253488 153 0 76
-0.163593 0.381232 0.273707 76 0 153
-0.240850 0.097862 -0.271577 153 0 76
-0.669817 -0.027555 -0.295696 153 0 76
0.452959 -0.012548 0.006393 153 0 76
-0.129366 -0.381021 0.319328 127 0 127
0.755235 -0.018532 0.319328 127 0 127
-0.709500 0.524090 0.231767 0 0 255
-0.778617 0.038324 -0.281364 0 255 0
-0.802735 0.097224 0.023661 0 255 0
0.386848 -0.164247 -0.271577 153 0 76
0.283683 -0.513008 0.109880 204 51 127
0.359391 -0.012548 0.178514 153 0 76
-0.147357 -0.537127 -0.185253 204 51 127
-0.480373 0.524090 -0.072934 0 0 255
-0.277330 -0.265549 0.283150 76 0 153
-0.163593 -0.060961 0.251220 76 0 153
0.704675 0.447459 0.257488 76 0 153
-0.493916 0.056285 0.283150 76 0 153
0.481543 -0.082445 -0.253488 153 0 76
0.234293 -0.012548 -0.079457 153 0 76
-0.520582 -0.012548 -0.227992 153 0 76
-0.782763 -0.561245 -0.180240 0 255 0
0.764971 0.054844 0.129758 255 0 0
0.292248 0.247534 -0.271577 153 0 76
0.402232 0.451717 0.319328 127 0 127
-0.079845 0.524090 -0.045208 0 0 255
-0.438868 -0.121265 0.283150 76 0 153
0.013289 -0.012548 -0.038574 153 0 76
0.199921 -0.012548 0.113645 153 0 76
0.764971 -0.150539 0.016837 255 0 0
-0.072762 0.571942 -0.271577 76 153 0
-0.802735 -0.107310 -0.220462 0 255 0
0.572453 0.524680 0.283150 127 127 0
0.621432 -0.444484 -0.295696 0 127 127
0.118029 0.397700 0.283150 127 0 127
0.292593 0.149793 -0.271577 153 0 76
-0.474031 -0.156459 -0.271577 153 0 76
-0.503866 -0.145309 0.283150 76 0 153
0.729578 0.285659 0.246972 255 0 0
0.740853 0.150238 0.025767 255 0 0
-0.106230 0.341626 -0.253488 153 0 76
0.089800 0.524090 0.043781 0 0 255
0.084638 -0.086813 0.307268 127 0 127
-0.490391 0.023630 0.016844 153 0 76
0.270520 -0.424201 -0.253488 153 0 76
-0.758885 0.023630 0.132324 153 0 76
0.575300 -0.537127 0.123262 204 51 127
-0.758183 -0.110596 0.246972 153 0 76
0.740853 0.400883 0.212472 255 0 0
-0.482567 0.450181 -0.253488 153 0 76
0.720368 -0.507440 -0.295696 0 127 127
0.224582 0.454413 -0.295696 76 153 0
0.005294 -0.537127 0.004489 204 51 127
-0.082193 0.155563 0.317491 127 0 127
-0.766648 -0.012548 -0.070291 153 0 76
0.692675 0.524090 -0.189850 0 0 255
-0.063413 0.047791 0.283150 127 0 127
-0.052465 -0.513008 -0.044386 204 51 127
-0.025200 0.548209 0.217745 0 0 255
0.764971 0.122685 -0.047281 255 0 0
0.276072 0.495698 -0.295696 76 153 0
0.764971 -0.332866 -0.096595 255 0 0
0.023575 -0.158774 0.283150 127 0 127
-0.699977 0.025561 -0.253488 153 0 76
-0.668242 -0.513008 0.019354 204 51 127
-0.563123 -0.309059 -0.253488 153 76 0
-0.549026 -0.012548 0.087426 153 0 76
-0.213167 0.348144 0.283150 127 0 127
-0.778617 0.415776 -0.175603 0 255 0
0.308288 0.524090 0.023494 0 0 255
-0.290929 -0.090167 0.283150 76 0 153
0.612271 0.421066 -0.253488 153 0 76
0.029163 0.465473 -0.295696 76 153 0
0.455189 -0.507278 0.319328 127 0 127
-0.136604 -0.011071 -0.295696 153 0 76
0.183990 0.112167 0.307268 127 0 127
0.418796 -0.537127 -0.091606 204 51 127
-0.778617 -0.547975 0.233790 153 0 76
0.656510 0.311947 0.283150 127 0 127
0.526367 0.524090 0.172994 0 0 255
-0.275848 -0.012548 -0.113450 153 0 76
-0.760826 0.559697 -0.271577 76 153 0
0.740853 -0.269967 0.246045 76 0 153
0.740853 -0.192946 0.101908 255 0 0
0.764971 -0.375500 -0.219936 255 0 0
0.204287 -0.552201 0.313372 127 0 127
0.636264 -0.482106 -0.253488 153 0 76
-0.356322 0.023630 -0.042849 153 0 76
-0.652690 0.451530 -0.295696 153 0 76
0.249519 0.170589 0.307268 127 0 127
0.764971 -0.026054 -0.102766 255 0 0
0.418108 0.023630 -0.079211 153 0 76
0.049191 -0.375522 -0.253488 153 0 76
0.175009 -0.418482 -0.295696 0 127 127
-0.133721 0.136738 0.319328 127 0 127
0.229994 -0.012548 0.074094 153 0 76
0.341164 -0.537127 -0.083296 204 51 127
-0.802735 0.493490 -0.212230 0 255 0
-0.778617 -0.374822 0.011408 0 255 0
-0.000146 0.526058 -0.295696 76 153 0
0.567638 -0.552201 0.307505 127 0 127
0.740853 -0.356052 0.114360 255 0 0
-0.784874 -0.015926 0.246972 153 0 76
0.764971 -0.126928 0.219550 255 0 0
-0.291642 -0.447874 -0.253488 0 127 127
0.421548 -0.537127 0.136255 204 51 127
0.740853 0.570474 0.033610 255 0 0
0.526818 0.524090 -0.231596 0 0 255
0.104245 -0.513008 -0.192403 204 51 127
-0.607038 -0.554384 0.246972 127 0 127
0.073636 -0.301763 -0.253488 153 0 76
-0.778617 -0.540558 0.052835 0 255 0
0.737757 -0.105596 0.283150 127 0 127
0.258153 -0.012548 -0.137588 153 0 76
0.740853 -0.053172 -0.212725 255 0 0
-0.223584 -0.507611 0.319328 127 0 127
-0.244634 -0.012548 0.005204 153 0 76
0.419012 -0.561245 0.247981 127 0 127
0.560103 -0.462679 0.319328 127 0 127
-0.477617 -0.066815 -0.292820 153 0 76
0.731572 0.378283 0.283150 127 0 127
-0.297839 0.061506 0.246972 76 0 153
-0.802735 0.418582 -0.035363 0 255 0
-0.676352 0.520241 -0.295696 76 153 0
-0.010288 0.548209 -0.109491 0 0 255
-0.334640 0.220926 -0.271577 153 0 76
-0.760462 -0.523940 0.283150 153 0 76
-0.802735 0.259876 -0.075963 0 255 0
0.066750 -0.012548 0.180816 153 0 76
0.244362 0.075042 0.307268 127 0 127
0.740853 0.068121 0.083371 255 0 0
-0.557471 -0.513008 -0.116986 204 51 127
0.740853 -0.509250 0.165080 255 0 0
0.764971 -0.389893 -0.134071 255 0 0
-0.595127 -0.012548 0.211422 153 0 76
-0.068376 0.524090 0.022472 0 0 255
-0.467333 0.324099 -0.253488 153 0 76
0.587064 -0.005273 -0.295696 153 0 76
-0.678076 -0.513008 -0.050917 204 51 127
0.226006 0.067954 -0.253488 153 0 76
0.073781 -0.448334 0.283150 127 0 127
-0.070189 -0.074391 0.283150 127 0 127
-0.306444 0.023630 0.039887 153 0 76
-0.355448 -0.012548 0.123684 153 0 76
0.023929 -0.513008 -0.195649 204 51 127
-0.137771 -0.012548 0.239216 153 0 76
-0.422493 0.123833 0.283150 76 0 153
-0.637448 -0.537127 0.066090 204 51 127
0.764971 -0.243392 -0.177083 255 0 0
-0.125976 -0.537127 0.109693 204 51 127
0.355192 -0.265939 -0.271577 153 0 76
0.731893 -0.182379 0.283150 76 0 153
-0.812446 0.076817 0.246972 153 0 76
0.312368 -0.111572 0.283150 127 0 127
0.329942 -0.513008 -0.142231 204 51 127
-0.751159 -0.012548 0.041132 153 0 76
0.764971 0.199379 0.104013 255 0 0
0.358508 -0.513008 -0.039497 204 51 127
0.517456 0.284661 -0.253488 153 0 76
0.660088 0.023630 -0.201665 153 0 76
0.777031 0.137036 0.265208 76 0 153
0.463963 -0.373840 0.307268 127 0 127
0.481136 0.524090 -0.015776 0 0 255
0.649915 0.023630 0.084038 153 0 76
0.764971 -0.540700 -0.132203 255 0 0
-0.223020 0.023630 0.080390 153 0 76
0.294886 0.297868 -0.253488 153 0 76
-0.621400 0.474673 -0.253488 153 0 76
0.072520 -0.204115 -0.271577 153 0 76
0.017956 0.023630 0.114517 153 0 76
-0.269079 0.023630 -0.150177 153 0 76
0.645855 0.476228 -0.253488 153 0 76
0.196132 0.305242 0.307268 127 0 127
0.729055 -0.012548 -0.166448 255 0 0
-0.163593 -0.350832 0.271876 127 0 127
0.542948 -0.012548 0.236020 153 0 76
-0.802735 0.523977 0.102062 0 255 0
0.374239 0.381141 0.283150 127 0 127
0.642559 0.159800 0.319328 127 0 127
0.740853 -0.434070 -0.201064 255 0 0
0.079281 -0.525570 0.283150 127 0 127
-0.160191 0.232532 -0.253488 153 0 76
-0.632725 -0.537127 0.156774 204 51 127
0.169936 -0.513008 -0.184092 204 51 127
-0.017184 -0.012548 -0.102751 153 0 76
0.650693 0.375959 0.283150 127 0 127
0.595784 -0.513008 -0.244728 204 51 127
0.764971 0.307748 0.108056 255 0 0
-0.115698 -0.226746 0.283150 127 0 127
-0.298747 -0.513008 0.121330 204 51 127
-0.321919 0.526387 -0.295696 76 153 0
0.265570 0.483180 0.319328 127 0 127
0.300432 -0.012548 0.137378 153 0 76
-0.166224 -0.012548 0.196151 153 0 76
0.740853 -0.516286 -0.083430 204 51 127
0.734748 -0.550125 0.246972 204 51 127
0.735238 -0.335430 0.283150 76 0 153
0.146476 -0.259127 0.307268 127 0 127
0.672239 0.566528 0.283150 127 127 0
0.314511 0.023630 -0.200344 153 0 76
0.764971 0.109444 -0.110028 255 0 0
-0.560673 -0.537127 -0.016612 204 51 127
0.545644 -0.302546 0.307268 127 0 127
0.116387 -0.513008 -0.003985 204 51 127
-0.213627 -0.497725 -0.253488 0 127 127
0.121631 0.187092 -0.253488 153 0 76
-0.156798 -0.559442 0.283150 127 0 127
-0.461283 -0.012548 0.110035 153 0 76
0.321218 0.036243 -0.253488 153 0 76
0.539415 -0.513008 -0.076507 204 51 127
0.639821 -0.170686 0.283150 127 0 127
0.199239 0.469374 0.283150 127 0 127
0.764971 -0.442535 -0.288341 255 0 0
0.313559 0.548209 0.165893 0 0 255
0.258408 0.433564 -0.253488 153 0 76
-0.047190 0.023630 -0.023819 153 0 76
0.238960 -0.466785 -0.253488 153 0 76
-0.764727 -0.187603 0.283150 153 0 76
0.212545 -0.537127 -0.030609 204 51 127
0.457498 -0.513008 -0.180978 204 51 127
-0.399404 -0.043278 -0.271577 153 0 76
-0.363582 0.455952 -0.253488 76 153 0
-0.763501 -0.012548 0.164786 153 0 76
-0.034256 0.164881 -0.253488 153 0 76
0.233541 0.524090 0.162690 0 0 255
0.660853 0.383967 -0.271577 153 0 76
0.215568 -0.181829 -0.271577 153 0 76
-0.778617 0.348724 0.227861 0 255 0
0.036638 0.056566 0.283150 127 0 127
-0.776249 -0.462092 0.283150 153 0 76
0.124470 0.284947 -0.271577 153 0 76
-0.060670 -0.537127 0.240339 127 0 127
-0.131139 -0.159270 0.283150 127 0 127
0.244789 -0.513008 -0.122104 204 51 127
-0.378519 0.023630 -0.207091 153 0 76
0.197108 0.075935 -0.295696 153 0 76
0.206789 0.241792 0.307268 127 0 127
0.267590 -0.027545 -0.253488 153 0 76
-0.209150 0.548209 -0.130299 0 0 255
-0.191928 -0.012548 -0.197850 153 0 76
0.764971 -0.174746 -0.127966 255 0 0
0.387134 0.275441 -0.271577 153 0 76
0.169268 -0.037307 0.307268 127 0 127
-0.771531 -0.513008 -0.149139 0 255 0
0.422984 -0.537127 -0.259074 204 51 127
-0.802059 0.403894 0.283150 153 0 76
0.577333 -0.537127 0.217940 204 51 127
0.741822 0.572327 -0.250922 255 0 0
0.396033 0.023630 -0.160292 153 0 76
-0.291422 0.548209 -0.251976 0 0 255
-0.444453 -0.409703 0.283150 76 0 153
-0.575487 0.519693 -0.295696 76 153 0
-0.200691 0.282177 0.319328 127 0 127
-0.344027 0.301606 0.283150 76 0 153
-0.802735 0.454777 -0.094083 0 255 0
-0.531786 -0.012548 0.011152 153 0 76
0.721222 -0.519645 0.283150 76 0 153
0.020594 0.572327 -0.283656 76 153 0
-0.173453 -0.470243 0.246972 76 0 153
-0.049326 0.516019 -0.271577 76 153 0
-0.802735 -0.067895 0.083983 0 255 0
-0.778617 0.530685 0.163859 0 0 255
0.658862 -0.230498 0.283150 127 0 127
-0.185640 0.132455 0.283150 127 0 127
0.460539 -0.012548 -0.216913 153 0 76
-0.297530 -0.287874 -0.271577 153 0 76
0.498048 -0.285519 -0.253488 153 0 76
-0.419931 0.451698 -0.295696 76 153 0
-0.504831 0.244457 -0.271577 153 0 76
0.049735 -0.470013 -0.253488 153 0 76
0.111271 -0.040714 -0.253488 153 0 76
-0.736285 0.211055 -0.253488 153 0 76
-0.778617 0.100214 -0.057742 0 255 0
-0.577173 -0.050326 -0.295696 153 0 76
0.764971 0.398132 -0.042826 255 0 0
-0.528933 0.023630 -0.046371 153 0 76
-0.543818 0.180303 -0.271577 153 0 76
-0.123212 0.335024 0.283150 127 0 127
0.085153 0.572327 -0.294845 76 153 0
-0.609703 0.243081 -0.271577 153 0 76
-0.359561 0.570986 -0.295696 76 153 0
0.067037 0.548209 -0.233902 0 0 255
0.666246 -0.069178 0.283150 127 0 127
-0.802735 0.389614 0.201085 0 255 0
-0.511748 0.406291 0.246972 76 0 153
-0.051708 -0.343086 0.283150 127 0 127
0.653029 0.524090 -0.134678 0 0 255
0.519484 -0.012548 0.102826 153 0 76
0.606679 0.548209 0.219856 0 0 255
0.246826 -0.415489 0.283150 127 0 127
0.486208 -0.389968 -0.271577 153 0 76
0.173658 0.427616 -0.294872 76 153 0
0.190549 0.523986 0.283150 127 127 0
0.315413 0.023630 0.052157 153 0 76
-0.802735 0.115418 -0.159234 0 255 0
-0.611801 -0.491527 -0.295696 0 127 127
-0.048846 -0.507229 -0.295696 0 127 127
0.089434 -0.121510 -0.271577 153 0 76
0.438773 0.548209 0.179091 0 0 255
-0.398023 0.002372 0.283150 76 0 153
0.706671 -0.460945 0.319328 127 0 127
-0.516504 0.548209 0.083350 0 0 255
0.172561 -0.113536 0.283150 127 0 127
0.777031 0.297755 0.251789 76 0 153
0.257202 0.548331 0.246972 0 0 255
-0.342056 -0.416534 -0.284397 0 127 127
-0.696465 -0.116398 -0.253488 153 0 76
-0.278240 0.427442 0.246972 76 0 153
0.666340 -0.055768 -0.253488 153 0 76
-0.778617 -0.104011 -0.011341 0 255 0
0.675999 0.070759 0.283150 127 0 127
-0.359669 0.092978 -0.253488 153 0 76
-0.326168 -0.215780 0.283150 76 0 153
-0.136674 -0.071257 0.319328 127 0 127
0.394375 -0.513008 0.058673 204 51 127
-0.778617 -0.339018 0.079644 0 255 0
-0.802735 -0.515619 0.199996 0 255 0
0.741016 0.572327 0.121378 255 0 0
-0.697447 -0.012548 0.203289 153 0 76
0.767986 -0.163278 0.312081 127 0 127
-0.511753 0.548209 -0.044897 0 0 255
0.421445 0.023630 0.123127 153 0 76
-0.646558 0.524090 -0.100482 0 0 255
-0.137655 -0.012548 -0.082930 153 0 76
0.667628 0.127233 -0.271577 153 0 76
0.612184 -0.513008 -0.098656 204 51 127
0.460909 -0.012548 -0.130110 153 0 76
0.696101 -0.012548 0.242744 76 0 153
0.555602 0.023630 0.025787 153 0 76
-0.459964 -0.510082 -0.295696 0 127 127
0.142224 -0.513008 0.085281 204 51 127
0.010077 0.496740 0.319328 127 0 127
0.474409 0.021967 0.283150 127 0 127
-0.250188 0.058274 0.283150 76 0 153
0.310939 -0.456613 0.319328 127 0 127
0.387917 0.123730 0.283150 127 0 127
-0.446344 -0.011666 -0.253488 153 0 76
-0.778617 0.460061 0.212944 0 255 0
-0.328707 -0.012548 -0.205976 153 0 76
-0.778617 -0.441693 -0.123812 0 255 0
0.095229 -0.524714 -0.295696 0 127 127
0.264028 -0.537127 -0.071865 204 51 127
-0.549777 -0.456746 -0.271577 0 127 127
0.052940 0.306274 -0.271577 153 0 76
0.448829 0.499971 0.271572 127 0 127
-0.623343 0.023630 0.066032 153 0 76
-0.208454 -0.012548 -0.094063 153 0 76
-0.444853 -0.012548 -0.016908 153 0 76
0.350354 -0.537127 0.244021 204 51 127
-0.648361 0.524090 0.078529 0 0 255
-0.765322 -0.302025 -0.271577 153 76 0
-0.073909 0.529824 0.319328 127 0 127
0.341334 0.427616 -0.292920 153 0 76
-0.100350 0.106115 -0.253488 153 0 76
-0.590995 0.032539 -0.271577 153 0 76
0.177625 0.548209 0.204320 0 0 255
-0.265039 0.011406 -0.271577 153 0 76
-0.254723 0.213067 0.246972 76 0 153
0.378982 0.340084 0.307268 127 0 127
0.671248 0.023630 0.004384 153 0 76
-0.694719 0.023630 -0.007062 153 0 76
0.267552 -0.513008 0.172803 204 51 127
0.764454 -0.237250 0.319328 127 0 127
-0.571539 -0.368092 -0.253488 153 0 76
0.524102 0.548209 0.090816 0 0 255
0.740853 -0.244579 0.016551 255 0 0
0.607415 -0.513008 -0.147690 204 51 127
-0.570884 -0.210112 -0.253488 153 0 76
-0.101081 -0.267420 0.319328 127 0 127
-0.653798 0.548209 -0.012282 0 0 255
-0.263151 -0.055885 0.246972 76 0 153
0.234920 -0.146318 0.283150 127 0 127
0.458920 0.427616 -0.290171 76 153 0
-0.796034 -0.561245 0.141566 0 255 0
-0.652191 -0.537127 0.226629 204 51 127
0.704675 -0.266422 0.276125 76 0 153
-0.126769 0.520921 0.319328 127 0 127
0.606051 -0.072849 -0.253488 153 0 76
0.714379 0.255008 0.319328 127 0 127
0.692094 0.022695 -0.295696 153 0 76
-0.781237 0.572327 -0.183021 0 255 0
0.318965 -0.012548 -0.056744 153 0 76
-0.778617 -0.391719 -0.108052 0 255 0
-0.542542 0.032978 -0.295696 153 0 76
-0.185567 0.526272 0.246972 127 127 0
0.655342 0.191606 0.283150 127 0 127
-0.334910 -0.513008 0.233818 204 51 127
-0.069876 -0.012548 0.127426 153 0 76
-0.399701 0.008413 -0.253488 153 0 76
0.601929 -0.476576 0.283150 127 0 127
0.740853 0.061805 -0.020873 255 0 0
-0.052627 -0.012548 -0.196188 153 0 76
0.537045 0.058702 -0.295696 153 0 76
0.286799 -0.561245 -0.272705 0 127 127
0.021656 -0.018195 -0.295696 153 0 76
0.449340 -0.012548 -0.076236 153 0 76
-0.334683 -0.464036 0.246972 76 0 153
0.563240 -0.012548 0.146473 153 0 76
-0.701862 0.548209 -0.252808 0 0 255
0.424872 0.023630 -0.213194 153 0 76
-0.380843 0.259563 0.246972 76 0 153
-0.764915 -0.277528 0.283150 153 0 76
0.320744 0.023630 0.244378 153 0 76
0.301050 -0.128270 -0.271577 153 0 76
-0.075640 0.023630 0.013720 153 0 76
-0.455973 -0.537127 0.166212 204 51 127
0.020914 0.446686 -0.253488 153 0 76
-0.292682 -0.473835 -0.295696 0 127 127
-0.078156 -0.537127 -0.140980 204 51 127
0.197804 -0.076975 0.307268 127 0 127
-0.320875 -0.537127 -0.214300 204 51 127
-0.149843 -0.012548 0.032470 153 0 76
0.764971 -0.550595 0.059504 255 0 0
-0.350812 0.155840 0.246972 76 0 153
0.764971 0.528715 0.218783 255 0 0
0.317722 -0.513008 -0.270486 153 0 76
0.594737 -0.408324 0.319328 127 0 127
0.726686 0.527476 0.283150 76 0 153
0.082461 0.474798 0.283150 127 0 127
0.157413 0.023630 0.121882 153 0 76
-0.595046 -0.012548 -0.042591 153 0 76
0.231428 0.524090 -0.252461 0 0 255
-0.428715 0.548209 0.078538 0 0 255
-0.407532 0.149441 0.246972 76 0 153
-0.778617 0.301423 -0.036231 0 255 0
0.622665 -0.012548 0.158358 153 0 76
0.711636 -0.138672 -0.271577 153 0 76
-0.302957 -0.293065 0.246972 76 0 153
-0.146456 0.244628 0.319328 127 0 127
0.149899 -0.012548 -0.127154 153 0 76
0.045532 0.548209 -0.043721 0 0 255
0.341724 0.524090 -0.132698 0 0 255
0.298491 -0.002477 0.283150 127 0 127
-0.308506 -0.012548 0.005759 153 0 76
0.675185 -0.260053 0.319328 127 0 127
-0.052622 0.009061 -0.253488 153 0 76
-0.271996 -0.142390 0.283150 76 0 153
-0.155182 -0.513008 0.143978 204 51 127
0.764971 0.348693 -0.184939 255 0 0
-0.283620 0.375836 0.283150 76 0 153
0.764971 -0.026353 0.087181 255 0 0
0.402575 0.521027 0.246972 127 127 0
-0.802735 0.531741 0.009913 0 255 0
-0.224178 -0.434689 0.246972 76 0 153
0.341414 -0.513008 0.124188 204 51 127
0.634416 0.284740 0.319328 127 0 127
-0.802735 -0.317952 -0.054351 0 255 0
0.154351 0.023630 -0.204189 153 0 76
0.085995 -0.513008 0.225073 204 51 127
-0.802735 -0.367966 -0.247670 0 255 0
-0.778617 0.157632 0.209595 0 255 0
-0.353091 -0.242129 0.246972 76 0 153
0.355516 -0.353318 -0.253488 153 0 76
-0.112118 0.548209 -0.104204 0 0 255
0.146286 0.016702 -0.253488 153 0 76
-0.213494 0.023630 0.132721 153 0 76
-0.627540 -0.012548 -0.218901 153 0 76
-0.458147 0.348312 0.283150 76 0 153
0.740336 -0.448566 0.283150 127 0 127
-0.459887 0.524090 0.158157 0 0 255
-0.218871 0.249399 0.283150 127 0 127
0.479857 -0.513008 0.237548 204 51 127
0.227425 0.524090 -0.025390 0 0 255
0.764971 0.138982 0.150966 255 0 0
0.764971 -0.519279 -0.207589 255 0 0
-0.437444 -0.012548 0.040108 153 0 76
0.079194 0.210947 -0.271577 153 0 76
0.552114 -0.421029 -0.295696 0 127 127
0.485138 -0.460859 0.283150 127 0 127
0.607488 0.353151 0.283150 127 0 127
-0.169114 0.028362 -0.253488 153 0 76
-0.529898 0.479649 0.283150 76 0 153
-0.435349 0.548209 0.229654 0 0 255
0.764971 -0.304273 0.157998 255 0 0
0.740853 0.025452 -0.244991 153 0 76
-0.776048 0.515052 -0.253488 0 255 0
-0.379557 0.317671 0.246972 76 0 153
-0.417433 0.023630 0.200052 153 0 76
-0.525991 -0.537127 0.058298 204 51 127
-0.139943 0.457055 -0.295696 76 153 0
0.183605 -0.537127 -0.069030 204 51 127
-0.348867 -0.012548 0.209680 153 0 76
-0.711786 0.353184 -0.253488 153 0 76
-0.343416 -0.499512 -0.253488 153 0 76
-0.066233 -0.537127 0.160671 204 51 127
0.608011 0.023630 -0.056739 153 0 76
0.546471 0.524090 -0.173247 0 0 255
0.140092 0.333176 -0.271577 153 0 76
0.297376 -0.522932 0.283150 127 0 127
-0.045979 -0.129674 0.307268 127 0 127
0.764971 -0.050491 0.162123 255 0 0
0.542879 -0.509873 0.319328 127 0 127
-0.802735 -0.203015 -0.204769 0 255 0
0.203763 -0.397827 0.283150 127 0 127
0.144528 -0.435595 -0.253488 153 0 76
0.740853 0.332691 -0.251676 153 0 76
-0.070834 0.023630 0.097663 153 0 76
0.648563 0.524090 -0.033126 0 0 255
0.529042 0.572327 0.256912 127 127 0
-0.110734 -0.192967 -0.253488 153 0 76
0.501050 0.059400 -0.253488 153 0 76
-0.177076 -0.164522 0.283150 76 0 153
-0.140419 0.548209 -0.029600 0 0 255
0.293645 0.440353 0.319328 127 0 127
0.740853 0.264523 -0.187538 255 0 0
0.418885 -0.305484 -0.253488 153 0 76
-0.375335 0.308955 -0.271577 153 0 76
0.026634 0.023630 -0.237463 153 0 76
-0.179296 -0.014262 0.283150 76 0 153
0.740853 -0.344260 0.227182 76 0 153
-0.802735 -0.057276 -0.067735 0 255 0
-0.685176 0.444653 -0.253488 153 0 76
0.414466 -0.513008 -0.160141 204 51 127
0.740853 -0.476525 0.239973 255 0 0
-0.073516 -0.097918 -0.253488 153 0 76
-0.529552 -0.513008 -0.161328 204 51 127
-0.500153 -0.265608 0.246972 76 0 153
0.634363 -0.012548 -0.067943 153 0 76
-0.472078 0.151031 -0.253488 153 0 76
0.391422 -0.411424 0.319328 127 0 127
0.579041 0.476602 -0.295696 76 153 0
0.442345 -0.113637 -0.271577 153 0 76
-0.411348 0.076639 -0.295696 153 0 76
0.383689 0.150172 -0.271577 153 0 76
-0.802735 -0.189943 -0.126864 0 255 0
-0.637761 -0.045628 -0.253488 153 0 76
0.351362 0.524090 -0.197864 0 0 255
0.764971 -0.352396 -0.053553 255 0 0
0.382728 0.524090 0.173296 0 0 255
0.764971 0.198018 -0.197331 255 0 0
0.132388 0.515526 0.283150 127 127 0
0.344260 0.203188 0.283150 127 0 127
-0.175781 0.524090 0.093227 0 0 255
-0.374123 0.518216 -0.271577 0 0 255
0.593940 0.548209 0.122071 0 0 255
-0.778617 0.195329 -0.278293 153 0 76
-0.196260 -0.468114 0.319328 127 0 127
0.057822 0.533291 0.283150 127 0 127
0.324913 0.548209 0.100579 0 0 255
0.141574 -0.337310 -0.271577 153 0 76
-0.802735 -0.472449 -0.075909 0 255 0
0.740853 0.066160 -0.199579 255 0 0
-0.262425 0.481869 0.283150 76 0 153
0.415490 -0.439645 -0.295696 0 127 127
0.764971 0.357429 0.083005 255 0 0
-0.064903 0.524090 0.209114 0 0 255
-0.617182 0.548209 -0.184635 0 0 255
-0.302274 0.271439 -0.271577 153 0 76
0.462032 -0.208109 -0.271577 153 0 76
0.501820 0.023630 0.056410 153 0 76
0.630163 -0.012548 -0.118371 153 0 76
-0.032451 -0.513008 0.014434 204 51 127
0.474658 0.153571 0.307268 127 0 127
-0.415095 -0.513008 0.195196 204 51 127
0.663962 -0.417970 -0.295696 0 127 127
-0.708052 -0.036434 -0.271577 153 0 76
-0.209427 -0.265322 0.246972 76 0 153
0.033735 0.124392 -0.271577 153 0 76
-0.745988 0.055005 -0.253488 153 0 76
-0.778617 -0.496774 -0.226646 0 255 0
0.282317 -0.537127 -0.024555 204 51 127
0.766645 -0.173034 0.246972 76 0 153
0.718154 -0.537127 -0.245152 204 51 127
0.020227 -0.449882 -0.295696 0 127 127
-0.536928 -0.150652 -0.271577 153 0 76
0.362949 0.265909 0.283150 127 0 127
0.713832 0.572327 -0.295039 76 153 0
0.372197 0.449497 0.283150 127 0 127
0.414609 -0.513008 0.187407 204 51 127
-0.350212 0.548209 -0.005866 0 0 255
0.730384 0.434646 -0.253488 153 0 76
0.490427 0.023630 0.145667 153 0 76
-0.776635 -0.011660 -0.253488 153 0 76
-0.448541 -0.284760 0.283150 76 0 153
0.097134 -0.386334 -0.253488 153 0 76
-0.463722 -0.087456 0.246972 76 0 153
0.257176 -0.340962 0.307268 127 0 127
-0.159349 -0.012548 0.079042 153 0 76
0.146839 0.204051 0.283150 127 0 127
-0.802735 0.246083 -0.179929 0 255 0
-0.696074 -0.305472 -0.271577 153 0 76
0.560657 0.256812 0.283150 127 0 127
-0.742439 0.054460 0.247488 153 0 76
0.665991 0.261643 0.283150 127 0 127
-0.466893 0.226543 -0.253488 153 0 76
-0.382098 -0.211201 -0.253488 153 0 76
-0.198147 0.472009 -0.295696 76 153 0
-0.017597 0.515067 0.283150 127 0 127
0.608311 0.524090 -0.216829 0 0 255
0.392796 -0.488890 0.248178 127 0 127
-0.628008 -0.012548 0.179778 153 0 76
0.182436 0.402497 -0.253488 153 0 76
-0.221940 0.426678 0.319328 127 0 127
0.764971 -0.213777 0.043968 255 0 0
0.700832 -0.537127 0.120133 204 51 127
-0.204717 -0.537127 0.073790 204 51 127
0.023152 0.524090 -0.135255 0 0 255
0.623275 0.101977 0.318633 127 0 127
0.548867 -0.142228 -0.253488 153 0 76
0.619093 0.023630 0.204097 153 0 76
-0.744068 0.448669 0.283150 153 0 76
-0.645375 -0.378751 -0.271577 153 76 0
-0.485329 -0.513008 0.067941 204 51 127
-0.778617 0.073709 0.166269 0 255 0
0.764971 0.001721 0.049347 255 0 0
0.098334 -0.012548 -0.010287 153 0 76
0.105738 -0.415901 0.283150 127 0 127
-0.465704 0.520694 -0.271577 76 153 0
-0.209685 -0.047795 -0.271577 153 0 76
0.654692 -0.012548 -0.231951 153 0 76
0.311690 -0.049100 -0.271577 153 0 76
-0.532780 0.293210 0.283150 76 0 153
0.336815 0.174050 -0.271577 153 0 76
-0.013457 -0.437807 0.319328 127 0 127
-0.528470 0.011400 0.283150 76 0 153
-0.515760 -0.537127 0.135829 204 51 127
-0.293416 -0.513008 0.027882 204 51 127
-0.592187 -0.513008 0.235403 204 51 127
0.269229 -0.561245 0.272391 127 0 127
-0.583161 0.524090 0.142583 0 0 255
-0.523058 -0.066815 -0.292936 153 0 76
0.269984 0.375675 0.283150 127 0 127
0.207462 0.023630 0.035550 153 0 76
-0.116098 0.439325 0.319328 127 0 127
-0.694056 0.191523 -0.271577 153 0 76
0.740853 0.279601 -0.069188 255 0 0
0.542351 -0.505769 -0.295696 0 127 127
0.744959 0.008983 0.283150 127 0 127
-0.216525 -0.513008 0.164436 204 51 127
0.324117 0.023630 0.106372 153 0 76
0.720414 -0.427517 -0.253488 153 0 76
-0.243786 0.548209 0.131325 0 0 255
-0.374048 0.548209 -0.075355 0 0 255
0.373390 0.437206 -0.253488 76 153 0
-0.085630 -0.233755 -0.253488 153 0 76
0.228372 -0.512419 -0.253488 204 51 127
0.225668 0.023630 0.123172 153 0 76
-0.399970 -0.091335 0.283150 76 0 153
0.061768 -0.059171 -0.295696 153 0 76
0.740853 0.462877 0.139533 255 0 0
0.764971 -0.093551 0.128840 255 0 0
-0.345529 0.524090 0.095907 0 0 255
0.436935 0.294383 -0.271577 153 0 76
-0.322397 -0.107764 0.246972 76 0 153
0.446096 0.023630 0.233841 153 0 76
-0.076055 -0.040896 -0.295696 153 0 76
-0.067869 0.369714 0.283150 127 0 127
0.095604 0.439891 -0.253488 153 0 76
-0.778617 0.030882 -0.118285 153 0 76
-0.027967 0.019710 0.283150 127 0 127
0.481883 -0.513008 0.043690 204 51 127
-0.205694 0.308850 0.246972 76 0 153
-0.513201 0.556053 0.283150 127 127 0
-0.802735 -0.456709 0.045389 0 255 0
-0.249639 0.508756 -0.253488 153 0 76
-0.717815 -0.012548 -0.047097 153 0 76
0.652494 0.524090 0.237477 0 0 255
0.105097 -0.537127 -0.124305 204 51 127
0.740669 0.438232 0.283150 76 0 153
-0.802735 -0.379392 0.066802 0 255 0
0.596914 0.301217 -0.253488 153 0 76
0.117018 0.088437 -0.253488 153 0 76
-0.103616 -0.146607 0.319328 127 0 127
0.230836 -0.513008 0.227280 204 51 127
-0.814795 -0.388288 0.278285 153 0 76
-0.802735 -0.303784 -0.119433 0 255 0
0.407797 0.018420 -0.271577 153 0 76
0.623275 -0.277082 0.319266 127 0 127
-0.802735 0.060779 0.106277 0 255 0
-0.596652 -0.537127 -0.252680 0 127 127
0.050677 -0.513008 0.068265 204 51 127
-0.131374 0.023630 0.003669 153 0 76
0.300032 0.548209 -0.028290 0 0 255
-0.098511 0.182972 0.283150 127 0 127
-0.522033 -0.448237 0.246972 76 0 153
-0.471525 0.129104 0.283150 76 0 153
0.298891 0.223515 0.283150 127 0 127
-0.424670 0.215886 0.246972 76 0 153
-0.525073 -0.236444 -0.271577 153 0 76
-0.778617 0.364703 0.077520 0 255 0
-0.193748 -0.012548 -0.051573 153 0 76
-0.790588 0.010130 0.283150 153 0 76
-0.062756 0.356623 -0.253488 153 0 76
-0.053673 0.040321 -0.295696 153 0 76
0.191068 -0.447928 0.283150 127 0 127
0.740853 -0.118528 -0.070778 255 0 0
-0.562876 0.548209 -0.262869 0 0 255
-0.321723 -0.513008 -0.049736 204 51 127
-0.327519 0.050426 0.283150 76 0 153
0.541407 0.093537 0.283150 127 0 127
0.175109 0.524090 0.066672 0 0 255
-0.363823 0.524090 -0.224514 0 0 255
0.117747 0.548209 -0.046668 0 0 255
-0.308545 0.548209 -0.076364 0 0 255
-0.539207 -0.012548 -0.141488 153 0 76
0.129399 -0.513008 -0.047279 204 51 127
0.366676 -0.516183 0.283150 127 0 127
0.623275 -0.409346 0.284765 127 0 127
0.153404 0.524090 -0.192187 0 0 255
-0.061214 0.524090 -0.179223 0 0 255
-0.549490 0.093088 0.249467 76 0 153
-0.134824 0.038893 -0.295696 153 0 76
-0.513552 -0.417654 -0.295696 0 127 127
-0.162394 0.023630 0.149140 153 0 76
-0.802735 -0.485594 -0.294811 0 255 0
-0.407126 -0.513008 -0.069398 204 51 127
0.322256 -0.432342 0.283150 127 0 127
-0.128628 0.089355 0.283150 127 0 127
0.226267 0.328698 0.283150 127 0 127
0.257290 0.548209 -0.088391 0 0 255
-0.003629 -0.057533 -0.253488 153 0 76
0.764971 -0.147657 -0.272924 255 0 0
0.182458 -0.012548 -0.050690 153 0 76
0.166838 -0.488890 0.276152 127 0 127
0.015603 0.563283 0.297732 127 127 0
0.498763 -0.012548 0.203592 153 0 76
-0.025321 -0.535850 0.283150 127 0 127
-0.057356 0.023630 0.161867 153 0 76
0.764971 0.194898 -0.290169 255 0 0
-0.785797 0.145871 0.283150 153 0 76
-0.261353 0.570596 0.283150 127 127 0
0.743715 -0.320341 -0.295696 255 0 0
0.761599 0.101647 0.319328 127 0 127
-0.277338 0.399063 -0.253488 153 0 76
0.186676 -0.537127 0.114146 204 51 127
-0.581151 -0.012548 -0.111009 153 0 76
0.514860 -0.513008 -0.143760 204 51 127
-0.144766 -0.136389 -0.271577 153 0 76
-0.338750 -0.339064 -0.271577 153 0 76
0.670971 -0.433829 0.319328 127 0 127
-0.390345 0.432457 0.246972 76 0 153
0.740853 -0.445650 0.153670 255 0 0
0.095019 -0.537127 0.147038 204 51 127
-0.407725 -0.457923 -0.253488 153 0 76
0.265568 -0.254524 -0.253488 153 0 76
-0.623880 0.329928 -0.271577 153 0 76
0.764971 0.249131 -0.033419 255 0 0
0.723465 -0.056744 0.319328 127 0 127
-0.640025 0.380746 -0.271577 153 0 76
0.024633 -0.516197 0.283150 127 0 127
0.264898 -0.080179 0.307268 127 0 127
0.685420 -0.399375 0.348189 0 127 127
-0.410263 -0.259950 0.246972 76 0 153
-0.802735 -0.202915 -0.035344 0 255 0
-0.196155 -0.012548 -0.004173 153 0 76
-0.310255 0.524090 -0.142359 0 0 255
0.567833 0.431494 0.283150 127 0 127
-0.240517 0.548209 -0.064244 0 0 255
-0.203622 0.382633 0.246972 76 0 153
-0.802735 -0.006591 -0.039370 0 255 0
-0.519599 0.058803 0.246972 76 0 153
-0.746887 0.023630 0.011788 153 0 76
0.162266 0.401852 0.283150 127 0 127
0.384659 -0.012548 0.051689 153 0 76
0.376584 -0.285984 0.307268 127 0 127
0.499434 0.524090 0.122710 0 0 255
0.764971 -0.070979 -0.286980 255 0 0
0.764971 0.430335 0.104700 255 0 0
0.115206 -0.472567 -0.295696 0 127 127
-0.346089 -0.012548 -0.138841 153 0 76
-0.199722 0.496919 0.283150 76 0 153
0.122370 -0.332617 0.283150 127 0 127
0.614228 0.023630 0.110529 153 0 76
0.626337 -0.537127 0.088190 204 51 127
0.612558 -0.333079 0.283150 127 0 127
-0.040843 -0.230100 0.283150 127 0 127
-0.198944 -0.561245 0.261948 127 0 127
0.744926 0.312422 0.283150 76 0 153
0.740853 0.129167 -0.224114 255 0 0
-0.080690 0.294995 0.283150 127 0 127
0.563698 0.101762 -0.253488 153 0 76
0.046162 0.023630 -0.058988 153 0 76
0.437771 -0.214829 0.283150 127 0 127
-0.230322 0.419659 0.246972 76 0 153
-0.308965 0.524090 0.170031 0 0 255
-0.698931 0.548209 0.155993 0 0 255
-0.411494 0.023630 -0.177508 153 0 76
-0.037499 0.494372 0.319328 127 0 127
-0.564698 -0.513008 0.100588 204 51 127
0.401493 0.474543 -0.253488 153 0 76
-0.364719 0.023630 0.092218 153 0 76
0.269326 -0.472858 -0.295696 0 127 127
0.550750 -0.513008 -0.199136 204 51 127
-0.468255 0.191338 0.283150 76 0 153
-0.648548 -0.012548 -0.180010 153 0 76
0.328858 0.219453 -0.271577 153 0 76
-0.093830 -0.012548 -0.088620 153 0 76
0.526682 0.023630 -0.154825 153 0 76
0.150239 0.023630 0.241724 153 0 76
-0.334723 0.499925 -0.253488 153 0 76
-0.613868 -0.012548 0.094664 153 0 76
-0.123170 0.023630 -0.162703 153 0 76
0.740853 -0.227392 -0.067691 255 0 0
0.663681 -0.308890 -0.271577 153 0 76
0.595906 0.524090 -0.099407 0 0 255
0.457880 -0.079618 0.283150 127 0 127
-0.802735 0.459874 0.041460 0 255 0
-0.612102 -0.250636 -0.271577 153 0 76
-0.767255 0.499456 0.283150 153 0 76
-0.778617 0.139908 0.109238 0 255 0
-0.542277 -0.012548 0.238522 153 0 76
0.524831 0.014719 -0.253488 153 0 76
0.715660 0.163500 -0.253488 153 0 76
0.480034 0.498877 0.319328 127 0 127
-0.512789 -0.511623 -0.295696 0 127 127
-0.506127 -0.376256 -0.271577 153 0 76
-0.217929 0.323431 0.319328 127 0 127
-0.778617 0.270667 -0.294273 0 255 0
-0.802735 0.499565 -0.134560 0 255 0
-0.489176 -0.513008 -0.066852 204 51 127
-0.184764 0.448634 0.283150 127 0 127
0.176171 -0.333399 0.283150 127 0 127
0.461759 -0.172990 0.283150 127 0 127
-0.142247 0.548209 0.023911 0 0 255
0.119958 0.524090 -0.128502 0 0 255
0.764971 -0.448077 -0.040469 255 0 0
-0.392757 0.377275 0.246972 76 0 153
-0.201102 -0.103893 0.283150 127 0 127
-0.312424 -0.515967 -0.295696 0 127 127
-0.230155 -0.531767 0.283150 127 0 127
0.304317 -0.164143 0.283150 127 0 127
-0.074832 -0.459503 0.283150 127 0 127
-0.011993 -0.513008 0.180820 204 51 127
0.496940 -0.537127 0.158056 204 51 127
0.505284 -0.046573 -0.295696 153 0 76
-0.778617 -0.289363 0.138544 0 255 0
-0.651369 0.018212 -0.271577 153 0 76
-0.152498 0.130899 -0.271577 153 0 76
0.148631 0.023630 0.164931 153 0 76
-0.375270 -0.561245 -0.285192 0 127 127
0.319360 -0.168196 -0.271577 153 0 76
-0.802735 0.027678 -0.198310 0 255 0
-0.128337 -0.550025 -0.295696 0 127 127
-0.358107 -0.257993 -0.253488 153 0 76
0.265495 -0.012548 0.046885 153 0 76
0.138530 -0.523644 0.283150 127 0 127
-0.469272 -0.561245 0.247429 127 0 127
0.000269 -0.012548 0.197342 153 0 76
0.764971 0.429090 0.027458 255 0 0
-0.766409 -0.012548 -0.189093 0 255 0
-0.645237 -0.513008 -0.017987 204 51 127
-0.802735 -0.378537 0.188185 0 255 0
0.532377 -0.462007 0.283150 127 0 127
-0.482409 -0.012548 0.155926 153 0 76
-0.689580 -0.552637 0.283150 127 0 127
0.764971 -0.218427 0.239873 76 0 153
-0.421180 0.284124 -0.271577 153 0 76
0.154864 0.037300 0.283150 127 0 127
-0.178767 0.313225 0.283150 76 0 153
0.002303 -0.232576 -0.253488 153 0 76
0.244721 -0.012548 0.236926 153 0 76
0.664937 -0.140332 -0.253488 153 0 76
-0.578707 0.548209 -0.011336 0 0 255
-0.216089 0.022807 0.246972 153 0 76
-0.595431 0.163178 -0.253488 153 0 76
-0.529486 0.463290 -0.253488 153 0 76
-0.352875 -0.556861 0.246972 127 0 127
-0.778617 0.364783 0.009472 0 255 0
0.676905 0.151352 0.283150 127 0 127
0.384121 -0.359220 0.307268 127 0 127
0.740853 0.037272 -0.156495 153 0 76
0.462630 0.357796 0.307268 127 0 127
0.216525 0.020605 0.283150 127 0 127
-0.549490 -0.237170 0.277770 76 0 153
-0.044266 -0.447489 -0.253488 153 0 76
0.740853 0.357580 0.232130 255 0 0
-0.156074 -0.073162 -0.253488 153 0 76
0.318112 0.023630 -0.083755 153 0 76
0.245564 0.524090 0.062683 0 0 255
0.060454 -0.238124 0.307268 127 0 127
0.740853 -0.229882 -0.288663 255 0 0
0.582200 -0.012548 0.052514 153 0 76
0.612670 0.023630 -0.012147 153 0 76
-0.758122 0.548209 -0.047265 0 0 255
-0.335061 0.324437 0.246972 76 0 153
0.120548 -0.012548 0.170676 153 0 76
0.438556 0.548209 -0.071943 0 0 255
-0.208445 0.096875 0.246972 76 0 153
0.572716 -0.012548 -0.216751 153 0 76
0.582274 -0.259314 0.307268 127 0 127
-0.146248 -0.403617 0.283150 127 0 127
-0.486342 0.023630 -0.159998 153 0 76
0.282923 0.046705 0.283150 127 0 127
-0.362016 -0.148340 0.246972 76 0 153
0.682180 -0.513008 0.039736 204 51 127
-0.301475 0.477618 -0.295696 76 153 0
0.250219 -0.502304 0.283150 127 0 127
-0.778617 -0.382447 -0.190816 0 255 0
0.536862 -0.462479 -0.295696 0 127 127
-0.319087 0.023630 0.242781 76 0 153
-0.473872 -0.012548 -0.059376 153 0 76
0.092719 -0.537127 -0.253950 204 51 127
0.402121 -0.065408 -0.295696 153 0 76
0.356633 0.468239 0.319328 127 0 127
0.220914 -0.059462 -0.253488 153 0 76
0.234045 0.023630 0.178519 153 0 76
0.194348 0.548209 -0.159988 0 0 255
0.764971 -0.178791 -0.036169 255 0 0
0.740853 0.281858 0.041297 255 0 0
-0.375966 -0.513008 0.140101 204 51 127
-0.557604 0.541213 0.283150 127 127 0
-0.802735 0.110314 -0.246644 0 255 0
-0.246250 -0.507531 0.246972 204 51 127
-0.286597 -0.447078 0.246972 76 0 153
0.612469 0.066432 -0.253488 153 0 76
-0.135741 0.548209 -0.253642 76 153 0
-0.751117 0.288821 0.283150 153 0 76
-0.745272 -0.204785 0.246972 153 0 76
0.626390 -0.149274 0.319328 127 0 127
-0.549490 0.384742 0.249154 76 0 153
0.740853 -0.510241 -0.172518 255 0 0
0.405844 -0.494370 -0.253488 153 0 76
-0.260216 -0.537127 -0.114600 204 51 127
0.740308 -0.236940 0.283150 127 0 127
0.545560 0.023630 0.162919 153 0 76
-0.456106 -0.537127 -0.197888 204 51 127
0.572240 0.572327 0.268590 127 127 0
-0.450892 0.062763 -0.253488 153 0 76
0.556956 -0.430092 -0.253488 153 0 76
-0.778617 0.314173 0.099326 0 255 0
0.481851 0.241909 0.283150 127 0 127
0.669608 -0.488890 0.251026 127 0 127
0.285508 0.144300 0.283150 127 0 127
0.465096 -0.417361 0.319328 127 0 127
-0.778617 -0.453513 0.124005 0 255 0
-0.706834 0.023630 -0.191917 153 0 76
0.415526 -0.527654 0.283150 127 0 127
0.721345 0.572327 0.265393 76 0 153
0.168652 -0.474521 -0.253488 153 0 76
0.443065 0.548209 -0.240525 0 0 255
0.545975 -0.126283 0.283150 127 0 127
-0.778617 -0.236098 0.148992 0 255 0
0.453484 0.072652 -0.295696 153 0 76
-0.814795 -0.139374 0.263613 153 0 76
-0.814795 0.294480 0.251479 153 0 76
0.740853 0.240817 -0.122204 255 0 0
