ply
format ascii 1.0
element vertex 1280
property float x
property float y
property float z
property uchar red
property uchar green
property uchar blue
end_header
0.318393 -0.346096 -0.089534 0 0 255
-0.265820 -0.381566 0.300225 153 0 76
-0.285719 0.069927 0.110832 255 0 0
0.176962 -0.834568 -0.164134 127 127 0
0.027725 -0.163538 0.319712 153 0 76
0.088759 -0.799891 0.300225 153 0 76
-0.285719 0.714597 -0.157861 255 0 0
0.254676 0.106880 0.101673 153 0 76
0.318393 0.721145 0.080638 0 0 255
-0.162119 -0.380896 0.212031 76 0 153
0.165082 0.490701 0.319712 0 127 127
0.318393 0.333967 0.212154 0 0 255
0.318393 0.625607 -0.105502 0 0 255
-0.224501 0.502946 -0.162457 204 51 127
-0.260576 0.816006 -0.273032 0 255 0
0.258544 0.132863 0.203253 153 0 76
0.010044 0.570915 0.300225 0 127 127
-0.298721 0.085824 -0.299015 255 0 0
0.092203 -0.860552 -0.168475 127 127 0
-0.060167 0.620968 0.319712 0 127 127
-0.037931 0.502946 0.107382 204 51 127
-0.236677 -0.860552 0.186246 127 127 0
0.192023 0.528930 0.272547 204 51 127
0.122129 -0.380896 0.015721 76 0 153
0.298906 -0.173340 -0.001112 0 0 255
0.298906 -0.316721 -0.206196 0 0 255
0.166375 0.528930 0.150979 204 51 127
0.048612 -0.335772 0.319712 153 0 76
0.318393 -0.177774 0.276197 0 0 255
-0.032514 0.881149 0.271518 127 0 127
0.130003 -0.380896 -0.080603 76 0 153
0.198936 -0.491858 -0.273032 0 255 0
-0.175352 0.742125 0.300225 0 127 127
0.298906 -0.246988 0.049832 0 0 255
0.026308 0.017301 -0.279528 0 255 0
-0.285719 -0.092065 -0.039334 255 0 0
-0.285719 0.849132 0.119134 255 0 0
-0.305207 0.178650 -0.071261 255 0 0
-0.022928 -0.003811 0.300225 153 0 76
-0.059163 -0.354913 0.075087 76 0 153
0.153490 0.074100 -0.299015 153 76 0
-0.081013 0.528930 -0.160976 204 51 127
0.298906 0.507624 0.010151 204 51 127
-0.305207 0.397936 -0.045013 255 0 0
-0.285719 0.211857 0.236193 255 0 0
0.318393 -0.253787 -0.079148 0 0 255
0.074285 -0.151764 -0.273032 0 255 0
0.233265 0.360567 0.319712 0 127 127
0.117558 0.379399 0.319712 0 127 127
-0.078803 0.513131 -0.279528 0 255 0
0.094886 0.336592 -0.273032 0 255 0
0.275608 -0.431052 -0.273032 0 255 0
-0.037928 0.502946 -0.120340 204 51 127
0.298906 -0.476184 0.175426 0 0 255
0.140837 -0.057091 0.300225 153 0 76
0.035529 -0.860552 0.163296 127 127 0
-0.305207 0.689191 0.215848 255 0 0
0.267247 0.106880 -0.264383 153 0 76
0.298906 0.267360 0.156799 0 0 255
-0.059718 0.528930 -0.208580 204 51 127
-0.285719 -0.298329 -0.016029 255 0 0
0.298906 0.548780 -0.234693 0 0 255
-0.305207 0.106524 0.229684 255 0 0
0.019425 -0.860552 -0.100513 127 127 0
0.318393 0.240271 -0.102035 0 0 255
-0.080956 0.132863 0.266210 153 0 76
-0.285719 -0.406025 -0.189755 255 0 0
-0.303583 -0.526311 0.315697 153 0 76
-0.010302 0.699210 0.300225 0 127 127
-0.066895 0.881149 0.110299 127 0 127
0.298906 -0.179437 0.215075 0 0 255
0.298906 0.451918 -0.252963 0 0 255
-0.251374 -0.093605 -0.279528 0 255 0
0.057232 0.528930 -0.006115 204 51 127
0.092941 0.132863 0.078709 153 0 76
0.132805 -0.577983 -0.279528 0 255 0
-0.235671 0.638878 -0.279528 0 255 0
0.170918 -0.354913 -0.161460 76 0 153
0.318393 -0.175719 0.140674 0 0 255
0.312733 -0.049485 -0.299015 0 0 255
-0.285719 0.517965 0.278876 204 51 127
0.182822 0.073754 0.319712 153 0 76
-0.191907 -0.834568 0.110209 127 127 0
-0.264314 -0.834568 -0.052966 127 127 0
-0.273680 -0.073752 0.319712 153 0 76
-0.285719 -0.805954 0.088630 255 0 0
-0.305207 0.448967 -0.227153 255 0 0
-0.265250 -0.449028 0.300225 153 0 76
-0.002906 -0.628160 -0.279528 0 255 0
0.298906 0.182295 -0.066555 0 0 255
-0.055233 0.163908 0.319712 0 127 127
-0.289807 0.746893 0.319712 0 127 127
-0.285719 -0.760790 -0.104227 255 0 0
-0.198358 0.106880 -0.132547 153 0 76
-0.285719 0.556965 0.129945 255 0 0
-0.178637 0.528930 0.132763 204 51 127
-0.275806 0.220588 0.319712 0 127 127
0.170231 0.907133 0.271325 127 0 127
-0.152877 0.628470 0.300225 0 127 127
0.275559 -0.441398 0.300225 153 0 76
-0.232295 0.554267 0.300225 0 127 127
-0.200870 -0.860552 -0.014708 127 127 0
0.125274 -0.860552 -0.104133 127 127 0
0.273542 -0.488015 -0.279528 0 255 0
-0.285719 0.261717 -0.164275 255 0 0
0.114032 0.528930 0.132446 204 51 127
-0.076532 -0.857304 0.313626 153 0 76
-0.084172 -0.380896 -0.022901 76 0 153
0.130079 -0.291829 0.300225 153 0 76
0.318393 -0.806526 0.277353 0 0 255
0.243143 -0.380896 0.084853 76 0 153
0.298906 0.328193 0.042892 0 0 255
-0.256052 -0.380896 0.197959 76 0 153
-0.256938 0.881149 -0.194580 127 0 127
0.193826 -0.218676 -0.279528 0 255 0
0.176281 0.106880 0.032995 153 0 76
0.060896 -0.860552 0.233641 127 127 0
0.270429 0.524429 -0.273032 0 255 0
-0.090983 0.318331 -0.273032 0 255 0
0.282964 0.212520 -0.273032 0 255 0
0.196833 -0.380896 0.100963 76 0 153
0.013130 0.848553 0.300225 0 127 127
-0.305207 0.099382 -0.190815 255 0 0
-0.285719 -0.812112 -0.247180 255 0 0
0.144003 -0.334275 0.319712 153 0 76
0.097511 -0.860552 -0.267496 127 127 0
-0.251814 0.469945 0.300225 0 127 127
0.271024 0.907133 -0.260866 127 0 127
0.298906 0.333504 0.265412 0 0 255
0.318393 -0.760689 0.291542 0 0 255
0.067653 0.044569 -0.273032 0 255 0
-0.081059 0.502946 0.040533 204 51 127
0.318393 0.421832 -0.162325 0 0 255
-0.305207 0.503714 -0.176797 255 0 0
0.024013 0.905333 -0.299015 127 0 127
0.298906 -0.343247 -0.250425 0 0 255
0.240205 -0.860552 -0.297325 127 127 0
-0.109906 0.881149 0.231407 127 0 127
0.044543 -0.354913 -0.189025 76 0 153
-0.285719 -0.081745 -0.093135 255 0 0
-0.305207 -0.082436 0.252580 255 0 0
-0.305207 0.209701 -0.017947 255 0 0
-0.199081 -0.354913 -0.238084 76 0 153
-0.305207 -0.404611 0.275314 255 0 0
0.072434 -0.377901 0.319712 153 0 76
0.014302 -0.354913 0.202993 76 0 153
-0.081375 0.132863 -0.225856 153 0 76
0.031188 -0.643616 0.319712 153 0 76
-0.077705 -0.860552 0.099992 127 127 0
-0.108507 0.881149 -0.217746 127 0 127
0.298906 -0.765147 0.068386 0 0 255
-0.285719 -0.073729 0.142591 255 0 0
-0.183826 -0.385176 0.319712 153 0 76
0.238816 0.585564 0.319712 0 127 127
-0.285719 -0.134255 0.038227 255 0 0
0.298906 0.150753 0.273768 0 0 255
-0.087359 0.502946 0.204569 204 51 127
-0.027170 0.528930 0.147996 204 51 127
-0.235231 0.106880 0.122334 153 0 76
0.022439 -0.834568 -0.287517 0 127 127
0.020146 0.132863 0.070141 153 0 76
-0.305207 0.131962 0.274045 255 0 0
-0.266584 0.547938 -0.273032 0 255 0
0.202690 -0.354913 0.174080 76 0 153
-0.285719 -0.221584 0.112913 255 0 0
-0.285719 -0.238409 -0.185355 255 0 0
0.298906 -0.560780 -0.146772 0 0 255
-0.236482 0.502946 0.197183 204 51 127
-0.285719 -0.046108 0.048964 255 0 0
-0.223867 -0.380896 0.010045 76 0 153
0.298906 0.672906 0.117730 0 0 255
0.206431 -0.860552 0.048493 127 127 0
-0.303583 0.616275 0.306916 0 127 127
0.318393 -0.719861 -0.089994 0 0 255
0.298906 -0.100457 0.186765 0 0 255
0.298906 -0.749935 -0.013752 0 0 255
-0.305207 -0.573649 -0.193575 255 0 0
-0.285719 -0.756576 0.225025 255 0 0
0.118313 0.876280 -0.279528 76 153 0
-0.285719 0.576427 0.252846 255 0 0
0.150261 -0.354913 0.271353 76 0 153
-0.293605 0.907133 -0.019136 255 0 0
0.318393 -0.455010 0.048076 0 0 255
-0.285719 0.622163 -0.185949 255 0 0
0.298906 -0.220857 0.142098 0 0 255
0.256468 0.106880 0.048658 153 0 76
0.115364 0.106880 0.196770 153 0 76
0.095157 0.252477 -0.273032 0 255 0
0.199225 -0.771098 0.319712 153 0 76
0.170208 -0.809499 0.300225 153 0 76
-0.169172 -0.860552 0.078137 127 127 0
-0.305207 -0.380272 -0.034112 255 0 0
-0.153500 -0.362064 0.292105 76 0 153
0.298906 0.509031 0.278800 0 0 255
-0.067637 -0.850224 -0.299015 127 127 0
0.046494 -0.834568 0.097478 127 127 0
-0.305207 -0.487481 -0.163351 255 0 0
0.274161 -0.608872 -0.279528 0 255 0
0.106299 -0.860552 0.186977 127 127 0
0.063725 -0.834568 0.280731 127 127 0
0.318393 -0.445646 0.238945 0 0 255
-0.285719 0.305918 0.121581 255 0 0
-0.187871 0.174201 -0.279528 0 255 0
-0.108388 -0.834568 -0.026190 127 127 0
0.292601 0.528930 0.123610 204 51 127
0.318393 0.751154 0.180619 0 0 255
0.176275 0.528930 -0.124627 204 51 127
0.126417 0.293889 0.319712 0 127 127
0.266777 0.677829 -0.273032 0 255 0
0.298906 0.850855 -0.023759 0 0 255
-0.197973 0.881149 -0.074581 127 0 127
-0.054117 0.508249 0.292105 204 51 127
0.044112 -0.834568 -0.185361 127 127 0
-0.100374 -0.860552 -0.176126 127 127 0
0.298906 -0.544015 0.105855 0 0 255
0.296329 0.106880 0.212599 153 0 76
-0.097936 -0.083746 -0.279528 0 255 0
-0.071605 -0.354913 -0.074693 76 0 153
-0.180700 0.837308 -0.273032 0 255 0
-0.305207 -0.719456 0.157202 255 0 0
-0.285719 0.004103 0.271789 255 0 0
0.298906 0.298740 0.081690 0 0 255
-0.285719 0.641305 0.152740 255 0 0
-0.002100 -0.849136 0.319712 153 0 76
0.094648 0.132863 -0.238549 153 0 76
-0.074709 -0.498270 -0.279528 0 255 0
0.298906 -0.703944 0.227652 0 0 255
-0.169531 0.907133 -0.178462 127 0 127
0.032320 -0.483038 0.300225 153 0 76
0.198288 -0.407440 0.300225 153 0 76
0.030167 0.502946 -0.162160 204 51 127
0.153585 0.502946 -0.194495 204 51 127
0.298906 0.681490 -0.052693 0 0 255
0.318393 0.622852 -0.288995 0 0 255
-0.023205 -0.380896 -0.151348 76 0 153
0.112192 -0.734729 0.319712 153 0 76
-0.305207 0.216266 0.113778 255 0 0
-0.305207 -0.164354 -0.105304 255 0 0
0.115262 0.745962 -0.279528 0 255 0
0.199262 -0.354913 0.009565 76 0 153
0.099879 -0.431115 -0.273032 0 255 0
-0.285719 -0.031397 -0.175077 255 0 0
-0.305207 0.276588 0.268032 255 0 0
-0.125307 0.106880 -0.257692 153 0 76
-0.305207 -0.246556 -0.110029 255 0 0
0.008145 0.502946 0.227866 204 51 127
0.080026 -0.380896 -0.242128 76 0 153
0.318393 0.380473 -0.033424 0 0 255
-0.126822 -0.237216 -0.273032 0 255 0
0.224541 0.881149 0.293548 127 0 127
0.053338 -0.380896 -0.131763 76 0 153
-0.070644 0.106880 -0.023683 153 0 76
-0.069573 -0.860552 0.222544 127 127 0
0.318393 0.255939 0.221405 0 0 255
0.276988 -0.834568 0.205069 127 127 0
0.318393 0.428614 -0.102269 0 0 255
0.318393 0.779175 -0.059943 0 0 255
0.298906 0.290756 -0.026776 0 0 255
-0.301374 0.839003 0.298601 255 0 0
0.318393 0.459566 0.094877 0 0 255
0.304151 0.380025 -0.299015 0 0 255
-0.034513 -0.136688 0.300225 153 0 76
0.236580 0.881149 0.208876 127 0 127
-0.228253 -0.380896 0.237139 76 0 153
0.066119 -0.860552 -0.103017 127 127 0
0.318393 0.354851 -0.153705 0 0 255
-0.121325 0.106880 -0.141524 153 0 76
-0.165200 0.106880 0.067119 153 0 76
0.206638 0.724340 -0.273032 0 255 0
0.201863 -0.354913 -0.235317 76 0 153
0.145044 0.580343 -0.273032 0 255 0
0.166350 0.106880 -0.108534 153 0 76
0.192950 -0.561658 -0.279528 0 255 0
0.276981 -0.759113 -0.299015 0 127 127
0.298906 -0.291414 -0.147742 0 0 255
0.161078 0.528930 0.054463 204 51 127
0.318393 0.890426 0.141241 0 0 255
0.105059 0.857368 0.300225 0 127 127
-0.164154 -0.380896 0.159612 76 0 153
-0.060389 -0.299041 0.300225 153 0 76
0.149766 0.168624 0.300225 0 127 127
-0.305207 0.243275 0.154988 255 0 0
0.259709 -0.380896 0.289875 76 0 153
-0.174970 0.132863 -0.238476 153 0 76
-0.285719 -0.311475 -0.180790 255 0 0
0.222880 0.145174 -0.279528 0 255 0
0.094587 0.881149 0.022400 127 0 127
0.318393 -0.675200 -0.027504 0 0 255
-0.014922 0.132863 0.216905 153 0 76
0.250856 -0.176509 0.319712 153 0 76
0.024722 -0.354913 0.250963 76 0 153
-0.256711 -0.396133 -0.273032 0 255 0
-0.114193 -0.105727 0.300225 153 0 76
0.318393 0.492060 0.191229 0 0 255
-0.212839 0.528930 0.226600 204 51 127
0.018689 0.881149 0.079062 127 0 127
0.209827 -0.860552 -0.035072 127 127 0
-0.154251 -0.843847 -0.299015 127 127 0
-0.305207 0.723643 0.183885 255 0 0
0.025965 0.757167 -0.299015 76 153 0
0.298906 0.380702 0.070119 0 0 255
0.298906 0.023511 0.282334 0 0 255
0.099973 0.502946 -0.171524 204 51 127
-0.080901 -0.834568 -0.223491 127 127 0
0.318393 0.288364 0.287018 0 0 255
0.318393 0.881891 -0.180195 0 0 255
0.046183 -0.257916 0.300225 153 0 76
0.284159 -0.656790 0.319712 153 0 76
-0.083776 0.694984 0.319712 0 127 127
0.178658 -0.433275 -0.279528 0 255 0
-0.171578 0.562224 0.319712 0 127 127
0.318393 0.017824 0.037703 0 0 255
0.141113 -0.834568 0.264963 127 127 0
-0.145672 0.265210 0.300225 0 127 127
-0.303583 -0.724480 0.310506 153 0 76
-0.104739 0.881149 -0.132750 127 0 127
-0.248982 -0.834568 -0.141036 127 127 0
-0.009612 0.338165 -0.279528 0 255 0
0.298906 -0.613644 0.056447 0 0 255
0.087137 -0.482446 0.300225 153 0 76
0.105223 0.037960 0.319712 153 0 76
0.298906 0.112693 0.129008 0 0 255
0.104842 0.106880 0.290843 153 0 76
0.316703 -0.082179 0.298601 0 0 255
0.009647 0.107746 -0.279528 0 255 0
0.298906 -0.008395 0.122199 0 0 255
0.229906 -0.772616 -0.273032 0 255 0
0.280323 -0.834568 -0.137143 127 127 0
-0.256086 0.881149 -0.290719 76 153 0
-0.137897 -0.834568 -0.098109 127 127 0
-0.302323 -0.860551 -0.268776 255 0 0
0.065959 -0.354913 -0.035099 76 0 153
0.078112 0.152937 0.300225 0 127 127
0.017038 -0.304533 -0.273032 0 255 0
0.279278 0.881149 0.029408 127 0 127
0.298906 -0.081012 -0.240893 0 0 255
-0.181625 -0.292163 0.319712 153 0 76
-0.023627 -0.414144 0.319712 153 0 76
-0.305207 -0.640893 0.211462 255 0 0
-0.305207 0.845554 -0.139305 255 0 0
0.194820 -0.615462 0.319712 153 0 76
0.318393 0.161190 0.096297 0 0 255
-0.227586 0.502946 0.087323 204 51 127
-0.200392 -0.592130 -0.279528 0 255 0
-0.017672 -0.860552 0.169641 127 127 0
-0.248186 -0.380896 -0.219726 76 0 153
0.007538 -0.728447 0.319712 153 0 76
-0.250004 -0.757953 -0.279528 0 127 127
-0.183776 0.132863 0.130685 153 0 76
0.298906 -0.210812 -0.157061 0 0 255
0.132282 0.106880 -0.232361 153 0 76
0.133109 0.132863 0.001040 153 0 76
0.274937 0.881149 -0.216720 127 0 127
-0.121505 -0.567586 -0.279528 0 255 0
-0.061219 0.002624 -0.279528 0 255 0
-0.305207 0.477050 0.058373 255 0 0
0.298906 0.377128 0.287571 0 0 255
0.064856 0.132863 0.028988 153 0 76
0.116662 -0.834568 0.068186 127 127 0
0.298906 0.792256 -0.182176 0 0 255
-0.305207 0.155678 0.047284 255 0 0
-0.285719 -0.370564 -0.153689 255 0 0
0.186632 0.132863 0.152467 153 0 76
-0.271976 0.420427 -0.279528 0 255 0
-0.305207 0.840977 -0.053152 255 0 0
-0.305207 -0.811141 -0.032356 255 0 0
0.095171 -0.380896 0.088072 76 0 153
-0.106778 -0.157702 0.300225 153 0 76
0.298906 0.194229 0.209681 0 0 255
-0.015591 -0.860552 -0.145212 127 127 0
-0.032209 0.480416 -0.273032 0 255 0
0.002204 0.907133 -0.015004 127 0 127
-0.207835 -0.834568 -0.104416 127 127 0
-0.124907 -0.775040 -0.279528 0 127 127
-0.263536 0.502946 0.147531 204 51 127
0.129361 -0.380896 -0.241375 76 0 153
0.093066 0.541402 0.300225 0 127 127
-0.218729 -0.354913 -0.143417 76 0 153
0.201290 0.808397 -0.299015 76 153 0
-0.255259 -0.860552 0.091607 127 127 0
-0.080015 0.881149 0.066997 127 0 127
-0.034904 0.106880 0.260926 153 0 76
0.298906 0.672036 0.030905 0 0 255
0.318393 0.514237 -0.130702 0 0 255
0.298906 0.559252 -0.065242 0 0 255
-0.106835 0.799659 -0.273032 0 255 0
-0.018510 -0.834568 -0.047040 127 127 0
0.266192 0.884116 -0.299015 127 0 127
0.187859 0.502946 0.121474 204 51 127
-0.012252 0.362695 0.300225 0 127 127
-0.266754 -0.138561 0.300225 153 0 76
0.132560 -0.380896 -0.183626 76 0 153
-0.305207 -0.368391 0.210639 255 0 0
0.121238 0.106880 0.110315 153 0 76
-0.305207 -0.133436 -0.041581 255 0 0
-0.064766 0.429552 0.300225 0 127 127
0.124206 0.808542 -0.273032 0 255 0
-0.305207 -0.858080 0.160487 255 0 0
0.092892 0.881149 -0.146661 127 0 127
0.256588 0.907133 -0.054738 127 0 127
0.277658 -0.598337 0.319712 153 0 76
-0.265515 -0.544664 -0.279528 0 255 0
-0.150180 0.024758 -0.299015 153 76 0
-0.202951 0.907133 0.276999 127 0 127
0.274799 -0.834568 0.073005 127 127 0
-0.305207 0.858874 0.200409 255 0 0
-0.204006 -0.354913 0.157098 76 0 153
-0.069070 0.132863 -0.138974 153 0 76
0.318393 -0.303690 0.205513 0 0 255
-0.285719 0.413777 -0.173827 255 0 0
0.318393 0.202432 -0.179978 0 0 255
0.108064 0.528930 0.000147 204 51 127
0.290470 -0.860552 0.032083 127 127 0
0.294150 -0.399748 0.319712 153 0 76
-0.285719 0.343507 0.181762 255 0 0
-0.027683 0.528930 -0.039089 204 51 127
0.276601 0.907133 0.223824 127 0 127
-0.046447 -0.380896 0.141613 76 0 153
0.298906 0.586918 -0.134552 0 0 255
0.007014 -0.380896 0.130651 76 0 153
0.318393 -0.503444 0.104225 0 0 255
-0.037692 -0.380896 -0.255782 76 0 153
-0.058266 0.881149 -0.057866 127 0 127
0.318393 0.062959 -0.280212 0 0 255
-0.285719 -0.479994 -0.247270 255 0 0
-0.071125 0.420512 -0.273032 0 255 0
0.295888 0.448580 0.319712 0 127 127
0.028199 0.502946 0.136190 204 51 127
0.298906 -0.817387 -0.065919 0 0 255
-0.305207 0.081355 0.039021 255 0 0
0.041159 -0.419151 0.319712 153 0 76
0.176941 -0.157838 -0.273032 0 255 0
-0.119623 0.132863 0.149600 153 0 76
-0.253092 0.881149 0.172387 127 0 127
0.209563 -0.354913 0.224949 76 0 153
0.117779 0.502946 0.095238 204 51 127
0.107518 -0.214726 0.300225 153 0 76
-0.301724 -0.725890 -0.299015 255 0 0
0.210430 0.528930 0.214882 204 51 127
0.318393 -0.002922 -0.044121 0 0 255
-0.252048 0.907133 -0.156824 127 0 127
-0.305207 0.731365 0.229235 255 0 0
-0.257722 0.132863 -0.073379 153 0 76
0.316794 -0.140551 -0.299015 0 0 255
-0.147216 -0.646158 -0.279528 0 255 0
-0.157814 -0.354913 -0.030598 76 0 153
0.298906 0.626233 0.197494 0 0 255
-0.285719 0.803847 0.133596 255 0 0
-0.285719 0.208054 -0.211667 255 0 0
-0.002943 0.132863 -0.089181 153 0 76
0.318393 0.280900 -0.165892 0 0 255
-0.305207 -0.306744 -0.097459 255 0 0
0.318393 0.411080 0.003381 0 0 255
0.298906 -0.422023 0.130069 0 0 255
0.298906 0.715117 -0.135785 0 0 255
0.298906 0.163080 0.006978 0 0 255
-0.014005 0.132863 0.165472 153 0 76
-0.041052 0.502946 0.018862 204 51 127
-0.052754 -0.096551 0.300225 153 0 76
0.256278 0.528930 -0.010836 204 51 127
0.318393 0.245024 0.008842 0 0 255
-0.019322 -0.834568 0.265386 127 127 0
0.312317 0.534041 0.319712 0 127 127
0.053702 0.528930 0.274472 204 51 127
-0.231480 -0.003764 0.300225 153 0 76
0.187102 0.106880 0.076838 153 0 76
0.075321 0.869376 -0.273032 0 255 0
0.209094 0.132863 0.260486 153 0 76
-0.060279 -0.860552 -0.114216 127 127 0
0.266191 0.508119 0.319712 0 127 127
0.270504 0.881149 -0.151681 127 0 127
0.298906 -0.454327 -0.178929 0 0 255
-0.183284 0.595157 -0.279528 0 255 0
0.195189 0.232732 0.319712 0 127 127
0.159095 0.365095 0.319712 0 127 127
0.298906 0.542458 0.216247 0 0 255
0.194589 0.862504 0.319712 0 127 127
0.318393 0.231707 0.135123 0 0 255
-0.305207 0.711419 0.046204 255 0 0
0.316769 -0.317277 0.309240 153 0 76
0.280102 0.132863 -0.106561 153 0 76
-0.285719 -0.010237 -0.264133 255 0 0
0.271793 -0.380896 -0.194032 76 0 153
0.298906 0.704922 0.159402 0 0 255
-0.161791 0.506120 0.292105 204 51 127
-0.152578 0.106880 -0.004737 153 0 76
0.298906 -0.424092 0.081156 0 0 255
-0.103294 0.528930 0.140050 204 51 127
-0.080011 0.580120 0.300225 0 127 127
-0.048286 -0.602264 0.300225 153 0 76
-0.185075 0.433806 0.319712 0 127 127
-0.112122 -0.511693 0.300225 153 0 76
-0.285719 -0.732713 -0.151066 255 0 0
0.002716 0.655838 0.300225 0 127 127
0.078822 -0.834568 -0.135821 127 127 0
0.135737 -0.080036 -0.279528 0 255 0
-0.305207 0.565872 0.170782 255 0 0
-0.060731 -0.644544 0.319712 153 0 76
0.156276 -0.704652 -0.297544 0 127 127
-0.285719 -0.555206 0.013940 255 0 0
-0.130728 -0.733562 0.300225 153 0 76
-0.149291 0.179210 0.300225 0 127 127
-0.241240 -0.834568 -0.269601 127 127 0
-0.196845 0.907133 -0.011115 127 0 127
-0.217198 -0.373550 0.292105 76 0 153
-0.189473 -0.834568 0.261547 127 127 0
-0.285719 0.288419 -0.249486 255 0 0
-0.131274 0.528930 -0.182836 204 51 127
-0.079997 0.881149 0.199739 127 0 127
-0.198772 0.502946 -0.227667 204 51 127
0.146386 0.616117 0.319712 0 127 127
-0.305207 0.569680 -0.085602 255 0 0
0.184160 -0.604673 -0.273032 0 255 0
-0.187182 -0.087757 -0.273032 0 255 0
0.312639 0.529853 -0.299015 0 0 255
-0.249652 0.881149 -0.101417 127 0 127
-0.049963 -0.771501 0.319712 153 0 76
-0.001425 -0.860552 -0.012702 127 127 0
-0.285719 -0.199794 -0.024816 255 0 0
-0.269767 -0.024528 0.300225 153 0 76
-0.285719 0.020820 0.112836 255 0 0
0.055803 0.528930 0.087070 204 51 127
0.298906 -0.261939 0.265120 0 0 255
0.143634 0.132863 -0.054235 153 0 76
0.263998 -0.566742 -0.279528 0 255 0
-0.305207 -0.010349 0.075746 255 0 0
-0.305207 0.251757 -0.274489 255 0 0
-0.285719 -0.835315 0.246676 127 127 0
-0.285719 -0.540902 0.279075 255 0 0
-0.209333 -0.313808 -0.273032 0 255 0
0.086674 0.907133 -0.228418 127 0 127
0.295723 -0.542127 0.319712 153 0 76
0.111558 -0.524488 -0.279528 0 255 0
-0.305207 -0.811279 -0.200908 255 0 0
-0.305207 -0.336993 0.142953 255 0 0
-0.271499 0.325686 0.319712 0 127 127
0.318393 0.717031 -0.079895 0 0 255
0.223355 -0.860552 0.143170 127 127 0
0.006453 0.502946 0.067216 204 51 127
0.069596 -0.019250 0.319712 153 0 76
0.298906 -0.650825 0.214845 0 0 255
0.318393 0.676396 0.198175 0 0 255
-0.036598 0.325170 0.319712 0 127 127
0.227843 0.618000 -0.279528 0 255 0
-0.147256 -0.820628 0.319712 153 0 76
0.279131 0.203671 0.319712 0 127 127
-0.170244 -0.834568 -0.037038 127 127 0
-0.231368 0.132863 -0.003806 153 0 76
0.263711 -0.515351 0.300225 153 0 76
0.318393 0.145189 -0.251895 0 0 255
0.127420 0.907133 -0.127301 127 0 127
0.298906 0.613652 -0.008673 0 0 255
-0.285719 -0.479307 0.207641 255 0 0
-0.305207 -0.365120 -0.093743 255 0 0
0.198122 -0.851766 -0.299015 127 127 0
0.298906 -0.076050 -0.088686 0 0 255
0.318393 -0.067944 -0.030603 0 0 255
0.158138 0.396915 -0.279528 0 255 0
-0.019399 -0.473982 0.319712 153 0 76
-0.305207 0.128680 -0.063108 255 0 0
-0.219630 0.528930 0.019817 204 51 127
-0.181864 0.325640 -0.273032 0 255 0
-0.285719 -0.665084 0.002004 255 0 0
-0.246489 0.132863 0.063671 153 0 76
-0.049919 -0.110719 -0.279528 0 255 0
0.043987 0.132863 0.244576 153 0 76
-0.000399 0.907133 -0.231848 127 0 127
-0.050740 -0.290149 -0.273032 0 255 0
-0.115659 0.132863 0.049505 153 0 76
-0.305207 0.370467 0.024863 255 0 0
0.276983 -0.834568 -0.005889 127 127 0
0.283777 -0.294625 -0.273032 0 255 0
0.318393 -0.563446 0.167939 0 0 255
-0.252592 -0.166429 0.356354 76 0 153
0.279849 0.088394 0.300225 153 0 76
-0.065982 -0.170901 0.300225 153 0 76
-0.159662 0.252596 -0.273032 0 255 0
-0.305207 -0.454492 -0.061225 255 0 0
0.010851 0.757369 0.300225 0 127 127
0.216943 0.864360 -0.299015 76 153 0
0.288352 -0.223095 -0.279528 0 255 0
0.318393 0.117394 -0.182247 0 0 255
-0.254879 0.132863 0.253835 153 0 76
0.226252 -0.291834 0.300225 153 0 76
0.089582 0.502946 -0.122520 204 51 127
0.067125 -0.210440 0.319712 153 0 76
0.286210 -0.799610 -0.273032 0 255 0
-0.231773 0.159132 0.300225 0 127 127
0.318393 0.321594 0.005380 0 0 255
0.269082 -0.354913 0.007215 76 0 153
0.101155 -0.057702 0.319712 153 0 76
0.247327 0.288659 -0.273032 0 255 0
0.318393 -0.846584 0.292051 0 0 255
-0.203412 0.069920 0.300225 153 0 76
-0.210944 -0.689542 -0.273032 0 255 0
0.268278 -0.389024 -0.273032 0 255 0
0.298906 0.331881 -0.229043 0 0 255
-0.118651 -0.380896 0.183962 76 0 153
0.160154 -0.757209 -0.299015 0 127 127
-0.163329 -0.533722 0.319712 153 0 76
-0.285719 -0.727760 0.110264 255 0 0
-0.152611 -0.860552 0.192095 127 127 0
-0.256263 -0.148019 -0.279528 0 255 0
-0.285719 0.859882 -0.093381 255 0 0
0.318393 0.289336 -0.216601 0 0 255
-0.134186 0.090107 0.300225 153 0 76
0.142655 0.528930 -0.047209 204 51 127
-0.079254 0.881149 0.276886 127 0 127
-0.209182 -0.007835 -0.299015 153 76 0
-0.129316 -0.378150 -0.279528 0 255 0
-0.060954 -0.238650 -0.273032 0 255 0
-0.001323 0.106880 -0.147985 153 0 76
-0.305207 -0.531744 -0.038216 255 0 0
0.298906 0.846948 0.259178 0 0 255
-0.269308 0.538224 0.319712 0 127 127
0.069932 0.881149 0.133673 127 0 127
0.170284 0.528930 0.010792 204 51 127
-0.128094 0.881149 -0.255422 127 0 127
0.218390 -0.354913 -0.176014 76 0 153
-0.042752 0.881149 -0.249618 127 0 127
-0.201827 0.907133 0.075892 127 0 127
0.272694 0.502946 -0.234285 204 51 127
0.318393 0.391793 0.194902 0 0 255
0.178671 0.881149 -0.064932 127 0 127
0.213757 0.907133 -0.035169 127 0 127
0.318393 0.663440 0.284968 0 0 255
0.066917 -0.609932 -0.279528 0 255 0
0.200132 0.277031 0.319712 0 127 127
-0.204845 -0.628216 0.319712 153 0 76
-0.215454 0.794894 -0.279528 0 255 0
-0.285719 0.469212 -0.259804 255 0 0
-0.305207 0.663108 0.015323 255 0 0
-0.285719 0.155709 -0.143482 255 0 0
0.241752 0.907133 0.129227 127 0 127
-0.197643 0.106880 -0.075656 153 0 76
-0.022572 0.881149 -0.087437 127 0 127
0.222123 0.106880 -0.044970 153 0 76
-0.285719 -0.365755 -0.257506 76 0 153
-0.285719 0.342771 -0.124465 255 0 0
-0.285719 -0.280196 -0.262358 255 0 0
-0.071554 -0.662329 -0.273032 0 255 0
-0.259081 -0.600844 0.300225 153 0 76
0.072841 -0.706750 0.319712 153 0 76
-0.305207 -0.131708 0.083492 255 0 0
-0.249846 -0.061047 0.352850 76 0 153
0.152574 0.704832 0.319712 0 127 127
0.318393 0.786255 0.292349 0 0 255
-0.305207 0.710922 -0.058898 255 0 0
0.255771 0.085721 -0.299015 153 76 0
0.072375 -0.354913 0.273714 76 0 153
-0.054764 -0.207818 0.319712 153 0 76
-0.305207 0.256823 -0.052385 255 0 0
-0.004039 -0.050797 0.319712 153 0 76
-0.107637 0.235284 -0.273032 0 255 0
0.197927 0.106880 -0.232811 153 0 76
0.138211 -0.860552 0.043108 127 127 0
0.239731 0.132863 0.020046 153 0 76
-0.305207 -0.754006 0.078739 255 0 0
0.109660 -0.708044 -0.299015 0 127 127
0.034053 -0.141530 -0.279528 0 255 0
-0.060184 -0.161291 -0.279528 0 255 0
0.161242 -0.018545 0.300225 153 0 76
0.298906 -0.641421 -0.109769 0 0 255
0.298906 -0.740811 0.205794 0 0 255
0.023526 -0.226494 -0.279528 0 255 0
0.186366 -0.000083 -0.299015 153 76 0
0.090183 0.528930 -0.241862 204 51 127
0.318393 0.614318 -0.176736 0 0 255
0.318393 -0.743050 0.038498 0 0 255
0.318393 0.211446 -0.250564 0 0 255
-0.305207 0.686145 0.133196 255 0 0
-0.234490 -0.380896 -0.068060 76 0 153
0.318393 -0.617594 -0.190157 0 0 255
-0.091648 -0.380896 0.151806 76 0 153
-0.237981 0.528930 -0.058728 204 51 127
0.027750 0.348108 0.300225 0 127 127
-0.056951 0.231435 0.319712 0 127 127
-0.305207 0.232167 -0.110890 255 0 0
0.311678 0.001697 0.319712 153 0 76
-0.285719 -0.234545 -0.244124 255 0 0
-0.180560 -0.430299 0.319712 153 0 76
-0.192383 -0.860552 0.033673 127 127 0
0.275731 -0.149109 0.300225 153 0 76
-0.285719 -0.538484 0.229760 255 0 0
-0.105335 0.822458 0.319712 0 127 127
0.219649 0.014194 0.319712 153 0 76
-0.285719 0.646107 -0.109695 255 0 0
-0.014184 -0.217724 0.319712 153 0 76
-0.002942 0.834393 -0.273032 0 255 0
0.318393 -0.591946 -0.006656 0 0 255
-0.285719 -0.275011 0.140243 255 0 0
-0.042138 0.132863 0.111681 153 0 76
-0.271043 0.129985 0.298601 153 0 76
0.226220 0.881149 0.069953 127 0 127
-0.305207 -0.242102 -0.043842 255 0 0
-0.146474 0.907133 -0.140321 127 0 127
0.250311 -0.795085 0.319712 153 0 76
0.318393 0.839864 -0.297510 0 0 255
0.141964 0.502946 -0.112910 204 51 127
0.012662 0.431126 0.319712 0 127 127
0.146594 0.751153 0.300225 0 127 127
-0.053968 -0.817479 -0.273032 0 255 0
0.004536 -0.349595 0.319712 153 0 76
-0.017297 -0.834568 -0.250389 127 127 0
-0.285719 0.484842 0.201255 255 0 0
0.061828 0.819430 -0.273032 0 255 0
0.186585 -0.380896 -0.101934 76 0 153
-0.305207 -0.688909 0.275425 255 0 0
0.132402 -0.860552 0.233756 127 127 0
-0.285719 -0.811376 -0.140952 255 0 0
0.163673 -0.354913 0.030946 76 0 153
-0.285719 0.318599 0.215721 255 0 0
0.133825 -0.670885 -0.279528 0 255 0
0.006579 -0.372516 -0.273032 0 255 0
-0.154408 0.907133 0.054961 127 0 127
0.318393 0.102099 -0.092562 0 0 255
0.035385 -0.481207 -0.273032 0 255 0
0.298906 0.693297 0.244612 0 0 255
0.318393 -0.373206 -0.149912 0 0 255
0.298906 -0.432530 -0.065103 0 0 255
0.318393 -0.404409 -0.010197 0 0 255
0.036174 0.106880 0.156496 153 0 76
0.167063 -0.380896 0.063079 76 0 153
0.056900 -0.566461 0.319712 153 0 76
-0.200014 0.777306 0.319712 0 127 127
0.241399 0.290285 0.319712 0 127 127
-0.195343 -0.834568 -0.244258 127 127 0
-0.245365 -0.354913 0.264444 76 0 153
0.094608 0.907133 0.220828 127 0 127
-0.285719 0.580508 0.095929 255 0 0
-0.249678 -0.250315 0.355655 76 0 153
-0.217777 -0.511782 0.319712 153 0 76
-0.305207 0.123015 -0.224728 255 0 0
-0.285719 0.376304 0.135775 255 0 0
0.318393 0.256746 -0.251879 0 0 255
-0.285719 -0.518195 -0.102790 255 0 0
-0.274702 0.677678 -0.279528 0 255 0
0.318393 0.475654 -0.033476 0 0 255
0.318393 -0.657955 0.028287 0 0 255
-0.093554 -0.860552 -0.268576 127 127 0
0.318393 -0.522175 -0.220076 0 0 255
-0.305207 -0.527246 -0.283166 255 0 0
0.267857 0.607466 0.300225 0 127 127
-0.046802 0.502946 0.186345 204 51 127
0.131069 -0.834568 0.156635 127 127 0
-0.305207 -0.618522 0.279233 255 0 0
0.298906 -0.809446 0.238878 0 0 255
-0.266658 0.817521 0.319712 0 127 127
-0.279438 0.907133 -0.089795 127 0 127
0.154753 0.224879 0.319712 0 127 127
-0.136852 -0.036461 -0.273032 0 255 0
0.032664 -0.784963 0.300225 153 0 76
0.247738 -0.217709 0.300225 153 0 76
0.155089 -0.633828 -0.273032 0 255 0
0.298906 0.741813 0.284611 0 0 255
0.135138 0.502630 -0.273032 0 255 0
0.043184 -0.860552 -0.258923 127 127 0
-0.271921 0.528930 0.229822 204 51 127
-0.305207 0.652866 0.189328 255 0 0
0.029065 0.110332 0.319712 153 0 76
0.318393 -0.040233 0.104979 0 0 255
0.298906 -0.256717 0.009201 0 0 255
-0.285719 0.371221 0.081213 255 0 0
0.077715 0.798403 0.300225 0 127 127
0.153504 0.164187 -0.279528 0 255 0
-0.285719 0.229007 0.049311 255 0 0
-0.285719 0.043466 0.020259 255 0 0
-0.305207 0.561417 -0.269602 255 0 0
-0.142720 -0.666751 0.300225 153 0 76
-0.073036 -0.376721 0.319712 153 0 76
0.159328 -0.354913 -0.251868 76 0 153
0.318393 -0.148877 -0.138245 0 0 255
0.156661 0.528930 -0.226302 204 51 127
0.221038 0.502946 -0.058140 204 51 127
-0.305207 0.000173 -0.105520 255 0 0
-0.188162 0.244352 0.319712 0 127 127
0.196005 -0.857304 0.315495 153 0 76
-0.305207 0.528369 -0.037140 255 0 0
-0.305207 -0.100825 0.111541 255 0 0
-0.285719 0.046258 -0.037809 255 0 0
-0.305207 -0.359523 0.004238 255 0 0
0.214502 -0.097949 -0.279528 0 255 0
0.136765 0.881149 -0.201171 127 0 127
0.149390 -0.819487 -0.299015 0 127 127
-0.285719 0.779676 -0.101336 255 0 0
-0.215100 0.106880 0.208131 153 0 76
0.318393 -0.357961 -0.283736 0 0 255
0.084808 0.132863 0.119528 153 0 76
-0.144610 -0.274357 0.319712 153 0 76
0.318393 0.035681 0.118789 0 0 255
0.187775 0.220710 -0.279528 0 255 0
0.298906 0.355578 0.183471 0 0 255
-0.305207 0.512098 0.037374 255 0 0
0.066994 0.380550 -0.279528 0 255 0
-0.285719 0.770365 0.107610 255 0 0
-0.195800 -0.142415 0.319712 153 0 76
0.318393 -0.786127 -0.225840 0 0 255
-0.212135 0.060525 -0.273032 0 255 0
-0.305207 -0.073131 0.179537 255 0 0
0.060820 -0.354913 0.148795 76 0 153
0.200662 0.132863 -0.195953 153 0 76
0.177581 0.907133 0.196434 127 0 127
0.092219 -0.380896 0.201651 76 0 153
-0.285719 -0.034133 -0.086448 255 0 0
0.104702 -0.178838 -0.273032 0 255 0
-0.245400 -0.243807 -0.279528 0 255 0
-0.285719 0.852173 -0.296126 76 153 0
-0.257401 -0.380896 0.086267 76 0 153
-0.173133 0.106880 -0.176034 153 0 76
0.085987 -0.022720 -0.279528 0 255 0
-0.125210 0.881149 -0.020825 127 0 127
-0.305207 -0.807703 -0.296647 255 0 0
0.114524 -0.834568 -0.238208 127 127 0
-0.285719 -0.040112 0.235932 255 0 0
-0.274429 0.907133 0.265716 127 0 127
-0.305207 -0.014348 0.143023 255 0 0
0.275904 0.824739 -0.299015 76 153 0
-0.285719 0.105455 -0.032235 255 0 0
0.029543 -0.834568 -0.016593 127 127 0
-0.267584 0.502946 0.011822 204 51 127
0.124098 -0.146486 0.319712 153 0 76
-0.028355 0.758872 -0.273032 0 255 0
0.114917 0.120576 -0.279528 0 255 0
-0.285719 -0.343448 0.256134 255 0 0
-0.265948 -0.354913 0.026513 76 0 153
0.298906 -0.629549 0.138650 0 0 255
0.298906 -0.468244 0.133825 0 0 255
-0.303583 0.258027 0.318804 0 127 127
-0.294917 0.743718 -0.299015 255 0 0
-0.285719 0.568115 0.053846 255 0 0
-0.285719 0.402070 0.272509 255 0 0
0.087131 0.881149 0.063274 127 0 127
0.318393 -0.042802 0.160395 0 0 255
0.107578 0.502946 0.207024 204 51 127
0.194380 -0.695180 0.300225 153 0 76
-0.305207 -0.479804 0.093128 255 0 0
0.187881 0.132863 0.225683 153 0 76
-0.042191 -0.612020 -0.279528 0 255 0
-0.058386 0.106880 0.060193 153 0 76
0.142737 0.132863 0.182134 153 0 76
0.318393 0.170899 0.164155 0 0 255
-0.268830 0.106880 0.093296 153 0 76
0.039859 -0.354913 -0.077665 76 0 153
0.276453 -0.687576 -0.273032 0 255 0
-0.066648 0.907133 -0.005179 127 0 127
0.043092 0.907133 0.163161 127 0 127
0.125742 -0.002315 -0.273032 0 255 0
-0.073467 -0.036173 0.319712 153 0 76
-0.140780 0.106880 0.194693 153 0 76
-0.305207 0.390251 -0.260407 255 0 0
-0.285719 -0.626365 0.060837 255 0 0
0.003869 0.881149 0.139208 127 0 127
-0.028283 -0.380896 0.011405 76 0 153
0.255182 -0.834568 -0.233287 127 127 0
0.168251 -0.487509 0.319712 153 0 76
-0.123917 0.502946 0.277404 204 51 127
-0.231992 0.881149 -0.226344 127 0 127
-0.155299 -0.860552 -0.004511 127 127 0
0.148171 -0.303987 -0.279528 0 255 0
0.318393 -0.019135 0.062433 0 0 255
-0.285719 -0.424505 0.063496 255 0 0
-0.305207 0.331515 -0.028724 255 0 0
-0.285719 0.699580 -0.002008 255 0 0
0.138464 -0.147568 -0.279528 0 255 0
0.298906 -0.370217 0.049596 76 0 153
0.017314 0.881149 -0.041905 127 0 127
-0.153982 -0.860552 0.273297 127 127 0
-0.022912 -0.860552 0.095118 127 127 0
-0.166065 0.502946 -0.049345 204 51 127
-0.085952 -0.705290 -0.299015 0 127 127
0.107683 0.907133 0.150289 127 0 127
-0.129986 -0.354913 0.258897 76 0 153
-0.163597 -0.380896 0.255080 76 0 153
-0.226473 -0.295688 0.319712 153 0 76
-0.130927 0.818790 -0.299015 76 153 0
-0.158532 0.528930 0.199764 204 51 127
0.074722 0.481155 0.319712 0 127 127
0.298906 -0.003661 -0.244875 0 0 255
0.189748 -0.834568 0.236804 127 127 0
-0.285719 -0.413380 0.221061 255 0 0
0.298906 -0.677721 -0.077743 0 0 255
0.207118 0.106880 -0.111304 153 0 76
0.062842 0.907133 -0.096747 127 0 127
0.298906 -0.356533 0.214788 0 0 255
-0.159385 -0.459038 0.300225 153 0 76
-0.110616 0.907133 0.066799 127 0 127
0.128434 -0.459876 0.300225 153 0 76
-0.305207 0.318555 0.271794 255 0 0
0.312672 -0.860551 -0.229567 0 0 255
-0.122911 0.502946 0.094551 204 51 127
0.024405 0.502946 -0.071385 204 51 127
-0.104865 0.106880 -0.067062 153 0 76
-0.305207 -0.691803 -0.020660 255 0 0
0.318393 -0.854258 0.232007 0 0 255
-0.305207 0.076456 0.146183 255 0 0
-0.087004 -0.030805 -0.279528 153 76 0
-0.171934 -0.380896 -0.068138 76 0 153
-0.305207 0.517389 0.119667 255 0 0
0.069839 -0.390979 -0.279528 0 255 0
0.038881 -0.834568 0.208836 127 127 0
-0.099848 0.881149 0.142819 127 0 127
0.028291 0.106880 -0.219706 153 0 76
-0.018496 0.563008 -0.273032 0 255 0
0.318393 0.205827 0.098773 0 0 255
-0.305207 0.783597 0.176649 255 0 0
-0.285719 -0.038417 -0.008144 255 0 0
0.044077 0.106880 -0.161037 153 0 76
0.071919 0.502946 -0.076699 204 51 127
-0.285719 0.143387 0.013057 255 0 0
-0.285719 -0.307539 -0.221903 255 0 0
0.008248 -0.380896 -0.183881 76 0 153
-0.166223 0.907133 0.182189 127 0 127
-0.271892 -0.793279 -0.279528 0 127 127
-0.214587 0.386119 0.300225 0 127 127
0.002652 -0.602628 0.300225 153 0 76
0.262923 0.502946 -0.165067 204 51 127
-0.285719 -0.367486 0.110949 76 0 153
0.275596 0.263936 0.319712 0 127 127
0.318393 -0.221985 -0.196311 0 0 255
0.318393 -0.110416 -0.124875 0 0 255
0.298906 -0.157753 0.088284 0 0 255
-0.305207 -0.666091 -0.079668 255 0 0
0.219348 -0.706780 -0.279528 0 127 127
0.084481 -0.834568 0.211193 127 127 0
-0.256289 -0.672161 0.300225 153 0 76
-0.020923 -0.354913 -0.080538 76 0 153
-0.111242 0.132863 -0.199514 153 0 76
-0.266609 0.106880 -0.197098 153 0 76
0.298906 0.643334 -0.071844 0 0 255
-0.305207 -0.442587 -0.250650 255 0 0
-0.305207 0.553164 -0.175364 255 0 0
-0.036732 -0.834568 0.146302 127 127 0
-0.046001 0.528930 -0.088866 204 51 127
-0.305207 -0.264759 0.218521 255 0 0
-0.203959 -0.354913 -0.197736 76 0 153
0.040297 0.896650 0.319712 0 127 127
-0.040249 -0.860552 -0.204729 127 127 0
0.049745 0.585476 -0.279528 0 255 0
-0.285719 -0.490205 0.164270 255 0 0
-0.063304 0.881149 -0.208828 127 0 127
-0.305207 -0.683058 -0.185167 255 0 0
-0.285719 0.116289 -0.139015 153 0 76
0.029691 0.528930 0.193296 204 51 127
0.318393 -0.585871 -0.263579 0 0 255
0.305632 0.399574 0.319712 0 127 127
-0.113580 -0.380896 -0.091241 76 0 153
-0.244707 0.907133 0.010376 127 0 127
0.318393 -0.670049 -0.205772 0 0 255
0.264653 0.722953 -0.279528 0 255 0
0.037187 -0.380896 -0.043024 76 0 153
-0.203425 0.869222 -0.299015 76 153 0
-0.305207 0.521023 -0.125958 255 0 0
0.205550 -0.643299 -0.273032 0 255 0
-0.285719 -0.795876 0.126878 255 0 0
0.298906 0.254289 0.271701 0 0 255
-0.305207 0.715888 -0.192249 255 0 0
0.008029 -0.557477 -0.273032 0 255 0
-0.094224 0.502946 -0.018869 204 51 127
0.248982 -0.854684 0.300225 153 0 76
0.318393 -0.467852 -0.257364 0 0 255
-0.174141 0.907133 0.128070 127 0 127
0.073663 0.696547 0.319712 0 127 127
-0.305207 -0.778574 0.197232 255 0 0
-0.075253 -0.354913 0.275687 76 0 153
0.318393 0.221964 -0.143904 0 0 255
-0.053949 -0.526595 0.300225 153 0 76
-0.271094 -0.295794 0.300225 153 0 76
0.318393 0.503526 -0.213425 0 0 255
0.165023 -0.415814 0.319712 153 0 76
0.058555 0.198959 0.319712 0 127 127
0.081089 0.383914 0.300225 0 127 127
-0.060053 0.078478 -0.299015 153 76 0
-0.208156 0.732141 0.319712 0 127 127
-0.144505 0.338855 0.300225 0 127 127
-0.279357 0.502946 0.078157 204 51 127
0.298906 -0.511581 0.192796 0 0 255
-0.267720 -0.193312 -0.279528 0 255 0
0.241392 -0.039333 -0.299015 153 76 0
0.318393 -0.597688 -0.077013 0 0 255
-0.305207 0.071372 -0.158182 255 0 0
-0.305207 -0.584999 0.073501 255 0 0
-0.200661 0.106880 -0.014555 153 0 76
0.318393 -0.759145 -0.064541 0 0 255
-0.184779 -0.242818 -0.273032 0 255 0
0.298906 -0.272381 -0.226476 0 0 255
-0.285719 -0.186826 0.223706 255 0 0
0.081405 -0.380896 0.244396 76 0 153
0.318393 0.097804 0.048379 0 0 255
0.318393 -0.129331 0.211175 0 0 255
0.199816 -0.262757 0.300225 153 0 76
-0.264208 0.032254 -0.273032 0 255 0
-0.264754 0.304456 -0.279528 0 255 0
0.318393 0.319619 0.127011 0 0 255
0.279940 0.132863 -0.029714 153 0 76
-0.285719 0.729303 -0.094474 255 0 0
-0.285719 -0.128310 0.267228 255 0 0
0.212241 -0.349298 -0.273032 0 255 0
0.318393 -0.577510 0.252617 0 0 255
-0.015798 -0.316100 0.319712 153 0 76
-0.036630 0.528930 0.263818 204 51 127
0.119590 -0.380896 -0.142677 76 0 153
-0.205333 -0.860552 0.236523 127 127 0
0.123994 -0.819338 0.319712 153 0 76
-0.285719 -0.176794 0.039053 255 0 0
0.318393 0.581916 -0.090828 0 0 255
0.298906 -0.652368 0.063889 0 0 255
-0.285719 -0.461707 -0.138681 255 0 0
0.024270 0.881149 -0.202310 127 0 127
-0.305207 0.003327 -0.175374 255 0 0
-0.120402 -0.860552 0.231951 127 127 0
-0.107463 0.907133 0.004351 127 0 127
-0.255529 -0.834568 0.221907 127 127 0
0.209684 -0.178058 -0.279528 0 255 0
0.275985 -0.354913 0.088895 76 0 153
0.298906 0.507294 -0.090219 0 0 255
-0.186342 0.528930 -0.131082 204 51 127
0.244199 0.021833 -0.299015 153 76 0
0.318393 0.904812 -0.091485 0 0 255
-0.305207 0.472165 -0.076002 255 0 0
-0.285719 -0.340233 -0.291730 255 0 0
0.282563 0.132863 -0.227168 153 0 76
-0.285719 0.825404 0.008844 255 0 0
0.010127 0.521496 -0.273032 204 51 127
-0.148029 0.405732 0.300225 0 127 127
0.053105 -0.857304 0.319497 153 0 76
-0.128451 -0.186993 -0.279528 0 255 0
0.318393 -0.833814 -0.178100 0 0 255
0.170784 -0.082900 0.319712 153 0 76
0.013055 0.528930 0.014262 204 51 127
0.074341 0.163968 -0.273032 0 255 0
-0.077942 0.869554 0.319712 0 127 127
-0.050618 -0.417293 -0.279528 0 255 0
0.318393 -0.087085 0.094748 0 0 255
0.144857 -0.380896 -0.041846 76 0 153
0.242748 0.841443 0.319712 0 127 127
0.086484 -0.286118 0.300225 153 0 76
0.298906 -0.025712 0.204391 0 0 255
0.318393 0.419923 0.247890 0 0 255
0.164623 0.106880 0.111324 153 0 76
0.074522 0.088249 -0.286528 153 76 0
-0.231014 0.321170 0.319712 0 127 127
-0.303583 0.400254 0.316551 0 127 127
0.156588 -0.544543 0.319712 153 0 76
-0.285719 0.530481 -0.244095 255 0 0
-0.113900 0.106880 -0.008221 153 0 76
-0.285719 0.525249 0.193733 255 0 0
0.068490 0.132863 -0.209258 153 0 76
0.241792 -0.090572 0.300225 153 0 76
-0.111549 0.528930 -0.224589 204 51 127
-0.153252 -0.322241 0.300225 153 0 76
0.212195 -0.834568 -0.108448 127 127 0
0.186591 0.132863 -0.040908 153 0 76
-0.285719 -0.104698 -0.170708 255 0 0
-0.285719 0.177272 0.178694 255 0 0
-0.252039 0.106880 -0.243053 153 0 76
0.318393 0.578645 -0.037950 0 0 255
-0.285719 -0.859219 -0.007924 255 0 0
0.119543 -0.860552 0.293296 127 127 0
0.158532 0.907133 -0.085398 127 0 127
-0.195844 -0.380896 0.073830 76 0 153
-0.230860 -0.722914 -0.279528 0 255 0
0.010340 -0.800765 -0.273032 0 255 0
-0.305207 0.419093 -0.101743 255 0 0
-0.067809 0.866154 -0.279528 0 255 0
0.318393 -0.482962 0.282178 0 0 255
-0.214144 -0.496295 -0.279528 0 255 0
0.107201 0.106880 0.146370 153 0 76
-0.085216 -0.380896 -0.144527 76 0 153
-0.155959 -0.834568 -0.236683 127 127 0
-0.285719 0.103501 0.182283 255 0 0
-0.224781 0.104418 0.319712 153 0 76
-0.305207 0.433808 0.033123 255 0 0
-0.165945 -0.239792 0.319712 153 0 76
-0.305207 -0.401689 -0.270895 255 0 0
-0.303583 0.451536 0.317718 0 127 127
-0.101159 -0.354913 0.016685 76 0 153
-0.208494 -0.812424 -0.273032 0 255 0
-0.195003 -0.380896 -0.127505 76 0 153
0.221322 0.881149 -0.247586 127 0 127
-0.305207 0.638447 -0.043072 255 0 0
0.191142 -0.354913 0.275529 76 0 153
0.173000 -0.178477 0.319712 153 0 76
0.029259 -0.834568 0.050478 127 127 0
0.043854 0.419335 0.300225 0 127 127
0.036980 0.878507 -0.273032 0 255 0
0.115677 -0.466363 -0.273032 0 255 0
0.168121 0.502946 0.225438 204 51 127
0.242030 0.154405 0.319712 0 127 127
-0.305207 -0.834121 0.279958 255 0 0
0.093479 -0.545478 0.300225 153 0 76
-0.305207 -0.071459 -0.290661 255 0 0
0.318393 0.350845 -0.095591 0 0 255
0.298906 0.626078 -0.255910 0 0 255
-0.083878 0.907133 0.171578 127 0 127
-0.182194 0.684997 -0.273032 0 255 0
-0.247778 0.350453 0.345374 76 153 0
-0.018002 0.502946 -0.221501 204 51 127
-0.268239 0.619447 -0.273032 0 255 0
0.138884 -0.260484 -0.279528 0 255 0
-0.285328 0.907133 -0.264337 127 0 127
-0.008418 0.054693 -0.279528 153 76 0
-0.258697 0.378829 -0.273032 0 255 0
-0.285719 -0.746357 0.284418 255 0 0
-0.223700 -0.860552 0.132341 127 127 0
-0.248639 0.520462 0.292105 204 51 127
0.251596 0.792986 0.319712 0 127 127
0.175845 0.811660 0.300225 0 127 127
0.318393 0.718429 -0.293049 0 0 255
0.318393 -0.239508 0.109667 0 0 255
0.316769 0.586935 0.308833 0 127 127
-0.305207 0.417919 0.190801 255 0 0
-0.285719 -0.671503 0.084617 255 0 0
0.257888 -0.380896 -0.044454 76 0 153
-0.212319 0.185849 0.319712 0 127 127
0.318393 0.005824 -0.154598 0 0 255
0.239913 0.528930 -0.245897 204 51 127
0.087546 0.224075 0.319712 0 127 127
0.058056 -0.834568 -0.221082 127 127 0
0.298906 -0.618573 -0.157152 0 0 255
0.298906 0.830564 0.164548 0 0 255
-0.305207 0.432234 -0.264540 255 0 0
-0.062741 0.502946 0.238170 204 51 127
-0.285719 -0.597056 0.224847 255 0 0
-0.305207 0.269730 -0.014774 255 0 0
-0.246035 0.528930 0.169522 204 51 127
-0.046096 0.712746 0.300225 0 127 127
-0.276321 0.881149 0.083370 127 0 127
0.213234 -0.860552 0.003031 127 127 0
-0.078803 -0.752554 -0.299015 0 127 127
-0.017126 0.106880 0.098997 153 0 76
-0.118678 0.907133 0.313522 0 127 127
-0.057383 -0.712461 0.319712 153 0 76
-0.305207 -0.549406 -0.132943 255 0 0
-0.305207 -0.744512 0.025435 255 0 0
-0.285719 0.635678 0.041346 255 0 0
-0.135469 -0.380896 0.120555 76 0 153
-0.082294 -0.834568 -0.138278 127 127 0
-0.251956 0.031149 0.300225 153 0 76
0.283872 0.528930 0.248675 204 51 127
0.123975 0.502946 -0.070085 204 51 127
-0.285719 -0.256859 0.256049 255 0 0
0.060688 0.634578 0.300225 0 127 127
-0.060774 0.502946 -0.236558 204 51 127
0.243381 -0.354913 -0.236376 76 0 153
0.256308 0.106880 -0.206354 153 0 76
0.231342 0.907133 0.236358 127 0 127
0.247386 0.907133 0.311632 0 127 127
-0.037038 -0.860552 -0.080084 127 127 0
-0.192961 -0.163515 -0.273032 0 255 0
-0.228543 0.534567 -0.273032 0 255 0
-0.305207 -0.292457 0.056849 255 0 0
-0.079125 0.907133 -0.076454 127 0 127
0.298906 0.073871 -0.194642 0 0 255
0.318393 -0.813888 0.004826 0 0 255
-0.019785 -0.085515 0.319712 153 0 76
-0.305207 -0.200382 0.138486 255 0 0
-0.305207 0.296170 0.090313 255 0 0
0.150433 0.502946 0.259197 204 51 127
0.298906 -0.492547 -0.019867 0 0 255
-0.305207 -0.042600 -0.259157 255 0 0
-0.091921 0.162981 0.300225 0 127 127
-0.177862 0.759614 -0.279528 0 255 0
-0.161484 0.528930 0.036828 204 51 127
-0.285719 -0.725177 -0.090865 255 0 0
0.160475 -0.040272 -0.273032 0 255 0
0.318393 -0.259516 -0.263365 0 0 255
-0.007922 -0.692630 0.319712 153 0 76
0.292627 0.881149 0.290269 127 0 127
-0.305207 -0.596239 -0.053690 255 0 0
-0.305207 0.130604 -0.291272 255 0 0
0.298906 -0.393633 0.282497 0 0 255
-0.285719 -0.533229 0.097371 255 0 0
0.270382 0.352473 0.319712 0 127 127
0.125921 0.907133 0.266996 127 0 127
-0.236645 -0.580790 -0.279528 0 255 0
0.001670 -0.657457 0.300225 153 0 76
0.318393 0.620712 0.149361 0 0 255
-0.305207 0.797017 0.217500 255 0 0
-0.305207 -0.150877 0.290708 255 0 0
-0.305207 -0.172288 -0.042226 255 0 0
0.032598 0.132863 0.208399 153 0 76
0.020766 -0.015859 0.300225 153 0 76
0.109481 -0.354913 -0.168544 76 0 153
0.298906 0.413565 -0.257767 0 0 255
-0.275006 0.881149 0.141262 127 0 127
-0.305207 -0.274180 0.021855 255 0 0
-0.272529 0.774390 0.300225 0 127 127
0.298906 -0.841656 -0.036853 127 127 0
-0.064143 0.132863 0.162525 153 0 76
0.176130 0.881149 0.024522 127 0 127
0.226482 -0.058403 0.319712 153 0 76
0.273632 0.881149 -0.033119 127 0 127
0.167350 0.434622 -0.273032 0 255 0
0.041072 0.132863 -0.092872 153 0 76
0.298906 -0.618647 0.098326 0 0 255
0.102232 -0.113070 0.319712 153 0 76
0.157623 0.132863 -0.180829 153 0 76
0.209621 -0.380896 0.147461 76 0 153
0.298906 -0.432683 0.201494 0 0 255
0.041181 0.907133 0.247383 127 0 127
0.178082 0.132863 -0.133393 153 0 76
-0.213093 0.902091 0.319712 0 127 127
0.239805 -0.834568 -0.063847 127 127 0
-0.051032 0.106880 -0.080546 153 0 76
0.058962 -0.860552 0.121955 127 127 0
0.298906 -0.321982 0.164284 0 0 255
-0.305207 0.685665 0.089135 255 0 0
0.282338 0.132863 0.039437 153 0 76
-0.285719 0.332903 -0.087332 255 0 0
0.298906 0.356921 -0.186877 0 0 255
0.229946 0.106880 -0.253478 153 0 76
0.318393 0.264908 0.043648 0 0 255
0.281257 -0.098238 -0.273032 0 255 0
0.269780 -0.837004 -0.299015 127 127 0
-0.305207 -0.588645 0.136430 255 0 0
0.105458 0.082576 0.319712 153 0 76
0.223695 0.205122 -0.273032 0 255 0
-0.303583 -0.029515 0.316170 153 0 76
0.089548 -0.380896 -0.003261 76 0 153
-0.285719 0.505038 -0.271920 255 0 0
0.158636 0.132863 0.287789 153 0 76
0.168704 -0.860552 0.219395 127 127 0
0.298906 0.677761 -0.197487 0 0 255
-0.285719 -0.629287 0.142332 255 0 0
-0.285719 -0.503732 0.024499 255 0 0
-0.219251 -0.354913 0.097671 76 0 153
0.239610 -0.860552 0.066326 127 127 0
0.298906 0.751304 0.092005 0 0 255
-0.109630 -0.860552 0.119954 127 127 0
-0.305207 -0.734070 0.192298 255 0 0
0.294539 0.728252 0.319712 0 127 127
-0.148231 0.716070 0.300225 0 127 127
-0.218968 0.029449 -0.299015 153 76 0
-0.051198 0.241744 -0.273032 0 255 0
0.228503 -0.659229 0.319712 153 0 76
0.019715 -0.025131 -0.299015 153 76 0
-0.169838 0.502946 0.107090 204 51 127
-0.279790 -0.354913 0.065067 76 0 153
0.298906 -0.796757 0.157093 0 0 255
-0.305207 -0.725130 -0.037965 255 0 0
0.307391 -0.437330 0.319712 153 0 76
0.298906 -0.033119 -0.117177 0 0 255
0.270946 0.466863 -0.273032 0 255 0
-0.285719 -0.325811 0.173434 255 0 0
-0.136407 0.507073 0.319712 0 127 127
-0.057727 0.130249 0.300225 0 127 127
0.259366 0.528930 -0.062591 204 51 127
0.094845 0.349568 0.319712 0 127 127
-0.305207 0.066156 -0.212878 255 0 0
0.125298 0.132863 -0.206252 153 0 76
-0.047672 -0.834568 0.107669 127 127 0
-0.166978 -0.354913 0.132748 76 0 153
0.311960 -0.860551 0.080372 0 0 255
0.318393 -0.692926 -0.261188 0 0 255
0.099450 -0.808517 -0.299015 0 127 127
0.290716 -0.834568 0.154716 127 127 0
-0.285719 0.473732 0.254041 255 0 0
0.140399 -0.354913 0.184935 76 0 153
-0.136883 -0.860552 -0.138342 127 127 0
-0.036776 -0.380896 -0.217166 76 0 153
-0.150878 -0.354913 0.050211 76 0 153
0.012939 -0.110350 -0.273032 0 255 0
0.004761 -0.380896 0.271844 76 0 153
-0.124557 0.032848 -0.273032 0 255 0
0.298906 0.877398 0.227640 0 0 255
-0.285719 -0.403555 0.141690 255 0 0
0.239876 -0.860552 -0.167899 127 127 0
0.027426 0.907133 -0.084851 127 0 127
-0.037631 -0.209464 -0.273032 0 255 0
-0.285719 0.006682 -0.073955 255 0 0
0.038605 -0.380896 -0.255511 76 0 153
0.298906 0.492237 0.120659 0 0 255
0.173634 0.132863 -0.000715 153 0 76
-0.285719 -0.660971 -0.048228 255 0 0
0.318393 0.557705 0.109143 0 0 255
-0.214008 0.528930 0.267135 204 51 127
0.025997 -0.380896 0.082709 76 0 153
0.051027 -0.834568 -0.047810 127 127 0
-0.044515 0.592607 -0.273032 0 255 0
0.140507 0.323104 -0.279528 0 255 0
