ply
format ascii 1.0
element vertex 1264
property float x
property float y
property float z
property uchar red
property uchar green
property uchar blue
end_header
0.404676 -0.000413 -0.145124 204 51 127
-0.549659 -0.044793 0.223778 76 153 0
-0.849033 -0.185761 -0.114704 0 127 127
-0.279724 -0.019702 0.055313 204 51 127
-0.390624 0.457111 0.176301 76 0 153
-0.849033 0.164531 -0.191937 0 127 127
-0.337244 -0.316716 0.223778 76 153 0
0.688039 0.457111 -0.229751 76 0 153
0.178938 -0.477227 -0.168502 153 76 0
0.165641 0.457111 0.087983 76 0 153
0.797735 -0.316523 0.223778 76 0 153
0.724308 -0.437442 -0.028407 153 76 0
-0.331420 0.262919 0.223778 76 153 0
0.307267 -0.477227 0.065041 153 76 0
-0.000896 0.235245 0.023835 153 0 76
-0.278240 -0.084362 -0.239171 76 0 153
0.803605 -0.482049 0.202737 255 0 0
0.800981 0.457111 0.191208 76 0 153
-0.434145 -0.477227 -0.204972 153 76 0
0.154963 -0.477227 0.118119 153 76 0
-0.868323 -0.022400 0.168152 0 127 127
-0.868323 0.409689 0.014264 0 127 127
-0.521369 0.340030 -0.236760 76 0 153
0.455972 0.457111 0.001469 76 0 153
-0.390418 0.329419 0.243068 76 153 0
0.827952 -0.292745 -0.128460 76 153 0
-0.100835 -0.090339 -0.239171 76 0 153
0.553580 -0.460853 -0.239171 153 76 0
0.226101 0.240278 0.243068 76 0 153
0.761069 0.143061 0.243068 76 0 153
0.188397 -0.019702 0.025401 204 51 127
-0.000896 -0.355390 0.146820 153 0 76
-0.435500 -0.477227 0.080067 153 76 0
0.058768 0.417327 -0.077525 76 0 153
0.827952 0.374459 0.131590 76 153 0
0.556585 0.254443 -0.236760 76 0 153
-0.233932 0.417327 -0.013150 76 0 153
-0.819516 0.188440 0.223778 76 153 0
-0.000896 0.136736 0.098321 153 0 76
-0.678815 -0.437442 0.040166 153 76 0
-0.855650 0.007180 0.243068 76 153 0
0.801713 0.257926 -0.239171 76 0 153
0.648693 0.417327 -0.128676 76 0 153
0.229699 0.417327 0.014653 76 0 153
0.814655 -0.000413 0.156224 76 153 0
0.724363 -0.477227 0.129047 153 76 0
0.731223 -0.000413 -0.087223 204 51 127
-0.683442 -0.070094 0.223778 76 153 0
0.831789 0.107392 0.223778 76 0 153
-0.026379 -0.148010 -0.236760 153 0 76
-0.868323 -0.052320 -0.140193 0 127 127
0.340976 0.417327 0.044397 76 0 153
0.106529 0.172824 -0.239171 76 0 153
0.047228 -0.019702 0.101858 204 51 127
-0.544116 0.457111 -0.014554 76 0 153
-0.711857 -0.060904 -0.239171 76 0 153
-0.815584 -0.139621 -0.239171 76 0 153
0.372058 0.411901 0.239002 76 0 153
0.094228 0.417327 0.191769 76 0 153
0.021171 -0.437442 -0.075569 153 76 0
-0.849033 0.352709 -0.008467 0 127 127
0.507406 0.411698 -0.236760 76 0 153
0.367880 0.335140 -0.236760 76 0 153
0.575053 -0.437442 0.153318 153 76 0
0.728255 -0.437442 0.104148 153 76 0
-0.656477 -0.267942 -0.236760 76 0 153
0.504076 0.457111 -0.162774 76 0 153
-0.849033 0.140541 -0.024066 0 127 127
0.406436 -0.477227 0.052828 153 76 0
0.827952 -0.132365 -0.191053 76 153 0
0.270918 0.172413 -0.236760 76 0 153
-0.525504 -0.477227 -0.040505 153 76 0
-0.199697 -0.477227 0.072468 153 76 0
0.505636 0.417327 0.029687 76 0 153
-0.022185 -0.477227 -0.027747 153 76 0
0.723241 0.457111 -0.145537 76 0 153
-0.606604 0.110696 -0.236760 76 0 153
-0.186495 0.052183 -0.236760 76 0 153
-0.812961 0.449953 0.243068 76 0 153
-0.733313 -0.437442 -0.137446 153 76 0
0.293518 -0.477227 -0.193226 153 76 0
-0.293210 -0.437442 0.072581 153 76 0
0.085409 -0.000413 -0.107395 204 51 127
-0.669310 0.457111 -0.142094 76 0 153
0.196518 0.417327 0.080573 76 0 153
-0.200372 -0.019702 0.030136 204 51 127
0.329911 -0.019702 0.050283 204 51 127
-0.000896 0.360402 -0.038799 153 0 76
0.621245 0.417327 0.044128 76 0 153
-0.375892 0.452904 0.243068 76 0 153
-0.532463 -0.000413 -0.036869 204 51 127
0.268214 -0.437442 0.127363 153 76 0
-0.070277 0.457111 -0.157029 76 0 153
0.130177 0.152105 0.223778 76 0 153
0.266943 -0.019702 -0.016332 204 51 127
0.030195 0.417327 0.128197 76 0 153
0.757810 -0.477227 0.200350 153 76 0
-0.152824 -0.077965 0.223778 76 153 0
-0.831930 -0.437442 -0.043786 153 76 0
-0.668977 -0.437442 0.153354 153 76 0
0.816398 -0.317776 -0.236760 76 153 0
-0.808467 -0.341894 0.243068 76 153 0
-0.041682 -0.000413 -0.186893 204 51 127
0.613531 -0.019702 0.185487 204 51 127
0.670416 0.417327 0.220888 76 0 153
-0.447891 -0.290771 0.243068 76 153 0
-0.019845 -0.100223 -0.236760 76 0 153
0.848447 0.419491 0.151904 76 0 153
-0.776990 0.400880 0.243068 76 153 0
-0.839525 -0.070174 0.243068 76 153 0
0.559762 -0.472294 0.243068 153 76 0
-0.437677 0.216357 0.243068 76 153 0
-0.498608 -0.019702 -0.199984 204 51 127
-0.689854 -0.432017 0.233917 153 76 0
-0.387631 0.083423 -0.239171 76 0 153
0.827952 0.350762 0.202460 76 153 0
-0.273391 -0.437442 -0.028429 153 76 0
0.427385 0.226349 0.223778 76 0 153
0.815119 -0.071849 -0.239171 76 0 153
0.250814 0.411939 -0.236760 76 0 153
0.153882 -0.019702 0.144584 204 51 127
0.275151 0.417327 0.171683 76 0 153
0.582332 -0.437442 -0.125287 153 76 0
-0.020186 -0.307846 0.220783 76 153 0
0.733962 -0.000413 0.024059 204 51 127
0.588352 0.417327 -0.111284 76 0 153
0.657500 -0.285977 0.223778 76 0 153
-0.468139 -0.477227 0.242893 153 76 0
0.744238 -0.101915 0.243068 76 0 153
-0.284516 -0.019702 -0.163665 204 51 127
0.484495 0.169851 -0.239171 76 0 153
0.078068 -0.477227 0.116687 153 76 0
-0.407691 -0.098583 0.223778 76 153 0
-0.739170 -0.181610 0.243068 76 153 0
-0.486435 0.380642 0.243068 76 153 0
0.746628 0.457111 -0.195494 76 0 153
-0.503473 -0.140763 -0.239171 76 0 153
-0.762465 0.307825 -0.239171 76 0 153
0.563934 0.141983 0.223778 76 0 153
0.827952 -0.124174 0.133597 76 153 0
-0.635587 -0.477227 -0.200004 153 76 0
0.847242 -0.375036 -0.063703 76 153 0
-0.868323 -0.005009 -0.008782 0 127 127
-0.684926 -0.437442 -0.062548 153 76 0
0.455887 -0.174958 -0.239171 76 0 153
-0.571459 -0.437442 -0.075694 153 76 0
0.603886 0.417327 0.204033 76 0 153
0.015851 0.417327 -0.201787 76 0 153
0.187377 -0.331869 0.243068 76 0 153
0.399030 -0.420449 0.243068 76 0 153
0.624993 0.202728 0.223778 76 0 153
0.777861 0.013023 0.243068 76 0 153
-0.483095 -0.000413 0.045569 204 51 127
0.231545 -0.452557 -0.239171 76 0 153
-0.431633 -0.213771 0.243068 76 153 0
0.493151 0.116013 0.223778 76 0 153
-0.710219 0.457111 0.040433 76 0 153
-0.868323 -0.215842 0.158215 0 127 127
0.847242 -0.152336 -0.108708 76 153 0
0.480363 -0.477227 0.081882 153 76 0
0.827952 -0.404740 -0.139897 76 153 0
0.827952 0.084532 0.152116 76 153 0
-0.704585 0.343562 -0.239171 76 0 153
-0.060655 0.417327 -0.010404 76 0 153
0.749272 0.417327 0.052551 76 0 153
0.316513 -0.477227 0.127461 153 76 0
-0.137622 -0.477227 0.199253 153 76 0
0.120262 0.030140 -0.239171 76 0 153
-0.070937 -0.437442 -0.148285 153 76 0
-0.719859 -0.477227 -0.205409 153 76 0
-0.291708 0.457111 0.105710 76 0 153
-0.124040 -0.437442 -0.178193 153 76 0
-0.511634 -0.477227 0.199046 153 76 0
0.646289 -0.209493 0.243068 76 0 153
-0.235620 -0.253344 -0.236760 76 0 153
-0.593292 0.060018 0.223778 76 153 0
-0.131568 -0.253899 -0.236760 76 0 153
-0.585508 -0.477227 0.126280 153 76 0
0.204470 0.336295 -0.239171 76 0 153
-0.331017 -0.477227 -0.138609 153 76 0
0.198955 -0.137782 -0.236760 76 0 153
-0.578368 0.417327 0.071798 76 0 153
0.715583 0.417327 0.226297 76 0 153
-0.829844 0.113013 -0.239171 76 0 153
-0.764657 -0.019702 -0.069662 204 51 127
-0.233018 0.122930 -0.236760 76 0 153
-0.020186 -0.356089 0.100204 153 0 76
-0.283671 0.417327 0.123980 76 0 153
0.003354 -0.019702 0.114484 204 51 127
0.664431 0.417327 0.019253 76 0 153
0.501404 -0.437442 -0.114928 153 76 0
-0.596675 -0.000413 0.039629 204 51 127
0.291188 -0.000413 0.200431 204 51 127
-0.191898 -0.453376 -0.239171 153 76 0
-0.454135 0.457111 -0.069091 76 0 153
-0.000896 0.127776 -0.142327 153 0 76
0.602133 0.457111 -0.087418 76 0 153
0.827952 0.125419 0.172105 76 153 0
0.792707 -0.477227 -0.091855 153 76 0
0.100685 0.417327 0.097795 76 0 153
0.183723 -0.269271 -0.236760 76 0 153
0.489153 -0.437442 -0.224041 153 76 0
0.474998 0.417327 0.145172 76 0 153
-0.785048 -0.437442 0.173650 153 76 0
0.683367 0.457111 0.054700 76 0 153
0.554495 0.417327 -0.063474 76 0 153
-0.232431 -0.065766 0.243068 76 153 0
0.226574 -0.477227 0.108888 153 76 0
0.044784 0.457111 -0.089172 76 0 153
-0.868323 0.214341 -0.016222 0 127 127
-0.868323 0.395011 0.087095 0 127 127
0.403966 0.417327 0.168580 76 0 153
0.433863 0.457111 -0.222429 76 0 153
0.767793 -0.019702 0.184528 204 51 127
0.795231 0.061533 0.243068 76 0 153
0.737313 0.417327 -0.108188 76 0 153
0.279658 -0.477227 -0.035636 153 76 0
-0.554040 0.266398 0.223778 76 153 0
-0.630215 0.457111 0.055926 76 0 153
0.114262 0.417327 -0.157684 76 0 153
0.098684 -0.477227 -0.235999 153 76 0
-0.473200 0.305647 0.243068 76 153 0
0.793957 0.417327 0.071830 76 0 153
-0.522813 -0.437442 -0.076520 153 76 0
-0.655227 0.070220 0.223778 76 153 0
-0.286497 -0.477227 -0.063253 153 76 0
0.827952 0.362927 -0.101256 76 153 0
-0.463535 -0.241823 -0.236760 76 0 153
-0.621190 -0.437442 0.136824 153 76 0
-0.849033 0.025226 0.117136 0 127 127
0.535926 -0.477227 0.180853 153 76 0
-0.191676 -0.437442 -0.140220 153 76 0
-0.431955 -0.424509 -0.239171 76 0 153
0.573596 0.457111 0.034018 76 0 153
-0.369523 0.175250 0.243068 76 153 0
0.222144 0.384192 0.243068 76 0 153
0.334855 -0.072049 -0.239171 76 0 153
-0.832891 -0.019702 0.066808 0 127 127
0.459597 0.128713 -0.239171 76 0 153
-0.020186 0.017198 -0.005056 153 0 76
-0.000896 -0.262373 -0.081181 153 0 76
-0.149180 -0.019702 0.099947 204 51 127
-0.378444 0.033752 0.243068 76 153 0
-0.138296 0.417327 -0.025597 76 0 153
-0.303501 0.269335 -0.239171 76 0 153
-0.368362 -0.004298 0.217750 76 153 0
-0.310160 -0.437442 -0.003105 153 76 0
-0.792387 0.071196 0.243068 76 153 0
-0.659135 -0.477227 0.176717 153 76 0
0.179089 0.457111 -0.190893 76 0 153
-0.868323 -0.407626 0.079214 0 127 127
-0.763078 0.457111 0.010183 76 0 153
-0.825572 -0.482049 0.216883 153 76 0
-0.174990 -0.437442 0.007674 153 76 0
0.770776 -0.437442 0.047480 153 76 0
0.161503 0.457111 0.207765 76 0 153
-0.868323 0.271436 0.132042 0 127 127
0.154973 0.098159 0.243068 76 0 153
-0.075571 0.417327 -0.227026 76 0 153
-0.154364 -0.477227 0.116088 153 76 0
-0.332208 -0.110504 -0.239171 76 0 153
0.059301 -0.373200 0.223778 76 0 153
0.369997 0.302270 0.223778 76 0 153
0.366974 -0.437442 -0.085027 153 76 0
-0.020186 0.220973 -0.201987 153 0 76
-0.073560 -0.329937 -0.239171 76 0 153
0.738139 0.207628 0.243068 76 0 153
-0.517007 0.417327 0.054415 76 0 153
-0.724141 0.255149 -0.239171 76 0 153
-0.466049 -0.437442 0.170420 153 76 0
-0.519471 0.105972 0.223778 76 153 0
0.371724 -0.019702 0.190597 204 51 127
-0.020186 -0.331623 -0.034520 153 0 76
0.800852 0.397841 0.243068 76 0 153
-0.821445 0.457111 -0.167930 76 0 153
0.541537 -0.210659 0.223778 76 0 153
-0.055298 0.417327 0.219583 76 0 153
0.574962 -0.301862 -0.236760 76 0 153
0.156397 -0.047756 0.243068 76 0 153
-0.638913 0.226234 -0.236760 76 0 153
0.334170 0.457111 0.010761 76 0 153
-0.020186 -0.312839 -0.156870 153 0 76
-0.079302 -0.437442 0.203777 153 76 0
0.821158 0.225302 0.243068 76 0 153
-0.028189 0.087107 -0.239171 76 0 153
0.134100 -0.119494 0.243068 76 0 153
-0.771433 -0.477227 -0.079128 153 76 0
-0.161723 -0.306146 -0.239171 76 0 153
-0.772339 -0.437442 -0.201526 153 76 0
0.411422 0.457111 0.112874 76 0 153
-0.473664 -0.081514 0.223778 76 153 0
-0.000896 0.074470 0.151051 153 0 76
-0.011577 0.417327 0.152684 153 0 76
-0.341627 0.444902 -0.239171 76 0 153
-0.000896 0.347320 0.176934 153 0 76
0.420535 0.417327 0.006322 76 0 153
-0.049477 -0.381114 0.223778 76 153 0
-0.858306 0.409417 0.243068 76 153 0
-0.868323 -0.084076 0.214280 0 127 127
-0.290447 -0.019702 -0.005388 204 51 127
-0.020186 0.276167 -0.194790 153 0 76
-0.181206 -0.437442 0.139894 153 76 0
0.394923 0.457111 -0.197302 76 0 153
0.433070 -0.363295 -0.239171 76 0 153
-0.321995 -0.000413 0.145807 204 51 127
-0.772443 0.457111 -0.095702 76 0 153
-0.000896 -0.176305 -0.110925 153 0 76
-0.849033 -0.342648 -0.040229 0 127 127
-0.658951 -0.437442 -0.144576 153 76 0
-0.000896 -0.435988 -0.203320 153 76 0
-0.348785 -0.477227 -0.092482 153 76 0
0.382730 0.457111 -0.039978 76 0 153
0.686246 0.328478 -0.239171 76 0 153
-0.020186 -0.022064 -0.031390 204 51 127
-0.541641 0.457111 0.126570 76 0 153
0.734338 0.400527 -0.239171 76 0 153
0.847242 -0.350397 -0.141410 76 153 0
0.218755 -0.477227 0.025187 153 76 0
-0.439425 -0.019702 -0.045917 204 51 127
-0.718165 -0.000413 0.155244 204 51 127
-0.020186 -0.101694 -0.007659 153 0 76
-0.036113 -0.383717 -0.236760 153 0 76
-0.200165 -0.392446 0.223778 76 153 0
0.090129 0.457111 0.111270 76 0 153
-0.468980 0.417327 0.005673 76 0 153
0.223269 -0.437442 -0.165279 153 76 0
-0.805985 -0.477227 -0.155338 153 76 0
0.524306 -0.437442 -0.190339 153 76 0
0.188350 0.457111 0.008681 76 0 153
-0.020186 -0.243342 -0.168792 153 0 76
-0.271769 0.417327 0.045156 76 0 153
0.827952 0.201419 0.174524 76 153 0
0.653157 -0.065899 0.223778 76 0 153
-0.153461 0.457111 0.133126 76 0 153
0.394656 -0.477227 0.165276 153 76 0
0.186128 -0.178581 -0.236760 76 0 153
0.538800 0.325407 0.243068 76 0 153
-0.820127 -0.000413 -0.036996 204 51 127
-0.574555 -0.437442 0.242598 76 153 0
-0.536255 -0.437442 0.207086 153 76 0
-0.226794 0.457111 -0.049222 76 0 153
-0.000896 0.399661 0.076736 153 0 76
-0.849033 0.331641 0.214467 76 153 0
0.409021 0.417327 -0.089400 76 0 153
-0.020186 0.314293 -0.145178 153 0 76
-0.110818 0.457111 -0.038050 76 0 153
-0.866546 -0.083752 -0.239171 0 127 127
0.769687 0.457111 -0.060878 76 0 153
0.847242 0.237735 0.049872 76 153 0
0.339729 -0.477227 -0.030700 153 76 0
0.827952 -0.342937 0.061613 76 153 0
0.847242 -0.011278 -0.166003 76 153 0
-0.089523 -0.437442 -0.040206 153 76 0
-0.027750 0.369820 0.223778 76 153 0
-0.470200 -0.437442 0.032471 153 76 0
-0.690117 0.429075 -0.239171 76 0 153
0.848447 -0.448887 0.214772 153 76 0
0.059405 0.417327 -0.237447 76 0 153
0.364551 0.015910 0.243068 76 0 153
0.100108 -0.069062 0.243068 76 0 153
0.365228 0.088821 -0.239171 76 0 153
0.836309 -0.477227 0.026104 153 76 0
-0.284039 0.457111 -0.097835 76 0 153
-0.861167 0.457111 -0.097667 76 0 153
0.504800 0.030512 0.243068 76 0 153
-0.020186 0.310890 -0.000468 153 0 76
-0.074735 -0.214693 -0.236760 76 0 153
0.172046 -0.047295 -0.239171 76 0 153
-0.461177 -0.000413 0.101660 204 51 127
0.755226 -0.477227 -0.169059 153 76 0
0.253937 0.457111 0.213105 76 0 153
-0.030499 -0.227545 0.243068 76 153 0
0.629097 -0.402462 0.223778 76 0 153
-0.020186 -0.397613 -0.033192 153 0 76
-0.286964 -0.477227 -0.204432 153 76 0
0.609318 0.275045 0.223778 76 0 153
-0.610106 -0.019702 -0.152003 204 51 127
0.444141 -0.007593 -0.239171 204 51 127
0.024324 -0.477227 -0.162155 153 76 0
0.374306 0.092947 0.243068 76 0 153
0.021617 -0.437442 0.077168 153 76 0
-0.094970 0.109701 0.243068 76 153 0
0.441850 0.285274 0.223778 76 0 153
0.006791 -0.437442 -0.123587 153 76 0
-0.042913 -0.019702 0.070747 204 51 127
0.395534 -0.477227 0.108289 153 76 0
0.541436 -0.477227 -0.153785 153 76 0
-0.598137 -0.000413 0.083578 204 51 127
-0.796226 0.073772 -0.236760 76 0 153
-0.804139 -0.416156 0.223778 76 153 0
0.598557 -0.477227 0.025859 153 76 0
0.421943 0.152470 0.243068 76 0 153
0.106386 -0.477227 0.003411 153 76 0
-0.658081 -0.477227 0.134307 153 76 0
-0.183970 0.417327 0.057158 76 0 153
0.148049 -0.437442 -0.206148 153 76 0
-0.362012 0.417327 0.201645 76 0 153
0.647011 0.417327 -0.065822 76 0 153
0.497261 0.313784 -0.236760 76 0 153
0.633339 -0.054051 -0.239171 76 0 153
-0.561490 0.255516 -0.239171 76 0 153
0.847242 -0.283588 -0.179093 76 153 0
0.827952 -0.078507 -0.052015 76 153 0
-0.140864 -0.340847 0.223778 76 153 0
0.710965 0.417327 -0.028744 76 0 153
-0.166071 -0.408174 -0.239171 76 0 153
-0.679997 0.277136 -0.236760 76 0 153
0.667421 -0.126885 0.223778 76 0 153
-0.238945 -0.101470 -0.239171 76 0 153
-0.308526 -0.006771 0.243068 76 153 0
0.539608 -0.019702 0.020484 204 51 127
-0.840270 -0.477227 -0.076790 153 76 0
0.827952 0.015190 0.048754 76 153 0
0.847242 -0.177504 0.060100 76 153 0
0.033105 -0.437442 0.185016 153 76 0
-0.251340 0.407164 -0.236760 76 0 153
-0.226591 0.417327 0.190525 76 0 153
0.812091 0.417327 -0.019064 76 0 153
-0.227313 0.006397 0.223778 204 51 127
-0.753474 -0.000413 0.017175 204 51 127
-0.173442 0.457111 -0.068550 76 0 153
0.444608 0.457111 -0.040242 76 0 153
-0.000896 0.374054 -0.115546 153 0 76
-0.830254 -0.019702 -0.197543 204 51 127
0.467114 -0.000413 -0.173721 204 51 127
-0.507041 -0.147784 0.243068 76 153 0
-0.000896 0.021768 0.207606 153 0 76
0.269361 -0.437442 0.071337 153 76 0
0.847242 -0.187192 -0.236886 76 153 0
0.667145 -0.373967 0.223778 76 0 153
0.327497 -0.137064 -0.239171 76 0 153
-0.625471 -0.038212 -0.239171 76 0 153
0.450632 0.083241 0.223778 76 0 153
0.057951 -0.076144 -0.239171 76 0 153
-0.000896 0.063485 -0.077951 153 0 76
-0.066990 -0.000413 0.153138 204 51 127
0.469842 0.271343 -0.236760 76 0 153
-0.555814 -0.373406 0.223778 76 153 0
0.511987 -0.260365 -0.239171 76 0 153
-0.868323 -0.434533 -0.234998 153 76 0
0.301341 -0.437442 -0.005459 153 76 0
0.703344 -0.229350 -0.239171 76 0 153
-0.109839 0.384178 -0.236760 76 0 153
0.844233 0.376513 -0.239171 76 153 0
-0.416078 -0.145753 -0.239171 76 0 153
-0.741179 -0.360689 0.223778 76 153 0
-0.086071 -0.019702 -0.218070 204 51 127
-0.179420 -0.000081 0.243068 76 153 0
-0.849033 0.080925 0.005265 0 127 127
0.848447 0.440673 0.080415 76 0 153
-0.584396 -0.019702 0.161932 204 51 127
0.046993 0.457111 -0.193552 76 0 153
0.352174 -0.437442 0.064582 153 76 0
-0.110461 0.417327 -0.196752 76 0 153
0.842080 0.008416 -0.239171 76 153 0
-0.807338 0.191775 -0.236760 76 0 153
0.847242 0.000609 -0.045458 76 153 0
-0.539775 0.412507 -0.239171 76 0 153
-0.484432 0.261285 0.223778 76 153 0
-0.209837 -0.019702 -0.212177 204 51 127
0.319429 0.457111 -0.073539 76 0 153
0.003490 -0.106948 0.223778 76 0 153
0.546307 -0.437442 0.122275 153 76 0
0.516636 -0.437442 0.155290 153 76 0
0.644160 0.457111 -0.196828 76 0 153
-0.428890 0.417327 -0.195048 76 0 153
0.658926 -0.437442 -0.202643 153 76 0
-0.849033 -0.118901 -0.028532 0 127 127
-0.657525 0.378754 -0.236760 76 0 153
-0.021925 0.290682 0.243068 76 153 0
-0.020186 0.137677 0.212687 153 0 76
0.326795 -0.000413 -0.149380 204 51 127
0.439518 -0.462809 -0.239171 153 76 0
0.365849 -0.019702 -0.021663 204 51 127
-0.832149 -0.266913 0.243068 76 153 0
-0.849033 -0.251825 0.057720 0 127 127
0.803722 -0.095194 0.223778 76 0 153
-0.642709 0.417327 -0.059989 76 0 153
0.027449 -0.019702 0.208043 204 51 127
0.847242 0.259235 0.113854 76 153 0
-0.763653 0.457111 0.202823 76 0 153
0.661856 -0.313409 -0.239171 76 0 153
0.847242 -0.182254 0.211923 76 153 0
-0.445485 -0.396906 0.223778 76 153 0
-0.749499 -0.437442 0.023147 153 76 0
0.262034 -0.295318 0.243068 76 0 153
-0.039322 -0.094821 0.223778 76 153 0
0.040612 -0.087903 0.223778 76 0 153
-0.642538 0.457111 -0.174075 76 0 153
-0.000896 -0.063337 0.197719 153 0 76
-0.248706 -0.477227 -0.183377 153 76 0
0.752531 0.457111 0.104387 76 0 153
0.300064 -0.348593 0.243068 76 0 153
-0.140259 0.417327 0.191139 76 0 153
-0.074779 -0.029970 0.223778 76 153 0
0.674017 0.007678 -0.236760 76 0 153
0.600774 -0.119598 -0.236760 76 0 153
0.248382 0.323851 0.223778 76 0 153
-0.505606 -0.477227 -0.162559 153 76 0
-0.868323 0.383575 0.147644 0 127 127
0.296620 0.457111 0.152647 76 0 153
-0.477277 0.457111 -0.216250 76 0 153
-0.849033 0.077291 -0.197296 0 127 127
0.046173 0.315228 0.223778 76 0 153
0.409473 0.417327 0.209797 76 0 153
-0.037431 0.403765 -0.239171 76 0 153
-0.738962 -0.005269 -0.236760 204 51 127
0.618160 -0.019702 -0.033869 204 51 127
0.700164 -0.477227 -0.026932 153 76 0
0.287413 -0.000413 -0.053073 204 51 127
0.132972 -0.000413 -0.039065 204 51 127
0.776813 -0.437442 0.148247 153 76 0
-0.063540 -0.477227 -0.023850 153 76 0
-0.690644 -0.019702 -0.042890 204 51 127
0.584149 0.417327 0.157677 76 0 153
0.643510 -0.270004 -0.236760 76 0 153
-0.218833 -0.437442 -0.097171 153 76 0
0.601308 -0.000413 0.070657 204 51 127
-0.849033 -0.214634 0.195363 0 127 127
-0.039793 -0.019702 -0.077555 204 51 127
0.392395 0.457111 -0.122567 76 0 153
0.049441 -0.022480 -0.236760 76 0 153
-0.381458 0.417327 -0.197443 76 0 153
0.204211 0.417327 0.153117 76 0 153
-0.764212 0.417327 -0.150403 76 0 153
0.248034 -0.122128 -0.236760 76 0 153
0.461012 -0.000413 0.140978 204 51 127
-0.319574 -0.239233 -0.239171 76 0 153
-0.239741 -0.477227 0.103851 153 76 0
-0.559630 -0.437442 -0.160500 153 76 0
0.635158 0.457111 0.082413 76 0 153
-0.000896 -0.111526 0.078590 153 0 76
0.177274 -0.437442 0.065059 153 76 0
-0.020186 -0.172982 -0.204306 153 0 76
0.827952 0.221792 -0.014405 76 153 0
-0.069880 0.048119 0.243068 76 153 0
-0.646528 -0.286339 0.243068 76 153 0
0.800814 -0.167288 -0.239171 76 0 153
0.023925 -0.477227 0.174232 153 76 0
-0.565773 0.417327 0.204365 76 0 153
-0.077603 -0.423734 -0.236760 76 0 153
-0.145544 0.067657 0.223778 76 153 0
-0.522815 -0.477227 -0.200266 153 76 0
-0.105298 0.388930 0.243068 76 153 0
0.261950 -0.477227 -0.143913 153 76 0
-0.733905 -0.477227 0.073219 153 76 0
0.375421 0.222401 0.243068 76 0 153
0.434318 0.348811 0.243068 76 0 153
0.332555 -0.000413 -0.193299 204 51 127
0.057266 -0.000413 -0.020945 204 51 127
0.084838 -0.269967 -0.236760 76 0 153
0.268733 -0.437442 0.184376 153 76 0
-0.640430 0.127636 0.243068 76 153 0
-0.560451 -0.282095 0.243068 76 153 0
-0.643964 -0.007524 0.223778 76 153 0
0.668233 -0.000413 -0.131932 204 51 127
-0.210336 -0.437442 -0.200992 153 76 0
-0.741698 0.417327 -0.029183 76 0 153
0.056778 -0.018040 0.243068 76 0 153
-0.249957 0.417327 -0.054348 76 0 153
-0.767556 -0.409989 -0.236760 76 0 153
0.573474 -0.000413 -0.214749 204 51 127
0.773186 -0.028717 0.243068 76 0 153
-0.013989 0.457111 0.051267 76 0 153
-0.110073 -0.000413 -0.142937 204 51 127
0.442393 -0.019702 -0.058856 204 51 127
-0.000896 0.221702 0.205666 76 0 153
0.838802 -0.038649 0.235089 76 0 153
-0.673551 0.417327 0.082230 76 0 153
0.661948 0.417327 0.114361 76 0 153
0.108347 0.457111 0.015306 76 0 153
-0.362781 -0.074064 -0.236760 76 0 153
-0.230398 -0.000413 -0.132059 204 51 127
0.642050 -0.477227 0.093509 153 76 0
0.430947 -0.017284 0.243068 76 0 153
0.578686 -0.231018 -0.236760 76 0 153
0.847242 -0.322740 0.103174 76 153 0
0.413503 -0.192036 0.223778 76 0 153
0.520565 -0.078043 0.243068 76 0 153
0.092201 0.429443 0.243068 76 0 153
0.271149 0.417327 0.020509 76 0 153
0.745811 -0.339717 -0.236760 76 0 153
-0.100080 0.457111 0.145784 76 0 153
0.017055 -0.285187 0.223778 76 0 153
0.035461 0.417327 0.038419 76 0 153
-0.562652 0.417327 -0.097536 76 0 153
-0.565313 0.457111 0.045095 76 0 153
-0.154507 0.457111 0.020630 76 0 153
0.257685 0.417327 -0.071860 76 0 153
0.847242 0.254456 0.207072 76 153 0
-0.725718 -0.136559 -0.239171 76 0 153
-0.561743 0.457111 0.174864 76 0 153
-0.435958 -0.437442 -0.096271 153 76 0
0.112325 -0.237652 0.243068 76 0 153
0.068416 -0.477227 -0.098741 153 76 0
0.541905 0.152943 -0.239171 76 0 153
-0.024744 0.218071 0.243068 76 153 0
-0.297959 0.417327 -0.211818 76 0 153
-0.556203 0.429100 0.243068 76 0 153
0.675638 -0.374919 -0.236760 76 0 153
0.105631 -0.437442 0.068317 153 76 0
-0.628364 0.221317 0.223778 76 153 0
0.365319 -0.477227 -0.215585 153 76 0
-0.113310 -0.019702 -0.102646 204 51 127
-0.868323 0.116093 -0.072157 0 127 127
0.624139 -0.477227 0.181890 153 76 0
-0.592322 0.189349 -0.236760 76 0 153
-0.125559 0.417327 0.087228 76 0 153
-0.868323 0.108685 -0.126201 0 127 127
-0.072762 -0.477227 -0.109649 153 76 0
0.300572 0.210497 0.243068 76 0 153
-0.583877 0.457111 -0.144122 76 0 153
0.495904 -0.202259 0.243068 76 0 153
-0.106604 0.457111 -0.137943 76 0 153
-0.527319 -0.008402 0.223778 204 51 127
0.053394 -0.437442 -0.033099 153 76 0
0.428995 -0.437442 0.030371 153 76 0
-0.197629 0.417327 -0.176695 76 0 153
0.827952 0.139951 0.075494 76 153 0
-0.343163 -0.477227 0.055273 153 76 0
0.578918 0.074574 -0.236760 76 0 153
0.597792 -0.341699 -0.236760 76 0 153
0.847242 -0.148123 -0.149467 76 153 0
0.774950 -0.437442 -0.199240 153 76 0
-0.824411 0.417327 -0.131590 76 0 153
-0.428187 -0.000413 -0.133353 204 51 127
0.791145 0.457111 0.014935 76 0 153
0.398146 -0.477227 -0.064074 153 76 0
-0.255354 -0.261242 0.223778 76 153 0
-0.832182 0.457111 0.042540 76 0 153
0.534779 -0.019702 -0.154273 204 51 127
-0.729374 0.062162 -0.239171 76 0 153
-0.722934 0.457111 0.236567 76 0 153
-0.702204 0.457111 -0.063056 76 0 153
0.335382 0.417327 -0.040058 76 0 153
0.433672 -0.367358 0.223778 76 0 153
-0.262828 -0.477227 -0.114227 153 76 0
0.142869 0.457111 -0.134957 76 0 153
-0.000896 0.217155 -0.138099 153 0 76
-0.414357 -0.477227 -0.062011 153 76 0
-0.373871 0.417327 -0.153830 76 0 153
0.848447 -0.465198 0.138959 153 76 0
0.549991 0.028843 -0.236760 76 0 153
0.026389 -0.412616 -0.236760 76 0 153
0.827952 0.398060 -0.168800 76 153 0
0.008727 0.457111 0.242013 76 0 153
-0.322326 -0.477227 0.136602 153 76 0
0.128027 -0.358548 0.223778 76 0 153
0.267047 -0.437442 0.024108 153 76 0
0.352681 -0.292486 -0.239171 76 0 153
0.469414 -0.477227 0.039219 153 76 0
0.221671 -0.400654 0.243068 76 0 153
0.532507 0.417327 -0.203899 76 0 153
-0.415364 0.417327 -0.033531 76 0 153
-0.868323 -0.361926 0.111766 0 127 127
-0.418511 -0.477227 0.178767 153 76 0
-0.526118 0.417327 0.177883 76 0 153
-0.224572 -0.019702 -0.006156 204 51 127
0.241884 0.125353 -0.236760 76 0 153
0.516822 -0.186640 -0.236760 76 0 153
-0.705136 0.457111 -0.161797 76 0 153
-0.145549 -0.076034 -0.239171 76 0 153
-0.634307 -0.019702 -0.083406 204 51 127
-0.020186 -0.084851 0.102525 153 0 76
-0.849033 -0.351805 -0.134493 0 127 127
0.380839 -0.000413 0.113300 204 51 127
-0.020186 0.379423 0.035085 153 0 76
-0.201518 -0.019702 0.101421 204 51 127
-0.286804 -0.044029 -0.239171 76 0 153
-0.000896 -0.393185 -0.085799 153 0 76
-0.321678 -0.019702 -0.128193 204 51 127
-0.858678 0.199039 0.226361 76 153 0
0.842918 -0.236802 -0.239171 76 153 0
0.847242 -0.020718 0.142872 76 153 0
-0.082026 -0.323705 0.223778 76 153 0
-0.531915 -0.019702 -0.123195 204 51 127
0.668834 0.246042 0.243068 76 0 153
-0.791949 0.417327 0.191142 76 0 153
0.049386 -0.333723 0.223778 76 0 153
-0.337045 -0.441242 0.243068 153 76 0
-0.296984 0.457111 0.020196 76 0 153
-0.020186 -0.221146 -0.029849 153 0 76
0.173388 -0.291016 0.243068 76 0 153
-0.814742 0.307677 0.223778 76 153 0
0.827952 0.352317 -0.170519 76 153 0
-0.000896 -0.338184 -0.202984 153 0 76
-0.816211 -0.310347 -0.239171 76 0 153
0.373801 -0.000413 -0.117983 204 51 127
-0.000896 -0.039846 -0.176058 153 0 76
0.153670 0.457111 -0.013805 76 0 153
0.299464 -0.019702 -0.225299 76 0 153
0.432989 -0.089272 0.243068 76 0 153
-0.833354 -0.457929 -0.239171 153 76 0
-0.777421 -0.019702 0.135958 204 51 127
-0.256837 -0.152998 0.223778 76 153 0
0.578579 -0.477227 -0.211714 153 76 0
0.706816 -0.415302 0.243068 76 0 153
0.475034 -0.241567 0.223778 76 0 153
0.242254 0.020659 -0.239171 76 0 153
0.766406 -0.169177 0.243068 76 0 153
0.629050 0.154542 0.243068 76 0 153
-0.104590 -0.477227 0.093630 153 76 0
0.221011 -0.437442 -0.006440 153 76 0
0.847242 -0.003627 0.089335 76 153 0
-0.849033 0.405192 -0.238302 76 0 153
-0.239456 0.457111 0.027971 76 0 153
-0.822864 0.417327 0.106667 76 0 153
-0.483055 -0.477227 -0.006633 153 76 0
0.401850 0.371903 0.223778 76 0 153
0.533110 0.457111 0.035597 76 0 153
0.552569 0.457111 0.120231 76 0 153
0.052889 0.264588 0.243068 76 0 153
-0.776649 -0.477227 0.205029 153 76 0
0.118467 -0.127174 -0.236760 76 0 153
-0.302372 0.111066 0.243068 76 153 0
0.054416 -0.477121 0.243068 153 76 0
-0.389325 -0.477227 0.138653 153 76 0
-0.760100 0.046417 0.243068 76 153 0
-0.534199 -0.000413 0.087781 204 51 127
-0.452798 0.457111 0.081443 76 0 153
-0.291353 -0.477227 -0.007375 153 76 0
-0.402915 -0.477227 -0.175273 153 76 0
0.827952 -0.267732 0.161581 76 153 0
-0.655656 -0.097448 -0.239171 76 0 153
0.596290 -0.088496 0.243068 76 0 153
0.484334 -0.477227 -0.198112 153 76 0
-0.020186 -0.394874 0.197305 153 0 76
0.464905 -0.477227 0.127937 153 76 0
-0.849033 -0.057440 0.006608 0 127 127
-0.751132 -0.477227 0.111713 153 76 0
-0.247560 -0.019702 -0.079004 204 51 127
0.847242 -0.280300 0.043480 76 153 0
-0.262375 0.364352 0.243068 76 153 0
0.622122 0.457111 0.159855 76 0 153
0.493157 0.080615 -0.236760 76 0 153
-0.868323 0.055871 -0.053126 0 127 127
0.540927 -0.432017 0.237776 153 76 0
-0.645112 0.048358 -0.236760 76 0 153
-0.699183 -0.437442 -0.158877 153 76 0
-0.474955 0.457111 0.201944 76 0 153
-0.182986 -0.477227 -0.098791 153 76 0
-0.868323 -0.147041 0.093023 0 127 127
-0.572813 -0.000413 -0.090300 204 51 127
0.043731 0.029842 0.223778 76 0 153
0.718640 0.417327 -0.174331 76 0 153
-0.136896 -0.437442 0.072575 153 76 0
-0.105966 0.417327 0.006215 76 0 153
0.342732 -0.038411 0.223778 76 0 153
-0.141152 -0.267387 0.223778 76 153 0
0.847242 -0.364500 -0.017209 76 153 0
-0.191004 0.099966 -0.239171 76 0 153
-0.545540 -0.196553 0.243068 76 153 0
0.528099 0.404311 0.223778 76 0 153
-0.869528 -0.440639 0.158494 153 76 0
0.707066 -0.019702 -0.008102 204 51 127
-0.849033 0.247267 0.159900 0 127 127
0.687903 -0.453425 0.243068 153 76 0
-0.098513 0.025602 0.223778 76 153 0
-0.328683 0.417327 -0.089470 76 0 153
-0.000896 0.359237 0.102277 153 0 76
-0.836799 -0.437442 0.048458 153 76 0
0.094887 -0.437442 0.237842 153 76 0
0.433348 -0.437442 0.191847 153 76 0
-0.175534 0.417327 -0.233135 76 0 153
0.290839 -0.477227 0.202907 153 76 0
-0.705142 -0.317242 0.223778 76 153 0
0.840570 0.002027 0.221367 76 0 153
0.046451 -0.208833 0.243068 76 0 153
0.827952 0.099383 0.024484 76 153 0
0.774445 -0.477227 -0.002184 153 76 0
-0.845417 -0.479257 0.179056 127 0 127
-0.597259 0.417327 -0.044524 76 0 153
-0.481829 -0.437442 -0.197954 153 76 0
0.514764 0.457111 -0.027777 76 0 153
0.464407 0.352001 -0.239171 76 0 153
0.348269 -0.437442 0.202030 153 76 0
-0.008655 -0.437442 0.158054 153 0 76
-0.579379 -0.477227 -0.023957 153 76 0
-0.341638 0.457111 -0.184334 76 0 153
-0.351590 -0.019702 0.032384 204 51 127
0.392935 0.255302 -0.239171 76 0 153
0.827952 -0.083574 0.079591 76 153 0
-0.789100 -0.437442 0.098015 153 76 0
-0.849033 0.179499 -0.149984 0 127 127
-0.303291 -0.437442 -0.146383 153 76 0
-0.008314 -0.437442 0.028123 153 76 0
-0.849033 -0.314843 -0.200880 0 127 127
-0.000896 -0.156375 -0.166316 153 0 76
-0.293625 0.346706 -0.239171 76 0 153
0.813305 0.104055 -0.239171 76 0 153
0.227617 -0.330960 0.243068 76 0 153
0.164401 -0.357946 -0.239171 76 0 153
0.166386 -0.000413 -0.099095 204 51 127
0.529611 0.457111 -0.126787 76 0 153
-0.868323 0.206468 0.093203 0 127 127
-0.772804 0.111350 0.243068 76 153 0
0.703264 0.417327 0.083516 76 0 153
0.678580 -0.102948 -0.239171 76 0 153
-0.020186 0.304759 0.070349 153 0 76
0.518178 0.417327 0.141149 76 0 153
-0.849033 -0.188606 0.029899 0 127 127
0.193316 0.265221 0.243068 76 0 153
-0.185414 0.457111 0.171211 76 0 153
0.297133 0.352598 -0.236760 76 0 153
0.367833 -0.096904 0.223778 76 0 153
0.206907 -0.000413 -0.042108 204 51 127
0.103568 -0.477227 -0.184797 153 76 0
0.297677 -0.447166 0.243068 153 76 0
-0.543478 -0.477227 0.052647 153 76 0
-0.368193 -0.000413 0.096808 204 51 127
-0.869528 0.433020 -0.021283 0 127 127
0.100770 -0.086177 -0.239171 76 0 153
-0.868323 -0.026989 0.086281 0 127 127
-0.245508 -0.437442 0.056274 153 76 0
0.490795 -0.437442 -0.076447 153 76 0
-0.175009 -0.050978 0.243068 76 153 0
0.827952 0.283395 -0.051100 76 153 0
-0.589800 -0.437442 0.050144 153 76 0
0.494260 0.417327 -0.122237 76 0 153
-0.634206 -0.125134 0.223778 76 153 0
0.760330 -0.000413 -0.055495 204 51 127
0.620880 0.417327 -0.015262 76 0 153
-0.654469 -0.450438 -0.239171 76 0 153
0.756325 -0.228712 0.243068 76 0 153
-0.612409 0.417327 0.149553 76 0 153
-0.555139 -0.124315 0.243068 76 153 0
0.821073 -0.437442 -0.207956 153 76 0
0.188724 0.194198 -0.239171 76 0 153
-0.062573 -0.477227 0.149116 153 76 0
0.069296 -0.437442 -0.200710 153 76 0
0.587052 -0.170726 -0.239171 76 0 153
-0.387651 -0.238568 -0.236760 76 0 153
0.847242 -0.331927 -0.197871 76 153 0
-0.499734 -0.000413 0.189845 204 51 127
-0.125733 0.303328 -0.236760 76 0 153
0.441390 -0.477227 -0.021917 153 76 0
-0.051724 0.018321 -0.236760 76 0 153
-0.421456 0.457111 -0.205906 76 0 153
-0.537693 0.207476 0.243068 76 153 0
0.747705 -0.437442 -0.114409 153 76 0
-0.324985 -0.425534 -0.236760 76 0 153
0.460742 0.378350 0.223778 76 0 153
-0.299544 -0.019702 -0.095190 204 51 127
-0.598857 -0.437442 -0.154200 153 76 0
0.263813 -0.000413 0.064008 204 51 127
-0.051518 -0.000413 0.189731 204 51 127
0.327872 -0.221542 -0.239171 76 0 153
-0.621413 -0.477227 -0.032400 153 76 0
-0.551494 0.417327 -0.164035 76 0 153
0.404463 -0.477227 -0.199576 153 76 0
0.596909 -0.268909 -0.239171 76 0 153
-0.552045 -0.472465 0.243068 153 76 0
-0.710752 0.417327 0.203726 76 0 153
0.111741 -0.198005 0.243068 76 0 153
0.660049 0.051817 0.223778 76 0 153
0.506583 -0.000413 -0.040303 204 51 127
0.698387 0.272228 0.223778 76 0 153
-0.023011 0.457111 0.121904 76 0 153
-0.020186 0.231615 -0.049067 153 0 76
-0.697861 -0.437442 0.184693 153 76 0
0.601173 0.332169 -0.236760 76 0 153
0.457795 -0.315634 0.243068 76 0 153
0.189702 0.417327 -0.200863 76 0 153
0.753767 0.038935 -0.239171 76 0 153
-0.171331 0.273038 -0.239171 76 0 153
-0.868323 -0.142954 0.029640 0 127 127
-0.059225 0.417327 0.075107 76 0 153
-0.707469 0.349643 0.243068 76 153 0
-0.849033 -0.207440 -0.025715 0 127 127
0.688542 0.126986 0.223778 76 0 153
-0.153365 0.224470 -0.236760 76 0 153
-0.744612 0.142598 -0.239171 76 0 153
-0.858678 -0.148545 0.225767 0 127 127
0.262900 0.457111 -0.202697 76 0 153
0.847242 -0.189714 -0.032675 76 153 0
-0.481263 -0.036088 0.223778 76 153 0
0.188146 0.457111 -0.233577 76 0 153
-0.020186 0.150908 0.005307 153 0 76
-0.414069 0.050626 0.243068 76 153 0
0.151737 0.417327 -0.028412 76 0 153
0.347814 0.417327 -0.104624 76 0 153
-0.020186 -0.063199 -0.045348 153 0 76
-0.000896 -0.279799 0.129207 153 0 76
-0.130463 0.457111 0.067071 76 0 153
-0.375340 -0.019702 -0.079398 204 51 127
-0.019646 -0.477227 0.105087 153 76 0
0.263570 -0.165878 0.243068 76 0 153
0.648568 0.230426 -0.239171 76 0 153
0.809636 -0.437442 0.002343 76 153 0
-0.849033 -0.221943 -0.135690 0 127 127
-0.303028 0.417327 0.162235 76 0 153
-0.000896 -0.388605 0.123230 153 0 76
-0.526277 0.036236 -0.236760 76 0 153
0.149732 -0.019702 0.008708 204 51 127
0.178033 -0.078921 0.223778 76 0 153
-0.214811 -0.437442 0.083823 153 76 0
0.840973 0.457111 -0.008931 76 0 153
0.719069 -0.477227 0.189490 153 76 0
-0.146125 -0.212497 0.223778 76 153 0
-0.475423 0.457111 0.031846 76 0 153
-0.738479 -0.333431 -0.239171 76 0 153
-0.774884 0.417327 -0.200255 76 0 153
0.345295 0.286052 -0.236760 76 0 153
-0.819421 0.029903 -0.239171 76 0 153
0.613313 0.417327 -0.192184 76 0 153
-0.047633 -0.247387 -0.239171 76 0 153
0.546164 -0.477227 0.061899 153 76 0
0.444587 -0.437442 -0.163465 153 76 0
0.265316 -0.477227 0.004410 153 76 0
0.354145 0.417327 0.085444 76 0 153
0.439380 -0.477227 0.211035 153 76 0
0.847242 0.142055 -0.138284 76 153 0
-0.771972 0.457111 0.122025 76 0 153
-0.090993 -0.019702 0.128818 204 51 127
0.463740 0.457111 -0.150150 76 0 153
-0.020186 -0.067549 0.035563 153 0 76
-0.808251 0.417327 -0.033221 76 0 153
0.421786 0.393611 -0.239171 76 0 153
0.104417 0.355617 0.223778 76 0 153
-0.489414 -0.019702 -0.076424 204 51 127
-0.036514 0.457111 -0.190036 76 0 153
-0.531387 -0.437442 0.012052 153 76 0
0.457549 -0.131772 -0.236760 76 0 153
-0.734972 0.417327 0.152966 76 0 153
-0.301531 -0.203563 0.223778 76 153 0
-0.868323 -0.405529 -0.094465 0 127 127
-0.619628 0.417327 0.014459 76 0 153
0.108719 -0.437442 -0.080146 153 76 0
0.086814 0.457111 -0.065421 76 0 153
0.456979 -0.437442 0.091342 153 76 0
0.613649 -0.437442 0.068890 153 76 0
-0.849033 -0.042992 -0.068573 0 127 127
0.168115 0.437686 0.243068 76 0 153
-0.249363 0.365388 -0.239171 76 0 153
0.835660 0.141680 0.243068 76 0 153
-0.542654 -0.079535 0.243068 76 153 0
0.686384 -0.458430 -0.239171 153 76 0
-0.085521 0.453533 -0.239171 76 0 153
0.847242 -0.146336 0.107783 76 153 0
-0.521589 0.169674 0.243068 76 153 0
0.827952 0.325440 0.070135 76 153 0
-0.794131 0.155003 -0.236760 76 0 153
-0.056816 0.173095 0.243068 76 153 0
-0.849033 0.008365 0.153771 204 51 127
0.792394 0.417327 0.172261 76 0 153
-0.635785 0.411901 0.234990 76 153 0
0.204701 -0.437442 0.120135 153 76 0
-0.319916 -0.477227 -0.178611 153 76 0
0.827952 -0.209699 -0.169721 76 153 0
-0.638220 -0.205461 0.223778 76 153 0
-0.347692 -0.189511 0.223778 76 153 0
0.016755 0.059150 -0.236760 153 0 76
-0.088896 0.268737 -0.239171 76 0 153
0.307766 0.159795 -0.239171 76 0 153
0.367115 -0.355686 -0.236760 76 0 153
-0.374306 -0.437442 0.087933 153 76 0
-0.000896 -0.154787 -0.041998 153 0 76
0.489351 0.174926 0.243068 76 0 153
-0.457200 0.417327 0.151806 76 0 153
0.666013 -0.000413 -0.179002 204 51 127
-0.604538 0.417327 -0.207561 76 0 153
-0.000896 0.378719 0.152719 153 0 76
-0.000896 -0.299712 -0.232210 76 0 153
0.694527 -0.277465 0.243068 76 0 153
0.334350 -0.159952 0.243068 76 0 153
0.033536 -0.019702 -0.156884 204 51 127
-0.019972 -0.048607 -0.236760 76 0 153
-0.020186 0.087922 0.120026 153 0 76
-0.275475 -0.403687 0.223778 76 153 0
0.618389 -0.000413 0.014826 204 51 127
-0.000896 0.327676 0.040942 153 0 76
-0.868323 -0.275260 0.150788 0 127 127
0.736365 -0.019702 0.067135 204 51 127
0.442672 -0.049546 -0.239171 76 0 153
0.561897 0.417327 0.086431 76 0 153
-0.786601 0.457111 -0.131899 76 0 153
-0.681462 0.196200 -0.236760 76 0 153
-0.373721 -0.317775 0.243068 76 153 0
0.827952 0.367436 0.076829 76 153 0
0.530250 0.060124 0.243068 76 0 153
-0.411713 -0.019702 0.075843 204 51 127
-0.345171 -0.077631 0.223778 76 153 0
-0.000896 0.247368 -0.111295 153 0 76
-0.458483 0.457111 0.238730 76 0 153
-0.849033 -0.141063 -0.154677 0 127 127
-0.295729 -0.437442 0.206507 153 76 0
0.227360 -0.019702 0.138350 204 51 127
-0.531775 0.457111 0.065254 76 0 153
0.580276 0.030157 0.223778 76 0 153
0.385135 -0.324964 0.243068 76 0 153
0.847242 -0.314766 -0.017344 76 153 0
-0.778754 0.303139 0.243068 76 153 0
-0.000896 -0.305562 0.041484 153 0 76
-0.679991 0.235474 0.223778 76 153 0
0.827952 0.179134 -0.068474 76 153 0
-0.345535 -0.437442 -0.035389 153 76 0
-0.152583 -0.000413 -0.121165 204 51 127
-0.868323 -0.094118 0.165706 0 127 127
0.847242 -0.037901 0.028419 76 153 0
0.257601 -0.386205 0.243068 76 0 153
-0.829177 -0.019702 0.119191 204 51 127
-0.574768 0.373875 0.223778 76 153 0
-0.375871 0.385260 0.223778 76 153 0
-0.081585 -0.098908 0.223778 76 153 0
-0.243395 0.043608 -0.239171 76 0 153
0.406771 -0.000413 0.185111 204 51 127
0.560106 0.417327 -0.157246 76 0 153
-0.565488 -0.437442 0.082730 153 76 0
0.848447 -0.440917 -0.156801 76 153 0
-0.053786 0.417327 0.136333 76 0 153
-0.386312 -0.000413 -0.221159 204 51 127
0.466210 -0.395163 0.243068 76 0 153
-0.447106 0.373468 0.243068 76 153 0
-0.000896 -0.034946 0.052834 204 51 127
-0.676223 0.457111 0.164117 76 0 153
0.138679 0.457111 -0.179303 76 0 153
-0.801661 0.263311 -0.236760 76 0 153
-0.000896 0.023825 -0.200831 153 0 76
-0.020186 0.163310 -0.048754 153 0 76
0.847242 0.231843 -0.116259 76 153 0
-0.233969 0.217027 -0.236760 76 0 153
-0.214898 0.165913 0.223778 76 153 0
-0.000896 -0.136352 -0.104340 153 0 76
0.666404 0.323253 0.223778 76 0 153
0.618679 0.066744 -0.236760 76 0 153
0.409229 0.080467 -0.236760 76 0 153
0.052527 -0.477227 -0.057610 153 76 0
-0.834071 0.417327 0.172942 76 0 153
-0.758110 -0.219047 0.223778 76 153 0
-0.046260 -0.437442 -0.118662 153 76 0
-0.373180 -0.237072 0.223778 76 153 0
-0.868323 -0.022644 -0.202730 0 127 127
-0.868323 0.253344 -0.081323 0 127 127
-0.020186 -0.187890 -0.057899 153 0 76
0.847242 0.218745 0.118650 76 153 0
0.198035 -0.000413 -0.159970 204 51 127
-0.255982 -0.167866 -0.239171 76 0 153
-0.868323 -0.071906 -0.035468 0 127 127
-0.832463 -0.000413 -0.160292 204 51 127
-0.314127 -0.263359 0.243068 76 153 0
0.055315 0.093711 -0.236760 76 0 153
0.798655 0.279527 0.223778 76 0 153
-0.397424 -0.019702 0.138525 204 51 127
0.654712 -0.437442 0.171294 153 76 0
0.292517 -0.437442 -0.130412 153 76 0
-0.868323 0.008227 -0.130156 0 127 127
-0.867500 0.417327 -0.065872 76 0 153
-0.798132 0.457111 0.083018 76 0 153
0.048564 0.363438 0.223778 76 0 153
0.736848 -0.439449 0.243068 76 0 153
-0.746041 0.244309 0.243068 76 153 0
0.073234 0.417327 0.124705 76 0 153
0.120962 -0.000413 -0.165492 204 51 127
0.689059 -0.000413 0.063077 204 51 127
0.019239 0.427388 -0.239171 76 0 153
-0.728111 -0.045290 0.223778 76 153 0
0.546832 0.417327 0.005734 76 0 153
-0.868323 0.370280 -0.188397 0 127 127
-0.335223 0.367745 -0.236760 76 0 153
-0.133415 0.457111 -0.216625 76 0 153
-0.410415 0.161357 0.243068 76 153 0
-0.084432 0.457111 0.089021 76 0 153
-0.817984 -0.477227 0.013145 153 76 0
0.256830 -0.477227 -0.099065 153 76 0
-0.135299 -0.007715 -0.239171 76 0 153
0.827952 0.069629 0.053838 76 153 0
0.318880 0.457111 -0.155966 76 0 153
-0.415128 -0.477227 -0.131904 153 76 0
-0.451719 -0.100521 -0.236760 76 0 153
-0.354422 -0.477227 0.018609 153 76 0
-0.000896 -0.183345 0.081584 153 0 76
0.848447 -0.476126 -0.141610 153 76 0
-0.020186 0.141711 -0.206706 153 0 76
0.460790 -0.019702 0.091070 204 51 127
-0.000896 -0.141159 0.034793 153 0 76
-0.149064 0.113971 -0.239171 76 0 153
-0.869528 0.456008 -0.135193 76 0 153
0.234852 0.457111 0.034344 76 0 153
0.847242 0.051835 -0.019871 76 153 0
0.529618 -0.000413 0.124061 204 51 127
0.252050 -0.477227 0.140276 153 76 0
-0.133825 0.307524 0.243068 76 153 0
-0.212101 0.457111 -0.130685 76 0 153
-0.635991 -0.477227 0.239196 153 76 0
0.796396 -0.349563 0.243068 76 0 153
-0.868323 -0.176811 -0.238281 0 127 127
0.232304 0.457111 -0.156669 76 0 153
0.298011 -0.132259 0.243068 76 0 153
-0.320289 0.102565 -0.236760 76 0 153
0.827952 0.287947 -0.125501 76 153 0
0.502717 -0.437442 0.036254 153 76 0
0.419756 -0.019702 0.135608 204 51 127
-0.868323 0.296580 0.063227 0 127 127
-0.064064 0.341755 0.223778 76 153 0
0.472783 -0.000413 0.018341 204 51 127
0.408161 0.005052 -0.236760 204 51 127
0.424742 0.030355 0.243068 76 0 153
-0.868323 0.089047 0.037212 0 127 127
0.541082 -0.377731 -0.236760 76 0 153
0.292558 -0.328961 -0.236760 76 0 153
-0.417888 -0.019702 0.029940 204 51 127
0.625444 -0.477227 -0.144248 153 76 0
0.439861 0.205127 -0.239171 76 0 153
0.827952 -0.384859 0.054144 76 153 0
0.229650 0.417327 0.099545 76 0 153
0.052620 0.417327 0.215676 76 0 153
-0.869528 -0.449061 -0.190175 153 76 0
-0.811018 -0.232739 -0.236760 76 0 153
-0.711440 -0.477227 -0.126601 153 76 0
0.464121 -0.437442 0.009497 153 76 0
-0.187417 0.121051 0.223778 76 153 0
-0.126712 0.100921 0.223778 76 153 0
-0.708098 0.007307 0.223778 76 153 0
-0.423756 -0.019702 0.213109 76 153 0
0.498861 -0.375213 0.243068 76 0 153
0.702437 -0.437442 0.171833 153 76 0
-0.849569 -0.449289 0.243068 153 76 0
0.827952 -0.055785 0.197914 76 153 0
-0.849033 0.377611 -0.082327 0 127 127
0.020105 0.185153 0.243068 76 0 153
-0.616694 0.417327 -0.130514 76 0 153
-0.020186 0.090441 0.032877 153 0 76
0.045155 0.186670 -0.239171 76 0 153
-0.110826 -0.019702 0.217108 204 51 127
0.682396 0.073300 -0.236760 76 0 153
0.761851 0.167714 -0.236760 76 0 153
-0.053912 -0.437442 -0.076080 153 76 0
0.424859 -0.299760 -0.239171 76 0 153
0.715585 0.258117 -0.239171 76 0 153
-0.374774 0.212887 0.243068 76 153 0
-0.385638 -0.281846 0.223778 76 153 0
-0.709567 -0.120170 0.243068 76 153 0
-0.634722 -0.019702 -0.205987 204 51 127
-0.842261 0.313670 -0.239171 0 127 127
-0.236015 -0.354444 0.243068 76 153 0
-0.020186 0.287667 -0.092793 153 0 76
-0.201547 0.175096 -0.239171 76 0 153
-0.527066 0.457111 0.217016 76 0 153
0.256261 -0.437442 -0.214681 153 76 0
-0.000896 -0.138785 0.169416 153 0 76
-0.020186 -0.210776 0.209435 153 0 76
-0.868323 0.089348 0.167871 0 127 127
-0.156215 -0.477227 -0.185978 153 76 0
-0.020186 0.196509 0.087253 153 0 76
0.468884 -0.019702 0.053584 204 51 127
-0.430103 0.457111 -0.003496 76 0 153
-0.014760 -0.392883 0.240950 76 153 0
0.579285 0.457111 -0.057168 76 0 153
0.847242 -0.242897 -0.064216 76 153 0
-0.865495 0.457111 0.192194 76 0 153
-0.733797 0.368174 -0.236760 76 0 153
0.523288 -0.437442 -0.034611 153 76 0
0.706228 -0.000413 0.124314 204 51 127
-0.213482 -0.477227 0.014495 153 76 0
-0.412552 0.263342 -0.236760 76 0 153
-0.665678 0.285678 0.223778 76 153 0
-0.455545 -0.182163 -0.236760 76 0 153
-0.655343 -0.000413 -0.110973 204 51 127
0.173247 0.340848 0.243068 76 0 153
-0.247985 -0.425462 -0.236760 76 0 153
0.519448 -0.477227 -0.238333 153 76 0
0.827952 -0.119790 -0.109758 76 153 0
-0.849033 -0.167404 0.159035 0 127 127
0.847242 0.402964 -0.040029 76 153 0
0.053505 0.060872 0.243068 76 0 153
-0.116397 0.457111 0.213663 76 0 153
0.258159 -0.085689 -0.236760 76 0 153
-0.730842 0.457111 -0.094001 76 0 153
-0.218144 0.417327 0.075097 76 0 153
-0.185976 0.362067 -0.236760 76 0 153
0.081594 -0.000413 0.037565 204 51 127
0.371778 0.457111 -0.001627 76 0 153
0.700462 0.034694 -0.236760 76 0 153
0.399200 -0.037464 0.223778 204 51 127
-0.849033 -0.047423 -0.172330 0 127 127
0.188820 0.071087 -0.236760 76 0 153
0.560913 -0.019702 -0.072934 204 51 127
-0.020186 -0.056876 -0.116348 153 0 76
-0.051332 0.457111 0.174589 76 0 153
0.729391 -0.080815 -0.236760 76 0 153
0.615733 -0.198463 0.223778 76 0 153
0.827952 0.131000 -0.212317 76 153 0
0.745435 -0.135682 0.223778 76 0 153
0.093194 -0.437442 -0.140601 153 76 0
0.407265 -0.437442 0.112342 153 76 0
-0.283757 -0.437442 0.127960 153 76 0
-0.186130 0.372620 0.223778 76 153 0
-0.043471 0.259702 0.243068 76 153 0
-0.020186 -0.040424 0.093241 153 0 76
-0.479814 0.112825 0.243068 76 153 0
-0.246316 0.294980 -0.239171 76 0 153
0.071257 -0.019702 -0.205903 204 51 127
0.126254 -0.041391 -0.236760 76 0 153
0.468862 0.457111 0.121298 76 0 153
0.654092 -0.477227 -0.178224 153 76 0
0.810529 -0.437442 0.115093 76 153 0
-0.386714 -0.437442 0.206731 153 76 0
0.674236 -0.000413 -0.074974 204 51 127
-0.149738 -0.477227 -0.004466 153 76 0
0.356724 -0.019702 0.136462 204 51 127
-0.213077 0.417327 0.114118 76 0 153
0.575584 0.332701 0.223778 76 0 153
0.130935 -0.437442 0.135561 153 76 0
0.582726 0.457111 -0.161632 76 0 153
-0.000896 -0.198359 -0.224282 153 0 76
-0.672518 -0.254557 0.223778 76 153 0
0.194606 0.372538 -0.236760 76 0 153
0.477631 0.417327 0.107313 76 0 153
0.372346 -0.181756 -0.236760 76 0 153
-0.830744 -0.042616 -0.236760 76 0 153
0.827952 -0.436839 -0.042165 76 153 0
0.566977 0.457111 -0.219509 76 0 153
0.184468 0.417327 -0.140313 76 0 153
-0.488923 0.276466 -0.236760 76 0 153
0.344871 -0.280312 0.243068 76 0 153
-0.721786 -0.254155 0.243068 76 153 0
-0.698626 -0.477227 0.215091 153 76 0
0.821905 -0.437442 0.190819 153 76 0
-0.000896 0.282396 -0.030041 153 0 76
-0.606325 0.457111 0.203910 76 0 153
0.671272 0.417327 0.151794 76 0 153
0.621597 -0.133174 0.223778 76 0 153
-0.000896 0.101623 -0.036296 153 0 76
-0.093244 -0.000413 -0.005154 204 51 127
-0.869528 0.435574 0.055507 76 0 153
0.721625 -0.477227 -0.080737 153 76 0
0.827952 -0.124236 0.193266 76 153 0
0.592857 -0.000413 0.155570 204 51 127
0.309030 -0.095793 0.223778 76 0 153
-0.868323 0.220802 -0.143101 0 127 127
-0.000896 0.272972 0.065581 153 0 76
-0.757581 -0.437442 -0.107145 153 76 0
0.388643 0.153559 -0.236760 76 0 153
-0.223139 0.417327 -0.087259 76 0 153
-0.316369 0.418081 0.243068 76 0 153
-0.129150 -0.477227 0.039447 153 76 0
-0.849033 0.367211 0.071045 0 127 127
-0.442542 -0.171851 0.223778 76 153 0
0.066401 0.457111 -0.155716 76 0 153
-0.555158 -0.265094 -0.236760 76 0 153
-0.106943 -0.193925 0.223778 76 153 0
0.841923 0.457111 0.233336 76 0 153
-0.702912 -0.019702 0.057641 204 51 127
0.126588 0.370750 -0.239171 76 0 153
0.596218 -0.000413 -0.148260 204 51 127
-0.215625 -0.204102 0.243068 76 153 0
-0.384159 0.457111 -0.028975 76 0 153
0.132867 -0.019702 -0.200417 204 51 127
0.049500 0.457111 0.175334 76 0 153
0.544452 -0.019702 0.092282 204 51 127
-0.849284 0.417327 -0.159485 0 127 127
0.504973 -0.003689 -0.239171 204 51 127
-0.000896 -0.114475 -0.162272 153 0 76
0.251082 -0.377838 -0.236760 76 0 153
0.127592 0.457111 0.090903 76 0 153
0.163897 0.028723 -0.239171 76 0 153
-0.115138 0.153403 -0.239171 76 0 153
-0.489414 0.417327 0.109029 76 0 153
-0.849033 -0.295805 0.185414 0 127 127
0.731520 -0.000413 -0.188616 204 51 127
-0.427481 0.457111 -0.149277 76 0 153
-0.020186 -0.165839 0.113379 153 0 76
-0.593686 -0.437442 0.203217 153 76 0
0.270518 -0.000413 -0.086778 204 51 127
