ply
format ascii 1.0
element vertex 1276
property float x
property float y
property float z
property uchar red
property uchar green
property uchar blue
end_header
0.058637 0.598203 0.119920 76 0 153
0.151931 -0.575689 0.192512 153 76 0
0.109292 0.545148 -0.103994 76 0 153
0.126538 0.204060 0.213444 153 76 0
-0.205577 0.113550 0.113167 153 76 0
-0.115489 0.215508 -0.209355 153 76 0
-0.237977 -0.345904 0.098314 0 0 255
0.248235 0.367098 -0.006621 153 76 0
0.058326 0.104169 0.221656 153 76 0
-0.158084 0.146843 -0.209931 0 0 255
-0.202855 0.345844 0.055595 153 76 0
-0.254744 -0.325144 -0.065642 0 0 255
0.239691 0.322200 0.001871 153 76 0
-0.046557 0.543401 0.126815 76 0 153
0.139351 -0.049494 -0.209722 153 76 0
0.253376 0.352290 -0.024935 153 76 0
0.115316 -0.596329 -0.057113 153 76 0
0.195534 -0.295363 -0.154150 153 76 0
0.136971 0.184628 0.188105 153 76 0
0.041688 -0.605723 -0.255327 153 76 0
-0.123004 -0.305276 0.186030 153 76 0
-0.106902 0.447163 0.136480 153 76 0
0.084908 -0.384158 -0.219565 153 76 0
0.030183 -0.527562 0.217393 153 76 0
-0.189507 0.419627 -0.025792 153 76 0
0.045702 0.358241 0.214195 153 76 0
-0.218592 -0.471774 0.131958 0 0 255
0.110996 -0.440441 -0.227503 153 76 0
0.226651 -0.076252 -0.110022 153 76 0
-0.245459 0.132789 -0.093229 0 0 255
-0.228257 -0.511156 0.020094 0 0 255
0.142760 -0.253378 0.174410 153 76 0
-0.135335 0.349839 0.163308 153 76 0
0.189349 -0.373970 -0.161947 153 76 0
-0.147723 0.428151 -0.081784 153 76 0
0.176784 0.476709 -0.011384 153 76 0
-0.235725 -0.426010 -0.070634 153 76 0
0.157727 0.518325 -0.044295 76 0 153
-0.147795 -0.289553 0.165176 153 76 0
0.078551 -0.231475 0.209212 153 76 0
0.132737 0.572892 -0.025789 76 0 153
-0.191808 0.028433 0.135080 153 76 0
0.237697 0.316307 -0.041107 153 76 0
0.136330 0.431411 -0.150722 153 76 0
0.177299 -0.062884 0.146516 153 76 0
-0.226446 -0.031604 -0.077877 153 76 0
-0.214419 0.054266 -0.052866 153 76 0
0.127165 -0.123072 0.187845 153 76 0
-0.254830 -0.528318 0.017708 153 76 0
-0.231264 0.015310 0.049050 153 76 0
0.053267 -0.321153 0.232470 153 76 0
0.218767 -0.278809 -0.077671 153 76 0
-0.036942 -0.297855 0.218050 153 76 0
-0.209603 -0.497634 0.137211 0 0 255
-0.090728 0.088509 0.202301 153 76 0
0.013713 0.005216 -0.247707 153 76 0
0.087942 -0.633566 0.176433 153 76 0
-0.114202 0.128785 -0.212096 153 76 0
0.052794 0.165822 0.223607 153 76 0
-0.074250 0.420618 0.162172 153 76 0
0.122106 -0.093737 -0.218163 153 76 0
-0.227740 -0.110793 0.064749 153 76 0
0.170917 -0.624581 -0.056543 153 76 0
0.124099 0.505990 0.108647 76 0 153
-0.171705 0.399021 -0.074807 153 76 0
-0.105744 -0.269427 0.211330 153 76 0
-0.046718 -0.447247 0.238168 153 76 0
-0.102012 -0.033456 0.196633 153 76 0
0.167151 0.037952 0.161336 153 76 0
0.247906 -0.165305 -0.006422 153 76 0
-0.205691 0.034621 0.114379 153 76 0
0.031914 0.701129 0.097915 76 0 153
-0.219935 0.028780 0.081387 153 76 0
-0.151205 0.469037 -0.020899 153 76 0
0.142712 0.383801 -0.188212 153 76 0
-0.137748 -0.317046 -0.225065 0 0 255
0.136478 -0.604774 -0.123330 153 76 0
-0.069238 0.323877 -0.239870 153 76 0
0.027527 -0.623873 -0.197430 153 76 0
-0.195003 -0.027965 -0.176310 0 0 255
-0.047496 -0.566692 0.214301 153 76 0
-0.110750 0.468106 -0.111153 153 76 0
0.131297 0.956021 -0.003965 153 0 76
0.183417 -0.606933 0.003841 153 76 0
-0.151198 0.012583 -0.189671 153 76 0
-0.186109 0.070456 -0.124230 153 76 0
-0.013744 -0.267665 0.238170 153 76 0
-0.192011 -0.065979 -0.180875 0 0 255
-0.257715 -0.172591 -0.050908 0 0 255
-0.257814 -0.564457 -0.027857 153 76 0
0.211811 -0.377738 -0.093400 153 76 0
0.163508 0.316753 0.171235 153 76 0
0.177303 -0.447026 -0.151313 153 76 0
0.079253 0.722828 0.084843 76 0 153
-0.007016 0.311945 0.227516 153 76 0
-0.195663 0.145259 0.127317 153 76 0
-0.011448 0.419805 -0.184863 153 76 0
0.228088 -0.310285 0.023244 153 76 0
-0.156917 0.406666 0.093345 153 76 0
0.101127 0.717176 0.049443 76 0 153
0.016549 0.586503 0.116295 76 0 153
0.166906 -0.139485 -0.166198 153 76 0
-0.260743 0.067587 0.005661 0 0 255
0.081436 0.998446 0.035345 153 0 76
0.114265 -0.289542 -0.205251 153 76 0
-0.157703 0.337710 -0.145936 153 76 0
-0.144975 -0.596623 0.033993 153 76 0
0.159035 0.474562 0.033494 153 76 0
-0.228027 -0.481719 -0.036151 0 0 255
-0.126616 -0.221332 -0.211291 153 76 0
-0.171006 -0.039185 -0.170182 153 76 0
-0.125125 0.498578 0.000661 76 0 153
0.206172 0.352012 -0.106598 153 76 0
0.170015 -0.103207 -0.163759 153 76 0
0.095534 -0.306580 0.202144 153 76 0
-0.197741 0.157905 -0.130279 153 76 0
-0.137744 0.192939 0.171244 153 76 0
-0.123057 -0.256488 -0.214448 153 76 0
-0.191765 0.417376 0.013074 153 76 0
0.135684 0.544725 0.076496 76 0 153
0.028333 -0.254926 -0.248695 153 76 0
-0.026480 0.559206 -0.113270 76 0 153
-0.133303 -0.187863 -0.206061 153 76 0
-0.129711 -0.429043 0.199547 153 76 0
-0.225168 -0.310839 0.080884 153 76 0
-0.200684 -0.194484 0.125816 153 76 0
-0.001542 0.641152 -0.113658 76 0 153
-0.224832 -0.098132 -0.138042 0 0 255
-0.100106 -0.604558 -0.060194 153 76 0
-0.106529 0.348341 -0.215863 153 76 0
0.012611 -0.120055 -0.248964 153 76 0
-0.045195 0.943246 0.005871 76 0 153
-0.004899 -0.605558 0.082705 153 76 0
-0.214869 -0.098531 0.101619 153 76 0
0.200093 -0.496889 0.097658 153 76 0
0.240133 0.309590 0.111492 153 76 0
-0.223473 0.365610 -0.030547 153 76 0
0.102096 0.485761 -0.115346 76 0 153
-0.236475 -0.286450 -0.052473 153 76 0
-0.192448 -0.165004 -0.121820 153 76 0
0.144129 0.481129 0.068389 76 0 153
-0.237932 -0.048614 -0.020602 153 76 0
-0.045263 -0.604676 0.183416 153 76 0
-0.074551 -0.590339 -0.103162 153 76 0
0.098445 0.851989 0.021132 76 0 153
0.175868 0.479883 0.017925 76 0 153
0.120461 0.132222 0.198078 153 76 0
0.106124 0.536321 0.112713 76 0 153
-0.217185 0.302864 -0.108956 153 76 0
0.213780 0.069420 -0.133474 153 76 0
-0.042401 0.481381 -0.149798 76 0 153
0.051676 -0.076889 0.235977 153 76 0
-0.016650 0.156408 -0.243987 153 76 0
0.158699 -0.165924 -0.173142 153 76 0
-0.184236 -0.348101 -0.164307 153 76 0
0.202552 -0.216483 0.106010 153 76 0
-0.011374 -0.412537 -0.250408 153 76 0
0.104298 0.875868 -0.044689 76 0 153
0.029442 0.591794 -0.124875 76 0 153
0.113290 0.037769 -0.222396 153 76 0
0.078704 0.170657 0.215711 153 76 0
-0.131373 -0.347410 -0.210807 153 76 0
-0.215063 -0.100040 -0.064810 153 76 0
0.199083 0.393788 -0.118299 153 76 0
0.074918 0.336566 -0.216918 153 76 0
0.246890 -0.080153 -0.042335 153 76 0
0.024984 0.997783 -0.074251 153 0 76
-0.243769 0.282739 -0.016731 153 76 0
-0.033324 0.324121 -0.224352 153 76 0
0.226940 -0.121582 0.049185 153 76 0
0.203011 -0.634205 0.034808 153 76 0
0.243141 0.198238 0.076533 153 76 0
0.240534 -0.243642 -0.062431 153 76 0
-0.151720 0.437996 -0.056266 153 76 0
-0.239183 0.018707 -0.109447 0 0 255
0.030015 -0.434558 -0.233919 153 76 0
-0.066186 -0.600270 0.002253 153 76 0
-0.089844 0.017476 -0.227016 153 76 0
-0.121370 -0.051573 0.203818 153 76 0
0.218535 0.131140 0.089966 153 76 0
0.164257 -0.627412 0.069781 153 76 0
0.248494 -0.450497 -0.037145 153 76 0
0.086792 0.074785 -0.235309 153 76 0
0.146359 0.426473 -0.124347 153 76 0
-0.257940 -0.352872 0.028052 0 0 255
0.082944 -0.243587 -0.220550 153 76 0
-0.213250 -0.420375 0.137999 0 0 255
-0.125339 -0.095956 -0.209443 153 76 0
-0.094801 -0.546298 -0.245533 153 76 0
-0.140593 -0.121129 -0.199706 153 76 0
0.180637 -0.122074 -0.152413 153 76 0
0.200827 -0.474847 -0.115918 153 76 0
-0.183129 -0.297732 -0.191018 0 0 255
0.178800 0.149999 -0.157950 153 76 0
0.190811 0.022209 0.133644 153 76 0
-0.191336 0.035756 -0.181026 0 0 255
-0.194545 -0.236742 -0.120747 153 76 0
0.162957 -0.288913 0.155932 153 76 0
-0.158762 -0.540112 0.157085 153 76 0
0.180186 -0.209616 -0.151440 153 76 0
0.019561 0.530777 -0.144462 76 0 153
-0.070645 0.694556 0.037964 76 0 153
0.237701 0.131550 -0.013657 153 76 0
0.072314 0.017349 -0.223336 153 76 0
0.221225 -0.548509 0.111319 153 76 0
-0.146881 0.036457 0.183949 153 76 0
-0.023072 0.729073 0.083440 76 0 153
-0.240415 -0.374472 0.030636 153 76 0
-0.006180 -0.582787 0.022961 153 76 0
-0.036404 0.972579 0.076337 76 0 153
-0.112203 0.483364 0.097482 76 0 153
0.124676 -0.195431 0.187898 153 76 0
0.145776 0.062470 -0.186052 153 76 0
0.180374 -0.627533 0.145373 153 76 0
0.240099 -0.621154 -0.037544 153 76 0
0.168460 0.465880 -0.067196 153 76 0
0.031028 0.419285 0.200968 153 76 0
0.224585 -0.461455 -0.047807 153 76 0
0.014258 -0.074952 0.238600 153 76 0
-0.144583 0.423975 -0.124871 153 76 0
-0.184199 -0.322779 -0.163585 153 76 0
0.251019 -0.485610 0.023288 153 76 0
0.086797 -0.586346 -0.247673 153 76 0
0.037660 0.752192 0.100089 76 0 153
-0.222738 -0.565473 0.118916 153 76 0
0.196440 0.444950 -0.013159 153 76 0
-0.115713 0.545122 -0.047906 76 0 153
0.059228 0.516346 0.128729 76 0 153
0.015079 0.090072 0.225393 153 76 0
0.148651 -0.414182 0.166850 153 76 0
-0.173840 -0.334535 -0.199101 0 0 255
0.017593 0.894078 0.078227 76 0 153
-0.176861 0.136854 0.155350 153 76 0
0.039507 0.927891 0.101631 76 0 153
0.141845 -0.603709 -0.165500 153 76 0
0.001433 -0.099080 -0.232922 153 76 0
-0.096140 0.560501 0.075629 76 0 153
0.146822 0.221506 -0.206844 153 76 0
0.176560 0.105763 0.152638 153 76 0
-0.012809 -0.002187 0.239905 153 76 0
-0.067489 0.711865 -0.053377 76 0 153
-0.162233 0.029141 -0.206369 0 0 255
-0.184019 -0.170118 -0.159179 153 76 0
-0.218401 -0.391730 -0.076554 153 76 0
0.123724 -0.238123 0.205790 153 76 0
-0.231192 -0.290576 -0.080040 153 76 0
-0.147355 -0.408993 -0.183026 153 76 0
0.245551 0.302573 -0.104643 153 76 0
0.096586 0.350921 -0.205444 153 76 0
-0.159522 -0.494394 0.190655 153 76 0
0.241798 -0.334815 -0.051551 153 76 0
0.166444 -0.157202 0.156044 153 76 0
-0.117067 0.240338 0.188946 153 76 0
0.011719 -0.328226 -0.251117 153 76 0
0.004593 -0.626475 -0.238764 153 76 0
0.048941 -0.090311 -0.243719 153 76 0
0.229777 -0.206219 -0.039404 153 76 0
-0.224782 -0.214540 -0.138800 0 0 255
0.225064 -0.406039 0.028686 153 76 0
-0.131442 -0.071459 0.178208 153 76 0
0.179504 -0.477248 -0.187313 153 76 0
0.211578 0.331595 0.104122 153 76 0
0.208692 -0.159728 0.130320 153 76 0
0.249742 -0.518866 -0.046745 153 76 0
0.095101 -0.027481 0.206857 153 76 0
-0.194834 0.378993 -0.101486 153 76 0
-0.214073 -0.325380 0.137497 0 0 255
0.008386 -0.293215 0.236686 153 76 0
0.173149 0.207982 0.159704 153 76 0
0.025112 -0.600425 -0.052527 153 76 0
-0.238460 -0.208904 0.017190 153 76 0
-0.092221 -0.592068 0.071968 153 76 0
0.219426 -0.207386 -0.079001 153 76 0
-0.086230 -0.630159 0.191031 153 76 0
0.076936 -0.417334 -0.223460 153 76 0
-0.121904 0.545131 -0.022033 76 0 153
-0.160465 -0.119568 -0.184730 153 76 0
-0.237928 -0.412470 0.048204 153 76 0
-0.066131 -0.424731 -0.242075 153 76 0
-0.022617 -0.631013 0.216537 153 76 0
-0.182009 -0.010376 0.150292 153 76 0
0.207544 -0.335833 -0.107692 153 76 0
0.011494 -0.165275 0.222746 153 76 0
-0.234536 -0.087453 0.043030 153 76 0
-0.146690 -0.560493 0.167705 153 76 0
-0.158867 0.438301 0.008632 153 76 0
-0.007819 -0.293828 -0.234214 153 76 0
-0.138203 -0.272968 -0.225345 0 0 255
0.213289 -0.633235 -0.042516 153 76 0
0.213736 0.151094 0.133914 153 76 0
-0.255425 -0.493081 0.000339 153 76 0
0.160555 -0.531170 0.151199 153 76 0
-0.038066 -0.282703 -0.247170 153 76 0
0.224316 0.019405 -0.075099 153 76 0
-0.239212 -0.305170 0.030529 153 76 0
-0.058545 -0.268084 0.229443 153 76 0
-0.214844 -0.016410 0.098137 153 76 0
-0.102534 0.524805 0.062060 76 0 153
0.061150 -0.604537 0.140935 153 76 0
-0.131143 -0.481160 -0.226874 0 0 255
0.090477 -0.076231 0.223497 153 76 0
-0.205387 -0.569927 -0.109556 153 76 0
-0.211090 -0.244779 0.111263 153 76 0
-0.033468 0.998521 0.035152 153 0 76
0.229522 0.341193 -0.056914 153 76 0
-0.036856 -0.024673 0.235091 153 76 0
-0.207365 -0.291808 -0.131481 153 76 0
-0.150030 0.102686 -0.188512 153 76 0
0.115731 -0.604317 -0.169052 153 76 0
0.257985 0.226201 -0.036834 153 76 0
-0.218132 0.253588 -0.109895 153 76 0
-0.018065 0.075865 -0.244746 153 76 0
0.221700 -0.371871 0.049540 153 76 0
-0.154911 -0.611670 -0.010609 153 76 0
0.077991 0.410490 0.178341 153 76 0
-0.213979 0.124306 0.094558 153 76 0
0.195664 -0.082435 -0.130870 153 76 0
0.244446 -0.480737 0.057557 153 76 0
0.201062 -0.433575 0.098669 153 76 0
-0.245780 0.221245 -0.092677 0 0 255
0.015117 0.285562 0.253807 153 76 0
-0.133184 0.273354 -0.178328 153 76 0
-0.227833 -0.421192 0.004095 153 76 0
0.025359 0.447563 0.163525 153 76 0
-0.231872 0.154569 0.020587 153 76 0
0.116677 0.638903 -0.038370 76 0 153
-0.074810 0.907404 -0.030083 76 0 153
-0.058531 0.965852 0.073568 153 0 76
-0.052351 0.801812 0.042320 76 0 153
-0.008984 -0.342682 -0.234618 153 76 0
-0.020716 0.918980 0.060629 76 0 153
0.010863 0.238801 0.227326 153 76 0
-0.103407 0.573437 -0.050940 76 0 153
0.205712 0.106366 -0.119505 153 76 0
0.067188 0.286431 0.221523 153 76 0
-0.248060 -0.466398 0.068841 0 0 255
-0.024488 -0.583086 -0.051771 153 76 0
-0.222061 -0.008100 -0.140479 0 0 255
-0.057142 0.405947 0.201328 153 76 0
-0.032990 0.527793 0.138873 76 0 153
0.105642 -0.630128 -0.194768 153 76 0
-0.170738 -0.315847 0.145244 153 76 0
0.137408 -0.072323 0.182080 153 76 0
0.100365 0.237310 -0.240244 153 76 0
0.205821 -0.498542 -0.105443 153 76 0
-0.178509 0.360032 -0.146793 153 76 0
-0.032257 0.961449 -0.032856 76 0 153
0.097702 0.734131 -0.060439 76 0 153
0.260738 0.298155 0.054132 153 76 0
-0.061350 0.788232 -0.012881 76 0 153
0.141468 0.294652 -0.191409 153 76 0
0.099245 0.857984 -0.005785 76 0 153
-0.036199 -0.174874 -0.246152 153 76 0
0.150195 0.395757 0.144847 153 76 0
0.202959 -0.301215 -0.115946 153 76 0
0.022146 0.537155 0.129757 76 0 153
0.137067 0.927065 -0.010908 153 0 76
0.209730 -0.077408 0.097996 153 76 0
0.001466 0.316344 0.253769 153 76 0
0.155737 -0.055864 0.188151 153 76 0
-0.257289 -0.023347 0.033269 0 0 255
-0.118858 -0.116091 -0.234840 0 0 255
0.242952 0.251383 -0.112083 153 76 0
-0.033338 0.190110 0.221924 153 76 0
0.072500 0.686628 0.097051 76 0 153
-0.127679 -0.625413 -0.194879 153 76 0
-0.192237 -0.581405 -0.125259 153 76 0
0.221294 0.003344 0.112228 153 76 0
-0.133603 0.416286 0.116621 153 76 0
0.069401 0.245102 0.220100 153 76 0
0.112750 -0.609769 -0.019296 153 76 0
0.235314 -0.403360 -0.070684 153 76 0
0.109015 -0.483666 0.192033 153 76 0
-0.181582 -0.601139 0.073560 153 76 0
-0.255534 -0.072849 0.045412 0 0 255
0.046083 0.070204 -0.243337 153 76 0
-0.005242 0.375973 0.209139 153 76 0
0.221921 -0.115031 -0.118169 153 76 0
0.005660 -0.526646 0.219108 153 76 0
0.063340 -0.256566 0.230014 153 76 0
0.051902 -0.134364 -0.243401 153 76 0
0.198254 0.399561 -0.067968 153 76 0
0.236698 -0.049926 0.078191 153 76 0
0.074454 -0.475321 -0.252003 153 76 0
0.049022 -0.558579 -0.257443 153 76 0
-0.068261 0.865317 0.008419 76 0 153
-0.249449 0.175289 -0.079257 0 0 255
0.102209 -0.331565 -0.228001 153 76 0
-0.195664 -0.326006 0.108438 153 76 0
-0.205396 0.113372 -0.163991 0 0 255
0.007674 0.756401 0.090193 76 0 153
0.220510 -0.000933 -0.085235 153 76 0
0.226402 -0.423674 -0.031408 153 76 0
0.023018 -0.605480 -0.107943 153 76 0
-0.047004 -0.227183 0.231930 153 76 0
0.121505 0.572082 0.081454 76 0 153
-0.186692 -0.082119 -0.129890 153 76 0
0.004950 0.205003 0.227365 153 76 0
0.012421 -0.617641 -0.181391 153 76 0
-0.122736 0.166729 0.184451 153 76 0
0.146170 -0.083370 -0.204510 153 76 0
0.130472 0.337149 0.218404 153 76 0
-0.182063 0.278812 0.165750 153 76 0
0.235611 0.038157 -0.019449 153 76 0
-0.077732 0.953838 -0.046336 153 0 76
0.015560 0.570314 -0.131028 76 0 153
-0.047809 -0.585548 -0.078933 153 76 0
-0.113012 0.300334 0.220313 153 76 0
-0.063618 0.735848 0.056007 76 0 153
0.058741 -0.602334 -0.004148 153 76 0
-0.226710 0.071012 -0.066002 153 76 0
-0.123629 0.538872 0.031466 76 0 153
-0.239511 -0.175232 -0.006326 153 76 0
-0.183136 0.374225 -0.080406 153 76 0
-0.071576 0.140872 0.228225 153 76 0
-0.196678 -0.599748 -0.049230 153 76 0
-0.009552 0.804154 -0.083698 76 0 153
0.218037 0.317127 -0.102464 153 76 0
0.019401 -0.356782 -0.251031 153 76 0
0.062075 -0.272927 -0.242230 153 76 0
0.071687 -0.606394 0.161807 153 76 0
-0.134839 -0.594969 -0.067573 153 76 0
-0.160171 -0.281227 -0.189952 153 76 0
-0.161411 -0.615353 0.046642 153 76 0
0.137653 -0.633998 0.152893 153 76 0
-0.210177 -0.528887 -0.156404 153 76 0
0.078234 0.965238 -0.085133 153 0 76
-0.166793 -0.146574 -0.178270 153 76 0
-0.198560 -0.116543 0.100738 153 76 0
0.144115 0.591969 -0.000665 76 0 153
0.199795 -0.252664 -0.148577 153 76 0
-0.247028 -0.263435 -0.093179 0 0 255
-0.199650 -0.412919 -0.118245 153 76 0
0.105520 0.520395 -0.098814 76 0 153
0.157029 -0.458504 0.157488 153 76 0
-0.025879 -0.601225 -0.188221 153 76 0
-0.191424 0.251694 0.152056 153 76 0
-0.196040 0.075931 0.163042 0 0 255
-0.031381 -0.090076 0.235774 153 76 0
0.233903 -0.431183 -0.073580 153 76 0
-0.044612 0.874509 0.038608 76 0 153
0.028926 -0.190979 -0.248206 153 76 0
-0.187737 -0.180825 -0.186273 0 0 255
0.090191 -0.403860 0.218481 153 76 0
0.251438 0.074266 -0.015815 153 76 0
0.054419 -0.056952 -0.227202 153 76 0
0.236532 0.082512 0.021568 153 76 0
-0.125349 -0.071356 -0.230816 0 0 255
0.179797 -0.174248 0.163099 153 76 0
-0.086120 -0.100256 0.220998 153 76 0
0.232514 -0.521460 -0.106893 153 76 0
-0.116339 -0.599420 -0.190141 153 76 0
0.155493 0.284406 0.209404 153 76 0
-0.252299 -0.364219 -0.074710 0 0 255
-0.227105 -0.375362 -0.136196 0 0 255
-0.260570 0.022456 -0.024994 0 0 255
0.075880 0.765124 -0.076957 76 0 153
0.085720 -0.164095 -0.219214 153 76 0
0.169632 -0.431659 -0.181881 153 76 0
0.111567 -0.348067 0.211609 153 76 0
0.117777 0.025275 -0.203615 153 76 0
0.061753 0.735095 -0.087412 76 0 153
0.075807 0.974066 0.074209 153 0 76
-0.125596 0.139716 0.182123 153 76 0
-0.104933 -0.157521 -0.224526 153 76 0
0.228504 -0.299086 -0.033464 153 76 0
0.213936 -0.008829 -0.131872 153 76 0
0.136639 -0.606636 0.090929 153 76 0
-0.163265 -0.177682 -0.183266 153 76 0
-0.260023 -0.387224 -0.032139 0 0 255
0.133251 -0.397745 -0.193594 153 76 0
0.190070 0.087388 -0.142351 153 76 0
0.023986 -0.494500 0.244283 153 76 0
-0.157110 0.230581 -0.155425 153 76 0
-0.092270 -0.605408 -0.085335 153 76 0
0.214521 -0.192090 -0.127797 153 76 0
-0.151332 -0.079240 -0.171162 153 76 0
-0.103327 -0.453729 0.224426 153 76 0
0.068614 -0.359976 0.210528 153 76 0
-0.029489 0.216781 0.222839 153 76 0
-0.003451 -0.601301 0.049514 153 76 0
-0.096054 0.175579 0.216296 153 76 0
0.014215 0.709505 -0.100707 76 0 153
0.121642 0.608254 0.042249 76 0 153
0.004971 -0.360091 0.236212 153 76 0
0.232478 -0.035455 -0.045176 153 76 0
0.248906 -0.028963 -0.026246 153 76 0
0.186174 -0.459783 0.163595 153 76 0
0.147107 -0.316175 0.170070 153 76 0
0.102080 0.566486 -0.101373 76 0 153
0.096026 0.714398 0.071770 76 0 153
-0.065895 0.200315 0.214532 153 76 0
-0.208697 -0.253952 -0.126992 153 76 0
-0.083535 0.971698 0.015153 153 0 76
-0.036182 0.758088 0.082465 76 0 153
-0.077481 0.243499 -0.212073 153 76 0
0.138663 0.109338 -0.209974 153 76 0
0.104997 -0.358228 -0.209758 153 76 0
0.226023 0.351108 0.052720 153 76 0
-0.171330 0.274766 -0.137766 153 76 0
0.221845 -0.061514 -0.078602 153 76 0
0.162434 0.172963 -0.192002 153 76 0
0.221503 -0.020230 0.076625 153 76 0
-0.216658 -0.232195 -0.069679 153 76 0
0.057886 0.948006 -0.055375 76 0 153
-0.044115 -0.348026 -0.247444 153 76 0
-0.073320 -0.600574 -0.187202 153 76 0
0.053162 0.405670 -0.190434 153 76 0
0.040165 -0.143682 0.236066 153 76 0
-0.131493 -0.610496 0.048780 153 76 0
0.103998 0.666363 -0.071998 76 0 153
-0.073941 0.663020 0.065860 76 0 153
0.167513 -0.625737 -0.177959 153 76 0
0.156117 -0.030617 -0.176377 153 76 0
-0.064937 -0.040609 0.214286 153 76 0
0.235982 0.267631 -0.052303 153 76 0
0.097226 0.117926 -0.230194 153 76 0
-0.027414 -0.221672 -0.232133 153 76 0
0.224089 -0.090635 0.067119 153 76 0
-0.205954 0.010383 0.076930 153 76 0
-0.089326 0.064060 -0.210718 153 76 0
-0.209145 0.120163 -0.073431 153 76 0
0.217383 0.182193 0.128561 153 76 0
-0.083981 -0.504615 0.204871 153 76 0
-0.211112 -0.116066 -0.115629 153 76 0
-0.140754 0.167272 0.168777 153 76 0
-0.039032 -0.027757 -0.229380 153 76 0
0.211655 -0.318590 0.082446 153 76 0
0.108902 -0.631552 0.191999 153 76 0
-0.236737 -0.138760 0.024310 153 76 0
0.164069 0.188977 0.169557 153 76 0
-0.099249 -0.386885 -0.230095 153 76 0
-0.128309 0.466716 0.047209 153 76 0
-0.227214 -0.173844 0.069008 153 76 0
-0.215808 0.078138 0.091242 153 76 0
-0.001976 0.957388 0.108927 76 0 153
-0.035748 0.073912 0.235883 153 76 0
0.192393 -0.256168 0.146144 153 76 0
-0.220649 -0.030956 0.012957 153 76 0
-0.181146 -0.599605 -0.091345 153 76 0
-0.071361 0.380289 0.212180 153 76 0
-0.238939 -0.368203 -0.048193 153 76 0
-0.182934 -0.569492 0.130690 153 76 0
0.077761 -0.175574 0.226319 153 76 0
-0.044858 -0.599171 -0.033854 153 76 0
0.235583 -0.516432 0.083393 153 76 0
-0.047646 -0.483790 0.214787 153 76 0
-0.199996 0.027026 -0.131746 153 76 0
-0.239595 -0.067167 0.094327 0 0 255
0.102457 -0.591925 -0.010123 153 76 0
-0.196993 0.004452 -0.138951 153 76 0
0.063082 0.466661 -0.161231 153 76 0
-0.096722 -0.197773 0.199000 153 76 0
-0.228316 0.214412 0.048995 153 76 0
0.219793 -0.158444 0.073479 153 76 0
-0.228541 -0.397220 -0.011940 153 76 0
0.232085 0.127413 -0.057404 153 76 0
0.092933 -0.585091 0.193343 153 76 0
-0.217534 -0.190683 0.051551 153 76 0
-0.020987 0.116621 -0.244109 153 76 0
-0.113183 0.074937 -0.195994 153 76 0
-0.151541 -0.346979 -0.197205 153 76 0
0.189065 0.182608 -0.145578 153 76 0
-0.055311 -0.341186 -0.228443 153 76 0
0.079073 0.248210 -0.220784 153 76 0
0.098156 -0.182276 0.219201 153 76 0
-0.195228 0.146911 0.164501 0 0 255
-0.009947 0.310085 -0.253575 153 76 0
0.211453 0.196334 -0.112624 153 76 0
-0.040386 -0.584312 0.031955 153 76 0
-0.214720 0.250909 0.029484 153 76 0
0.066187 -0.465161 0.209678 153 76 0
0.208201 0.424694 0.034960 153 76 0
-0.230635 -0.165422 0.112630 0 0 255
0.160185 0.394764 -0.137712 153 76 0
0.029423 -0.110663 0.237165 153 76 0
-0.045730 -0.183916 0.217087 153 76 0
0.175412 0.005969 0.173585 153 76 0
0.084492 0.860928 0.050202 76 0 153
0.193730 -0.306590 0.119750 153 76 0
0.047049 0.141445 -0.227605 153 76 0
-0.235814 -0.322320 0.100926 0 0 255
0.004807 0.977752 0.054580 153 0 76
0.084245 0.322846 0.241956 153 76 0
-0.031353 0.823814 -0.057291 76 0 153
-0.233898 -0.135650 -0.050251 153 76 0
-0.039004 -0.143148 0.218664 153 76 0
0.127101 0.571195 -0.071118 76 0 153
0.219403 0.128119 -0.094288 153 76 0
0.144662 0.513021 0.047221 76 0 153
-0.242968 -0.378853 -0.004878 153 76 0
-0.202176 0.357286 0.111330 153 76 0
0.109382 -0.536904 -0.236624 153 76 0
0.253338 0.150284 -0.007614 153 76 0
0.098974 -0.271520 -0.212719 153 76 0
-0.073946 0.263252 0.240092 153 76 0
-0.257550 -0.463661 -0.047980 0 0 255
-0.072107 0.377020 -0.216683 153 76 0
-0.185025 -0.385505 0.125202 153 76 0
0.117118 0.751090 0.020891 76 0 153
0.066919 0.821398 0.071252 76 0 153
-0.258531 0.026258 0.027281 0 0 255
0.072197 0.699439 -0.078605 76 0 153
-0.142812 0.366975 0.147295 153 76 0
-0.179934 -0.617595 0.008165 153 76 0
0.109269 0.044434 0.218919 153 76 0
-0.208628 -0.003736 -0.115492 153 76 0
-0.220309 -0.252815 0.092493 153 76 0
-0.039873 0.443852 -0.159828 153 76 0
-0.213651 0.017125 -0.060484 153 76 0
-0.001378 -0.382017 -0.250778 153 76 0
0.203882 0.247022 0.165535 153 76 0
-0.213880 -0.610479 -0.140906 153 76 0
0.108799 -0.138173 -0.207956 153 76 0
0.079673 0.387493 -0.216404 153 76 0
0.098783 0.348161 -0.230833 153 76 0
-0.208700 0.034983 -0.079539 153 76 0
0.080809 -0.451726 -0.221574 153 76 0
0.106585 0.819949 -0.031325 76 0 153
0.017717 0.650961 0.117473 76 0 153
-0.026896 -0.587731 0.211009 153 76 0
0.208328 -0.552007 -0.149995 153 76 0
-0.131442 0.010335 -0.203034 153 76 0
-0.016295 0.998862 -0.009891 153 0 76
-0.064375 -0.610119 0.104506 153 76 0
-0.223077 -0.266514 -0.040088 153 76 0
0.209466 -0.120727 -0.136543 153 76 0
0.193353 0.120188 0.156412 153 76 0
0.020903 -0.586997 -0.092587 153 76 0
-0.260410 -0.274818 -0.005298 0 0 255
0.233012 -0.443125 0.071218 153 76 0
0.242661 0.282864 0.107456 153 76 0
0.019189 0.425068 0.181262 153 76 0
-0.227936 -0.355240 -0.013557 153 76 0
-0.095075 -0.589501 -0.246018 153 76 0
-0.049650 -0.487125 0.240894 153 76 0
0.099382 0.603858 0.078129 76 0 153
0.098078 0.435758 0.171244 153 76 0
0.100277 0.520043 -0.122493 76 0 153
0.151937 -0.620236 -0.076177 153 76 0
0.227547 -0.624438 -0.081317 153 76 0
-0.130381 -0.124064 0.199324 153 76 0
-0.241971 0.076940 0.090690 0 0 255
-0.065551 0.631438 -0.082379 76 0 153
-0.191057 -0.100026 0.138442 153 76 0
0.227975 -0.451591 -0.001724 153 76 0
-0.161531 0.378352 -0.152581 153 76 0
-0.082917 -0.370038 -0.235448 153 76 0
-0.078796 0.650549 -0.034831 76 0 153
0.032548 0.449191 -0.181336 153 76 0
-0.210001 -0.151412 -0.119549 153 76 0
0.101132 -0.097790 -0.211708 153 76 0
0.033301 0.830806 0.083295 76 0 153
-0.231197 -0.519173 -0.023635 153 76 0
-0.086813 0.599976 -0.039408 76 0 153
-0.141134 -0.582503 -0.222328 153 76 0
0.197436 -0.285151 0.113188 153 76 0
0.175948 -0.624808 -0.015628 153 76 0
-0.196631 0.098219 0.163542 0 0 255
0.186214 -0.515333 0.161870 153 76 0
0.061147 0.187809 0.222023 153 76 0
0.127887 0.980047 0.030304 153 0 76
0.133706 -0.139690 0.201189 153 76 0
0.237409 0.372871 0.058402 153 76 0
-0.235892 -0.286561 0.048671 153 76 0
0.224063 0.021002 -0.117374 153 76 0
0.218494 -0.600434 -0.131931 153 76 0
-0.217909 -0.626146 0.049369 153 76 0
0.231799 -0.480390 -0.110748 153 76 0
-0.178443 -0.294591 -0.169350 153 76 0
-0.133835 0.461773 -0.047905 76 0 153
-0.005709 -0.221995 0.223299 153 76 0
-0.211859 0.097694 0.056178 153 76 0
-0.216023 -0.357321 0.105918 153 76 0
-0.239033 -0.584691 0.085634 153 76 0
0.214906 -0.446711 -0.133470 153 76 0
0.111500 0.933451 -0.032585 76 0 153
-0.221678 -0.220219 0.087104 153 76 0
0.237678 0.345805 -0.098683 153 76 0
-0.213123 -0.097599 0.140052 0 0 255
0.014819 0.041304 0.224858 153 76 0
0.223098 -0.378024 -0.060587 153 76 0
-0.210096 -0.580885 -0.089198 153 76 0
0.144648 0.385716 0.180946 153 76 0
-0.178083 -0.062872 0.157034 153 76 0
-0.064470 -0.516613 -0.255500 153 76 0
0.068982 -0.091303 0.230654 153 76 0
0.204486 -0.152356 -0.116474 153 76 0
0.221398 0.236828 0.089101 153 76 0
-0.097373 0.928876 -0.016573 153 0 76
-0.228666 -0.427163 0.075756 153 76 0
0.171245 0.267382 -0.200317 153 76 0
-0.045213 -0.613487 -0.161284 153 76 0
-0.228092 -0.553936 0.032959 153 76 0
0.082895 0.365708 0.224963 153 76 0
-0.225343 0.043125 0.121976 0 0 255
0.218907 0.296283 0.149032 153 76 0
-0.124957 -0.477291 0.213855 153 76 0
-0.234413 0.158867 -0.016934 153 76 0
-0.178813 -0.361588 0.134011 153 76 0
-0.238213 -0.321684 -0.047156 153 76 0
-0.158833 -0.021435 -0.209417 0 0 255
-0.081827 -0.617513 -0.169118 153 76 0
-0.132234 -0.412673 0.179403 153 76 0
-0.168896 -0.377322 0.167445 153 76 0
0.029788 -0.287225 0.235261 153 76 0
0.065368 0.584530 -0.117307 76 0 153
-0.123220 0.247306 0.215650 153 76 0
-0.120274 0.524515 -0.054706 76 0 153
0.233681 0.110863 -0.097693 153 76 0
0.035589 0.167872 0.239700 153 76 0
-0.248502 -0.198680 -0.084868 0 0 255
0.183743 0.043751 -0.150917 153 76 0
-0.029642 0.397026 0.193444 153 76 0
-0.054090 0.901590 0.069658 76 0 153
0.201644 -0.352345 0.132602 153 76 0
-0.122959 0.402357 0.140678 153 76 0
0.063111 0.406865 0.205615 153 76 0
0.197492 -0.170396 -0.153433 153 76 0
-0.212538 -0.157815 0.064717 153 76 0
-0.035547 0.265934 0.221965 153 76 0
0.034828 0.318980 -0.228094 153 76 0
-0.057246 -0.302492 0.229495 153 76 0
-0.251631 -0.301367 -0.076758 0 0 255
0.246635 -0.224248 -0.009879 153 76 0
0.044556 -0.422523 0.232794 153 76 0
0.126896 0.612311 0.019705 76 0 153
-0.199105 0.017344 -0.171509 0 0 255
0.244922 -0.224444 0.024857 153 76 0
0.063117 0.644780 0.109592 76 0 153
-0.233623 -0.021571 0.039615 153 76 0
-0.012276 0.222168 -0.243818 153 76 0
0.148621 -0.215892 0.171301 153 76 0
-0.226299 0.184386 0.056157 153 76 0
0.233349 0.392396 -0.010015 153 76 0
-0.212414 0.054903 -0.154832 0 0 255
-0.208644 -0.159071 0.113391 153 76 0
-0.213887 -0.180264 -0.112930 153 76 0
-0.063339 -0.547154 -0.228813 153 76 0
0.184928 0.411339 0.118123 153 76 0
-0.236364 -0.388847 -0.063542 153 76 0
0.093438 0.209869 0.226946 153 76 0
-0.234680 -0.073000 -0.039814 153 76 0
0.194294 -0.387680 -0.127189 153 76 0
-0.033025 -0.371295 0.218334 153 76 0
0.187768 0.007852 -0.144273 153 76 0
-0.068339 0.478335 0.121584 76 0 153
-0.067762 0.689756 -0.041159 76 0 153
-0.241255 -0.393526 -0.107279 0 0 255
0.146678 0.159724 -0.205621 153 76 0
-0.119187 0.089792 -0.234247 0 0 255
0.160399 0.086330 -0.193218 153 76 0
0.238314 0.300031 0.035153 153 76 0
-0.250692 0.121959 0.067105 0 0 255
-0.160876 -0.077457 0.152641 153 76 0
0.125845 -0.334060 0.202289 153 76 0
0.054825 0.827902 -0.069363 76 0 153
-0.234238 0.120430 -0.118096 0 0 255
0.230844 0.010520 -0.055726 153 76 0
0.096352 -0.618270 0.110303 153 76 0
0.027243 0.939860 -0.065022 76 0 153
0.083731 -0.295277 -0.220153 153 76 0
0.182439 0.420283 -0.110566 153 76 0
0.245561 -0.019547 0.042583 153 76 0
0.096085 -0.214857 0.219404 153 76 0
0.166651 0.001404 -0.187239 153 76 0
0.144291 -0.107075 -0.205993 153 76 0
-0.099306 0.463465 -0.129710 153 76 0
0.026897 -0.403614 -0.234356 153 76 0
-0.072440 0.431873 -0.176933 153 76 0
0.137669 -0.105705 0.199252 153 76 0
-0.142478 -0.594909 -0.042941 153 76 0
-0.241254 -0.424128 -0.042030 153 76 0
0.225523 -0.493067 0.017246 153 76 0
-0.220227 -0.046300 -0.093707 153 76 0
0.088107 0.484145 0.143935 76 0 153
-0.045379 0.794851 -0.046952 76 0 153
-0.201574 0.011439 0.120892 153 76 0
0.115090 0.207861 -0.221427 153 76 0
-0.229564 -0.265167 0.066134 153 76 0
0.225478 0.078555 -0.074411 153 76 0
-0.082651 0.243281 -0.237743 153 76 0
0.035984 0.611262 0.123395 76 0 153
-0.101548 -0.534046 0.225251 153 76 0
-0.149851 -0.591741 0.199687 153 76 0
-0.027541 0.974494 -0.066118 153 0 76
-0.216512 -0.307359 -0.077859 153 76 0
0.013398 -0.060401 -0.233370 153 76 0
-0.255951 -0.116128 0.043052 0 0 255
-0.154575 -0.261160 -0.172737 153 76 0
0.158055 -0.225160 -0.193268 153 76 0
0.171087 -0.254870 0.170675 153 76 0
0.051076 0.437683 0.168544 153 76 0
-0.198127 -0.442492 -0.164387 153 76 0
-0.249595 -0.021042 -0.082478 0 0 255
-0.155002 -0.617779 -0.108901 153 76 0
0.015897 0.974063 -0.082629 153 0 76
0.118323 -0.612278 0.027409 153 76 0
0.230828 -0.205313 0.020315 153 76 0
0.019486 0.916190 0.076905 76 0 153
-0.067680 0.505728 0.111189 76 0 153
0.001982 0.998520 0.065233 153 0 76
-0.022095 -0.585801 0.054490 153 76 0
-0.165664 0.194988 -0.169247 153 76 0
0.251460 0.129070 0.027508 153 76 0
0.183859 -0.299243 0.154653 153 76 0
-0.050535 0.930726 -0.074773 76 0 153
-0.094485 0.501923 -0.085157 76 0 153
0.170817 -0.586948 0.129444 153 76 0
-0.217401 -0.592523 -0.039902 153 76 0
-0.234085 0.098264 0.002953 153 76 0
0.252506 0.197346 -0.031331 153 76 0
0.098807 -0.612126 -0.096668 153 76 0
0.036291 -0.578564 -0.229168 153 76 0
-0.226716 0.100865 0.119834 0 0 255
-0.043379 0.591680 -0.093994 76 0 153
-0.158306 0.293430 0.187320 153 76 0
0.241711 -0.087168 -0.065784 153 76 0
0.030744 0.271229 0.226300 153 76 0
-0.236997 0.044236 -0.112446 0 0 255
-0.236597 -0.164222 0.032704 153 76 0
0.175704 -0.550501 -0.151807 153 76 0
-0.166830 0.066760 -0.149090 153 76 0
-0.211750 -0.454397 0.079309 153 76 0
0.205880 -0.406778 -0.109345 153 76 0
0.100019 0.273046 0.210018 153 76 0
-0.205872 -0.373277 0.092968 153 76 0
0.068790 -0.128696 -0.224772 153 76 0
-0.152637 0.380276 -0.128072 153 76 0
0.162979 -0.605610 -0.013544 153 76 0
0.195813 -0.057130 -0.157906 153 76 0
0.174413 -0.109900 0.148362 153 76 0
-0.000951 0.930689 -0.089279 76 0 153
-0.188660 -0.157781 0.143008 153 76 0
0.180979 -0.150224 -0.151378 153 76 0
-0.074340 -0.021258 0.210155 153 76 0
0.011735 -0.260788 0.236798 153 76 0
-0.059321 0.218514 -0.234373 153 76 0
0.053991 -0.210425 0.233949 153 76 0
0.145405 -0.556740 -0.181933 153 76 0
0.130548 0.669521 0.000131 76 0 153
-0.127856 -0.551596 0.212402 153 76 0
0.192176 -0.083014 0.128784 153 76 0
-0.003602 0.507448 -0.150758 76 0 153
-0.145840 -0.453319 -0.184986 153 76 0
-0.060543 0.170396 -0.219012 153 76 0
0.136560 -0.484625 0.173448 153 76 0
0.219377 -0.217102 0.071509 153 76 0
-0.136130 -0.621022 -0.146007 153 76 0
-0.206020 0.391181 -0.043826 153 76 0
-0.025778 0.518166 -0.142330 76 0 153
-0.109697 0.006647 0.192935 153 76 0
0.163701 -0.369315 -0.187437 153 76 0
0.182121 0.354610 -0.173219 153 76 0
0.250277 0.055363 -0.027722 153 76 0
-0.114578 -0.188298 -0.218690 153 76 0
0.042283 0.277184 -0.227789 153 76 0
0.246482 -0.267790 0.012397 153 76 0
0.020864 -0.176133 -0.234348 153 76 0
0.223753 0.186313 -0.084230 153 76 0
-0.107191 0.352754 0.185172 153 76 0
0.246149 -0.083300 0.033022 153 76 0
0.084891 -0.488812 0.202868 153 76 0
0.147675 -0.011930 -0.183856 153 76 0
-0.054971 -0.381824 -0.245243 153 76 0
0.066335 0.088344 -0.239287 153 76 0
0.191903 0.004279 0.154577 153 76 0
0.036739 0.857907 -0.071467 76 0 153
-0.126853 -0.501191 -0.198796 0 0 255
-0.217382 -0.294025 -0.111061 153 76 0
0.234799 -0.071456 0.081080 153 76 0
-0.025189 0.088867 0.222877 153 76 0
-0.191303 -0.237914 0.140491 153 76 0
-0.225166 -0.338919 0.082105 153 76 0
0.222167 -0.257644 0.059263 153 76 0
0.235330 0.172756 0.037199 153 76 0
0.015110 -0.589768 -0.264229 153 76 0
0.148617 -0.344846 0.168409 153 76 0
0.196103 -0.325291 -0.125663 153 76 0
-0.030677 -0.600441 0.139737 153 76 0
-0.057422 0.846621 0.044470 76 0 153
0.265396 0.239298 0.026059 153 76 0
0.211367 -0.570967 0.071054 153 76 0
0.066171 -0.590063 -0.085603 153 76 0
0.179085 -0.402112 -0.149484 153 76 0
-0.203883 0.337237 -0.126948 153 76 0
-0.160546 -0.498103 -0.211711 0 0 255
0.081290 0.385134 0.213534 153 76 0
-0.127377 0.248230 -0.182773 153 76 0
-0.074366 -0.086208 -0.218098 153 76 0
-0.007540 -0.166592 -0.232968 153 76 0
0.086883 0.507667 0.136200 76 0 153
-0.031224 0.638761 0.108259 76 0 153
0.067761 -0.582991 0.234816 153 76 0
-0.153085 -0.566393 -0.213926 153 76 0
-0.237650 -0.094452 -0.026750 153 76 0
0.078613 0.753613 0.070617 76 0 153
0.118793 0.731771 -0.017625 76 0 153
-0.013299 0.052805 0.240131 153 76 0
0.038935 -0.597188 -0.146455 153 76 0
0.220240 -0.293142 0.065392 153 76 0
-0.148733 -0.557107 -0.185233 153 76 0
-0.239390 -0.204871 -0.029129 153 76 0
0.057757 0.977752 -0.023060 153 0 76
0.120300 0.884254 0.014740 76 0 153
-0.170074 -0.401272 -0.182195 153 76 0
-0.020816 0.956175 -0.091642 153 0 76
0.247195 0.024573 0.038710 153 76 0
-0.107817 0.598307 -0.007903 76 0 153
0.108388 0.992773 0.060655 153 0 76
-0.220463 0.015262 -0.025667 153 76 0
0.103076 0.813171 -0.008403 76 0 153
-0.104736 -0.086985 -0.205048 153 76 0
-0.105162 -0.602969 0.144812 153 76 0
-0.239816 -0.235615 0.004440 153 76 0
0.207604 -0.418045 0.120674 153 76 0
-0.149219 -0.054892 0.182499 153 76 0
-0.079314 0.944291 0.053491 153 0 76
0.185333 0.379983 0.117710 153 76 0
-0.120837 -0.027257 -0.233975 0 0 255
0.072455 0.145981 -0.237758 153 76 0
0.167846 -0.201757 -0.184902 153 76 0
0.107267 0.771736 -0.001372 76 0 153
-0.184419 -0.223998 -0.190195 0 0 255
-0.074895 -0.413455 0.225409 153 76 0
-0.234688 0.235057 0.047400 153 76 0
0.236527 0.101356 -0.022773 153 76 0
-0.062733 0.578364 0.103443 76 0 153
-0.127596 -0.154290 -0.191037 153 76 0
0.084707 -0.334882 0.205404 153 76 0
0.143386 0.358556 0.172289 153 76 0
-0.172323 -0.442811 -0.157674 153 76 0
-0.172784 -0.623437 0.158545 153 76 0
-0.128522 -0.004245 0.200177 153 76 0
-0.230899 0.331273 -0.067792 153 76 0
-0.027980 -0.425042 -0.234137 153 76 0
0.096729 -0.483537 0.226407 153 76 0
-0.203504 -0.338463 0.152147 0 0 255
0.056004 0.366444 -0.233741 153 76 0
-0.035900 0.498712 0.131492 76 0 153
0.066156 0.065430 0.218330 153 76 0
0.217958 0.383264 -0.030163 153 76 0
-0.081592 -0.071834 0.206550 153 76 0
-0.224814 0.145612 0.062151 153 76 0
0.238571 -0.149195 -0.072224 153 76 0
0.215867 0.387337 -0.099197 153 76 0
-0.113998 -0.393157 0.190323 153 76 0
0.225728 -0.433047 -0.097254 153 76 0
0.214863 0.040601 -0.103531 153 76 0
-0.140167 0.462413 -0.002299 153 76 0
0.225952 0.099658 -0.115949 153 76 0
-0.242651 0.044477 0.088641 0 0 255
-0.154679 -0.161803 0.178433 153 76 0
0.009461 -0.606833 -0.125544 153 76 0
-0.182991 -0.623439 0.064036 153 76 0
0.230890 0.177070 -0.063082 153 76 0
0.016882 -0.632287 0.194801 153 76 0
-0.103267 -0.605423 0.036414 153 76 0
0.007158 0.894333 -0.067373 76 0 153
0.219888 -0.402314 0.096239 153 76 0
-0.203774 -0.057102 0.152316 0 0 255
0.100201 0.937394 0.060375 76 0 153
-0.239317 -0.338357 0.037338 153 76 0
-0.190609 -0.203902 -0.152624 153 76 0
-0.168241 -0.275735 0.167366 153 76 0
-0.038164 0.737875 -0.076895 76 0 153
-0.196947 0.060125 -0.102488 153 76 0
0.199967 -0.479155 0.147152 153 76 0
-0.240262 -0.493274 0.092028 0 0 255
-0.124551 0.157405 -0.204503 153 76 0
0.025493 0.878311 0.099904 76 0 153
-0.259887 0.150018 0.010164 0 0 255
0.080965 -0.511778 0.203851 153 76 0
-0.090961 -0.127658 0.218620 153 76 0
-0.099049 -0.160714 0.197912 153 76 0
-0.149580 0.069358 -0.189536 153 76 0
-0.126404 0.334805 -0.177697 153 76 0
0.226046 0.109110 0.107413 153 76 0
0.080011 0.534719 -0.127672 76 0 153
-0.177879 -0.546086 0.138509 153 76 0
0.146029 -0.157859 0.192491 153 76 0
0.163023 0.049960 -0.170961 153 76 0
0.092741 -0.603703 -0.199040 153 76 0
-0.239310 -0.115686 0.094822 0 0 255
-0.205132 -0.401082 -0.141139 153 76 0
0.001108 0.858643 -0.083089 76 0 153
-0.120519 0.507843 -0.019228 76 0 153
0.183158 0.374387 -0.124717 153 76 0
-0.025465 -0.246760 0.220621 153 76 0
0.043178 -0.584816 -0.029613 153 76 0
-0.090084 -0.609220 0.084744 153 76 0
0.087859 0.280948 -0.245669 153 76 0
0.159078 -0.581268 0.147002 153 76 0
0.218004 -0.183027 0.110301 153 76 0
-0.195083 0.350185 0.075196 153 76 0
0.067348 -0.605047 0.029472 153 76 0
-0.104539 -0.288284 -0.226736 153 76 0
-0.223290 -0.227858 0.022443 153 76 0
-0.174084 0.358029 -0.115410 153 76 0
-0.121985 0.192698 -0.187583 153 76 0
-0.095103 -0.295646 0.199661 153 76 0
-0.232409 -0.358889 -0.080792 153 76 0
0.115643 -0.601497 0.215074 153 76 0
-0.195615 0.359107 -0.069729 153 76 0
-0.175151 0.026492 -0.163433 153 76 0
0.259255 0.281207 -0.065892 153 76 0
0.039216 0.953053 0.072709 76 0 153
-0.101097 -0.351417 -0.228906 153 76 0
-0.125047 0.384698 0.178836 153 76 0
-0.128415 -0.523938 -0.229636 153 76 0
-0.049002 0.368441 -0.229365 153 76 0
-0.259238 0.062391 -0.036319 0 0 255
-0.065380 -0.150355 0.213480 153 76 0
0.022706 0.949056 -0.108998 153 0 76
0.149712 0.200184 0.197741 153 76 0
0.046854 -0.234687 -0.229588 153 76 0
0.060707 0.142231 0.221445 153 76 0
0.222540 0.323678 -0.142023 153 76 0
0.176437 0.440320 -0.093120 153 76 0
0.256668 0.230593 0.063480 153 76 0
-0.168949 0.063847 -0.200729 0 0 255
0.132336 -0.272057 0.199254 153 76 0
0.257035 0.317020 -0.069276 153 76 0
-0.239320 -0.229988 0.096146 0 0 255
0.236804 0.049462 0.082597 153 76 0
-0.218862 -0.168571 0.133383 0 0 255
-0.198229 0.218876 -0.172332 0 0 255
0.086958 0.921292 0.083984 76 0 153
-0.092702 0.220628 -0.222861 153 76 0
0.032140 -0.368900 0.234228 153 76 0
0.097435 0.116159 0.224108 153 76 0
-0.141288 -0.518189 0.205863 153 76 0
-0.157847 -0.373528 -0.193529 153 76 0
-0.051388 0.874610 0.017772 76 0 153
0.144634 -0.566929 -0.217067 153 76 0
-0.193683 -0.495393 0.160783 0 0 255
0.110608 0.307514 0.206928 153 76 0
0.020111 0.422868 -0.202279 153 76 0
-0.052325 -0.132265 -0.242256 153 76 0
-0.220267 -0.414985 -0.110776 153 76 0
0.229433 0.369594 0.088032 153 76 0
0.092103 0.564052 0.096279 76 0 153
-0.023955 -0.442638 0.238782 153 76 0
0.018593 -0.350783 0.220148 153 76 0
0.074868 -0.447672 0.229469 153 76 0
-0.191884 -0.359866 -0.182734 0 0 255
0.138965 -0.528508 -0.187728 153 76 0
0.183095 0.228662 -0.154754 153 76 0
0.107081 0.371872 -0.190342 153 76 0
0.019302 0.977752 -0.015213 153 0 76
0.133812 -0.257669 -0.212536 153 76 0
0.220233 -0.585746 -0.006066 153 76 0
0.165147 0.277299 -0.170696 153 76 0
-0.261360 0.164832 -0.009052 0 0 255
0.112747 -0.140944 0.197160 153 76 0
0.044032 0.977752 -0.052713 153 0 76
0.243263 -0.336822 -0.030039 153 76 0
-0.149594 -0.602102 0.119096 153 76 0
0.196930 -0.021962 -0.130126 153 76 0
0.031752 0.567029 0.120449 76 0 153
0.215845 0.064941 0.126260 153 76 0
-0.087999 -0.306246 -0.232705 153 76 0
-0.153596 -0.210876 -0.215657 0 0 255
-0.080059 0.316655 -0.209902 153 76 0
0.115363 -0.601185 0.075328 153 76 0
0.116978 -0.057881 0.214230 153 76 0
-0.056734 -0.459265 -0.229746 153 76 0
0.120682 -0.407063 0.185858 153 76 0
0.213850 -0.122483 -0.099063 153 76 0
-0.018994 0.561633 0.118143 76 0 153
-0.060106 0.963834 -0.064376 153 0 76
-0.210448 -0.240302 -0.159559 0 0 255
-0.227731 0.232767 -0.061707 153 76 0
0.127181 0.561763 -0.051969 76 0 153
0.097053 0.024833 -0.230328 153 76 0
-0.199927 -0.016750 0.123829 153 76 0
0.126343 -0.520815 0.179536 153 76 0
0.147864 -0.126287 0.191937 153 76 0
0.098351 0.409744 -0.193018 153 76 0
0.173660 0.311691 0.196356 153 76 0
0.000751 0.622166 0.121215 76 0 153
-0.208519 0.130802 0.147309 0 0 255
0.079130 -0.378441 -0.239290 153 76 0
0.193708 0.087709 0.132363 153 76 0
-0.260368 -0.075633 -0.027326 0 0 255
0.214673 0.275557 0.104714 153 76 0
0.211595 0.375220 -0.119183 153 76 0
-0.208285 -0.147288 0.145985 0 0 255
0.230544 -0.629487 0.029984 153 76 0
-0.260397 -0.452724 -0.006007 0 0 255
0.257001 0.258384 0.073294 153 76 0
-0.138765 -0.178024 -0.184001 153 76 0
-0.069098 -0.195458 0.227813 153 76 0
0.181124 -0.332002 -0.147752 153 76 0
0.136927 -0.602464 0.200480 153 76 0
-0.034385 -0.514702 0.243706 153 76 0
0.137282 0.277165 0.189934 153 76 0
-0.002833 -0.582445 -0.043963 153 76 0
-0.222257 -0.622806 -0.088183 153 76 0
-0.015756 0.996811 0.085972 153 0 76
-0.083616 0.013139 0.205673 153 76 0
-0.115387 0.409744 -0.168937 153 76 0
-0.183232 -0.620594 -0.071877 153 76 0
-0.199922 0.377558 0.090955 153 76 0
-0.225262 -0.503062 0.042097 0 0 255
-0.239879 0.273326 0.042687 153 76 0
0.223350 -0.189766 0.060393 153 76 0
0.009946 -0.219562 -0.249837 153 76 0
0.018018 0.977752 0.025598 153 0 76
0.227353 0.308735 0.079791 153 76 0
-0.051558 0.053216 0.217508 153 76 0
-0.120334 -0.605882 0.004818 153 76 0
-0.216236 -0.235146 -0.110671 153 76 0
-0.232177 0.202161 0.004283 153 76 0
-0.021844 0.016146 -0.230157 153 76 0
0.169399 0.501435 -0.009962 76 0 153
0.009500 0.108434 -0.246316 153 76 0
-0.101373 -0.472933 0.196411 153 76 0
0.021924 -0.312149 0.235543 153 76 0
-0.238748 -0.273273 0.029187 153 76 0
0.057139 0.977752 0.046310 153 0 76
0.114222 0.391986 -0.176017 153 76 0
-0.053445 0.996238 -0.047200 153 0 76
0.130860 0.491244 -0.107664 76 0 153
0.026367 -0.003988 0.238513 153 76 0
0.022963 0.371779 0.232076 153 76 0
-0.243595 -0.195957 0.084653 0 0 255
-0.078212 0.277650 -0.211302 153 76 0
-0.249886 -0.156760 -0.079621 0 0 255
0.240629 0.230415 -0.109574 153 76 0
-0.137937 0.087210 0.191404 153 76 0
0.208506 0.366358 -0.089024 153 76 0
-0.096980 0.123981 0.215816 153 76 0
-0.065263 -0.226938 -0.239285 153 76 0
0.085950 0.903371 0.042659 76 0 153
-0.121954 0.458559 -0.079143 153 76 0
-0.251978 0.131245 -0.070372 0 0 255
0.028353 0.402323 0.213440 153 76 0
-0.204481 -0.377216 -0.141364 153 76 0
-0.060315 -0.211152 0.214068 153 76 0
-0.236736 0.002283 -0.021530 153 76 0
0.189152 -0.547888 0.157508 153 76 0
0.156556 -0.283628 -0.174145 153 76 0
0.230538 -0.235727 -0.020804 153 76 0
0.175056 0.413542 0.097432 153 76 0
0.152399 -0.508104 -0.210689 153 76 0
-0.168075 -0.393874 -0.161105 153 76 0
0.135986 0.524808 0.086346 76 0 153
0.174293 0.451112 -0.020419 153 76 0
0.198174 -0.632367 -0.002918 153 76 0
-0.135682 0.505836 0.026258 76 0 153
-0.260032 0.194000 0.006814 0 0 255
-0.138346 -0.122442 0.172481 153 76 0
-0.260458 -0.339854 -0.022027 0 0 255
-0.128404 -0.056205 -0.188457 153 76 0
0.087817 0.972280 -0.057913 153 0 76
0.185338 -0.356906 0.151209 153 76 0
0.028077 0.205471 -0.230948 153 76 0
-0.246615 -0.235639 -0.094508 0 0 255
-0.154959 0.301958 0.155627 153 76 0
0.025479 0.392324 -0.204137 153 76 0
-0.057913 -0.354690 0.213593 153 76 0
0.038466 0.006598 -0.245193 153 76 0
-0.055890 -0.603961 0.061553 153 76 0
0.022405 0.827498 -0.076481 76 0 153
-0.197797 -0.400503 0.133706 153 76 0
0.107137 0.384822 0.183718 153 76 0
0.059157 0.781160 -0.083795 76 0 153
0.009094 -0.605003 0.162309 153 76 0
-0.000353 0.551751 0.138308 76 0 153
0.097299 -0.257914 0.218315 153 76 0
0.128612 -0.580989 -0.190520 153 76 0
0.060147 0.181422 -0.239948 153 76 0
0.106296 0.776018 -0.041264 76 0 153
0.098199 0.877803 0.004827 76 0 153
-0.193787 -0.271704 0.137398 153 76 0
0.192653 0.452128 0.011671 153 76 0
-0.015400 -0.609041 0.109320 153 76 0
-0.095784 0.552455 0.056067 76 0 153
-0.202104 -0.229738 -0.139372 153 76 0
-0.185386 -0.211168 0.148798 153 76 0
0.033095 0.129467 0.239465 153 76 0
-0.201358 -0.055407 0.092992 153 76 0
-0.123574 0.213941 0.202884 153 76 0
-0.214314 0.296229 -0.029147 153 76 0
-0.153822 -0.205595 -0.192614 153 76 0
-0.035319 -0.587953 0.076252 153 76 0
-0.016539 -0.137829 -0.247126 153 76 0
0.227880 -0.227620 -0.053517 153 76 0
0.210236 -0.632427 0.075612 153 76 0
-0.004774 -0.615836 -0.254445 153 76 0
-0.183508 0.043280 -0.153318 153 76 0
-0.136790 -0.521009 -0.192518 153 76 0
0.231112 -0.299573 0.004062 153 76 0
0.229620 -0.170266 -0.097322 153 76 0
-0.221040 -0.240956 0.043432 153 76 0
-0.256389 -0.444062 -0.057791 153 76 0
-0.228465 -0.112158 -0.075762 153 76 0
0.003301 0.284662 -0.229177 153 76 0
-0.185057 0.083402 -0.187691 0 0 255
-0.013641 -0.075651 0.239313 153 76 0
-0.064861 0.071757 -0.234760 153 76 0
-0.225274 -0.394048 0.034131 153 76 0
0.024785 0.794052 -0.090614 76 0 153
-0.190368 0.204907 -0.140547 153 76 0
0.103369 0.459797 -0.128343 153 76 0
0.061669 0.871789 -0.060756 76 0 153
0.037227 -0.608066 0.088472 153 76 0
0.133926 0.610449 -0.038578 76 0 153
0.139632 -0.364291 0.174029 153 76 0
-0.041901 0.114712 -0.241985 153 76 0
-0.132762 0.458704 0.093200 153 76 0
-0.216266 -0.194298 -0.150410 0 0 255
0.133175 -0.184022 -0.195208 153 76 0
0.181167 0.311489 -0.190506 153 76 0
-0.129512 0.526374 0.014828 76 0 153
0.082660 0.189625 -0.220407 153 76 0
-0.243504 0.162971 -0.099056 0 0 255
-0.254487 -0.544361 -0.042891 153 76 0
-0.177189 -0.624996 -0.148705 153 76 0
-0.141819 -0.389188 -0.223928 0 0 255
-0.203204 -0.172545 -0.169122 0 0 255
0.202229 0.349669 0.112794 153 76 0
-0.070693 0.546343 -0.108902 76 0 153
-0.046664 0.184488 -0.239257 153 76 0
0.005733 0.054991 -0.246623 153 76 0
0.185571 -0.365094 0.127552 153 76 0
0.098357 -0.611098 0.057850 153 76 0
-0.190914 0.284866 -0.104617 153 76 0
-0.226706 -0.508624 0.117719 153 76 0
0.132784 -0.370029 -0.194191 153 76 0
0.153109 -0.497841 -0.175637 153 76 0
-0.205180 -0.071299 -0.165310 0 0 255
-0.202318 -0.546454 0.102267 153 76 0
0.178038 0.348043 0.145537 153 76 0
0.184736 -0.145376 0.135385 153 76 0
-0.226824 0.188771 -0.053341 153 76 0
0.000699 0.379795 -0.208913 153 76 0
-0.226090 -0.209918 -0.089306 153 76 0
0.180089 -0.229530 0.161093 153 76 0
-0.026346 0.146717 0.238140 153 76 0
0.234428 -0.354252 -0.075385 153 76 0
0.221834 -0.502735 0.112201 153 76 0
0.027008 0.380517 -0.231272 153 76 0
-0.222127 -0.566999 -0.072658 153 76 0
-0.151321 0.249482 0.193747 153 76 0
-0.226572 0.147457 -0.132685 0 0 255
-0.247754 -0.172595 0.073415 0 0 255
0.223103 0.142985 -0.120933 153 76 0
-0.229887 -0.375620 0.069976 153 76 0
0.231488 -0.130488 -0.034618 153 76 0
-0.242260 0.187293 0.088525 0 0 255
-0.152763 0.100043 -0.214512 0 0 255
0.193393 0.335322 0.169571 153 76 0
-0.087600 0.354544 -0.222631 153 76 0
-0.183855 0.397966 -0.031351 153 76 0
0.230217 0.033142 0.048778 153 76 0
-0.161809 -0.413893 0.173842 153 76 0
0.236441 -0.288906 -0.072366 153 76 0
0.189007 -0.436932 0.144573 153 76 0
-0.014756 -0.614716 0.137352 153 76 0
0.040440 -0.189301 0.235562 153 76 0
0.061951 -0.498670 -0.228052 153 76 0
0.087864 -0.592705 0.049895 153 76 0
0.057769 0.883697 -0.085897 76 0 153
0.095158 -0.444833 0.220062 153 76 0
0.129267 0.577695 0.036776 76 0 153
-0.151412 -0.186271 0.161466 153 76 0
0.024699 -0.041924 -0.248157 153 76 0
-0.165843 0.173678 -0.202602 0 0 255
-0.124138 -0.424016 -0.217338 153 76 0
0.048826 -0.394961 -0.245524 153 76 0
0.207485 0.150519 0.113523 153 76 0
-0.061326 0.009149 0.215316 153 76 0
-0.133064 0.406663 -0.127849 153 76 0
0.172132 0.067048 0.156521 153 76 0
