ply
format ascii 1.0
element vertex 1301
property float x
property float y
property float z
property uchar red
property uchar green
property uchar blue
end_header
0.292899 -0.058916 -0.407958 0 255 0
-0.353265 -0.363642 -0.460630 0 255 0
0.040426 -0.511999 0.384752 0 255 0
-0.396816 -0.495598 0.329447 0 255 0
-0.217216 0.440051 -0.016409 0 255 0
0.576173 0.136037 0.384752 76 153 0
-0.715809 -0.009342 0.131757 0 255 0
-0.715809 -0.120608 -0.173892 0 255 0
0.412987 0.382112 -0.302959 0 255 0
-0.454965 0.440051 -0.452651 0 255 0
-0.409978 0.359338 0.384752 76 153 0
-0.056013 0.440051 0.172366 0 255 0
0.564556 -0.495745 0.329447 0 255 0
0.095376 -0.467827 0.329447 0 255 0
0.210475 0.382112 -0.232306 0 255 0
0.527487 -0.558186 0.329447 0 255 0
-0.715809 0.119905 0.153362 0 255 0
0.766176 -0.562488 0.380319 0 255 0
0.250739 0.376845 0.356806 0 127 127
0.759001 0.268928 -0.312254 0 255 0
0.759001 -0.267351 0.260114 0 255 0
0.759001 0.347607 -0.430258 0 255 0
0.165168 -0.119399 0.384752 76 153 0
0.759001 0.342006 0.048988 0 255 0
0.759001 0.296741 -0.123259 0 255 0
-0.002005 0.382112 0.040310 0 255 0
-0.196270 -0.378995 0.187348 0 255 0
0.427800 0.230657 0.384752 76 153 0
0.408314 -0.086232 0.384752 76 153 0
0.050973 -0.378995 -0.225588 0 255 0
-0.526503 0.071455 -0.460630 0 255 0
-0.663137 -0.149754 0.258016 0 255 0
-0.478445 0.382112 -0.026813 0 255 0
0.431309 0.440051 -0.354604 0 255 0
0.217254 0.382112 -0.173837 0 255 0
-0.663137 -0.267775 0.028872 0 255 0
0.700645 -0.378995 0.308321 0 255 0
-0.391305 0.416121 0.384334 0 127 127
0.037370 0.382112 -0.017466 0 255 0
-0.314945 -0.328737 -0.407958 0 255 0
0.501313 0.440051 -0.247903 0 255 0
0.002299 -0.331591 0.243117 0 255 0
-0.293267 -0.331591 0.029643 0 255 0
0.805089 0.193873 0.343194 0 127 127
0.259993 -0.309199 -0.460630 0 255 0
-0.348123 -0.187930 0.384752 76 153 0
-0.165297 0.216974 -0.407958 0 255 0
0.236500 0.174781 0.384752 76 153 0
-0.623602 -0.378995 0.327489 0 255 0
0.081789 0.440051 -0.385860 0 255 0
0.706329 -0.215198 -0.243913 0 255 0
0.247705 -0.378995 -0.350054 0 255 0
0.491062 0.146993 -0.460630 0 255 0
-0.491053 0.190605 -0.407958 0 255 0
0.432655 0.382112 -0.241260 0 255 0
0.715103 0.440051 0.004993 0 255 0
0.731790 0.148128 0.329447 0 127 127
0.179307 0.382112 0.315217 0 255 0
0.154602 0.403974 0.329447 0 127 127
0.805089 0.025721 0.360924 0 127 127
-0.715809 0.292589 -0.108362 0 255 0
0.190082 -0.331591 0.282554 0 255 0
0.730268 -0.518004 0.329447 0 255 0
0.668648 -0.378995 -0.417092 0 255 0
0.257184 0.440051 -0.152774 0 255 0
0.226742 -0.340587 0.384752 0 255 0
0.437828 0.376845 0.347571 0 127 127
-0.212104 0.390856 0.384752 0 127 127
0.038877 -0.298489 0.384752 76 153 0
0.446130 -0.002092 -0.460630 0 255 0
-0.663137 0.222487 0.271861 0 255 0
-0.460761 -0.072529 -0.460630 0 255 0
0.706329 0.303912 -0.169701 0 255 0
-0.546357 0.382112 0.096630 0 255 0
0.333669 0.382112 0.145608 0 255 0
0.706329 -0.311921 0.027384 0 255 0
-0.370785 0.382112 0.002775 0 255 0
0.463073 0.414248 0.329447 0 255 0
-0.066831 -0.311226 0.384752 76 153 0
-0.029062 0.382112 -0.304585 0 255 0
0.451047 -0.378995 -0.140533 0 255 0
-0.663137 -0.156919 0.054599 0 255 0
-0.241492 0.382112 -0.334147 0 255 0
-0.715809 0.274992 0.101417 0 255 0
0.598857 0.382112 0.211516 0 255 0
0.493363 0.050476 -0.407958 0 255 0
0.691662 -0.287571 0.384752 0 127 127
-0.306729 0.382112 -0.175673 0 255 0
-0.007240 -0.331591 0.297420 0 255 0
-0.285011 0.117874 0.384752 76 153 0
0.612211 0.440051 -0.152293 0 255 0
0.226733 -0.563347 0.344283 0 255 0
0.523751 -0.378995 -0.194314 0 255 0
-0.663137 -0.104396 0.048501 0 255 0
0.131900 -0.285977 -0.407958 0 255 0
0.355539 -0.331591 0.247879 0 255 0
-0.019083 0.440051 -0.016235 0 255 0
-0.017166 -0.111120 -0.407958 0 255 0
0.147104 -0.323690 0.241664 76 0 153
0.518247 -0.378995 -0.380012 0 255 0
-0.245018 0.382112 -0.003837 0 255 0
0.393218 0.135314 -0.407958 0 255 0
-0.715809 0.106065 -0.231184 0 255 0
-0.117297 0.382112 -0.058013 0 255 0
0.759001 0.311330 -0.228575 0 255 0
-0.663137 -0.036722 -0.182610 0 255 0
0.563090 0.440051 0.184408 0 255 0
0.671783 0.335791 -0.407958 0 255 0
-0.757858 -0.147253 0.383730 0 127 127
0.041829 0.440051 -0.151735 0 255 0
0.310386 -0.297354 -0.010556 76 0 153
0.028525 -0.297354 0.209257 76 0 153
0.496106 0.440051 0.202843 0 255 0
-0.663137 -0.287831 0.189456 0 255 0
0.329464 0.408109 0.384752 0 127 127
-0.051450 0.432150 0.371615 0 255 0
-0.082655 -0.378995 -0.111311 0 255 0
-0.663137 -0.136789 -0.065379 0 255 0
0.252765 -0.563347 0.373934 0 255 0
0.024152 -0.297354 -0.021725 76 0 153
0.118467 0.067411 -0.460630 0 255 0
0.541371 0.382112 0.149279 0 255 0
0.638767 -0.378995 0.106376 0 255 0
-0.003349 -0.297354 0.041487 76 0 153
0.586481 -0.378995 0.070361 0 255 0
0.798978 -0.437166 0.384517 0 255 0
-0.715809 -0.243196 0.309664 0 255 0
0.425585 -0.313277 0.384752 76 153 0
-0.100430 -0.297354 0.000831 76 0 153
-0.330316 -0.035892 -0.407958 0 255 0
0.486678 -0.256847 0.384752 76 153 0
0.706329 -0.001561 -0.149530 0 255 0
-0.323878 -0.331591 0.199595 0 255 0
-0.437525 0.239947 0.384752 76 153 0
0.160935 0.440051 -0.121294 0 255 0
0.032161 -0.323690 -0.227252 76 0 153
-0.665049 -0.378995 0.152637 0 255 0
0.532783 0.382112 -0.303133 0 255 0
-0.252407 0.382112 0.229122 0 255 0
0.137740 0.112963 -0.407958 0 255 0
-0.528390 -0.331591 -0.339379 0 255 0
0.155749 -0.297354 0.007364 76 0 153
0.126950 0.440051 -0.271466 0 255 0
-0.060294 -0.331591 0.301465 0 255 0
-0.068458 -0.334192 -0.460630 0 255 0
-0.715809 0.124702 -0.381194 0 255 0
0.082257 -0.378995 -0.288288 0 255 0
-0.663137 0.175226 -0.376770 0 255 0
-0.027048 -0.323690 0.009565 76 0 153
0.435026 0.209230 -0.407958 0 255 0
-0.715809 0.017259 -0.118674 0 255 0
-0.663137 0.088228 0.103839 0 255 0
0.759001 -0.087877 0.168380 0 255 0
-0.663137 -0.162684 -0.243712 0 255 0
-0.534510 0.440051 -0.104234 0 255 0
0.706329 -0.299062 0.228905 0 255 0
0.578413 -0.149547 -0.407958 0 255 0
-0.263075 0.168700 -0.407958 0 255 0
-0.018781 -0.297354 -0.096763 76 0 153
-0.550956 -0.477340 0.329447 0 255 0
-0.663137 -0.243965 -0.249768 0 255 0
-0.252555 -0.331591 -0.148735 0 255 0
0.463535 -0.331591 0.345142 0 255 0
0.146742 0.207118 -0.407958 0 255 0
-0.047375 -0.297354 -0.123883 76 0 153
0.530515 -0.378995 -0.457944 0 255 0
0.706329 0.262103 -0.089505 0 255 0
-0.424113 0.315165 -0.407958 0 255 0
-0.679069 0.440051 -0.168977 0 255 0
-0.662998 -0.331591 -0.025481 0 255 0
-0.663137 -0.061343 0.073059 0 255 0
-0.638802 0.440051 0.049600 0 255 0
0.706329 -0.135437 0.174157 0 255 0
0.398417 -0.231350 -0.407958 0 255 0
-0.663137 0.058092 0.057580 0 255 0
-0.416365 0.382112 0.097424 0 255 0
0.552838 -0.378995 -0.029844 0 255 0
-0.516812 -0.331591 0.281219 0 255 0
0.334668 0.440051 -0.369091 0 255 0
-0.174081 0.382112 0.086984 0 255 0
-0.710558 0.235131 -0.460630 0 255 0
0.771990 -0.260363 0.384752 0 127 127
0.729486 -0.378169 0.384752 0 255 0
0.541897 0.240081 -0.407958 0 255 0
0.753390 0.440051 -0.287269 0 255 0
-0.522354 -0.515815 0.384752 0 255 0
-0.222224 -0.462541 0.384752 0 255 0
-0.021317 0.440051 0.307255 0 255 0
-0.020536 -0.331591 0.091958 0 255 0
0.583802 -0.331591 -0.105786 0 255 0
0.187937 0.095934 -0.460630 0 255 0
0.759001 0.211447 -0.068053 0 255 0
0.221296 0.440051 0.065061 0 255 0
-0.073177 0.440051 0.012400 0 255 0
0.207627 -0.297354 0.184897 76 0 153
0.201366 0.440051 -0.119567 0 255 0
-0.032681 0.440051 -0.319911 0 255 0
-0.715809 -0.353006 0.212602 0 255 0
0.139957 -0.224820 -0.460630 0 255 0
0.046928 0.382112 -0.229493 0 255 0
-0.181358 0.382112 -0.078870 0 255 0
0.475578 0.440051 0.055172 0 255 0
-0.274340 0.349222 -0.460630 0 255 0
-0.635532 0.055118 -0.460630 0 255 0
0.646393 0.440051 0.249085 0 255 0
-0.590093 0.376845 0.345120 0 127 127
-0.028809 -0.297354 -0.262654 76 0 153
0.320447 0.016262 -0.460630 0 255 0
0.759001 0.176877 -0.154242 0 255 0
0.381151 -0.331591 0.219806 0 255 0
0.223359 0.440051 -0.201257 0 255 0
-0.674327 -0.027943 0.329447 0 127 127
0.459755 0.382112 -0.342149 0 255 0
0.669367 0.440051 0.133324 0 255 0
0.298736 0.382112 0.029055 0 255 0
0.107843 -0.331591 0.250025 0 255 0
-0.749057 -0.247982 0.329447 0 127 127
0.021807 -0.378995 0.269144 0 255 0
-0.420501 -0.331591 0.019525 0 255 0
0.062819 0.373346 0.384752 76 153 0
0.759001 0.378988 0.189526 0 255 0
-0.552725 0.000208 0.384752 76 153 0
0.150824 -0.331591 0.174050 0 255 0
-0.024181 0.382112 0.082025 0 255 0
0.706329 -0.325062 0.173644 0 255 0
0.047943 0.440051 -0.196177 0 255 0
-0.663137 -0.130262 -0.369767 0 255 0
0.388546 -0.345996 0.329447 0 255 0
-0.025914 -0.272293 0.384752 76 153 0
-0.737041 0.132951 0.329447 0 127 127
0.336173 -0.331591 0.295451 0 255 0
-0.256506 -0.289244 -0.460630 0 255 0
0.278580 -0.451786 0.371584 0 255 0
0.759001 -0.226298 -0.248215 0 255 0
-0.277476 -0.477050 0.384752 0 255 0
-0.408880 -0.017701 -0.460630 0 255 0
0.253125 -0.331591 0.087538 0 255 0
-0.663137 0.209085 -0.014148 0 255 0
0.253547 0.246748 -0.460630 0 255 0
0.174426 -0.297354 0.037273 76 0 153
-0.047996 -0.535179 0.329447 0 255 0
0.647074 -0.086021 0.334873 0 127 127
-0.090769 -0.378995 -0.192674 0 255 0
0.095142 0.007763 0.384752 76 153 0
-0.334330 -0.559256 0.329447 0 255 0
0.210241 -0.297354 -0.138525 76 0 153
-0.218382 -0.066762 -0.460630 0 255 0
0.753405 -0.127289 -0.460630 0 255 0
-0.602674 -0.331591 -0.224627 0 255 0
-0.577770 0.382112 0.300744 0 255 0
0.706329 -0.042828 0.193826 0 255 0
0.476126 -0.171588 -0.460630 0 255 0
-0.467259 0.440051 -0.075041 0 255 0
-0.061101 -0.378995 0.022221 0 255 0
-0.181119 -0.297754 -0.460630 0 255 0
0.207558 0.382112 0.047264 0 255 0
0.577284 -0.248408 -0.460630 0 255 0
0.167010 0.132318 0.384752 76 153 0
-0.454518 -0.020540 0.384752 76 153 0
0.281196 0.221049 -0.407958 0 255 0
-0.149175 -0.187144 -0.460630 0 255 0
-0.663137 -0.304166 0.128081 0 255 0
0.152410 -0.297354 -0.222987 76 0 153
-0.339444 0.382112 -0.237864 0 255 0
0.540919 -0.478334 0.371584 0 255 0
0.215362 -0.396217 0.384752 0 255 0
-0.202585 0.139831 -0.460630 0 255 0
-0.715809 0.003564 0.004571 0 255 0
-0.328469 0.354107 -0.460630 0 255 0
0.180580 -0.378995 -0.232443 0 255 0
0.253685 0.382112 -0.202890 0 255 0
-0.682469 -0.378995 0.269356 0 255 0
0.006770 -0.297354 0.178837 76 0 153
-0.360179 -0.331591 -0.176658 0 255 0
-0.715809 -0.197431 -0.323930 0 255 0
-0.132876 -0.297354 -0.038644 76 0 153
0.736008 -0.005563 0.384752 0 127 127
0.759001 0.332281 -0.351008 0 255 0
0.685841 -0.290335 0.329447 0 127 127
0.083732 -0.361936 0.384752 0 255 0
0.543213 0.405833 0.384752 0 127 127
0.257619 -0.297354 -0.124454 76 0 153
-0.137531 0.409111 0.329447 0 255 0
-0.604979 0.440051 -0.082401 0 255 0
-0.653450 0.421372 -0.460630 0 255 0
-0.201246 0.404422 0.329447 0 255 0
0.562291 0.400435 0.329447 0 255 0
0.719621 -0.343327 0.329447 0 255 0
-0.351514 -0.025843 -0.460630 0 255 0
0.053317 0.091045 0.384752 76 153 0
0.759001 -0.179762 -0.056168 0 255 0
0.593049 -0.331591 -0.316572 0 255 0
0.759001 0.157411 0.242739 0 255 0
-0.542129 -0.332673 -0.460630 0 255 0
-0.468120 -0.106676 0.384752 76 153 0
0.711886 0.239854 0.329447 0 255 0
0.582619 -0.378995 -0.237072 0 255 0
-0.473864 0.376845 0.374868 0 127 127
-0.200188 0.099456 -0.460630 0 255 0
0.651712 0.440051 0.027587 0 255 0
0.106875 -0.323690 -0.319710 76 0 153
0.476741 -0.378995 -0.080997 0 255 0
-0.663137 -0.113779 0.300777 0 255 0
0.044014 -0.331591 0.331093 0 255 0
-0.236740 0.440051 0.066121 0 255 0
0.432303 -0.331591 -0.247983 0 255 0
-0.715809 -0.167675 0.250596 0 255 0
0.706329 0.263871 0.266403 0 255 0
-0.663137 -0.020008 0.239199 0 255 0
0.250766 0.382112 0.275529 0 255 0
0.134198 0.266433 -0.407958 0 255 0
0.340968 -0.378995 -0.249230 0 255 0
0.657118 -0.326324 0.352442 0 127 127
-0.161192 -0.336317 0.384752 0 255 0
0.092184 0.440051 -0.076657 0 255 0
0.420650 0.382112 -0.175219 0 255 0
0.385199 0.258386 -0.407958 0 255 0
0.277113 0.108737 0.384752 76 153 0
-0.349418 0.440051 0.076025 0 255 0
0.021619 -0.331591 -0.266452 0 255 0
0.414679 -0.244391 0.384752 76 153 0
0.706329 -0.258542 -0.295047 0 255 0
-0.418848 0.382112 -0.237242 0 255 0
-0.574179 0.440051 -0.417626 0 255 0
-0.715809 0.179867 0.222658 0 255 0
0.099241 -0.038016 -0.407958 0 255 0
-0.146800 -0.331591 -0.385444 0 255 0
0.042352 -0.454429 0.329447 0 255 0
0.124506 -0.493554 0.386596 0 255 0
-0.413121 -0.385029 0.384752 0 255 0
-0.663137 0.122583 -0.236651 0 255 0
-0.513865 -0.378995 -0.265081 0 255 0
-0.663137 -0.147186 -0.319815 0 255 0
0.706329 0.226605 0.095228 0 255 0
0.059304 -0.297354 -0.327629 76 0 153
-0.335922 0.022001 -0.460630 0 255 0
-0.529645 0.382112 -0.155139 0 255 0
0.511897 0.440051 0.302469 0 255 0
-0.715809 -0.069461 0.165046 0 255 0
0.233629 0.440051 -0.104321 0 255 0
0.759001 0.404454 0.141863 0 255 0
-0.715809 0.222519 0.140035 0 255 0
-0.663137 0.214499 -0.178679 0 255 0
-0.234246 -0.419753 0.384752 0 255 0
-0.532475 0.310292 -0.407958 0 255 0
-0.391173 -0.320471 0.384752 76 153 0
0.330252 -0.331591 -0.266082 0 255 0
0.008730 -0.331591 -0.192770 0 255 0
-0.378849 -0.058507 -0.407958 0 255 0
-0.638846 -0.378995 -0.044471 0 255 0
-0.147522 0.382112 -0.131442 0 255 0
0.710064 -0.181546 0.329447 0 127 127
0.759001 -0.313425 0.268022 0 255 0
-0.663137 -0.092891 -0.305781 0 255 0
-0.663137 -0.187784 -0.103453 0 255 0
-0.596637 -0.050776 0.384752 76 153 0
-0.715809 -0.071487 -0.307952 0 255 0
-0.359626 0.071226 -0.460630 0 255 0
0.759001 -0.286852 -0.202831 0 255 0
0.365470 -0.378995 -0.009443 0 255 0
0.759001 0.399336 0.228328 0 255 0
0.643512 -0.392132 0.329447 0 255 0
0.759001 0.336281 0.114737 0 255 0
0.604109 -0.331591 0.324009 0 255 0
0.759001 0.088761 -0.394701 0 255 0
0.759001 0.407857 -0.333339 0 255 0
0.759001 -0.349867 0.044967 0 255 0
0.670102 0.382112 -0.288377 0 255 0
0.743495 -0.004814 0.329447 0 255 0
-0.126971 0.440051 -0.418688 0 255 0
-0.150349 -0.378995 -0.111125 0 255 0
0.528682 -0.013512 0.384752 76 153 0
-0.715809 0.030518 -0.360136 0 255 0
0.705944 -0.291078 -0.460630 0 255 0
-0.263341 -0.331591 -0.223968 0 255 0
-0.633004 -0.331591 0.080789 0 255 0
0.697396 -0.378995 -0.062218 0 255 0
-0.268166 -0.378995 0.307003 0 255 0
-0.679030 0.031340 0.384752 0 127 127
0.156911 0.382112 0.249133 0 255 0
-0.211242 -0.297354 0.144105 76 0 153
0.427375 0.440051 0.172122 0 255 0
-0.597568 -0.178223 -0.407958 0 255 0
-0.207463 0.440051 0.294025 0 255 0
0.554831 -0.378995 0.180460 0 255 0
0.571747 0.382112 0.022111 0 255 0
0.148012 -0.417041 0.384752 0 255 0
0.256208 -0.228913 -0.407958 0 255 0
0.626745 0.186581 0.384752 76 153 0
0.756867 -0.296068 -0.460630 0 255 0
-0.663137 0.240690 0.012040 0 255 0
0.021819 -0.297354 0.073178 76 0 153
0.277696 0.417442 -0.460630 0 255 0
0.647074 0.301649 0.365316 0 127 127
0.550589 -0.279460 -0.407958 0 255 0
0.595676 0.382112 -0.098531 0 255 0
-0.634333 -0.482179 0.329447 0 255 0
-0.663137 0.140511 -0.014686 0 255 0
-0.393290 -0.331591 0.179113 0 255 0
-0.577545 -0.331591 -0.049798 0 255 0
-0.001946 -0.331591 -0.049043 0 255 0
-0.468416 -0.345337 0.329447 0 255 0
-0.424057 0.181527 -0.407958 0 255 0
-0.194947 -0.331591 0.254895 0 255 0
-0.497291 -0.331591 -0.319332 0 255 0
-0.715809 -0.260929 0.124862 0 255 0
-0.619428 -0.331591 0.134686 0 255 0
0.399228 -0.186693 -0.460630 0 255 0
-0.081450 0.147910 -0.407958 0 255 0
-0.346306 -0.190445 -0.407958 0 255 0
0.345010 -0.378995 -0.090816 0 255 0
-0.005143 -0.237400 -0.460630 0 255 0
0.678416 0.332426 0.384752 0 127 127
0.331585 -0.348885 0.384752 0 255 0
0.136055 -0.297354 0.116821 76 0 153
0.706329 0.015874 0.200980 0 255 0
0.324279 0.204399 -0.460630 0 255 0
-0.067988 -0.378995 -0.366138 0 255 0
-0.169927 -0.297354 -0.041780 76 0 153
0.570997 0.382112 -0.052695 0 255 0
0.045077 -0.297354 0.008871 76 0 153
-0.663137 -0.254992 -0.125536 0 255 0
-0.496260 0.382112 0.132863 0 255 0
-0.551052 0.091953 -0.407958 0 255 0
-0.715809 -0.049620 -0.384504 0 255 0
0.664877 0.440051 -0.194617 0 255 0
-0.402220 0.213442 -0.407958 0 255 0
0.802323 0.358786 0.382785 0 127 127
-0.570939 -0.331591 0.068115 0 255 0
-0.587575 0.382112 0.189582 0 255 0
0.605968 -0.378995 -0.348512 0 255 0
0.759001 -0.297705 -0.062228 0 255 0
-0.755656 0.225483 0.384534 0 127 127
0.440816 -0.378995 0.106291 0 255 0
0.706329 -0.235228 -0.137237 0 255 0
0.283752 0.440051 0.173822 0 255 0
-0.653964 0.382112 0.297810 0 255 0
-0.199725 -0.331591 -0.002862 0 255 0
0.437911 0.382112 -0.396076 0 255 0
-0.509728 0.405454 0.329447 0 127 127
-0.024785 0.382112 0.270429 0 255 0
-0.271691 -0.378995 -0.408756 0 255 0
-0.546413 0.440051 -0.070882 0 255 0
0.028731 -0.369465 0.329447 0 255 0
0.340692 -0.373636 -0.460630 0 255 0
-0.663137 -0.320475 -0.393168 0 255 0
-0.151746 -0.510187 0.329447 0 255 0
-0.447139 -0.331591 0.053971 0 255 0
0.068195 -0.396760 0.329447 0 255 0
0.647074 -0.133128 0.348565 0 127 127
0.759001 0.273451 0.030746 0 255 0
-0.180178 -0.092360 -0.407958 0 255 0
-0.549009 0.375546 -0.460630 0 255 0
-0.313517 0.440051 -0.176903 0 255 0
0.060442 0.250533 -0.407958 0 255 0
0.101243 0.324129 0.384752 76 153 0
0.008316 0.440051 -0.257183 0 255 0
-0.715809 -0.052798 -0.191245 0 255 0
0.706329 0.027559 0.308356 0 255 0
-0.463483 -0.487831 0.329447 0 255 0
0.732763 -0.378995 -0.138127 0 255 0
0.347084 -0.220776 -0.407958 0 255 0
0.044989 0.382112 -0.355078 0 255 0
0.706329 0.149369 -0.019035 0 255 0
-0.715809 0.025184 -0.205281 0 255 0
0.301252 -0.537460 0.384752 0 255 0
-0.546721 0.258548 -0.460630 0 255 0
0.759001 -0.239365 -0.141306 0 255 0
0.006104 -0.331591 -0.386189 0 255 0
0.658313 -0.527246 0.329447 0 255 0
0.489576 -0.555616 0.384730 0 255 0
-0.273215 -0.136328 -0.407958 0 255 0
0.516504 -0.046384 -0.460630 0 255 0
-0.289293 0.440051 0.123276 0 255 0
0.117570 -0.331591 -0.081738 0 255 0
0.678787 0.377541 -0.407958 0 255 0
0.759001 0.125154 -0.359147 0 255 0
-0.623563 -0.378995 -0.354232 0 255 0
-0.359925 -0.458199 0.329447 0 255 0
-0.442533 -0.245042 -0.460630 0 255 0
-0.663137 -0.208518 -0.285895 0 255 0
-0.026258 0.249339 -0.460630 0 255 0
-0.300172 0.382112 0.211602 0 255 0
-0.663137 -0.247068 -0.318846 0 255 0
-0.316439 -0.309856 -0.460630 0 255 0
-0.172332 -0.331591 0.093976 0 255 0
-0.511898 0.440051 -0.392308 0 255 0
-0.167502 0.382112 -0.349744 0 255 0
0.024743 0.440051 -0.360324 0 255 0
-0.592488 0.440051 0.239089 0 255 0
-0.150832 -0.331591 0.017283 0 255 0
-0.645199 -0.200551 0.384752 0 127 127
-0.244110 -0.331591 0.259713 0 255 0
-0.669115 -0.328360 0.329447 0 255 0
0.706329 -0.186500 -0.182638 0 255 0
-0.398436 0.249937 0.384752 76 153 0
0.694657 -0.106917 -0.460630 0 255 0
0.684582 -0.204551 -0.460630 0 255 0
0.706329 0.216009 -0.326972 0 255 0
0.256893 0.382112 0.072031 0 255 0
0.660071 -0.378995 0.039978 0 255 0
0.759001 -0.065938 0.065848 0 255 0
0.706329 -0.049895 0.045948 0 255 0
0.025665 0.440051 0.101055 0 255 0
-0.115829 0.424250 0.369006 0 255 0
0.706329 0.138654 -0.310251 0 255 0
0.480727 0.382112 -0.368856 0 255 0
0.518595 -0.012606 -0.407958 0 255 0
0.759001 -0.113243 -0.097851 0 255 0
0.015288 0.087767 -0.460630 0 255 0
-0.039163 -0.378995 -0.006634 0 255 0
-0.715809 -0.001868 -0.433000 0 255 0
-0.629047 0.327070 0.384752 0 127 127
-0.077838 0.407506 0.384752 0 127 127
-0.624180 -0.445817 0.384752 0 255 0
0.704571 0.440051 -0.115637 0 255 0
-0.715809 -0.252548 -0.066452 0 255 0
-0.688312 0.421616 0.369597 0 127 127
0.315584 0.382112 -0.404328 0 255 0
0.709015 0.088320 0.329447 0 127 127
-0.368665 -0.378995 0.030634 0 255 0
-0.715809 -0.232731 -0.200945 0 255 0
-0.413422 0.440051 0.242245 0 255 0
-0.373426 -0.563347 0.360719 0 255 0
0.685598 0.440051 0.198885 0 255 0
-0.575426 0.322903 0.384752 76 153 0
0.500357 -0.378995 0.139917 0 255 0
0.462722 -0.444164 0.329447 0 255 0
0.281421 -0.162127 0.384752 76 153 0
-0.055810 0.016910 0.384752 76 153 0
0.326897 -0.331591 0.161695 0 255 0
0.273684 -0.409948 0.329447 0 255 0
-0.707105 0.167984 0.384752 0 127 127
0.060290 -0.378995 -0.000380 0 255 0
-0.025461 -0.062138 0.384752 76 153 0
0.434941 -0.331591 -0.053332 0 255 0
0.199717 -0.378995 -0.460227 0 255 0
-0.450996 -0.378995 -0.224424 0 255 0
-0.214961 0.046375 -0.407958 0 255 0
-0.214652 0.382112 0.038665 0 255 0
0.384577 -0.331591 -0.271085 0 255 0
-0.661497 0.382112 0.057565 0 255 0
-0.290841 0.382112 0.314198 0 255 0
0.439695 0.002699 -0.407958 0 255 0
-0.391208 -0.324008 -0.407958 0 255 0
0.622473 -0.378995 -0.130852 0 255 0
-0.094078 0.382112 -0.091687 0 255 0
-0.663137 0.068014 -0.392641 0 255 0
-0.382033 0.303406 -0.460630 0 255 0
0.626764 0.382112 -0.000636 0 255 0
0.656711 -0.331591 0.053499 0 255 0
0.708062 0.440051 0.144903 0 255 0
0.384098 0.382112 -0.237538 0 255 0
-0.712443 -0.378995 0.187289 0 255 0
-0.645860 0.382112 -0.078476 0 255 0
-0.435807 0.440051 -0.291553 0 255 0
0.464400 -0.331591 -0.388930 0 255 0
-0.663137 -0.052668 0.134829 0 255 0
-0.522240 -0.331591 0.177998 0 255 0
-0.715809 -0.300314 0.211928 0 255 0
0.604691 0.129116 -0.407958 0 255 0
-0.496719 -0.286044 -0.407958 0 255 0
0.484986 -0.209637 -0.407958 0 255 0
0.462927 0.440051 0.267946 0 255 0
-0.237467 -0.559188 0.329447 0 255 0
0.583012 -0.193148 0.384752 76 153 0
0.500679 0.440051 -0.339010 0 255 0
-0.715809 0.058944 0.083118 0 255 0
-0.715809 0.025439 -0.035960 0 255 0
0.137497 -0.323690 -0.245783 76 0 153
-0.510305 -0.331591 0.086404 0 255 0
0.339852 -0.378995 -0.189802 0 255 0
0.217855 -0.378995 -0.197963 0 255 0
0.263664 -0.331591 -0.219746 0 255 0
-0.482508 0.440051 -0.328157 0 255 0
0.051362 0.382112 0.079601 0 255 0
-0.106501 -0.532716 0.384752 0 255 0
0.245842 0.382112 -0.044854 0 255 0
-0.128481 0.028161 0.384752 76 153 0
-0.211536 0.440051 -0.372067 0 255 0
-0.603881 -0.119958 0.369048 0 127 127
0.287036 0.382112 -0.041085 0 255 0
0.706329 -0.023619 -0.183213 0 255 0
0.784961 -0.563347 0.344845 0 255 0
0.805089 -0.442997 0.350925 0 255 0
0.279190 0.440051 0.055002 0 255 0
-0.205858 -0.378995 -0.258019 0 255 0
-0.588935 -0.378995 -0.421068 0 255 0
-0.757041 -0.082819 0.329447 0 127 127
-0.424454 -0.331591 0.197220 0 255 0
0.415563 -0.331591 -0.205131 0 255 0
-0.704409 -0.378995 -0.349098 0 255 0
-0.158761 0.321022 -0.407958 0 255 0
-0.657991 0.382112 -0.322964 0 255 0
-0.715809 -0.346451 -0.037914 0 255 0
0.255149 0.335768 -0.407958 0 255 0
-0.715809 0.388878 -0.335445 0 255 0
-0.663137 -0.001974 -0.234483 0 255 0
-0.195668 0.376845 0.358967 0 127 127
-0.029325 -0.378995 -0.438118 0 255 0
-0.663137 -0.327096 0.245429 0 255 0
-0.204095 -0.404357 0.329447 0 255 0
0.759001 -0.024303 0.080159 0 255 0
0.156209 -0.213572 0.384752 76 153 0
-0.663137 0.115526 -0.095820 0 255 0
0.471313 0.153879 0.384752 76 153 0
-0.573511 0.213182 -0.407958 0 255 0
-0.465155 -0.331591 -0.062464 0 255 0
-0.622079 -0.331591 0.170270 0 255 0
-0.310263 -0.348522 0.329447 0 255 0
-0.651984 -0.378995 -0.120668 0 255 0
-0.306787 0.171738 0.384752 76 153 0
0.759001 0.275468 0.091647 0 255 0
-0.715809 -0.049697 -0.447846 0 255 0
0.053014 -0.297354 -0.168610 76 0 153
-0.327953 0.112166 -0.407958 0 255 0
0.700782 -0.328763 -0.407958 0 255 0
0.759001 0.093615 -0.430791 0 255 0
-0.497409 -0.061674 0.384752 76 153 0
0.558427 -0.331591 -0.046276 0 255 0
0.339006 -0.286206 -0.407958 0 255 0
0.284349 -0.331591 0.100512 0 255 0
0.632710 -0.337261 -0.460630 0 255 0
0.105978 -0.302092 -0.460630 0 255 0
0.706329 0.045428 -0.114476 0 255 0
-0.152131 -0.378995 0.014538 0 255 0
-0.498535 0.233984 -0.460630 0 255 0
-0.603369 -0.378995 -0.097561 0 255 0
0.336284 0.440051 0.230300 0 255 0
-0.359706 -0.109295 -0.407958 0 255 0
0.679817 0.117399 0.384752 0 127 127
0.108763 0.416047 0.329447 0 127 127
-0.550316 0.253329 0.384752 76 153 0
-0.290970 -0.103515 -0.407958 0 255 0
0.759001 0.404281 -0.212692 0 255 0
0.497931 -0.395634 0.329447 0 255 0
-0.391414 -0.253100 0.384752 76 153 0
-0.281044 -0.407003 0.384752 0 255 0
-0.651939 -0.175250 -0.407958 0 255 0
0.637593 -0.244837 0.384752 76 153 0
0.234932 -0.514265 0.384752 0 255 0
0.759001 -0.095958 0.111773 0 255 0
0.569153 0.382112 -0.178820 0 255 0
0.727188 -0.108024 0.384752 0 127 127
0.706329 -0.093991 -0.046769 0 255 0
-0.098446 -0.297354 -0.302931 76 0 153
-0.229256 -0.297354 0.108667 76 0 153
-0.646569 0.268285 0.329447 0 127 127
-0.316062 -0.331591 0.114688 0 255 0
-0.056228 -0.297354 0.020194 76 0 153
0.659076 0.278723 -0.407958 0 255 0
0.211752 -0.323690 -0.023831 76 0 153
0.386324 -0.331591 -0.085893 0 255 0
-0.530995 0.391171 0.384752 0 127 127
0.392471 0.382112 -0.096453 0 255 0
0.122221 0.028331 -0.407958 0 255 0
0.759001 -0.253893 0.212456 0 255 0
-0.663137 -0.077319 0.167544 0 255 0
-0.186699 0.440051 -0.444013 0 255 0
-0.590994 -0.241492 -0.460630 0 255 0
0.055447 -0.378995 0.187880 0 255 0
0.094381 -0.331591 0.340815 0 255 0
0.435750 -0.306272 -0.407958 0 255 0
0.759001 -0.375109 -0.209764 0 255 0
-0.265281 -0.331591 0.144810 0 255 0
0.759001 -0.107055 -0.182532 0 255 0
-0.715809 -0.301343 -0.369490 0 255 0
-0.607390 0.291933 -0.407958 0 255 0
-0.440172 0.440051 -0.243432 0 255 0
0.229473 0.440051 0.010040 0 255 0
0.055647 0.382112 -0.179126 0 255 0
-0.196665 -0.378995 -0.196012 0 255 0
-0.443510 0.382112 -0.369427 0 255 0
0.085550 -0.331591 -0.262182 0 255 0
0.740684 -0.243528 0.329447 0 255 0
-0.715809 0.102827 -0.011952 0 255 0
0.670774 0.229125 -0.460630 0 255 0
-0.400085 -0.331591 -0.035404 0 255 0
-0.656884 0.382112 -0.121664 0 255 0
0.805089 -0.395922 0.340859 0 255 0
0.759001 0.109573 0.187987 0 255 0
0.451290 -0.532041 0.329447 0 255 0
-0.308380 -0.257480 -0.407958 0 255 0
-0.731116 0.421616 0.338902 0 127 127
-0.057667 -0.331591 0.244316 0 255 0
-0.715809 0.409529 0.203362 0 255 0
0.694622 0.382112 -0.034249 0 255 0
0.112761 -0.297354 -0.195186 76 0 153
0.395436 0.382112 -0.338653 0 255 0
0.237162 0.440051 0.114400 0 255 0
-0.663137 0.109499 -0.289128 0 255 0
-0.052935 0.095397 -0.460630 0 255 0
0.551643 0.382112 0.082769 0 255 0
0.396453 0.418567 0.383002 0 127 127
-0.713887 0.440051 0.157329 0 255 0
0.411615 0.440051 -0.062226 0 255 0
0.072539 -0.331591 -0.399703 0 255 0
-0.524633 0.382112 -0.083005 0 255 0
0.624788 0.382112 -0.200783 0 255 0
0.706329 0.357179 0.178934 0 255 0
-0.715809 0.151061 0.133174 0 255 0
-0.715809 0.109919 0.317226 0 255 0
-0.463951 -0.378995 -0.336091 0 255 0
-0.672358 -0.522304 0.329447 0 255 0
-0.268188 0.112258 -0.460630 0 255 0
-0.560806 -0.331591 -0.004135 0 255 0
0.706329 0.121040 -0.157424 0 255 0
0.148740 0.333539 -0.460630 0 255 0
-0.725904 -0.331591 0.358415 0 255 0
0.161548 0.382112 -0.014182 0 255 0
0.725434 -0.378995 -0.359281 0 255 0
0.330951 -0.067382 0.384752 76 153 0
0.717936 0.440051 -0.214767 0 255 0
-0.251170 -0.211960 0.384752 76 153 0
-0.603881 -0.308128 0.348438 0 127 127
0.191358 -0.331591 0.159530 0 255 0
-0.761897 0.283456 0.349495 0 127 127
-0.715809 -0.111894 0.319859 0 255 0
0.177159 -0.378995 -0.022125 0 255 0
0.176941 -0.297354 -0.018164 76 0 153
-0.486771 0.382112 -0.127363 0 255 0
-0.287475 0.279178 -0.460630 0 255 0
0.706329 0.145944 0.041318 0 255 0
0.380288 0.389843 0.329447 0 255 0
-0.634567 0.440051 -0.300585 0 255 0
0.759001 -0.245128 0.093471 0 255 0
-0.715809 -0.279417 -0.295287 0 255 0
-0.408911 -0.378995 0.157523 0 255 0
0.706329 -0.307004 -0.198859 0 255 0
0.528442 -0.331591 0.247026 0 255 0
-0.715809 0.087318 -0.146978 0 255 0
0.706329 -0.287367 0.138322 0 255 0
-0.456780 -0.288561 -0.460630 0 255 0
-0.528675 -0.295713 0.384752 76 153 0
0.607889 0.251742 -0.460630 0 255 0
-0.004245 -0.372541 0.329447 0 255 0
-0.033166 0.271690 -0.407958 0 255 0
-0.715809 -0.104633 -0.402534 0 255 0
0.055633 0.138538 -0.407958 0 255 0
0.252791 -0.114049 0.384752 76 153 0
0.050318 -0.331591 -0.142116 0 255 0
-0.414944 0.406136 -0.460630 0 255 0
-0.567304 -0.331591 0.123601 0 255 0
0.706329 -0.325071 0.254036 0 255 0
-0.451513 -0.322063 0.384752 76 153 0
0.617407 -0.134535 0.384752 76 153 0
0.350933 -0.563347 0.355138 0 255 0
0.139375 -0.041608 -0.460630 0 255 0
0.179743 -0.331591 0.091969 0 255 0
0.691664 0.254458 0.384752 0 127 127
-0.715809 -0.116121 -0.115774 0 255 0
-0.715809 0.414229 -0.457384 0 255 0
-0.698788 0.440051 0.100600 0 255 0
0.706329 0.318620 -0.339651 0 255 0
0.467248 0.270929 -0.460630 0 255 0
-0.559548 0.014077 -0.407958 0 255 0
0.633244 0.440051 0.182485 0 255 0
-0.663137 0.163866 -0.294206 0 255 0
0.215980 -0.009018 -0.407958 0 255 0
-0.615772 0.440051 0.171208 0 255 0
-0.089231 0.440051 -0.359769 0 255 0
-0.433693 0.382112 -0.101164 0 255 0
-0.509940 -0.331591 -0.268861 0 255 0
-0.715809 0.058952 -0.291744 0 255 0
0.805089 0.154971 0.330596 0 127 127
-0.002829 -0.312989 -0.460630 0 255 0
-0.433039 0.005259 -0.460630 0 255 0
0.633678 0.290022 -0.460630 0 255 0
0.759001 -0.297057 -0.371078 0 255 0
-0.634554 -0.331591 -0.127788 0 255 0
-0.062757 -0.331591 0.147866 0 255 0
0.112197 0.440051 -0.137742 0 255 0
-0.663137 0.299589 0.097852 0 255 0
-0.574168 -0.382357 0.384752 0 255 0
0.659490 -0.378995 -0.117096 0 255 0
0.706329 0.135443 -0.206570 0 255 0
-0.304477 -0.408625 0.329447 0 255 0
0.220289 0.402303 -0.460630 0 255 0
0.759001 -0.222038 -0.036516 0 255 0
-0.516845 0.355107 0.384752 76 153 0
0.123767 0.382112 0.178857 0 255 0
-0.436744 0.382112 -0.156184 0 255 0
-0.569217 -0.331591 -0.249233 0 255 0
0.138757 -0.297354 -0.047662 76 0 153
-0.000056 0.440051 0.213483 0 255 0
-0.378317 -0.378995 0.144350 0 255 0
-0.051612 0.376845 0.353333 0 127 127
0.226002 -0.297354 -0.243908 76 0 153
0.189996 0.021077 -0.460630 0 255 0
-0.128348 -0.317147 -0.460630 0 255 0
0.492609 0.272750 -0.407958 0 255 0
-0.663137 -0.220322 -0.164647 0 255 0
-0.009488 0.440051 -0.383300 0 255 0
0.417961 0.147616 -0.460630 0 255 0
0.038108 -0.036006 0.384752 76 153 0
0.672116 0.405925 0.384752 0 127 127
-0.715809 -0.296818 -0.110702 0 255 0
0.349504 -0.413452 0.329447 0 255 0
-0.507794 0.309536 -0.460630 0 255 0
-0.503676 0.382112 0.100145 0 255 0
0.706329 -0.238804 -0.348325 0 255 0
-0.347115 -0.378995 -0.019492 0 255 0
-0.055826 0.360810 -0.460630 0 255 0
-0.733983 0.069891 0.329447 0 127 127
0.583860 -0.004557 0.384752 76 153 0
-0.725846 0.245484 0.384752 0 127 127
-0.426121 -0.521383 0.384752 0 255 0
0.759001 0.079813 0.092633 0 255 0
0.235096 0.071900 0.384752 76 153 0
-0.082953 0.195057 -0.460630 0 255 0
-0.663137 0.065220 -0.355633 0 255 0
-0.269699 0.382112 -0.179269 0 255 0
0.647074 0.363896 0.377771 0 127 127
-0.715809 -0.122527 0.236274 0 255 0
-0.078296 -0.486486 0.329447 0 255 0
0.182611 0.440051 -0.270949 0 255 0
-0.663137 0.057985 0.228389 0 255 0
-0.640460 -0.378995 0.047689 0 255 0
-0.116774 0.097128 0.384752 76 153 0
-0.343943 -0.378995 -0.385356 0 255 0
0.805089 -0.263271 0.338675 0 127 127
0.664496 -0.378995 -0.181092 0 255 0
-0.190408 -0.234711 -0.407958 0 255 0
-0.455170 -0.346384 -0.460630 0 255 0
0.759001 0.212817 0.071897 0 255 0
0.002078 -0.396369 0.388439 127 127 0
-0.131548 -0.297354 -0.131862 76 0 153
-0.663137 -0.295494 0.287204 0 255 0
0.182635 0.230192 -0.460630 0 255 0
0.384581 -0.378995 -0.258292 0 255 0
0.197476 -0.113888 0.384752 76 153 0
-0.631515 0.442685 0.361659 0 255 0
0.221866 -0.323690 0.011239 76 0 153
-0.303169 0.440051 -0.141068 0 255 0
0.706329 -0.329116 -0.125380 0 255 0
-0.659374 -0.331591 0.361260 0 255 0
-0.715809 -0.174871 -0.415447 0 255 0
-0.483241 0.050133 0.384752 76 153 0
0.706329 0.328217 0.091541 0 255 0
-0.690971 -0.302969 0.329447 0 127 127
0.080028 0.440051 -0.110988 0 255 0
-0.184662 -0.331591 -0.223480 0 255 0
0.364148 -0.157697 0.384752 76 153 0
0.490487 0.382112 0.085017 0 255 0
-0.318640 -0.378995 0.112695 0 255 0
0.604298 0.440051 -0.431928 0 255 0
0.286405 0.382112 -0.202704 0 255 0
-0.715809 0.146112 -0.003084 0 255 0
0.027872 0.208401 -0.460630 0 255 0
-0.183507 0.382112 0.014710 0 255 0
0.463629 -0.331591 -0.103789 0 255 0
0.759001 0.131822 -0.119971 0 255 0
0.523624 -0.333913 -0.460630 0 255 0
-0.663137 0.004691 0.023271 0 255 0
0.358091 -0.080719 -0.407958 0 255 0
-0.715809 -0.159425 -0.170311 0 255 0
0.656352 -0.048690 -0.460630 0 255 0
-0.715809 0.053951 0.264201 0 255 0
-0.663137 0.328000 0.160495 0 255 0
-0.574030 0.104514 0.384752 76 153 0
0.706329 -0.021723 -0.380920 0 255 0
-0.637426 0.105077 -0.407958 0 255 0
-0.715809 0.277509 0.207235 0 255 0
0.382472 0.305802 -0.407958 0 255 0
-0.248847 -0.547639 0.384752 0 255 0
0.705788 0.351992 -0.407958 0 255 0
-0.715809 0.438695 -0.017856 0 255 0
-0.625812 0.440051 -0.373793 0 255 0
-0.281302 0.382112 0.041981 0 255 0
-0.615522 -0.008744 0.329447 0 127 127
0.759001 0.264972 -0.033571 0 255 0
-0.333996 -0.397109 0.384752 0 255 0
0.260172 -0.297354 -0.049068 76 0 153
-0.613437 -0.331591 -0.347846 0 255 0
0.525542 -0.182060 0.384752 76 153 0
-0.611842 0.316785 0.329447 0 127 127
-0.561155 -0.545310 0.329447 0 255 0
-0.663137 -0.155136 0.299215 0 255 0
0.690560 0.440051 -0.145764 0 255 0
0.222843 0.235629 -0.407958 0 255 0
0.075258 -0.323690 -0.175803 76 0 153
-0.290660 -0.378995 0.029108 0 255 0
-0.022577 0.359622 0.384752 76 153 0
0.461023 0.440051 -0.187073 0 255 0
0.243238 0.440051 0.264778 0 255 0
-0.715809 0.347112 0.066379 0 255 0
-0.485536 0.118659 -0.460630 0 255 0
0.050405 0.340322 -0.407958 0 255 0
0.247248 0.440051 -0.305859 0 255 0
-0.715809 0.070407 -0.005480 0 255 0
0.465677 -0.292508 -0.460630 0 255 0
0.706329 -0.061396 0.129979 0 255 0
0.706329 0.285212 -0.367560 0 255 0
0.759001 -0.233293 0.300648 0 255 0
0.294057 0.440051 -0.358877 0 255 0
-0.628304 0.355926 -0.407958 0 255 0
0.550999 -0.331591 -0.338110 0 255 0
0.633058 0.440051 0.054283 0 255 0
-0.172880 0.382112 0.309249 0 255 0
-0.475083 -0.192821 -0.460630 0 255 0
-0.663137 0.166703 0.143798 0 255 0
0.163732 -0.336750 -0.460630 0 255 0
0.706329 -0.187679 0.035403 0 255 0
0.315898 0.121830 -0.407958 0 255 0
-0.715809 0.428502 -0.096689 0 255 0
0.678020 -0.189987 0.329447 0 127 127
0.759001 -0.358723 0.319119 0 255 0
-0.017340 0.084296 -0.460630 0 255 0
-0.401216 0.440051 -0.428478 0 255 0
0.108221 0.382112 -0.270433 0 255 0
0.706329 -0.255164 0.230190 0 255 0
0.208416 -0.216647 -0.460630 0 255 0
0.431179 -0.099667 -0.407958 0 255 0
-0.431335 -0.201661 -0.407958 0 255 0
0.630051 -0.292969 -0.460630 0 255 0
-0.663137 -0.234568 0.177672 0 255 0
-0.518367 -0.260269 -0.460630 0 255 0
0.571142 -0.331591 0.371853 0 255 0
-0.663137 -0.030777 0.049534 0 255 0
0.696073 0.396965 0.329447 0 255 0
-0.366525 -0.331591 0.300867 0 255 0
0.090673 0.382112 -0.145948 0 255 0
-0.331650 0.440051 -0.333162 0 255 0
-0.207752 -0.331591 -0.137541 0 255 0
-0.663137 -0.285242 -0.283586 0 255 0
-0.199507 -0.135768 -0.460630 0 255 0
0.759001 -0.115273 -0.367430 0 255 0
-0.108076 0.382112 -0.184926 0 255 0
-0.118975 0.440051 -0.101960 0 255 0
-0.418591 -0.331591 0.069376 0 255 0
0.352726 0.382112 -0.247180 0 255 0
0.473567 0.235780 -0.407958 0 255 0
-0.019487 -0.378995 -0.236321 0 255 0
-0.715809 0.309991 -0.381376 0 255 0
-0.697993 -0.416818 0.384752 0 255 0
-0.663137 0.129569 -0.363550 0 255 0
-0.102525 -0.378995 -0.410562 0 255 0
-0.585002 -0.331591 0.282254 0 255 0
-0.466848 -0.331591 -0.384277 0 255 0
0.759001 0.054360 0.143015 0 255 0
0.297156 0.382112 0.228307 0 255 0
0.766570 -0.160250 0.384752 0 127 127
0.769741 -0.473660 0.329447 0 255 0
0.668526 -0.010974 -0.460630 0 255 0
0.759001 0.198355 0.310346 0 255 0
-0.144090 0.440051 -0.346045 0 255 0
0.514357 0.418028 -0.460630 0 255 0
-0.371542 -0.346602 0.384752 0 255 0
0.760838 -0.389712 0.329447 0 255 0
0.754965 -0.378995 0.030108 0 255 0
0.130898 -0.331591 -0.363623 0 255 0
0.343599 0.059077 -0.460630 0 255 0
0.277913 -0.378995 0.125865 0 255 0
-0.712806 0.092735 0.384752 0 127 127
-0.444531 0.114404 -0.460630 0 255 0
0.569297 -0.463731 0.329447 0 255 0
0.569145 0.345645 0.384752 76 153 0
-0.317642 0.290872 -0.460630 0 255 0
0.546743 -0.331591 0.303853 0 255 0
-0.502797 0.382112 0.200206 0 255 0
0.686467 0.421616 0.360369 0 127 127
0.706329 -0.165131 0.075505 0 255 0
0.716104 0.440051 -0.419578 0 255 0
-0.315837 -0.331591 -0.199956 0 255 0
0.665641 0.065173 0.384752 0 127 127
-0.715809 0.211002 -0.004879 0 255 0
-0.218000 0.226892 -0.460630 0 255 0
0.027520 -0.331591 0.293777 0 255 0
0.759001 0.221254 -0.166498 0 255 0
-0.535020 0.382112 0.247825 0 255 0
-0.224677 -0.387527 0.384752 0 255 0
-0.228148 -0.378995 0.133126 0 255 0
-0.117160 -0.331591 0.308604 0 255 0
-0.663137 -0.228402 0.024463 0 255 0
-0.587602 0.044376 0.384752 76 153 0
-0.715809 -0.032919 -0.342111 0 255 0
0.336329 0.155776 0.384752 76 153 0
-0.757656 0.442685 0.331578 0 255 0
-0.715809 -0.284450 0.016860 0 255 0
-0.715809 -0.263639 -0.434960 0 255 0
0.759001 0.236470 0.108235 0 255 0
0.759001 -0.197923 -0.271584 0 255 0
-0.193344 0.382112 -0.316720 0 255 0
0.476588 -0.204688 -0.460630 0 255 0
0.223202 0.127040 -0.407958 0 255 0
0.805089 -0.145957 0.348211 0 127 127
-0.627824 0.382112 0.124852 0 255 0
0.048305 -0.082890 -0.407958 0 255 0
-0.397781 0.382112 0.141697 0 255 0
-0.073609 0.235106 -0.407958 0 255 0
0.195291 -0.040475 -0.460630 0 255 0
-0.101295 0.424235 -0.460630 0 255 0
0.171146 -0.519623 0.384752 0 255 0
-0.287551 0.410279 0.329447 0 127 127
0.545916 0.382112 -0.365062 0 255 0
0.054409 0.307637 0.384752 76 153 0
-0.368964 0.440051 0.281051 0 255 0
0.085988 -0.093087 -0.460630 0 255 0
-0.043919 0.440051 -0.078868 0 255 0
0.602548 0.440051 -0.289417 0 255 0
-0.663137 0.004298 -0.058719 0 255 0
-0.715809 -0.333290 0.153204 0 255 0
-0.255300 0.380916 -0.460630 0 255 0
0.367937 -0.378995 0.103756 0 255 0
0.251473 0.094468 -0.407958 0 255 0
0.366037 -0.331591 -0.218774 0 255 0
0.805089 0.299347 0.355151 0 127 127
-0.528668 0.053394 0.384752 76 153 0
0.706329 0.104709 0.279777 0 255 0
0.065663 -0.378995 0.141155 0 255 0
-0.571216 -0.370780 0.329447 0 255 0
0.699857 -0.378995 0.042273 0 255 0
0.697723 -0.476441 0.329447 0 255 0
0.228058 -0.297354 0.074729 76 0 153
0.647074 0.239577 0.339182 0 127 127
0.657249 -0.331591 -0.180419 0 255 0
-0.184601 0.002375 0.384752 76 153 0
0.321715 -0.313585 -0.109045 76 0 153
0.706329 0.161168 0.105897 0 255 0
-0.019088 -0.297354 0.123600 76 0 153
-0.578592 0.166726 0.384752 76 153 0
0.706329 0.231955 0.052832 0 255 0
0.773224 -0.085274 0.329447 0 127 127
0.759001 0.294810 0.298267 0 255 0
0.198686 -0.171861 -0.407958 0 255 0
0.426194 0.061853 0.384752 76 153 0
0.706329 0.267262 -0.121190 0 255 0
0.759001 -0.298844 0.095801 0 255 0
-0.152044 -0.378995 -0.205105 0 255 0
0.614796 0.382112 -0.130652 0 255 0
0.177830 -0.320344 -0.407958 0 255 0
-0.663137 -0.240206 -0.379474 0 255 0
0.314358 0.401461 0.329447 0 255 0
0.564481 0.436870 0.384752 0 255 0
-0.626687 -0.331591 0.248532 0 255 0
-0.331172 0.440051 0.028151 0 255 0
0.446976 -0.021091 0.384752 76 153 0
-0.193144 0.021121 -0.460630 0 255 0
-0.214625 -0.378995 -0.436052 0 255 0
0.251737 0.002551 -0.460630 0 255 0
0.082415 -0.297354 0.027595 76 0 153
0.163295 0.279869 -0.407958 0 255 0
-0.092519 0.440051 0.251726 0 255 0
0.315806 -0.331591 -0.000326 0 255 0
0.799182 -0.030865 0.384490 0 127 127
-0.620027 0.172770 0.329447 0 127 127
-0.330568 0.440051 0.298958 0 255 0
0.076808 -0.378995 0.220690 0 255 0
-0.492575 0.438169 0.384752 0 255 0
-0.093909 -0.355231 -0.460630 0 255 0
0.248448 0.440051 -0.065970 0 255 0
0.245369 -0.277168 -0.407958 0 255 0
-0.715809 0.244668 -0.063997 0 255 0
0.409392 0.382112 0.150089 0 255 0
-0.245311 -0.331591 0.211839 0 255 0
0.759001 -0.267677 -0.299602 0 255 0
-0.284980 -0.563347 0.362579 0 255 0
0.464728 0.440051 -0.022935 0 255 0
-0.670711 -0.210728 0.329447 0 255 0
0.341223 0.245344 -0.407958 0 255 0
0.572117 0.272131 -0.460630 0 255 0
0.680598 0.382112 0.127324 0 255 0
-0.682541 0.440051 -0.359547 0 255 0
0.028761 0.246173 -0.407958 0 255 0
0.738227 0.442685 0.381697 0 255 0
-0.326911 -0.331591 0.006188 0 255 0
-0.653606 -0.255525 0.384752 0 127 127
-0.549934 -0.285373 -0.460630 0 255 0
-0.250052 -0.056240 -0.460630 0 255 0
-0.284022 0.440051 -0.293060 0 255 0
0.310987 0.139603 -0.460630 0 255 0
-0.663137 0.238314 0.304153 0 255 0
-0.170526 0.418779 0.329447 0 255 0
0.456886 0.382112 -0.212097 0 255 0
-0.561297 -0.378995 0.240430 0 255 0
0.596721 0.434784 0.346170 0 255 0
0.061839 -0.331591 0.045910 0 255 0
0.226072 -0.176402 0.384752 76 153 0
-0.238762 0.440051 -0.389379 0 255 0
-0.378971 -0.268320 -0.407958 0 255 0
0.754394 -0.378995 -0.020259 0 255 0
-0.243767 -0.378995 -0.308843 0 255 0
0.471812 0.219517 -0.460630 0 255 0
0.065764 -0.331591 0.160818 0 255 0
0.613741 -0.292097 -0.407958 0 255 0
-0.715809 0.118044 -0.296947 0 255 0
0.125647 0.084115 0.384752 76 153 0
-0.684923 0.305001 0.329447 0 255 0
-0.663137 0.324944 -0.219059 0 255 0
0.326160 0.440051 -0.434683 0 255 0
0.706329 0.071554 0.158031 0 255 0
-0.568363 0.138077 -0.460630 0 255 0
0.493464 -0.378995 -0.266994 0 255 0
-0.520222 -0.331591 0.133380 0 255 0
-0.240633 0.440051 0.313764 0 255 0
-0.069446 0.299618 -0.460630 0 255 0
0.648902 0.077700 -0.460630 0 255 0
0.715519 -0.496351 0.384752 0 255 0
0.759001 -0.011573 0.201132 0 255 0
0.702733 -0.326324 0.354145 0 127 127
0.414142 0.148805 0.384752 76 153 0
0.599503 0.379956 -0.407958 0 255 0
0.759001 -0.182467 -0.023790 0 255 0
-0.503772 0.111338 0.384752 76 153 0
-0.375084 0.440051 -0.018871 0 255 0
0.029589 -0.196402 0.384752 76 153 0
0.538977 -0.378995 -0.129263 0 255 0
-0.132023 0.404073 -0.460630 0 255 0
0.109765 -0.378995 0.141128 0 255 0
0.074182 0.382112 0.172841 0 255 0
-0.078780 0.382112 0.081223 0 255 0
-0.645398 -0.378995 0.123554 0 255 0
0.248083 0.411601 0.329447 0 255 0
0.706329 -0.286050 -0.006112 0 255 0
-0.616420 -0.416198 0.329447 0 255 0
-0.285204 0.191555 -0.407958 0 255 0
0.099712 -0.378995 -0.087426 0 255 0
-0.009474 -0.157723 -0.407958 0 255 0
0.411300 0.005909 0.384752 76 153 0
0.264098 -0.226438 0.384752 76 153 0
0.629955 0.421616 0.362481 0 127 127
0.743440 -0.378995 0.150040 0 255 0
0.537210 0.300813 -0.407958 0 255 0
-0.715809 -0.330445 -0.235047 0 255 0
-0.077580 0.382112 -0.373208 0 255 0
-0.227601 -0.297354 -0.084820 76 0 153
0.183496 -0.363529 0.384752 0 255 0
-0.465526 -0.331591 -0.126712 0 255 0
-0.293453 0.440051 -0.415422 0 255 0
0.706329 0.327754 0.025016 0 255 0
-0.429841 0.440051 0.099540 0 255 0
-0.589484 0.440051 -0.123342 0 255 0
0.113401 0.175075 0.384752 76 153 0
-0.399787 0.147163 -0.407958 0 255 0
0.759001 0.194289 -0.407545 0 255 0
-0.663137 0.248448 -0.394408 0 255 0
-0.652561 -0.257541 -0.460630 0 255 0
-0.663137 0.207860 -0.124019 0 255 0
0.094331 -0.159046 0.384752 76 153 0
-0.175713 -0.353296 0.329447 0 255 0
0.401114 0.360229 -0.460630 0 255 0
0.731649 0.440051 0.326691 0 255 0
-0.263432 -0.247679 -0.407958 0 255 0
0.759001 -0.107971 -0.064491 0 255 0
0.759001 0.401423 -0.021705 0 255 0
0.759001 -0.055058 -0.003889 0 255 0
0.706329 -0.317915 -0.061595 0 255 0
0.285498 0.262984 -0.407958 0 255 0
-0.216789 0.347265 -0.407958 0 255 0
0.759001 0.244219 -0.230484 0 255 0
0.119094 0.231273 -0.460630 0 255 0
0.121741 -0.374974 0.388439 127 127 0
-0.663137 0.366561 -0.223410 0 255 0
-0.663137 -0.210717 -0.037948 0 255 0
-0.123146 0.371296 -0.460630 0 255 0
-0.389092 -0.331591 -0.354535 0 255 0
-0.220920 0.236960 -0.407958 0 255 0
-0.388923 -0.378995 -0.270793 0 255 0
-0.295638 0.440051 -0.040927 0 255 0
-0.663137 -0.232469 0.244610 0 255 0
-0.479943 -0.378471 -0.460630 0 255 0
-0.090505 -0.378995 -0.048383 0 255 0
0.698283 -0.331591 0.051362 0 255 0
-0.113130 -0.378995 -0.102805 0 255 0
0.307073 0.440051 -0.186505 0 255 0
0.390837 0.382112 0.016973 0 255 0
0.114491 -0.024845 0.384752 76 153 0
-0.355287 0.108603 0.384752 76 153 0
0.706329 0.371403 0.253259 0 255 0
-0.491619 0.440051 0.324255 0 255 0
-0.104880 -0.447289 0.329447 0 255 0
-0.525534 -0.316508 -0.407958 0 255 0
0.759001 0.138637 0.049051 0 255 0
-0.268690 -0.279979 -0.407958 0 255 0
0.273969 0.382112 -0.332107 0 255 0
0.632778 0.069184 0.384752 76 153 0
0.593728 -0.378995 -0.205977 0 255 0
0.354330 -0.113487 -0.407958 0 255 0
0.220380 -0.378995 -0.381053 0 255 0
0.286646 0.440051 -0.069744 0 255 0
-0.427754 -0.344685 0.329447 0 255 0
-0.126480 -0.053803 -0.460630 0 255 0
0.020416 0.382112 0.139441 0 255 0
-0.090883 0.259055 -0.460630 0 255 0
-0.088590 0.382112 0.254579 0 255 0
-0.255988 0.382112 0.110715 0 255 0
0.549912 -0.331591 0.271926 0 255 0
0.545007 0.440051 -0.056470 0 255 0
-0.541411 -0.378995 -0.326382 0 255 0
0.759001 0.112826 -0.203977 0 255 0
0.278891 0.440051 0.291250 0 255 0
-0.087512 -0.139267 0.384752 76 153 0
0.075342 0.440051 -0.455090 0 255 0
0.660153 0.382112 -0.380176 0 255 0
-0.169287 0.134379 -0.460630 0 255 0
0.343178 0.440051 -0.271370 0 255 0
0.050191 -0.482092 0.386596 0 255 0
-0.058190 -0.045331 -0.460630 0 255 0
-0.161589 -0.331591 0.191503 0 255 0
-0.373557 0.397495 -0.460630 0 255 0
0.377233 -0.367636 0.384752 0 255 0
0.709793 0.268064 -0.460630 0 255 0
-0.184209 0.144509 0.384752 76 153 0
0.706329 0.193078 0.207881 0 255 0
0.135279 -0.068119 0.384752 76 153 0
0.543749 0.300745 0.384752 76 153 0
0.119416 0.421616 0.365359 0 127 127
0.163800 -0.331591 0.027365 0 255 0
0.706329 0.378254 -0.242968 0 255 0
-0.156570 -0.331591 -0.334862 0 255 0
0.226560 -0.331591 0.121573 0 255 0
-0.424321 -0.306209 0.384752 76 153 0
-0.429693 -0.099731 0.384752 76 153 0
0.124045 0.440051 -0.173890 0 255 0
0.294974 0.046212 0.384752 76 153 0
0.764653 0.258727 0.384752 0 127 127
-0.663137 0.060627 -0.106292 0 255 0
-0.189619 0.440051 0.038540 0 255 0
0.297997 -0.535253 0.329447 0 255 0
-0.663137 0.354757 0.095291 0 255 0
-0.410175 0.279647 0.384752 76 153 0
-0.715809 0.328606 -0.038295 0 255 0
0.508213 -0.331591 -0.122963 0 255 0
-0.291095 -0.378995 0.261394 0 255 0
-0.040313 -0.323690 0.184304 76 0 153
-0.489038 -0.378995 0.255791 0 255 0
-0.392455 -0.204664 -0.407958 0 255 0
0.223712 0.382112 -0.016974 0 255 0
-0.205026 0.382112 0.200578 0 255 0
0.759001 -0.300808 0.128363 0 255 0
0.104611 -0.331591 -0.117076 0 255 0
-0.144700 0.265221 -0.407958 0 255 0
-0.356142 -0.378995 -0.180132 0 255 0
0.151780 -0.297354 -0.255264 76 0 153
0.539495 0.440051 -0.253511 0 255 0
0.402837 0.382112 0.259277 0 255 0
0.146616 -0.297354 -0.109309 76 0 153
-0.519594 -0.508549 0.329447 0 255 0
-0.550850 -0.247195 0.384752 76 153 0
-0.042318 -0.331591 -0.064864 0 255 0
-0.370881 0.440051 0.099728 0 255 0
0.411574 0.216809 -0.460630 0 255 0
-0.104332 -0.323690 -0.156039 76 0 153
-0.651223 -0.046378 -0.460630 0 255 0
0.706329 -0.292728 -0.255232 0 255 0
0.235684 -0.279340 -0.460630 0 255 0
-0.028396 -0.378995 -0.121490 0 255 0
0.050895 0.382112 -0.069276 0 255 0
-0.438748 -0.031340 -0.407958 0 255 0
0.664677 0.440051 -0.049930 0 255 0
-0.490916 0.372751 -0.460630 0 255 0
0.519095 0.382112 0.302418 0 255 0
0.221398 -0.297354 -0.105707 76 0 153
-0.385196 -0.082221 -0.460630 0 255 0
0.295936 -0.331591 0.379411 0 255 0
0.330465 -0.297995 -0.044816 76 0 153
-0.066733 0.421616 0.340270 0 127 127
0.706329 0.075566 -0.149395 0 255 0
0.683685 0.382112 -0.083453 0 255 0
-0.582759 -0.378995 0.269762 0 255 0
0.264337 0.431263 0.384752 0 255 0
-0.275620 0.077040 0.384752 76 153 0
-0.023184 -0.331591 -0.404295 0 255 0
0.448543 -0.226525 -0.460630 0 255 0
-0.502412 0.440051 0.185729 0 255 0
0.465040 0.440051 -0.096792 0 255 0
0.759001 0.302736 -0.383288 0 255 0
-0.310808 -0.331591 -0.125116 0 255 0
0.105711 0.148164 -0.407958 0 255 0
0.759001 -0.139377 -0.431679 0 255 0
0.559208 -0.095694 -0.460630 0 255 0
0.684830 -0.173258 -0.460630 0 255 0
0.634790 -0.331591 -0.106007 0 255 0
-0.715809 0.349807 -0.084695 0 255 0
-0.590564 0.192812 -0.460630 0 255 0
-0.715809 -0.307931 -0.047044 0 255 0
-0.526241 -0.096860 -0.460630 0 255 0
0.438180 -0.378995 0.243656 0 255 0
-0.369755 -0.358380 0.329447 0 255 0
0.587716 0.314431 -0.460630 0 255 0
-0.663137 0.277913 0.182357 0 255 0
-0.663137 -0.319503 -0.308033 0 255 0
0.265488 -0.331591 0.169117 0 255 0
0.212223 -0.511788 0.329447 0 255 0
0.225780 0.382112 0.249627 0 255 0
0.223566 -0.378995 -0.231940 0 255 0
0.706329 -0.057220 -0.259198 0 255 0
0.394364 -0.219953 0.384752 76 153 0
-0.715809 0.319496 0.158779 0 255 0
0.129353 0.382112 0.299004 0 255 0
-0.130762 -0.331591 0.079303 0 255 0
0.759001 0.087628 -0.150375 0 255 0
-0.761897 -0.559964 0.353498 0 255 0
0.706329 0.152866 -0.349786 0 255 0
0.377632 -0.331591 -0.314690 0 255 0
0.584273 0.407365 0.384752 0 127 127
-0.019518 -0.502578 0.384752 0 255 0
-0.112973 0.440051 0.174986 0 255 0
0.675657 -0.378995 0.102656 0 255 0
0.357754 0.440051 0.188654 0 255 0
-0.624174 -0.088932 -0.407958 0 255 0
