ply
format ascii 1.0
element vertex 617
property float x
property float y
property float z
property float nx
property float ny
property float nz
property uchar red
property uchar green
property uchar blue
property float opacity
end_header
0.097312 -0.449127 0.117693 0.000000 1.000000 0.000000 255 255 255 1.000000
-0.041315 0.017003 0.102832 -0.000000 -1.000000 0.000000 255 255 255 1.000000
-0.094500 -0.650085 -0.228828 0.000000 -0.000000 -1.000000 255 255 255 1.000000
-0.248618 0.544066 0.002245 1.000000 0.000000 0.000000 255 255 255 1.000000
-0.146260 -0.449127 0.083914 0.000000 1.000000 0.000000 255 255 255 1.000000
-0.123778 0.761198 -0.228828 0.000000 -0.000000 -1.000000 255 255 255 1.000000
-0.110709 0.173746 0.245972 0.000000 0.000000 1.000000 249 194 125 1.000000
0.088881 0.928449 -0.106242 0.000000 -1.000000 0.000000 255 255 255 1.000000
0.235288 -0.483602 -0.026343 -1.000000 -0.000000 0.000000 255 255 255 1.000000
0.250898 -0.439713 0.033916 1.000000 0.000000 0.000000 255 197 126 1.000000
-0.031111 0.277383 0.245972 0.000000 0.000000 -1.000000 247 189 122 1.000000
0.250898 0.574127 -0.107556 1.000000 0.000000 0.000000 246 191 122 1.000000
0.098235 -0.917858 -0.023485 -0.000000 1.000000 -0.000000 255 255 255 1.000000
-0.248618 -0.086398 -0.004955 -1.000000 -0.000000 0.000000 251 197 128 1.000000
-0.233008 -0.356735 0.126421 1.000000 0.000000 0.000000 255 255 255 1.000000
-0.108729 -0.141954 -0.234031 0.000000 -0.000000 -1.000000 255 255 255 1.000000
-0.016401 0.360781 -0.234031 0.000000 0.000000 1.000000 255 255 255 1.000000
0.210707 0.483133 -0.105242 0.000000 1.000000 0.000000 255 255 255 1.000000
0.205270 -0.449127 -0.098889 -0.000000 -1.000000 0.000000 255 255 255 1.000000
-0.176996 0.414472 -0.234031 0.000000 -0.000000 -1.000000 255 255 255 1.000000
0.181567 0.928449 0.043321 0.000000 -1.000000 0.000000 255 255 255 1.000000
-0.089365 -0.938671 0.008862 0.000000 -1.000000 0.000000 255 255 255 1.000000
-0.029122 0.120910 -0.228828 0.000000 -0.000000 -1.000000 255 255 255 1.000000
-0.031611 -0.469940 0.030500 -0.000000 -1.000000 0.000000 255 255 255 1.000000
-0.230563 0.187048 0.230362 0.000000 0.000000 -1.000000 255 255 255 1.000000
-0.149789 -0.738372 0.245972 0.000000 0.000000 1.000000 249 198 131 1.000000
0.029458 0.462319 0.105920 -0.000000 -1.000000 0.000000 255 255 255 1.000000
-0.248206 0.138676 -0.249641 0.000000 0.000000 1.000000 255 255 255 1.000000
0.243662 0.577572 0.245972 0.000000 0.000000 1.000000 247 193 125 1.000000
-0.096680 0.928449 -0.166619 0.000000 -1.000000 0.000000 255 255 255 1.000000
0.235288 -0.485378 -0.204587 -1.000000 -0.000000 0.000000 255 255 255 1.000000
0.160309 -0.884806 -0.228828 0.000000 0.000000 1.000000 255 255 255 1.000000
-0.066238 -0.833106 -0.249641 0.000000 -0.000000 -1.000000 255 255 255 1.000000
0.152530 0.017003 -0.068253 0.000000 1.000000 0.000000 255 255 255 1.000000
-0.052961 0.085931 0.230362 0.000000 0.000000 1.000000 244 187 119 1.000000
-0.233008 -0.468873 0.065826 -1.000000 0.000000 0.000000 255 255 255 1.000000
0.250898 -0.506466 -0.068218 1.000000 0.000000 0.000000 251 196 125 1.000000
0.203756 0.635255 -0.228828 0.000000 -0.000000 -1.000000 255 255 255 1.000000
0.081094 -0.263995 -0.234031 0.000000 -0.000000 -1.000000 255 255 255 1.000000
0.019758 -0.338253 0.230362 0.000000 0.000000 -1.000000 255 255 255 1.000000
-0.050045 0.483133 0.134074 0.000000 1.000000 0.000000 255 255 255 1.000000
-0.137424 0.189651 -0.228828 0.000000 0.000000 1.000000 255 255 255 1.000000
-0.233008 0.644862 -0.151066 -1.000000 -0.000000 0.000000 255 255 255 1.000000
-0.248618 0.597022 -0.219035 -1.000000 -0.000000 0.000000 248 193 122 1.000000
0.187632 -0.014626 -0.228828 0.000000 -0.000000 -1.000000 255 255 255 1.000000
-0.024886 0.483133 0.207717 0.000000 1.000000 0.000000 255 255 255 1.000000
0.101940 -0.938671 0.146267 -0.000000 1.000000 -0.000000 255 255 255 1.000000
0.214482 0.249909 -0.228828 0.000000 0.000000 1.000000 255 255 255 1.000000
0.149095 0.183169 0.230362 0.000000 0.000000 -1.000000 255 255 255 1.000000
0.073684 0.868408 -0.228828 0.000000 -0.000000 -1.000000 255 255 255 1.000000
-0.248618 0.855391 -0.104242 1.000000 0.000000 0.000000 255 255 255 1.000000
-0.248618 -0.619110 0.219041 -1.000000 -0.000000 0.000000 250 194 128 1.000000
0.121327 -0.412192 0.245972 0.000000 0.000000 1.000000 254 199 130 1.000000
-0.233008 -0.380895 0.164484 -1.000000 -0.000000 0.000000 255 255 255 1.000000
0.250898 0.399697 0.057868 -1.000000 -0.000000 0.000000 255 255 255 1.000000
-0.248618 -0.783311 -0.022100 -1.000000 -0.000000 0.000000 250 195 126 1.000000
0.112352 -0.893158 0.245972 0.000000 0.000000 -1.000000 248 200 129 1.000000
0.204216 0.949262 -0.040720 0.000000 -1.000000 0.000000 255 255 255 1.000000
0.235288 -0.606558 -0.168655 1.000000 0.000000 0.000000 255 255 255 1.000000
0.057923 -0.318396 -0.234031 0.000000 0.000000 1.000000 255 255 255 1.000000
0.092668 0.462319 0.099451 0.000000 1.000000 0.000000 255 255 255 1.000000
-0.247010 0.098119 -0.249641 0.000000 -0.000000 -1.000000 255 255 255 1.000000
0.196109 0.949262 -0.204553 -0.000000 1.000000 -0.000000 255 255 255 1.000000
-0.188709 -0.917858 0.050373 0.000000 -1.000000 0.000000 255 255 255 1.000000
0.235288 -0.254655 -0.143202 1.000000 0.000000 0.000000 255 255 255 1.000000
-0.233008 0.481859 -0.136263 1.000000 0.000000 0.000000 255 255 255 1.000000
0.250898 -0.235290 -0.193903 1.000000 0.000000 0.000000 252 194 127 1.000000
0.003997 -0.003810 0.180327 -0.000000 -1.000000 0.000000 255 255 255 1.000000
-0.233008 0.802987 -0.182153 1.000000 0.000000 0.000000 255 255 255 1.000000
-0.248618 0.281988 0.047775 1.000000 0.000000 0.000000 255 255 255 1.000000
-0.015937 -0.938671 0.164967 -0.000000 1.000000 -0.000000 255 255 255 1.000000
0.146634 0.468369 -0.228828 -0.000000 0.000000 -1.000000 255 255 255 1.000000
0.220211 0.855970 0.245972 0.000000 0.000000 -1.000000 247 181 112 1.000000
-0.248618 0.415580 -0.014144 -1.000000 -0.000000 0.000000 250 194 124 1.000000
0.235288 0.373721 -0.160357 1.000000 0.000000 0.000000 255 255 255 1.000000
-0.144375 -0.227621 0.245972 0.000000 0.000000 1.000000 248 196 128 1.000000
-0.248618 -0.209298 -0.152230 1.000000 0.000000 0.000000 255 255 255 1.000000
-0.227066 -0.320358 0.245972 0.000000 0.000000 -1.000000 253 199 125 1.000000
0.250898 -0.407859 0.088854 1.000000 0.000000 0.000000 243 189 122 1.000000
0.250898 -0.488987 0.094415 -1.000000 -0.000000 0.000000 255 255 255 1.000000
-0.080288 -0.911805 -0.249641 0.000000 -0.000000 -1.000000 255 255 255 1.000000
-0.248618 0.913442 -0.100840 -1.000000 -0.000000 0.000000 247 191 120 1.000000
0.170339 -0.153259 0.230362 0.000000 0.000000 -1.000000 255 255 255 1.000000
-0.248618 0.833573 -0.246585 -1.000000 -0.000000 0.000000 251 195 127 1.000000
0.250898 -0.657134 -0.166600 -1.000000 -0.000000 0.000000 255 255 255 1.000000
0.199584 0.321344 -0.228828 0.000000 0.000000 1.000000 255 255 255 1.000000
0.250898 0.628369 0.202278 -1.000000 -0.000000 0.000000 255 255 255 1.000000
-0.233008 0.462434 -0.247270 -1.000000 -0.000000 0.000000 255 255 255 1.000000
0.084438 0.845912 0.245972 0.000000 0.000000 1.000000 252 186 121 1.000000
-0.248618 -0.554547 0.193545 1.000000 0.000000 0.000000 255 255 255 1.000000
-0.206124 0.740113 -0.228828 0.000000 0.000000 1.000000 255 255 255 1.000000
-0.125074 0.017003 0.018639 -0.000000 -1.000000 0.000000 255 255 255 1.000000
-0.016575 0.462319 -0.096399 -0.000000 -1.000000 0.000000 255 255 255 1.000000
-0.234455 0.701367 -0.249641 0.000000 -0.000000 -1.000000 255 255 255 1.000000
-0.233008 0.752974 0.078329 -1.000000 -0.000000 0.000000 255 255 255 1.000000
-0.056383 -0.131690 0.230362 0.000000 0.000000 -1.000000 255 255 255 1.000000
-0.158904 0.253749 -0.228828 0.000000 -0.000000 -1.000000 255 255 255 1.000000
-0.248618 0.008107 0.029426 1.000000 0.000000 0.000000 255 255 255 1.000000
-0.003438 -0.853694 -0.249641 0.000000 -0.000000 -1.000000 255 255 255 1.000000
0.031593 -0.191232 0.230362 0.000000 0.000000 1.000000 249 196 127 1.000000
-0.006681 0.017003 0.046782 0.000000 1.000000 0.000000 255 255 255 1.000000
-0.248618 0.175140 -0.034507 1.000000 0.000000 0.000000 255 255 255 1.000000
0.235288 0.503892 -0.024047 -1.000000 -0.000000 0.000000 255 255 255 1.000000
-0.037977 -0.289726 0.245972 0.000000 0.000000 1.000000 250 194 127 1.000000
0.215185 0.373191 0.245972 0.000000 0.000000 -1.000000 248 183 110 1.000000
0.202391 -0.299154 -0.228828 0.000000 0.000000 1.000000 255 255 255 1.000000
-0.177002 0.462319 -0.184862 -0.000000 -1.000000 0.000000 255 255 255 1.000000
-0.233008 0.613047 0.156232 -1.000000 -0.000000 0.000000 255 255 255 1.000000
-0.063294 0.462319 0.207101 -0.000000 -1.000000 0.000000 255 255 255 1.000000
-0.247317 -0.427284 0.240577 1.000000 0.000000 0.000000 246 194 122 1.000000
0.250898 -0.666436 0.157169 -1.000000 -0.000000 0.000000 255 255 255 1.000000
0.119962 0.399396 -0.228828 0.000000 -0.000000 -1.000000 255 255 255 1.000000
0.099540 -0.462332 0.223858 0.000000 0.000000 1.000000 255 255 255 1.000000
-0.055537 -0.938671 -0.198168 0.000000 -1.000000 0.000000 255 255 255 1.000000
-0.158580 -0.856006 0.230362 0.000000 0.000000 -1.000000 255 255 255 1.000000
0.167946 0.184532 -0.228828 0.000000 0.000000 1.000000 255 255 255 1.000000
0.156796 -0.257343 -0.228828 0.000000 0.000000 1.000000 255 255 255 1.000000
-0.248618 0.794337 0.006775 -1.000000 -0.000000 0.000000 252 199 132 1.000000
-0.105156 0.406158 0.230362 0.000000 0.000000 1.000000 250 195 126 1.000000
-0.248618 0.265408 0.162347 -1.000000 -0.000000 0.000000 250 192 122 1.000000
-0.020274 -0.936069 0.238613 0.000000 -1.000000 0.000000 248 191 124 1.000000
-0.072455 0.928449 0.010866 -0.000000 1.000000 -0.000000 255 255 255 1.000000
0.016174 0.919647 -0.228828 0.000000 0.000000 1.000000 255 255 255 1.000000
-0.219746 0.774862 0.230362 0.000000 0.000000 -1.000000 255 255 255 1.000000
-0.233008 0.815112 -0.104853 1.000000 0.000000 0.000000 255 255 255 1.000000
-0.233008 0.274081 -0.211493 1.000000 0.000000 0.000000 255 255 255 1.000000
0.049868 0.462319 -0.193580 -0.000000 -1.000000 0.000000 255 255 255 1.000000
0.179086 0.914093 -0.234031 0.000000 -0.000000 -1.000000 255 255 255 1.000000
-0.068422 0.500455 -0.234031 0.000000 0.000000 1.000000 255 255 255 1.000000
-0.018117 0.823528 0.230362 0.000000 0.000000 1.000000 251 196 127 1.000000
-0.248618 -0.762743 -0.153727 1.000000 0.000000 0.000000 255 255 255 1.000000
-0.150722 0.949262 0.206954 -0.000000 1.000000 -0.000000 255 255 255 1.000000
0.148386 -0.917858 -0.024413 0.000000 -1.000000 0.000000 255 255 255 1.000000
0.044917 0.084287 0.245972 0.000000 0.000000 -1.000000 243 183 115 1.000000
0.217712 -0.329731 0.245972 0.000000 0.000000 1.000000 252 181 115 1.000000
-0.234448 0.231331 -0.249641 0.000000 0.000000 1.000000 255 255 255 1.000000
0.218398 -0.094688 0.245972 0.000000 0.000000 -1.000000 252 196 131 1.000000
-0.016225 0.928449 0.051136 -0.000000 1.000000 -0.000000 255 255 255 1.000000
0.088567 -0.762410 -0.228828 0.000000 0.000000 1.000000 255 255 255 1.000000
-0.046533 0.462319 -0.014229 0.000000 1.000000 0.000000 255 255 255 1.000000
0.246933 0.949262 -0.098230 -0.000000 1.000000 -0.000000 255 255 255 1.000000
-0.115463 -0.110254 0.230362 0.000000 0.000000 -1.000000 255 255 255 1.000000
0.250898 -0.747253 0.062381 1.000000 0.000000 0.000000 247 194 126 1.000000
0.037040 0.343573 0.230362 0.000000 0.000000 1.000000 254 198 127 1.000000
0.039158 -0.805222 0.230362 0.000000 0.000000 -1.000000 255 255 255 1.000000
0.043598 -0.917858 0.221553 0.000000 -1.000000 0.000000 255 255 255 1.000000
0.053186 -0.128679 0.230362 0.000000 0.000000 1.000000 249 198 129 1.000000
-0.173219 0.350243 -0.234031 0.000000 0.000000 1.000000 255 255 255 1.000000
-0.248618 0.933271 0.014187 1.000000 0.000000 0.000000 255 255 255 1.000000
0.235288 -0.098107 0.089189 -1.000000 -0.000000 0.000000 255 255 255 1.000000
0.168575 0.820201 0.230362 0.000000 0.000000 1.000000 249 191 122 1.000000
0.191881 -0.875967 0.230362 0.000000 0.000000 1.000000 247 196 126 1.000000
-0.248618 0.763259 -0.214510 1.000000 0.000000 0.000000 255 255 255 1.000000
-0.248618 0.655223 0.215029 -1.000000 -0.000000 0.000000 248 191 123 1.000000
-0.248618 0.513642 0.198207 -1.000000 -0.000000 0.000000 246 191 120 1.000000
-0.220135 -0.917858 -0.014964 -0.000000 1.000000 -0.000000 255 255 255 1.000000
0.019377 -0.469940 -0.063918 -0.000000 -1.000000 0.000000 255 255 255 1.000000
-0.233008 -0.772363 0.160619 -1.000000 -0.000000 0.000000 255 255 255 1.000000
-0.233008 -0.371298 -0.082830 1.000000 0.000000 0.000000 255 255 255 1.000000
0.235288 0.255545 0.079498 1.000000 0.000000 0.000000 255 255 255 1.000000
0.250898 0.188798 0.138590 -1.000000 -0.000000 0.000000 255 255 255 1.000000
-0.248618 -0.001985 0.182673 -1.000000 -0.000000 0.000000 251 194 126 1.000000
0.222882 0.949262 0.095287 0.000000 -1.000000 0.000000 255 255 255 1.000000
0.060403 0.462319 0.194341 -0.000000 -1.000000 0.000000 255 255 255 1.000000
0.112264 -0.917858 0.204310 0.000000 -1.000000 0.000000 255 255 255 1.000000
0.155901 0.462319 -0.051336 0.000000 1.000000 0.000000 255 255 255 1.000000
-0.233008 -0.648751 -0.212932 -1.000000 -0.000000 0.000000 255 255 255 1.000000
0.017728 0.949262 0.245666 0.000000 1.000000 0.000000 250 200 127 1.000000
0.220054 -0.229014 -0.228828 0.000000 -0.000000 -1.000000 255 255 255 1.000000
0.235288 0.246503 -0.055620 1.000000 0.000000 0.000000 255 255 255 1.000000
-0.072075 0.332868 0.230362 0.000000 0.000000 -1.000000 255 255 255 1.000000
0.235288 0.324766 -0.165152 -1.000000 -0.000000 0.000000 255 255 255 1.000000
0.004365 0.198715 0.230362 0.000000 0.000000 1.000000 251 196 127 1.000000
0.235288 -0.834698 0.195071 1.000000 0.000000 0.000000 255 255 255 1.000000
0.250898 0.562171 0.039220 -1.000000 -0.000000 0.000000 255 255 255 1.000000
0.250898 0.540520 -0.218915 -1.000000 -0.000000 0.000000 255 255 255 1.000000
-0.153903 0.171655 0.230362 0.000000 0.000000 -1.000000 255 255 255 1.000000
-0.233008 0.211362 -0.116658 -1.000000 -0.000000 0.000000 255 255 255 1.000000
-0.247317 0.383717 0.240398 1.000000 0.000000 0.000000 250 197 129 1.000000
-0.248618 -0.330007 -0.076416 1.000000 0.000000 0.000000 255 255 255 1.000000
0.250898 0.318475 -0.104618 -1.000000 -0.000000 0.000000 255 255 255 1.000000
0.250898 0.913355 0.215191 -1.000000 -0.000000 0.000000 255 255 255 1.000000
0.235288 0.376897 -0.099004 1.000000 0.000000 0.000000 255 255 255 1.000000
-0.087388 -0.449127 0.076891 -0.000000 -1.000000 0.000000 255 255 255 1.000000
-0.047754 0.949262 0.068663 -0.000000 1.000000 -0.000000 255 255 255 1.000000
-0.211290 0.949262 -0.041286 0.000000 -1.000000 0.000000 255 255 255 1.000000
-0.073967 -0.003810 -0.148555 0.000000 1.000000 0.000000 255 255 255 1.000000
-0.116129 0.472990 -0.228828 0.000000 -0.000000 -1.000000 255 255 255 1.000000
0.250898 -0.181038 -0.137849 1.000000 0.000000 0.000000 247 198 127 1.000000
0.235288 0.304301 0.160467 1.000000 0.000000 0.000000 255 255 255 1.000000
-0.233008 0.426199 0.093721 -1.000000 -0.000000 0.000000 255 255 255 1.000000
0.249597 0.747316 0.245946 1.000000 0.000000 0.000000 245 192 120 1.000000
0.250898 0.689902 0.149806 -1.000000 -0.000000 0.000000 255 255 255 1.000000
0.213255 -0.938671 -0.143094 0.000000 -1.000000 0.000000 255 255 255 1.000000
0.250898 -0.720724 0.152303 1.000000 0.000000 0.000000 251 197 129 1.000000
0.235288 0.686341 0.210475 1.000000 0.000000 0.000000 255 255 255 1.000000
-0.037168 0.542242 -0.234031 0.000000 0.000000 1.000000 255 255 255 1.000000
0.235288 -0.280812 0.132938 -1.000000 -0.000000 0.000000 255 255 255 1.000000
0.109548 -0.296095 0.245972 0.000000 0.000000 1.000000 248 199 128 1.000000
0.250898 0.544648 0.139167 1.000000 0.000000 0.000000 249 186 113 1.000000
0.070013 -0.597112 -0.234031 0.000000 -0.000000 -1.000000 255 255 255 1.000000
0.028041 0.483133 -0.121279 0.000000 1.000000 0.000000 255 255 255 1.000000
0.154449 -0.906328 0.245972 0.000000 0.000000 1.000000 248 195 127 1.000000
-0.134935 -0.820502 -0.249641 0.000000 0.000000 1.000000 255 255 255 1.000000
-0.039369 0.889482 0.245972 0.000000 0.000000 1.000000 250 195 124 1.000000
-0.095021 0.614609 -0.228828 0.000000 0.000000 1.000000 255 255 255 1.000000
-0.248618 0.441248 -0.175297 -1.000000 -0.000000 0.000000 246 202 127 1.000000
0.094308 0.687846 -0.234031 0.000000 -0.000000 -1.000000 255 255 255 1.000000
-0.236666 -0.903640 -0.249641 0.000000 0.000000 1.000000 255 255 255 1.000000
-0.208992 -0.205622 0.245972 0.000000 0.000000 1.000000 248 198 125 1.000000
0.250898 -0.158864 0.208153 1.000000 0.000000 0.000000 247 193 122 1.000000
0.135319 0.673292 -0.234031 0.000000 -0.000000 -1.000000 255 255 255 1.000000
-0.220830 -0.449127 -0.187251 -0.000000 -1.000000 0.000000 255 255 255 1.000000
0.180767 -0.443304 -0.234031 0.000000 -0.000000 -1.000000 255 255 255 1.000000
0.235288 0.104051 0.032788 1.000000 0.000000 0.000000 255 255 255 1.000000
-0.233008 0.369526 -0.203917 -1.000000 -0.000000 0.000000 255 255 255 1.000000
0.250898 0.837932 -0.246265 1.000000 0.000000 0.000000 250 200 127 1.000000
0.235288 -0.466253 0.134671 -1.000000 -0.000000 0.000000 255 255 255 1.000000
-0.006137 0.608197 -0.228828 0.000000 0.000000 1.000000 255 255 255 1.000000
-0.183164 0.824383 -0.249614 0.000000 -1.000000 0.000000 255 255 255 1.000000
0.061288 -0.449127 -0.006769 0.000000 1.000000 0.000000 255 255 255 1.000000
0.235288 -0.214679 0.133239 1.000000 0.000000 0.000000 255 255 255 1.000000
0.091119 0.017003 0.081280 -0.000000 -1.000000 0.000000 255 255 255 1.000000
-0.233008 -0.808677 -0.171019 -1.000000 -0.000000 0.000000 255 255 255 1.000000
0.073310 -0.469940 -0.113004 -0.000000 -1.000000 0.000000 255 255 255 1.000000
-0.133621 -0.917858 -0.218473 0.000000 -1.000000 0.000000 255 255 255 1.000000
-0.149209 -0.469940 -0.209996 -0.000000 -1.000000 0.000000 255 255 255 1.000000
-0.187452 -0.449127 -0.046423 -0.000000 -1.000000 0.000000 255 255 255 1.000000
0.074960 -0.003810 0.041470 0.000000 1.000000 0.000000 255 255 255 1.000000
-0.233008 0.755355 -0.133931 1.000000 0.000000 0.000000 255 255 255 1.000000
-0.233008 0.031341 -0.039237 1.000000 0.000000 0.000000 255 255 255 1.000000
-0.107133 0.620719 0.230362 0.000000 0.000000 -1.000000 255 255 255 1.000000
0.003093 -0.241177 -0.234031 0.000000 -0.000000 -1.000000 255 255 255 1.000000
0.147610 -0.595559 -0.234031 0.000000 0.000000 1.000000 255 255 255 1.000000
0.027259 0.949262 0.088623 0.000000 -1.000000 0.000000 255 255 255 1.000000
0.168169 0.703107 0.245972 0.000000 0.000000 1.000000 248 191 124 1.000000
0.250898 0.813721 0.152296 -1.000000 -0.000000 0.000000 255 255 255 1.000000
0.250898 -0.868404 -0.181378 -1.000000 -0.000000 0.000000 255 255 255 1.000000
0.250898 -0.926701 -0.219257 1.000000 0.000000 0.000000 250 199 129 1.000000
0.176595 0.483133 -0.155037 0.000000 1.000000 0.000000 255 255 255 1.000000
0.133293 -0.493735 0.230362 0.000000 0.000000 -1.000000 255 255 255 1.000000
0.050765 -0.917858 -0.156907 0.000000 -1.000000 0.000000 255 255 255 1.000000
-0.071306 -0.917858 0.204929 -0.000000 1.000000 -0.000000 255 255 255 1.000000
0.235288 0.043557 0.138627 -1.000000 -0.000000 0.000000 255 255 255 1.000000
0.074121 0.621707 -0.234031 0.000000 0.000000 1.000000 255 255 255 1.000000
0.250898 0.425334 -0.213014 1.000000 0.000000 0.000000 250 195 126 1.000000
0.180013 -0.355853 0.245972 0.000000 0.000000 -1.000000 243 195 125 1.000000
0.235288 -0.683385 -0.031154 -1.000000 -0.000000 0.000000 255 255 255 1.000000
-0.060538 -0.118234 -0.234031 0.000000 -0.000000 -1.000000 255 255 255 1.000000
-0.233008 0.721303 0.170770 -1.000000 -0.000000 0.000000 255 255 255 1.000000
0.211339 -0.482646 -0.234031 0.000000 -0.000000 -1.000000 255 255 255 1.000000
0.235288 0.273940 -0.165998 1.000000 0.000000 0.000000 255 255 255 1.000000
0.200307 -0.469940 -0.032298 -0.000000 -1.000000 0.000000 255 255 255 1.000000
-0.233008 -0.718084 -0.101983 -1.000000 -0.000000 0.000000 255 255 255 1.000000
0.148026 0.878222 0.230362 0.000000 0.000000 1.000000 253 191 124 1.000000
0.166078 -0.477158 0.245972 0.000000 0.000000 1.000000 243 187 116 1.000000
-0.188360 0.462319 0.161374 -0.000000 -1.000000 0.000000 255 255 255 1.000000
0.076640 -0.469940 -0.226401 -0.000000 -1.000000 0.000000 255 255 255 1.000000
-0.233008 -0.626080 0.035280 1.000000 0.000000 0.000000 255 255 255 1.000000
-0.248618 0.052303 -0.075040 1.000000 0.000000 0.000000 255 255 255 1.000000
0.169491 0.017003 -0.166152 0.000000 1.000000 0.000000 255 255 255 1.000000
-0.233008 0.871096 -0.212927 1.000000 0.000000 0.000000 255 255 255 1.000000
-0.148160 0.462319 0.019746 0.000000 1.000000 0.000000 255 255 255 1.000000
0.040667 -0.938671 0.159973 -0.000000 1.000000 -0.000000 255 255 255 1.000000
0.213179 -0.607112 -0.228828 0.000000 0.000000 1.000000 255 255 255 1.000000
-0.022032 0.928449 -0.193507 0.000000 -1.000000 0.000000 255 255 255 1.000000
-0.248618 0.107053 -0.115020 1.000000 0.000000 0.000000 255 255 255 1.000000
0.250898 0.005742 0.214976 -1.000000 -0.000000 0.000000 255 255 255 1.000000
-0.124588 -0.938671 0.156374 0.000000 -1.000000 0.000000 255 255 255 1.000000
0.061008 -0.672193 0.245972 0.000000 0.000000 -1.000000 251 199 131 1.000000
0.250898 -0.106263 0.159020 1.000000 0.000000 0.000000 250 195 126 1.000000
0.210546 0.949262 0.223253 -0.000000 1.000000 -0.000000 255 255 255 1.000000
-0.109370 0.233768 0.245972 0.000000 0.000000 1.000000 252 202 129 1.000000
-0.067071 0.017003 -0.117734 0.000000 1.000000 0.000000 255 255 255 1.000000
0.008523 -0.782431 -0.228828 0.000000 0.000000 1.000000 255 255 255 1.000000
0.250898 -0.560594 0.018676 1.000000 0.000000 0.000000 248 186 117 1.000000
0.163824 0.232130 0.245972 0.000000 0.000000 -1.000000 246 192 123 1.000000
-0.016066 0.761045 0.230362 0.000000 0.000000 -1.000000 255 255 255 1.000000
0.100656 -0.155922 0.230362 0.000000 0.000000 1.000000 244 189 120 1.000000
0.082145 -0.469940 0.156089 0.000000 1.000000 0.000000 255 255 255 1.000000
-0.061552 -0.003810 0.174089 -0.000000 -1.000000 0.000000 255 255 255 1.000000
-0.138137 -0.008565 -0.249641 0.000000 -0.000000 -1.000000 255 255 255 1.000000
0.003466 -0.469940 -0.022463 0.000000 1.000000 0.000000 255 255 255 1.000000
0.250898 -0.077374 0.026053 -1.000000 -0.000000 0.000000 255 255 255 1.000000
0.111978 0.017003 0.113038 -0.000000 -1.000000 0.000000 255 255 255 1.000000
-0.170166 -0.449127 0.048449 0.000000 1.000000 0.000000 255 255 255 1.000000
0.235288 -0.066758 -0.162007 -1.000000 -0.000000 0.000000 255 255 255 1.000000
0.235288 0.037592 0.065117 1.000000 0.000000 0.000000 255 255 255 1.000000
-0.233008 -0.870278 -0.185964 -1.000000 -0.000000 0.000000 255 255 255 1.000000
-0.111327 -0.041623 0.245972 0.000000 0.000000 -1.000000 254 203 130 1.000000
0.116668 0.462319 -0.191543 0.000000 1.000000 0.000000 255 255 255 1.000000
-0.233008 0.869997 -0.161516 -1.000000 -0.000000 0.000000 255 255 255 1.000000
-0.160029 0.309597 0.230362 0.000000 0.000000 1.000000 251 193 120 1.000000
-0.181588 0.933322 0.230362 0.000000 0.000000 -1.000000 255 255 255 1.000000
-0.233008 0.905399 -0.009709 1.000000 0.000000 0.000000 255 255 255 1.000000
-0.248618 0.210596 0.039970 1.000000 0.000000 0.000000 255 255 255 1.000000
-0.183921 0.949262 0.162703 0.000000 -1.000000 0.000000 255 255 255 1.000000
0.250898 -0.225982 -0.119498 -1.000000 -0.000000 0.000000 255 255 255 1.000000
0.059345 -0.191680 -0.228828 0.000000 0.000000 1.000000 255 255 255 1.000000
-0.210859 0.545347 -0.228828 0.000000 0.000000 1.000000 255 255 255 1.000000
0.235288 0.306763 0.036784 1.000000 0.000000 0.000000 255 255 255 1.000000
0.249597 -0.770951 0.245761 -1.000000 0.000000 0.000000 249 198 128 1.000000
0.009137 0.949262 0.154641 0.000000 -1.000000 0.000000 255 255 255 1.000000
-0.217374 -0.841185 -0.228828 0.000000 -0.000000 -1.000000 255 255 255 1.000000
0.234834 0.462319 0.043579 -0.000000 -1.000000 0.000000 255 255 255 1.000000
0.250898 0.896626 -0.215351 -1.000000 -0.000000 0.000000 255 255 255 1.000000
0.137260 -0.842251 -0.228828 0.000000 0.000000 1.000000 255 255 255 1.000000
0.250898 -0.605274 -0.045290 1.000000 0.000000 0.000000 252 197 129 1.000000
0.000656 0.483133 0.038574 0.000000 1.000000 0.000000 255 255 255 1.000000
-0.147324 0.690631 -0.228828 0.000000 -0.000000 -1.000000 255 255 255 1.000000
0.067643 -0.780519 0.230362 0.000000 0.000000 -1.000000 255 255 255 1.000000
0.219233 -0.208357 0.245972 0.000000 0.000000 -1.000000 255 199 131 1.000000
0.092040 0.462319 -0.050969 -0.000000 -1.000000 0.000000 255 255 255 1.000000
0.250898 0.773642 -0.158175 1.000000 0.000000 0.000000 252 197 129 1.000000
0.235288 -0.827093 -0.110667 1.000000 0.000000 0.000000 255 255 255 1.000000
0.211276 -0.161198 0.245972 0.000000 0.000000 1.000000 250 192 124 1.000000
-0.171440 0.391738 0.245972 0.000000 0.000000 -1.000000 250 190 119 1.000000
0.198892 -0.805143 0.245972 0.000000 0.000000 -1.000000 251 196 128 1.000000
-0.233008 -0.032922 0.099751 -1.000000 -0.000000 0.000000 255 255 255 1.000000
-0.248618 -0.499126 0.134255 1.000000 0.000000 0.000000 255 255 255 1.000000
-0.233008 -0.937830 0.204918 -1.000000 -0.000000 0.000000 255 255 255 1.000000
0.112849 0.261419 0.245972 0.000000 0.000000 1.000000 253 200 130 1.000000
0.250898 0.789111 0.184375 -1.000000 -0.000000 0.000000 255 255 255 1.000000
0.017973 -0.568083 -0.234031 0.000000 -0.000000 -1.000000 255 255 255 1.000000
0.024870 -0.469940 -0.121698 0.000000 1.000000 0.000000 255 255 255 1.000000
0.222971 -0.449127 -0.221774 0.000000 1.000000 0.000000 255 255 255 1.000000
0.235288 -0.749163 -0.196600 -1.000000 -0.000000 0.000000 255 255 255 1.000000
-0.248618 -0.867230 0.205440 -1.000000 -0.000000 0.000000 244 187 119 1.000000
0.230855 -0.449127 0.212114 0.000000 1.000000 0.000000 255 255 255 1.000000
-0.004087 0.483133 -0.064402 -0.000000 -1.000000 0.000000 255 255 255 1.000000
0.059559 0.374548 0.245972 0.000000 0.000000 1.000000 253 197 126 1.000000
0.028520 0.368006 -0.228828 0.000000 -0.000000 -1.000000 255 255 255 1.000000
0.145689 -0.312059 0.245972 0.000000 0.000000 1.000000 247 192 123 1.000000
0.235288 -0.252507 -0.021804 1.000000 0.000000 0.000000 255 255 255 1.000000
0.173049 -0.753331 0.230362 0.000000 0.000000 -1.000000 255 255 255 1.000000
0.072503 -0.311329 0.230362 0.000000 0.000000 1.000000 248 190 120 1.000000
-0.049633 0.379530 -0.234031 0.000000 -0.000000 -1.000000 255 255 255 1.000000
0.122492 0.017003 0.210264 -0.000000 -1.000000 0.000000 255 255 255 1.000000
0.074017 -0.938671 -0.178397 0.000000 -1.000000 0.000000 255 255 255 1.000000
-0.161967 -0.190652 0.245972 0.000000 0.000000 1.000000 251 196 126 1.000000
0.047377 0.462319 0.055363 -0.000000 -1.000000 0.000000 255 255 255 1.000000
-0.041195 -0.219137 0.230362 0.000000 0.000000 -1.000000 255 255 255 1.000000
0.238962 0.437835 0.245972 0.000000 0.000000 -1.000000 243 183 113 1.000000
-0.233008 -0.135705 -0.168780 1.000000 0.000000 0.000000 255 255 255 1.000000
-0.043189 0.193373 -0.228828 0.000000 0.000000 1.000000 255 255 255 1.000000
-0.216210 0.558306 0.230362 0.000000 0.000000 -1.000000 255 255 255 1.000000
-0.005335 -0.917858 -0.146901 -0.000000 1.000000 -0.000000 255 255 255 1.000000
0.250898 -0.165632 -0.082277 -1.000000 -0.000000 0.000000 255 255 255 1.000000
-0.248618 -0.016548 -0.220126 -1.000000 -0.000000 0.000000 244 189 120 1.000000
0.018317 0.266445 -0.234031 0.000000 0.000000 1.000000 255 255 255 1.000000
-0.169213 0.017003 0.013356 0.000000 1.000000 0.000000 255 255 255 1.000000
-0.062099 0.949262 -0.220357 -0.000000 1.000000 -0.000000 255 255 255 1.000000
-0.097872 -0.861284 0.245972 0.000000 0.000000 1.000000 246 195 124 1.000000
-0.248618 -0.041548 0.223979 -1.000000 -0.000000 0.000000 249 190 119 1.000000
-0.215952 0.949262 0.209864 -0.000000 1.000000 -0.000000 255 255 255 1.000000
0.235288 -0.411147 -0.014757 1.000000 0.000000 0.000000 255 255 255 1.000000
-0.068988 -0.469940 -0.156076 -0.000000 -1.000000 0.000000 255 255 255 1.000000
-0.143856 -0.130809 -0.228828 0.000000 -0.000000 -1.000000 255 255 255 1.000000
0.049165 -0.003810 -0.184099 -0.000000 -1.000000 0.000000 255 255 255 1.000000
0.120665 0.949262 0.159819 -0.000000 1.000000 -0.000000 255 255 255 1.000000
0.151412 0.311555 0.245972 0.000000 0.000000 1.000000 247 198 126 1.000000
0.250898 -0.608625 0.205237 1.000000 0.000000 0.000000 248 188 120 1.000000
-0.160691 -0.537986 -0.234031 0.000000 -0.000000 -1.000000 255 255 255 1.000000
0.101039 0.061659 -0.228828 0.000000 -0.000000 -1.000000 255 255 255 1.000000
-0.053301 0.949262 -0.157740 0.000000 -1.000000 0.000000 255 255 255 1.000000
-0.056769 0.389332 0.230362 0.000000 0.000000 1.000000 251 194 126 1.000000
-0.102887 0.288656 0.230362 0.000000 0.000000 -1.000000 255 255 255 1.000000
-0.005077 -0.917858 -0.108668 0.000000 -1.000000 0.000000 255 255 255 1.000000
0.213957 -0.938671 0.218555 -0.000000 1.000000 -0.000000 255 255 255 1.000000
0.209582 -0.003810 -0.088189 -0.000000 -1.000000 0.000000 255 255 255 1.000000
0.093897 -0.666413 -0.228828 0.000000 0.000000 1.000000 255 255 255 1.000000
0.122620 -0.725960 0.230362 0.000000 0.000000 1.000000 251 199 129 1.000000
0.235288 -0.539828 0.140466 -1.000000 -0.000000 0.000000 255 255 255 1.000000
-0.181807 -0.449127 0.011710 0.000000 1.000000 0.000000 255 255 255 1.000000
-0.233008 0.261400 0.089340 1.000000 0.000000 0.000000 255 255 255 1.000000
-0.143683 0.824383 -0.248547 0.000000 -1.000000 0.000000 255 255 255 1.000000
-0.108336 -0.243794 -0.228828 0.000000 -0.000000 -1.000000 255 255 255 1.000000
-0.248618 0.105472 -0.034920 1.000000 0.000000 0.000000 255 255 255 1.000000
0.132171 -0.035789 -0.249641 0.000000 0.000000 1.000000 255 255 255 1.000000
0.156605 0.017003 0.056723 -0.000000 -1.000000 0.000000 255 255 255 1.000000
-0.233008 -0.875720 -0.106817 1.000000 0.000000 0.000000 255 255 255 1.000000
0.235288 -0.479894 0.016697 1.000000 0.000000 0.000000 255 255 255 1.000000
0.195531 -0.003810 0.166540 -0.000000 -1.000000 0.000000 255 255 255 1.000000
-0.248618 -0.332232 -0.207288 -1.000000 -0.000000 0.000000 249 197 125 1.000000
0.250898 0.464696 0.186366 1.000000 0.000000 0.000000 253 198 128 1.000000
0.250898 0.269084 -0.110499 1.000000 0.000000 0.000000 253 198 127 1.000000
0.100277 0.907349 0.245972 0.000000 0.000000 -1.000000 252 197 132 1.000000
0.250898 -0.366880 -0.050028 1.000000 0.000000 0.000000 250 198 128 1.000000
-0.206343 0.876949 0.230362 0.000000 0.000000 -1.000000 255 255 255 1.000000
-0.115234 -0.917858 -0.129896 -0.000000 1.000000 -0.000000 255 255 255 1.000000
-0.181464 -0.917858 -0.104845 -0.000000 1.000000 -0.000000 255 255 255 1.000000
-0.035598 0.076836 -0.234031 0.000000 0.000000 1.000000 255 255 255 1.000000
0.235288 -0.901336 0.056714 1.000000 0.000000 0.000000 255 255 255 1.000000
-0.233008 0.741789 -0.090707 1.000000 0.000000 0.000000 255 255 255 1.000000
0.120849 -0.904276 -0.234031 0.000000 0.000000 1.000000 255 255 255 1.000000
-0.233008 -0.353586 -0.012685 -1.000000 -0.000000 0.000000 255 255 255 1.000000
-0.092875 0.250814 -0.228828 0.000000 0.000000 1.000000 255 255 255 1.000000
0.100609 -0.532683 -0.234031 0.000000 -0.000000 -1.000000 255 255 255 1.000000
0.137602 0.949262 0.242021 0.000000 1.000000 0.000000 244 181 107 1.000000
-0.162147 0.520107 0.230362 0.000000 0.000000 1.000000 245 191 120 1.000000
-0.100864 0.483133 0.122430 0.000000 1.000000 0.000000 255 255 255 1.000000
-0.248618 0.038704 -0.109321 1.000000 0.000000 0.000000 255 255 255 1.000000
0.001165 0.529284 -0.234031 0.000000 -0.000000 -1.000000 255 255 255 1.000000
-0.025485 -0.330407 0.245972 0.000000 0.000000 1.000000 247 194 126 1.000000
-0.248618 -0.435929 -0.213758 1.000000 0.000000 0.000000 255 255 255 1.000000
-0.205154 0.079803 0.266478 0.126433 0.000000 -0.991975 198 198 198 1.000000
-0.181314 0.118765 -0.234031 0.000000 0.000000 1.000000 255 255 255 1.000000
-0.248618 -0.476117 -0.021934 -1.000000 -0.000000 0.000000 253 198 131 1.000000
0.250898 0.004278 0.007444 1.000000 0.000000 0.000000 250 191 117 1.000000
-0.212473 -0.917858 0.089515 0.000000 -1.000000 0.000000 255 255 255 1.000000
-0.219888 -0.917858 -0.151633 -0.000000 1.000000 -0.000000 255 255 255 1.000000
-0.037235 -0.917858 0.116728 -0.000000 1.000000 -0.000000 255 255 255 1.000000
-0.032521 -0.864302 -0.228828 0.000000 -0.000000 -1.000000 255 255 255 1.000000
-0.233008 -0.519643 0.067532 -1.000000 -0.000000 0.000000 255 255 255 1.000000
-0.233008 0.116119 0.209659 -1.000000 -0.000000 0.000000 255 255 255 1.000000
-0.248618 0.192170 -0.213989 1.000000 0.000000 0.000000 255 255 255 1.000000
0.038299 -0.077039 -0.234031 0.000000 -0.000000 -1.000000 255 255 255 1.000000
0.059221 0.949262 -0.157377 0.000000 -1.000000 0.000000 255 255 255 1.000000
0.235288 0.450899 -0.010327 -1.000000 -0.000000 0.000000 255 255 255 1.000000
0.250898 -0.848831 -0.041445 1.000000 0.000000 0.000000 243 187 116 1.000000
0.134379 -0.228867 0.230362 0.000000 0.000000 1.000000 251 195 122 1.000000
-0.130041 -0.860995 -0.249641 0.000000 -0.000000 -1.000000 255 255 255 1.000000
-0.149678 0.017003 -0.172441 0.000000 1.000000 0.000000 255 255 255 1.000000
-0.062105 -0.469940 0.010099 -0.000000 -1.000000 0.000000 255 255 255 1.000000
0.053463 0.450985 0.230362 0.000000 0.000000 -1.000000 255 255 255 1.000000
0.224068 -0.383516 -0.234031 0.000000 0.000000 1.000000 255 255 255 1.000000
-0.015660 -0.427087 -0.228828 0.000000 0.000000 1.000000 255 255 255 1.000000
0.250898 0.616472 -0.176149 1.000000 0.000000 0.000000 245 189 119 1.000000
0.235288 -0.346847 0.017631 -1.000000 -0.000000 0.000000 255 255 255 1.000000
-0.086053 -0.755250 0.245972 0.000000 0.000000 -1.000000 246 194 123 1.000000
0.224370 -0.714505 -0.234031 0.000000 0.000000 1.000000 255 255 255 1.000000
-0.248618 0.866486 0.206899 1.000000 0.000000 0.000000 255 255 255 1.000000
-0.248618 0.844730 -0.044098 1.000000 0.000000 0.000000 255 255 255 1.000000
0.140383 -0.938671 0.090372 0.000000 -1.000000 0.000000 255 255 255 1.000000
0.250898 -0.220390 -0.079787 1.000000 0.000000 0.000000 248 189 118 1.000000
-0.023643 -0.609741 -0.228828 0.000000 -0.000000 -1.000000 255 255 255 1.000000
-0.219498 -0.845279 0.245972 0.000000 0.000000 1.000000 249 194 125 1.000000
-0.233008 -0.421675 0.026141 -1.000000 -0.000000 0.000000 255 255 255 1.000000
-0.162580 -0.449127 0.194285 0.000000 1.000000 0.000000 255 255 255 1.000000
0.113789 -0.917858 -0.144633 0.000000 -1.000000 0.000000 255 255 255 1.000000
-0.248618 -0.113679 -0.102893 -1.000000 -0.000000 0.000000 250 190 118 1.000000
-0.234192 -0.483870 -0.249641 0.000000 0.000000 1.000000 255 255 255 1.000000
0.250898 -0.094765 0.195214 -1.000000 -0.000000 0.000000 255 255 255 1.000000
-0.045762 0.680804 -0.228828 0.000000 0.000000 1.000000 255 255 255 1.000000
-0.155307 -0.813639 0.245972 0.000000 0.000000 1.000000 251 198 132 1.000000
0.058412 0.918321 -0.228828 0.000000 0.000000 1.000000 255 255 255 1.000000
-0.247317 0.712993 0.245861 -1.000000 0.000000 0.000000 251 198 126 1.000000
0.235288 -0.356641 -0.210076 1.000000 0.000000 0.000000 255 255 255 1.000000
0.114517 0.928449 0.017079 -0.000000 1.000000 -0.000000 255 255 255 1.000000
0.235288 -0.093093 -0.098410 1.000000 0.000000 0.000000 255 255 255 1.000000
0.152806 -0.422245 0.230362 0.000000 0.000000 -1.000000 255 255 255 1.000000
-0.207723 -0.911041 0.245972 0.000000 0.000000 1.000000 249 196 126 1.000000
-0.136208 0.017003 0.167233 0.000000 1.000000 0.000000 255 255 255 1.000000
-0.248618 -0.330786 0.055630 1.000000 0.000000 0.000000 255 255 255 1.000000
-0.211323 0.212227 -0.228828 0.000000 -0.000000 -1.000000 255 255 255 1.000000
-0.233008 0.466634 -0.077611 -1.000000 0.000000 0.000000 255 255 255 1.000000
0.250898 -0.904229 0.021276 -1.000000 -0.000000 0.000000 255 255 255 1.000000
-0.164007 0.462319 -0.058912 -0.000000 -1.000000 0.000000 255 255 255 1.000000
0.063173 -0.449127 -0.055976 -0.000000 -1.000000 0.000000 255 255 255 1.000000
-0.233008 0.908026 -0.052034 -1.000000 -0.000000 0.000000 255 255 255 1.000000
0.250898 -0.600493 -0.228113 1.000000 0.000000 0.000000 253 197 126 1.000000
-0.117565 0.928449 0.209338 0.000000 -1.000000 0.000000 255 255 255 1.000000
-0.005334 0.368935 0.245972 0.000000 0.000000 -1.000000 250 199 129 1.000000
-0.248618 0.537133 -0.243498 -1.000000 -0.000000 0.000000 253 196 125 1.000000
0.250898 0.917563 -0.121245 1.000000 0.000000 0.000000 243 188 120 1.000000
0.012200 -0.199015 -0.228828 0.000000 -0.000000 -1.000000 255 255 255 1.000000
0.235288 0.077504 0.211507 -1.000000 -0.000000 0.000000 255 255 255 1.000000
-0.206927 -0.086405 0.274993 -0.275937 -0.000000 0.961176 198 198 198 1.000000
-0.004019 -0.505271 0.230362 0.000000 0.000000 1.000000 250 192 127 1.000000
-0.071307 0.949262 0.232029 0.000000 1.000000 0.000000 249 196 127 1.000000
0.235288 0.067668 0.094512 -1.000000 -0.000000 0.000000 255 255 255 1.000000
-0.026483 0.017003 -0.022287 -0.000000 -1.000000 0.000000 255 255 255 1.000000
-0.248618 -0.664527 0.105031 1.000000 0.000000 0.000000 255 255 255 1.000000
0.249597 0.479159 0.243160 1.000000 0.000000 0.000000 253 195 127 1.000000
0.237982 -0.656332 0.245972 0.000000 0.000000 1.000000 245 191 123 1.000000
-0.248618 -0.673769 0.212178 1.000000 0.000000 0.000000 255 255 255 1.000000
0.250898 0.854869 0.181786 1.000000 0.000000 0.000000 241 180 111 1.000000
0.235288 -0.423999 -0.078001 1.000000 0.000000 0.000000 255 255 255 1.000000
-0.215808 -0.104059 -0.228828 0.000000 0.000000 1.000000 255 255 255 1.000000
0.069271 -0.731272 -0.234031 0.000000 0.000000 1.000000 255 255 255 1.000000
-0.077715 0.807937 0.230362 0.000000 0.000000 1.000000 250 195 124 1.000000
0.250898 -0.134022 -0.015844 1.000000 0.000000 0.000000 249 193 125 1.000000
0.209906 -0.828225 -0.249641 0.000000 0.000000 1.000000 255 255 255 1.000000
-0.233008 0.331551 -0.012377 -1.000000 -0.000000 0.000000 255 255 255 1.000000
-0.037054 -0.449127 0.178893 0.000000 1.000000 0.000000 255 255 255 1.000000
0.140919 0.471623 0.230362 0.000000 0.000000 1.000000 249 194 123 1.000000
-0.233008 0.075238 -0.217522 -1.000000 -0.000000 0.000000 255 255 255 1.000000
0.074775 -0.938671 0.044448 -0.000000 1.000000 -0.000000 255 255 255 1.000000
0.235288 0.817945 -0.020884 1.000000 0.000000 0.000000 255 255 255 1.000000
0.090683 -0.938671 -0.054187 -0.000000 1.000000 -0.000000 255 255 255 1.000000
0.250898 -0.336571 -0.115698 -1.000000 -0.000000 0.000000 255 255 255 1.000000
0.225945 -0.495476 0.245972 0.000000 0.000000 -1.000000 246 187 117 1.000000
-0.248618 -0.795563 0.220796 1.000000 0.000000 0.000000 255 255 255 1.000000
-0.233008 0.334927 0.149852 1.000000 0.000000 0.000000 255 255 255 1.000000
-0.248618 -0.116428 0.036328 -1.000000 -0.000000 0.000000 243 179 111 1.000000
0.031391 -0.469940 0.203541 -0.000000 -1.000000 0.000000 255 255 255 1.000000
0.225509 -0.168872 -0.234031 0.000000 0.000000 1.000000 255 255 255 1.000000
-0.248618 -0.907571 0.075947 -1.000000 -0.000000 0.000000 250 197 129 1.000000
0.164178 -0.469940 0.132545 -0.000000 -1.000000 0.000000 255 255 255 1.000000
0.214599 -0.917858 0.129598 -0.000000 1.000000 -0.000000 255 255 255 1.000000
-0.224926 0.138346 0.245972 0.000000 0.000000 -1.000000 247 194 125 1.000000
-0.045900 -0.469940 0.065689 0.000000 1.000000 0.000000 255 255 255 1.000000
0.235288 -0.906281 0.214556 1.000000 0.000000 0.000000 255 255 255 1.000000
-0.231558 -0.003810 -0.026961 0.000000 1.000000 0.000000 255 255 255 1.000000
0.235288 -0.123786 -0.197199 -1.000000 -0.000000 0.000000 255 255 255 1.000000
0.235288 -0.327213 0.082255 -1.000000 -0.000000 0.000000 255 255 255 1.000000
-0.029867 -0.906626 -0.234031 0.000000 -0.000000 -1.000000 255 255 255 1.000000
-0.248618 -0.104032 0.214763 1.000000 0.000000 0.000000 255 255 255 1.000000
-0.094088 -0.171974 0.230362 0.000000 0.000000 1.000000 245 190 118 1.000000
0.250898 0.533692 0.089754 1.000000 0.000000 0.000000 251 192 124 1.000000
0.165252 -0.117524 0.230362 0.000000 0.000000 1.000000 250 202 132 1.000000
0.151231 -0.917858 0.130524 -0.000000 1.000000 -0.000000 255 255 255 1.000000
-0.099101 -0.526574 -0.228828 0.000000 -0.000000 -1.000000 255 255 255 1.000000
0.117147 -0.917858 0.028096 -0.000000 1.000000 -0.000000 255 255 255 1.000000
-0.233008 0.600568 0.008918 1.000000 0.000000 0.000000 255 255 255 1.000000
0.250898 -0.658085 -0.228467 1.000000 0.000000 0.000000 248 194 125 1.000000
-0.099699 -0.698368 0.245972 0.000000 0.000000 1.000000 249 196 126 1.000000
-0.169148 -0.917858 0.124132 0.000000 -1.000000 0.000000 255 255 255 1.000000
-0.093030 -0.905571 0.245972 0.000000 0.000000 1.000000 249 197 127 1.000000
-0.221730 -0.449127 -0.035249 0.000000 1.000000 0.000000 255 255 255 1.000000
0.250898 0.947373 0.117887 -1.000000 -0.000000 0.000000 255 255 255 1.000000
0.004194 0.299519 -0.228828 0.000000 0.000000 1.000000 255 255 255 1.000000
0.115948 -0.449127 -0.162266 0.000000 1.000000 0.000000 255 255 255 1.000000
0.235288 0.283846 -0.031889 1.000000 0.000000 0.000000 255 255 255 1.000000
0.105301 0.422220 0.230362 0.000000 0.000000 1.000000 252 196 124 1.000000
0.003588 -0.449127 0.218431 0.000000 1.000000 0.000000 255 255 255 1.000000
0.202385 0.018184 0.245972 0.000000 0.000000 -1.000000 249 194 125 1.000000
-0.175135 0.928449 0.001011 0.000000 -1.000000 0.000000 255 255 255 1.000000
0.109477 0.559938 -0.234031 0.000000 0.000000 1.000000 255 255 255 1.000000
0.011855 -0.469940 0.150584 0.000000 1.000000 0.000000 255 255 255 1.000000
0.235288 -0.904644 -0.180543 -1.000000 -0.000000 0.000000 255 255 255 1.000000
0.021320 0.567936 0.245972 0.000000 0.000000 1.000000 248 188 120 1.000000
-0.161995 -0.353742 0.245972 0.000000 0.000000 1.000000 249 190 120 1.000000
-0.127162 -0.475612 0.245972 0.000000 0.000000 -1.000000 249 195 127 1.000000
0.249597 0.611634 0.235674 -1.000000 0.000000 0.000000 248 193 124 1.000000
0.133017 0.928449 -0.164224 -0.000000 1.000000 -0.000000 255 255 255 1.000000
-0.158441 0.290419 -0.234031 0.000000 -0.000000 -1.000000 255 255 255 1.000000
-0.239553 0.418333 0.245972 0.000000 0.000000 -1.000000 253 199 126 1.000000
0.016383 0.949262 0.025218 -0.000000 1.000000 -0.000000 255 255 255 1.000000
0.027018 -0.938671 -0.051367 0.000000 -1.000000 0.000000 255 255 255 1.000000
0.249672 0.949262 0.157107 0.000000 -1.000000 0.000000 255 255 255 1.000000
0.157738 0.949262 0.093789 -0.000000 1.000000 -0.000000 255 255 255 1.000000
-0.233008 0.315486 0.111820 1.000000 0.000000 0.000000 255 255 255 1.000000
0.057317 -0.432262 0.230362 0.000000 0.000000 1.000000 252 189 121 1.000000
0.054364 -0.738560 0.245972 0.000000 0.000000 1.000000 249 191 122 1.000000
0.120966 0.183876 -0.234031 0.000000 -0.000000 -1.000000 255 255 255 1.000000
0.223681 -0.003810 -0.188122 -0.000000 -1.000000 0.000000 255 255 255 1.000000
0.250898 0.073644 0.159502 1.000000 0.000000 0.000000 246 194 122 1.000000
-0.233008 0.639556 -0.218753 -1.000000 -0.000000 0.000000 255 255 255 1.000000
-0.069952 0.483133 -0.068319 0.000000 1.000000 0.000000 255 255 255 1.000000
0.215804 -0.469940 -0.170545 0.000000 1.000000 0.000000 255 255 255 1.000000
-0.003355 -0.917858 0.203023 0.000000 -1.000000 0.000000 255 255 255 1.000000
-0.129694 0.541332 -0.234031 0.000000 -0.000000 -1.000000 255 255 255 1.000000
-0.248618 -0.350819 -0.147965 1.000000 0.000000 0.000000 255 255 255 1.000000
0.181838 -0.272661 0.245972 0.000000 0.000000 1.000000 248 193 125 1.000000
-0.097619 0.363055 -0.234031 0.000000 -0.000000 -1.000000 255 255 255 1.000000
-0.062750 0.863948 0.230362 0.000000 0.000000 1.000000 248 196 127 1.000000
0.235288 0.866222 -0.198420 1.000000 0.000000 0.000000 255 255 255 1.000000
0.076245 0.949262 0.152425 0.000000 -1.000000 0.000000 255 255 255 1.000000
0.032970 0.483133 0.209328 -0.000000 -1.000000 0.000000 255 255 255 1.000000
-0.065314 0.017003 0.000505 0.000000 1.000000 0.000000 255 255 255 1.000000
-0.205818 -0.912881 -0.234031 0.000000 -0.000000 -1.000000 255 255 255 1.000000
0.177135 -0.469940 -0.138596 -0.000000 -1.000000 0.000000 255 255 255 1.000000
0.250898 0.212514 -0.127905 1.000000 0.000000 0.000000 251 196 127 1.000000
0.250898 -0.902559 0.178698 -1.000000 -0.000000 0.000000 255 255 255 1.000000
-0.248618 -0.254077 0.211548 1.000000 0.000000 0.000000 255 255 255 1.000000
-0.248618 0.082175 0.029154 -1.000000 -0.000000 0.000000 238 184 114 1.000000
0.235288 -0.201082 0.097189 -1.000000 -0.000000 0.000000 255 255 255 1.000000
0.215096 0.928449 -0.114052 -0.000000 1.000000 -0.000000 255 255 255 1.000000
0.250898 -0.186537 -0.014010 -1.000000 -0.000000 0.000000 255 255 255 1.000000
0.235288 0.221334 -0.216001 -1.000000 -0.000000 0.000000 255 255 255 1.000000
0.134659 -0.519359 -0.228828 0.000000 -0.000000 -1.000000 255 255 255 1.000000
0.222748 0.894656 0.230362 0.000000 0.000000 1.000000 250 198 128 1.000000
0.165592 -0.658792 -0.228828 0.000000 -0.000000 -1.000000 255 255 255 1.000000
0.250898 0.854407 0.114975 1.000000 0.000000 0.000000 249 196 129 1.000000
-0.017889 -0.938671 -0.018990 0.000000 -1.000000 0.000000 255 255 255 1.000000
0.235288 0.920841 -0.054487 1.000000 0.000000 0.000000 255 255 255 1.000000
-0.233008 -0.772447 -0.224299 1.000000 0.000000 0.000000 255 255 255 1.000000
0.250898 -0.280851 0.091808 -1.000000 -0.000000 0.000000 255 255 255 1.000000
0.250898 -0.909853 -0.085504 -1.000000 -0.000000 0.000000 255 255 255 1.000000
-0.178335 0.707019 0.230362 0.000000 0.000000 1.000000 253 201 129 1.000000
-0.228302 -0.706426 -0.228828 0.000000 -0.000000 -1.000000 255 255 255 1.000000
-0.248618 0.132708 0.144531 1.000000 0.000000 0.000000 255 255 255 1.000000
-0.065239 -0.917858 -0.170913 -0.000000 1.000000 -0.000000 255 255 255 1.000000
0.016543 0.483133 -0.000358 0.000000 1.000000 0.000000 255 255 255 1.000000
-0.154007 0.579478 0.245972 0.000000 0.000000 1.000000 251 196 124 1.000000
0.079972 0.928449 0.095616 -0.000000 1.000000 -0.000000 255 255 255 1.000000
0.106470 -0.469940 0.038138 -0.000000 -1.000000 0.000000 255 255 255 1.000000
-0.110090 0.017003 -0.013652 0.000000 1.000000 0.000000 255 255 255 1.000000
-0.176181 0.450054 -0.234031 0.000000 -0.000000 -1.000000 255 255 255 1.000000
0.040299 0.462319 0.139808 -0.000000 -1.000000 0.000000 255 255 255 1.000000
0.108964 -0.457178 -0.234031 0.000000 0.000000 1.000000 255 255 255 1.000000
0.033278 -0.917858 -0.083166 -0.000000 1.000000 -0.000000 255 255 255 1.000000
-0.248618 -0.227880 0.071781 -1.000000 -0.000000 0.000000 247 191 122 1.000000
0.008036 -0.793681 0.245972 0.000000 0.000000 1.000000 251 199 128 1.000000
0.216548 -0.012633 -0.249641 0.000000 -0.000000 -1.000000 255 255 255 1.000000
-0.166540 0.949262 0.105411 0.000000 -1.000000 0.000000 255 255 255 1.000000
-0.248618 0.336492 0.085007 -1.000000 -0.000000 0.000000 251 194 126 1.000000
-0.003691 -0.917858 0.055515 0.000000 -1.000000 0.000000 255 255 255 1.000000
0.235288 0.170975 0.047133 -1.000000 -0.000000 0.000000 255 255 255 1.000000
-0.248618 0.659343 0.145314 1.000000 0.000000 0.000000 255 255 255 1.000000
-0.027826 0.637764 -0.228828 0.000000 0.000000 1.000000 255 255 255 1.000000
0.250898 0.152159 -0.081180 -1.000000 -0.000000 0.000000 255 255 255 1.000000
0.250898 -0.611076 -0.116197 -1.000000 -0.000000 0.000000 255 255 255 1.000000
0.228672 -0.400790 0.230362 0.000000 0.000000 -1.000000 255 255 255 1.000000
-0.080454 0.903202 -0.234031 0.000000 -0.000000 -1.000000 255 255 255 1.000000
0.250898 0.337558 0.001199 1.000000 0.000000 0.000000 247 192 123 1.000000
-0.226335 0.928449 -0.221365 0.000000 -1.000000 0.000000 255 255 255 1.000000
0.010287 0.691886 0.230362 0.000000 0.000000 1.000000 249 197 127 1.000000
-0.233008 -0.151283 0.091453 1.000000 0.000000 0.000000 255 255 255 1.000000
-0.109739 -0.321884 0.245972 0.000000 0.000000 1.000000 247 192 124 1.000000
-0.186149 -0.459789 0.245972 0.000000 0.000000 1.000000 244 188 118 1.000000
-0.147166 0.462319 0.120297 0.000000 1.000000 0.000000 255 255 255 1.000000
0.151538 -0.469940 -0.064582 0.000000 1.000000 0.000000 255 255 255 1.000000
-0.102618 0.928449 -0.029012 -0.000000 1.000000 -0.000000 255 255 255 1.000000
-0.217270 0.017003 0.213653 0.000000 1.000000 0.000000 255 255 255 1.000000
0.250898 -0.607851 0.151235 -1.000000 -0.000000 0.000000 255 255 255 1.000000
