ply
format ascii 1.0
element vertex 1251
property float x
property float y
property float z
property uchar red
property uchar green
property uchar blue
end_header
0.341481 -0.360991 0.450873 127 127 0
-0.152694 0.650396 -0.503716 127 127 0
-0.215396 0.270738 -0.524602 127 127 0
0.558966 -0.027400 0.017564 127 127 0
0.427504 0.029889 -0.360541 127 127 0
-0.482375 0.475409 -0.299129 127 127 0
-0.370767 -0.042478 -0.428212 127 127 0
0.317783 0.885686 -0.281435 0 255 0
0.557422 0.346647 0.056918 127 127 0
0.521845 0.622738 -0.142359 127 127 0
-0.350839 0.061958 0.452290 127 127 0
0.221682 0.378621 -0.517810 127 127 0
0.536839 -0.696058 -0.158716 127 127 0
0.192967 -0.733021 -0.362039 127 127 0
0.507440 -0.065889 0.247864 127 127 0
0.508417 -0.610874 0.246315 127 127 0
0.112035 -0.240068 -0.551848 127 127 0
-0.387686 -0.238692 0.420818 127 127 0
0.326110 -0.702647 0.465084 127 127 0
0.526154 0.434745 0.194546 127 127 0
-0.185867 0.885686 -0.380043 0 255 0
0.059397 -0.786685 -0.559619 127 127 0
0.306874 -0.505951 0.476344 127 127 0
-0.181594 -0.121317 0.539150 127 127 0
0.432070 -0.816548 0.367122 127 127 0
0.164836 0.741908 0.434312 127 127 0
0.163065 -0.728897 0.543427 127 127 0
-0.363671 0.711570 0.326481 127 127 0
0.560238 0.040668 -0.014871 127 127 0
0.380075 0.885686 -0.080381 0 255 0
0.256731 0.572504 -0.499309 127 127 0
0.076790 0.437257 0.562955 127 127 0
-0.543320 0.374917 -0.168418 127 127 0
0.463284 -0.483190 -0.318793 127 127 0
0.406645 0.885686 0.128477 0 255 0
0.516158 -0.775850 -0.218312 127 127 0
-0.571365 -0.579294 0.029333 127 127 0
0.481359 -0.325110 -0.284443 127 127 0
-0.119425 0.885686 -0.149057 0 255 0
-0.038792 0.885686 0.412602 0 255 0
0.071174 -0.099891 0.564226 127 127 0
0.127618 -0.797333 -0.504278 127 127 0
0.456603 -0.652197 0.328448 127 127 0
0.252557 -0.730245 -0.202577 127 127 0
0.509144 -0.359826 0.245162 127 127 0
-0.547319 -0.028776 -0.155537 127 127 0
0.340963 0.710210 -0.335267 127 127 0
0.081627 -0.730245 -0.248703 127 127 0
0.511970 0.646623 0.121199 127 127 0
0.336750 0.404441 -0.448828 127 127 0
0.526618 -0.631200 0.193053 127 127 0
-0.399134 0.426607 -0.401986 127 127 0
-0.514763 -0.116992 0.246994 127 127 0
-0.498367 0.542544 0.278153 127 127 0
-0.446964 -0.748480 0.047962 127 127 0
0.498059 0.463394 -0.252706 127 127 0
-0.115336 -0.306906 0.559719 127 127 0
0.080674 0.401290 -0.558784 127 127 0
0.353221 -0.801008 0.440020 127 127 0
-0.453548 -0.752944 -0.008153 127 127 0
-0.192869 0.885686 -0.167189 0 255 0
0.416835 0.679668 -0.280598 127 127 0
0.346040 -0.730245 -0.039538 127 127 0
-0.256055 0.828184 -0.378929 0 255 0
0.526336 -0.383583 -0.198971 127 127 0
-0.091647 -0.730245 -0.338884 127 127 0
-0.557360 0.225733 0.121218 127 127 0
0.455931 -0.306167 -0.329794 127 127 0
-0.014635 0.546769 -0.562522 127 127 0
0.219645 -0.580588 0.522245 127 127 0
0.501415 -0.541437 -0.246329 127 127 0
-0.036218 -0.744418 -0.432519 127 127 0
0.531437 0.387423 -0.182581 127 127 0
-0.453304 -0.760461 -0.109350 127 127 0
-0.013223 -0.753420 -0.562467 127 127 0
-0.201394 0.572806 -0.531640 127 127 0
-0.251473 -0.757629 0.386933 127 127 0
-0.013169 -0.504047 -0.562465 127 127 0
-0.016716 -0.730245 -0.122156 127 127 0
0.479362 0.711385 -0.033447 127 127 0
-0.384733 0.885686 -0.087843 0 255 0
-0.043491 -0.571140 -0.563654 127 127 0
0.215020 0.067985 -0.519878 127 127 0
0.261647 -0.776121 -0.496208 127 127 0
0.540437 -0.529135 -0.142816 127 127 0
-0.125872 0.732049 -0.449999 0 255 0
0.339083 -0.089527 -0.447356 127 127 0
-0.016768 0.849207 -0.452541 0 255 0
-0.104057 -0.730245 -0.073404 127 127 0
-0.565033 -0.054692 0.087321 127 127 0
0.481162 0.522037 -0.284817 127 127 0
0.335857 -0.730245 -0.195377 127 127 0
0.493466 0.372664 0.270015 127 127 0
0.333931 -0.059070 0.457853 127 127 0
0.283632 0.885686 -0.163402 0 255 0
-0.563780 -0.128618 0.092857 127 127 0
-0.478534 -0.821039 0.315844 127 127 0
-0.168263 -0.730245 0.187473 127 127 0
0.556348 0.004129 0.084315 127 127 0
0.304098 -0.730245 -0.113230 127 127 0
-0.491865 0.609653 -0.267423 127 127 0
-0.277019 -0.223838 -0.492175 127 127 0
-0.233280 0.689491 -0.440717 127 127 0
-0.527930 -0.796356 0.005613 127 127 0
-0.144417 -0.802753 -0.512138 127 127 0
0.268932 0.467411 -0.491612 127 127 0
-0.095100 0.440142 -0.555700 127 127 0
0.386371 -0.763634 0.409372 127 127 0
-0.364476 0.798376 0.283914 0 255 0
0.166676 -0.482482 -0.534885 127 127 0
-0.084520 0.369064 0.564606 127 127 0
-0.059625 0.196230 0.565583 127 127 0
-0.105429 0.587496 -0.553362 127 127 0
0.557963 0.551483 0.043134 127 127 0
-0.571614 0.280225 0.035672 127 127 0
-0.332664 0.591802 0.463755 127 127 0
0.232394 -0.518450 -0.514484 127 127 0
0.366415 -0.730245 0.063127 127 127 0
-0.502704 0.217336 -0.266905 127 127 0
-0.024849 -0.730245 0.135670 127 127 0
-0.370528 0.236240 -0.428432 127 127 0
0.124627 -0.761047 0.447050 127 127 0
0.560937 0.487006 -0.032682 127 127 0
-0.568610 -0.355933 -0.040902 127 127 0
-0.408466 -0.820120 0.398342 127 127 0
0.342020 0.725601 0.325498 0 255 0
-0.468686 0.735061 0.067024 0 255 0
-0.557031 -0.559187 0.122670 127 127 0
0.196114 -0.754407 0.406066 127 127 0
-0.305041 -0.730245 -0.023795 127 127 0
-0.334163 -0.432437 0.462810 127 127 0
0.250275 0.259426 -0.503382 127 127 0
0.114449 -0.509645 0.554431 127 127 0
-0.558560 -0.294563 -0.119325 127 127 0
-0.137052 -0.730245 0.020015 127 127 0
-0.216523 0.885686 0.008695 0 255 0
0.307429 -0.694003 -0.467326 127 127 0
0.160873 0.885686 -0.357724 0 255 0
-0.562519 -0.173140 -0.106571 127 127 0
0.128074 0.231345 -0.546869 127 127 0
-0.270024 0.885686 0.158373 0 255 0
-0.571250 0.133872 0.026409 127 127 0
-0.194680 0.511633 -0.533160 127 127 0
0.305030 0.070416 -0.468839 127 127 0
0.323864 0.885686 0.096461 0 255 0
0.540148 -0.018174 -0.144094 127 127 0
-0.006614 0.885686 -0.403207 0 255 0
-0.152365 0.885686 0.284414 0 255 0
-0.315908 -0.730245 -0.124676 127 127 0
-0.467534 0.040697 0.334451 127 127 0
-0.392155 0.885686 0.179916 0 255 0
0.167334 0.608708 -0.526079 127 127 0
-0.344742 -0.145543 -0.452272 127 127 0
-0.567631 0.279826 -0.065864 127 127 0
0.013695 -0.035879 0.568458 127 127 0
-0.285986 0.885686 -0.003514 0 255 0
-0.108581 -0.357469 -0.552648 127 127 0
-0.029571 -0.796698 -0.521186 127 127 0
-0.499348 0.696778 0.007606 127 127 0
-0.067199 -0.730245 0.204536 127 127 0
0.433439 -0.658428 -0.354122 127 127 0
-0.414561 -0.745334 0.159990 127 127 0
-0.570560 0.453996 0.062900 127 127 0
-0.547478 -0.258146 0.164877 127 127 0
-0.005878 -0.731959 0.415649 127 127 0
0.375343 0.731492 0.277516 127 127 0
-0.350716 -0.698824 0.452367 127 127 0
-0.429429 0.396337 -0.373978 127 127 0
0.333948 0.606217 0.449073 127 127 0
0.067506 -0.442054 -0.559300 127 127 0
-0.491770 0.055444 -0.284237 127 127 0
-0.268910 0.497216 -0.496442 127 127 0
-0.278163 0.723207 -0.389890 127 127 0
-0.048394 0.478075 -0.563846 127 127 0
0.344383 0.792974 -0.288439 0 255 0
0.408679 0.351761 0.388747 127 127 0
0.273358 -0.287732 -0.488820 127 127 0
0.427358 0.517628 0.371479 127 127 0
0.041453 0.523622 -0.560322 127 127 0
-0.080675 0.774051 0.454692 0 255 0
0.218574 -0.730245 0.065283 127 127 0
-0.211282 0.885686 -0.087396 0 255 0
0.366074 0.837622 -0.264977 0 255 0
0.307979 0.436332 0.475763 127 127 0
-0.184058 -0.312674 0.538385 127 127 0
0.462650 0.377424 -0.319997 127 127 0
-0.128063 0.885686 -0.272032 0 255 0
-0.448157 0.205065 0.355409 127 127 0
0.334341 -0.249407 -0.450348 127 127 0
0.096388 0.885686 0.401020 0 255 0
0.049527 -0.769214 -0.471334 127 127 0
-0.424294 0.745625 -0.192537 0 255 0
0.236481 0.885686 0.102362 0 255 0
-0.075999 -0.803526 0.534633 127 127 0
0.177036 -0.175032 -0.531669 127 127 0
0.132904 -0.623135 0.550253 127 127 0
-0.326693 0.878577 0.324781 0 255 0
0.004708 0.307251 -0.561763 127 127 0
0.136167 0.711950 -0.458553 127 127 0
0.484691 -0.094205 0.283924 127 127 0
-0.461791 0.446197 -0.331757 127 127 0
0.554166 -0.817084 -0.044837 127 127 0
0.537781 -0.819309 -0.138882 127 127 0
0.527316 0.377713 0.190805 127 127 0
-0.568042 -0.766086 -0.055387 127 127 0
-0.424466 -0.499889 0.381036 127 127 0
-0.372430 0.537401 -0.426674 127 127 0
-0.527947 -0.783048 0.221940 127 127 0
-0.110847 0.566349 0.561113 127 127 0
-0.546612 0.019407 -0.157814 127 127 0
-0.384701 0.150139 0.424047 127 127 0
0.420223 -0.747482 0.112342 127 127 0
-0.060631 0.885686 -0.317015 0 255 0
-0.045003 0.885686 -0.061339 0 255 0
0.509352 0.570261 -0.231246 127 127 0
0.543850 -0.439735 -0.127740 127 127 0
0.119716 0.046368 -0.549463 127 127 0
0.548722 0.324132 0.121848 127 127 0
0.066945 -0.730245 0.013117 127 127 0
0.021300 0.138701 0.568757 127 127 0
-0.398296 0.825002 -0.226278 0 255 0
-0.294269 0.269578 -0.483098 127 127 0
0.471787 0.694968 -0.129855 127 127 0
0.558737 -0.536364 0.023389 127 127 0
0.416184 -0.151556 0.381809 127 127 0
0.391970 0.729603 -0.251272 0 255 0
0.346085 0.514163 0.446617 127 127 0
-0.168742 -0.736536 -0.539031 127 127 0
0.120064 -0.053264 -0.549355 127 127 0
-0.224889 -0.017176 -0.519607 127 127 0
0.203905 -0.049665 0.530528 127 127 0
-0.324180 0.391717 0.469108 127 127 0
-0.032510 0.179978 -0.563223 127 127 0
0.546513 -0.118976 0.128965 127 127 0
-0.113853 0.278461 0.560179 127 127 0
-0.144112 0.649243 0.511873 127 127 0
0.449445 -0.252249 -0.336810 127 127 0
-0.568119 -0.526518 -0.053437 127 127 0
-0.498813 -0.785517 -0.273072 127 127 0
-0.120780 0.885686 0.347713 0 255 0
0.559368 0.133445 0.007296 127 127 0
-0.442949 0.885686 0.111361 0 255 0
-0.230819 0.705952 0.436181 127 127 0
0.271266 -0.481106 -0.490140 127 127 0
0.394321 0.571949 0.402022 127 127 0
-0.124215 0.047192 0.556963 127 127 0
-0.533993 -0.477706 0.210451 127 127 0
0.209574 -0.730245 -0.271264 127 127 0
-0.116265 -0.450983 0.559431 127 127 0
0.234526 0.152394 0.514415 127 127 0
0.414521 -0.225760 -0.374584 127 127 0
0.557623 0.181547 0.051793 127 127 0
0.426063 0.846530 -0.149938 0 255 0
0.514834 -0.461999 0.231012 127 127 0
-0.144032 -0.691724 -0.544624 127 127 0
0.126162 -0.752740 -0.425370 127 127 0
0.118754 -0.730245 0.186378 127 127 0
-0.069606 -0.736012 -0.561470 127 127 0
0.124817 0.375753 -0.547880 127 127 0
0.460130 0.454653 0.322857 127 127 0
-0.478624 0.562967 -0.305074 127 127 0
0.551793 0.507924 -0.092648 127 127 0
-0.569710 0.444079 -0.012874 127 127 0
-0.328461 -0.251485 -0.465106 127 127 0
-0.024138 0.885686 -0.011465 0 255 0
0.451462 0.595012 0.336596 127 127 0
0.521748 0.191119 0.208739 127 127 0
0.028182 0.439478 0.569026 127 127 0
-0.060596 -0.730245 -0.205312 127 127 0
-0.132075 -0.730245 0.268779 127 127 0
-0.013023 -0.131079 -0.562459 127 127 0
0.124363 -0.730245 0.089037 127 127 0
-0.280589 -0.769907 -0.490297 127 127 0
0.435562 0.548982 -0.351826 127 127 0
0.535207 -0.043580 0.165385 127 127 0
0.201604 -0.656387 0.531738 127 127 0
-0.424437 -0.772193 -0.378593 127 127 0
-0.521184 -0.378831 0.234792 127 127 0
0.359377 0.363050 0.434328 127 127 0
0.090713 0.150400 -0.558390 127 127 0
-0.380452 -0.544405 0.428643 127 127 0
0.026029 -0.615112 0.568942 127 127 0
0.313795 0.036986 0.472702 127 127 0
0.446165 0.245841 -0.340357 127 127 0
0.491281 -0.449622 -0.265587 127 127 0
0.334818 -0.398938 -0.450047 127 127 0
0.076242 -0.629618 -0.558958 127 127 0
0.448237 0.758451 0.034497 127 127 0
-0.269759 0.528582 0.503440 127 127 0
0.491333 0.438011 0.273394 127 127 0
0.489818 0.351180 -0.268368 127 127 0
-0.518701 -0.592955 -0.241547 127 127 0
0.384751 -0.334641 -0.406785 127 127 0
-0.460616 0.781453 0.011905 0 255 0
-0.173879 0.172664 0.541545 127 127 0
0.295663 0.325771 -0.474748 127 127 0
0.512273 -0.794561 0.046490 127 127 0
-0.000551 -0.775601 0.567900 127 127 0
-0.216483 -0.730245 -0.002480 127 127 0
-0.393075 0.044758 -0.407588 127 127 0
0.183255 -0.730245 -0.096470 127 127 0
0.494726 0.068714 0.268016 127 127 0
0.224527 0.460061 0.519676 127 127 0
0.173057 0.006915 -0.532905 127 127 0
-0.564157 0.044562 -0.101297 127 127 0
0.003116 0.407696 -0.561826 127 127 0
0.526007 0.538618 -0.199596 127 127 0
0.334486 0.885686 -0.069425 0 255 0
0.445594 -0.236736 0.345898 127 127 0
0.081500 -0.016921 -0.558752 127 127 0
0.361050 0.425410 0.432782 127 127 0
0.014302 -0.262927 0.568482 127 127 0
-0.549334 0.191638 0.156679 127 127 0
0.169636 0.259934 -0.533967 127 127 0
0.148340 -0.689105 -0.540578 127 127 0
0.348464 -0.527330 -0.441439 127 127 0
-0.365735 -0.092328 0.442892 127 127 0
-0.249522 -0.730245 -0.322550 127 127 0
-0.528392 0.359693 -0.216505 127 127 0
-0.036027 0.885686 0.109959 0 255 0
-0.257529 -0.798666 -0.458874 127 127 0
-0.180082 -0.384995 0.539620 127 127 0
-0.228129 -0.730245 -0.261822 127 127 0
0.385311 -0.749369 0.212176 127 127 0
0.475106 -0.418708 0.299116 127 127 0
0.514016 -0.058216 -0.222383 127 127 0
-0.510320 0.102259 0.255437 127 127 0
0.331245 -0.020101 -0.452301 127 127 0
-0.495050 0.515867 -0.279037 127 127 0
0.214967 -0.801083 0.485794 127 127 0
0.388418 0.885686 -0.140935 0 255 0
-0.096023 -0.778733 -0.555491 127 127 0
-0.169020 0.838930 0.427896 0 255 0
0.077295 -0.713533 -0.558917 127 127 0
-0.213813 -0.807580 -0.499000 127 127 0
0.519704 0.021928 0.215326 127 127 0
-0.158120 -0.730245 -0.194715 127 127 0
-0.030209 0.588660 0.566736 127 127 0
-0.491253 -0.332419 0.291672 127 127 0
0.534671 0.460703 -0.168292 127 127 0
0.437366 0.169567 0.358941 127 127 0
-0.065751 0.380131 -0.562343 127 127 0
-0.476306 0.474322 0.320076 127 127 0
0.556967 -0.628738 0.068528 127 127 0
0.270076 -0.730245 0.080922 127 127 0
-0.427530 0.692438 0.266722 127 127 0
-0.499814 0.195939 0.275403 127 127 0
0.507825 0.610094 0.222540 127 127 0
0.104259 -0.671788 0.556737 127 127 0
-0.205402 -0.356314 -0.529861 127 127 0
0.380052 -0.543808 0.415214 127 127 0
0.134837 0.527972 -0.544769 127 127 0
0.557611 0.438599 0.052119 127 127 0
0.158892 -0.730245 0.123577 127 127 0
0.555993 -0.777419 0.093369 127 127 0
-0.544909 -0.769841 0.176225 127 127 0
0.046329 0.229814 -0.560131 127 127 0
0.162650 0.885686 -0.274293 0 255 0
0.448792 0.841568 0.020332 0 255 0
0.318463 -0.778549 -0.460365 127 127 0
0.479357 0.597699 -0.287489 127 127 0
0.004030 0.261006 -0.561790 127 127 0
0.237108 0.250020 0.513056 127 127 0
0.497946 -0.293844 -0.252922 127 127 0
-0.448487 0.771905 0.104033 0 255 0
-0.460330 -0.117711 -0.334073 127 127 0
-0.213674 0.316025 0.529192 127 127 0
-0.364653 0.656199 0.383670 127 127 0
0.226238 -0.093098 0.518776 127 127 0
-0.565755 0.497729 -0.096148 127 127 0
-0.135518 -0.712590 0.553454 127 127 0
0.103386 -0.773571 0.556935 127 127 0
-0.015950 0.009497 -0.562574 127 127 0
-0.511226 -0.111675 -0.253395 127 127 0
-0.260350 0.449504 0.509375 127 127 0
-0.377485 0.845234 0.269842 0 255 0
-0.324558 -0.303351 -0.467159 127 127 0
-0.547438 -0.688673 0.165052 127 127 0
0.240028 -0.145932 -0.509846 127 127 0
0.176911 -0.730245 -0.181034 127 127 0
-0.550133 0.574059 0.153146 127 127 0
-0.047748 0.786622 -0.453655 0 255 0
-0.457413 0.816723 -0.069779 0 255 0
0.545607 -0.358847 0.131885 127 127 0
-0.495352 -0.443192 0.283883 127 127 0
0.437829 -0.475899 0.358207 127 127 0
-0.199590 -0.762711 0.429216 127 127 0
-0.142886 -0.016669 0.551167 127 127 0
-0.314708 -0.265783 0.475083 127 127 0
-0.245072 0.239328 -0.508986 127 127 0
0.367710 0.885686 -0.204663 0 255 0
-0.526239 0.175415 0.225186 127 127 0
-0.552128 0.337537 -0.140044 127 127 0
-0.487252 -0.052505 0.299277 127 127 0
0.197963 -0.132986 0.533654 127 127 0
0.076337 0.296864 0.563057 127 127 0
0.172229 0.291921 0.541352 127 127 0
-0.557119 -0.222226 0.122284 127 127 0
-0.569012 0.534763 -0.030657 127 127 0
0.186905 0.885686 0.407490 0 255 0
-0.302753 0.729414 0.370989 127 127 0
-0.564515 0.133077 0.089608 127 127 0
-0.356054 -0.730245 0.112400 127 127 0
-0.519373 0.054416 -0.240481 127 127 0
0.086324 0.260558 -0.558562 127 127 0
0.508995 -0.475692 -0.231924 127 127 0
0.208077 -0.180938 0.528332 127 127 0
0.410544 -0.226962 0.387023 127 127 0
0.082228 -0.580456 0.561724 127 127 0
0.417726 0.739381 0.199773 127 127 0
0.392999 -0.298317 0.403244 127 127 0
0.041170 0.885686 0.063770 0 255 0
0.466707 0.423572 -0.312288 127 127 0
-0.119158 -0.226897 -0.550254 127 127 0
0.556127 -0.298190 0.089953 127 127 0
-0.427174 0.169008 -0.376063 127 127 0
0.214641 0.333609 -0.519995 127 127 0
-0.020940 -0.359773 -0.562769 127 127 0
0.267476 -0.706165 -0.492531 127 127 0
0.358259 -0.160367 -0.435259 127 127 0
0.154893 -0.730245 -0.271451 127 127 0
-0.290333 -0.594363 -0.485169 127 127 0
-0.061963 -0.749711 0.443646 127 127 0
0.145595 -0.139242 -0.541430 127 127 0
-0.314512 -0.717394 -0.472446 127 127 0
0.295734 -0.603019 0.482206 127 127 0
0.283494 -0.650557 0.488647 127 127 0
0.182547 0.852760 -0.414801 0 255 0
-0.030396 0.885686 0.206867 0 255 0
0.360250 -0.704964 0.433521 127 127 0
0.386152 0.261505 -0.405270 127 127 0
-0.483913 -0.075164 -0.296690 127 127 0
0.106408 0.666857 -0.501510 127 127 0
-0.293463 -0.769137 0.488486 127 127 0
0.169656 0.106874 -0.533960 127 127 0
0.307727 -0.769886 0.475895 127 127 0
-0.304407 0.164002 0.481582 127 127 0
-0.568002 0.198671 -0.056420 127 127 0
0.475328 -0.797983 0.224347 127 127 0
0.264897 -0.105473 0.498433 127 127 0
-0.133653 -0.800303 0.516586 127 127 0
-0.527510 0.455498 -0.219348 127 127 0
-0.407917 0.126701 -0.393865 127 127 0
0.536829 -0.717726 0.160160 127 127 0
0.343515 0.228387 -0.444561 127 127 0
0.531266 -0.608235 -0.183335 127 127 0
0.123235 -0.007967 0.552442 127 127 0
-0.068081 0.885686 0.341731 0 255 0
-0.467611 0.239751 -0.322532 127 127 0
-0.244414 0.409241 -0.509332 127 127 0
-0.364503 0.850612 -0.279846 0 255 0
0.186994 0.885686 0.022778 0 255 0
-0.489334 -0.777309 0.295319 127 127 0
0.272530 0.303810 0.494417 127 127 0
0.309128 0.777121 0.331003 0 255 0
0.264504 -0.395775 -0.494405 127 127 0
-0.407329 0.707256 -0.270786 127 127 0
0.224423 0.047846 0.519731 127 127 0
-0.435032 0.405692 0.369606 127 127 0
-0.473089 0.259424 0.326192 127 127 0
-0.503963 -0.001310 0.267518 127 127 0
-0.205500 0.035948 0.531729 127 127 0
0.205438 0.223921 -0.522852 127 127 0
-0.400198 -0.730245 -0.036283 127 127 0
-0.329682 0.619817 -0.444202 127 127 0
0.557221 -0.035153 0.062052 127 127 0
0.351816 -0.759212 0.296627 127 127 0
0.202567 0.885686 -0.153025 0 255 0
0.465341 0.098911 0.314596 127 127 0
0.509215 0.271012 -0.231506 127 127 0
-0.539676 0.012413 0.199345 127 127 0
-0.372267 -0.779603 -0.330205 127 127 0
-0.354548 -0.652977 -0.443206 127 127 0
-0.474396 0.676567 0.201998 127 127 0
0.201081 -0.236142 -0.524205 127 127 0
0.418989 0.091815 0.379215 127 127 0
0.486421 0.694370 0.088486 127 127 0
0.244084 -0.732162 0.509385 127 127 0
-0.396433 -0.458333 0.411356 127 127 0
0.362433 0.560088 0.431502 127 127 0
-0.399738 -0.585675 0.407782 127 127 0
0.517877 0.193149 -0.215045 127 127 0
-0.050985 0.885686 0.027730 0 255 0
-0.015294 0.845797 0.457256 0 255 0
0.447702 0.457308 -0.338694 127 127 0
-0.435829 0.703995 -0.229975 127 127 0
0.100293 -0.773598 -0.470520 127 127 0
-0.367807 0.885686 0.060816 0 255 0
0.075757 0.122845 0.563189 127 127 0
-0.408096 -0.739222 -0.133220 127 127 0
0.508952 -0.726564 -0.232005 127 127 0
-0.472299 -0.112693 0.327691 127 127 0
-0.555747 0.619193 0.031819 127 127 0
0.540174 0.614890 0.106783 127 127 0
0.083333 0.451234 -0.558680 127 127 0
0.319771 0.163021 -0.459540 127 127 0
-0.251695 0.885686 0.084672 0 255 0
-0.182859 0.578375 0.538758 127 127 0
-0.248807 -0.289768 -0.507021 127 127 0
-0.332012 0.397839 -0.463237 127 127 0
0.421232 -0.774974 -0.229461 127 127 0
-0.047044 -0.069071 -0.563793 127 127 0
0.488300 -0.586591 0.278203 127 127 0
-0.550717 0.417847 -0.144591 127 127 0
-0.499735 -0.780660 -0.032545 127 127 0
-0.344042 0.138152 -0.452919 127 127 0
0.335425 -0.734047 -0.449664 127 127 0
0.399775 0.800244 -0.203308 0 255 0
-0.055015 -0.213657 -0.564106 127 127 0
0.205104 -0.779650 -0.448088 127 127 0
-0.140485 0.502344 -0.545427 127 127 0
0.028448 0.631500 -0.536321 127 127 0
0.374235 0.221330 0.420591 127 127 0
-0.049390 0.885686 -0.143064 0 255 0
0.372709 0.784225 0.255304 0 255 0
-0.252620 0.235454 0.514252 127 127 0
0.444173 0.826768 0.087675 0 255 0
0.456304 0.737221 -0.061577 127 127 0
0.556805 -0.712741 0.072660 127 127 0
-0.173313 0.400363 0.541721 127 127 0
-0.565568 -0.775357 0.084957 127 127 0
-0.518220 -0.209283 -0.242309 127 127 0
-0.347943 0.508760 0.454117 127 127 0
-0.309449 -0.730245 -0.246591 127 127 0
-0.084097 0.309277 -0.558190 127 127 0
-0.317595 -0.065714 -0.470823 127 127 0
0.515775 0.318792 -0.219039 127 127 0
-0.320256 0.299918 0.471583 127 127 0
0.192628 -0.730245 0.215100 127 127 0
-0.192304 0.885686 -0.214827 0 255 0
0.080699 0.885686 -0.262337 0 255 0
-0.406767 0.060591 0.400179 127 127 0
-0.534403 -0.152117 -0.197142 127 127 0
0.405239 -0.635642 0.391928 127 127 0
0.178265 0.181163 0.539986 127 127 0
-0.270477 -0.804011 0.468154 127 127 0
0.085824 0.306655 -0.558582 127 127 0
-0.187002 -0.238323 0.537472 127 127 0
0.130048 -0.786353 0.489922 127 127 0
-0.302729 -0.730245 0.231293 127 127 0
0.197096 0.885686 0.302349 0 255 0
0.558750 0.317930 0.023059 127 127 0
-0.140749 0.316044 -0.545367 127 127 0
0.534131 -0.123382 -0.170680 127 127 0
0.331965 0.601885 -0.447895 127 127 0
-0.546679 0.109492 0.168405 127 127 0
-0.509641 -0.475374 0.256728 127 127 0
-0.567896 -0.275171 0.074671 127 127 0
0.499132 -0.782591 0.261033 127 127 0
0.417979 -0.799224 0.319206 127 127 0
-0.072179 0.132775 0.565090 127 127 0
0.147362 -0.049509 0.546981 127 127 0
-0.434995 -0.253059 -0.368831 127 127 0
0.545718 -0.265325 0.131526 127 127 0
-0.409899 -0.180037 -0.392034 127 127 0
-0.193506 0.774204 -0.411843 0 255 0
-0.151267 0.885686 0.076607 0 255 0
-0.531323 0.411520 0.215524 127 127 0
-0.166596 0.347990 0.543806 127 127 0
0.118181 0.816670 -0.434782 0 255 0
-0.546511 -0.772401 -0.158140 127 127 0
0.470976 0.720435 0.015431 127 127 0
-0.198309 -0.730245 0.090781 127 127 0
-0.481765 -0.340519 -0.300096 127 127 0
0.517526 -0.716514 0.222340 127 127 0
-0.300057 -0.112534 0.484326 127 127 0
0.065953 -0.730245 0.156732 127 127 0
0.329937 0.524028 -0.453126 127 127 0
-0.146945 -0.139882 -0.543964 127 127 0
0.214209 -0.057273 -0.520130 127 127 0
-0.484057 -0.607727 0.305348 127 127 0
-0.298557 -0.415465 0.485272 127 127 0
0.552253 -0.087334 -0.090615 127 127 0
0.206143 -0.343214 0.529350 127 127 0
0.103233 -0.730245 -0.389712 127 127 0
0.169274 -0.730245 -0.022661 127 127 0
0.218247 0.885686 -0.343777 0 255 0
0.259587 -0.820801 -0.497508 127 127 0
-0.570734 0.082815 0.013232 127 127 0
-0.248815 -0.461152 -0.507016 127 127 0
-0.371184 0.228082 0.438667 127 127 0
0.449715 0.729850 -0.114526 127 127 0
0.047216 0.372708 -0.560096 127 127 0
-0.350714 0.451257 -0.446751 127 127 0
-0.172041 0.839415 -0.423138 0 255 0
0.408971 0.830890 0.197823 0 255 0
0.141867 -0.395443 -0.542587 127 127 0
0.449826 -0.415637 0.339190 127 127 0
0.545075 0.381919 -0.122330 127 127 0
0.187666 -0.711995 -0.528369 127 127 0
0.551968 0.002458 -0.091876 127 127 0
-0.114442 -0.596377 -0.551321 127 127 0
0.354393 -0.797949 0.384782 127 127 0
0.260448 0.885686 0.065219 0 255 0
-0.327363 0.211635 0.467100 127 127 0
0.521924 -0.085661 0.208172 127 127 0
-0.520745 0.522782 -0.238306 127 127 0
0.447188 0.789562 -0.056606 0 255 0
-0.484404 -0.462313 -0.295913 127 127 0
-0.103126 0.532795 -0.553883 127 127 0
0.054460 0.885686 -0.072025 0 255 0
-0.280129 0.331585 -0.490539 127 127 0
-0.407360 -0.415622 0.399538 127 127 0
-0.292201 -0.013524 0.489282 127 127 0
0.044127 0.772082 0.457585 0 255 0
0.486955 -0.376272 0.280334 127 127 0
-0.280453 0.385722 0.496693 127 127 0
0.322158 0.885686 -0.237911 0 255 0
-0.318265 -0.498421 -0.470471 127 127 0
0.378733 0.885686 0.184914 0 255 0
-0.571733 -0.780547 0.038714 127 127 0
-0.403933 -0.765026 -0.244068 127 127 0
0.559627 -0.771956 0.000708 127 127 0
-0.038666 -0.261072 -0.563465 127 127 0
0.126000 0.187534 -0.547513 127 127 0
0.221207 0.709960 -0.426511 127 127 0
0.196188 0.336884 0.534589 127 127 0
-0.559983 0.563344 -0.114740 127 127 0
0.347523 0.451909 -0.442032 127 127 0
0.054040 -0.105694 -0.559829 127 127 0
-0.510669 0.675892 -0.084056 127 127 0
0.463927 0.101735 -0.317570 127 127 0
0.475893 0.003915 0.297870 127 127 0
-0.109532 0.208071 0.561521 127 127 0
0.103216 0.885686 -0.210439 0 255 0
-0.080594 0.017782 -0.558983 127 127 0
0.036582 0.842375 -0.450448 0 255 0
0.494776 -0.799326 -0.175030 127 127 0
-0.103438 -0.730245 -0.392534 127 127 0
-0.125877 0.159581 -0.548733 127 127 0
0.288630 -0.742473 0.317169 127 127 0
-0.005511 -0.118343 0.567705 127 127 0
-0.431972 0.511634 0.372916 127 127 0
-0.169222 0.710753 0.458083 127 127 0
-0.404089 0.499211 -0.397404 127 127 0
-0.403498 -0.384320 -0.397951 127 127 0
-0.410675 0.885686 -0.122784 0 255 0
0.211343 0.170154 -0.521019 127 127 0
-0.411807 -0.797274 -0.334311 127 127 0
0.558478 0.481132 0.029989 127 127 0
-0.476539 0.377370 -0.308379 127 127 0
-0.389398 -0.708931 -0.410987 127 127 0
-0.025910 0.692058 -0.495173 127 127 0
0.557835 -0.353541 0.046396 127 127 0
-0.392660 -0.504429 0.415438 127 127 0
0.070176 0.042135 0.564452 127 127 0
-0.210757 0.436848 -0.527043 127 127 0
-0.342558 0.885686 -0.075679 0 255 0
0.257822 -0.574003 0.502156 127 127 0
-0.461119 0.160205 -0.332821 127 127 0
-0.173162 -0.599039 -0.538030 127 127 0
0.043497 0.326703 -0.560242 127 127 0
-0.181471 0.254142 0.539189 127 127 0
-0.019812 0.764935 0.457079 0 255 0
0.511587 -0.799592 -0.102807 127 127 0
0.459985 0.519908 -0.325061 127 127 0
0.514436 0.521871 0.232296 127 127 0
-0.311894 0.177028 -0.473824 127 127 0
-0.275579 0.885686 -0.185476 0 255 0
0.397485 0.301876 0.399097 127 127 0
0.556124 0.520560 0.090027 127 127 0
0.131243 0.479709 -0.545885 127 127 0
0.550702 -0.608375 -0.097468 127 127 0
0.123212 0.246852 0.552447 127 127 0
0.020885 -0.730245 -0.330333 127 127 0
-0.474837 -0.783613 -0.172711 127 127 0
-0.529379 -0.213611 0.219219 127 127 0
-0.532557 0.203037 -0.203089 127 127 0
0.405497 0.885686 0.043218 0 255 0
0.372731 -0.479647 -0.419786 127 127 0
-0.288847 0.885686 0.207053 0 255 0
-0.268588 0.172631 0.504179 127 127 0
0.266631 -0.210923 -0.493064 127 127 0
-0.572125 0.369704 0.048720 127 127 0
-0.478264 -0.555405 -0.305646 127 127 0
-0.445559 -0.522700 -0.357487 127 127 0
0.300829 0.385775 -0.471489 127 127 0
-0.216767 0.885686 0.164752 0 255 0
-0.137511 0.885686 0.388750 0 255 0
0.017887 0.364875 0.568623 127 127 0
0.095317 -0.730245 0.311090 127 127 0
0.560349 -0.645822 -0.017708 127 127 0
-0.132614 0.459980 -0.547208 127 127 0
0.537405 -0.392224 0.158303 127 127 0
0.508905 -0.196778 -0.232096 127 127 0
0.313342 0.861944 0.327107 0 255 0
-0.119461 0.885686 -0.097942 0 255 0
-0.005483 0.176278 0.567706 127 127 0
0.553213 -0.651872 -0.086372 127 127 0
0.062851 -0.730245 0.342709 127 127 0
-0.113936 0.885686 -0.010821 0 255 0
0.234054 -0.269488 0.514663 127 127 0
0.144557 0.430655 0.547616 127 127 0
0.520733 0.650251 0.025740 127 127 0
-0.401758 0.309339 -0.399559 127 127 0
0.297185 0.885686 -0.114380 0 255 0
0.098298 0.079155 0.558087 127 127 0
-0.495627 0.133266 -0.278122 127 127 0
0.444880 -0.009598 -0.341747 127 127 0
-0.022415 -0.730245 -0.361130 127 127 0
0.479219 -0.155978 -0.288509 127 127 0
0.552062 -0.504588 0.111089 127 127 0
-0.355541 -0.730245 -0.096981 127 127 0
0.258308 -0.730245 0.275144 127 127 0
-0.121878 0.077490 -0.549638 127 127 0
-0.539860 0.268196 0.198531 127 127 0
0.539830 0.145553 -0.145502 127 127 0
0.394009 -0.734387 -0.120248 127 127 0
-0.438688 -0.301439 0.365653 127 127 0
0.140395 -0.779876 -0.543044 127 127 0
-0.197875 -0.548144 -0.532437 127 127 0
-0.106151 -0.099289 0.562570 127 127 0
0.181373 -0.503135 0.539283 127 127 0
0.555680 -0.167446 0.099437 127 127 0
0.555784 0.166515 0.098688 127 127 0
0.490429 -0.246553 -0.267207 127 127 0
0.042657 -0.398654 -0.560275 127 127 0
-0.037127 0.516216 0.566465 127 127 0
-0.082943 -0.569094 0.564668 127 127 0
0.501047 -0.021298 0.257998 127 127 0
0.378664 -0.742273 -0.191001 127 127 0
0.246405 -0.443111 0.508164 127 127 0
-0.548277 0.113549 -0.152448 127 127 0
0.556089 0.251762 0.090917 127 127 0
-0.537987 0.583005 0.202860 127 127 0
-0.116561 -0.648346 0.559339 127 127 0
-0.472914 0.010556 -0.314125 127 127 0
-0.498753 -0.278088 -0.273168 127 127 0
0.203690 -0.819155 -0.523395 127 127 0
-0.569300 -0.011056 -0.023326 127 127 0
-0.070971 -0.730245 0.359475 127 127 0
-0.025802 0.885686 0.260108 0 255 0
0.336908 0.308260 -0.448728 127 127 0
0.034157 -0.046565 -0.560608 127 127 0
-0.084987 -0.730245 0.114886 127 127 0
0.406049 0.419399 -0.383749 127 127 0
0.443442 -0.146886 0.349309 127 127 0
0.318464 0.667687 -0.400850 127 127 0
-0.519633 0.350194 0.237740 127 127 0
0.260160 0.700275 -0.410114 127 127 0
-0.147477 0.495410 0.549741 127 127 0
0.104081 0.885686 0.002727 0 255 0
-0.109078 -0.493337 0.561662 127 127 0
0.469609 -0.229744 -0.306773 127 127 0
-0.266887 -0.382627 -0.497507 127 127 0
0.248349 -0.182106 0.507141 127 127 0
0.459592 0.717270 0.119749 127 127 0
0.278592 0.473513 0.491226 127 127 0
-0.012190 -0.730245 0.047728 127 127 0
0.296175 -0.730245 0.233190 127 127 0
-0.354511 0.012830 0.449973 127 127 0
0.059461 -0.730245 -0.397370 127 127 0
0.211771 -0.427583 -0.520886 127 127 0
-0.547733 -0.820486 0.157144 127 127 0
-0.349496 0.711351 -0.336858 127 127 0
-0.063106 -0.730245 -0.149194 127 127 0
0.463094 0.612508 0.297674 127 127 0
0.153674 0.488190 0.545552 127 127 0
0.475557 -0.094558 -0.295468 127 127 0
0.082979 -0.537964 0.561554 127 127 0
0.359018 0.755960 -0.272609 0 255 0
0.213338 0.805396 0.401286 0 255 0
-0.348423 0.885686 -0.238532 0 255 0
-0.551755 0.468683 -0.141245 127 127 0
0.143602 0.150888 0.547832 127 127 0
-0.101764 0.885686 0.423329 0 255 0
-0.453304 -0.476505 0.349843 127 127 0
-0.247267 0.843065 0.387592 0 255 0
-0.437323 0.835721 0.153358 0 255 0
0.040039 0.216141 0.569492 127 127 0
-0.451526 0.451418 0.351766 127 127 0
0.410055 0.191161 0.387476 127 127 0
0.330511 -0.474287 0.461015 127 127 0
-0.315802 0.082508 0.474393 127 127 0
-0.349213 -0.785966 0.453315 127 127 0
0.543960 0.465569 -0.127255 127 127 0
0.461184 0.691236 0.177333 127 127 0
-0.240386 -0.157335 0.520899 127 127 0
-0.550425 0.461785 0.151859 127 127 0
0.368108 0.856481 0.262597 0 255 0
0.561157 0.364875 -0.038311 127 127 0
-0.007657 -0.593623 -0.562248 127 127 0
-0.378705 -0.736882 0.197278 127 127 0
0.102892 0.165145 0.557047 127 127 0
0.295865 -0.061590 0.482137 127 127 0
-0.147137 -0.774942 -0.543921 127 127 0
-0.387708 -0.797023 -0.412549 127 127 0
0.113284 0.885686 -0.398407 0 255 0
0.478364 -0.544813 -0.290135 127 127 0
-0.054485 0.020364 0.565784 127 127 0
-0.564627 -0.624356 0.089113 127 127 0
0.530742 -0.555837 -0.185652 127 127 0
-0.296007 0.885686 -0.302935 0 255 0
-0.065870 -0.730245 -0.053508 127 127 0
0.505358 0.672461 -0.054347 127 127 0
0.556074 0.187267 -0.073734 127 127 0
0.204759 0.667532 -0.470474 127 127 0
-0.007132 0.091846 -0.562228 127 127 0
-0.526207 0.121339 -0.223543 127 127 0
0.149079 0.885686 0.432638 0 255 0
-0.117727 -0.235509 0.558977 127 127 0
-0.020573 -0.730245 0.368067 127 127 0
-0.035844 -0.438106 0.566515 127 127 0
-0.069434 0.282998 0.565198 127 127 0
0.428756 0.315678 -0.359188 127 127 0
-0.434224 0.788936 -0.148891 0 255 0
-0.303190 -0.633812 0.482349 127 127 0
-0.566877 0.408175 -0.085096 127 127 0
-0.233115 0.656685 0.476332 127 127 0
-0.084761 0.599318 0.563086 127 127 0
0.267208 0.885686 -0.210118 0 255 0
-0.494660 0.304591 -0.279655 127 127 0
0.160665 0.885686 -0.225970 0 255 0
0.087112 0.496998 0.560619 127 127 0
-0.568479 -0.696715 0.072093 127 127 0
0.503228 0.410969 -0.242883 127 127 0
-0.181747 -0.730245 -0.074200 127 127 0
0.220866 0.418274 0.521603 127 127 0
-0.568454 0.068107 -0.044886 127 127 0
-0.160702 -0.730245 0.351429 127 127 0
0.489672 -0.821009 0.274961 127 127 0
-0.437777 -0.094480 0.366638 127 127 0
0.332860 -0.730245 -0.080752 127 127 0
0.163566 0.885686 0.235623 0 255 0
0.519479 -0.786376 0.216048 127 127 0
-0.247999 0.593974 0.517167 127 127 0
-0.212316 -0.733178 -0.526223 127 127 0
-0.301567 -0.747808 -0.321972 127 127 0
-0.416306 0.594204 -0.386110 127 127 0
-0.571284 -0.624811 0.027266 127 127 0
0.241962 0.778814 0.386224 0 255 0
-0.153548 -0.730245 -0.153104 127 127 0
-0.045264 -0.730245 0.260587 127 127 0
0.054172 -0.672188 -0.559823 127 127 0
-0.390731 0.664439 0.346794 127 127 0
0.101314 -0.468068 0.557404 127 127 0
-0.402773 -0.732397 0.119378 127 127 0
0.363228 0.369473 -0.430066 127 127 0
0.200034 -0.286873 -0.524530 127 127 0
-0.333985 -0.611405 0.462922 127 127 0
-0.199119 0.885686 -0.296132 0 255 0
0.246756 0.774216 -0.375565 0 255 0
-0.447344 -0.411717 -0.354658 127 127 0
0.558792 0.406798 0.021995 127 127 0
-0.058820 -0.771020 0.480014 127 127 0
-0.346149 -0.313494 0.455249 127 127 0
0.036685 0.885686 -0.254959 0 255 0
-0.424076 0.594141 0.381457 127 127 0
-0.566881 -0.033088 -0.085001 127 127 0
0.392177 -0.562089 -0.398752 127 127 0
0.208277 -0.730245 0.308812 127 127 0
0.436412 -0.096906 -0.350906 127 127 0
-0.217668 0.162292 -0.523406 127 127 0
-0.004535 0.455712 -0.562126 127 127 0
-0.444220 0.128287 0.359668 127 127 0
-0.237468 -0.730245 0.038742 127 127 0
0.038144 0.186885 -0.560452 127 127 0
0.003579 -0.175476 -0.561808 127 127 0
0.248699 0.115209 -0.504376 127 127 0
0.377668 0.591619 -0.414446 127 127 0
-0.280773 -0.515409 -0.490200 127 127 0
0.153952 0.679542 0.485200 127 127 0
-0.243026 -0.390854 0.520080 127 127 0
0.253808 -0.310407 0.504268 127 127 0
-0.222385 0.074647 -0.520924 127 127 0
-0.205044 -0.603222 0.531871 127 127 0
0.282770 0.092956 0.489028 127 127 0
-0.445476 0.738693 0.157816 0 255 0
-0.072727 0.885686 -0.402309 0 255 0
0.125160 0.575655 0.552006 127 127 0
0.405225 0.665597 0.318346 127 127 0
-0.306836 0.764897 -0.337536 0 255 0
0.260764 0.300906 -0.496764 127 127 0
0.456736 0.693301 -0.183863 127 127 0
-0.131344 -0.578900 0.554750 127 127 0
0.521203 -0.406539 0.210495 127 127 0
-0.542338 0.498945 0.187587 127 127 0
0.144982 -0.208752 0.547520 127 127 0
0.505701 0.035048 -0.238184 127 127 0
-0.420741 0.221835 0.385064 127 127 0
0.482400 0.227453 -0.282465 127 127 0
0.146678 0.885686 -0.137742 0 255 0
0.524069 -0.694194 -0.203278 127 127 0
0.145617 -0.730245 0.358788 127 127 0
-0.215500 0.127678 0.528625 127 127 0
-0.079684 0.254533 -0.559189 127 127 0
0.560764 0.570548 -0.028289 127 127 0
0.361901 0.275141 0.431994 127 127 0
-0.085070 -0.053568 -0.557970 127 127 0
-0.342336 0.885686 0.095003 0 255 0
-0.031354 -0.730245 0.183679 127 127 0
-0.524225 0.644068 0.116007 127 127 0
0.134228 0.328569 -0.544958 127 127 0
0.185500 0.459304 -0.529042 127 127 0
0.033886 -0.316725 -0.560619 127 127 0
-0.199105 -0.187460 -0.532158 127 127 0
0.261050 0.637482 -0.462574 127 127 0
-0.505414 0.437458 -0.262609 127 127 0
-0.235748 -0.702036 0.522339 127 127 0
0.140224 -0.730245 -0.337714 127 127 0
-0.037172 0.701745 0.491748 127 127 0
0.513697 -0.553642 0.234676 127 127 0
-0.441480 0.612803 -0.343074 127 127 0
0.358283 -0.160925 0.435339 127 127 0
0.561590 -0.579923 -0.049334 127 127 0
0.403442 0.488847 0.393590 127 127 0
0.184657 0.407527 0.538539 127 127 0
0.399190 0.377069 -0.391167 127 127 0
-0.567834 0.455350 -0.060692 127 127 0
-0.386671 -0.311154 0.421916 127 127 0
-0.433475 -0.801549 0.321729 127 127 0
0.034564 -0.769899 0.481770 127 127 0
-0.219973 0.481031 -0.522193 127 127 0
0.293627 -0.730245 -0.205687 127 127 0
0.533307 -0.281989 -0.174319 127 127 0
-0.343448 0.771245 0.306659 0 255 0
0.453582 -0.763002 0.093856 127 127 0
-0.356766 -0.776380 0.341684 127 127 0
0.367778 -0.657152 -0.425144 127 127 0
-0.175656 -0.792602 -0.487378 127 127 0
-0.063147 -0.228455 0.565444 127 127 0
0.126655 -0.162023 0.551668 127 127 0
-0.388686 0.764358 0.250414 0 255 0
0.251975 -0.625090 -0.502309 127 127 0
0.323932 0.885686 0.263278 0 255 0
0.442046 -0.768087 -0.164768 127 127 0
0.522783 -0.210566 0.205406 127 127 0
-0.512200 -0.291253 0.251865 127 127 0
0.156299 -0.307382 -0.538107 127 127 0
-0.075298 0.885686 0.122063 0 255 0
-0.565111 0.290484 0.086973 127 127 0
-0.571550 -0.470835 0.034047 127 127 0
-0.278377 0.885686 0.118147 0 255 0
-0.541987 -0.204073 -0.172711 127 127 0
0.060496 -0.269252 0.566643 127 127 0
-0.327695 -0.730245 0.179835 127 127 0
0.472842 -0.775577 -0.089087 127 127 0
-0.292476 0.470379 0.489108 127 127 0
0.552362 -0.455455 -0.090134 127 127 0
0.067594 0.885686 -0.348868 0 255 0
0.312233 0.227330 0.473524 127 127 0
-0.094851 -0.142192 0.564201 127 127 0
0.167950 0.885686 0.159475 0 255 0
-0.256195 0.051962 -0.503133 127 127 0
0.034433 0.479576 -0.560598 127 127 0
0.238967 0.034031 -0.510515 127 127 0
-0.216943 0.857822 -0.399510 0 255 0
-0.428430 -0.037522 -0.374901 127 127 0
0.531272 -0.204508 -0.183307 127 127 0
-0.086250 0.885686 -0.055575 0 255 0
0.387675 -0.154926 -0.403623 127 127 0
0.429644 0.766050 -0.134118 0 255 0
-0.542713 -0.119509 -0.170373 127 127 0
-0.472461 -0.301112 0.327384 127 127 0
-0.299193 -0.027411 -0.480507 127 127 0
-0.380916 0.359411 0.428141 127 127 0
-0.522278 -0.001123 -0.235877 127 127 0
-0.475491 -0.780787 -0.310041 127 127 0
0.156117 -0.223399 -0.538163 127 127 0
-0.038539 0.651677 0.527478 127 127 0
-0.561740 0.482957 0.101869 127 127 0
0.311146 -0.730245 0.110770 127 127 0
-0.340021 -0.123902 0.459114 127 127 0
0.243420 -0.486541 0.509735 127 127 0
0.241482 0.885686 0.334489 0 255 0
0.555988 -0.594985 0.093480 127 127 0
-0.278324 0.697062 0.413718 127 127 0
-0.242070 -0.769554 -0.411097 127 127 0
-0.568534 -0.312034 -0.042858 127 127 0
-0.049196 0.389800 0.565992 127 127 0
0.142931 0.064318 0.547984 127 127 0
-0.567308 -0.814379 -0.074100 127 127 0
0.171096 -0.798839 0.502390 127 127 0
0.531177 -0.815372 0.178365 127 127 0
0.310093 0.123560 0.474650 127 127 0
0.031963 -0.225975 -0.560694 127 127 0
-0.454442 0.094113 -0.343406 127 127 0
-0.414883 0.851429 -0.199986 0 255 0
-0.371422 0.274573 0.438410 127 127 0
0.434150 -0.765783 0.172396 127 127 0
0.020547 -0.532934 0.568727 127 127 0
-0.458025 0.859842 0.061896 0 255 0
0.452850 0.287271 -0.333125 127 127 0
0.561001 0.264429 -0.034317 127 127 0
-0.492409 0.122990 0.289475 127 127 0
0.539817 0.186846 -0.145556 127 127 0
0.435036 -0.148568 -0.352394 127 127 0
-0.567951 -0.093598 -0.057717 127 127 0
-0.314813 0.547007 0.475017 127 127 0
0.214418 -0.556949 -0.520065 127 127 0
-0.568745 0.149466 -0.037467 127 127 0
0.036632 0.797288 -0.450446 0 255 0
0.057192 0.690744 -0.492852 127 127 0
-0.529647 -0.676712 0.218710 127 127 0
-0.570865 0.316716 0.016589 127 127 0
0.307244 -0.535949 -0.467442 127 127 0
0.161244 0.107619 0.543839 127 127 0
-0.176763 -0.456792 0.540650 127 127 0
-0.003843 -0.732506 -0.410989 127 127 0
0.522419 0.237909 -0.206414 127 127 0
0.104370 0.885686 0.186852 0 255 0
0.218872 0.726879 0.418005 127 127 0
-0.271253 -0.183367 -0.495209 127 127 0
0.178558 -0.382212 -0.531197 127 127 0
0.505790 -0.800425 0.140214 127 127 0
0.188341 0.885686 -0.066925 0 255 0
-0.438923 -0.167037 -0.365200 127 127 0
0.487986 0.018815 -0.271848 127 127 0
-0.520937 0.630835 -0.159510 127 127 0
-0.342523 0.535175 -0.454324 127 127 0
0.151402 -0.586640 0.546066 127 127 0
-0.528013 -0.069414 -0.217725 127 127 0
-0.178027 0.108336 -0.536929 127 127 0
-0.479667 0.548133 0.313690 127 127 0
0.552341 0.421781 -0.090227 127 127 0
-0.524943 -0.673575 -0.227616 127 127 0
-0.222486 -0.800688 0.526456 127 127 0
-0.500676 -0.696180 -0.270119 127 127 0
0.220792 -0.740498 0.366368 127 127 0
-0.468106 0.738846 -0.022357 0 255 0
-0.342420 0.885686 0.233422 0 255 0
0.536209 -0.488631 -0.161498 127 127 0
0.259999 -0.578600 -0.497247 127 127 0
0.410599 -0.773507 0.248984 127 127 0
0.554248 0.445762 0.104046 127 127 0
0.484325 0.166595 -0.278806 127 127 0
-0.169749 -0.730245 -0.337521 127 127 0
-0.545765 -0.486701 0.172444 127 127 0
0.310478 -0.373907 0.474448 127 127 0
0.403865 -0.065519 0.393198 127 127 0
0.369245 0.483158 0.425205 127 127 0
0.395064 -0.289217 -0.395630 127 127 0
-0.410009 -0.506734 -0.391932 127 127 0
-0.205529 -0.730245 0.317448 127 127 0
-0.369313 0.003810 -0.429556 127 127 0
0.557954 0.586356 -0.065429 127 127 0
0.556612 0.043871 0.077575 127 127 0
-0.495667 0.036547 0.283284 127 127 0
-0.215606 0.885686 -0.250023 0 255 0
-0.519146 0.588545 -0.240841 127 127 0
0.479612 -0.290323 0.291975 127 127 0
0.061416 -0.042326 0.566435 127 127 0
0.510788 -0.165080 0.242555 127 127 0
-0.242436 -0.054651 -0.510373 127 127 0
-0.547776 -0.821051 -0.154063 127 127 0
-0.075302 -0.814812 -0.548797 127 127 0
0.043212 0.861402 0.457792 0 255 0
-0.396245 0.784974 -0.229529 0 255 0
0.473651 -0.046252 -0.299091 127 127 0
-0.551668 0.142749 0.146364 127 127 0
0.283108 0.236119 -0.482669 127 127 0
-0.570606 -0.262425 0.009982 127 127 0
-0.282262 -0.730245 0.102766 127 127 0
-0.202947 0.651412 -0.487408 127 127 0
0.221949 0.639367 0.487008 127 127 0
-0.546836 0.628830 -0.019774 127 127 0
-0.095156 0.724342 0.470914 0 255 0
0.276590 0.845034 0.361085 0 255 0
0.477276 0.302275 -0.292203 127 127 0
-0.144546 -0.730245 -0.059107 127 127 0
-0.266639 -0.565477 0.505408 127 127 0
-0.142158 0.085048 0.551393 127 127 0
-0.347205 -0.730245 -0.183802 127 127 0
-0.332746 -0.736175 0.267005 127 127 0
-0.425729 0.220847 -0.377399 127 127 0
-0.317377 0.571590 -0.470939 127 127 0
0.160699 -0.557910 -0.536741 127 127 0
-0.366423 -0.326444 -0.432228 127 127 0
-0.522288 -0.009094 0.232694 127 127 0
0.422680 0.010290 0.375804 127 127 0
-0.569390 -0.447252 -0.021031 127 127 0
0.376129 0.683846 -0.324964 127 127 0
0.422965 -0.722891 0.375539 127 127 0
0.318838 0.256826 -0.460128 127 127 0
-0.277868 -0.435024 -0.491728 127 127 0
0.509305 0.110012 0.244906 127 127 0
0.477973 0.287323 0.294572 127 127 0
-0.176326 0.419235 -0.537314 127 127 0
0.005705 0.043133 -0.561724 127 127 0
-0.175951 0.885686 0.399802 0 255 0
0.453514 -0.695965 -0.332407 127 127 0
0.485338 -0.654461 -0.276882 127 127 0
-0.546707 -0.163577 0.168284 127 127 0
-0.571184 -0.208001 0.024718 127 127 0
0.193376 0.019535 0.536068 127 127 0
-0.559794 0.262464 -0.115350 127 127 0
-0.562788 -0.315420 0.097236 127 127 0
-0.183855 0.885686 0.314082 0 255 0
0.549687 -0.523425 -0.101953 127 127 0
-0.454078 0.484617 -0.343983 127 127 0
0.020349 0.666747 -0.511448 127 127 0
0.395504 -0.771358 -0.265155 127 127 0
0.085242 0.000773 0.561042 127 127 0
-0.504088 -0.156052 0.267281 127 127 0
-0.323576 0.799006 0.328153 0 255 0
-0.396810 0.467647 0.410949 127 127 0
0.175040 0.151369 -0.532289 127 127 0
-0.050009 -0.531804 -0.563910 127 127 0
-0.060998 0.524076 -0.563418 127 127 0
0.120522 0.885686 0.092483 0 255 0
-0.472896 -0.213249 -0.314154 127 127 0
-0.015789 -0.035481 -0.562567 127 127 0
0.532903 -0.775950 -0.176104 127 127 0
0.121789 0.745728 0.444018 0 255 0
0.448135 0.177491 -0.338226 127 127 0
-0.384984 -0.620838 0.423741 127 127 0
-0.548124 -0.681533 -0.152942 127 127 0
0.392197 -0.093596 -0.398731 127 127 0
-0.414700 0.802479 0.200977 0 255 0
-0.388033 -0.012431 0.420443 127 127 0
0.441595 0.856118 -0.081316 0 255 0
-0.546818 -0.446506 -0.157151 127 127 0
0.548307 0.396487 0.123185 127 127 0
-0.338332 -0.385524 -0.458198 127 127 0
-0.022541 0.885686 0.072044 0 255 0
-0.098220 -0.771106 -0.467445 127 127 0
0.502577 0.336087 0.255571 127 127 0
-0.108187 0.885686 0.081954 0 255 0
-0.048784 -0.730245 -0.016821 127 127 0
-0.428371 -0.599249 0.376812 127 127 0
-0.570162 0.399074 -0.001334 127 127 0
-0.382610 0.380078 -0.417263 127 127 0
0.180270 -0.802025 -0.496284 127 127 0
-0.288288 0.642274 -0.449875 127 127 0
0.402321 -0.809593 -0.358360 127 127 0
-0.040493 0.240228 0.566333 127 127 0
0.002928 0.162240 -0.561833 127 127 0
0.524888 0.236285 0.198624 127 127 0
-0.491385 -0.798624 -0.205466 127 127 0
-0.105910 0.651142 0.522312 127 127 0
-0.440045 -0.745858 -0.045122 127 127 0
-0.094515 0.885686 0.262536 0 255 0
-0.568738 -0.671919 -0.037645 127 127 0
-0.478916 -0.786318 0.187277 127 127 0
0.455448 0.235931 0.330278 127 127 0
-0.560997 0.184534 -0.111476 127 127 0
0.350593 0.885686 -0.159251 0 255 0
0.338533 0.332494 0.453598 127 127 0
0.400855 0.225817 -0.389366 127 127 0
-0.512290 -0.797126 0.133879 127 127 0
-0.313452 -0.730245 0.019943 127 127 0
0.068903 -0.361121 -0.559246 127 127 0
-0.567197 -0.447984 -0.076933 127 127 0
-0.271529 -0.730245 0.058877 127 127 0
-0.162770 -0.160335 0.544994 127 127 0
0.184131 -0.090183 -0.529467 127 127 0
-0.077944 -0.730245 -0.250206 127 127 0
-0.515081 0.257423 0.246390 127 127 0
0.230487 0.686632 0.444372 127 127 0
0.557917 -0.142831 0.044293 127 127 0
0.546761 -0.072334 0.128167 127 127 0
0.513827 -0.658592 -0.222741 127 127 0
0.371901 -0.393252 -0.420684 127 127 0
0.061178 -0.730245 0.076722 127 127 0
-0.180976 -0.048204 0.539342 127 127 0
0.212181 0.885686 0.265725 0 255 0
0.086920 -0.481249 -0.558539 127 127 0
-0.471013 -0.570356 0.330137 127 127 0
-0.562535 -0.820464 0.091580 127 127 0
0.388093 -0.022635 0.407779 127 127 0
0.302431 -0.803230 -0.434077 127 127 0
0.455408 -0.796521 -0.243156 127 127 0
-0.520628 0.669095 0.045737 127 127 0
-0.278995 0.767107 0.367576 0 255 0
0.469827 0.371540 0.307484 127 127 0
0.188710 0.631719 -0.502236 127 127 0
-0.420237 -0.061462 0.385610 127 127 0
-0.478390 -0.419428 -0.305446 127 127 0
0.039019 0.678993 0.510997 127 127 0
-0.324795 0.021713 -0.467035 127 127 0
0.450219 0.861360 -0.016049 0 255 0
0.144248 0.641517 0.515240 127 127 0
0.559004 -0.208201 0.016580 127 127 0
-0.093934 -0.136077 -0.555963 127 127 0
0.450679 0.070745 0.337837 127 127 0
-0.555620 -0.485022 -0.128796 127 127 0
0.527189 0.596283 0.191214 127 127 0
0.345492 -0.318896 -0.443314 127 127 0
0.460311 0.598308 -0.322751 127 127 0
0.542690 0.590810 -0.132866 127 127 0
-0.412278 0.016256 0.394219 127 127 0
0.367172 0.661763 0.364332 127 127 0
0.310549 -0.225960 0.474410 127 127 0
-0.341671 -0.235337 0.458073 127 127 0
-0.354090 -0.782389 -0.443630 127 127 0
-0.123483 0.128370 0.557190 127 127 0
-0.520127 -0.511627 -0.239286 127 127 0
-0.491812 -0.685540 0.290609 127 127 0
-0.091899 -0.730245 0.392655 127 127 0
-0.166513 0.885686 -0.075047 0 255 0
-0.391031 -0.582918 -0.409477 127 127 0
-0.506836 -0.547528 0.262060 127 127 0
0.441338 -0.107881 0.352644 127 127 0
-0.558929 -0.448075 0.114287 127 127 0
-0.469871 -0.765299 0.076250 127 127 0
0.400300 -0.482413 -0.389966 127 127 0
-0.035474 -0.753558 0.566530 127 127 0
0.493241 0.225977 0.270371 127 127 0
0.410529 -0.529309 0.387037 127 127 0
-0.236507 -0.463896 0.522103 127 127 0
-0.426395 -0.336601 0.378949 127 127 0
-0.142640 0.885686 -0.358613 0 255 0
0.099989 0.734050 -0.453258 0 255 0
-0.572187 -0.537250 0.050296 127 127 0
0.413821 0.714078 0.239829 127 127 0
-0.380744 -0.705598 0.428327 127 127 0
0.394884 0.303487 -0.395825 127 127 0
-0.538943 0.051418 0.201043 127 127 0
-0.420139 -0.820774 -0.381246 127 127 0
-0.002667 0.321582 0.567817 127 127 0
0.357396 -0.221467 -0.435804 127 127 0
0.536351 0.061882 -0.160872 127 127 0
-0.262094 0.885686 -0.239388 0 255 0
-0.173240 0.211986 -0.538013 127 127 0
0.053652 0.885686 0.241448 0 255 0
-0.241962 0.885686 0.300833 0 255 0
-0.080744 -0.429717 0.564754 127 127 0
0.001046 0.885686 0.294506 0 255 0
0.419782 -0.798377 -0.311391 127 127 0
-0.527546 0.127018 0.222703 127 127 0
-0.382465 -0.437108 -0.417397 127 127 0
0.299162 -0.008795 -0.472541 127 127 0
-0.278749 0.432738 -0.491265 127 127 0
0.394151 0.052359 0.402179 127 127 0
0.529648 0.120688 0.183291 127 127 0
0.424550 0.723629 -0.198519 127 127 0
0.416261 0.421890 0.381738 127 127 0
-0.303545 0.092449 -0.478217 127 127 0
-0.192901 0.534365 0.535640 127 127 0
0.019190 -0.774961 -0.561195 127 127 0
-0.304905 -0.686992 0.481267 127 127 0
0.007419 -0.689252 0.568212 127 127 0
0.238254 0.885686 -0.038455 0 255 0
-0.019309 -0.816418 -0.562705 127 127 0
-0.531442 -0.820820 -0.206679 127 127 0
0.557741 0.129282 -0.066371 127 127 0
-0.176269 -0.733125 -0.375756 127 127 0
-0.438686 0.703963 0.227846 127 127 0
0.311521 0.734906 -0.341131 127 127 0
-0.126344 -0.730245 -0.317476 127 127 0
-0.439213 0.661759 0.291568 127 127 0
0.327663 -0.558713 0.463648 127 127 0
-0.389453 -0.734888 -0.168429 127 127 0
-0.259536 -0.730245 0.304150 127 127 0
-0.470865 -0.029047 0.330418 127 127 0
0.428748 0.272460 0.370193 127 127 0
-0.535133 -0.443044 -0.194790 127 127 0
0.451538 -0.756794 0.336475 127 127 0
0.391635 0.870725 0.225303 0 255 0
-0.009608 0.885686 0.150333 0 255 0
0.537464 -0.202419 0.158114 127 127 0
