ply
format ascii 1.0
element vertex 1267
property float x
property float y
property float z
property uchar red
property uchar green
property uchar blue
end_header
0.259752 -0.564715 -0.002694 153 76 0
0.331871 -0.006835 -0.237881 255 0 0
0.363219 -0.434770 -0.069238 76 0 153
0.167992 -0.492956 -0.071946 153 0 76
0.167992 -0.552798 0.220622 153 0 76
0.167992 0.232793 0.063325 153 0 76
0.363219 -0.367704 0.092343 76 0 153
0.075912 0.279647 -0.132840 127 0 127
0.274089 -0.416371 0.230666 204 51 127
0.216798 -0.362607 -0.217031 255 0 0
0.167992 -0.410364 -0.081628 153 0 76
0.167992 -0.148282 -0.176847 153 0 76
0.216798 0.141523 0.087229 153 0 76
0.167992 -0.310889 -0.143687 153 0 76
-0.154354 0.279647 -0.106186 127 0 127
0.216798 -0.035477 0.187153 153 0 76
0.300023 0.279647 -0.057089 127 0 127
-0.475335 0.240601 0.178045 127 0 127
0.348551 0.169909 -0.237881 255 0 0
0.363219 -0.118624 0.005179 76 0 153
0.302135 -0.540842 -0.218359 255 0 0
0.167992 0.035780 0.215077 153 0 76
-0.812052 0.094489 0.157969 153 0 76
-0.083223 0.240601 -0.262856 127 0 127
0.187370 0.279647 -0.134234 127 0 127
-0.802194 0.240601 0.007366 127 0 127
0.320163 0.279647 0.193567 127 0 127
0.251612 0.126677 0.230666 204 51 127
-0.200570 0.240601 -0.199800 127 0 127
0.283409 -0.428826 -0.218359 255 0 0
0.167992 -0.219231 -0.031437 153 0 76
-0.842808 0.279647 0.210212 127 0 127
0.306817 0.091787 0.211144 204 51 127
0.237507 0.279647 0.015669 127 0 127
-0.837377 -0.507241 0.187180 153 0 76
-0.546136 0.279647 -0.161363 127 0 127
-0.804556 -0.352686 -0.165144 76 0 153
-0.647758 0.279647 0.269489 127 0 127
-0.909384 0.279647 -0.093343 127 0 127
0.412025 -0.501495 0.044051 76 0 153
0.412025 0.231536 -0.143503 76 0 153
-0.260381 0.240601 0.248966 127 0 127
0.363219 0.048845 -0.223998 255 0 0
-0.779555 -0.110923 0.181512 153 0 76
0.396821 -0.470702 0.230666 76 0 153
0.237869 -0.161014 0.230666 204 51 127
0.241731 -0.545193 0.008526 153 76 0
0.306138 0.133753 0.211144 204 51 127
0.412025 -0.420092 0.060301 76 0 153
0.216798 -0.336709 -0.037693 153 0 76
-0.157739 0.260033 -0.320853 127 0 127
0.284807 -0.072080 0.230666 204 51 127
-0.046841 0.279647 0.191441 127 0 127
-0.465563 0.240601 -0.096573 127 0 127
0.217732 0.191437 0.211144 153 0 76
0.337943 -0.278555 0.211144 204 51 127
-0.075087 0.279647 -0.036958 127 0 127
0.167992 -0.026785 -0.175432 153 0 76
0.262639 0.240601 -0.200141 127 0 127
-0.817961 -0.313696 0.214102 153 0 76
0.363219 -0.447329 -0.148666 76 0 153
0.079322 0.262699 -0.320853 127 0 127
0.355105 -0.356270 0.230666 204 51 127
0.167992 -0.528971 0.128588 153 0 76
-0.573101 0.279647 -0.085172 127 0 127
-0.381040 0.279647 0.221756 127 0 127
0.103870 0.279647 -0.002375 127 0 127
-0.396276 0.240601 0.100750 127 0 127
0.277426 -0.545193 -0.041091 153 76 0
0.216798 -0.439143 -0.044886 153 0 76
0.292698 -0.198097 -0.237881 255 0 0
-0.256508 0.240601 0.155226 127 0 127
0.363219 -0.492763 0.027541 76 0 153
0.341234 0.086475 -0.237881 255 0 0
0.412025 0.098385 0.126087 76 0 153
-0.780015 0.279647 0.183951 127 0 127
-0.388534 0.279647 0.103875 127 0 127
0.311742 0.228335 0.230666 127 0 127
0.216798 -0.508694 0.000726 153 0 76
0.167992 -0.310160 0.054036 153 0 76
0.342792 -0.245197 -0.218359 255 0 0
0.343673 0.090528 0.211144 204 51 127
0.106227 0.251419 -0.320853 127 0 127
0.412025 -0.438576 0.092843 76 0 153
0.363219 -0.545058 0.068668 76 0 153
-0.766394 0.279647 -0.227108 127 0 127
-0.018573 0.279647 -0.203975 127 0 127
0.108601 0.279647 -0.197025 127 0 127
0.333926 -0.174259 -0.079286 76 153 0
-0.291552 0.279647 0.262882 127 0 127
-0.151587 0.279647 0.070383 127 0 127
-0.807099 0.279647 -0.301147 127 0 127
0.312057 -0.154736 -0.000669 76 153 0
0.291887 0.274075 -0.320853 127 0 127
0.271958 -0.174259 0.128455 76 153 0
0.059202 0.240601 0.167272 127 0 127
0.167992 -0.451211 0.106845 153 0 76
0.216798 -0.206602 -0.171241 153 0 76
-0.235483 0.279647 0.044252 127 0 127
-0.576843 0.279647 0.059999 127 0 127
0.363219 -0.343954 -0.085033 76 0 153
0.259333 0.279647 -0.121790 127 0 127
-0.439446 0.240601 -0.270439 127 0 127
-0.025630 0.279647 0.211949 127 0 127
0.363219 -0.062463 -0.050931 76 0 153
-0.098665 0.240601 -0.222370 127 0 127
0.363219 -0.231221 0.186417 76 0 153
-0.313753 0.279647 0.135734 127 0 127
0.363219 -0.018676 -0.128607 76 0 153
-0.306580 0.279647 0.031124 127 0 127
0.118990 0.279647 0.298643 127 0 127
-0.781166 0.056360 0.176019 153 0 76
0.170051 0.240601 0.195843 153 0 76
-0.315308 0.279647 0.238631 127 0 127
0.167992 0.105935 0.007252 153 0 76
0.216798 -0.491309 -0.094324 153 0 76
0.345345 -0.545193 -0.205982 153 76 0
-0.530331 0.279647 0.251045 127 0 127
-0.347318 0.240601 -0.271982 127 0 127
0.297997 -0.241287 -0.218359 255 0 0
-0.191395 0.240601 -0.132968 127 0 127
0.396614 -0.310552 -0.237881 76 0 153
0.412025 0.187986 -0.089661 76 0 153
-0.442006 0.240601 -0.319107 127 0 127
0.233851 -0.552108 0.211144 153 76 0
-0.152359 0.240601 0.269810 127 0 127
0.412025 0.085959 0.077633 76 0 153
0.412025 -0.239413 0.022165 76 0 153
0.359168 -0.044871 -0.237881 255 0 0
0.370421 -0.564715 -0.091738 76 0 153
-0.548055 0.240601 0.067740 127 0 127
0.222701 0.222701 -0.237881 255 0 0
0.001577 0.254731 0.313638 127 0 127
-0.836133 -0.541202 -0.185640 76 0 153
-0.241608 0.240601 0.185534 127 0 127
-0.170897 0.257573 0.313638 127 0 127
0.363219 0.142985 0.051826 76 0 153
0.167992 -0.215275 -0.127963 153 0 76
0.055329 0.279647 0.118753 127 0 127
-0.935050 0.254923 -0.083182 127 0 127
0.298474 -0.211808 0.230666 204 51 127
-0.870122 0.240601 0.045936 127 0 127
-0.761237 0.279647 -0.068279 127 0 127
0.363219 -0.110439 -0.132990 76 0 153
0.167992 -0.510828 0.177888 153 0 76
0.167992 -0.170932 0.179343 153 0 76
0.167992 -0.196838 -0.068898 153 0 76
-0.821074 -0.051543 0.160667 153 0 76
-0.872863 0.240601 -0.131444 127 0 127
0.225293 0.240601 -0.275059 127 0 127
0.216798 -0.206170 -0.093267 153 0 76
0.224947 -0.148379 -0.237881 255 0 0
-0.027039 0.240601 -0.053632 127 0 127
0.412025 0.060011 0.206309 76 0 153
0.167992 -0.546405 -0.175416 153 0 76
-0.218389 0.240601 -0.296284 127 0 127
0.377135 -0.100007 0.230666 76 0 153
0.245215 0.240601 0.181286 127 0 127
0.167992 -0.356928 0.060148 153 0 76
0.412025 -0.177119 0.207150 76 0 153
0.319859 -0.461537 -0.237881 255 0 0
0.167992 0.065037 0.016937 153 0 76
0.216798 -0.095313 0.005579 153 0 76
-0.623436 0.279647 0.152795 127 0 127
-0.003447 0.240601 -0.304437 127 0 127
0.188537 -0.564715 0.112060 153 0 76
-0.800344 -0.507732 0.158548 153 0 76
0.238576 -0.545193 0.177663 153 76 0
-0.837264 -0.232117 0.188045 153 0 76
-0.559428 0.240601 -0.156704 127 0 127
0.304706 -0.244809 0.211144 204 51 127
-0.808537 0.279647 -0.108191 127 0 127
0.363219 -0.350483 0.140910 76 0 153
0.321575 0.051368 0.211144 204 51 127
0.300332 -0.086551 0.211144 204 51 127
0.308293 -0.174259 -0.062701 76 153 0
0.358742 -0.494334 0.230666 204 51 127
-0.208611 0.240601 -0.083459 127 0 127
0.178126 0.240601 0.108722 127 0 127
-0.828636 -0.404820 -0.214833 76 0 153
0.363219 -0.498843 -0.161537 76 0 153
0.167992 -0.190440 0.047314 153 0 76
0.355396 -0.564715 0.222171 204 51 127
0.412025 -0.279900 0.173564 76 0 153
0.085990 0.240601 -0.260814 127 0 127
0.332300 0.170273 0.230666 204 51 127
0.061140 0.279647 0.288720 127 0 127
0.347998 -0.414087 -0.237881 255 0 0
0.226385 0.240601 -0.017181 127 0 127
-0.898448 0.240601 0.219428 127 0 127
-0.478323 0.240601 0.287283 127 0 127
-0.729599 0.279647 -0.296374 127 0 127
0.167992 0.024805 0.118891 153 0 76
0.128945 0.240601 -0.116324 127 0 127
-0.421635 0.279647 0.292009 127 0 127
-0.471537 0.240601 0.253172 127 0 127
-0.724129 0.273393 -0.320853 127 0 127
0.216798 0.050720 -0.018747 153 0 76
0.194748 -0.108020 -0.237881 153 0 76
0.216798 0.021853 0.086001 153 0 76
0.412025 -0.489515 -0.194583 76 0 153
0.343060 0.059774 -0.237881 255 0 0
0.268508 0.179530 0.230666 204 51 127
-0.332400 0.248966 -0.320853 127 0 127
0.363219 0.081054 -0.013922 76 0 153
0.161551 0.267169 -0.320853 127 0 127
-0.095240 0.279647 0.078677 127 0 127
0.412025 0.013553 -0.109295 76 0 153
0.412025 -0.017421 -0.068492 76 0 153
-0.825547 0.240601 -0.061771 127 0 127
0.303246 0.279647 0.117409 127 0 127
0.216798 0.078291 -0.035951 153 0 76
0.309853 -0.564715 0.169684 153 76 0
0.167992 0.206445 0.081385 153 0 76
0.167992 -0.384784 -0.062618 153 0 76
-0.935050 0.250124 -0.043056 127 0 127
0.412025 -0.267039 -0.018022 76 0 153
-0.555204 0.240601 0.303937 127 0 127
-0.777412 0.240601 0.077425 127 0 127
-0.910075 0.240601 0.174542 127 0 127
-0.270707 0.240601 -0.287573 127 0 127
-0.093161 0.240601 0.192708 127 0 127
0.216798 -0.041677 -0.069408 153 0 76
0.320238 0.121273 -0.237881 255 0 0
-0.169888 0.240601 -0.101189 127 0 127
0.412025 -0.487236 0.202101 76 0 153
0.314813 -0.564715 -0.036530 153 76 0
0.167992 -0.013851 -0.085632 153 0 76
-0.709540 0.240601 -0.208036 127 0 127
-0.515946 0.240601 0.118504 127 0 127
0.218201 0.021859 0.211144 204 51 127
0.231639 0.185967 -0.237881 255 0 0
0.363219 -0.323850 0.061346 76 0 153
0.363219 -0.325060 0.104584 76 0 153
-0.593522 0.240601 -0.222069 127 0 127
-0.837070 0.046976 0.189513 153 0 76
0.270301 -0.545193 -0.164388 153 76 0
-0.089940 0.279647 0.259527 127 0 127
0.412025 0.256816 -0.233342 127 0 127
0.332555 -0.326280 0.230666 204 51 127
0.244911 -0.017399 0.211144 204 51 127
-0.078169 0.240601 0.230807 127 0 127
0.167992 -0.434779 0.205622 153 0 76
-0.175961 0.279647 -0.210090 127 0 127
0.412025 -0.424869 -0.155936 76 0 153
-0.819901 -0.542513 0.213299 153 0 76
0.272098 -0.097708 -0.237881 255 0 0
0.216798 0.044070 0.188585 153 0 76
0.283085 0.036974 0.230666 204 51 127
0.267336 -0.147035 0.230666 204 51 127
0.412025 -0.198691 -0.016620 76 0 153
0.270279 -0.168443 -0.218359 76 153 0
0.216798 -0.138142 0.115787 153 0 76
-0.402825 0.240601 0.006209 127 0 127
0.216798 0.217406 -0.059357 153 0 76
0.070767 0.240601 -0.070277 127 0 127
-0.785421 -0.230542 0.168669 153 0 76
-0.448122 0.279647 0.062426 127 0 127
0.348600 0.240601 -0.167693 127 0 127
0.186783 -0.071245 0.230666 153 0 76
0.412025 -0.039494 -0.184852 76 0 153
-0.809386 -0.184135 -0.223077 76 0 153
0.167992 0.095732 -0.027123 153 0 76
-0.716772 0.279647 -0.056496 127 0 127
0.216798 -0.141756 -0.065474 153 0 76
-0.631698 0.240601 0.111343 127 0 127
0.412025 -0.042808 0.173474 76 0 153
0.363219 0.200098 0.057301 76 0 153
-0.824927 -0.449256 0.210464 153 0 76
-0.517518 0.240601 0.166121 127 0 127
0.167992 -0.007833 0.062619 153 0 76
-0.828548 -0.390438 -0.173010 76 0 153
0.412025 -0.542158 -0.224710 76 0 153
0.338349 0.279647 -0.106692 127 0 127
-0.913527 0.240601 0.263440 127 0 127
0.216798 0.168429 0.128469 153 0 76
-0.215772 0.279647 -0.275886 127 0 127
0.393595 0.279647 0.031853 127 0 127
0.378988 -0.411049 0.230666 76 0 153
-0.012352 0.240601 -0.252310 127 0 127
0.363219 -0.264291 -0.075857 76 0 153
0.167992 -0.318721 0.148258 153 0 76
0.363219 -0.018053 0.182558 76 0 153
0.216798 -0.541706 0.069574 153 0 76
0.241610 -0.509977 -0.218359 255 0 0
0.363219 0.042276 -0.030671 76 0 153
0.412025 -0.467659 -0.144259 76 0 153
0.363219 -0.544287 0.096000 153 76 0
0.216798 -0.100254 0.133286 153 0 76
0.412025 -0.292969 -0.056814 76 0 153
0.412025 -0.514690 0.216018 76 0 153
0.397613 0.240601 0.108041 76 0 153
0.216798 -0.181406 0.095442 153 0 76
0.412025 0.043217 -0.129403 76 0 153
-0.775222 0.279647 -0.150180 127 0 127
0.309767 -0.219692 0.211144 204 51 127
-0.548948 0.240601 -0.210330 127 0 127
-0.784142 -0.108437 -0.177552 76 0 153
-0.805067 -0.378837 0.157862 153 0 76
-0.833907 -0.564715 0.187163 153 0 76
0.412025 -0.078611 0.184782 76 0 153
0.312715 -0.545193 -0.109701 153 76 0
-0.272198 0.240601 -0.131567 127 0 127
-0.497479 0.240601 -0.282051 127 0 127
-0.780689 0.098715 -0.203525 76 0 153
0.289261 0.118809 -0.218359 255 0 0
0.363219 -0.356855 0.069483 76 0 153
-0.836945 0.102206 0.190465 153 0 76
-0.359203 0.240601 0.295502 127 0 127
-0.615153 0.240601 -0.165628 127 0 127
0.167992 0.021083 -0.005559 153 0 76
0.189856 0.184537 -0.237881 153 0 76
0.167992 -0.403579 -0.035343 153 0 76
0.195166 -0.503728 0.230666 153 0 76
0.198762 0.240601 0.250003 127 0 127
0.082418 0.254807 0.313638 127 0 127
0.251957 0.042870 0.230666 204 51 127
-0.231270 0.240601 0.021604 127 0 127
0.353424 -0.222873 -0.218359 255 0 0
0.412025 0.217307 0.047587 76 0 153
0.256201 0.137999 -0.237881 255 0 0
0.385877 -0.541211 -0.237881 76 0 153
-0.878598 0.279647 0.238440 127 0 127
0.216798 -0.236684 -0.068094 153 0 76
0.292818 0.240601 -0.149964 127 0 127
0.297059 -0.382618 -0.218359 255 0 0
-0.791663 -0.211484 0.210684 153 0 76
0.206075 -0.564715 -0.225821 153 0 76
0.363219 -0.092555 -0.016922 76 0 153
-0.829864 -0.350373 0.167344 153 0 76
0.329517 -0.066170 -0.218359 255 0 0
0.167992 -0.542176 0.091035 153 0 76
-0.816747 -0.223223 0.158875 153 0 76
0.260925 -0.154736 0.014821 76 153 0
-0.817702 -0.100401 0.159270 153 0 76
0.167992 0.166813 0.153208 153 0 76
0.167992 -0.511529 0.148169 153 0 76
-0.813106 0.279647 0.089275 127 0 127
0.302497 0.192182 0.211144 204 51 127
0.328052 -0.154736 0.043858 76 153 0
-0.820044 0.131135 0.160241 153 0 76
0.363219 0.005452 0.049815 76 0 153
0.284054 0.193189 -0.237881 255 0 0
0.139999 0.279647 -0.282448 127 0 127
0.281883 -0.564715 0.004796 153 76 0
0.318229 -0.174259 0.064610 76 153 0
0.216798 -0.545248 0.044132 153 76 0
0.354737 -0.024923 0.230666 204 51 127
-0.538788 0.240601 -0.112206 127 0 127
-0.825952 0.240601 0.265316 127 0 127
0.167992 -0.326701 0.027606 153 0 76
0.089670 0.279647 -0.287617 127 0 127
-0.882996 0.279647 0.121374 127 0 127
0.343098 0.073106 0.230666 204 51 127
-0.461054 0.240601 0.049098 127 0 127
0.370255 -0.244173 0.230666 76 0 153
0.216798 -0.462379 0.015933 153 0 76
0.412025 -0.315932 -0.128107 76 0 153
-0.226885 0.240601 0.255892 127 0 127
0.156780 0.279647 0.043269 127 0 127
0.167992 -0.468288 0.177361 153 0 76
0.216798 -0.189420 -0.072799 153 0 76
0.363219 -0.196018 -0.075659 76 0 153
0.183049 0.279647 0.080860 127 0 127
-0.164559 0.240601 -0.293635 127 0 127
0.363219 -0.132278 -0.216995 255 0 0
0.257749 0.191588 0.211144 204 51 127
0.412025 -0.272767 0.128651 76 0 153
0.327657 -0.501702 -0.218359 255 0 0
0.220083 -0.564715 -0.205616 153 76 0
0.167992 -0.540763 0.183209 153 0 76
0.313717 -0.101215 -0.218359 255 0 0
0.216798 -0.524820 -0.202887 153 0 76
0.412025 -0.168702 0.169891 76 0 153
-0.911622 0.279647 -0.242427 127 0 127
-0.619645 0.279647 0.204755 127 0 127
0.363219 -0.074818 -0.213416 255 0 0
0.347521 0.010084 -0.237881 255 0 0
0.239278 0.096259 -0.218359 255 0 0
0.245335 -0.174259 0.048948 76 153 0
-0.085878 0.279647 0.015062 127 0 127
0.364328 -0.564715 -0.017653 153 76 0
0.363219 0.118629 0.171145 76 0 153
0.363219 -0.158437 -0.143612 76 153 0
-0.913636 0.240601 -0.119249 127 0 127
-0.465165 0.240601 0.127345 127 0 127
0.346532 0.240601 -0.020964 127 0 127
0.305569 0.146857 -0.237881 255 0 0
-0.354773 0.240601 0.075944 127 0 127
0.320368 -0.359215 -0.237881 255 0 0
0.341716 0.130186 0.211144 204 51 127
0.167992 -0.064929 -0.156912 153 0 76
0.216798 -0.387827 0.045550 153 0 76
-0.011023 0.279647 0.012462 127 0 127
-0.211818 0.240601 0.156790 127 0 127
0.167992 -0.265360 0.227543 153 0 76
0.039640 0.240601 -0.001245 127 0 127
0.346157 0.054754 0.211144 204 51 127
0.412025 -0.523215 -0.030521 76 0 153
-0.775430 0.279647 0.026564 127 0 127
-0.742477 0.240601 -0.112091 127 0 127
-0.779513 -0.177931 -0.189047 76 0 153
-0.410904 0.279647 -0.071595 127 0 127
0.085224 0.240601 0.200567 127 0 127
0.273943 -0.564715 0.035957 153 76 0
-0.450067 0.279647 -0.020152 127 0 127
-0.615682 0.279647 -0.159824 127 0 127
0.216798 -0.552995 -0.134209 153 76 0
0.165765 0.279647 -0.080684 127 0 127
0.234208 -0.379357 -0.218359 255 0 0
0.021754 0.279647 -0.033530 127 0 127
-0.866969 0.279647 0.295674 127 0 127
-0.650094 0.240601 -0.158890 127 0 127
0.167992 -0.400193 0.195565 153 0 76
0.412025 -0.018445 -0.174005 76 0 153
0.167992 -0.235383 -0.101978 153 0 76
0.412025 -0.115578 0.013821 76 0 153
-0.779775 -0.477016 -0.187059 76 0 153
0.057018 0.279647 -0.245663 127 0 127
0.017532 0.279647 -0.175053 127 0 127
0.363219 -0.011037 -0.152983 76 0 153
-0.887204 0.279647 0.167294 127 0 127
0.311381 0.064964 0.230666 204 51 127
0.411052 0.100265 -0.237881 76 0 153
0.031336 0.279647 0.209476 127 0 127
-0.510653 0.279647 -0.139541 127 0 127
0.394378 0.166891 0.230666 76 0 153
0.167992 0.187654 -0.081851 153 0 76
0.408222 0.240601 0.007796 76 0 153
0.338070 -0.299406 0.230666 204 51 127
-0.818204 -0.273860 -0.166693 76 0 153
-0.652737 0.240601 -0.264460 127 0 127
-0.610473 0.279647 -0.184329 127 0 127
-0.756257 0.240601 0.117280 127 0 127
-0.215950 0.279647 0.277152 127 0 127
0.400422 0.150043 -0.237881 76 0 153
0.216798 0.022404 -0.125258 153 0 76
0.412025 0.010765 -0.196491 76 0 153
-0.476384 0.240601 0.091477 127 0 127
0.167992 -0.312153 0.079828 153 0 76
-0.064646 0.279647 0.140199 127 0 127
-0.302906 0.279647 0.216934 127 0 127
0.363219 -0.510740 0.173675 76 0 153
0.363219 -0.483487 0.199420 76 0 153
0.343392 -0.205226 0.230666 204 51 127
0.060364 0.279647 0.167586 127 0 127
0.348848 -0.431058 0.211144 204 51 127
0.241708 -0.303873 0.230666 204 51 127
0.268554 -0.515307 0.230666 204 51 127
0.344547 -0.515095 0.211144 204 51 127
0.412025 -0.109064 0.058592 76 0 153
0.336995 -0.436388 -0.237881 255 0 0
0.265845 -0.005451 -0.218359 255 0 0
0.360194 0.019591 0.230666 76 0 153
-0.402033 0.279647 -0.262636 127 0 127
-0.932250 0.256343 -0.259143 127 0 127
0.185785 -0.564715 0.143090 153 0 76
0.341679 -0.154736 -0.042904 76 153 0
-0.266465 0.263897 -0.320853 127 0 127
-0.380418 0.240601 0.032558 127 0 127
-0.733414 0.279647 0.171466 127 0 127
0.275971 -0.010222 0.230666 204 51 127
0.338099 -0.141502 -0.237881 255 0 0
0.284305 0.279647 -0.016710 127 0 127
0.239074 -0.316066 0.211144 204 51 127
-0.817600 -0.537612 0.159228 153 0 76
0.412025 -0.309374 -0.091360 76 0 153
-0.047323 0.240601 -0.260146 127 0 127
0.343420 0.279647 0.140709 127 0 127
0.279268 -0.182602 0.211144 204 51 127
0.412025 0.260513 -0.100665 127 0 127
0.344294 0.217403 -0.237881 255 0 0
0.412025 -0.240238 0.065305 76 0 153
0.363219 -0.376888 -0.235756 76 0 153
0.352411 -0.564715 0.025092 153 76 0
0.167992 -0.106544 0.096423 153 0 76
0.363219 -0.221062 -0.000841 76 0 153
-0.768332 0.279647 -0.311213 127 0 127
0.162855 0.240601 -0.119241 153 0 76
0.412025 -0.286074 -0.179129 76 0 153
0.301993 0.080014 -0.237881 255 0 0
0.412025 -0.344587 -0.069439 76 0 153
0.216798 0.027562 0.130995 153 0 76
0.363219 -0.337568 0.210166 76 0 153
0.412025 -0.373589 0.090491 76 0 153
-0.331939 0.279647 0.287695 127 0 127
0.167992 -0.456077 0.024574 153 0 76
-0.620239 0.240601 -0.267547 127 0 127
0.256887 -0.124583 -0.218359 255 0 0
0.313596 -0.545193 -0.163422 153 76 0
0.285339 -0.351336 0.211144 204 51 127
0.371610 0.279647 -0.146001 127 0 127
0.274738 0.058388 -0.218359 255 0 0
-0.045686 0.279647 0.080640 127 0 127
-0.120390 0.240601 0.081881 127 0 127
0.391187 0.240601 -0.267201 127 0 127
-0.215037 0.260424 0.313638 127 0 127
-0.795518 -0.374096 -0.220148 76 0 153
-0.852648 0.279647 -0.232469 127 0 127
-0.682563 0.240601 0.098037 127 0 127
-0.653227 0.240601 -0.302186 127 0 127
0.232856 -0.154736 0.184996 76 153 0
0.208759 0.240601 -0.257386 127 0 127
-0.268678 0.279647 0.173651 127 0 127
0.179226 0.279647 -0.099297 127 0 127
0.395880 -0.283104 -0.237881 76 0 153
0.363219 -0.159010 0.101976 76 153 0
0.216798 -0.226036 0.229814 204 51 127
0.363219 -0.492956 0.158775 76 0 153
0.185060 0.279647 0.002947 127 0 127
-0.324888 0.240601 0.253511 127 0 127
0.216798 0.200411 -0.093207 153 0 76
-0.638158 0.279647 -0.262948 127 0 127
-0.785142 0.219508 -0.211662 76 0 153
0.412025 -0.230194 -0.047354 76 0 153
0.395345 0.279647 -0.067565 127 0 127
-0.836536 0.157315 0.179908 153 0 76
0.356959 -0.262888 -0.237881 255 0 0
0.220909 -0.564715 -0.065621 153 76 0
0.412025 -0.493886 -0.057540 76 0 153
0.199973 0.191601 0.230666 153 0 76
-0.075454 0.240601 0.111462 127 0 127
0.341501 -0.372527 -0.218359 255 0 0
0.216798 -0.300730 0.195250 153 0 76
-0.319099 0.279647 0.107051 127 0 127
0.216798 -0.481675 -0.185230 153 0 76
-0.247115 0.240601 0.294941 127 0 127
0.274814 -0.279788 0.211144 204 51 127
-0.441992 0.279647 -0.269146 127 0 127
0.363219 -0.444631 -0.043633 76 0 153
0.412025 -0.267567 -0.054427 76 0 153
0.077723 0.279647 0.126175 127 0 127
-0.284736 0.279647 -0.122683 127 0 127
-0.780283 -0.074829 -0.202544 76 0 153
0.037586 0.279647 -0.054041 127 0 127
0.157539 0.240601 -0.154359 127 0 127
0.239540 -0.284821 -0.237881 255 0 0
-0.148170 0.240601 -0.215977 127 0 127
0.363219 -0.387843 0.140932 76 0 153
-0.189428 0.279647 0.091678 127 0 127
0.363219 0.215212 -0.046220 76 0 153
0.167992 -0.324112 0.121510 153 0 76
0.363219 0.089182 -0.136431 76 0 153
0.235820 -0.154736 0.123330 76 153 0
0.278167 0.279647 -0.139352 127 0 127
0.363219 -0.478811 0.114863 76 0 153
0.310187 0.206137 -0.218359 255 0 0
0.167992 -0.311852 -0.058295 153 0 76
0.363941 -0.564715 -0.184493 76 0 153
0.167992 -0.193883 -0.021840 153 0 76
-0.272268 0.279647 -0.289029 127 0 127
0.316039 0.240601 -0.085768 127 0 127
0.334927 -0.545193 -0.178023 153 76 0
0.216798 0.068224 0.128164 153 0 76
0.267542 -0.089069 0.230666 204 51 127
-0.836889 0.232645 -0.198107 76 0 153
0.216798 0.212462 0.180088 153 0 76
0.338653 -0.564715 -0.124159 153 76 0
0.295530 -0.545193 -0.178800 153 76 0
0.412025 -0.388969 -0.024071 76 0 153
-0.793285 0.240601 0.210881 127 0 127
-0.137824 0.279647 -0.061245 127 0 127
-0.521027 0.240601 -0.143858 127 0 127
-0.797263 -0.320113 -0.220871 76 0 153
0.357091 -0.545193 -0.102026 153 76 0
-0.517252 0.240601 -0.036466 127 0 127
0.216798 0.071934 0.017792 153 0 76
-0.370848 0.240601 0.115709 127 0 127
0.216798 -0.403282 0.075237 153 0 76
-0.804963 0.279647 0.155518 127 0 127
0.242944 0.088075 0.211144 204 51 127
0.337132 0.025982 -0.218359 255 0 0
0.412025 -0.075336 0.099984 76 0 153
0.248594 0.063555 0.211144 204 51 127
-0.791273 -0.151211 -0.217600 76 0 153
0.167992 0.174924 -0.216445 153 0 76
0.412025 -0.344540 0.125211 76 0 153
0.263637 0.279647 -0.220489 127 0 127
0.167992 -0.461369 0.225452 153 0 76
0.248066 0.199288 0.230666 204 51 127
0.165534 0.240601 -0.247402 127 0 127
0.359776 0.240601 0.304567 127 0 127
-0.634848 0.279647 -0.123584 127 0 127
0.363219 -0.130340 -0.047310 76 0 153
0.216798 0.030854 0.033852 153 0 76
-0.323889 0.279647 0.178957 127 0 127
0.216798 -0.286725 -0.101780 153 0 76
-0.827881 0.279647 0.166936 127 0 127
0.363219 -0.248618 0.017356 76 0 153
-0.650383 0.261713 0.313638 127 0 127
0.361802 0.279647 -0.106653 127 0 127
0.363219 0.178882 0.203946 76 0 153
0.412025 -0.055329 -0.086539 76 0 153
0.412025 -0.500193 -0.111655 76 0 153
0.363219 -0.142370 0.032519 76 0 153
-0.835342 0.279647 -0.202200 127 0 127
0.390894 -0.564715 -0.130291 76 0 153
0.248988 -0.161205 -0.218359 255 0 0
0.345334 0.240601 -0.116086 127 0 127
-0.451091 0.240601 -0.042650 127 0 127
-0.834336 -0.159681 0.199394 153 0 76
-0.129550 0.240601 -0.265691 127 0 127
-0.834088 -0.064647 0.173488 153 0 76
0.216798 0.001041 0.172667 153 0 76
0.318454 0.124012 0.230666 204 51 127
0.216798 -0.112095 0.156155 153 0 76
0.216798 -0.098717 0.084614 153 0 76
0.412025 -0.270566 0.039580 76 0 153
-0.833782 0.240601 0.125871 127 0 127
0.216798 0.216020 -0.151140 153 0 76
0.412025 0.081278 0.161772 76 0 153
0.412025 0.263530 0.171388 127 0 127
0.216798 -0.088949 -0.185452 153 0 76
-0.654602 0.240601 -0.192948 127 0 127
0.167992 0.098966 0.121788 153 0 76
-0.047588 0.240601 -0.293011 127 0 127
-0.432856 0.240601 -0.023429 127 0 127
-0.189260 0.279647 -0.299968 127 0 127
0.061855 0.240601 0.105568 127 0 127
0.211992 -0.564715 -0.177829 153 0 76
-0.242010 0.279647 0.281755 127 0 127
-0.856425 0.240601 -0.173791 127 0 127
0.098465 0.279647 0.252210 127 0 127
0.231367 -0.379651 0.230666 204 51 127
0.167992 -0.337942 0.160538 153 0 76
0.299011 0.244774 -0.320853 127 0 127
-0.174454 0.240601 -0.048655 127 0 127
0.216798 -0.323029 0.135447 153 0 76
0.199835 0.240601 -0.209772 127 0 127
-0.315295 0.240601 -0.187183 127 0 127
0.216798 -0.396743 0.124095 153 0 76
0.236424 -0.545193 -0.062634 153 76 0
0.363219 -0.222120 0.136361 76 0 153
0.260018 -0.376882 0.230666 204 51 127
0.394469 0.279647 0.061603 127 0 127
0.261900 -0.499910 -0.237881 255 0 0
0.263746 -0.154736 0.084357 76 153 0
0.167992 -0.520685 -0.096044 153 0 76
0.363219 0.023268 -0.124032 76 0 153
-0.297709 0.240601 -0.146413 127 0 127
0.363219 -0.286530 0.177339 76 0 153
0.240298 -0.126255 0.211144 204 51 127
0.276316 -0.174259 -0.075600 76 153 0
0.124827 0.279647 0.008559 127 0 127
0.200815 0.279647 -0.169838 127 0 127
0.083169 0.279647 0.234040 127 0 127
0.265117 0.279647 0.260990 127 0 127
0.216798 -0.433247 -0.130892 153 0 76
-0.811840 -0.507673 -0.165157 76 0 153
0.216798 -0.125570 -0.216612 153 0 76
0.198958 0.240601 0.073121 153 0 76
0.363219 0.137164 0.213327 76 0 153
-0.785815 0.240601 -0.074492 127 0 127
0.288272 -0.564715 0.079402 153 76 0
-0.054321 0.240601 0.224229 127 0 127
-0.668401 0.240601 -0.228679 127 0 127
0.342451 -0.154736 0.122006 76 153 0
0.323403 -0.325025 -0.218359 255 0 0
0.412025 0.136081 0.211530 76 0 153
0.412025 -0.297979 -0.200013 76 0 153
0.244582 -0.174259 0.173196 76 153 0
0.378452 0.240601 0.252018 127 0 127
-0.002427 0.279647 0.201605 127 0 127
-0.028857 0.258280 0.313638 127 0 127
0.216798 -0.328960 -0.161805 153 0 76
0.167992 0.047909 -0.177193 153 0 76
0.167992 -0.153466 -0.213356 153 0 76
0.317246 0.021166 0.230666 204 51 127
0.342712 -0.403575 0.211144 204 51 127
0.325152 -0.553969 -0.218359 255 0 0
0.232822 -0.564715 0.021067 153 76 0
0.330691 -0.404207 0.230666 204 51 127
0.363219 0.045948 0.229152 76 0 153
0.363219 -0.063011 -0.123159 76 0 153
0.281652 -0.154736 -0.120574 76 153 0
-0.659379 0.279647 -0.271397 127 0 127
0.258439 -0.261503 -0.237881 255 0 0
0.287693 -0.564715 -0.135667 153 76 0
0.226060 -0.545193 -0.215021 153 76 0
0.363219 0.219337 0.184527 76 0 153
-0.069700 0.240601 0.271965 127 0 127
-0.806573 -0.292526 0.215816 153 0 76
0.312910 -0.174259 -0.011310 76 153 0
0.167992 0.194333 -0.121271 153 0 76
0.412025 0.210410 -0.218376 76 0 153
0.379830 -0.465349 -0.237881 76 0 153
-0.819704 0.240601 0.220393 127 0 127
-0.834075 0.249666 0.313638 127 0 127
0.411606 -0.481268 -0.237881 76 0 153
0.363219 0.058783 -0.095658 76 0 153
0.215731 0.061253 0.230666 204 51 127
-0.778870 -0.407377 -0.193975 76 0 153
0.105209 0.240601 0.102289 127 0 127
-0.501835 0.240601 0.050672 127 0 127
-0.364727 0.240601 -0.163785 127 0 127
0.412025 -0.002343 -0.142960 76 0 153
0.041109 0.279647 0.100473 127 0 127
0.273712 -0.298166 -0.218359 255 0 0
0.363219 0.163614 0.169986 76 0 153
0.412025 -0.207510 0.146765 76 0 153
0.340718 -0.545193 0.102685 153 76 0
-0.431445 0.240601 0.077478 127 0 127
0.363219 0.033721 -0.076550 76 0 153
-0.038069 0.240601 0.110500 127 0 127
0.412025 0.047497 0.105057 76 0 153
-0.803429 -0.379509 -0.165293 76 0 153
0.216798 0.118716 0.132637 153 0 76
0.385204 -0.451378 0.230666 76 0 153
0.412025 -0.399293 -0.191816 76 0 153
0.171804 -0.145341 0.230666 153 0 76
0.216798 -0.543858 -0.015060 153 0 76
0.209637 0.240601 0.171374 153 0 76
-0.174605 0.279647 -0.165782 127 0 127
0.412025 0.103401 -0.139055 76 0 153
-0.810193 0.279647 0.111287 127 0 127
-0.779745 -0.373410 0.193412 153 0 76
-0.082735 0.240601 -0.307686 127 0 127
0.328443 0.279647 0.050018 127 0 127
-0.889346 0.240601 -0.199051 127 0 127
0.288933 -0.564715 -0.190365 153 76 0
0.167992 -0.061385 -0.218496 153 0 76
0.216798 -0.153148 0.094041 153 0 76
0.182571 -0.186610 -0.237881 153 0 76
-0.811977 0.279647 0.021378 127 0 127
0.216798 -0.076632 0.099512 153 0 76
0.167992 0.122816 0.081182 153 0 76
-0.289477 0.240601 -0.017225 127 0 127
0.281289 -0.174259 -0.195964 76 153 0
0.319678 -0.174259 0.185203 76 153 0
0.304929 -0.000545 -0.237881 255 0 0
0.363219 0.109604 -0.168225 76 0 153
0.412025 0.017292 0.210751 76 0 153
-0.588301 0.279647 0.300402 127 0 127
0.412025 0.121439 0.054748 76 0 153
0.324889 -0.395984 -0.218359 255 0 0
-0.684755 0.240601 0.014722 127 0 127
0.216798 -0.373094 -0.113546 153 0 76
-0.834664 -0.452906 -0.205817 76 0 153
0.393009 0.240601 0.025478 76 0 153
0.363219 0.204628 0.166838 76 0 153
-0.780307 -0.323036 0.178094 153 0 76
-0.780678 -0.453938 0.177198 153 0 76
-0.257272 0.279647 -0.308237 127 0 127
0.259868 -0.545193 0.055165 153 76 0
-0.148811 0.240601 0.007982 127 0 127
-0.226061 0.279647 -0.130057 127 0 127
0.412025 -0.545111 0.030966 76 0 153
0.363219 -0.387844 0.212675 204 51 127
0.321507 -0.174259 -0.175979 76 153 0
-0.833110 -0.435283 0.171574 153 0 76
0.412025 -0.132248 -0.164956 76 0 153
0.272055 -0.484534 -0.218359 255 0 0
-0.527696 0.276030 0.313638 127 0 127
-0.154202 0.240601 -0.038348 127 0 127
-0.601604 0.240601 0.119480 127 0 127
0.363219 -0.270391 0.220442 204 51 127
0.412025 -0.349526 -0.118924 76 0 153
0.312389 -0.309512 -0.237881 255 0 0
-0.725047 0.240601 0.147726 127 0 127
0.381193 -0.564715 0.121876 76 0 153
0.289872 -0.174259 -0.150430 76 153 0
-0.183786 0.279647 0.175304 127 0 127
0.257902 -0.060119 0.211144 204 51 127
-0.267003 0.279647 0.008538 127 0 127
-0.742473 0.240601 0.072487 127 0 127
0.298476 0.176485 -0.237881 255 0 0
0.363219 -0.099087 -0.087827 76 0 153
0.059787 0.279647 -0.098851 127 0 127
0.167992 0.143268 -0.018778 153 0 76
-0.799286 -0.298400 0.158986 153 0 76
0.299699 -0.347620 0.230666 204 51 127
0.363219 0.180594 -0.205772 76 0 153
-0.699017 0.254782 -0.320853 127 0 127
-0.574168 0.279647 -0.035219 127 0 127
0.258555 -0.464730 -0.218359 255 0 0
0.356641 -0.112139 0.230666 204 51 127
0.104919 0.279647 -0.031143 127 0 127
0.378555 -0.371731 0.230666 76 0 153
0.412025 -0.274932 -0.103031 76 0 153
0.216798 -0.498421 -0.170863 153 0 76
-0.313877 0.279647 -0.092113 127 0 127
0.216798 -0.359054 0.208819 153 0 76
-0.843583 0.240601 -0.155024 127 0 127
-0.303432 0.264810 0.313638 127 0 127
0.216798 -0.546456 0.091629 153 0 76
0.167992 -0.145853 -0.094409 153 0 76
0.363219 -0.167505 -0.005950 76 153 0
-0.202252 0.279647 -0.021969 127 0 127
0.231505 0.240601 0.313469 127 0 127
0.412025 -0.422597 0.197995 76 0 153
-0.915357 0.240601 0.001670 127 0 127
0.412025 -0.492755 0.014880 76 0 153
0.155354 0.253282 0.313638 127 0 127
0.391383 -0.337367 -0.237881 76 0 153
-0.707734 0.240601 0.289656 127 0 127
-0.800227 -0.096678 -0.165811 76 0 153
0.237127 -0.564715 -0.027103 153 76 0
-0.740627 0.279647 0.209415 127 0 127
0.112358 0.279647 -0.300729 127 0 127
0.216798 -0.452444 -0.156192 153 0 76
0.329912 0.240601 -0.134716 127 0 127
-0.126685 0.240601 0.301321 127 0 127
0.217017 -0.564715 0.195008 153 76 0
0.364624 -0.177023 0.230666 204 51 127
0.167992 -0.378252 0.039504 153 0 76
-0.835496 -0.410991 -0.184104 76 0 153
0.167992 -0.348170 -0.173494 153 0 76
0.363219 -0.054841 0.084289 76 0 153
-0.155691 0.279647 0.209882 127 0 127
-0.240190 0.279647 -0.082807 127 0 127
-0.344735 0.279647 0.076684 127 0 127
0.216798 -0.537037 0.220326 153 0 76
-0.835979 -0.347346 -0.185268 76 0 153
-0.382763 0.240601 0.071766 127 0 127
0.363219 0.173668 -0.041112 76 0 153
0.002108 0.240601 0.248002 127 0 127
0.257398 -0.298655 0.211144 204 51 127
0.167992 -0.508839 -0.226683 153 0 76
0.216798 0.124230 -0.176803 153 0 76
0.167992 -0.498431 -0.045284 153 0 76
0.278873 0.172799 -0.218359 255 0 0
-0.281007 0.240601 -0.101295 127 0 127
0.321703 0.279647 -0.005658 127 0 127
0.116805 0.240601 -0.304975 127 0 127
0.115458 0.279647 0.113363 127 0 127
0.216798 -0.422833 0.103878 153 0 76
-0.830314 -0.497436 0.205550 153 0 76
0.363219 -0.029749 -0.193557 76 0 153
0.230962 -0.360884 -0.237881 255 0 0
0.363219 -0.137570 0.074533 76 0 153
-0.701814 0.240601 0.076045 127 0 127
-0.590108 0.243815 0.313638 127 0 127
-0.515206 0.279647 -0.042873 127 0 127
0.167992 -0.163701 0.044148 153 0 76
-0.784882 -0.546971 -0.211323 76 0 153
0.167992 -0.086597 0.132337 153 0 76
0.283984 -0.383570 -0.237881 255 0 0
0.216798 -0.265930 0.063021 153 0 76
-0.189316 0.240601 0.244018 127 0 127
0.315099 -0.125489 -0.237881 255 0 0
-0.506394 0.279647 -0.013750 127 0 127
0.363219 -0.104064 0.192325 76 0 153
0.363219 -0.310049 -0.113605 76 0 153
-0.796238 -0.034657 -0.220446 76 0 153
0.250042 -0.564715 -0.108930 153 76 0
0.167992 -0.532090 -0.199945 153 0 76
0.178236 -0.003760 0.230666 153 0 76
-0.780029 -0.065948 0.194716 153 0 76
0.341189 -0.174259 0.157754 76 153 0
0.208358 0.153579 0.230666 153 0 76
-0.128673 0.279647 -0.212016 127 0 127
-0.000748 0.279647 0.045516 127 0 127
0.317272 -0.174259 0.118343 76 153 0
0.216798 -0.326224 0.111388 153 0 76
0.346507 -0.154736 -0.078364 76 153 0
-0.325583 0.279647 -0.211689 127 0 127
0.167992 0.078792 -0.211459 153 0 76
0.251821 0.279647 0.065267 127 0 127
0.311434 -0.174220 -0.237881 255 0 0
0.241358 -0.032966 0.230666 204 51 127
-0.427501 0.240601 -0.116438 127 0 127
0.027690 0.279647 0.036167 127 0 127
0.299808 -0.174259 0.080667 76 153 0
0.412025 0.055745 0.003936 76 0 153
0.371453 0.240601 -0.236746 76 0 153
0.302078 -0.154736 0.144806 76 153 0
-0.697374 0.279647 0.023847 127 0 127
-0.039992 0.279647 0.169972 127 0 127
-0.402618 0.240601 -0.158524 127 0 127
-0.768492 0.240601 -0.264505 127 0 127
0.174938 0.240601 -0.299128 127 0 127
-0.465599 0.279647 -0.232830 127 0 127
0.363219 -0.366546 -0.183953 76 0 153
0.363219 -0.425234 0.109732 76 0 153
0.227493 -0.337199 0.230666 204 51 127
-0.426544 0.260585 -0.320853 127 0 127
0.333185 -0.154736 0.185277 76 153 0
-0.934573 0.240601 0.130492 127 0 127
0.216798 -0.180279 -0.015052 153 0 76
0.363219 0.100844 -0.095270 76 0 153
0.412025 0.253774 0.066269 127 0 127
0.412025 0.221813 0.178453 76 0 153
0.216798 -0.376995 -0.081669 153 0 76
-0.222699 0.279647 0.018440 127 0 127
0.363219 -0.379310 -0.164934 76 0 153
-0.640066 0.279647 -0.209933 127 0 127
-0.028623 0.240601 -0.138243 127 0 127
0.216798 -0.458477 -0.020225 153 0 76
0.289294 0.279647 -0.093678 127 0 127
0.412025 -0.233225 -0.093686 76 0 153
-0.888789 0.279647 -0.287093 127 0 127
-0.566193 0.240601 0.046493 127 0 127
0.361959 0.200821 0.230666 76 0 153
0.216798 0.001210 -0.097223 153 0 76
-0.609671 0.240601 0.231859 127 0 127
0.216798 -0.458042 -0.063006 153 0 76
0.197058 0.240601 0.097205 127 0 127
-0.188120 0.240601 0.091562 127 0 127
-0.034954 0.263873 -0.320853 127 0 127
0.221221 -0.073045 -0.218359 255 0 0
0.314534 -0.513076 0.230666 204 51 127
-0.461544 0.279647 -0.200051 127 0 127
0.253189 0.240601 -0.265334 127 0 127
0.412025 -0.384192 0.212865 76 0 153
0.363219 0.159536 0.217556 76 0 153
0.245568 -0.174259 -0.163885 76 153 0
-0.508282 0.279647 0.136338 127 0 127
-0.407666 0.279647 0.263613 127 0 127
-0.049198 0.240601 0.192511 127 0 127
-0.823245 -0.198558 -0.168941 76 0 153
0.412025 -0.035698 -0.046214 76 0 153
0.363219 0.153763 -0.000062 76 0 153
-0.081918 0.279647 -0.141917 127 0 127
-0.782011 -0.123558 0.199501 153 0 76
0.123418 0.279647 -0.147956 127 0 127
-0.474524 0.279647 0.139751 127 0 127
0.249841 -0.545193 0.133878 153 76 0
0.216798 -0.350850 -0.129321 153 0 76
-0.439506 0.279647 0.159420 127 0 127
-0.774853 0.240601 -0.034396 127 0 127
-0.495238 0.240601 -0.182828 127 0 127
-0.788172 -0.514892 -0.215221 76 0 153
0.167992 0.196583 0.206451 153 0 76
-0.471381 0.279647 0.043682 127 0 127
0.412025 -0.065443 0.138619 76 0 153
0.388110 -0.422188 -0.237881 76 0 153
-0.801021 0.279647 -0.009698 127 0 127
0.412025 0.248908 -0.053887 127 0 127
0.412025 -0.475505 -0.021339 76 0 153
0.080389 0.240601 0.066055 127 0 127
-0.572137 0.279647 -0.062480 127 0 127
0.363219 -0.022862 -0.218756 255 0 0
0.066593 0.240601 -0.153347 127 0 127
0.167992 -0.122414 -0.219525 153 0 76
-0.787771 0.240601 -0.107671 127 0 127
-0.375106 0.279647 -0.188466 127 0 127
-0.770550 0.279647 0.117868 127 0 127
0.234404 0.240601 -0.315537 127 0 127
0.229364 0.279647 -0.100531 127 0 127
0.167992 -0.558847 -0.006756 153 0 76
-0.621115 0.257188 0.313638 127 0 127
0.363219 0.215420 -0.173901 76 0 153
0.216798 -0.468130 0.215478 153 0 76
0.380107 0.279647 0.277894 127 0 127
0.167992 -0.430672 0.045812 153 0 76
0.295615 -0.564715 0.035147 153 76 0
-0.733698 0.240601 -0.247187 127 0 127
-0.410836 0.240601 -0.037002 127 0 127
-0.215318 0.240601 0.217849 127 0 127
-0.359197 0.240601 -0.077680 127 0 127
0.412025 -0.295601 -0.136984 76 0 153
-0.837398 -0.193595 -0.194238 76 0 153
-0.044670 0.279647 0.018746 127 0 127
-0.054065 0.279647 -0.254020 127 0 127
0.270681 -0.564715 -0.075721 153 76 0
-0.376209 0.279647 0.290958 127 0 127
-0.028120 0.240601 0.264625 127 0 127
0.301946 -0.545193 0.024175 153 76 0
-0.615238 0.240601 0.035107 127 0 127
0.167992 -0.219216 -0.064196 153 0 76
-0.485342 0.279647 0.295932 127 0 127
0.363219 -0.218150 -0.067892 76 0 153
-0.787123 0.240601 0.253668 127 0 127
0.329396 0.279647 0.229993 127 0 127
0.363219 -0.164944 0.124449 76 0 153
0.203123 -0.441567 -0.237881 153 0 76
0.159215 0.279647 -0.240783 127 0 127
0.208382 -0.564715 -0.092817 153 0 76
-0.815286 0.027443 0.158395 153 0 76
0.134414 0.240601 -0.221894 127 0 127
-0.863661 0.240601 -0.219177 127 0 127
0.322466 -0.545193 -0.026905 153 76 0
0.380922 0.083366 0.230666 76 0 153
0.339630 0.279647 -0.176315 127 0 127
0.363219 0.101625 0.212615 204 51 127
0.167992 -0.226713 0.122240 153 0 76
-0.837131 0.155909 -0.191641 76 0 153
0.167992 -0.058225 -0.014033 153 0 76
0.363219 -0.195388 0.021790 76 0 153
0.236369 -0.258088 -0.218359 255 0 0
0.150293 0.279647 0.296596 127 0 127
0.269174 0.240601 -0.297380 127 0 127
0.412025 -0.151026 0.113328 76 0 153
-0.779665 0.081981 -0.187891 76 0 153
0.167992 -0.239813 -0.161275 153 0 76
0.260563 0.240601 0.298592 127 0 127
0.407085 0.279647 -0.086970 127 0 127
0.192875 0.222821 -0.237881 153 0 76
0.102277 0.279647 -0.107314 127 0 127
0.216798 0.225350 0.071845 153 0 76
-0.131030 0.279647 -0.148242 127 0 127
0.064654 0.240601 -0.225605 127 0 127
0.128183 0.240601 -0.259501 127 0 127
0.363219 -0.450063 0.008175 76 0 153
0.216798 0.090858 0.177820 153 0 76
-0.229339 0.240601 0.141227 127 0 127
0.274139 0.124985 0.230666 204 51 127
-0.920664 0.279405 -0.283628 127 0 127
-0.819007 0.217669 0.159811 153 0 76
0.363219 0.016417 0.165082 76 0 153
0.312779 -0.276174 -0.218359 255 0 0
-0.811276 0.099102 -0.165082 76 0 153
0.265841 0.019027 -0.237881 255 0 0
-0.002415 0.279647 0.068784 127 0 127
-0.120430 0.279647 0.087513 127 0 127
0.168639 -0.564715 -0.218122 153 0 76
0.412025 -0.310579 0.118514 76 0 153
0.302075 0.279647 0.158464 127 0 127
-0.574860 0.279647 -0.248397 127 0 127
-0.833093 -0.240626 -0.178767 76 0 153
0.363219 -0.008705 0.022341 76 0 153
0.167992 0.234938 0.031464 127 0 127
-0.454400 0.240601 0.214431 127 0 127
0.262475 -0.043156 -0.237881 255 0 0
0.167992 -0.443866 -0.102090 153 0 76
0.216798 0.026010 -0.009394 153 0 76
0.216798 -0.134750 0.058623 153 0 76
-0.366237 0.240601 -0.029508 127 0 127
0.250461 0.076842 -0.237881 255 0 0
0.167992 -0.415823 -0.152730 153 0 76
-0.426833 0.240601 0.180794 127 0 127
0.311912 -0.545193 0.142586 153 76 0
0.167992 -0.038026 0.213040 153 0 76
0.412025 -0.079501 -0.013989 76 0 153
0.363219 -0.176279 0.060617 76 0 153
-0.537398 0.279647 0.003005 127 0 127
0.363219 0.085487 0.094037 76 0 153
0.054085 0.279647 0.205982 127 0 127
0.305514 -0.174259 -0.034601 76 153 0
0.363219 0.018217 0.096463 76 0 153
0.130342 0.240601 0.195745 127 0 127
0.167992 0.088382 0.078597 153 0 76
0.216798 -0.513564 0.229054 204 51 127
-0.869439 0.240601 0.154568 127 0 127
-0.877768 0.279647 -0.094920 127 0 127
-0.359456 0.279647 0.008933 127 0 127
0.216798 0.017190 -0.198986 153 0 76
0.293741 0.240601 -0.073998 127 0 127
0.412025 -0.382059 -0.100760 76 0 153
-0.808535 0.240601 0.292749 127 0 127
-0.514780 0.253402 -0.320853 127 0 127
0.216798 -0.178160 0.130193 153 0 76
-0.572427 0.240601 0.217433 127 0 127
0.240620 -0.545193 -0.102036 153 76 0
0.363219 -0.184982 0.116717 76 0 153
0.183871 -0.564715 0.035515 153 0 76
0.216798 -0.421350 0.221740 204 51 127
0.344315 0.225226 0.211144 204 51 127
0.234139 -0.476785 -0.237881 255 0 0
-0.407019 0.279647 -0.031501 127 0 127
-0.355910 0.279647 0.101747 127 0 127
-0.395688 0.240601 -0.197127 127 0 127
0.349993 -0.171739 -0.218359 255 0 0
-0.616914 0.240601 -0.300568 127 0 127
-0.830983 -0.385616 0.204678 153 0 76
-0.555710 0.279647 -0.205744 127 0 127
0.220886 -0.545193 -0.160030 153 76 0
0.363219 -0.524576 0.062062 76 0 153
0.207299 -0.496709 -0.237881 153 0 76
-0.267809 0.279647 0.113855 127 0 127
0.167992 -0.471703 0.147508 153 0 76
-0.513504 0.279647 0.213368 127 0 127
0.167992 -0.323221 -0.217143 153 0 76
-0.889714 0.279647 0.034828 127 0 127
0.260773 0.017287 0.211144 204 51 127
-0.005264 0.279647 0.285210 127 0 127
0.167992 0.014415 0.206628 153 0 76
0.412025 -0.127564 0.227607 76 0 153
0.367245 0.240601 0.277603 127 0 127
0.412025 -0.469588 -0.094359 76 0 153
-0.875341 0.240601 -0.018921 127 0 127
0.047023 0.240601 0.081466 127 0 127
0.167992 -0.280018 -0.147435 153 0 76
0.319339 0.216481 -0.237881 255 0 0
-0.319241 0.279647 -0.149023 127 0 127
0.167992 -0.331584 -0.075827 153 0 76
-0.822097 -0.543985 -0.219604 76 0 153
-0.800112 -0.414494 -0.222051 76 0 153
0.412025 -0.326656 -0.211005 76 0 153
-0.275809 0.252806 0.313638 127 0 127
0.363219 -0.229683 0.114819 76 0 153
0.216798 -0.476445 0.179822 153 0 76
0.163377 0.279647 0.249438 127 0 127
0.363219 0.223069 0.126004 76 0 153
-0.189391 0.240601 0.144550 127 0 127
0.330882 0.279647 -0.300686 127 0 127
0.412025 -0.157493 -0.009969 76 0 153
-0.713513 0.240601 0.042793 127 0 127
0.023042 0.240601 -0.050231 127 0 127
0.167992 0.091481 0.156841 153 0 76
0.282659 -0.154736 0.060023 76 153 0
0.216798 0.161188 0.028773 153 0 76
-0.786338 -0.198765 -0.174690 76 0 153
-0.779676 -0.222585 -0.200103 76 0 153
0.167992 -0.290813 -0.062184 153 0 76
-0.441368 0.279647 -0.242496 127 0 127
-0.595501 0.279647 -0.125374 127 0 127
0.167992 0.168714 -0.051785 153 0 76
0.167992 0.034076 0.045387 153 0 76
-0.408845 0.240601 0.291075 127 0 127
-0.125040 0.279647 0.032289 127 0 127
0.346368 -0.148607 0.230666 204 51 127
0.412025 -0.148029 0.088444 76 0 153
0.329917 0.240601 0.135459 127 0 127
0.308967 -0.191827 -0.218359 255 0 0
0.349103 -0.205846 -0.237881 255 0 0
0.258483 0.106541 -0.218359 255 0 0
0.229380 -0.076048 -0.237881 255 0 0
0.039612 0.240601 0.140130 127 0 127
-0.427159 0.260485 0.313638 127 0 127
0.390505 0.240601 -0.119939 76 0 153
-0.830590 -0.506223 -0.212405 76 0 153
0.167992 0.088480 -0.169138 153 0 76
0.407598 -0.564715 0.087551 76 0 153
0.277771 0.240601 0.031093 127 0 127
-0.788518 -0.063598 -0.172424 76 0 153
-0.653438 0.240601 0.214950 127 0 127
0.412025 -0.307890 0.078557 76 0 153
-0.817835 -0.261775 0.159325 153 0 76
0.363219 -0.331019 -0.057896 76 0 153
0.167992 0.165444 -0.164440 153 0 76
0.216798 -0.080424 -0.116243 153 0 76
0.302857 -0.121128 0.230666 204 51 127
0.267586 -0.545193 0.152461 153 76 0
-0.279101 0.240601 -0.211409 127 0 127
-0.900503 0.240601 -0.091536 127 0 127
-0.779405 -0.288152 -0.198042 76 0 153
-0.720544 0.279647 0.254386 127 0 127
0.016508 0.240601 0.267732 127 0 127
-0.083281 0.240601 -0.207576 127 0 127
0.216798 0.096130 -0.186346 153 0 76
0.300913 -0.063506 0.211144 204 51 127
0.297881 -0.564715 0.149688 153 76 0
0.238536 -0.334663 -0.218359 255 0 0
0.412025 0.117591 -0.025043 76 0 153
-0.872713 0.279647 -0.187697 127 0 127
0.250072 -0.316076 -0.237881 255 0 0
0.412025 -0.103753 0.158487 76 0 153
0.363219 -0.219668 0.228583 204 51 127
-0.377560 0.240601 -0.260941 127 0 127
0.167992 -0.113509 -0.017287 153 0 76
0.235548 -0.098557 -0.237881 255 0 0
-0.665684 0.279647 0.123312 127 0 127
-0.040846 0.279647 0.247391 127 0 127
0.363219 -0.368454 0.049900 76 0 153
0.167992 -0.232110 0.086654 153 0 76
0.412025 -0.480226 0.080103 76 0 153
0.122476 0.279647 0.073493 127 0 127
0.412025 -0.232149 0.100798 76 0 153
0.321859 -0.492730 0.211144 204 51 127
0.001265 0.240601 -0.232989 127 0 127
0.290546 -0.321246 0.211144 204 51 127
0.317279 0.077350 -0.218359 255 0 0
0.268688 -0.058162 0.230666 204 51 127
-0.186737 0.240601 0.026936 127 0 127
0.363219 0.147351 -0.149284 76 0 153
0.363219 -0.564607 0.047200 153 76 0
0.363219 -0.341179 -0.228976 76 0 153
0.134647 0.279647 0.185162 127 0 127
0.363219 0.080205 0.213369 204 51 127
0.167992 -0.040193 0.143102 153 0 76
0.338074 0.138101 -0.218359 255 0 0
-0.898150 0.279647 -0.203282 127 0 127
-0.835672 0.183566 0.177313 153 0 76
0.272177 0.264632 0.313638 127 0 127
-0.045917 0.240601 0.144674 127 0 127
-0.766057 0.279647 -0.180008 127 0 127
-0.165216 0.279647 -0.072522 127 0 127
0.216798 -0.525397 0.029730 153 0 76
0.251574 0.240601 -0.218465 255 0 0
0.185217 0.238794 0.230666 153 0 76
0.216798 0.135059 -0.083782 153 0 76
-0.875910 0.265758 0.309835 127 0 127
-0.575197 0.279647 -0.164334 127 0 127
0.253049 -0.154736 0.139728 76 153 0
0.333909 -0.167387 -0.237881 255 0 0
0.167992 -0.428637 -0.126385 153 0 76
0.296334 -0.545193 -0.096143 153 76 0
-0.268066 0.240601 0.112046 127 0 127
0.345371 0.279647 0.247973 127 0 127
0.243490 0.279647 0.198752 127 0 127
-0.861564 0.240601 0.265644 127 0 127
-0.595356 0.279647 -0.092408 127 0 127
0.412025 -0.477443 0.121312 76 0 153
-0.780024 -0.169189 0.178776 153 0 76
0.292664 -0.294938 -0.237881 255 0 0
0.349762 0.279647 0.054269 127 0 127
-0.837422 0.183833 -0.193855 76 0 153
-0.116673 0.279647 0.284317 127 0 127
0.167992 0.180602 0.128019 153 0 76
0.245591 -0.564715 0.084778 153 76 0
-0.547130 0.240601 0.283747 127 0 127
0.216798 -0.178186 0.219831 204 51 127
-0.307263 0.240601 0.213941 127 0 127
0.273708 -0.564715 0.115700 153 76 0
0.363219 0.124829 0.147482 76 0 153
0.354930 0.240601 -0.288685 127 0 127
0.363219 0.138863 -0.035813 76 0 153
0.412025 -0.105947 0.230013 76 0 153
0.281205 -0.021931 -0.218359 255 0 0
0.337316 -0.054703 0.211144 204 51 127
0.167992 -0.355377 -0.117948 153 0 76
0.363219 0.003060 0.130978 76 0 153
0.287203 0.223092 0.230666 204 51 127
0.279734 -0.545193 -0.011394 153 76 0
-0.117122 0.240601 0.037461 127 0 127
0.363219 0.121457 0.010363 76 0 153
0.323834 0.240601 0.037391 127 0 127
0.320507 -0.154736 -0.207935 76 153 0
-0.355125 0.279647 0.213279 127 0 127
-0.798455 0.073594 -0.221364 76 0 153
-0.050745 0.240601 -0.176122 127 0 127
0.319152 -0.545193 -0.051065 153 76 0
0.313253 -0.174259 -0.197423 76 153 0
0.167992 -0.089510 -0.060385 153 0 76
-0.756293 0.279647 -0.031321 127 0 127
0.344154 -0.194454 0.211144 204 51 127
0.290224 -0.479566 0.211144 204 51 127
0.269054 0.240601 0.219329 127 0 127
0.363219 -0.013186 0.206588 76 0 153
-0.027721 0.279647 -0.279079 127 0 127
-0.663235 0.279647 0.078859 127 0 127
0.392037 0.279647 -0.046008 127 0 127
0.412025 -0.171364 -0.194858 76 0 153
-0.831630 0.205753 -0.176860 76 0 153
-0.235133 0.279647 0.001302 127 0 127
0.297400 -0.481394 -0.237881 255 0 0
0.363499 0.279647 0.027697 127 0 127
0.216798 0.098936 0.049001 153 0 76
-0.141482 0.279647 0.251357 127 0 127
0.340442 0.240601 0.244518 127 0 127
0.216798 -0.268640 0.185082 153 0 76
0.167992 0.086031 -0.141624 153 0 76
0.250890 0.279647 -0.167949 127 0 127
-0.743431 0.259448 -0.320853 127 0 127
0.233271 -0.154736 -0.131585 76 153 0
-0.300264 0.274538 -0.320853 127 0 127
-0.935050 0.249427 0.107906 127 0 127
-0.171328 0.279647 0.240053 127 0 127
-0.308813 0.240601 0.076515 127 0 127
0.216798 0.134828 -0.008397 153 0 76
0.095974 0.240601 0.132208 127 0 127
-0.236434 0.240601 0.111823 127 0 127
-0.238694 0.279647 -0.203510 127 0 127
-0.230017 0.240601 -0.267540 127 0 127
0.344396 -0.250993 0.211144 204 51 127
0.377899 -0.179839 -0.237881 76 0 153
-0.188991 0.279647 -0.005506 127 0 127
-0.004859 0.240601 -0.191026 127 0 127
-0.090053 0.240601 -0.104994 127 0 127
0.280476 0.279647 0.009743 127 0 127
0.217878 -0.170030 -0.237881 255 0 0
-0.149250 0.240601 -0.252388 127 0 127
0.253170 0.087049 0.230666 204 51 127
0.310233 0.045421 -0.237881 255 0 0
-0.687396 0.240601 0.181943 127 0 127
0.412025 -0.539570 0.118910 76 0 153
0.303540 -0.174259 -0.127870 76 153 0
0.231368 -0.174259 -0.199712 76 153 0
-0.664245 0.240601 -0.080768 127 0 127
-0.821529 0.128128 -0.168071 76 0 153
-0.720095 0.279647 -0.249108 127 0 127
0.167992 -0.462611 -0.029317 153 0 76
0.232942 -0.190825 -0.237881 255 0 0
0.412025 -0.485417 -0.155808 76 0 153
-0.634192 0.240601 -0.117523 127 0 127
-0.736552 0.240601 0.293478 127 0 127
