ply
format ascii 1.0
element vertex 614
property float x
property float y
property float z
property float nx
property float ny
property float nz
property uchar red
property uchar green
property uchar blue
property float opacity
end_header
-0.128141 0.660372 0.086395 0.856234 0.000000 -0.516588 255 255 255 1.000000
0.129766 0.476657 0.099224 0.803655 -0.000000 0.595095 255 255 255 1.000000
-0.195282 -0.654086 0.090041 0.000000 1.000000 0.000000 255 255 255 1.000000
0.300906 -0.059322 0.053230 -0.986603 0.000000 -0.163142 255 255 255 1.000000
-0.112524 0.318888 0.143640 0.578698 -0.366037 -0.728783 255 255 255 1.000000
0.051746 0.044775 -0.280574 -0.151170 -0.366456 0.918073 255 255 255 1.000000
0.106062 0.168733 -0.213415 -0.383009 -0.366438 0.847955 255 255 255 1.000000
0.069061 -0.620892 -0.271305 0.167039 -0.709031 -0.685108 255 255 255 1.000000
0.141780 0.429794 0.002749 0.000000 1.000000 0.000000 255 255 255 1.000000
-0.047251 0.577474 0.152939 0.332612 0.000000 -0.943064 255 255 255 1.000000
-0.245334 -0.176550 0.171022 -0.831269 -0.000000 0.555871 244 220 196 1.000000
-0.196278 -0.254284 0.227401 0.668146 0.000000 -0.744030 255 255 255 1.000000
-0.121181 0.596844 -0.085920 0.805734 -0.000000 0.592278 255 255 255 1.000000
-0.260176 -0.196380 0.146600 -0.880355 -0.000000 0.474315 244 220 196 1.000000
-0.040650 0.694463 -0.059760 0.000000 -1.000000 -0.000000 255 255 255 1.000000
-0.041435 0.858398 -0.046132 0.659078 -0.129480 0.740845 255 255 255 1.000000
0.223854 -0.636629 0.159843 -0.577670 0.706716 -0.408472 255 255 255 1.000000
-0.220333 0.013887 -0.103556 0.000000 -1.000000 -0.000000 255 255 255 1.000000
0.304752 -0.594220 0.030669 -0.996135 0.000000 -0.087839 255 255 255 1.000000
0.208329 -0.030905 -0.215561 -0.680643 -0.000000 0.732615 255 255 255 1.000000
0.047281 0.575675 -0.142410 0.276704 0.000000 -0.960955 255 255 255 1.000000
-0.296111 -0.171926 -0.030207 0.993513 -0.000000 0.113718 255 255 255 1.000000
0.138264 0.370453 0.095459 -0.761043 -0.365364 -0.536025 255 255 255 1.000000
-0.189069 -0.364906 -0.227660 0.640324 -0.000000 0.768105 255 255 255 1.000000
-0.058577 0.429794 0.002457 0.000000 1.000000 0.000000 255 255 255 1.000000
0.082619 0.429794 0.038830 0.000000 -1.000000 -0.000000 255 255 255 1.000000
-0.004668 0.013887 0.287929 0.000000 -1.000000 -0.000000 255 255 255 1.000000
0.009541 -0.439652 -0.295921 0.017829 0.000000 -0.999841 253 253 253 1.000000
0.084848 0.065738 -0.264120 -0.256784 -0.367117 0.894028 255 255 255 1.000000
-0.181939 -0.224163 -0.233646 0.616340 -0.000000 0.787481 255 255 255 1.000000
-0.291964 -0.229246 -0.047206 -0.985287 0.000000 -0.170910 235 235 235 1.000000
-0.156154 0.227928 0.150788 0.663139 -0.367226 -0.652221 255 255 255 1.000000
0.069836 -0.654086 -0.141026 0.000000 1.000000 0.000000 255 255 255 1.000000
0.050724 0.467604 0.142246 0.000000 1.000000 0.000000 255 255 255 1.000000
0.224927 0.148173 -0.109665 0.811287 0.367182 -0.454962 255 255 255 1.000000
-0.238537 0.159901 0.027833 -0.928573 0.367173 0.054184 255 255 255 1.000000
0.081918 0.781236 -0.014344 -0.957908 -0.128725 0.256598 255 255 255 1.000000
-0.287656 -0.483323 0.074613 -0.972081 -0.000000 0.234645 244 220 196 1.000000
-0.235197 -0.380723 -0.179409 0.793536 -0.000000 0.608524 255 255 255 1.000000
-0.035710 -0.654086 -0.125766 0.000000 1.000000 0.000000 255 255 255 1.000000
-0.055659 0.005539 0.298250 -0.199422 -0.000000 0.979914 244 220 196 1.000000
-0.154198 0.354918 -0.053231 0.872046 -0.365151 0.325884 255 255 255 1.000000
0.217024 0.036029 -0.195355 -0.675252 -0.366988 0.639808 255 255 255 1.000000
0.000636 0.883511 0.049666 0.000000 -1.000000 -0.000000 255 255 255 1.000000
0.082180 0.758085 0.034326 -0.929787 -0.129724 -0.344481 255 255 255 1.000000
0.207638 -0.654086 0.150889 0.000000 1.000000 0.000000 255 255 255 1.000000
-0.295021 -0.534266 -0.034676 -0.991679 0.000000 -0.128732 236 236 236 1.000000
0.162818 -0.432901 -0.250878 0.528145 0.000000 -0.849154 244 220 196 1.000000
-0.069485 0.549839 -0.129721 0.477152 -0.000000 0.878821 255 255 255 1.000000
0.068301 0.694463 -0.058736 0.000000 1.000000 0.000000 255 255 255 1.000000
0.229734 0.013887 -0.009623 0.000000 1.000000 0.000000 255 255 255 1.000000
0.065168 0.883511 0.023529 0.000000 -1.000000 -0.000000 255 255 255 1.000000
-0.108582 0.649045 -0.099476 -0.729726 0.000000 -0.683739 255 255 255 1.000000
0.176782 -0.603592 -0.243229 -0.572162 -0.000000 0.820141 255 255 255 1.000000
0.045446 0.905825 0.051195 -0.655374 -0.257762 -0.709961 255 255 255 1.000000
0.304571 -0.084247 0.022605 -0.998121 0.000000 -0.061272 255 255 255 1.000000
0.134915 0.076579 -0.238408 0.432923 0.367331 -0.823193 255 255 255 1.000000
-0.035910 -0.199755 0.303069 0.132964 0.000000 -0.991121 255 255 255 1.000000
0.062604 0.013887 -0.014051 0.000000 -1.000000 -0.000000 255 255 255 1.000000
0.291699 -0.615562 -0.032641 0.701349 -0.707049 -0.090508 255 255 255 1.000000
0.137637 0.420866 0.055758 0.868257 0.364678 0.336361 255 255 255 1.000000
0.129952 0.013887 -0.069061 0.000000 1.000000 0.000000 255 255 255 1.000000
0.031723 0.013887 0.081379 0.000000 -1.000000 -0.000000 255 255 255 1.000000
0.013291 0.802785 0.082671 0.132133 0.129816 0.982695 255 255 255 1.000000
-0.044877 0.928243 0.099400 0.022490 -0.000000 0.999747 255 255 255 1.000000
0.026677 0.972552 0.085184 0.022490 -0.000000 0.999747 255 255 255 1.000000
0.085719 -0.654086 0.032282 0.000000 1.000000 0.000000 255 255 255 1.000000
0.301280 -0.573506 0.051696 0.987443 -0.000000 0.157978 244 220 196 1.000000
-0.295112 -0.193260 0.033727 -0.995158 -0.000000 0.098290 232 231 234 1.000000
0.147349 -0.636896 0.229813 0.383938 -0.708877 0.591679 255 255 255 1.000000
-0.213577 -0.283355 0.210864 0.725298 0.000000 -0.688435 255 255 255 1.000000
0.118485 0.508957 0.111238 -0.736273 0.000000 -0.676685 255 255 255 1.000000
0.087269 -0.432164 -0.284252 -0.276797 -0.000000 0.960929 255 255 255 1.000000
-0.142862 -0.639929 0.224835 -0.394984 -0.707536 0.585988 255 255 255 1.000000
-0.087089 0.695776 0.019531 0.989882 0.000000 -0.141893 255 255 255 1.000000
-0.081364 0.265994 0.187628 0.374903 -0.366189 -0.851677 255 255 255 1.000000
0.028962 0.429794 0.096199 0.000000 -1.000000 -0.000000 255 255 255 1.000000
-0.063812 0.013887 -0.191840 0.000000 1.000000 0.000000 255 255 255 1.000000
0.022287 0.669256 -0.025800 0.000000 -1.000000 -0.000000 255 255 255 1.000000
0.073163 -0.324118 0.296442 -0.229676 0.000000 -0.973267 255 255 255 1.000000
0.303506 -0.377723 -0.024739 -0.995370 -0.000000 0.096121 255 255 255 1.000000
-0.036319 0.791280 -0.060945 0.516376 -0.129089 0.846577 255 255 255 1.000000
0.121252 -0.630103 -0.244003 0.305348 -0.708524 -0.636205 255 255 255 1.000000
-0.248182 -0.564550 0.166335 0.841284 0.000000 -0.540594 255 255 255 1.000000
0.190061 0.126543 -0.172512 -0.657155 -0.367302 0.658207 255 255 255 1.000000
-0.042832 0.669256 0.153308 0.000000 -1.000000 -0.000000 255 255 255 1.000000
0.043013 -0.654086 -0.208584 0.000000 -1.000000 -0.000000 255 255 255 1.000000
0.070383 0.013887 0.126722 0.000000 1.000000 0.000000 255 255 255 1.000000
-0.070269 0.810694 0.019334 0.979129 -0.129768 -0.156421 255 255 255 1.000000
0.053091 -0.343923 -0.292591 0.162594 0.000000 -0.986693 255 253 255 1.000000
0.081137 -0.654086 -0.094172 0.000000 -1.000000 -0.000000 255 255 255 1.000000
-0.073879 -0.299876 -0.285454 0.260265 -0.000000 0.965537 255 255 255 1.000000
-0.012981 0.964702 0.086076 0.022490 -0.000000 0.999747 255 255 255 1.000000
0.042781 0.753817 -0.067610 -0.446595 -0.129462 0.885320 255 255 255 1.000000
0.165343 0.013887 0.216277 0.000000 -1.000000 -0.000000 255 255 255 1.000000
-0.146443 0.114674 -0.209426 -0.542480 0.366449 -0.755930 255 255 255 1.000000
0.092390 -0.258291 0.290824 -0.294077 0.000000 -0.955782 255 255 255 1.000000
-0.028975 0.885690 0.063721 0.486656 -0.256821 -0.834991 255 255 255 1.000000
0.016293 0.449026 0.156486 -0.079206 0.000000 -0.996858 255 255 255 1.000000
-0.001308 0.467604 -0.020578 0.000000 -1.000000 -0.000000 255 255 255 1.000000
0.189540 0.025468 -0.227302 -0.581182 -0.366136 0.726754 255 255 255 1.000000
-0.035611 0.935934 0.086585 -0.022490 0.000000 -0.999747 255 255 255 1.000000
-0.210166 0.210954 0.067000 0.883364 -0.367190 -0.291272 255 255 255 1.000000
-0.261311 -0.083629 -0.135370 -0.885196 0.000000 -0.465218 255 255 255 1.000000
-0.178970 -0.113073 0.243948 -0.607024 -0.000000 0.794683 244 220 196 1.000000
-0.227038 -0.616193 -0.170217 -0.565211 -0.706594 -0.425748 255 255 255 1.000000
0.067472 0.828458 0.074354 0.999494 -0.022490 -0.022484 255 255 255 1.000000
-0.190623 -0.034481 0.232808 0.648549 0.000000 -0.761173 255 255 255 1.000000
0.160537 0.013887 -0.115212 0.000000 -1.000000 -0.000000 255 255 255 1.000000
0.153200 0.027346 0.258420 0.472340 0.367348 0.801218 255 255 255 1.000000
0.259097 -0.316444 -0.153833 -0.849969 -0.000000 0.526832 255 255 255 1.000000
-0.093103 0.143093 -0.227572 0.362909 -0.365232 0.857265 255 255 255 1.000000
-0.288055 -0.035772 0.073250 -0.973178 -0.000000 0.230052 244 220 196 1.000000
-0.038574 -0.654086 -0.197341 0.000000 -1.000000 -0.000000 255 255 255 1.000000
0.059744 0.429794 -0.122563 0.000000 1.000000 0.000000 255 255 255 1.000000
0.281294 -0.158737 0.122516 0.919635 -0.000000 0.392774 244 220 196 1.000000
0.039601 -0.096317 -0.295882 -0.117206 -0.000000 0.993108 255 255 255 1.000000
0.296935 -0.326341 -0.063205 -0.974527 -0.000000 0.224271 255 255 255 1.000000
0.216674 0.013887 0.078119 0.000000 1.000000 0.000000 255 255 255 1.000000
0.231929 -0.417416 -0.192999 0.756034 0.000000 -0.654532 244 220 196 1.000000
-0.106086 0.081998 -0.248491 -0.372733 0.364790 -0.853229 255 255 255 1.000000
0.109265 -0.369329 -0.278885 0.348018 0.000000 -0.937488 244 220 196 1.000000
0.297061 0.032077 0.002820 0.930055 0.367344 -0.007549 255 255 255 1.000000
-0.100694 -0.370454 -0.277618 0.348834 -0.000000 0.937185 255 255 255 1.000000
0.093152 0.125368 -0.238262 -0.306712 -0.365895 0.878663 255 255 255 1.000000
0.015003 0.013887 -0.244659 0.000000 1.000000 0.000000 255 255 255 1.000000
0.053143 0.914776 -0.025608 0.793560 0.258486 -0.550860 255 255 255 1.000000
0.283282 0.013887 0.081219 0.000000 1.000000 0.000000 255 255 255 1.000000
-0.168580 -0.029216 -0.241765 0.574842 -0.000000 0.818265 255 255 255 1.000000
0.018156 0.253073 -0.203223 0.043445 0.366615 -0.929358 255 255 255 1.000000
0.283899 -0.240662 -0.107816 -0.928365 -0.000000 0.371670 255 255 255 1.000000
0.009050 -0.422035 0.304022 0.016207 -0.000000 0.999869 244 220 196 1.000000
-0.018774 0.446237 -0.146478 0.150694 -0.000000 0.988580 255 255 255 1.000000
-0.260265 -0.132390 0.146454 -0.880624 -0.000000 0.473816 244 220 196 1.000000
0.174638 0.013887 -0.176989 0.000000 1.000000 0.000000 255 255 255 1.000000
0.045328 0.539161 -0.142918 0.264158 0.000000 -0.964479 255 255 255 1.000000
-0.272954 -0.449493 0.124928 -0.916748 -0.000000 0.399465 244 220 196 1.000000
-0.130805 -0.404800 -0.264722 0.448677 -0.000000 0.893694 255 255 255 1.000000
0.031525 -0.052987 0.303517 0.090937 -0.000000 0.995857 244 220 196 1.000000
-0.048679 0.801224 0.062672 0.677355 -0.129210 -0.724220 255 255 255 1.000000
-0.269455 -0.242401 -0.120502 -0.910012 0.000000 -0.414583 255 255 255 1.000000
-0.012992 0.904531 0.004769 -0.995577 0.000000 -0.093951 255 255 255 1.000000
-0.027657 0.694463 -0.069675 0.000000 -1.000000 -0.000000 255 255 255 1.000000
-0.293887 -0.211629 0.053289 0.986691 0.000000 -0.162609 255 255 255 1.000000
0.164345 -0.008265 -0.250041 -0.533049 -0.000000 0.846085 255 255 255 1.000000
-0.150325 0.478861 0.015708 0.998201 0.000000 -0.059958 255 255 255 1.000000
-0.041526 -0.468903 -0.294772 -0.151170 0.000000 -0.988508 116 116 116 1.000000
-0.142927 0.027615 -0.251117 0.466626 -0.367309 0.804577 255 255 255 1.000000
0.247440 -0.291838 -0.173014 -0.808308 -0.000000 0.588760 255 255 255 1.000000
-0.051854 -0.654086 -0.222387 0.000000 1.000000 0.000000 255 255 255 1.000000
-0.257385 -0.625750 0.100856 0.663762 0.708332 -0.240178 255 255 255 1.000000
-0.262461 0.069108 -0.077672 0.887949 -0.366732 0.277587 255 255 255 1.000000
0.258520 0.079566 -0.103749 0.856560 0.365157 -0.364644 255 255 255 1.000000
0.230474 0.140418 0.113033 0.825605 0.367296 0.428334 255 255 255 1.000000
0.264419 -0.212382 -0.145075 -0.867469 -0.000000 0.497491 255 255 255 1.000000
-0.016579 0.013887 0.160802 0.000000 1.000000 0.000000 255 255 255 1.000000
0.295657 -0.167170 0.074746 0.971910 -0.000000 0.235355 244 220 196 1.000000
-0.119969 0.013887 -0.119576 0.000000 -1.000000 -0.000000 255 255 255 1.000000
-0.078433 -0.654086 -0.205343 0.000000 -1.000000 -0.000000 255 255 255 1.000000
-0.044402 0.194071 0.228985 0.174183 -0.366964 -0.913782 255 255 255 1.000000
0.070407 0.013887 -0.250073 0.000000 1.000000 0.000000 255 255 255 1.000000
0.185266 -0.351360 -0.237609 -0.599459 -0.000000 0.800405 255 255 255 1.000000
-0.101969 -0.094962 0.286952 -0.351455 -0.000000 0.936205 244 220 196 1.000000
-0.296119 -0.207861 -0.030176 0.993525 -0.000000 0.113614 255 255 255 1.000000
-0.126867 0.532648 -0.075903 0.847254 -0.000000 0.531189 255 255 255 1.000000
-0.259555 0.063915 -0.098089 0.868166 -0.364666 0.336611 255 255 255 1.000000
0.166519 0.190347 -0.160745 0.629962 0.367320 -0.684269 255 255 255 1.000000
-0.164491 0.198499 0.158626 0.658894 -0.367282 -0.656477 255 255 255 1.000000
-0.066632 -0.654086 -0.030186 0.000000 1.000000 0.000000 255 255 255 1.000000
0.220685 0.013887 0.197772 0.000000 1.000000 0.000000 255 255 255 1.000000
0.002608 0.467604 0.117126 0.000000 -1.000000 -0.000000 255 255 255 1.000000
0.139532 -0.449780 -0.263632 -0.451059 -0.000000 0.892494 255 255 255 1.000000
0.209826 0.229196 0.073849 0.877761 0.365801 0.309396 255 255 255 1.000000
-0.277051 0.061198 0.019778 -0.929148 0.367293 0.042192 255 255 255 1.000000
0.136932 0.013887 0.187611 0.000000 -1.000000 -0.000000 255 255 255 1.000000
-0.024794 0.393210 -0.146358 0.179421 -0.366081 0.913122 255 255 255 1.000000
-0.055734 0.687018 0.051163 0.802367 0.000000 -0.596831 255 255 255 1.000000
0.290158 -0.184349 0.097282 0.950861 -0.000000 0.309620 242 219 193 1.000000
-0.068671 -0.596293 -0.286975 0.242773 -0.000000 0.970083 255 255 255 1.000000
-0.229934 -0.568743 0.195227 0.774757 0.000000 -0.632259 255 255 255 1.000000
0.174230 -0.506548 0.251754 -0.566129 0.000000 -0.824317 255 255 255 1.000000
0.258813 -0.638716 0.080161 -0.677060 0.708660 -0.198471 255 255 255 1.000000
-0.128816 -0.052066 -0.265931 0.441777 -0.000000 0.897125 255 255 255 1.000000
-0.237135 -0.181956 0.184513 0.801028 0.000000 -0.598627 255 255 255 1.000000
0.184201 -0.244181 -0.238627 0.595580 0.000000 -0.803296 244 220 196 1.000000
0.091335 0.467604 -0.019049 0.000000 -1.000000 -0.000000 255 255 255 1.000000
-0.294703 -0.557266 0.050498 0.988197 0.000000 -0.153186 255 255 255 1.000000
-0.009011 -0.654086 -0.112304 0.000000 1.000000 0.000000 255 255 255 1.000000
-0.047875 0.467604 -0.116900 0.000000 -1.000000 -0.000000 255 255 255 1.000000
-0.193372 -0.210211 -0.223159 -0.655968 0.000000 -0.754789 227 227 227 1.000000
0.031106 0.957647 0.085085 0.022490 -0.000000 0.999747 255 255 255 1.000000
0.005178 0.730963 0.093062 -0.011118 -0.128903 -0.991595 255 255 255 1.000000
0.174350 0.321740 0.067657 0.870566 0.364970 0.330017 255 255 255 1.000000
-0.253213 0.095056 -0.073074 -0.888796 0.366794 -0.274780 255 255 255 1.000000
-0.110539 -0.186468 -0.274741 0.380422 -0.000000 0.924813 255 255 255 1.000000
0.007903 0.240253 0.216135 0.053495 0.367181 0.928610 255 255 255 1.000000
0.126196 -0.305104 -0.270937 0.405414 0.000000 -0.914133 244 220 196 1.000000
-0.135828 -0.132489 -0.261669 0.466020 -0.000000 0.884774 255 255 255 1.000000
0.281797 -0.323781 -0.115012 0.918902 0.000000 -0.394486 244 220 196 1.000000
-0.082356 0.235748 -0.193233 0.374368 -0.364712 0.852546 255 255 255 1.000000
0.100396 0.429794 0.065218 0.000000 -1.000000 -0.000000 255 255 255 1.000000
0.063833 0.620929 0.150625 -0.380875 0.000000 -0.924627 255 255 255 1.000000
0.143342 -0.642330 -0.218126 0.379834 -0.708239 -0.595083 255 255 255 1.000000
-0.077962 0.467604 0.119913 0.000000 1.000000 0.000000 255 255 255 1.000000
0.206050 0.266257 -0.000014 0.928261 0.367099 -0.059748 255 255 255 1.000000
0.042231 0.669256 -0.021399 0.000000 -1.000000 -0.000000 255 255 255 1.000000
0.083839 -0.544919 -0.285089 -0.265480 -0.000000 0.964116 255 255 255 1.000000
0.075350 0.429794 -0.101163 0.000000 -1.000000 -0.000000 255 255 255 1.000000
0.272190 -0.375896 -0.132289 0.891140 0.000000 -0.453729 244 220 196 1.000000
-0.204275 -0.529696 -0.211754 -0.694578 0.000000 -0.719418 255 255 255 1.000000
0.299484 -0.113427 0.059059 -0.983157 0.000000 -0.182765 255 255 255 1.000000
0.138040 0.502461 0.084647 -0.862952 0.000000 -0.505286 255 255 255 1.000000
-0.204002 -0.224853 0.220018 -0.694217 -0.000000 0.719765 244 220 196 1.000000
0.099637 0.579777 -0.117121 0.610447 0.000000 -0.792057 255 255 255 1.000000
-0.031818 0.467604 0.086319 0.000000 1.000000 0.000000 255 255 255 1.000000
0.059628 0.214224 0.219360 -0.270070 -0.367359 -0.890005 255 255 255 1.000000
0.102195 -0.060340 0.287959 0.326424 -0.000000 0.945224 244 220 196 1.000000
0.047048 0.013887 0.135581 0.000000 -1.000000 -0.000000 255 255 255 1.000000
0.265179 -0.293074 -0.143826 0.869882 0.000000 -0.493259 244 220 196 1.000000
-0.235966 -0.654086 0.001755 0.000000 1.000000 0.000000 255 255 255 1.000000
-0.162601 -0.654086 -0.122285 0.000000 -1.000000 -0.000000 255 255 255 1.000000
-0.008827 -0.371814 -0.295508 0.043394 -0.000000 0.999058 255 255 255 1.000000
0.167663 -0.640828 -0.203807 -0.437769 0.707438 0.554879 255 255 255 1.000000
-0.101361 -0.654086 0.087941 0.000000 1.000000 0.000000 255 255 255 1.000000
0.059844 0.986788 0.084438 0.022490 -0.000000 0.999747 255 255 255 1.000000
0.110968 0.013887 -0.131045 0.000000 -1.000000 -0.000000 255 255 255 1.000000
-0.272052 0.041950 -0.082849 0.886715 -0.366637 0.281628 255 255 255 1.000000
0.025600 0.193533 0.233881 -0.099431 -0.366240 -0.925193 255 255 255 1.000000
-0.043397 -0.654086 -0.039037 0.000000 1.000000 0.000000 255 255 255 1.000000
-0.156404 0.057309 -0.229436 0.530261 -0.366797 0.764385 255 255 255 1.000000
-0.091532 0.504380 -0.116774 0.614533 -0.000000 0.788891 255 255 255 1.000000
-0.284443 -0.588730 -0.078032 -0.961761 0.000000 -0.273891 255 255 255 1.000000
-0.109774 0.233054 0.186648 -0.459901 0.367335 0.808428 255 255 255 1.000000
0.057760 0.712986 0.082016 0.576430 -0.000000 0.817146 255 255 255 1.000000
0.093185 0.198474 -0.207303 -0.355269 -0.365471 0.860358 255 255 255 1.000000
-0.004791 0.034758 0.296228 -0.023956 0.367007 0.929910 255 255 255 1.000000
-0.169536 0.334103 -0.024464 -0.915580 0.366782 -0.164874 255 255 255 1.000000
-0.199308 -0.397932 -0.216950 -0.677185 0.000000 -0.735813 255 255 255 1.000000
0.050985 0.467604 0.120154 0.000000 -1.000000 -0.000000 255 255 255 1.000000
0.151340 0.626233 0.056610 -0.946287 0.000000 -0.323329 255 255 255 1.000000
-0.204059 0.250270 0.000363 -0.929383 0.366631 -0.042769 255 255 255 1.000000
-0.011951 0.669256 -0.132423 0.000000 -1.000000 -0.000000 255 255 255 1.000000
0.219737 -0.307640 0.212676 0.718740 -0.000000 0.695279 244 220 196 1.000000
0.171957 -0.605910 0.250694 -0.397329 0.708554 -0.583165 255 255 255 1.000000
0.064662 -0.563366 0.298926 -0.200970 0.000000 -0.979597 255 255 255 1.000000
0.150075 0.013887 0.044480 0.000000 -1.000000 -0.000000 255 255 255 1.000000
0.265657 -0.060851 -0.143038 0.871394 0.000000 -0.490585 244 220 196 1.000000
0.015904 0.932856 0.069983 0.000000 -1.000000 -0.000000 255 255 255 1.000000
-0.136894 0.506640 -0.058237 -0.909365 0.000000 -0.415998 255 255 255 1.000000
-0.140650 -0.205309 -0.258739 -0.482537 0.000000 -0.875875 255 255 255 1.000000
0.053773 0.429794 0.109242 0.000000 -1.000000 -0.000000 255 255 255 1.000000
0.158336 -0.088680 -0.253332 0.513633 0.000000 -0.858010 244 220 196 1.000000
-0.058084 0.851911 0.074908 -0.999494 0.022490 0.022484 255 255 255 1.000000
0.233165 0.013887 -0.170353 0.000000 1.000000 0.000000 255 255 255 1.000000
-0.050398 0.308108 0.181946 -0.250836 0.367195 0.895683 255 255 255 1.000000
-0.010423 0.709306 0.098625 0.022490 -0.000000 0.999747 255 255 255 1.000000
-0.210767 0.013887 0.113775 0.000000 -1.000000 -0.000000 255 255 255 1.000000
0.120892 -0.611783 -0.264845 0.284950 -0.707726 -0.646473 255 255 255 1.000000
0.096091 0.669256 -0.009632 0.000000 1.000000 0.000000 255 255 255 1.000000
0.199309 0.284788 0.025890 -0.925265 -0.364796 -0.103961 255 255 255 1.000000
0.007384 -0.137104 0.304060 -0.010650 0.000000 -0.999943 255 255 255 1.000000
-0.189026 -0.011401 -0.227705 -0.640165 0.000000 -0.768237 255 255 255 1.000000
0.047102 0.013887 -0.048197 0.000000 -1.000000 -0.000000 255 255 255 1.000000
0.045327 0.269621 -0.192279 0.160890 0.366695 -0.916324 255 255 255 1.000000
0.214122 -0.323538 -0.210023 -0.699975 -0.000000 0.714167 255 255 255 1.000000
0.303622 -0.428379 -0.019571 0.996873 0.000000 -0.079022 243 219 195 1.000000
-0.250976 -0.547606 -0.154240 0.849601 -0.000000 0.527426 255 255 255 1.000000
0.003474 0.669256 -0.135564 0.000000 1.000000 0.000000 255 255 255 1.000000
0.175711 0.280591 0.099722 -0.792446 -0.366977 -0.487192 255 255 255 1.000000
0.077244 -0.137008 -0.286698 0.243597 0.000000 -0.969876 244 220 196 1.000000
0.082839 0.783838 0.017604 -0.979933 -0.129784 -0.151284 255 255 255 1.000000
0.298413 0.030428 0.034428 -0.926584 -0.365105 -0.090225 255 255 255 1.000000
-0.211905 -0.130373 -0.203773 -0.720576 0.000000 -0.693376 199 199 199 1.000000
-0.109434 0.021010 0.280706 -0.353609 0.365403 0.861070 255 255 255 1.000000
0.215845 0.013887 0.109299 0.000000 -1.000000 -0.000000 255 255 255 1.000000
0.152438 0.669256 0.003875 0.000000 1.000000 0.000000 255 255 255 1.000000
0.242915 -0.556876 -0.180460 -0.791036 -0.000000 0.611770 255 255 255 1.000000
-0.257696 0.021071 -0.136165 -0.819223 0.367367 -0.440359 255 255 255 1.000000
-0.141577 0.284048 -0.125541 0.670066 -0.367375 0.645018 255 255 255 1.000000
0.039491 0.883511 0.053177 0.000000 -1.000000 -0.000000 255 255 255 1.000000
-0.019110 0.467604 -0.039430 0.000000 -1.000000 -0.000000 255 255 255 1.000000
0.040811 -0.654086 -0.168536 0.000000 -1.000000 -0.000000 255 255 255 1.000000
0.078596 -0.217665 0.294855 -0.247971 0.000000 -0.968767 255 255 255 1.000000
-0.281985 -0.066722 0.094020 0.954075 0.000000 -0.299566 255 255 255 1.000000
0.051785 -0.300294 0.302689 0.157447 -0.000000 0.987527 244 220 196 1.000000
-0.067438 -0.522644 -0.287336 -0.238621 0.000000 -0.971113 3 3 3 1.000000
-0.129137 -0.620111 -0.246870 0.337092 0.708624 0.619855 255 255 255 1.000000
0.066461 -0.268609 0.298401 -0.207051 0.000000 -0.978330 255 255 255 1.000000
0.009213 0.119119 -0.255045 -0.003948 0.367324 -0.930085 255 255 255 1.000000
0.235687 -0.041073 -0.189407 -0.767147 -0.000000 0.641471 255 255 255 1.000000
-0.092624 0.192388 0.214045 -0.377560 0.366274 0.850466 255 255 255 1.000000
0.031094 -0.488569 0.303526 0.089511 -0.000000 0.995986 194 171 149 1.000000
-0.008107 -0.209360 0.304408 0.040923 0.000000 -0.999162 255 255 255 1.000000
-0.119692 -0.654086 -0.139939 0.000000 1.000000 0.000000 255 255 255 1.000000
-0.009095 -0.406159 -0.295502 0.044287 -0.000000 0.999019 255 255 255 1.000000
-0.016016 0.883511 0.021426 0.000000 -1.000000 -0.000000 255 255 255 1.000000
0.214338 0.013887 -0.140581 0.000000 -1.000000 -0.000000 255 255 255 1.000000
0.300490 -0.431284 0.054935 -0.985636 0.000000 -0.168884 255 255 255 1.000000
0.052812 0.429794 -0.035465 0.000000 1.000000 0.000000 255 255 255 1.000000
-0.014498 0.909844 -0.050085 0.325962 -0.258476 0.909362 255 255 255 1.000000
-0.249025 -0.378385 0.164949 0.844194 0.000000 -0.536038 255 255 255 1.000000
-0.033137 0.429794 0.020894 0.000000 1.000000 0.000000 255 255 255 1.000000
0.088240 -0.654086 -0.043311 0.000000 -1.000000 -0.000000 255 255 255 1.000000
0.068811 0.429794 0.031108 0.000000 1.000000 0.000000 255 255 255 1.000000
0.304694 -0.206498 0.028089 -0.996846 0.000000 -0.079360 255 255 255 1.000000
0.059709 -0.654086 0.232705 0.000000 -1.000000 -0.000000 255 255 255 1.000000
0.240282 0.013887 0.024056 0.000000 -1.000000 -0.000000 255 255 255 1.000000
-0.090743 -0.654086 0.071307 0.000000 1.000000 0.000000 255 255 255 1.000000
0.047800 0.719324 0.097316 0.022490 -0.000000 0.999747 255 255 255 1.000000
-0.049137 0.417488 0.138213 0.340357 -0.364818 -0.866640 255 255 255 1.000000
0.243588 0.170140 0.009288 0.929984 0.367365 -0.013110 255 255 255 1.000000
0.291239 -0.210106 -0.082699 -0.957135 -0.000000 0.289641 255 255 255 1.000000
-0.236780 0.013887 -0.088561 0.000000 -1.000000 -0.000000 255 255 255 1.000000
0.123035 0.467604 0.028704 0.000000 -1.000000 -0.000000 255 255 255 1.000000
0.000080 0.429794 0.125172 0.000000 1.000000 0.000000 255 255 255 1.000000
0.160244 0.319961 0.096140 0.782210 0.366574 0.503757 255 255 255 1.000000
0.154562 -0.654086 0.152357 0.000000 1.000000 0.000000 255 255 255 1.000000
-0.017984 -0.127437 -0.295302 -0.073842 0.000000 -0.997270 255 255 255 1.000000
0.033183 0.429794 0.139068 0.000000 1.000000 0.000000 255 255 255 1.000000
0.245558 -0.644928 -0.094098 0.655089 -0.707216 -0.265901 255 255 255 1.000000
0.255087 0.039711 0.149490 -0.803172 -0.367256 -0.469082 255 255 255 1.000000
0.147546 0.232629 -0.156172 -0.600581 -0.366783 0.710474 255 255 255 1.000000
-0.096953 0.669256 0.050658 0.000000 1.000000 0.000000 255 255 255 1.000000
-0.068269 0.074770 0.270842 -0.232705 0.367347 0.900502 255 255 255 1.000000
0.002942 -0.339453 0.304160 0.004159 0.000000 -0.999991 255 255 255 1.000000
-0.130495 0.128723 0.221486 -0.468032 0.367267 0.803779 255 255 255 1.000000
0.266421 -0.164072 0.149671 -0.874410 0.000000 -0.485187 255 255 255 1.000000
0.189570 -0.654086 -0.158507 0.000000 1.000000 0.000000 255 255 255 1.000000
-0.187743 0.194558 -0.123660 0.769169 -0.365885 0.523934 255 255 255 1.000000
-0.171213 -0.654086 0.137371 0.000000 -1.000000 -0.000000 255 255 255 1.000000
0.190414 -0.402926 0.241918 -0.616631 0.000000 -0.787253 255 255 255 1.000000
-0.056034 -0.475430 -0.290668 -0.200132 0.000000 -0.979769 255 255 255 1.000000
-0.160752 0.342417 -0.046844 0.880394 -0.366071 0.301493 255 255 255 1.000000
0.117054 -0.654086 0.049581 0.000000 1.000000 0.000000 255 255 255 1.000000
0.007741 -0.449853 0.304052 -0.011842 0.000000 -0.999930 255 255 255 1.000000
0.097124 -0.286870 0.289441 -0.309749 0.000000 -0.950818 255 255 255 1.000000
-0.292359 -0.437189 0.058519 -0.983615 -0.000000 0.180282 244 220 196 1.000000
0.053596 0.669256 -0.122987 0.000000 1.000000 0.000000 255 255 255 1.000000
0.195523 -0.304884 -0.227804 -0.636300 -0.000000 0.771442 255 255 255 1.000000
-0.009537 0.665476 0.161336 -0.089777 -0.000000 0.995962 255 255 255 1.000000
-0.036133 0.843144 -0.052674 -0.566187 0.129677 -0.814013 255 255 255 1.000000
0.266636 0.094956 -0.054669 -0.903310 -0.367078 0.222003 255 255 255 1.000000
-0.066675 0.013887 -0.255219 0.000000 1.000000 0.000000 255 255 255 1.000000
0.289190 -0.394012 -0.089709 -0.949803 -0.000000 0.312849 255 255 255 1.000000
0.119171 -0.643627 -0.229904 0.313319 -0.708736 -0.632080 255 255 255 1.000000
0.132327 0.555745 -0.081524 -0.824025 -0.000000 0.566554 255 255 255 1.000000
-0.237040 -0.654086 0.043521 0.000000 1.000000 0.000000 255 255 255 1.000000
-0.167822 0.022029 -0.238526 0.538486 -0.366572 0.758721 255 255 255 1.000000
-0.011286 0.429794 0.019697 0.000000 1.000000 0.000000 255 255 255 1.000000
-0.260493 0.013887 0.121854 0.000000 1.000000 0.000000 255 255 255 1.000000
-0.261203 0.103041 0.001895 0.929998 -0.367088 0.018743 255 255 255 1.000000
-0.180024 -0.654086 -0.000573 0.000000 -1.000000 -0.000000 255 255 255 1.000000
0.275535 0.087974 0.010895 -0.930102 -0.367232 -0.007120 255 255 255 1.000000
0.041100 0.154968 -0.239132 0.132478 0.365897 -0.921178 255 255 255 1.000000
-0.083638 0.534333 -0.121410 -0.567353 0.000000 -0.823475 255 255 255 1.000000
0.139503 0.013887 0.033310 0.000000 1.000000 0.000000 255 255 255 1.000000
0.088392 0.735753 0.022837 -0.972817 -0.129556 -0.191942 255 255 255 1.000000
0.168092 -0.325760 -0.247989 0.544994 0.000000 -0.838440 244 220 196 1.000000
-0.282318 -0.047920 0.092881 0.955253 0.000000 -0.295790 255 255 255 1.000000
-0.076120 0.204404 0.217117 0.323197 -0.365265 -0.872998 255 255 255 1.000000
-0.067169 -0.189910 -0.287414 -0.237715 0.000000 -0.971335 255 255 255 1.000000
0.032455 0.506590 0.159281 0.180332 -0.000000 0.983606 255 255 255 1.000000
-0.164490 -0.654086 -0.089483 0.000000 1.000000 0.000000 255 255 255 1.000000
-0.199861 -0.626476 -0.183937 0.522612 0.708906 0.473634 255 255 255 1.000000
0.020139 -0.654086 -0.216905 0.000000 1.000000 0.000000 255 255 255 1.000000
-0.214405 -0.654086 -0.069206 0.000000 1.000000 0.000000 255 255 255 1.000000
0.258006 0.013887 -0.093704 0.000000 -1.000000 -0.000000 255 255 255 1.000000
-0.051458 0.379086 0.153321 -0.323772 0.365241 0.872795 255 255 255 1.000000
-0.209060 -0.323261 -0.206749 0.710988 -0.000000 0.703204 255 255 255 1.000000
-0.086312 0.467604 -0.000326 0.000000 -1.000000 -0.000000 255 255 255 1.000000
0.148326 0.399136 0.047541 -0.886548 -0.366624 -0.282168 255 255 255 1.000000
-0.290183 -0.072136 -0.054504 0.980712 -0.000000 0.195461 255 255 255 1.000000
-0.104756 0.586713 0.116175 0.705238 0.000000 -0.708970 255 255 255 1.000000
0.182012 0.013887 0.243271 0.000000 -1.000000 -0.000000 255 255 255 1.000000
-0.005734 0.547122 0.161309 -0.065468 -0.000000 0.997855 255 255 255 1.000000
-0.242106 -0.541471 0.176333 0.819606 0.000000 -0.572928 255 255 255 1.000000
-0.213951 -0.654086 -0.048516 0.000000 1.000000 0.000000 255 255 255 1.000000
0.279210 0.059224 0.067891 0.904270 0.367375 0.217559 255 255 255 1.000000
0.036863 -0.241476 -0.296536 -0.108021 -0.000000 0.994149 255 255 255 1.000000
0.227124 0.179793 -0.072447 0.874191 0.366707 -0.318301 255 255 255 1.000000
0.091407 0.467604 -0.099016 0.000000 -1.000000 -0.000000 255 255 255 1.000000
-0.061644 0.013887 0.209560 0.000000 1.000000 0.000000 255 255 255 1.000000
-0.246689 0.065888 -0.120037 -0.828709 0.367236 -0.422349 255 255 255 1.000000
-0.029509 0.429546 0.138509 0.226212 -0.367370 -0.902146 255 255 255 1.000000
0.079068 0.467604 -0.034082 0.000000 -1.000000 -0.000000 255 255 255 1.000000
-0.242597 -0.293224 0.175525 0.821402 0.000000 -0.570350 255 255 255 1.000000
-0.219058 -0.011569 0.205624 0.742408 0.000000 -0.669948 255 255 255 1.000000
0.038690 -0.654086 -0.148680 0.000000 1.000000 0.000000 255 255 255 1.000000
0.002064 0.083140 0.277284 -0.006258 -0.367337 -0.930067 255 255 255 1.000000
0.191017 -0.250283 0.241552 -0.618453 0.000000 -0.785822 255 255 255 1.000000
0.256217 -0.328960 0.168299 0.837963 -0.000000 0.545727 244 220 196 1.000000
-0.026231 0.315827 -0.177240 -0.157705 0.365309 -0.917430 255 255 255 1.000000
-0.069661 -0.613882 -0.276304 0.183168 0.708949 0.681059 255 255 255 1.000000
0.095246 0.013887 0.204602 0.000000 -1.000000 -0.000000 255 255 255 1.000000
0.041208 0.756935 0.059520 0.022490 -0.000000 0.999747 255 255 255 1.000000
-0.012894 -0.265839 0.304516 -0.056789 -0.000000 0.998386 246 218 197 1.000000
0.104937 0.467604 0.111082 0.000000 1.000000 0.000000 255 255 255 1.000000
0.098889 0.013887 0.228241 0.000000 -1.000000 -0.000000 255 255 255 1.000000
-0.061338 0.229039 -0.202088 0.308250 -0.366922 0.877696 255 255 255 1.000000
0.171114 0.083985 0.221799 0.568025 0.365444 0.737427 255 255 255 1.000000
-0.279444 0.025748 -0.079090 -0.892213 0.367018 -0.263162 255 255 255 1.000000
-0.137973 -0.654086 -0.023282 0.000000 1.000000 0.000000 255 255 255 1.000000
0.079021 0.429794 0.133661 0.000000 -1.000000 -0.000000 255 255 255 1.000000
-0.029665 0.394874 0.152328 0.194182 -0.367243 -0.909630 255 255 255 1.000000
0.211641 -0.492815 -0.212395 0.691757 0.000000 -0.722130 244 220 196 1.000000
0.206816 0.060705 0.199886 -0.663994 -0.367350 -0.651280 255 255 255 1.000000
-0.127215 0.013887 0.109535 0.000000 -1.000000 -0.000000 255 255 255 1.000000
-0.162078 0.013887 0.005531 0.000000 -1.000000 -0.000000 255 255 255 1.000000
-0.284936 -0.523844 0.083921 0.963996 0.000000 -0.265917 255 255 255 1.000000
-0.282776 -0.189257 -0.084863 0.955092 -0.000000 0.296309 255 255 255 1.000000
0.032987 -0.346631 0.303484 -0.095765 0.000000 -0.995404 255 255 255 1.000000
-0.252215 0.013887 -0.122697 0.000000 -1.000000 -0.000000 255 255 255 1.000000
0.072606 0.669256 0.129129 0.000000 -1.000000 -0.000000 255 255 255 1.000000
0.041117 0.594534 0.156891 -0.236872 0.000000 -0.971541 255 255 255 1.000000
-0.057536 0.261293 0.198915 0.254196 -0.367153 -0.894753 255 255 255 1.000000
-0.248417 -0.171763 -0.158911 -0.840139 0.000000 -0.542371 255 255 255 1.000000
0.044762 0.013887 0.246231 0.000000 -1.000000 -0.000000 255 255 255 1.000000
-0.052442 0.078275 0.273302 -0.183968 0.367119 0.911800 255 255 255 1.000000
0.232626 -0.654086 0.071421 0.000000 1.000000 0.000000 255 255 255 1.000000
-0.037936 0.013887 -0.111467 0.000000 1.000000 0.000000 255 255 255 1.000000
0.011041 -0.223273 0.303978 0.022846 -0.000000 0.999739 235 210 193 1.000000
-0.043255 0.320560 -0.170351 0.274869 -0.367337 0.888544 255 255 255 1.000000
-0.079917 0.467604 -0.108800 0.000000 1.000000 0.000000 255 255 255 1.000000
0.047026 0.400252 0.147793 -0.275942 -0.367331 -0.888214 255 255 255 1.000000
0.139937 -0.488590 -0.263411 -0.452429 -0.000000 0.891800 255 255 255 1.000000
-0.104890 0.467604 0.107223 0.000000 -1.000000 -0.000000 255 255 255 1.000000
0.001882 0.393981 -0.148133 0.025703 -0.367372 0.929719 255 255 255 1.000000
-0.107092 -0.556457 0.285142 -0.368226 -0.000000 0.929736 244 220 196 1.000000
0.171392 -0.654086 0.002413 0.000000 1.000000 0.000000 255 255 255 1.000000
0.055974 0.885706 0.074215 0.999747 0.000000 -0.022490 255 255 255 1.000000
-0.008430 -0.485672 0.304416 0.041994 0.000000 -0.999118 255 255 255 1.000000
0.175340 0.013887 0.000650 0.000000 -1.000000 -0.000000 255 255 255 1.000000
-0.294955 -0.006607 0.040686 0.992630 0.000000 -0.121182 255 255 255 1.000000
-0.158369 -0.231698 -0.247970 0.541869 -0.000000 0.840463 255 255 255 1.000000
0.006240 -0.654086 0.146251 0.000000 1.000000 0.000000 255 255 255 1.000000
0.117046 0.296825 -0.150693 -0.547754 -0.364779 0.752929 255 255 255 1.000000
-0.025719 0.013887 0.092128 0.000000 1.000000 0.000000 255 255 255 1.000000
0.229272 -0.178718 0.202703 -0.749945 0.000000 -0.661500 255 255 255 1.000000
-0.148557 0.457588 -0.002069 0.999168 -0.000000 0.040785 255 255 255 1.000000
-0.062252 0.467604 0.076554 0.000000 1.000000 0.000000 255 255 255 1.000000
-0.218833 -0.110208 0.205839 -0.741716 -0.000000 0.670714 244 220 196 1.000000
0.006005 -0.304999 -0.295842 -0.006050 -0.000000 0.999982 255 255 255 1.000000
0.223586 0.210861 -0.041550 0.904071 0.367030 -0.218963 255 255 255 1.000000
-0.034487 -0.572425 0.303416 0.128178 0.000000 -0.991751 255 255 255 1.000000
0.241318 0.108145 0.119318 -0.827533 -0.367260 -0.424629 255 255 255 1.000000
-0.099322 0.669256 0.118736 0.000000 1.000000 0.000000 255 255 255 1.000000
-0.001609 0.883511 0.030948 0.000000 -1.000000 -0.000000 255 255 255 1.000000
0.153366 -0.425154 0.264434 -0.497271 0.000000 -0.867595 255 255 255 1.000000
0.089730 0.013887 0.021945 0.000000 1.000000 0.000000 255 255 255 1.000000
-0.039994 -0.043904 -0.294807 0.146196 -0.000000 0.989256 255 255 255 1.000000
0.160567 0.145093 -0.190744 0.576901 0.365964 -0.730244 255 255 255 1.000000
-0.063875 0.391249 -0.133944 -0.415211 0.366267 -0.832736 255 255 255 1.000000
0.172982 0.145565 0.187597 -0.622140 -0.366471 -0.691839 255 255 255 1.000000
-0.007429 0.920824 0.098558 -0.022490 0.000000 -0.999747 255 255 255 1.000000
-0.110838 0.100933 0.244555 -0.394309 0.366737 0.842629 255 255 255 1.000000
0.303128 -0.476026 -0.041514 -0.988526 -0.000000 0.151051 255 255 255 1.000000
-0.179501 -0.258671 -0.235128 -0.608917 0.000000 -0.793234 254 254 254 1.000000
-0.248664 -0.328087 0.165543 0.842950 0.000000 -0.537992 255 255 255 1.000000
-0.222863 -0.520309 -0.192311 0.756188 -0.000000 0.654355 255 255 255 1.000000
0.278410 -0.521283 -0.122054 -0.908393 -0.000000 0.418118 255 255 255 1.000000
-0.037480 0.013887 -0.242336 0.000000 1.000000 0.000000 255 255 255 1.000000
-0.293774 -0.116902 -0.039788 -0.989294 0.000000 -0.145935 135 135 135 1.000000
0.276567 -0.403924 -0.125087 0.903441 0.000000 -0.428713 244 220 196 1.000000
0.066001 0.915269 0.084300 0.022490 -0.000000 0.999747 255 255 255 1.000000
0.103999 -0.085330 -0.280170 0.331214 0.000000 -0.943556 244 220 196 1.000000
-0.069192 0.444670 0.139166 0.477573 0.000000 -0.878592 255 255 255 1.000000
-0.232339 0.060765 -0.150377 -0.777295 0.366337 -0.511478 255 255 255 1.000000
0.286765 0.059563 0.019650 0.929499 0.366706 0.039474 255 255 255 1.000000
-0.227931 0.013887 0.192280 0.000000 -1.000000 -0.000000 255 255 255 1.000000
0.293955 -0.401853 0.081721 -0.965998 0.000000 -0.258548 255 255 255 1.000000
-0.092651 0.624052 -0.115642 -0.622485 0.000000 -0.782632 255 255 255 1.000000
0.200376 0.043762 -0.207116 -0.629785 -0.367319 0.684433 255 255 255 1.000000
0.028476 0.764445 -0.072055 -0.288325 -0.129208 0.948775 255 255 255 1.000000
-0.252602 -0.016474 -0.151270 -0.855487 0.000000 -0.517825 255 255 255 1.000000
0.102849 0.611418 -0.113956 0.632998 0.000000 -0.774153 255 255 255 1.000000
-0.180907 0.245435 -0.095020 0.800583 -0.367203 0.473528 255 255 255 1.000000
-0.001173 0.467604 -0.111017 0.000000 1.000000 0.000000 255 255 255 1.000000
0.131575 0.156876 -0.204690 0.457868 0.367347 -0.809576 255 255 255 1.000000
0.294377 -0.024279 -0.071957 0.967273 0.000000 -0.253736 244 220 196 1.000000
0.088621 0.568619 -0.123817 -0.542917 -0.000000 0.839787 255 255 255 1.000000
0.163790 0.294463 -0.100895 -0.758957 -0.366582 0.538146 255 255 255 1.000000
0.043495 0.935188 0.042177 -0.706742 -0.257651 -0.658887 255 255 255 1.000000
-0.137830 0.606111 -0.056589 0.914346 -0.000000 0.404933 255 255 255 1.000000
-0.140314 0.294771 0.130027 -0.692328 0.366452 0.621606 255 255 255 1.000000
-0.266704 0.059681 0.082923 0.891020 -0.367370 -0.266687 255 255 255 1.000000
-0.050288 0.528572 0.152149 -0.351492 -0.000000 0.936191 255 255 255 1.000000
0.304823 -0.524502 0.033819 0.995171 -0.000000 0.098159 244 220 194 1.000000
-0.092265 0.013887 -0.029610 0.000000 -1.000000 -0.000000 255 255 255 1.000000
-0.079390 -0.572496 0.292461 0.278445 0.000000 -0.960452 255 255 255 1.000000
0.269496 0.081861 -0.063008 -0.898180 -0.367303 0.241582 255 255 255 1.000000
0.077265 0.791702 0.034888 -0.917552 -0.129815 -0.375827 255 255 255 1.000000
-0.185829 -0.654086 -0.032129 0.000000 1.000000 0.000000 255 255 255 1.000000
0.116872 0.656223 -0.100137 -0.725876 -0.000000 0.687825 255 255 255 1.000000
-0.237448 -0.281483 0.183997 -0.802220 -0.000000 0.597028 244 220 196 1.000000
-0.199646 0.245214 -0.046657 0.893384 -0.367083 0.259067 255 255 255 1.000000
0.270029 -0.204964 0.143084 0.886285 -0.000000 0.463141 6 2 2 1.000000
-0.200067 -0.109928 0.223780 0.681040 0.000000 -0.732246 255 255 255 1.000000
-0.040201 -0.612696 -0.286007 0.106902 0.706080 0.700016 255 255 255 1.000000
-0.136415 -0.096200 -0.261313 -0.468036 0.000000 -0.883710 250 250 250 1.000000
0.189001 -0.654086 -0.011056 0.000000 -1.000000 -0.000000 255 255 255 1.000000
0.136568 0.270286 -0.146440 0.593208 0.366563 -0.716753 255 255 255 1.000000
-0.091456 -0.452485 0.289517 0.317809 0.000000 -0.948155 255 255 255 1.000000
0.018048 0.939679 0.056605 0.254735 0.256846 0.932277 255 255 255 1.000000
0.127023 0.013887 -0.156697 0.000000 -1.000000 -0.000000 255 255 255 1.000000
-0.155021 0.013887 -0.179747 0.000000 -1.000000 -0.000000 255 255 255 1.000000
-0.114381 0.013887 -0.244538 0.000000 1.000000 0.000000 255 255 255 1.000000
0.276952 -0.159951 -0.124453 -0.904487 -0.000000 0.426500 255 255 255 1.000000
-0.229145 0.185868 -0.002966 0.929313 -0.366587 0.044621 255 255 255 1.000000
0.090135 -0.429786 0.291483 0.286584 -0.000000 0.958055 245 219 197 1.000000
0.289139 -0.450936 0.101458 -0.946357 0.000000 -0.323122 255 255 255 1.000000
0.149605 0.407849 0.028030 0.917616 0.366523 0.153759 255 255 255 1.000000
0.062343 -0.085728 0.299604 0.193130 -0.000000 0.981173 244 220 196 1.000000
0.066709 -0.010790 -0.289268 -0.208382 -0.000000 0.978047 255 255 255 1.000000
-0.034225 0.987831 0.010870 -0.957188 0.258758 0.129751 255 255 255 1.000000
0.184322 0.013887 -0.025362 0.000000 1.000000 0.000000 255 255 255 1.000000
-0.274230 -0.475812 -0.111785 0.923144 -0.000000 0.384454 255 255 255 1.000000
0.118643 0.117514 0.238454 -0.433091 -0.366768 -0.823355 255 255 255 1.000000
0.060975 0.467604 -0.106545 0.000000 -1.000000 -0.000000 255 255 255 1.000000
0.208925 -0.607471 0.218734 0.488135 -0.708693 0.509390 255 255 255 1.000000
-0.263642 -0.623707 -0.080276 -0.674758 -0.708431 -0.206946 255 255 255 1.000000
-0.236455 0.013887 -0.122924 0.000000 -1.000000 -0.000000 255 255 255 1.000000
0.125041 0.429794 0.077173 0.000000 1.000000 0.000000 255 255 255 1.000000
-0.137166 0.431203 -0.053119 -0.926786 0.000000 -0.375591 255 255 255 1.000000
0.301749 -0.271268 0.049777 0.988455 -0.000000 0.151517 241 217 193 1.000000
0.153614 0.536506 0.047867 -0.963495 0.000000 -0.267725 255 255 255 1.000000
0.303694 -0.053350 -0.016382 -0.997655 -0.000000 0.068444 255 255 255 1.000000
-0.251301 0.061651 0.125494 0.834764 -0.366136 -0.411235 255 255 255 1.000000
0.250341 -0.332832 -0.168241 -0.819075 -0.000000 0.573687 255 255 255 1.000000
0.043873 0.669256 -0.101166 0.000000 1.000000 0.000000 255 255 255 1.000000
-0.288489 -0.143839 -0.061450 -0.975779 0.000000 -0.218759 17 17 17 1.000000
-0.033831 -0.155475 -0.294946 -0.126099 0.000000 -0.992018 255 255 255 1.000000
-0.022071 -0.654086 0.090690 0.000000 -1.000000 -0.000000 255 255 255 1.000000
-0.047218 0.166650 -0.231451 0.234184 -0.367236 0.900164 255 255 255 1.000000
0.051220 0.731805 0.078779 -0.541538 -0.129440 -0.830652 255 255 255 1.000000
0.157613 -0.462743 -0.253729 -0.511274 -0.000000 0.859418 255 255 255 1.000000
-0.042211 0.063034 0.281890 0.149973 -0.366424 -0.918282 255 255 255 1.000000
-0.017810 -0.096214 -0.295306 0.073264 -0.000000 0.997313 255 255 255 1.000000
0.090735 -0.632243 -0.254469 0.227190 -0.707661 -0.669030 255 255 255 1.000000
-0.038005 0.915408 -0.033522 0.701120 -0.257444 0.664945 255 255 255 1.000000
0.137037 -0.163188 0.274358 0.441229 -0.000000 0.897395 242 220 195 1.000000
-0.014294 0.669256 0.029204 0.000000 -1.000000 -0.000000 255 255 255 1.000000
-0.047341 0.895524 0.099456 -0.022490 0.000000 -0.999747 255 255 255 1.000000
0.021670 -0.273716 0.303738 0.058253 -0.000000 0.998302 3 4 6 1.000000
-0.286734 -0.561028 -0.068641 -0.970083 0.000000 -0.242773 244 244 244 1.000000
-0.205381 -0.559515 0.218700 -0.698782 -0.000000 0.715334 244 220 196 1.000000
0.145144 0.160298 0.202909 -0.546946 -0.366301 -0.752777 255 255 255 1.000000
0.196873 0.290217 0.005709 -0.929614 -0.367363 0.029371 255 255 255 1.000000
0.243739 -0.011130 -0.179104 -0.794221 -0.000000 0.607628 255 255 255 1.000000
-0.037156 0.013887 0.281708 0.000000 1.000000 0.000000 255 255 255 1.000000
-0.020035 -0.291482 -0.295256 -0.080642 0.000000 -0.996743 254 254 254 1.000000
0.089725 -0.347098 0.291603 -0.285217 0.000000 -0.958463 255 255 255 1.000000
0.061721 0.013887 -0.216958 0.000000 -1.000000 -0.000000 255 255 255 1.000000
0.063429 0.090301 0.268377 0.220969 0.367062 0.903570 255 255 255 1.000000
-0.246097 0.022997 0.162955 -0.784714 0.367309 0.499308 255 255 255 1.000000
0.170419 -0.654086 -0.027762 0.000000 1.000000 0.000000 255 255 255 1.000000
0.057616 0.908932 0.033958 0.855902 0.257787 0.448305 255 255 255 1.000000
0.235703 0.165721 -0.062571 0.886549 0.367293 -0.281294 255 255 255 1.000000
-0.013257 0.623825 0.161364 -0.113399 -0.000000 0.993550 255 255 255 1.000000
0.278345 -0.040314 -0.122162 0.908219 0.000000 -0.418496 244 220 196 1.000000
-0.076723 0.647461 -0.125470 -0.524062 0.000000 -0.851680 255 255 255 1.000000
0.197181 0.110022 0.182254 0.671684 0.367376 0.643331 255 255 255 1.000000
0.134572 0.077745 0.246842 0.452671 0.367149 0.812583 255 255 255 1.000000
0.151577 0.487340 -0.042350 0.949237 0.000000 -0.314562 255 255 255 1.000000
0.024692 0.883511 0.067957 0.000000 1.000000 0.000000 255 255 255 1.000000
-0.000773 0.899998 0.098408 -0.022490 0.000000 -0.999747 255 255 255 1.000000
0.042211 0.193261 0.232929 0.159519 0.365380 0.917088 255 255 255 1.000000
-0.144719 -0.298818 0.264533 -0.496458 -0.000000 0.868061 244 220 196 1.000000
-0.189608 0.013887 0.014007 0.000000 -1.000000 -0.000000 255 255 255 1.000000
0.141058 0.393230 0.071949 -0.829662 -0.367214 -0.420494 255 255 255 1.000000
0.015940 0.013887 -0.281731 0.000000 1.000000 0.000000 255 255 255 1.000000
0.007665 -0.541811 -0.295879 -0.011581 -0.000000 0.999933 255 255 255 1.000000
0.203323 -0.254842 -0.220347 -0.663558 -0.000000 0.748125 255 255 255 1.000000
0.037499 0.818792 0.073572 -0.446643 -0.129462 -0.885296 255 255 255 1.000000
-0.083052 0.580409 0.134776 -0.563157 -0.000000 0.826350 255 255 255 1.000000
-0.096767 -0.160414 0.288221 0.334889 0.000000 -0.942258 255 255 255 1.000000
0.148397 0.013887 -0.240799 0.000000 1.000000 0.000000 255 255 255 1.000000
0.180229 -0.189237 -0.241341 -0.582721 -0.000000 0.812672 255 255 255 1.000000
-0.281983 -0.374287 0.094027 -0.954069 -0.000000 0.299588 244 220 196 1.000000
-0.007497 0.333786 -0.171300 0.095345 -0.366355 0.925577 255 255 255 1.000000
-0.089110 0.562962 -0.118197 -0.600332 0.000000 -0.799751 255 255 255 1.000000
0.280210 -0.069741 0.124496 0.916679 -0.000000 0.399625 244 220 196 1.000000
0.285273 0.040134 -0.066780 -0.900533 -0.367220 0.232788 255 255 255 1.000000
-0.258109 -0.026277 -0.141216 -0.874638 0.000000 -0.484776 255 255 255 1.000000
0.175565 0.125250 0.196309 -0.614215 -0.366174 -0.699040 255 255 255 1.000000
0.070830 -0.487857 0.297124 0.221805 -0.000000 0.975091 163 143 123 1.000000
-0.150268 0.650143 0.023445 0.993993 0.000000 -0.109443 255 255 255 1.000000
-0.083460 -0.402342 0.291468 0.291801 0.000000 -0.956479 255 255 255 1.000000
0.218654 -0.443576 -0.205690 0.714746 0.000000 -0.699384 244 220 196 1.000000
-0.053095 0.429794 0.105102 0.000000 1.000000 0.000000 255 255 255 1.000000
-0.274440 -0.159504 0.119842 0.923569 0.000000 -0.383432 255 255 255 1.000000
-0.239195 0.013887 -0.041448 0.000000 -1.000000 -0.000000 255 255 255 1.000000
-0.041383 0.543311 -0.141550 0.295764 -0.000000 0.955261 255 255 255 1.000000
0.134485 0.446489 0.084319 0.851735 -0.000000 0.523972 255 255 255 1.000000
-0.147773 0.377172 -0.043113 -0.880346 0.366066 -0.301641 255 255 255 1.000000
-0.228858 0.013887 -0.141232 0.000000 1.000000 0.000000 255 255 255 1.000000
-0.081785 0.429794 0.041268 0.000000 1.000000 0.000000 255 255 255 1.000000
0.007342 0.669256 0.028274 0.000000 1.000000 0.000000 255 255 255 1.000000
0.303420 -0.408922 -0.028570 0.994069 0.000000 -0.108750 244 220 196 1.000000
-0.096296 0.013887 -0.138256 0.000000 -1.000000 -0.000000 255 255 255 1.000000
0.081431 0.013887 0.145761 0.000000 -1.000000 -0.000000 255 255 255 1.000000
-0.296026 -0.347594 -0.006904 -0.999321 0.000000 -0.036847 247 247 247 1.000000
-0.296384 -0.271390 -0.022861 0.995982 -0.000000 0.089555 255 255 255 1.000000
0.180838 0.330156 -0.017615 -0.922363 -0.365354 0.125547 255 255 255 1.000000
0.139123 -0.654086 0.126702 0.000000 -1.000000 -0.000000 255 255 255 1.000000
0.148221 -0.615114 -0.246122 -0.354296 0.708919 0.609843 255 255 255 1.000000
-0.040427 0.669256 0.041643 0.000000 -1.000000 -0.000000 255 255 255 1.000000
-0.149799 -0.654086 -0.005522 0.000000 1.000000 0.000000 255 255 255 1.000000
-0.045076 0.467604 0.117624 0.000000 -1.000000 -0.000000 255 255 255 1.000000
0.300857 -0.462246 -0.049782 0.983865 0.000000 -0.178911 244 220 196 1.000000
0.278411 -0.613872 -0.091105 -0.667829 0.708688 0.227522 255 255 255 1.000000
-0.071938 -0.070881 -0.286021 0.253755 -0.000000 0.967268 255 255 255 1.000000
-0.191974 0.149234 -0.148574 -0.720575 0.366411 -0.588655 255 255 255 1.000000
0.064960 0.467604 -0.073503 0.000000 1.000000 0.000000 255 255 255 1.000000
-0.087093 0.669256 -0.002636 0.000000 1.000000 0.000000 255 255 255 1.000000
