ply
format ascii 1.0
element vertex 1268
property float x
property float y
property float z
property uchar red
property uchar green
property uchar blue
end_header
0.321756 -0.254015 0.549514 0 127 127
0.312675 -0.296917 -0.105628 0 0 255
0.357457 -0.330323 0.098981 153 76 0
-0.281089 0.520172 -0.525740 255 0 0
0.313848 0.188536 -0.494275 76 0 153
0.242590 0.565169 -0.543979 255 0 0
0.023335 0.520172 -0.543153 255 0 0
-0.383185 -0.013192 -0.314639 153 0 76
0.196391 0.166719 0.444690 153 0 76
0.225867 -0.330323 -0.435854 153 76 0
0.288733 -0.330323 0.304827 153 76 0
0.199824 0.166719 -0.262441 153 0 76
-0.383185 -0.234424 -0.044439 153 0 76
-0.383185 0.175167 0.317348 153 0 76
0.367902 -0.709108 -0.538764 127 0 127
0.109646 -0.286142 0.267669 127 127 0
-0.381524 -0.385550 0.049104 0 255 0
0.353498 -0.330323 -0.269403 153 76 0
-0.361094 0.267336 -0.229496 153 0 76
0.249863 0.144628 -0.007827 153 0 76
0.389992 0.117239 0.108437 76 153 0
-0.113282 -0.502191 -0.543979 127 127 0
-0.361094 0.035226 0.374928 153 0 76
0.229321 0.164231 -0.510843 76 0 153
0.389992 0.207332 -0.509306 76 153 0
0.367902 0.315614 -0.427056 76 153 0
-0.361094 -0.283915 0.442267 153 0 76
-0.361094 0.084088 0.033780 153 0 76
0.307667 0.621341 -0.510843 255 0 0
0.003166 -0.677865 -0.543979 127 127 0
-0.383185 -0.316271 -0.065487 153 0 76
-0.169084 -0.264051 -0.465093 127 127 0
-0.361094 0.431206 -0.512163 153 0 76
0.389992 0.417859 -0.089357 76 153 0
-0.349549 0.205656 0.531261 0 127 127
0.389992 -0.778733 -0.313223 127 0 127
-0.383185 0.300007 -0.169876 153 0 76
-0.026620 0.183144 0.483242 153 0 76
-0.361094 -0.216872 0.421491 153 0 76
-0.305867 0.206251 0.036424 153 76 0
0.389992 -0.032668 -0.189842 76 153 0
0.367902 0.146859 0.165887 76 153 0
-0.083316 -0.286142 -0.107619 127 127 0
-0.361094 -0.280306 -0.353087 153 0 76
-0.361094 0.383840 0.222585 153 0 76
-0.283776 -0.296620 -0.382515 255 0 0
0.129518 0.481947 0.522148 0 127 127
-0.361094 0.370725 -0.195693 153 0 76
0.389992 -0.683862 0.037121 127 0 127
-0.208475 -0.286142 -0.122854 127 127 0
-0.361094 -0.031307 0.330520 153 0 76
-0.352780 0.619580 0.189122 153 0 76
0.184852 0.537223 0.549514 0 127 127
0.173042 0.652717 -0.499078 76 0 153
-0.361094 0.280012 -0.433933 153 0 76
0.284885 -0.286459 -0.466661 0 255 0
-0.305867 0.163808 0.104396 153 76 0
-0.383185 -0.348430 0.119957 153 0 76
-0.342193 -0.339008 0.538964 0 127 127
-0.259563 0.619580 0.269708 153 0 76
0.167118 -0.330323 -0.219356 153 76 0
-0.217170 0.144628 -0.038841 153 0 76
-0.361094 -0.298466 0.208737 153 0 76
0.141691 0.402944 0.522148 0 127 127
0.367902 0.230090 0.002002 76 153 0
0.380092 -0.069951 0.516378 0 127 127
-0.292829 -0.297187 0.326129 255 0 0
-0.088028 -0.249531 -0.510843 76 0 153
-0.030766 -0.264051 -0.246609 127 127 0
0.282367 0.404238 0.546589 0 127 127
0.322675 -0.330323 0.458100 153 76 0
0.367902 -0.515090 -0.068054 127 0 127
0.087431 0.182645 0.483242 153 0 76
0.209938 -0.330323 0.301700 153 76 0
-0.081213 0.166719 -0.084166 153 0 76
-0.347894 0.619580 0.420495 153 0 76
0.367902 0.376653 -0.433665 76 153 0
-0.383185 0.532405 0.430667 153 0 76
0.399649 -0.161788 0.483242 0 127 127
-0.031479 -0.038116 -0.494275 76 0 153
0.135090 -0.264051 0.199410 127 127 0
0.389992 0.060022 -0.439381 76 153 0
0.202566 0.218901 0.522148 0 127 127
0.102455 -0.727801 0.251289 0 127 127
-0.191142 0.144628 0.448242 153 0 76
0.147104 0.166479 -0.466661 153 0 76
-0.147978 0.144628 0.447742 153 0 76
-0.361094 0.116569 0.272270 153 0 76
-0.383185 -0.393670 -0.407968 0 255 0
0.159976 0.166719 -0.065592 153 0 76
-0.361094 -0.656346 0.020179 0 255 0
-0.383185 -0.159333 -0.014064 153 0 76
0.170094 -0.319278 0.506160 0 127 127
0.279999 -0.235682 0.544682 0 127 127
0.188610 0.645884 -0.543979 255 0 0
0.333957 0.229900 0.545979 0 127 127
0.017729 -0.286142 -0.416962 127 127 0
-0.070324 -0.330323 0.092605 153 76 0
0.389992 0.495845 -0.240761 76 153 0
-0.229153 -0.243593 -0.466661 0 255 0
-0.361094 -0.568802 0.022878 0 255 0
0.389992 0.194171 -0.451957 76 153 0
-0.361094 0.018901 -0.325164 153 0 76
0.052020 -0.021923 0.522148 0 127 127
0.277705 0.597489 0.143103 76 0 153
0.170825 -0.286142 -0.108431 127 127 0
0.184472 -0.264051 0.161908 127 127 0
-0.383185 0.558577 -0.239253 153 0 76
-0.383185 0.505061 0.277534 153 0 76
-0.383185 -0.003907 -0.542032 153 0 76
-0.192260 0.144628 -0.118514 153 0 76
-0.283776 -0.261899 0.127630 255 0 0
0.367902 0.463937 0.318983 76 153 0
0.389992 -0.622427 -0.265106 127 0 127
-0.361094 0.552235 -0.156628 153 0 76
0.147849 -0.286142 -0.177595 127 127 0
-0.383185 0.618715 0.031076 153 0 76
0.389992 -0.360104 -0.264114 76 153 0
-0.383185 -0.346400 0.371014 153 0 76
-0.276044 0.619580 -0.057810 153 0 76
-0.025773 -0.286142 0.126134 127 127 0
-0.265710 -0.264051 -0.235463 127 127 0
-0.195107 0.314589 0.530432 0 127 127
0.107972 0.144628 -0.292831 153 0 76
-0.185709 -0.687822 -0.543979 127 127 0
-0.045011 0.628649 0.483242 0 127 127
-0.299929 0.597489 0.480391 153 0 76
-0.149596 0.231342 0.530432 0 127 127
-0.233125 0.221946 0.480131 153 0 76
0.128887 0.166719 -0.130837 153 0 76
0.291776 0.619580 0.368704 76 0 153
-0.361094 0.252759 -0.142728 153 0 76
-0.383185 -0.721105 -0.311902 0 255 0
0.367902 -0.622610 -0.491463 127 0 127
0.381537 0.080691 0.516378 0 127 127
-0.383185 0.511257 0.170025 153 0 76
0.367902 -0.295342 0.139379 76 153 0
0.283102 -0.184456 -0.510843 76 0 153
0.338572 -0.330323 0.234158 153 76 0
-0.024541 0.489144 0.522148 0 127 127
0.389992 0.026951 0.011958 76 153 0
-0.383185 0.628599 -0.090798 153 0 76
-0.210357 -0.330323 -0.053324 153 76 0
0.354763 0.522833 0.516378 0 127 127
-0.174970 -0.312285 -0.510843 76 0 153
0.389992 0.247177 0.072515 76 153 0
-0.251619 0.126583 0.522148 0 127 127
-0.278800 -0.330323 -0.235958 153 76 0
-0.056938 -0.330323 -0.483947 153 76 0
-0.351154 -0.532716 0.251289 0 127 127
-0.361094 0.448407 0.234747 153 0 76
0.389992 -0.259456 0.420170 76 153 0
0.266116 0.144628 -0.391137 153 0 76
-0.305867 -0.230759 -0.410855 255 0 0
-0.147256 0.166719 0.270839 153 0 76
0.173163 0.133583 -0.470117 76 0 153
0.101836 0.364016 0.530432 0 127 127
-0.095260 -0.345915 -0.494275 76 0 153
0.389992 0.428670 0.424572 76 153 0
0.176057 0.193944 -0.466661 76 0 153
0.122499 -0.330323 -0.108381 153 76 0
-0.200313 -0.068869 0.530432 0 127 127
0.065429 -0.517300 0.251289 0 127 127
0.146101 -0.541491 -0.543979 127 127 0
-0.394230 0.041564 0.514624 0 127 127
-0.383185 0.538108 -0.033087 153 0 76
0.314197 0.205263 0.597516 76 153 0
0.330044 -0.520886 -0.543979 127 127 0
-0.055871 0.636202 -0.494275 76 0 153
-0.283776 0.209708 -0.209620 153 76 0
-0.361094 -0.440880 -0.191305 0 255 0
-0.361094 0.607314 -0.019682 153 0 76
0.367902 0.287277 -0.212093 76 153 0
0.177087 0.166719 -0.178916 153 0 76
0.389992 0.507090 -0.317149 76 153 0
-0.084238 -0.400820 -0.543979 127 127 0
-0.203118 -0.383499 -0.494275 76 0 153
0.367902 -0.749029 -0.447116 127 0 127
0.054986 0.166719 0.226975 153 0 76
0.067290 0.333543 0.530432 0 127 127
0.036437 -0.123876 0.522148 0 127 127
-0.383185 -0.505322 -0.044195 0 255 0
-0.066878 -0.341781 0.483242 0 127 127
-0.133146 0.589687 -0.494275 76 0 153
0.050069 0.166719 0.025161 153 0 76
-0.383185 -0.404386 -0.328727 0 255 0
-0.350213 0.202296 -0.494275 76 0 153
0.182739 0.377666 0.522148 0 127 127
-0.316177 0.619580 -0.018414 153 0 76
-0.002806 0.206924 0.522148 0 127 127
-0.341715 0.619580 -0.054599 153 0 76
0.367902 -0.304841 -0.353556 76 153 0
0.047826 0.144628 -0.043580 153 0 76
0.367902 -0.436373 -0.422912 127 0 127
-0.092507 0.621202 -0.543979 255 0 0
-0.314935 0.001301 0.549514 0 127 127
0.371797 -0.385550 -0.170285 76 153 0
0.389992 -0.327143 -0.501829 76 153 0
-0.144391 0.509871 -0.494275 76 0 153
-0.075551 0.144628 0.215236 153 0 76
0.136283 0.520172 -0.532934 255 0 0
-0.044164 0.144628 0.329153 153 0 76
0.087660 -0.299072 0.549514 0 127 127
0.367902 -0.397049 -0.301718 127 0 127
0.367902 -0.015546 -0.475017 76 153 0
-0.041590 -0.255552 -0.466661 0 255 0
0.140288 -0.286142 0.094436 127 127 0
0.099711 -0.297187 0.470425 204 51 127
-0.074294 -0.330323 -0.399397 153 76 0
-0.001181 0.144628 -0.194838 153 0 76
-0.251792 -0.385550 0.486020 0 127 127
-0.141826 0.430220 -0.510843 76 0 153
0.120654 -0.330323 -0.361640 153 76 0
0.312675 -0.260701 -0.278403 0 0 255
-0.056553 -0.286142 -0.308679 127 127 0
-0.361094 -0.671642 -0.262689 0 255 0
0.134680 -0.132599 -0.510843 76 0 153
-0.361094 -0.200684 0.150188 153 0 76
0.367902 0.556729 -0.187234 76 153 0
-0.283776 0.209523 0.208925 153 76 0
0.389992 -0.305784 0.102881 76 153 0
-0.349051 0.339940 -0.494275 76 0 153
-0.383185 0.165613 -0.226129 153 0 76
-0.305867 -0.246459 -0.319709 255 0 0
-0.005188 -0.330323 -0.339063 153 76 0
-0.261710 0.597489 -0.206757 153 0 76
-0.361094 -0.638519 -0.152139 0 255 0
-0.383185 0.559300 -0.073111 153 0 76
-0.383185 -0.335731 -0.497704 153 0 76
0.038180 -0.385550 0.487851 0 127 127
0.003189 -0.586214 -0.543979 127 127 0
0.125140 -0.240542 0.522148 0 127 127
0.218633 -0.330323 -0.331369 153 76 0
0.269446 0.250515 -0.510843 76 0 153
0.233373 0.144628 -0.068202 153 0 76
-0.217629 -0.264051 -0.348029 127 127 0
0.367902 0.094064 0.258580 76 153 0
0.285831 -0.759860 0.251289 0 127 127
0.367902 -0.418103 -0.129190 127 0 127
-0.331676 0.597489 0.250165 153 0 76
-0.112478 0.150454 0.522148 0 127 127
-0.010270 0.166719 0.418088 153 0 76
0.282022 0.166719 0.098199 153 0 76
-0.271069 0.144628 0.209976 153 0 76
0.098222 0.166719 -0.022244 153 0 76
-0.361094 0.133818 -0.490452 153 0 76
-0.383185 -0.391045 -0.216192 0 255 0
0.367902 -0.724979 -0.210348 127 0 127
0.166652 -0.211696 -0.466661 0 255 0
0.389992 0.557021 0.063835 76 153 0
-0.383185 -0.324064 -0.130661 153 0 76
0.367902 -0.227747 -0.334294 76 153 0
0.389992 0.426215 0.475456 76 153 0
0.115175 0.194520 -0.488752 76 0 153
-0.079308 0.166719 -0.442160 153 0 76
0.020840 -0.330323 0.196329 153 76 0
0.113020 -0.330323 0.047771 153 76 0
-0.361094 0.556208 0.395348 153 0 76
0.239170 0.586444 0.512644 0 127 127
-0.256754 0.166719 0.127706 153 0 76
-0.152826 0.219439 0.461151 153 0 76
-0.361094 -0.142300 0.104716 153 0 76
-0.361094 -0.585771 0.228016 0 255 0
-0.361094 0.100266 -0.452804 153 0 76
-0.361094 -0.150447 0.369211 153 0 76
-0.342769 0.619580 0.066143 153 0 76
-0.267212 -0.264051 -0.133990 127 127 0
0.367902 -0.544743 0.212686 127 0 127
-0.283776 0.156045 -0.241284 153 76 0
0.237702 0.544725 -0.510843 76 0 153
-0.282198 0.291183 -0.494275 76 0 153
-0.361094 -0.352784 0.270376 153 0 76
-0.361094 0.269100 -0.059818 153 0 76
0.070758 0.144628 0.170831 153 0 76
0.094264 0.166719 -0.208027 153 0 76
0.389992 0.297377 -0.009034 76 153 0
-0.329322 0.597489 0.119543 153 0 76
0.275882 -0.361977 0.516378 0 127 127
-0.361094 -0.314090 0.040085 153 0 76
0.310482 -0.208824 -0.367583 0 0 255
0.331199 0.099898 -0.510843 76 0 153
0.314671 -0.325627 -0.510843 76 0 153
0.367902 -0.323555 -0.095975 76 153 0
-0.262908 0.144628 0.016272 153 0 76
-0.196373 0.627886 0.483242 0 127 127
-0.383185 0.362231 -0.342767 153 0 76
0.367902 -0.733490 0.000072 127 0 127
0.094649 -0.338918 0.483242 0 127 127
0.389992 -0.461882 0.176636 127 0 127
0.367902 0.342943 -0.295150 76 153 0
-0.305393 0.652716 0.483525 0 127 127
-0.383185 -0.287019 -0.315239 153 0 76
-0.080281 -0.286142 -0.360802 127 127 0
0.139898 -0.286142 -0.423798 127 127 0
-0.126813 0.378434 0.522148 0 127 127
-0.361094 -0.681958 -0.425645 0 255 0
0.229383 -0.330323 0.354532 153 76 0
0.389992 -0.503674 -0.181892 127 0 127
0.183014 0.166719 -0.414199 153 0 76
-0.305867 -0.292737 -0.289861 255 0 0
-0.116339 -0.673514 0.251289 0 127 127
0.389992 0.487775 0.401568 76 153 0
0.188134 0.166719 -0.313111 153 0 76
0.276224 0.181419 0.483242 153 0 76
0.187168 -0.292801 -0.510843 76 0 153
-0.383185 -0.560002 -0.079840 0 255 0
0.367902 -0.637135 -0.176253 127 0 127
-0.361094 -0.140889 -0.076151 153 0 76
-0.212170 -0.286142 0.050890 127 127 0
0.058014 0.446762 -0.510843 76 0 153
-0.355494 -0.402992 0.251289 0 127 127
0.192176 -0.597034 0.251289 0 127 127
-0.383185 0.305491 0.317020 153 0 76
-0.158174 -0.286142 0.232209 127 127 0
0.164787 -0.224562 -0.510843 76 0 153
-0.302439 0.279155 0.516378 0 127 127
0.056944 0.166719 0.082344 153 0 76
-0.287418 0.144978 -0.510843 76 0 153
0.282896 0.166719 0.043070 153 0 76
-0.383185 -0.747840 -0.392064 0 255 0
-0.361094 0.494815 0.367462 153 0 76
-0.317407 0.619580 0.311052 153 0 76
0.290584 0.163670 -0.017926 76 0 153
0.367902 0.176133 -0.408729 76 153 0
0.230637 0.144628 0.299156 153 0 76
0.245257 0.619580 -0.389369 76 0 153
-0.191421 0.359588 0.522148 0 127 127
0.252422 -0.688971 0.251289 0 127 127
-0.383185 0.455013 -0.312118 153 0 76
0.003632 -0.264335 0.544682 0 127 127
-0.343824 0.474351 0.483242 0 127 127
-0.383185 0.620629 -0.468677 153 0 76
0.367902 -0.041479 0.005285 76 153 0
0.367902 0.100074 -0.208208 76 153 0
0.389992 -0.766803 -0.177784 127 0 127
-0.168316 -0.286142 0.371790 127 127 0
0.389992 0.085585 0.378696 76 153 0
0.110964 0.388706 -0.494275 76 0 153
0.378202 -0.255347 0.516378 0 127 127
0.049265 0.264980 0.530432 0 127 127
-0.271970 -0.224854 0.516378 0 127 127
0.108861 -0.611910 0.251289 0 127 127
-0.029301 -0.286142 0.307169 127 127 0
0.389992 -0.322825 -0.286323 76 153 0
-0.262628 -0.286142 0.268721 127 127 0
-0.383185 -0.350357 0.303308 153 0 76
-0.243218 0.597489 -0.327840 153 0 76
0.389992 -0.081419 -0.198547 76 153 0
-0.361094 0.208739 -0.419685 153 0 76
-0.080262 0.393213 0.530432 0 127 127
0.389992 0.104305 -0.514713 76 153 0
-0.087838 -0.286142 -0.423940 127 127 0
0.290584 0.171153 0.217447 76 0 153
0.187139 -0.031903 -0.494275 76 0 153
0.114767 -0.690055 -0.543979 127 127 0
0.312675 0.179651 -0.098626 76 0 153
0.123191 0.162064 -0.510843 76 0 153
-0.383185 -0.575614 -0.230360 0 255 0
0.166665 -0.330323 -0.128311 153 76 0
0.389992 -0.014915 0.362549 76 153 0
0.389992 0.374959 0.459754 76 153 0
-0.301637 -0.243653 -0.466661 0 255 0
0.367902 -0.686910 -0.169856 127 0 127
0.389992 -0.039700 0.221987 76 153 0
0.049288 0.627015 0.483242 0 127 127
0.120429 -0.202041 -0.510843 76 0 153
0.389992 -0.177334 0.102729 76 153 0
0.099735 -0.330323 -0.028411 153 76 0
0.245064 -0.264051 0.390519 127 127 0
0.292834 0.133583 0.416559 76 0 153
0.389992 -0.277852 -0.297781 76 153 0
-0.383185 0.004769 -0.374394 153 0 76
0.352124 0.619580 0.339874 76 0 153
0.043515 0.156045 -0.510843 76 0 153
0.367902 -0.430779 -0.282730 127 0 127
0.290584 0.148264 -0.350491 76 0 153
0.362570 -0.158843 -0.510843 76 0 153
0.389992 -0.106624 0.071026 76 153 0
0.389992 -0.744044 -0.143580 127 0 127
-0.361094 -0.079875 0.472536 153 0 76
-0.305867 0.162963 0.063024 153 76 0
0.389992 0.229263 -0.112196 76 153 0
-0.361094 -0.353350 -0.264020 153 0 76
0.389992 -0.583681 0.032340 127 0 127
-0.394230 0.242848 0.509274 0 127 127
-0.133026 0.091959 -0.494275 76 0 153
0.389992 0.058485 -0.504428 76 153 0
-0.361094 0.498232 0.439491 153 0 76
-0.361094 -0.188161 -0.079165 153 0 76
0.047939 0.166719 -0.085726 153 0 76
-0.160504 -0.286142 -0.191913 127 127 0
0.389992 -0.203525 -0.372545 76 153 0
0.006096 0.144628 -0.036499 153 0 76
0.367902 -0.118065 -0.102333 76 153 0
0.165354 0.241167 -0.510843 76 0 153
-0.078869 0.278478 -0.510843 76 0 153
-0.196314 0.166719 -0.423913 153 0 76
0.367902 0.213431 0.126064 76 153 0
-0.383185 -0.085513 -0.463353 153 0 76
-0.361094 0.219351 -0.286299 153 0 76
-0.047806 0.606492 -0.543979 255 0 0
-0.013997 0.603865 0.483242 0 127 127
0.367902 0.190048 -0.232868 76 153 0
-0.120690 -0.292808 0.516378 0 127 127
-0.107304 -0.366811 0.516378 0 127 127
-0.383185 0.573223 -0.117823 153 0 76
-0.361094 0.437024 0.021136 153 0 76
-0.383185 -0.675923 -0.080156 0 255 0
-0.259959 0.138421 0.483242 153 0 76
0.389992 -0.212294 0.076523 76 153 0
-0.115372 -0.311254 -0.494275 76 0 153
0.094401 0.263781 -0.494275 76 0 153
-0.383185 0.200931 0.195051 153 0 76
-0.361094 -0.442889 -0.510410 0 255 0
0.269100 0.216895 -0.466661 76 0 153
0.389992 0.284249 0.130584 76 153 0
-0.383185 -0.502217 -0.192431 0 255 0
-0.027260 -0.236598 0.461151 204 51 127
0.108966 0.166719 0.081353 153 0 76
-0.318503 0.619580 -0.224234 153 0 76
0.033807 -0.385550 -0.525701 127 127 0
-0.360730 0.623892 0.516378 0 127 127
0.317452 0.429444 -0.494275 76 0 153
-0.305867 -0.295771 0.189696 255 0 0
-0.031435 -0.330323 -0.006501 153 76 0
-0.298726 -0.329683 -0.510843 76 0 153
-0.215754 -0.330323 -0.186996 153 76 0
0.350926 0.170572 0.523038 0 127 127
-0.282664 0.496943 0.516378 0 127 127
-0.256350 0.133583 -0.471826 76 0 153
-0.361094 -0.645608 -0.347677 0 255 0
0.053200 -0.696390 0.251289 0 127 127
-0.302539 -0.256561 0.516378 0 127 127
0.367902 -0.745713 0.086340 127 0 127
-0.368578 -0.021841 0.483242 0 127 127
0.367902 0.531712 0.123057 76 153 0
-0.182083 0.597758 0.516378 0 127 127
-0.260008 0.615196 0.516378 0 127 127
0.312675 0.215679 -0.301656 76 0 153
-0.256195 -0.297187 0.472911 204 51 127
-0.006297 0.166719 -0.426528 153 0 76
-0.325465 0.638695 -0.510843 76 0 153
-0.015627 0.173540 -0.510843 76 0 153
-0.361094 -0.106018 -0.422513 153 0 76
0.367902 -0.091280 0.462105 76 153 0
-0.176766 0.166719 0.378636 153 0 76
0.362924 -0.143719 0.483242 0 127 127
0.044371 -0.623789 0.251289 0 127 127
0.360223 -0.330323 0.465169 153 76 0
-0.383185 -0.104172 -0.253498 153 0 76
-0.233100 -0.101844 -0.510843 76 0 153
0.290584 -0.238525 0.053655 0 0 255
-0.127915 -0.330323 0.117275 153 76 0
0.026288 -0.286142 -0.363951 127 127 0
0.047522 0.599935 0.543298 0 127 127
0.389992 0.578989 -0.383927 76 153 0
-0.383185 0.189116 0.279825 153 0 76
-0.278866 0.549799 0.516378 0 127 127
-0.062410 -0.677744 -0.543979 127 127 0
-0.361094 0.058115 -0.504652 153 0 76
-0.305867 0.142651 -0.422939 153 76 0
0.235357 0.610501 -0.105793 76 0 153
-0.383185 -0.097037 -0.193079 153 0 76
0.001692 -0.286142 0.370619 127 127 0
0.367902 -0.062388 -0.048248 76 153 0
0.367902 -0.760374 0.219321 127 0 127
0.367902 -0.694376 -0.237911 127 0 127
0.290584 -0.293952 0.290475 0 0 255
0.367902 -0.254175 0.459340 76 153 0
-0.068818 0.221946 0.481267 153 0 76
-0.236064 -0.286142 0.387793 127 127 0
-0.174354 -0.286142 -0.272443 127 127 0
-0.229469 0.166719 0.272599 153 0 76
-0.036988 0.060302 0.530432 0 127 127
0.052046 -0.286142 0.044274 127 127 0
0.389992 0.454136 -0.356169 76 153 0
0.230573 0.144628 0.379587 153 0 76
-0.383185 -0.081174 -0.055078 153 0 76
0.312675 0.220126 -0.001430 76 0 153
0.188994 -0.330323 -0.170109 153 76 0
-0.263003 0.597489 0.419878 153 0 76
0.389992 -0.161411 0.188039 76 153 0
0.078965 -0.286142 0.344190 127 127 0
-0.361094 -0.748372 -0.508716 0 255 0
0.201479 -0.380795 -0.494275 76 0 153
0.296222 -0.247048 -0.466661 0 0 255
-0.283776 -0.265545 -0.084803 127 127 0
-0.294650 0.215662 -0.488752 76 0 153
0.367902 -0.534670 -0.112881 127 0 127
-0.373403 0.491977 -0.543979 153 0 76
-0.361094 -0.735961 0.237378 0 255 0
-0.195465 -0.330323 0.457766 153 76 0
0.228622 0.466121 -0.510843 76 0 153
0.301742 -0.334735 0.521973 0 127 127
-0.213441 -0.303472 -0.510843 0 0 255
-0.361094 -0.729364 -0.138498 0 255 0
0.203350 -0.264051 -0.452535 127 127 0
-0.361094 -0.462724 0.087333 0 255 0
0.181143 0.180577 0.530432 0 127 127
-0.220437 -0.286142 0.187463 127 127 0
0.302829 -0.060377 0.516378 0 127 127
0.389992 0.413441 -0.499702 76 153 0
0.389992 -0.666151 -0.109276 127 0 127
0.000855 -0.286142 -0.334315 127 127 0
0.226111 0.396494 0.530432 0 127 127
-0.328847 -0.703454 0.251289 0 127 127
-0.383185 0.329409 0.123008 153 0 76
-0.361094 -0.422783 0.056705 0 255 0
0.140429 0.144628 0.332418 153 0 76
-0.287313 0.226106 0.516378 0 127 127
0.389992 -0.651342 -0.439636 127 0 127
-0.214576 0.083079 -0.510843 76 0 153
-0.383185 -0.078416 -0.503893 153 0 76
0.159227 -0.286142 -0.329808 127 127 0
-0.210418 -0.036080 -0.510843 76 0 153
-0.305867 -0.264853 -0.024131 255 0 0
0.389992 -0.605868 0.085359 127 0 127
0.035238 -0.780318 -0.543979 127 127 0
0.367902 0.032005 -0.535198 76 153 0
0.389992 -0.005882 0.155544 76 153 0
0.389992 -0.363246 0.026550 76 153 0
-0.361094 0.375708 0.410583 153 0 76
0.311221 0.597489 -0.426064 76 0 153
0.389992 -0.440285 0.236554 127 0 127
-0.298971 0.582992 0.516378 0 127 127
-0.383185 0.167917 0.434243 153 0 76
0.122981 -0.286142 0.353301 127 127 0
0.367902 -0.211236 0.370012 76 153 0
-0.361094 0.493387 0.026067 153 0 76
-0.361094 0.251297 0.321367 153 0 76
-0.228549 0.603573 -0.087774 153 0 76
-0.059365 -0.322741 0.544682 0 127 127
0.389992 -0.141189 -0.158413 76 153 0
0.158991 -0.286142 0.373915 127 127 0
-0.361094 -0.327260 -0.219804 153 0 76
0.220533 -0.330323 -0.473243 153 76 0
0.367902 -0.097732 -0.001588 76 153 0
-0.284871 -0.175311 0.516378 0 127 127
0.230677 0.144628 0.038066 153 0 76
0.389992 -0.309337 -0.043000 76 153 0
-0.361079 -0.104807 0.516378 0 127 127
0.341365 0.262216 0.483242 0 127 127
0.180571 -0.286142 0.303082 127 127 0
-0.361094 -0.135020 0.259647 153 0 76
0.122104 -0.264051 0.428637 127 127 0
0.312675 -0.221282 0.440825 0 0 255
-0.383185 -0.215738 0.123586 153 0 76
0.273901 0.619580 -0.323431 76 0 153
0.150552 -0.342126 0.483242 0 127 127
-0.361094 0.583803 -0.391470 153 0 76
-0.238031 0.597489 -0.019846 153 0 76
0.367902 -0.428164 0.015423 127 0 127
0.389992 0.492721 0.066032 76 153 0
-0.239614 0.619580 0.125805 153 0 76
-0.383185 0.552480 0.056414 153 0 76
0.312675 -0.254234 0.278034 0 0 255
0.367902 0.502965 0.325633 76 153 0
0.206533 -0.286142 0.041176 127 127 0
-0.109945 0.221946 0.461600 153 0 76
0.157036 -0.626601 -0.543979 127 127 0
-0.345596 0.597489 0.294179 153 0 76
0.254680 0.166719 -0.432877 153 0 76
-0.361094 -0.424519 -0.392640 0 255 0
-0.314661 -0.330323 0.256700 153 76 0
0.245462 -0.105820 0.530432 0 127 127
-0.198815 -0.475882 -0.543979 127 127 0
-0.254045 0.619580 0.054001 153 0 76
0.186623 -0.013702 0.522148 0 127 127
-0.383185 -0.021197 0.104728 153 0 76
-0.383185 -0.759147 0.088142 0 255 0
0.383795 -0.783184 -0.090461 127 0 127
-0.140794 0.639722 0.483242 0 127 127
-0.135355 0.144628 -0.432677 153 0 76
0.098909 0.133685 -0.466661 76 0 153
0.389992 -0.066820 -0.309437 76 153 0
-0.228181 -0.330323 -0.286494 153 76 0
-0.361094 0.238645 -0.454750 153 0 76
-0.301547 0.133583 0.272907 153 76 0
-0.383185 -0.188161 -0.277724 153 0 76
0.367902 0.015403 -0.332027 76 153 0
0.120695 0.491140 -0.510843 76 0 153
0.259709 0.549642 0.516378 0 127 127
0.373929 -0.737502 0.251289 127 0 127
0.329225 -0.330323 -0.160449 153 76 0
0.367902 -0.137332 0.045054 76 153 0
-0.383185 -0.606314 -0.442006 0 255 0
0.367902 0.569865 -0.458082 76 153 0
0.095627 0.576269 -0.510843 76 0 153
-0.135770 0.166719 0.001071 153 0 76
-0.121466 0.625275 -0.510843 255 0 0
0.389992 0.364561 0.230675 76 153 0
-0.390006 0.463927 0.483242 0 127 127
-0.373331 0.536487 0.516378 0 127 127
0.367902 -0.198325 -0.014851 76 153 0
0.001346 -0.393770 0.251289 0 127 127
-0.383185 -0.543367 -0.153005 0 255 0
0.367902 0.299913 -0.377439 76 153 0
0.071999 -0.330323 -0.209038 153 76 0
0.021353 0.166719 -0.124620 153 0 76
0.139907 -0.274421 0.516378 0 127 127
-0.002957 0.166719 0.193580 153 0 76
-0.361094 -0.086486 0.146185 153 0 76
0.367902 0.353734 0.429942 76 153 0
0.041559 0.189825 0.530432 0 127 127
-0.073420 -0.269930 0.516378 0 127 127
-0.383185 -0.281266 -0.540464 153 0 76
0.367902 0.307596 0.399003 76 153 0
0.115466 0.103407 -0.510843 76 0 153
-0.311025 0.172722 0.516378 0 127 127
-0.299756 -0.037860 0.516378 0 127 127
-0.383185 -0.411925 -0.540654 0 255 0
-0.293734 -0.465054 -0.543979 127 127 0
0.218481 0.275089 -0.494275 76 0 153
-0.003260 0.356957 -0.510843 76 0 153
-0.152332 -0.239999 0.461151 204 51 127
-0.361094 0.536152 -0.260492 153 0 76
0.367902 0.418924 -0.195781 76 153 0
0.312675 0.187104 -0.375135 76 0 153
-0.149915 0.199828 -0.510843 76 0 153
0.389992 -0.359962 -0.103401 76 153 0
-0.383185 -0.514952 -0.456923 0 255 0
0.311597 -0.297187 0.437404 0 0 255
-0.383185 0.309337 -0.412851 153 0 76
0.389992 0.320463 -0.499825 76 153 0
0.297125 -0.330323 -0.080874 153 76 0
-0.383185 0.480793 -0.173240 153 0 76
0.367902 0.605158 0.283761 76 153 0
0.367902 0.445187 0.044636 76 153 0
-0.290548 0.433660 -0.494275 76 0 153
0.389992 -0.744513 0.187453 127 0 127
-0.361094 -0.336988 0.168103 153 0 76
-0.315366 0.490697 -0.494275 76 0 153
0.367902 -0.494156 0.172368 127 0 127
0.232217 0.144628 -0.138359 153 0 76
0.389992 0.392864 0.269050 76 153 0
0.241464 0.597489 -0.227612 76 0 153
0.367902 -0.167100 0.326395 76 153 0
0.290584 -0.296953 0.356892 0 0 255
0.236587 -0.181456 0.530432 0 127 127
0.389992 -0.094806 -0.352064 76 153 0
0.367902 -0.329267 -0.203194 76 153 0
-0.117537 -0.376733 -0.510843 0 0 255
-0.361094 -0.046960 -0.331117 153 0 76
-0.271902 -0.330323 -0.371820 153 76 0
-0.361094 -0.564938 -0.174716 0 255 0
0.245696 0.639754 0.516378 0 127 127
0.389992 0.241001 -0.274989 76 153 0
0.389992 0.434765 -0.123222 76 153 0
-0.224244 -0.286142 -0.033799 127 127 0
0.322632 0.641624 -0.543979 255 0 0
-0.383185 0.621524 -0.149805 153 0 76
0.120526 -0.286142 0.167603 127 127 0
-0.160148 -0.063645 -0.494275 76 0 153
-0.020047 -0.330323 0.422598 153 76 0
-0.276864 0.158204 0.516378 0 127 127
-0.244042 -0.330323 -0.425202 153 76 0
-0.263698 0.144628 0.409767 153 0 76
-0.383185 -0.579613 0.050678 0 255 0
-0.383185 0.475462 -0.048127 153 0 76
0.367902 -0.452163 0.054815 127 0 127
0.248444 0.564708 0.549514 0 127 127
0.367902 -0.597256 -0.464390 127 0 127
0.341147 -0.035832 0.544600 0 127 127
0.297040 0.571802 -0.510843 76 0 153
-0.383185 -0.779347 -0.135353 0 255 0
-0.383185 0.557365 0.467478 153 0 76
-0.239771 -0.432352 0.251289 0 127 127
0.112389 -0.264051 0.134817 127 127 0
0.128117 0.144628 -0.000867 153 0 76
0.221689 0.144628 -0.242263 153 0 76
0.367902 0.267816 0.227996 76 153 0
-0.327958 0.321528 0.491464 0 127 127
-0.208513 -0.330323 -0.327286 153 76 0
0.274559 -0.330323 0.101773 153 76 0
0.312675 -0.253892 -0.047810 0 0 255
-0.383185 0.194383 0.466612 153 0 76
0.367902 -0.488235 -0.015677 127 0 127
-0.281818 0.619580 0.029520 153 0 76
0.388953 -0.385550 -0.468562 76 153 0
-0.305867 0.164417 -0.485309 76 0 153
-0.290805 0.597489 -0.425004 153 0 76
-0.288471 -0.297187 -0.103424 255 0 0
0.291765 0.597489 0.303503 76 0 153
-0.327793 0.621673 0.483242 0 127 127
0.389992 -0.328189 0.400976 76 153 0
0.196482 -0.330323 0.151052 153 76 0
-0.383185 -0.142325 0.289733 153 0 76
0.367902 -0.349333 0.222054 76 153 0
-0.239333 0.507353 -0.494275 76 0 153
0.367902 -0.340562 -0.038122 76 153 0
0.181058 0.567880 0.516378 0 127 127
-0.198409 0.553996 -0.510843 76 0 153
0.150188 -0.264051 -0.207812 127 127 0
0.393755 -0.199183 0.483242 0 127 127
-0.361094 0.470278 0.075955 153 0 76
0.177313 -0.071727 -0.510843 76 0 153
-0.293639 -0.330323 0.014065 153 76 0
0.401038 0.622963 0.496305 0 127 127
0.339228 0.433644 0.544682 0 127 127
-0.283776 -0.237030 0.379759 255 0 0
-0.383185 0.400216 0.463170 153 0 76
-0.361094 -0.741510 -0.425835 0 255 0
0.134752 0.068265 0.522148 0 127 127
-0.096165 0.144628 0.078982 153 0 76
-0.368196 -0.783184 0.173922 0 255 0
0.389992 -0.542843 -0.242546 127 0 127
0.367902 -0.335233 0.317754 76 153 0
0.263535 -0.264051 -0.304009 127 127 0
-0.383185 -0.371260 -0.085624 153 0 76
-0.361094 0.267500 -0.511735 153 0 76
0.367902 -0.278118 -0.441765 76 153 0
0.367902 0.154124 0.018793 76 153 0
0.032731 -0.264051 -0.033003 127 127 0
-0.383185 0.361122 -0.305192 153 0 76
-0.114350 -0.264051 0.329715 127 127 0
-0.159814 -0.340923 0.536924 0 127 127
0.290584 0.218091 -0.436755 76 0 153
-0.152933 -0.330323 0.063990 153 76 0
-0.290595 -0.725813 -0.543979 127 127 0
0.277800 -0.176429 0.544682 0 127 127
0.389992 -0.085478 -0.440657 76 153 0
-0.383185 0.104695 -0.124495 153 0 76
0.047977 -0.286142 -0.228557 127 127 0
-0.235444 -0.357242 -0.510843 76 0 153
0.388809 0.652716 0.130600 76 153 0
-0.383185 0.598963 -0.311321 153 0 76
-0.383185 -0.372211 -0.005670 153 0 76
0.152939 -0.367575 -0.510843 76 0 153
-0.016465 -0.330323 0.183750 153 76 0
-0.163832 -0.264051 0.084271 127 127 0
0.136415 0.029092 -0.494275 76 0 153
-0.001868 -0.264051 -0.121226 127 127 0
0.389992 0.533897 0.204866 76 153 0
-0.207277 0.144628 0.189039 153 0 76
0.350647 0.393735 0.516378 0 127 127
-0.185422 0.144628 -0.456622 153 0 76
-0.361094 0.147513 -0.067148 153 0 76
-0.212132 0.166719 -0.278374 153 0 76
0.367902 0.215692 0.377450 76 153 0
0.367902 0.399953 -0.035976 76 153 0
0.367902 0.471464 0.167181 76 153 0
-0.383185 0.040843 0.202322 153 0 76
0.389992 0.542139 -0.404605 76 153 0
0.141500 0.368323 -0.494275 76 0 153
0.253608 0.144628 0.177913 153 0 76
-0.319826 0.357261 -0.510843 76 0 153
-0.273971 0.166719 -0.056876 153 0 76
0.389992 -0.682728 -0.020972 127 0 127
-0.356374 0.619580 0.266107 153 0 76
0.389992 0.155084 0.469481 76 153 0
0.324608 -0.725891 0.251289 0 127 127
0.376335 -0.385550 0.366195 76 153 0
0.082809 -0.330323 -0.290447 153 76 0
-0.335469 -0.203976 0.483242 0 127 127
-0.147662 -0.264051 -0.332831 127 127 0
-0.079472 0.561227 -0.510843 76 0 153
0.381390 0.652716 0.302967 76 153 0
-0.361094 -0.245362 -0.437190 153 0 76
0.367902 0.131351 -0.300248 76 153 0
0.367902 0.269384 -0.413547 76 153 0
0.242119 -0.423254 0.251289 0 127 127
0.063416 0.166719 -0.305369 153 0 76
-0.361094 0.250691 0.259756 153 0 76
0.323015 0.320888 0.549514 0 127 127
-0.105501 -0.330323 0.219328 153 76 0
0.274100 0.597489 -0.274396 76 0 153
-0.361094 -0.276839 0.161371 153 0 76
0.367902 0.192846 0.163613 76 153 0
0.368152 -0.385550 0.434199 76 153 0
-0.283776 -0.256866 0.438790 255 0 0
0.013560 -0.330323 -0.076829 153 76 0
0.389992 0.395931 -0.330848 76 153 0
-0.200178 0.166719 0.217313 153 0 76
0.389992 -0.213498 0.247553 76 153 0
-0.383185 -0.488522 -0.407609 0 255 0
0.047964 0.630129 -0.543979 255 0 0
0.308952 0.133583 0.056995 76 0 153
-0.174201 -0.330323 0.240481 153 76 0
0.389992 0.479051 -0.153013 76 153 0
-0.157516 0.458171 0.530432 0 127 127
0.203894 -0.371521 0.483242 0 127 127
-0.133333 -0.330323 -0.207957 153 76 0
0.367902 0.130472 -0.404996 76 153 0
-0.383185 0.604550 -0.541707 153 0 76
0.389992 -0.013583 -0.220979 76 153 0
-0.361094 0.427625 -0.233222 153 0 76
-0.361094 0.441098 -0.440983 153 0 76
0.126673 -0.330323 0.143699 153 76 0
-0.383185 0.459776 -0.411856 153 0 76
-0.379288 -0.783184 -0.243689 0 255 0
-0.060742 -0.286142 0.067636 127 127 0
0.389992 0.510487 -0.120663 76 153 0
0.367902 -0.682269 -0.499118 127 0 127
0.367902 -0.285584 0.021524 76 153 0
-0.383185 0.035395 0.310463 153 0 76
-0.064086 -0.047711 0.522148 0 127 127
0.312675 -0.237584 0.384860 0 0 255
-0.382122 0.652716 0.373697 153 0 76
-0.104741 0.375350 -0.494275 76 0 153
0.377978 0.143563 0.516378 0 127 127
-0.081786 -0.286142 -0.067343 127 127 0
0.192672 0.166719 0.084890 153 0 76
0.197052 0.166719 -0.117895 153 0 76
0.201187 0.317552 0.522148 0 127 127
0.279850 0.144628 -0.271338 153 0 76
0.367902 0.036493 0.265009 76 153 0
-0.361094 -0.023692 0.136882 153 0 76
0.389992 -0.024559 -0.152578 76 153 0
-0.139843 -0.115569 -0.510843 76 0 153
-0.287491 -0.297187 0.099661 255 0 0
-0.004522 0.572053 -0.510843 76 0 153
-0.037865 -0.286142 0.191674 127 127 0
-0.057106 -0.264051 0.284974 127 127 0
0.389992 -0.143488 -0.013751 76 153 0
0.389992 -0.737902 -0.541782 127 0 127
-0.032577 -0.701644 -0.543979 127 127 0
-0.383185 -0.741620 -0.274778 0 255 0
-0.383185 -0.666866 0.061537 0 255 0
0.367902 0.398956 0.203021 76 153 0
0.156530 -0.286142 0.057827 127 127 0
-0.361094 -0.207478 -0.216145 153 0 76
0.367902 0.502909 0.272820 76 153 0
-0.178444 -0.286142 0.007044 127 127 0
0.297967 0.491525 0.549514 0 127 127
-0.106357 0.521656 0.541073 0 127 127
0.290584 0.146529 -0.228386 153 0 76
-0.361094 0.225796 0.063494 153 0 76
-0.361094 0.572247 0.247816 153 0 76
0.076012 -0.330323 -0.470290 153 76 0
0.367902 -0.547040 0.040411 127 0 127
-0.030141 -0.286142 -0.103655 127 127 0
-0.208095 0.144628 -0.187780 153 0 76
-0.383185 -0.691593 -0.504508 0 255 0
0.027413 0.144628 -0.290566 153 0 76
-0.361094 0.320262 0.408979 153 0 76
-0.361094 -0.291182 0.398792 153 0 76
-0.383185 0.062493 -0.267996 153 0 76
0.297219 -0.005518 0.549514 0 127 127
0.259121 -0.071363 -0.494275 76 0 153
0.327269 0.619580 -0.363674 76 0 153
0.051472 -0.416921 -0.543979 127 127 0
0.281163 -0.145571 -0.494275 76 0 153
0.389992 0.069575 0.067072 76 153 0
0.334522 -0.098048 0.516378 0 127 127
-0.139902 0.166719 0.176195 153 0 76
0.389992 0.267666 0.014228 76 153 0
0.182773 0.166719 0.121731 153 0 76
0.338095 -0.276535 -0.510843 76 0 153
-0.383185 0.648658 0.186076 153 0 76
-0.102718 -0.330323 0.393141 153 76 0
-0.357256 0.105542 0.516378 0 127 127
0.367902 -0.067500 -0.399505 76 153 0
-0.361094 -0.127345 -0.520131 153 0 76
0.225512 0.144628 -0.433832 153 0 76
-0.080399 -0.330323 -0.236130 153 76 0
0.255940 -0.330323 0.436235 153 76 0
-0.383185 -0.170148 0.328971 153 0 76
0.203756 -0.286142 0.102838 127 127 0
0.138671 0.513941 0.536356 0 127 127
0.359006 0.626728 -0.543979 255 0 0
-0.361094 -0.048373 0.031708 153 0 76
-0.361094 0.348757 0.087058 153 0 76
0.055931 0.471115 0.522148 0 127 127
-0.383185 -0.501381 -0.317553 0 255 0
0.389992 -0.058902 0.038151 76 153 0
0.036320 0.144628 -0.197066 153 0 76
-0.383185 -0.406981 -0.100511 0 255 0
0.301858 0.133583 -0.000175 76 0 153
0.367902 0.205934 0.461214 76 153 0
-0.064280 -0.264051 -0.337073 127 127 0
0.305561 0.597489 0.097815 76 0 153
0.268633 0.619580 -0.034876 76 0 153
-0.269542 0.636137 0.483242 0 127 127
0.223533 -0.663727 0.251289 0 127 127
-0.014168 0.166719 0.047439 153 0 76
-0.217049 0.263996 0.530432 0 127 127
-0.211633 0.166719 0.317924 153 0 76
-0.092359 0.166719 0.256280 153 0 76
0.389992 -0.300322 -0.205640 76 153 0
0.257437 0.597489 0.348706 76 0 153
0.017450 -0.347046 -0.510843 0 0 255
-0.352675 -0.373578 -0.494275 76 0 153
0.389499 0.652716 -0.411453 76 153 0
0.329065 -0.308419 0.549514 0 127 127
-0.244303 0.398778 0.522148 0 127 127
-0.201098 -0.264051 0.137203 127 127 0
-0.262387 0.597489 -0.139871 153 0 76
0.272520 0.175008 0.543726 0 127 127
-0.383185 0.170725 -0.493556 153 0 76
0.290584 -0.286725 0.009534 0 0 255
-0.241452 -0.059080 -0.510843 76 0 153
0.211880 0.030204 -0.494275 76 0 153
0.367902 0.070353 -0.309553 76 153 0
0.389992 0.445048 -0.291842 76 153 0
-0.084006 -0.610007 0.251289 0 127 127
-0.383185 -0.025368 0.181382 153 0 76
0.312675 0.159197 -0.166531 76 0 153
0.271190 0.647533 0.483242 0 127 127
0.356452 -0.238991 -0.494275 76 0 153
0.389992 0.574836 -0.259730 76 153 0
-0.110682 -0.193735 0.530432 0 127 127
-0.361094 -0.207440 -0.480356 153 0 76
-0.087426 0.199522 -0.510843 76 0 153
0.163282 -0.214589 0.483242 204 51 127
0.246438 -0.542848 -0.543979 127 127 0
0.210728 -0.330323 0.229707 153 76 0
-0.157198 -0.330323 -0.430017 153 76 0
0.367902 -0.315720 0.356154 76 153 0
0.181739 -0.286142 -0.378514 127 127 0
-0.315259 0.419134 0.516378 0 127 127
-0.383185 0.165137 -0.370893 153 0 76
0.235357 0.608397 0.470642 76 0 153
0.367902 -0.414446 0.192545 127 0 127
0.292358 -0.195909 0.516378 0 127 127
-0.383185 0.558212 0.277297 153 0 76
0.389992 -0.499175 -0.446880 127 0 127
-0.086311 -0.286142 0.446215 127 127 0
0.389992 -0.644167 -0.400625 127 0 127
0.345366 0.619580 -0.105581 76 0 153
0.389992 0.230174 -0.174929 76 153 0
0.351253 0.619580 0.376149 76 0 153
-0.039720 -0.291453 -0.466661 0 255 0
0.367902 0.120094 -0.135391 76 153 0
0.389992 -0.145167 0.146706 76 153 0
-0.216461 0.099964 0.530432 0 127 127
-0.340919 -0.009834 0.517912 0 127 127
-0.159462 0.166719 0.086483 153 0 76
0.177179 0.619038 -0.510843 255 0 0
-0.074858 -0.264051 0.354077 127 127 0
0.367902 -0.126940 -0.401841 76 153 0
-0.383185 -0.646498 0.163771 0 255 0
-0.371277 0.498759 0.483242 0 127 127
0.304211 0.136649 0.483242 153 0 76
0.389992 0.333037 0.039158 76 153 0
0.364272 -0.034183 -0.510843 76 0 153
-0.383185 0.652219 0.452517 153 0 76
-0.324095 -0.330323 -0.437634 153 76 0
0.367902 0.026092 -0.235084 76 153 0
0.054700 -0.286142 0.317751 127 127 0
0.278428 0.563393 -0.543979 255 0 0
-0.361094 0.436468 0.362353 153 0 76
0.367902 0.544007 0.463823 76 153 0
-0.029360 0.578047 0.516378 0 127 127
-0.383185 0.411458 0.302604 153 0 76
-0.062747 -0.286142 0.015292 127 127 0
0.052049 0.522644 -0.510843 76 0 153
0.109054 -0.180051 0.530432 0 127 127
-0.193690 -0.286142 0.440590 127 127 0
0.389992 -0.709430 -0.083438 127 0 127
-0.361094 0.365704 -0.122950 153 0 76
-0.356900 -0.330323 -0.309956 153 76 0
-0.361094 -0.002808 0.379285 153 0 76
0.389992 -0.263751 0.299851 76 153 0
0.023898 -0.208824 -0.471673 0 255 0
0.389992 -0.319811 0.288430 76 153 0
-0.375764 0.367476 0.516378 0 127 127
-0.121847 0.586444 0.509634 0 127 127
-0.383185 -0.324866 -0.447298 153 0 76
0.184815 0.565600 -0.543979 255 0 0
-0.327189 0.567930 0.545939 0 127 127
0.389992 -0.137225 0.260085 76 153 0
-0.276503 -0.109850 -0.510843 76 0 153
0.389992 -0.094125 0.192610 76 153 0
0.194099 0.157874 -0.510843 76 0 153
0.280780 0.118604 -0.510843 76 0 153
0.091793 0.166719 -0.155456 153 0 76
-0.280828 0.501797 -0.494275 76 0 153
-0.383185 0.340339 -0.217675 153 0 76
0.198591 -0.264051 0.404478 127 127 0
0.242710 -0.391102 -0.543979 127 127 0
0.265766 -0.286142 -0.046201 127 127 0
0.065504 -0.330323 0.050892 153 76 0
-0.123663 -0.264051 -0.396233 127 127 0
0.367902 0.356508 -0.090428 76 153 0
0.033697 -0.006374 -0.510843 76 0 153
0.140126 0.580606 0.516378 0 127 127
-0.273539 -0.006964 -0.494275 76 0 153
-0.350210 0.619580 0.229076 153 0 76
-0.173173 -0.286142 0.294483 127 127 0
0.389992 0.101602 -0.375616 76 153 0
-0.235285 0.262861 -0.494275 76 0 153
-0.383185 0.552123 0.122637 153 0 76
-0.132276 -0.264051 0.194405 127 127 0
0.350606 0.597489 -0.379205 76 0 153
-0.276938 0.246961 0.549514 0 127 127
0.367902 -0.515991 -0.509831 127 0 127
-0.361094 0.044755 -0.006878 153 0 76
0.362743 0.080605 -0.510843 76 0 153
-0.154479 -0.237846 -0.488752 0 255 0
0.018173 0.535298 0.549514 0 127 127
0.083771 0.593167 0.544544 0 127 127
-0.383185 -0.782418 -0.075995 0 255 0
-0.383185 0.250043 0.135247 153 0 76
0.203761 -0.330323 0.426329 153 76 0
-0.361094 -0.262945 -0.470344 153 0 76
-0.092974 0.143039 -0.510843 76 0 153
0.367902 0.033946 -0.023010 76 153 0
-0.283776 -0.242991 0.300495 255 0 0
0.214947 -0.295949 -0.488752 0 255 0
0.315641 0.597489 -0.005975 76 0 153
-0.133633 -0.447442 0.251289 0 127 127
-0.002424 0.144628 -0.271104 153 0 76
-0.256352 -0.106898 0.516378 0 127 127
-0.361094 -0.514252 0.011161 0 255 0
-0.361094 0.183348 0.114544 153 0 76
-0.250565 -0.595099 -0.543979 127 127 0
0.032754 -0.264051 -0.391113 127 127 0
0.219413 -0.530130 0.251289 0 127 127
-0.297344 -0.330323 0.387758 153 76 0
0.367902 -0.558664 -0.013588 127 0 127
0.303271 0.597489 -0.306628 76 0 153
-0.361094 -0.738959 0.161497 0 255 0
-0.283776 -0.220658 -0.330568 255 0 0
0.208197 -0.295223 0.461151 204 51 127
0.025168 0.144628 -0.388827 153 0 76
0.360806 -0.330323 0.008380 153 76 0
-0.340183 0.602628 -0.510843 76 0 153
-0.305867 -0.222302 0.174638 255 0 0
0.359934 -0.330323 -0.465154 153 76 0
0.119266 0.144628 -0.418993 153 0 76
0.389992 -0.622374 0.200649 127 0 127
0.202715 -0.244722 0.517907 0 127 127
-0.383185 0.346584 -0.408254 153 0 76
-0.383185 0.076497 -0.060357 153 0 76
0.289659 -0.330323 0.219413 153 76 0
0.367902 -0.609658 -0.349885 127 0 127
-0.143113 0.144628 0.300222 153 0 76
0.367902 0.172489 0.396922 76 153 0
-0.383185 0.277224 0.440664 153 0 76
-0.275098 -0.212413 0.483242 204 51 127
-0.250536 0.144628 -0.184498 153 0 76
-0.383185 -0.543759 -0.335007 0 255 0
-0.361094 -0.748994 -0.336925 0 255 0
0.172259 -0.690632 0.251289 0 127 127
0.389992 -0.099385 0.245171 76 153 0
0.367902 0.033819 -0.080557 76 153 0
-0.117015 0.539038 -0.543979 255 0 0
0.299856 0.597489 -0.240670 76 0 153
-0.191236 -0.385550 -0.531181 127 127 0
0.148399 0.166719 0.446388 153 0 76
0.367902 -0.219192 -0.258217 76 153 0
-0.361094 -0.037159 -0.170210 153 0 76
0.292150 0.574930 0.516378 0 127 127
0.367902 0.394028 0.350068 76 153 0
0.362347 0.085556 0.483242 0 127 127
0.046498 0.166719 -0.426873 153 0 76
0.312675 0.193133 0.393827 76 0 153
-0.361094 -0.690476 0.223649 0 255 0
-0.383185 -0.522175 -0.508424 0 255 0
-0.227844 -0.353281 0.516378 0 127 127
-0.000226 0.202145 -0.488752 76 0 153
-0.305867 -0.251283 0.153257 255 0 0
-0.026712 -0.330323 -0.465406 153 76 0
0.367902 0.115523 -0.252802 76 153 0
0.251665 -0.302051 0.549514 0 127 127
0.367902 0.536720 -0.496734 76 153 0
-0.268897 -0.297187 -0.471699 0 255 0
0.290584 -0.296119 0.136594 0 0 255
-0.362025 -0.266059 0.516378 0 127 127
-0.267027 -0.278098 0.516378 0 127 127
0.367902 0.268234 0.353246 76 153 0
-0.170010 -0.511194 -0.543979 127 127 0
-0.361094 0.543533 0.009216 153 0 76
0.145872 0.445930 -0.494275 76 0 153
0.367902 -0.507036 0.236506 127 0 127
0.347201 -0.339565 -0.510843 76 0 153
0.007657 0.419986 -0.510843 76 0 153
-0.206142 -0.182574 0.522148 0 127 127
0.312675 0.216299 0.072390 76 0 153
0.039884 -0.330323 -0.030397 153 76 0
0.066514 -0.422210 0.251289 0 127 127
-0.383185 0.356051 0.007568 153 0 76
0.196576 -0.330323 0.008361 153 76 0
-0.024831 0.144628 -0.108608 153 0 76
-0.361094 -0.075766 -0.166279 153 0 76
-0.361094 -0.052485 -0.061135 153 0 76
0.163676 -0.330323 -0.291601 153 76 0
0.091489 -0.641154 -0.543979 127 127 0
-0.361094 0.639570 -0.219905 153 0 76
0.186822 -0.286142 -0.224429 127 127 0
-0.202172 -0.249066 -0.488752 0 255 0
-0.383185 -0.463177 -0.126863 0 255 0
-0.305867 0.185880 -0.265083 153 76 0
0.057650 0.337758 -0.510843 76 0 153
-0.361094 -0.203114 0.095898 153 0 76
-0.383185 -0.554400 -0.417173 0 255 0
-0.361094 -0.263841 -0.179019 153 0 76
-0.305867 -0.213674 0.285080 255 0 0
-0.023799 0.166719 0.310670 153 0 76
0.038712 0.422251 -0.494275 76 0 153
0.120865 0.620827 -0.543979 255 0 0
0.389992 0.313026 0.098215 76 153 0
0.296996 0.597489 -0.486475 76 0 153
-0.361094 -0.022650 0.240786 153 0 76
0.367902 -0.627681 -0.020645 127 0 127
-0.383185 -0.235447 0.284830 153 0 76
0.334765 0.140709 0.513571 0 127 127
0.294957 0.619580 0.403805 76 0 153
0.140796 0.264160 -0.494275 76 0 153
-0.305867 0.192119 0.452345 153 76 0
0.389992 -0.449390 -0.203925 127 0 127
-0.383185 -0.540193 0.092761 0 255 0
-0.017127 0.144628 -0.161619 153 0 76
0.312675 -0.260972 0.022690 0 0 255
-0.383185 0.465394 -0.506026 153 0 76
-0.383185 -0.102754 -0.327685 153 0 76
0.055010 0.065019 0.522148 0 127 127
-0.042978 0.161984 0.522148 0 127 127
0.389992 0.141514 -0.528154 76 153 0
0.389992 0.334554 -0.146342 76 153 0
-0.320172 -0.389930 -0.543979 127 127 0
0.299426 0.221946 0.163061 76 0 153
0.367902 -0.193434 -0.436004 76 153 0
0.112648 -0.330323 -0.409828 153 76 0
0.367902 0.484723 -0.376915 76 153 0
0.038549 0.144628 0.268641 153 0 76
-0.361203 -0.783184 0.119330 0 255 0
0.154632 -0.254722 0.541510 0 127 127
0.367902 0.235955 -0.073332 76 153 0
-0.042224 0.144628 0.169158 153 0 76
0.367902 -0.200623 0.040140 76 153 0
-0.245578 0.082693 -0.494275 76 0 153
0.367902 0.226346 -0.202001 76 153 0
-0.108670 -0.286142 -0.167484 127 127 0
0.205456 -0.314687 0.549514 0 127 127
-0.161521 -0.310738 0.516378 0 127 127
-0.383185 -0.126397 0.432525 153 0 76
0.274900 0.144628 0.444660 153 0 76
0.389992 0.621749 0.432621 76 153 0
0.389992 -0.376867 0.227095 76 153 0
-0.383185 -0.518277 -0.270159 0 255 0
-0.371509 -0.783184 -0.497849 0 255 0
-0.135215 0.061108 -0.510843 76 0 153
0.295588 0.514856 -0.510843 76 0 153
-0.383185 -0.435447 -0.312430 0 255 0
-0.361094 0.128484 -0.025949 153 0 76
0.367902 -0.679932 0.222913 127 0 127
0.289662 0.619580 -0.139251 76 0 153
-0.058753 -0.748086 -0.543979 127 127 0
0.367902 0.367410 0.386869 76 153 0
-0.241884 -0.632267 -0.543979 127 127 0
-0.176357 -0.101649 -0.510843 76 0 153
-0.288278 -0.297187 0.064618 255 0 0
0.365727 -0.075043 -0.494275 76 0 153
-0.383185 0.390722 -0.510101 153 0 76
-0.070861 0.320289 -0.494275 76 0 153
-0.128702 0.144628 0.403224 153 0 76
-0.121541 -0.354825 0.483242 0 127 127
0.138829 -0.362799 0.516378 0 127 127
-0.287421 0.221946 0.329867 153 76 0
0.163316 -0.259529 -0.510843 76 0 153
0.389992 0.491642 -0.063163 76 153 0
0.367902 -0.584569 -0.067830 127 0 127
-0.352874 0.619580 -0.249429 153 0 76
0.389992 -0.050648 0.364318 76 153 0
-0.264695 0.026779 -0.510843 76 0 153
0.033727 -0.063222 -0.494275 76 0 153
0.104157 -0.330323 -0.071543 153 76 0
0.039812 0.244666 -0.494275 76 0 153
-0.073289 0.166719 0.384374 153 0 76
0.367902 -0.058280 -0.118584 76 153 0
0.367902 -0.566999 -0.357905 127 0 127
0.367902 -0.070053 0.167632 76 153 0
0.271187 0.144628 0.343623 153 0 76
0.301944 -0.714623 -0.543979 127 127 0
-0.244501 -0.744113 -0.543979 127 127 0
0.367902 -0.012982 -0.379972 76 153 0
0.389992 -0.180468 -0.510872 76 153 0
-0.131744 -0.330323 0.282422 153 76 0
-0.230381 0.576814 0.516378 0 127 127
0.312675 -0.251481 0.137161 0 0 255
-0.383185 0.220211 -0.202178 153 0 76
0.026410 0.144628 0.446161 153 0 76
0.389992 0.522893 -0.264929 76 153 0
-0.282122 -0.487790 0.251289 0 127 127
0.302316 0.221946 -0.078947 76 0 153
-0.265801 -0.345892 -0.494275 76 0 153
0.389992 -0.314348 0.022262 76 153 0
-0.361094 0.149007 0.331892 153 0 76
0.365064 -0.034890 0.516378 0 127 127
0.389992 0.070109 0.173705 76 153 0
-0.120030 -0.070696 0.530432 0 127 127
-0.228369 -0.330323 0.378249 153 76 0
-0.013442 0.144628 -0.313535 153 0 76
0.066584 -0.286142 -0.321947 127 127 0
0.141379 -0.286142 -0.061127 127 127 0
0.389992 -0.248893 0.102246 76 153 0
0.389992 0.032214 0.324646 76 153 0
-0.220532 0.166719 0.367886 153 0 76
0.052915 -0.330323 -0.123621 153 76 0
0.367902 -0.001386 0.016979 76 153 0
0.290584 -0.287310 -0.274216 0 0 255
0.106684 -0.735677 -0.543979 127 127 0
0.367902 -0.292342 -0.111440 76 153 0
-0.383185 -0.021701 -0.133500 153 0 76
-0.361094 -0.245640 0.351365 153 0 76
-0.305867 -0.210851 -0.055658 255 0 0
0.389992 0.637422 0.058956 76 153 0
0.025476 0.569456 0.549514 0 127 127
-0.383185 -0.731470 -0.461017 0 255 0
0.332452 -0.069169 0.549514 0 127 127
0.389992 -0.576876 0.239725 127 0 127
-0.008124 -0.012643 0.522148 0 127 127
0.353097 0.619580 -0.464707 76 0 153
0.316739 0.223791 0.516378 0 127 127
0.111361 0.611064 -0.510843 76 0 153
0.389992 -0.215069 0.133831 76 153 0
0.192591 -0.330323 0.388413 153 76 0
-0.090511 0.155519 0.461151 153 0 76
0.248259 0.166719 -0.189519 153 0 76
-0.291025 -0.499710 -0.543979 127 127 0
0.238110 0.619580 0.252544 76 0 153
0.290584 0.158567 -0.425589 76 0 153
-0.229356 0.600872 -0.543979 255 0 0
-0.137780 -0.330323 -0.275792 153 76 0
0.196451 0.166719 0.237881 153 0 76
-0.383185 0.233943 0.421492 153 0 76
0.389992 0.274875 -0.124902 76 153 0
-0.242609 0.144628 -0.227748 153 0 76
-0.196202 -0.264051 -0.404668 127 127 0
-0.361094 -0.006122 0.058991 153 0 76
-0.361094 -0.479404 -0.354087 0 255 0
-0.185143 0.166719 -0.229196 153 0 76
-0.383185 -0.068076 -0.109249 153 0 76
-0.122284 -0.330323 -0.059295 153 76 0
-0.383185 -0.301802 0.302764 153 0 76
-0.294900 -0.297187 0.428344 255 0 0
-0.383185 0.145154 -0.004425 153 0 76
0.068890 0.171108 -0.466661 76 0 153
0.235357 0.619281 0.096864 76 0 153
-0.139904 0.341749 -0.510843 76 0 153
0.389992 -0.773221 0.058476 127 0 127
0.347624 0.619580 0.065037 76 0 153
0.367902 -0.566043 -0.170396 127 0 127
0.095277 0.144628 -0.092017 153 0 76
-0.361094 0.267710 -0.025191 153 0 76
0.157742 0.587722 -0.494275 76 0 153
0.389992 -0.534714 -0.086149 127 0 127
0.087800 0.166719 -0.415511 153 0 76
0.399521 0.472840 0.483242 0 127 127
0.124032 0.445144 0.530432 0 127 127
-0.361094 0.085205 -0.343276 153 0 76
-0.361094 -0.700804 -0.020506 0 255 0
-0.128195 0.166719 -0.097990 153 0 76
-0.361094 0.410267 0.044545 153 0 76
0.389992 0.044082 -0.385201 76 153 0
-0.059868 0.144628 -0.100098 153 0 76
0.270769 -0.264051 -0.210464 127 127 0
-0.383185 -0.449646 -0.078744 0 255 0
-0.068463 -0.128110 0.530432 0 127 127
0.367902 0.404375 0.450006 76 153 0
-0.035856 -0.218214 -0.494275 76 0 153
0.331229 -0.166992 0.549514 0 127 127
-0.361094 0.149193 -0.430591 153 0 76
0.389992 0.134698 -0.046544 76 153 0
-0.010698 -0.330323 -0.425173 153 76 0
-0.276563 0.363257 0.549514 0 127 127
-0.161399 0.305298 0.530432 0 127 127
-0.252703 0.619580 0.395405 153 0 76
0.346251 0.351302 0.516378 0 127 127
0.113953 -0.250918 0.461151 204 51 127
0.176471 0.540608 -0.494275 76 0 153
0.367902 -0.467901 -0.081719 127 0 127
0.173706 -0.572297 -0.543979 127 127 0
-0.199724 -0.222279 0.483242 204 51 127
-0.151351 -0.330323 -0.243352 153 76 0
0.340689 0.079348 0.516378 0 127 127
-0.001460 0.345630 0.530432 0 127 127
