ply
format ascii 1.0
element vertex 620
property float x
property float y
property float z
property float nx
property float ny
property float nz
property uchar red
property uchar green
property uchar blue
property float opacity
end_header
-0.194485 0.600125 0.288714 0.481832 0.462483 -0.744276 123 128 124 0.500000
0.334484 0.804767 -0.046397 0.989322 0.000000 -0.145747 51 51 51 1.000000
-0.205836 -0.595912 0.334223 -0.376658 -0.176761 0.909332 123 128 124 0.500000
-0.326651 -0.899376 0.083803 -0.909332 -0.176761 0.376658 123 128 124 0.500000
-0.334133 -0.494741 0.148490 1.000000 -0.000062 -0.000000 120 119 121 1.000000
0.236424 0.947257 -0.082160 -0.383461 -0.914715 0.127494 51 51 51 1.000000
0.283830 -0.462422 -0.238539 -0.736721 0.046355 0.674606 129 126 121 1.000000
0.204276 0.786788 -0.268321 -0.610075 -0.000000 0.792344 51 51 51 1.000000
-0.061632 -0.108526 0.342383 -0.164556 -0.000000 0.986368 236 244 249 1.000000
0.314866 0.169796 0.071204 -0.978423 0.000000 -0.206611 99 94 100 1.000000
-0.334038 -0.378510 -0.009165 1.000000 -0.000062 -0.000000 124 121 136 1.000000
0.006006 0.641850 0.048860 0.000000 -1.000000 -0.000000 160 154 159 1.000000
-0.347845 0.140665 -0.022669 0.997068 -0.000000 0.076521 123 128 124 0.500000
0.253541 0.122606 -0.194898 -0.793271 -0.000000 0.608869 106 86 71 1.000000
-0.350742 0.535810 0.003014 -0.703978 0.710220 -0.001260 123 128 124 0.500000
-0.314718 0.165846 -0.100980 -0.947378 0.000000 -0.320118 150 153 155 1.000000
0.022571 -0.882181 -0.320487 -0.376658 0.176761 0.909332 97 93 99 1.000000
-0.295833 0.545901 -0.163791 0.610090 -0.710191 0.351311 123 128 124 0.500000
0.043708 0.027531 -0.336128 -0.142247 -0.000000 0.989831 123 128 124 0.500000
0.270431 -0.891649 -0.191176 -0.909332 0.176761 0.376658 123 128 124 0.500000
0.220666 -0.681057 0.304294 -0.655627 0.086495 -0.750115 123 128 124 0.500000
-0.247779 -0.460291 0.292208 -0.675172 -0.045798 0.736237 138 139 150 1.000000
0.267555 -0.807032 0.240093 0.725661 -0.105029 0.679989 123 128 124 0.500000
0.269007 0.003818 -0.202933 0.798638 0.000000 -0.601812 251 252 250 1.000000
-0.171172 -0.387339 0.332648 0.000000 -0.000062 -1.000000 118 117 123 1.000000
0.333654 0.287879 0.059971 -0.986453 0.000000 -0.164046 123 128 124 0.500000
-0.088453 0.958745 0.218456 -0.146941 0.915069 0.375575 51 51 51 1.000000
0.289259 -0.183526 -0.176540 -0.852926 -0.000000 0.522033 123 128 124 0.500000
0.317207 0.535112 0.122370 -0.938357 0.000000 -0.345666 123 128 124 0.500000
-0.115559 0.501844 0.310819 -0.338322 -0.000000 0.941030 98 94 101 1.000000
-0.319006 0.054671 -0.090628 0.957747 -0.000000 0.287614 97 94 96 1.000000
0.007398 0.377309 -0.323599 0.038223 0.000000 -0.999269 109 95 85 1.000000
-0.288402 0.568112 0.102192 0.944471 0.000000 -0.328594 147 140 149 1.000000
-0.197366 0.667366 -0.281479 0.559067 -0.000000 0.829122 51 51 51 1.000000
-0.060233 -0.799978 0.332373 0.376658 0.176761 -0.909332 83 80 86 1.000000
0.322015 0.136627 -0.009631 0.999179 0.000000 -0.040514 131 128 135 1.000000
0.279495 0.190179 0.196532 -0.827789 0.000000 -0.561039 123 128 124 0.500000
0.296260 -0.001332 0.172939 -0.871847 0.000000 -0.489779 123 128 124 0.500000
-0.332564 -0.788076 -0.060190 0.909332 0.176761 0.376658 130 123 118 1.000000
0.316928 -0.062316 0.055543 -0.987257 0.000000 -0.159131 92 82 83 1.000000
-0.055094 0.763767 0.343244 0.145589 0.000000 -0.989345 51 51 51 1.000000
0.287099 -0.808392 -0.190007 -0.909332 0.176761 0.376658 123 128 124 0.500000
0.108423 -0.080497 -0.320843 0.330286 0.000000 -0.943881 230 235 248 1.000000
0.146797 -0.386222 -0.325382 0.000000 -0.000062 1.000000 139 132 136 1.000000
-0.334015 -0.293022 0.012386 1.000000 -0.000062 -0.000000 146 143 141 1.000000
-0.329064 -0.810663 0.119611 -0.909332 -0.176761 0.376658 123 128 124 0.500000
0.032444 -0.426114 -0.342698 0.000000 0.000062 -1.000000 123 128 124 0.500000
-0.290275 -0.402496 -0.276045 0.710294 0.026812 0.703394 123 128 124 0.500000
-0.056989 0.641850 0.051353 0.000000 -1.000000 -0.000000 114 101 95 1.000000
-0.022387 0.531942 -0.340283 -0.050148 0.000000 -0.998742 123 128 124 0.500000
-0.078539 -0.407228 0.349965 0.000000 0.000062 1.000000 123 128 124 0.500000
0.131729 -0.019234 -0.292614 0.419355 0.000000 -0.907822 104 101 102 1.000000
-0.226546 0.724491 -0.259089 -0.644455 0.000000 -0.764642 51 51 51 1.000000
0.154526 0.641850 -0.297279 0.000000 -1.000000 -0.000000 51 51 51 1.000000
0.009566 -0.916004 0.190224 0.000000 -1.000000 -0.000000 139 136 134 1.000000
-0.324692 0.785598 0.129014 0.930916 0.000000 -0.365232 51 51 51 1.000000
-0.276010 0.388375 0.214415 -0.789228 -0.000000 0.614100 62 80 88 1.000000
0.314267 0.178683 -0.122199 -0.930394 -0.000000 0.366560 123 128 124 0.500000
0.311166 0.773174 -0.129685 0.921483 0.000000 -0.388418 51 51 51 1.000000
-0.043314 -0.144126 -0.320218 0.117130 -0.000000 0.993117 149 148 156 1.000000
0.027800 0.378046 0.328180 -0.100911 0.000000 -0.994895 73 63 71 1.000000
0.308353 0.357419 0.143745 0.912955 -0.000000 0.408061 45 67 66 1.000000
0.007383 -0.543930 -0.325382 0.000000 0.000062 -1.000000 151 139 142 1.000000
-0.096533 0.641850 -0.017664 0.000000 1.000000 0.000000 140 137 142 1.000000
0.323897 -0.686528 0.079691 -1.000000 -0.000062 -0.000000 143 129 137 1.000000
0.210727 0.641850 -0.158009 0.000000 1.000000 0.000000 117 114 116 1.000000
-0.334133 -0.692844 0.060318 -1.000000 0.000062 0.000000 144 142 145 1.000000
0.006893 0.961409 0.027457 0.000000 1.000000 0.000000 51 51 51 1.000000
-0.304324 -0.737732 0.213565 0.909332 0.176761 -0.376658 123 128 124 0.500000
0.024872 0.933419 -0.281751 -0.052522 -0.915098 0.399796 51 51 51 1.000000
0.206822 0.657337 -0.266368 -0.617454 -0.000000 0.786607 51 51 51 1.000000
0.115289 -0.304337 0.349965 0.000000 -0.000062 -1.000000 123 128 124 0.500000
0.028993 -0.347026 -0.325382 0.000000 -0.000062 1.000000 83 76 80 1.000000
-0.063109 0.841853 0.342189 -0.168831 -0.000000 0.985645 51 51 51 1.000000
0.291739 -0.911038 -0.130635 -0.909332 0.176761 0.376658 123 128 124 0.500000
0.293585 0.835354 0.162150 0.883000 -0.000000 0.469373 51 51 51 1.000000
0.087519 0.220041 0.336769 0.267913 -0.000000 0.963443 148 191 91 1.000000
-0.248300 0.940740 0.123462 0.364499 -0.914901 -0.173487 51 51 51 1.000000
0.323824 -0.339003 0.038921 -1.000000 -0.000062 -0.000000 93 89 94 1.000000
0.014674 -0.030280 -0.339950 0.057510 0.000000 -0.998345 247 254 253 1.000000
0.312593 0.045555 0.088468 -0.966151 0.000000 -0.257978 107 102 109 1.000000
-0.008203 0.641850 -0.059847 0.000000 -1.000000 -0.000000 116 114 114 1.000000
0.304921 0.661414 -0.144764 0.902001 0.000000 -0.431735 51 51 51 1.000000
-0.037140 0.641850 -0.214394 0.000000 1.000000 0.000000 89 79 87 1.000000
0.245930 -0.687614 -0.276611 0.685743 -0.087556 -0.722558 123 128 124 0.500000
-0.130312 -0.273932 -0.327233 -0.241596 0.694046 -0.678182 123 128 124 0.500000
-0.302458 -0.107357 -0.172680 0.860148 -0.000000 0.510045 123 128 124 0.500000
-0.275784 -0.407157 0.295706 0.693175 0.028314 -0.720213 123 128 124 0.500000
0.319952 -0.242474 -0.025300 0.996062 0.000000 -0.088656 113 116 121 1.000000
0.297992 -0.001695 -0.116647 -0.929461 -0.000000 0.368921 130 121 117 1.000000
0.323897 -0.609326 -0.114670 -1.000000 -0.000062 -0.000000 119 111 113 1.000000
0.302435 -0.639414 -0.177979 0.909332 -0.176761 -0.376658 72 69 81 1.000000
-0.176843 -0.574466 -0.342698 0.000000 -0.000062 1.000000 123 128 124 0.500000
0.203746 -0.502411 -0.310874 -0.632265 0.059321 0.772478 110 102 107 1.000000
-0.130687 0.337616 0.304553 -0.385100 -0.000000 0.922875 113 107 111 1.000000
-0.168092 -0.738361 0.322167 -0.376658 -0.176761 0.909332 123 128 124 0.500000
-0.140665 0.117742 -0.293153 -0.415438 0.000000 -0.909622 128 115 104 1.000000
0.165849 -0.143557 0.283443 0.521389 -0.000000 0.853319 130 126 133 1.000000
0.341213 -0.551418 0.103592 -1.000000 -0.000062 -0.000000 123 128 124 0.500000
0.031356 0.641850 0.125363 0.000000 1.000000 0.000000 161 156 165 1.000000
0.291153 -0.942634 -0.020599 0.000000 -1.000000 -0.000000 123 128 124 0.500000
0.019376 -0.942634 0.007976 0.000000 1.000000 0.000000 123 128 124 0.500000
-0.328378 0.256401 -0.039061 0.991390 -0.000000 0.130940 119 108 113 1.000000
-0.217126 0.251045 -0.266317 0.617648 -0.000000 0.786454 123 128 124 0.500000
-0.350935 -0.005220 0.000802 -0.999967 0.000000 -0.008188 94 92 94 1.000000
0.025128 0.764974 0.345841 -0.088044 0.000000 -0.996117 51 51 51 1.000000
-0.137038 -0.773272 -0.298483 -0.376658 -0.176761 -0.909332 121 121 131 1.000000
0.250458 -0.093261 0.234373 -0.742253 0.000000 -0.670120 123 128 124 0.500000
0.209756 -0.778770 0.292814 0.376658 -0.176761 0.909332 123 128 124 0.500000
-0.027384 -0.227750 -0.322315 -0.068150 0.000000 -0.997675 146 153 161 1.000000
0.002990 0.911649 -0.333614 -0.011910 -0.914328 0.404799 51 51 51 1.000000
-0.345837 0.466086 -0.037926 -0.992643 0.000000 -0.121079 123 128 124 0.500000
0.196587 0.406090 -0.252590 0.618556 0.000000 -0.785741 131 127 131 1.000000
0.199354 0.928963 0.220841 -0.278872 -0.914276 -0.293819 51 51 51 1.000000
-0.228643 -0.042031 -0.235848 0.682333 -0.000000 0.731042 72 68 74 1.000000
0.256647 0.228344 -0.190850 0.802701 0.000000 -0.596382 117 99 100 1.000000
0.013422 0.974724 0.199272 0.000000 -1.000000 -0.000000 51 51 51 1.000000
0.172604 -0.253880 0.299891 0.514429 -0.000000 0.857533 123 128 124 0.500000
-0.095340 0.941019 -0.251137 0.140757 -0.915000 0.378103 51 51 51 1.000000
0.309531 -0.720946 -0.122587 -0.909332 0.176761 0.376658 109 114 117 1.000000
-0.334133 -0.406535 0.120129 1.000000 -0.000062 -0.000000 98 88 94 1.000000
-0.168736 0.903488 0.307368 -0.474254 -0.000000 0.880388 51 51 51 1.000000
-0.325971 0.233053 0.125926 0.934427 0.000000 -0.356154 123 128 124 0.500000
-0.296265 -0.160690 0.188018 0.844829 0.000000 -0.535036 123 128 124 0.500000
-0.174880 0.974724 -0.131419 0.000000 -1.000000 -0.000000 51 51 51 1.000000
-0.087346 -0.019682 0.321688 0.250302 0.000000 -0.968168 71 74 77 1.000000
-0.340738 0.356874 -0.076653 0.972559 -0.000000 0.232655 123 128 124 0.500000
0.067821 -0.520236 0.332648 0.000000 -0.000062 -1.000000 118 110 111 1.000000
-0.125967 -0.942634 -0.243356 0.000000 -1.000000 -0.000000 123 128 124 0.500000
0.312359 -0.146854 0.089227 -0.965522 0.000000 -0.260323 110 104 110 1.000000
0.130350 0.450048 -0.311761 -0.394656 -0.000000 0.918829 123 128 124 0.500000
0.313258 0.570791 0.010876 -0.999741 0.000000 -0.022743 123 128 124 0.500000
0.278173 -0.885185 0.128482 0.909332 -0.176761 0.376658 95 88 94 1.000000
0.089021 0.961409 -0.134012 0.000000 -1.000000 -0.000000 51 51 51 1.000000
0.320853 -0.873386 0.030980 0.909332 -0.176761 0.376658 125 115 114 1.000000
0.341171 -0.646971 -0.010994 1.000000 0.000062 0.000000 123 128 124 0.500000
-0.334133 -0.881094 0.011481 1.000000 -0.000062 -0.000000 149 148 148 1.000000
-0.069792 0.907757 -0.334042 0.188108 -0.000000 0.982148 51 51 51 1.000000
0.091445 0.094058 0.335143 0.279662 -0.000000 0.960098 33 29 32 1.000000
-0.213770 0.641850 -0.033377 0.000000 -1.000000 -0.000000 66 64 70 1.000000
-0.265974 0.607734 -0.220226 0.738491 0.230190 0.633754 123 128 124 0.500000
-0.294018 0.422390 -0.150955 -0.881708 0.000000 -0.471796 128 112 119 1.000000
-0.243441 0.625439 0.184924 0.795897 0.000000 -0.605432 59 53 61 1.000000
-0.061259 0.961409 0.121823 0.000000 -1.000000 -0.000000 51 51 51 1.000000
0.289908 -0.288261 -0.216254 -0.565668 -0.713067 0.414191 123 128 124 0.500000
0.037022 -0.234628 -0.337008 0.122772 0.000000 -0.992435 123 128 124 0.500000
0.034870 -0.942634 -0.178378 0.000000 1.000000 0.000000 123 128 124 0.500000
0.102128 0.285384 -0.323451 0.311565 0.000000 -0.950225 193 223 109 1.000000
-0.040796 -0.034961 -0.320549 0.109393 -0.000000 0.993999 91 87 86 1.000000
0.049049 0.961409 0.134241 0.000000 1.000000 0.000000 51 51 51 1.000000
0.226468 -0.320412 -0.318425 -0.647629 0.001124 0.761955 123 128 124 0.500000
-0.297465 -0.295661 0.239169 0.549540 -0.713114 -0.435286 123 128 124 0.500000
-0.313705 -0.942634 -0.020338 0.000000 1.000000 0.000000 123 128 124 0.500000
0.339307 0.021134 -0.009769 0.999244 0.000000 -0.038884 174 185 192 1.000000
0.154749 -0.864664 0.276409 0.376658 -0.176761 0.909332 142 142 151 1.000000
0.024868 0.855465 -0.338608 0.087284 0.000000 -0.996184 51 51 51 1.000000
0.248297 -0.498327 0.308943 -0.672481 0.056734 -0.737936 123 128 124 0.500000
-0.121767 0.641850 -0.145860 0.000000 1.000000 0.000000 129 120 122 1.000000
0.321399 -0.797037 -0.058226 0.909332 -0.176761 -0.376658 153 152 163 1.000000
-0.141913 -0.219522 0.299903 0.419196 0.000000 -0.907896 169 164 163 1.000000
-0.297571 0.226705 -0.142376 -0.894692 0.000000 -0.446684 106 100 117 1.000000
-0.209564 0.549809 0.261136 -0.438598 0.713076 0.546950 123 128 124 0.500000
-0.334084 -0.493771 -0.025269 1.000000 -0.000062 -0.000000 105 91 96 1.000000
0.201755 -0.916004 0.212623 0.000000 1.000000 0.000000 113 110 107 1.000000
0.145092 -0.942634 -0.253400 0.000000 -1.000000 -0.000000 123 128 124 0.500000
-0.037364 -0.942634 -0.282515 0.000000 -1.000000 -0.000000 123 128 124 0.500000
0.180825 0.974724 -0.087754 0.000000 1.000000 0.000000 51 51 51 1.000000
0.146214 0.557692 -0.262409 0.348246 0.710409 -0.611592 119 112 110 1.000000
0.195852 -0.916004 -0.116100 0.000000 1.000000 0.000000 143 135 139 1.000000
-0.015320 -0.676979 -0.342698 0.000000 -0.000062 1.000000 123 128 124 0.500000
-0.344711 0.647024 0.053743 -0.989288 -0.000000 0.145977 51 51 51 1.000000
-0.314895 -0.021778 -0.100553 -0.947829 0.000000 -0.318780 117 114 115 1.000000
-0.256916 -0.932158 0.236775 -0.909332 -0.176761 0.376658 123 128 124 0.500000
-0.329684 -0.387639 0.231954 -0.765139 -0.022208 0.643482 123 128 124 0.500000
0.009064 -0.916004 0.295182 0.000000 -1.000000 -0.000000 112 108 112 1.000000
-0.126480 -0.916004 -0.092998 0.000000 1.000000 0.000000 115 117 124 1.000000
-0.266626 0.641850 -0.121216 0.000000 1.000000 0.000000 96 91 95 1.000000
-0.141171 -0.362461 -0.342698 0.000000 -0.000062 1.000000 123 128 124 0.500000
-0.246467 0.354425 -0.217458 0.737374 -0.000000 0.675485 93 87 89 1.000000
0.124458 -0.292566 -0.319085 0.251939 0.696026 -0.672365 142 139 144 1.000000
-0.010331 -0.916004 0.079700 0.000000 1.000000 0.000000 166 162 158 1.000000
0.192874 0.047385 -0.255439 -0.607215 -0.000000 0.794537 121 106 106 1.000000
0.273357 0.441618 0.176340 -0.849831 0.000000 -0.527055 104 97 97 1.000000
-0.311590 0.429456 0.160643 -0.890001 -0.000000 0.455959 75 97 115 1.000000
0.268235 0.562274 -0.118897 0.912518 0.000000 -0.409037 150 148 145 1.000000
0.081247 -0.065627 0.338453 0.249772 -0.000000 0.968305 105 106 151 1.000000
0.235238 0.595947 -0.237054 -0.547168 0.632609 0.548099 123 128 124 0.500000
-0.109026 -0.911983 0.312883 0.376658 0.176761 -0.909332 123 128 124 0.500000
0.111119 -0.771064 -0.327901 -0.376658 0.176761 0.909332 123 128 124 0.500000
0.286591 0.537241 0.184146 -0.597700 -0.711380 -0.369721 123 128 124 0.500000
0.177266 0.851995 0.296315 0.551463 -0.000000 0.834200 51 51 51 1.000000
0.140431 0.961409 0.080325 0.000000 -1.000000 -0.000000 51 51 51 1.000000
-0.327048 0.517813 -0.116058 0.937313 -0.000000 0.348489 123 128 124 0.500000
0.184993 -0.002403 -0.283118 0.552574 0.000000 -0.833464 133 128 117 1.000000
-0.067193 0.198596 -0.317074 -0.190026 0.000000 -0.981779 111 108 111 1.000000
0.099582 -0.895492 0.293267 0.376658 -0.176761 0.909332 122 117 107 1.000000
-0.123545 -0.655210 -0.325382 0.000000 -0.000062 1.000000 109 108 103 1.000000
-0.171727 -0.684908 -0.323785 0.376658 0.176761 0.909332 123 128 124 0.500000
-0.331331 0.871893 -0.105717 0.948147 -0.000000 0.317831 51 51 51 1.000000
0.025226 0.214118 -0.338561 -0.088330 -0.000000 0.996091 123 128 124 0.500000
0.093846 0.025191 -0.308306 0.302402 0.000000 -0.953181 141 136 137 1.000000
-0.120840 0.641850 -0.248144 0.000000 1.000000 0.000000 121 121 131 1.000000
-0.178879 0.902282 -0.295664 0.502081 -0.000000 0.864820 51 51 51 1.000000
0.038509 0.961409 -0.164982 0.000000 -1.000000 -0.000000 51 51 51 1.000000
0.131493 -0.126609 -0.292712 0.418646 0.000000 -0.908149 112 105 113 1.000000
-0.191871 0.560801 -0.231958 -0.435806 0.713109 -0.549134 123 114 111 1.000000
-0.114055 0.634080 0.282618 0.363730 0.000000 -0.931505 118 117 124 1.000000
0.187599 -0.599724 -0.307035 0.376658 -0.176761 -0.909332 146 140 137 1.000000
-0.059843 0.669898 0.342619 0.159373 0.000000 -0.987218 51 51 51 1.000000
0.163460 -0.813500 0.305239 -0.376658 0.176761 -0.909332 123 128 124 0.500000
0.052495 -0.931945 -0.320911 0.376658 -0.176761 -0.909332 123 128 124 0.500000
0.002724 -0.210080 0.331481 0.023914 -0.000000 0.999714 123 116 111 1.000000
0.218008 0.972566 0.028152 0.994017 -0.000000 0.109229 51 51 51 1.000000
-0.307745 0.641850 0.135721 0.000000 1.000000 0.000000 123 128 124 0.500000
-0.045878 0.974724 0.185487 0.000000 1.000000 0.000000 51 51 51 1.000000
0.267162 0.503081 -0.177147 -0.833094 -0.000000 0.553132 66 67 69 1.000000
-0.345038 0.314922 0.051263 -0.990325 -0.000000 0.138765 104 99 95 1.000000
-0.228746 -0.649359 -0.303663 -0.649969 -0.081813 -0.755544 123 128 124 0.500000
-0.036311 -0.332292 -0.342698 0.000000 -0.000062 1.000000 123 128 124 0.500000
-0.304740 -0.078475 0.132336 -0.918819 -0.000000 0.394680 140 139 138 1.000000
-0.072578 0.034884 -0.333675 -0.196110 0.000000 -0.980582 69 69 52 1.000000
-0.084933 0.563336 -0.287414 -0.264469 0.000000 -0.964394 145 136 135 1.000000
0.319924 0.051898 0.032780 0.996004 -0.000000 0.089311 102 94 95 1.000000
-0.128905 0.302117 -0.316600 0.360550 -0.000000 0.932740 123 128 124 0.500000
0.019728 -0.754484 0.332648 0.000000 0.000062 1.000000 74 69 70 1.000000
0.326766 -0.380840 0.222416 0.774748 -0.019901 0.631957 123 128 124 0.500000
0.275003 0.641850 -0.076514 0.000000 -1.000000 -0.000000 92 91 93 1.000000
0.242684 0.302784 0.216314 -0.758835 0.000000 -0.651283 122 105 106 1.000000
0.263896 -0.763002 -0.212956 0.737423 -0.101279 -0.667794 116 112 114 1.000000
-0.193490 -0.129334 0.270088 -0.577268 -0.000000 0.816554 126 121 121 1.000000
-0.125523 -0.504057 0.349965 0.000000 -0.000062 -1.000000 123 128 124 0.500000
-0.336928 0.760860 -0.092206 -0.960727 0.000000 -0.277495 51 51 51 1.000000
-0.311969 -0.220442 -0.152461 0.891304 -0.000000 0.453407 123 128 124 0.500000
0.046004 -0.916004 0.137302 0.000000 1.000000 0.000000 111 105 105 1.000000
0.337772 0.664683 -0.021429 0.997614 0.000000 -0.069041 51 51 51 1.000000
0.335117 0.608659 -0.041590 -0.970584 0.203284 0.129008 123 128 124 0.500000
0.243381 0.316794 -0.208138 -0.761111 -0.000000 0.648621 109 97 92 1.000000
0.248179 0.506267 -0.230076 -0.734954 -0.000000 0.678117 123 128 124 0.500000
0.156925 0.947534 -0.193913 -0.263044 -0.914872 0.306294 51 51 51 1.000000
-0.043138 -0.789062 -0.325382 0.000000 -0.000062 1.000000 118 106 111 1.000000
0.101237 0.534478 -0.323820 0.308912 0.000000 -0.951091 123 128 124 0.500000
-0.040596 -0.591635 0.349965 0.000000 0.000062 1.000000 123 128 124 0.500000
0.020777 0.641850 -0.004516 0.000000 1.000000 0.000000 96 82 89 1.000000
-0.001484 0.961409 0.084828 0.000000 -1.000000 -0.000000 51 51 51 1.000000
0.334842 0.665490 0.050949 0.990453 -0.000000 0.137849 51 51 51 1.000000
-0.252222 -0.812194 0.238703 0.710839 0.108865 -0.694879 136 127 128 1.000000
0.132497 -0.565056 -0.342698 0.000000 -0.000062 1.000000 123 128 124 0.500000
0.303681 -0.093845 -0.147755 0.897902 0.000000 -0.440196 136 161 171 1.000000
0.313625 0.602026 -0.123749 0.856903 -0.385284 -0.342452 123 128 124 0.500000
0.267484 0.704134 -0.204917 0.794232 0.000000 -0.607614 51 51 51 1.000000
0.076778 0.827942 0.339041 0.237202 -0.000000 0.971460 51 51 51 1.000000
0.124798 -0.851143 -0.284176 -0.376658 0.176761 0.909332 100 91 92 1.000000
-0.302811 -0.749836 -0.149966 -0.909332 -0.176761 -0.376658 130 129 136 1.000000
-0.294433 -0.538321 0.239780 -0.739949 -0.066613 0.669357 139 135 142 1.000000
-0.083157 -0.505816 -0.325382 0.000000 -0.000062 1.000000 72 69 81 1.000000
-0.167255 0.777871 -0.300715 0.470176 -0.000000 0.882572 51 51 51 1.000000
0.196530 -0.776026 -0.291558 0.376658 -0.176761 -0.909332 123 128 124 0.500000
-0.349824 0.762827 0.014905 -0.999466 -0.000000 0.032683 51 51 51 1.000000
0.320719 0.543702 -0.084744 -0.679392 -0.710275 0.184219 123 128 124 0.500000
-0.141771 0.209983 0.299962 -0.418769 -0.000000 0.908093 136 137 146 1.000000
-0.300752 0.153057 0.182171 -0.856011 -0.000000 0.516958 64 85 96 1.000000
-0.146815 -0.308558 0.332648 0.000000 -0.000062 -1.000000 118 106 111 1.000000
0.335877 0.411799 0.043089 0.993373 -0.000000 0.114939 74 99 83 1.000000
0.250241 -0.637189 -0.255402 0.702289 -0.081919 -0.707163 142 138 136 1.000000
0.283540 -0.916004 0.041290 0.000000 1.000000 0.000000 146 144 149 1.000000
0.203130 0.214872 0.276469 -0.601917 0.000000 -0.798559 123 128 124 0.500000
0.305952 -0.049904 0.149541 -0.905355 0.000000 -0.424656 123 128 124 0.500000
0.304853 -0.610778 0.192849 -0.909332 0.176761 -0.376658 111 110 115 1.000000
0.332953 0.508375 0.065296 -0.983770 0.000000 -0.179433 123 128 124 0.500000
0.147962 -0.084689 0.293157 -0.467418 0.000000 -0.884036 105 108 116 1.000000
-0.350948 0.399715 0.006365 0.999969 0.000000 -0.007898 123 128 124 0.500000
-0.002762 0.641850 0.217953 0.000000 1.000000 0.000000 123 118 119 1.000000
-0.268448 -0.047676 0.196078 -0.807375 -0.000000 0.590039 83 63 62 1.000000
-0.351403 -0.715421 0.003040 -1.000000 0.000062 0.000000 123 128 124 0.500000
-0.138566 -0.203954 -0.312598 0.388793 -0.000000 0.921325 123 128 124 0.500000
0.335044 -0.236458 0.049415 -0.991064 0.000000 -0.133384 123 128 124 0.500000
-0.316391 0.828923 -0.141786 -0.906005 0.000000 -0.423266 51 51 51 1.000000
-0.267457 0.492037 0.225561 0.763461 0.000000 -0.645854 123 128 124 0.500000
0.283767 0.641850 0.011455 0.000000 1.000000 0.000000 119 104 103 1.000000
-0.332854 0.391589 0.109308 -0.951748 -0.000000 0.306879 76 81 90 1.000000
0.197817 0.641850 0.069347 0.000000 -1.000000 -0.000000 106 107 112 1.000000
-0.310292 -0.647610 -0.179878 -0.909332 -0.176761 -0.376658 138 137 145 1.000000
-0.078394 0.641850 0.120422 0.000000 1.000000 0.000000 125 134 135 1.000000
-0.146841 -0.023001 -0.290595 -0.433957 0.000000 -0.900934 134 129 127 1.000000
0.251119 0.806250 -0.226245 -0.744355 -0.000000 0.667785 51 51 51 1.000000
-0.224265 -0.366077 0.310250 -0.646439 -0.014724 0.762824 110 105 105 1.000000
-0.351450 -0.427750 -0.191278 -1.000000 0.000062 0.000000 123 128 124 0.500000
0.162943 -0.669940 -0.326092 0.376658 -0.176761 -0.909332 123 128 124 0.500000
0.325444 -0.390002 -0.216871 0.772974 -0.022752 -0.634029 123 128 124 0.500000
-0.197693 -0.201890 -0.281228 0.560057 -0.000000 0.828454 123 128 124 0.500000
-0.320240 -0.130773 0.139761 0.918007 0.000000 -0.396564 123 128 124 0.500000
0.003736 0.124031 -0.341390 -0.025655 -0.000000 0.999671 123 128 124 0.500000
0.145734 0.013783 0.294080 0.460921 -0.000000 0.887441 102 103 99 1.000000
0.293239 -0.550271 -0.251937 -0.731961 0.067407 0.678004 123 128 124 0.500000
-0.330343 -0.115537 0.031403 -0.996375 -0.000000 0.085074 115 111 114 1.000000
0.256524 -0.053247 -0.219201 0.761309 0.000000 -0.648389 254 254 254 1.000000
0.178920 0.859701 -0.287778 0.533970 0.000000 -0.845503 51 51 51 1.000000
0.228896 -0.543828 -0.286452 -0.667288 0.067455 0.741739 115 86 80 1.000000
0.187247 0.572621 -0.226191 -0.641846 -0.000000 0.766834 156 154 165 1.000000
0.030095 0.477473 -0.337920 -0.102556 -0.000000 0.994727 123 128 124 0.500000
0.316832 -0.193566 -0.116007 0.937356 0.000000 -0.348374 123 128 124 0.500000
-0.024671 0.641850 0.300082 0.000000 1.000000 0.000000 100 94 98 1.000000
-0.282562 0.121537 -0.198609 0.808091 -0.000000 0.589058 123 128 124 0.500000
-0.087580 -0.916004 0.002921 0.000000 -1.000000 -0.000000 142 140 152 1.000000
-0.088407 0.121155 -0.314281 0.253429 -0.000000 0.967354 119 115 117 1.000000
0.064555 0.338040 0.340651 0.202454 -0.000000 0.979292 91 95 63 1.000000
0.297275 0.234269 0.125643 -0.927349 0.000000 -0.374197 107 101 112 1.000000
-0.279371 -0.634907 0.239629 0.729690 0.081556 -0.678897 114 104 103 1.000000
0.000241 0.421576 0.349118 -0.015512 0.000000 -0.999880 123 128 124 0.500000
0.232530 -0.916004 0.119622 0.000000 1.000000 0.000000 110 94 90 1.000000
-0.096489 -0.597412 0.349965 0.000000 -0.000062 -1.000000 123 128 124 0.500000
0.010241 0.918929 0.323546 -0.018034 -0.914542 -0.404088 51 51 51 1.000000
0.302115 -0.266369 -0.158854 0.622818 0.709887 -0.328874 123 128 124 0.500000
0.084768 -0.596658 -0.342698 0.000000 -0.000062 1.000000 123 128 124 0.500000
-0.226493 -0.815586 -0.253205 -0.376658 -0.176761 -0.909332 133 124 129 1.000000
-0.197543 -0.281522 -0.303973 0.373705 -0.711615 0.594936 123 128 124 0.500000
-0.181719 0.344076 -0.293486 0.510936 -0.000000 0.859619 123 128 124 0.500000
-0.141694 0.602963 0.318570 -0.370940 -0.361593 0.855368 123 128 124 0.500000
-0.343256 -0.841445 -0.063635 -0.909332 -0.176761 -0.376658 123 128 124 0.500000
0.097006 0.465533 0.314264 0.312318 -0.000000 0.949978 138 123 131 1.000000
0.298940 -0.715523 0.212270 0.909332 -0.176761 0.376658 123 128 124 0.500000
-0.099293 0.641850 0.190580 0.000000 -1.000000 -0.000000 119 118 119 1.000000
-0.334133 -0.679717 -0.044260 1.000000 -0.000062 -0.000000 90 80 78 1.000000
-0.163023 -0.916004 0.079372 0.000000 1.000000 0.000000 101 96 97 1.000000
0.289209 -0.317736 0.232631 -0.553867 -0.713151 -0.429706 119 121 125 1.000000
0.099660 0.392356 -0.324473 0.304208 0.000000 -0.952606 178 214 77 1.000000
0.100863 -0.673158 -0.342698 0.000000 -0.000062 1.000000 123 128 124 0.500000
0.316285 0.745154 0.124594 -0.935859 0.000000 -0.352376 51 51 51 1.000000
-0.257527 -0.872715 -0.201624 -0.909332 -0.176761 -0.376658 104 92 91 1.000000
-0.298178 -0.052994 -0.178258 -0.849650 0.000000 -0.527347 217 222 229 1.000000
-0.343416 0.193355 -0.056310 0.984662 -0.000000 0.174474 123 128 124 0.500000
-0.229762 0.016629 0.242256 -0.685459 -0.000000 0.728112 66 50 58 1.000000
-0.327178 -0.281389 -0.162308 0.631636 -0.706539 0.319122 123 128 124 0.500000
0.207709 -0.188785 -0.244056 0.651714 0.000000 -0.758465 144 131 133 1.000000
0.102132 0.033069 0.330716 -0.311579 0.000000 -0.950220 123 128 124 0.500000
-0.304168 0.019769 0.133717 -0.917000 -0.000000 0.398887 108 104 109 1.000000
-0.342358 0.073693 0.071613 0.980282 0.000000 -0.197602 123 128 124 0.500000
-0.107963 -0.916004 0.154633 0.000000 -1.000000 -0.000000 62 66 84 1.000000
0.290174 0.605482 0.054734 0.985355 -0.000000 0.170516 68 61 64 1.000000
-0.059879 -0.272810 -0.342639 0.000000 0.000062 -1.000000 123 128 124 0.500000
-0.351406 -0.488327 0.041118 1.000000 -0.000062 -0.000000 123 128 124 0.500000
-0.328477 -0.628982 0.206287 -0.909332 -0.176761 0.376658 123 128 124 0.500000
0.287552 -0.422041 0.273521 0.720939 -0.032898 0.692217 123 128 124 0.500000
0.196373 -0.929086 -0.261871 0.376658 -0.176761 -0.909332 123 128 124 0.500000
0.110416 -0.900931 -0.302948 -0.376658 0.176761 0.909332 123 128 124 0.500000
-0.162884 -0.942634 0.152937 0.000000 1.000000 0.000000 123 128 124 0.500000
0.054247 -0.188118 -0.317431 -0.181821 -0.000000 0.983332 133 121 126 1.000000
0.339285 -0.595650 -0.163856 -0.909332 0.176761 0.376658 123 128 124 0.500000
-0.045425 -0.505044 0.349965 0.000000 -0.000062 -1.000000 123 128 124 0.500000
0.197331 0.309080 -0.252020 -0.620810 -0.000000 0.783961 117 109 112 1.000000
-0.056650 0.641850 -0.152638 0.000000 1.000000 0.000000 94 84 83 1.000000
-0.250696 -0.283296 0.272689 0.475542 -0.711759 -0.516971 123 128 124 0.500000
0.341213 -0.557626 -0.070949 1.000000 0.000062 0.000000 123 128 124 0.500000
-0.172897 0.974724 0.149860 0.000000 -1.000000 -0.000000 51 51 51 1.000000
-0.210480 0.790471 0.278683 0.598274 0.000000 -0.801292 51 51 51 1.000000
-0.334133 -0.592073 -0.112533 -1.000000 0.000062 0.000000 125 102 100 1.000000
0.341145 -0.542584 -0.184270 -0.909332 0.176761 0.376658 123 128 124 0.500000
-0.032546 -0.883370 0.327631 -0.376658 -0.176761 0.909332 117 111 112 1.000000
-0.236132 0.067613 -0.251733 0.670861 -0.000000 0.741583 123 128 124 0.500000
0.136405 0.929523 -0.257644 -0.194330 -0.914233 0.355547 51 51 51 1.000000
-0.351450 -0.498048 -0.160282 1.000000 -0.000062 -0.000000 123 128 124 0.500000
0.253488 0.401378 -0.223157 0.751842 0.000000 -0.659343 93 120 122 1.000000
0.338530 0.757714 -0.015671 0.999335 0.000000 -0.036458 51 51 51 1.000000
0.176414 0.079050 0.275337 -0.555541 0.000000 -0.831489 88 72 74 1.000000
0.045929 0.578536 -0.291666 -0.170340 -0.000000 0.985385 108 107 115 1.000000
0.328974 0.882653 -0.086693 -0.965341 -0.000000 0.260993 51 51 51 1.000000
-0.205484 -0.664582 0.298527 -0.376658 -0.176761 0.909332 115 106 99 1.000000
0.337405 0.359066 -0.024212 0.996712 0.000000 -0.081028 127 144 131 1.000000
-0.339782 -0.558807 0.210141 0.781561 0.068290 -0.620080 123 128 124 0.500000
-0.026444 0.961409 -0.093929 0.000000 -1.000000 -0.000000 51 51 51 1.000000
0.320246 0.462854 -0.023073 0.996648 0.000000 -0.081807 95 95 100 1.000000
-0.033269 0.302848 0.346117 0.081918 0.000000 -0.996639 123 128 124 0.500000
0.265517 -0.351688 -0.288462 -0.693385 0.010925 0.720485 123 128 124 0.500000
0.095710 0.961409 -0.022490 0.000000 1.000000 0.000000 51 51 51 1.000000
-0.229857 0.095861 0.242184 -0.685722 -0.000000 0.727864 136 141 143 1.000000
0.268066 0.085915 0.183235 -0.835592 0.000000 -0.549351 105 99 103 1.000000
0.160014 0.757164 -0.299473 0.478410 0.000000 -0.878137 51 51 51 1.000000
0.086077 0.715413 0.337366 -0.264374 0.000000 -0.964420 51 51 51 1.000000
-0.173414 0.405710 -0.278226 0.512658 -0.000000 0.858593 139 137 136 1.000000
-0.077158 -0.744590 -0.325382 0.000000 -0.000062 1.000000 137 136 139 1.000000
-0.334131 -0.600658 0.050514 1.000000 -0.000062 -0.000000 140 133 135 1.000000
0.153882 0.961409 -0.034751 0.000000 1.000000 0.000000 51 51 51 1.000000
0.087603 -0.213840 0.318159 0.282768 -0.000000 0.959188 126 123 123 1.000000
-0.252959 0.462271 -0.208998 -0.758958 0.000000 -0.651139 103 99 92 1.000000
-0.026891 -0.597892 -0.325382 0.000000 0.000062 -1.000000 137 133 135 1.000000
-0.261632 0.603757 0.233152 -0.700792 -0.340160 0.627042 123 128 124 0.500000
-0.116583 0.489769 -0.303128 0.341511 -0.000000 0.939878 112 112 120 1.000000
0.014565 -0.942634 0.341192 0.000000 1.000000 0.000000 123 128 124 0.500000
0.032045 -0.374232 0.332648 0.000000 0.000062 1.000000 133 128 126 1.000000
-0.274610 0.874539 -0.208971 -0.785098 0.000000 -0.619372 51 51 51 1.000000
0.009432 -0.127433 -0.323331 0.044456 0.000000 -0.999011 118 109 106 1.000000
-0.269824 0.694251 0.222476 0.770715 0.000000 -0.637181 51 51 51 1.000000
-0.327322 0.422214 0.054350 0.987837 0.000000 -0.155490 109 100 107 1.000000
-0.265027 0.597594 -0.149525 0.861541 -0.000000 0.507688 140 130 128 1.000000
0.044929 -0.942634 -0.088067 0.000000 -1.000000 -0.000000 123 128 124 0.500000
0.173643 -0.703399 0.299930 -0.376658 0.176761 -0.909332 154 151 161 1.000000
-0.115872 0.017036 -0.303423 -0.339298 0.000000 -0.940679 128 123 130 1.000000
0.273976 0.562568 0.112305 -0.931853 0.000000 -0.362836 107 91 97 1.000000
0.096390 -0.916004 0.072193 0.000000 -1.000000 -0.000000 95 97 98 1.000000
-0.152373 0.961409 -0.022929 0.000000 -1.000000 -0.000000 51 51 51 1.000000
0.316027 -0.693094 -0.174277 0.909332 -0.176761 -0.376658 123 128 124 0.500000
0.000771 0.593154 -0.332954 0.009333 -0.735494 -0.677467 123 128 124 0.500000
0.073941 0.641850 0.290746 0.000000 1.000000 0.000000 141 136 129 1.000000
0.338010 0.861737 0.026881 -0.996194 0.000000 -0.087161 51 51 51 1.000000
0.311730 -0.300752 0.168772 0.626120 0.709741 0.322865 136 135 131 1.000000
0.259711 -0.942634 -0.192441 0.000000 -1.000000 -0.000000 123 128 124 0.500000
0.326707 -0.122948 -0.092168 -0.960760 -0.000000 0.277381 123 128 124 0.500000
-0.163678 0.602637 -0.252131 0.526906 -0.000000 0.849923 111 107 113 1.000000
0.187004 -0.942634 0.111404 0.000000 -1.000000 -0.000000 123 128 124 0.500000
-0.177067 -0.497220 0.349965 0.000000 -0.000062 -1.000000 123 128 124 0.500000
-0.230870 -0.490774 -0.297916 -0.653889 -0.055607 -0.754544 68 67 78 1.000000
-0.052579 -0.921394 -0.327168 -0.376658 -0.176761 -0.909332 123 128 124 0.500000
-0.336328 -0.746352 0.132253 -0.909332 -0.176761 0.376658 123 128 124 0.500000
0.125673 0.954507 0.205553 -0.220948 -0.914665 -0.338481 51 51 51 1.000000
-0.209164 0.147272 -0.272426 0.594395 -0.000000 0.804173 123 128 124 0.500000
0.179953 0.974724 0.130548 0.000000 1.000000 0.000000 51 51 51 1.000000
0.124470 -0.940676 0.296668 0.376658 -0.176761 0.909332 123 128 124 0.500000
0.077773 -0.716041 -0.325382 0.000000 0.000062 -1.000000 76 70 78 1.000000
0.006905 -0.775791 -0.342698 0.000000 0.000062 -1.000000 123 128 124 0.500000
-0.334133 -0.496324 -0.111704 1.000000 -0.000062 -0.000000 136 136 146 1.000000
-0.304158 -0.141606 -0.126474 0.916968 -0.000000 0.398960 113 111 98 1.000000
-0.216481 0.691571 0.274078 0.615785 0.000000 -0.787914 51 51 51 1.000000
-0.175222 0.961409 0.058889 0.000000 1.000000 0.000000 51 51 51 1.000000
-0.100717 0.961409 -0.047221 0.000000 -1.000000 -0.000000 51 51 51 1.000000
0.321830 0.705072 -0.103941 -0.949903 -0.000000 0.312544 51 51 51 1.000000
0.113541 0.536590 0.324626 -0.264937 -0.707561 -0.655108 123 128 124 0.500000
0.125527 0.174967 0.302450 0.400594 -0.000000 0.916256 136 131 125 1.000000
0.290198 0.924073 0.094748 -0.387303 -0.914390 -0.117846 51 51 51 1.000000
0.041461 0.315711 -0.336424 0.135709 0.000000 -0.990749 120 116 93 1.000000
0.024658 -0.726977 -0.342698 0.000000 0.000062 -1.000000 123 128 124 0.500000
0.120386 -0.342628 -0.342698 0.000000 -0.000062 1.000000 123 128 124 0.500000
0.317812 0.536403 -0.033340 -0.696539 -0.713103 0.079483 121 110 101 1.000000
0.229852 0.665990 0.255963 -0.681486 0.000000 -0.731831 51 51 51 1.000000
-0.068672 -0.075941 -0.334189 0.184883 -0.000000 0.982761 123 128 124 0.500000
-0.000316 0.062922 -0.341924 0.013897 0.000000 -0.999903 41 40 37 1.000000
0.192134 -0.045624 -0.256007 -0.604939 -0.000000 0.796271 115 102 101 1.000000
0.323897 -0.745620 0.040413 -1.000000 -0.000062 -0.000000 126 119 122 1.000000
-0.334101 -0.426387 0.055522 -1.000000 0.000062 0.000000 74 66 72 1.000000
-0.342699 0.906875 0.069026 -0.981750 -0.000000 0.190175 51 51 51 1.000000
0.175441 0.362326 -0.268816 -0.552425 -0.000000 0.833562 127 123 126 1.000000
0.049123 -0.508959 -0.342698 0.000000 -0.000062 1.000000 123 128 124 0.500000
0.320505 -0.886219 -0.018532 -0.909332 0.176761 0.376658 109 103 111 1.000000
0.204337 -0.942634 -0.019628 0.000000 -1.000000 -0.000000 123 128 124 0.500000
0.009657 -0.916004 -0.129985 0.000000 1.000000 0.000000 122 116 111 1.000000
0.037436 -0.557467 0.349965 0.000000 0.000062 1.000000 123 128 124 0.500000
0.071406 -0.131667 0.322439 -0.233405 0.000000 -0.972380 139 128 132 1.000000
-0.276288 0.187670 -0.206785 0.790045 -0.000000 0.613049 123 128 124 0.500000
-0.237500 -0.942634 0.014613 0.000000 1.000000 0.000000 123 128 124 0.500000
-0.126909 -0.412671 0.332648 0.000000 0.000062 1.000000 114 98 98 1.000000
0.302269 0.640817 0.126336 -0.669807 -0.691835 -0.269671 123 128 124 0.500000
-0.238468 -0.548344 -0.286252 0.666928 0.068151 0.741999 95 95 100 1.000000
-0.252584 0.440750 0.244943 0.715956 0.000000 -0.698145 123 128 124 0.500000
0.157804 0.641850 0.234278 0.000000 -1.000000 -0.000000 116 109 105 1.000000
-0.302831 0.633467 -0.029084 0.994016 -0.000000 0.109238 129 131 135 1.000000
-0.031714 -0.942634 0.176769 0.000000 -1.000000 -0.000000 123 128 124 0.500000
0.156051 0.777313 0.308382 0.487682 -0.000000 0.873022 51 51 51 1.000000
-0.157090 0.641850 0.007618 0.000000 1.000000 0.000000 91 89 94 1.000000
-0.050302 0.493133 0.326565 -0.138567 -0.000000 0.990353 114 110 126 1.000000
0.129182 0.346768 -0.312245 -0.391270 -0.000000 0.920276 123 128 124 0.500000
0.150340 0.270849 -0.303481 -0.451626 -0.000000 0.892207 123 128 124 0.500000
-0.340069 0.141192 0.089007 -0.969019 -0.000000 0.246987 67 68 67 1.000000
0.184672 -0.942634 0.271297 0.000000 -1.000000 -0.000000 123 128 124 0.500000
0.119680 0.853077 -0.316180 -0.363526 -0.000000 0.931584 51 51 51 1.000000
0.112407 -0.795183 0.307453 0.376658 -0.176761 0.909332 84 78 99 1.000000
0.049671 -0.818842 -0.321574 0.376658 -0.176761 -0.909332 120 109 103 1.000000
0.060909 0.959518 -0.216491 -0.116561 -0.914339 0.387811 51 51 51 1.000000
0.226094 0.399561 0.258847 -0.667856 0.000000 -0.744290 123 128 124 0.500000
0.229759 0.901492 0.250579 0.000000 1.000000 0.000000 51 51 51 1.000000
-0.351363 -0.336196 0.032557 -1.000000 0.000062 0.000000 123 128 124 0.500000
0.201719 -0.352083 0.344684 -0.617302 0.010950 -0.786650 123 128 124 0.500000
-0.252472 0.641850 -0.000817 0.000000 1.000000 0.000000 105 99 91 1.000000
0.331480 0.069212 -0.069220 -0.977369 -0.000000 0.211542 123 128 124 0.500000
0.341213 -0.709560 -0.032789 -1.000000 -0.000062 -0.000000 123 128 124 0.500000
0.320479 0.464958 0.028565 0.997081 -0.000000 0.076349 140 139 142 1.000000
-0.294316 -0.787238 0.214493 -0.909332 -0.176761 0.376658 123 128 124 0.500000
-0.160630 -0.485867 -0.342698 0.000000 0.000062 -1.000000 123 128 124 0.500000
0.341201 -0.651935 0.039238 -1.000000 -0.000062 -0.000000 123 128 124 0.500000
-0.061369 -0.697578 -0.342698 0.000000 -0.000062 1.000000 123 128 124 0.500000
-0.113854 -0.916004 -0.040142 0.000000 1.000000 0.000000 123 116 118 1.000000
-0.339688 0.020065 0.091901 -0.966916 -0.000000 0.255095 47 54 51 1.000000
-0.216079 0.641850 -0.084724 0.000000 -1.000000 -0.000000 52 52 54 1.000000
-0.242879 -0.916004 0.087463 0.000000 1.000000 0.000000 94 86 88 1.000000
-0.277830 0.657443 -0.204775 -0.794548 0.000000 -0.607201 51 51 51 1.000000
0.037549 0.616633 0.344206 -0.124187 -0.044678 -0.991252 123 128 124 0.500000
-0.002682 0.000932 0.349502 0.007043 -0.000000 0.999975 107 101 79 1.000000
-0.017850 0.641850 -0.290563 0.000000 1.000000 0.000000 120 114 111 1.000000
0.222544 -0.793149 -0.252147 -0.684219 0.105949 0.721539 78 77 76 1.000000
0.052224 -0.632418 0.349965 0.000000 0.000062 1.000000 123 128 124 0.500000
-0.213645 -0.020756 0.276255 0.607544 0.000000 -0.794286 123 128 124 0.500000
-0.162810 0.167073 -0.302556 -0.457860 0.000000 -0.889024 13 14 18 1.000000
-0.236234 -0.916004 0.157225 0.000000 -1.000000 -0.000000 130 129 130 1.000000
0.300296 0.831315 -0.155928 -0.886329 -0.000000 0.463056 51 51 51 1.000000
0.061641 0.961409 -0.069060 0.000000 1.000000 0.000000 51 51 51 1.000000
-0.323945 -0.449609 0.206868 0.779057 0.042006 -0.625544 63 53 53 1.000000
-0.339784 0.816645 0.091166 0.967456 0.000000 -0.253040 51 51 51 1.000000
0.129261 0.696822 -0.312212 -0.391500 -0.000000 0.920178 51 51 51 1.000000
0.315655 -0.912122 0.079654 -0.909332 0.176761 -0.376658 123 128 124 0.500000
0.076592 -0.406051 0.349965 0.000000 0.000062 1.000000 123 128 124 0.500000
0.097712 0.918112 -0.301224 0.133942 0.914877 -0.380867 51 51 51 1.000000
-0.109622 0.401179 -0.324587 -0.303386 0.000000 -0.952868 185 195 220 1.000000
0.133829 -0.243251 -0.291745 -0.425660 -0.000000 0.904883 127 124 131 1.000000
0.278540 0.328648 -0.162319 0.863136 0.000000 -0.504972 135 126 125 1.000000
0.206260 0.309466 0.274067 0.607279 -0.000000 0.794489 110 116 149 1.000000
0.153987 -0.450978 0.349965 0.000000 -0.000062 -1.000000 123 128 124 0.500000
0.053884 -0.916004 -0.246216 0.000000 1.000000 0.000000 133 123 122 1.000000
-0.127357 0.453599 0.305933 -0.374874 -0.000000 0.927076 105 112 127 1.000000
-0.011880 0.937514 0.282861 -0.012139 0.914337 0.404773 51 51 51 1.000000
-0.107294 -0.895099 -0.309615 -0.376658 -0.176761 -0.909332 123 128 124 0.500000
-0.294297 -0.498902 -0.238239 0.736603 0.058385 0.673801 71 74 77 1.000000
-0.351450 -0.798633 0.056882 1.000000 -0.000062 -0.000000 123 128 124 0.500000
0.091349 0.628944 -0.280516 -0.321474 -0.000000 0.946918 103 93 100 1.000000
-0.185374 -0.916004 -0.164425 0.000000 1.000000 0.000000 121 121 125 1.000000
0.323897 -0.512388 -0.106470 -1.000000 -0.000062 -0.000000 149 150 154 1.000000
-0.058799 0.641850 -0.050917 0.000000 -1.000000 -0.000000 137 134 141 1.000000
-0.225689 -0.916004 -0.196889 0.000000 1.000000 0.000000 155 149 152 1.000000
0.136496 0.263267 0.316482 0.412381 -0.000000 0.911011 40 43 48 1.000000
-0.350419 0.870829 0.010384 -0.999809 -0.000000 0.019547 51 51 51 1.000000
0.332148 0.800179 0.071413 0.980425 -0.000000 0.196895 51 51 51 1.000000
-0.011662 -0.916004 -0.202148 0.000000 1.000000 0.000000 136 135 131 1.000000
-0.298712 0.603755 0.067641 0.977050 0.000000 -0.213011 117 108 107 1.000000
-0.172618 -0.857873 -0.267301 0.376658 0.176761 0.909332 122 108 104 1.000000
-0.255577 -0.253770 -0.233775 -0.725762 0.000000 -0.687946 123 128 124 0.500000
0.341213 -0.415510 0.114227 -1.000000 -0.000062 -0.000000 123 128 124 0.500000
0.323897 -0.611841 0.128516 -1.000000 -0.000062 -0.000000 106 94 95 1.000000
-0.012763 -0.436336 -0.325382 0.000000 -0.000062 1.000000 116 107 102 1.000000
0.297823 0.023094 -0.161899 -0.877540 -0.000000 0.479503 123 128 124 0.500000
-0.261945 0.180923 0.204553 -0.787616 -0.000000 0.616166 109 109 124 1.000000
-0.342951 0.598788 0.043231 0.846936 0.520127 -0.110300 123 128 124 0.500000
-0.296508 0.319012 -0.144943 -0.890875 0.000000 -0.454248 126 125 134 1.000000
0.268209 -0.916004 -0.055784 0.000000 1.000000 0.000000 145 141 137 1.000000
-0.066024 0.614159 0.297635 0.202855 0.000000 -0.979209 84 79 87 1.000000
-0.308550 -0.942634 0.065872 0.000000 1.000000 0.000000 123 128 124 0.500000
-0.159503 -0.916004 0.262220 0.000000 -1.000000 -0.000000 143 138 135 1.000000
0.052296 -0.889167 0.314083 0.376658 -0.176761 0.909332 81 69 67 1.000000
-0.048373 0.961409 0.003037 0.000000 1.000000 0.000000 51 51 51 1.000000
0.156718 -0.753838 -0.312362 -0.376658 0.176761 0.909332 123 128 124 0.500000
0.298886 -0.702800 0.164068 0.909332 -0.176761 0.376658 139 133 131 1.000000
0.044982 0.453080 0.343227 0.145952 -0.000000 0.989292 17 27 28 1.000000
0.333254 -0.184823 0.063010 -0.984951 0.000000 -0.172834 123 128 124 0.500000
-0.351450 -0.289529 0.120421 1.000000 -0.000062 -0.000000 123 128 124 0.500000
-0.104768 -0.168524 -0.326597 0.288891 -0.000000 0.957362 123 128 124 0.500000
0.228127 0.709470 -0.250020 -0.676874 -0.000000 0.736099 51 51 51 1.000000
-0.337024 -0.156622 0.099241 0.960927 0.000000 -0.276802 123 128 124 0.500000
0.148475 0.616192 -0.255942 0.509240 0.000000 -0.860625 67 65 71 1.000000
0.126187 -0.431867 -0.325382 0.000000 -0.000062 1.000000 120 109 114 1.000000
0.276637 0.918785 0.158317 -0.356726 -0.914347 -0.191614 51 51 51 1.000000
-0.347883 0.165993 0.029651 0.997132 0.000000 -0.075688 123 128 124 0.500000
-0.232623 0.641850 0.066915 0.000000 1.000000 0.000000 93 87 83 1.000000
-0.080416 -0.295142 0.349965 0.000000 -0.000062 -1.000000 123 128 124 0.500000
-0.283216 0.922732 -0.136869 -0.363857 0.914868 -0.174998 51 51 51 1.000000
-0.334104 -0.292307 -0.070858 1.000000 -0.000062 -0.000000 118 110 106 1.000000
0.226278 0.900416 -0.251438 -0.671899 -0.000000 0.740643 51 51 51 1.000000
-0.020740 -0.885449 -0.342698 0.000000 0.000062 -1.000000 123 128 124 0.500000
0.300161 0.490748 -0.111409 -0.935756 -0.000000 0.352648 149 148 159 1.000000
0.228545 -0.873260 -0.259397 -0.376658 0.176761 0.909332 123 128 124 0.500000
-0.230160 -0.900411 0.264958 -0.376658 -0.176761 0.909332 123 128 124 0.500000
0.018404 -0.942634 -0.287807 0.000000 1.000000 0.000000 123 128 124 0.500000
0.239662 -0.208422 -0.212984 -0.748873 -0.000000 0.662713 132 120 115 1.000000
-0.331552 -0.580226 -0.160176 -0.909332 -0.176761 -0.376658 139 136 138 1.000000
-0.351450 -0.372043 0.179415 -1.000000 0.000062 0.000000 123 128 124 0.500000
-0.000071 0.430151 -0.341891 -0.014608 -0.000000 0.999893 123 128 124 0.500000
-0.065760 0.068331 0.341840 -0.176488 -0.000000 0.984303 25 24 20 1.000000
-0.262352 0.311865 -0.196755 -0.788879 0.000000 -0.614548 120 114 112 1.000000
-0.051196 -0.834790 -0.342698 0.000000 0.000062 -1.000000 123 128 124 0.500000
0.192061 -0.381640 -0.342698 0.000000 -0.000062 1.000000 123 128 124 0.500000
0.186732 -0.916004 -0.169405 0.000000 1.000000 0.000000 128 116 119 1.000000
-0.188267 0.640617 0.240530 -0.611641 -0.000000 0.791135 144 141 145 1.000000
0.323897 -0.508705 0.087910 1.000000 0.000062 0.000000 103 97 102 1.000000
0.218601 0.641850 0.012579 0.000000 1.000000 0.000000 100 90 90 1.000000
-0.290851 0.031592 -0.187806 0.830771 -0.000000 0.556614 123 128 124 0.500000
0.163938 -0.942634 -0.078391 0.000000 -1.000000 -0.000000 123 128 124 0.500000
0.144743 0.883937 0.313066 0.464287 -0.000000 0.885685 51 51 51 1.000000
0.294300 -0.633195 -0.233572 -0.743023 0.079521 0.664525 123 128 124 0.500000
-0.068136 -0.742441 0.332648 0.000000 0.000062 1.000000 103 102 106 1.000000
0.115694 -0.942634 0.223116 0.000000 1.000000 0.000000 123 128 124 0.500000
0.229669 0.550632 0.236329 -0.499998 -0.710349 -0.495385 123 128 124 0.500000
0.224950 0.603036 -0.188414 0.767689 0.000000 -0.640823 110 101 107 1.000000
0.269126 0.854938 0.199202 -0.815173 0.000000 -0.579217 51 51 51 1.000000
-0.153323 0.585807 0.266353 0.491332 0.000000 -0.870973 121 118 124 1.000000
-0.039466 0.354192 -0.320725 0.105305 -0.000000 0.994440 115 100 100 1.000000
0.304586 0.490541 0.107993 -0.947636 0.000000 -0.319354 92 90 91 1.000000
-0.335313 0.408341 -0.096104 -0.957282 0.000000 -0.289156 85 92 104 1.000000
-0.311691 -0.039621 0.160400 -0.890348 -0.000000 0.455280 34 43 58 1.000000
-0.307875 -0.328229 -0.220543 0.757434 0.002206 0.652909 138 136 140 1.000000
0.004279 0.961409 -0.051623 0.000000 1.000000 0.000000 51 51 51 1.000000
-0.333222 0.355515 -0.002266 -0.999838 0.000000 -0.017980 127 121 121 1.000000
0.322339 -0.818736 0.053041 -0.909332 0.176761 -0.376658 112 108 119 1.000000
-0.275541 -0.595381 0.283506 -0.699188 -0.074051 0.711092 123 128 124 0.500000
-0.020766 -0.082244 0.330454 0.047823 0.000000 -0.998856 125 122 114 1.000000
-0.334132 -0.337351 0.091309 1.000000 -0.000062 -0.000000 131 137 138 1.000000
0.238713 0.148923 0.249164 -0.704648 0.000000 -0.709557 123 128 124 0.500000
0.281453 0.618629 0.193980 -0.828203 -0.107038 -0.550111 123 128 124 0.500000
-0.153656 -0.052608 0.295039 0.454133 0.000000 -0.890934 124 126 122 1.000000
0.148072 -0.292150 0.316120 -0.304663 -0.704628 -0.640843 107 103 106 1.000000
0.029238 0.952881 0.244653 0.052809 0.915098 0.399758 51 51 51 1.000000
0.325634 0.329728 0.102025 -0.958489 0.000000 -0.285130 123 128 124 0.500000
-0.208115 0.605766 -0.218033 -0.675368 0.000000 -0.737481 131 131 139 1.000000
-0.324299 -0.062156 0.077306 0.974381 0.000000 -0.224904 145 146 155 1.000000
-0.239836 0.550753 -0.228953 0.500039 -0.710353 0.495338 123 128 124 0.500000
0.177250 0.257500 0.274695 0.558215 -0.000000 0.829696 78 76 83 1.000000
0.323897 -0.573609 0.058454 -1.000000 -0.000062 -0.000000 93 82 81 1.000000
-0.304042 -0.718207 0.169103 -0.909332 -0.176761 0.376658 152 149 160 1.000000
-0.351389 -0.419222 -0.031704 1.000000 -0.000062 -0.000000 123 128 124 0.500000
0.102605 0.641850 -0.185755 0.000000 -1.000000 -0.000000 88 72 74 1.000000
-0.046511 -0.942634 0.227525 0.000000 -1.000000 -0.000000 123 128 124 0.500000
0.072667 0.219381 -0.332315 -0.225572 -0.000000 0.974226 123 128 124 0.500000
-0.210739 -0.246266 -0.249586 -0.630372 0.000000 -0.776293 142 144 147 1.000000
-0.287906 -0.443261 -0.246567 -0.727838 -0.040071 -0.684578 78 74 80 1.000000
-0.211564 -0.916004 -0.113664 0.000000 1.000000 0.000000 123 119 115 1.000000
-0.124252 0.589525 -0.305127 0.190062 0.844308 0.501019 123 128 124 0.500000
0.314068 -0.475474 0.206399 0.779213 -0.050370 0.624732 109 107 116 1.000000
-0.224754 -0.168831 0.267730 0.639420 0.000000 -0.768858 123 128 124 0.500000
-0.283862 0.490679 0.175991 -0.850536 -0.000000 0.525917 146 136 139 1.000000
-0.107906 -0.126514 0.332565 0.298266 0.000000 -0.954483 123 128 124 0.500000
0.172067 0.588590 0.281444 0.228715 -0.895022 0.382917 123 128 124 0.500000
0.003521 0.074434 0.348686 -0.025031 0.000000 -0.999687 123 128 124 0.500000
0.306450 -0.838692 0.136338 -0.909332 0.176761 -0.376658 123 128 124 0.500000
0.157147 0.203321 -0.282086 -0.493837 -0.000000 0.869555 90 83 86 1.000000
0.077495 0.127060 -0.314370 -0.251440 -0.000000 0.967873 123 119 122 1.000000
0.272946 -0.942634 0.137343 0.000000 1.000000 0.000000 123 128 124 0.500000
