ply
format ascii 1.0
element vertex 1264
property float x
property float y
property float z
property uchar red
property uchar green
property uchar blue
end_header
0.076208 -0.330913 -0.144916 153 0 76
0.010060 -0.374304 -0.272818 153 0 76
-0.016625 0.836596 0.258497 76 153 0
-0.061650 -0.000096 -0.176647 76 153 0
-0.067086 -0.429607 -0.108140 76 0 153
-0.062552 0.303821 -0.181510 76 153 0
0.332552 -0.370651 -0.211141 0 255 0
0.347740 -0.401102 -0.213233 0 255 0
-0.051718 -0.468962 -0.258602 153 0 76
-0.061900 0.748396 0.515787 76 153 0
0.042872 0.633691 0.027645 76 153 0
0.086163 -0.328430 -0.158280 76 0 153
0.158022 -0.435734 -0.110923 76 0 153
0.005859 0.745127 0.650998 76 153 0
0.026608 0.725362 0.369901 76 153 0
-0.274838 -0.427514 -0.259151 76 0 153
-0.129453 -0.347653 -0.129220 76 0 153
-0.078194 -0.325313 -0.174140 76 0 153
-0.324946 -0.351805 -0.170169 127 127 0
0.044319 0.318944 0.877194 153 76 0
-0.058008 0.250605 -0.209435 76 153 0
-0.039992 0.702386 0.684662 76 153 0
-0.327530 -0.485597 -0.205183 127 127 0
-0.010681 0.189417 -0.245387 76 153 0
0.368897 -0.425371 -0.222067 0 255 0
0.348580 -0.434242 -0.318670 0 255 0
0.364764 -0.443092 -0.162660 0 255 0
0.374616 -0.500637 -0.176027 0 255 0
-0.080490 -0.424909 -0.146911 153 0 76
0.042932 -0.389489 -0.109841 153 0 76
-0.023914 -0.464476 -0.241149 76 0 153
-0.248619 -0.459044 -0.246568 76 0 153
0.020441 0.648978 0.583441 76 153 0
-0.380071 -0.402325 -0.194926 127 127 0
0.342794 -0.297101 -0.156792 0 255 0
-0.020867 0.264940 -0.243080 76 153 0
-0.207521 -0.375935 -0.261847 76 0 153
0.374828 -0.356712 -0.195060 0 255 0
0.375479 -0.254798 -0.178684 0 255 0
-0.047913 0.688939 0.688335 76 153 0
0.045469 0.392893 -0.208653 76 153 0
0.058776 0.690625 0.021275 76 153 0
-0.035209 0.536853 0.708204 76 153 0
-0.320117 -0.432745 -0.186906 127 127 0
-0.323941 -0.392559 -0.280493 127 127 0
-0.325540 -0.387637 -0.091401 127 127 0
-0.055244 0.712397 0.022597 76 153 0
-0.197363 -0.484730 -0.170169 76 0 153
0.078288 -0.325756 -0.171313 76 0 153
0.331932 -0.463940 -0.210691 0 255 0
-0.285310 -0.353356 -0.173397 76 0 153
0.320315 -0.320469 -0.174638 0 255 0
-0.024200 -0.442383 -0.101114 153 0 76
-0.335106 -0.380347 -0.041530 127 127 0
-0.248488 -0.399489 -0.266783 76 0 153
-0.348707 -0.376086 -0.254071 127 127 0
0.146710 -0.414371 -0.105898 76 0 153
-0.369040 -0.406197 -0.025948 127 127 0
-0.055716 -0.704092 -0.287972 153 0 76
-0.226932 -0.334529 -0.146054 76 0 153
0.332817 -0.475970 -0.211333 0 255 0
-0.044262 0.759741 0.071372 76 153 0
-0.062127 0.077090 -0.188423 76 153 0
0.001597 0.789236 0.088881 76 153 0
0.231975 -0.400929 -0.104878 76 0 153
0.053148 0.144641 -0.213307 76 153 0
0.010045 0.359552 -0.237387 76 153 0
0.036205 0.826007 0.397824 76 153 0
-0.183928 -0.332755 -0.149508 76 0 153
0.069320 -0.219677 -0.209897 153 0 76
0.336991 -0.272230 -0.214366 0 255 0
-0.040159 -0.322882 -0.106709 153 0 76
0.056919 -0.099733 -0.202352 76 153 0
-0.031719 0.183790 -0.132443 76 153 0
-0.344186 -0.434242 -0.238162 127 127 0
-0.322811 -0.290765 -0.176740 127 127 0
0.322011 -0.388712 -0.336260 0 255 0
0.015926 -0.409879 -0.105283 76 0 153
-0.218169 -0.370229 -0.112736 76 0 153
0.054795 0.284822 -0.208487 76 153 0
0.047924 0.606422 0.671530 76 153 0
-0.016180 0.377481 0.784750 76 153 0
0.039871 0.320699 -0.136197 76 153 0
-0.086680 -0.497150 -0.162139 153 0 76
-0.006221 0.714335 0.408609 76 153 0
0.322179 -0.422131 -0.095046 0 255 0
0.372946 -0.288788 -0.200852 0 255 0
-0.088133 -0.300238 -0.167992 153 0 76
-0.037272 0.824577 0.418453 76 153 0
-0.059300 0.664249 0.032693 76 153 0
0.030301 -0.160987 -0.133606 76 153 0
-0.351224 -0.423179 -0.025946 127 127 0
0.053533 -0.701622 -0.083734 76 0 153
0.058195 0.358196 0.869868 76 153 0
0.338704 -0.347501 -0.156792 0 255 0
-0.016505 0.065430 -0.126267 76 153 0
-0.050874 -0.388251 -0.106865 76 0 153
0.013288 0.550730 -0.026310 76 153 0
0.007897 -0.265108 -0.098916 153 0 76
-0.062853 0.783126 0.326243 76 153 0
0.140207 -0.326586 -0.207191 76 0 153
-0.045996 0.304662 0.840413 76 153 0
-0.332724 -0.492426 -0.162784 127 127 0
0.058265 0.398152 -0.179644 76 153 0
-0.046353 0.161784 -0.143616 76 153 0
0.020565 -0.682348 -0.071675 76 0 153
-0.056695 0.451048 0.785665 76 153 0
-0.039944 0.074271 -0.234100 76 153 0
0.037140 0.703451 -0.019390 76 153 0
-0.247334 -0.377956 -0.109003 76 0 153
-0.039722 -0.465840 -0.239770 76 0 153
-0.345178 -0.434242 -0.269027 127 127 0
0.058155 0.793175 0.351154 76 153 0
-0.078244 -0.245010 -0.222007 153 0 76
-0.053709 -0.456385 -0.122819 76 0 153
0.041226 0.540615 -0.153281 76 153 0
-0.062390 0.430240 -0.164725 76 153 0
-0.221182 -0.449780 -0.117879 76 0 153
-0.060400 0.771976 0.485157 76 153 0
-0.359153 -0.550613 -0.156792 127 127 0
0.047942 0.451947 -0.112894 76 153 0
0.340739 -0.497176 -0.214948 0 255 0
-0.016544 -0.484007 -0.205670 76 0 153
-0.286282 -0.373165 -0.164027 76 0 153
-0.243786 -0.358328 -0.252344 76 0 153
0.008666 0.718516 0.687550 76 153 0
-0.065461 -0.468474 -0.246816 153 0 76
0.033135 -0.331170 -0.217987 76 0 153
-0.051253 0.094479 -0.222201 76 153 0
-0.001783 -0.378881 -0.273809 153 0 76
-0.333078 -0.409930 -0.025936 127 127 0
-0.053731 0.572695 0.784358 76 153 0
0.058794 0.775319 0.389783 76 153 0
-0.022304 0.433036 -0.096417 76 153 0
-0.052004 0.744892 0.363863 76 153 0
-0.062304 0.261876 -0.180921 76 153 0
-0.044583 0.680063 0.100111 76 153 0
-0.320167 -0.404172 -0.076608 127 127 0
0.044463 0.430356 0.780460 76 153 0
0.047517 0.768327 0.557280 76 153 0
-0.278223 -0.379516 -0.116606 76 0 153
0.021854 0.316755 -0.238263 76 153 0
0.219892 -0.358062 -0.119582 76 0 153
-0.031204 -0.694986 -0.072548 76 0 153
0.323428 -0.281152 -0.167229 0 255 0
-0.061723 0.770696 0.340677 76 153 0
-0.052478 0.473330 -0.176127 76 153 0
0.044212 -0.302844 -0.110593 153 0 76
-0.086946 -0.449064 -0.163211 153 0 76
0.048943 0.742823 0.271378 76 153 0
-0.053123 0.508028 -0.159851 76 153 0
0.058913 -0.001995 -0.190983 76 153 0
-0.058600 0.746279 0.215854 76 153 0
0.214531 -0.473655 -0.229761 76 0 153
-0.320349 -0.267059 -0.184318 127 127 0
0.016043 0.710789 0.435732 76 153 0
0.035797 0.729797 0.384998 76 153 0
-0.047200 -0.458487 -0.247119 76 0 153
-0.034254 0.311272 0.825163 76 153 0
0.322427 -0.288934 -0.203600 0 255 0
-0.323434 -0.394118 -0.228180 127 127 0
0.249248 -0.325576 -0.170306 76 0 153
-0.325619 -0.422935 -0.043093 127 127 0
0.022965 0.689553 -0.050586 76 153 0
-0.166971 -0.332276 -0.221302 76 0 153
0.000425 0.169822 -0.246211 76 153 0
-0.016958 0.694411 0.172609 76 153 0
-0.087291 -0.294315 -0.206976 153 0 76
0.016942 0.700852 0.188001 76 153 0
0.045980 0.561477 0.799697 76 153 0
-0.017831 -0.669762 -0.291226 76 0 153
-0.046426 0.813254 0.436765 76 153 0
-0.240678 -0.399496 -0.104957 76 0 153
0.027695 0.740606 0.643615 76 153 0
-0.059876 0.154791 -0.167982 76 153 0
0.010287 0.330401 0.807312 76 153 0
-0.065222 -0.251747 -0.243828 153 0 76
-0.027178 -0.133783 -0.130090 76 153 0
0.039987 0.566523 0.694406 76 153 0
-0.320508 -0.407205 -0.258316 127 127 0
0.056952 0.005922 -0.202218 76 153 0
-0.092540 -0.478101 -0.221201 76 0 153
0.005912 0.746897 0.014748 76 153 0
0.059175 0.771763 0.246956 76 153 0
0.048708 0.612435 0.756929 76 153 0
-0.041691 -0.132637 -0.232636 76 153 0
-0.014078 0.687335 0.504204 76 153 0
0.095910 -0.657921 -0.174403 76 0 153
0.327869 -0.382492 -0.207738 0 255 0
-0.052258 0.659904 0.712107 76 153 0
0.071401 -0.369736 -0.136217 153 0 76
-0.377730 -0.415206 -0.140586 127 127 0
-0.008671 0.809232 0.522783 76 153 0
-0.080114 -0.478129 -0.150597 76 0 153
-0.325323 -0.501043 -0.169011 127 127 0
-0.257065 -0.438025 -0.111682 76 0 153
-0.377789 -0.300277 -0.195732 127 127 0
0.052975 0.790981 0.191826 76 153 0
0.054576 0.755662 0.552415 76 153 0
0.037262 0.436507 0.875283 76 153 0
-0.213217 -0.475556 -0.226161 76 0 153
0.028753 0.705982 -0.026042 76 153 0
0.030878 0.420217 -0.107588 76 153 0
-0.041185 0.044806 -0.138661 76 153 0
-0.332290 -0.427935 -0.227726 127 127 0
-0.062642 0.739790 0.128453 76 153 0
-0.141328 -0.464682 -0.130801 76 0 153
0.085312 -0.398520 -0.173390 153 0 76
0.045231 -0.279572 -0.260664 153 0 76
-0.020445 0.828453 0.442096 76 153 0
-0.030321 0.702373 0.483074 76 153 0
0.366412 -0.494328 -0.207883 0 255 0
-0.130790 -0.354444 -0.249334 76 0 153
-0.021209 0.020445 -0.243265 76 153 0
-0.061441 0.414156 -0.150456 76 153 0
-0.045205 -0.210028 -0.132050 76 153 0
0.059559 0.639957 -0.028932 76 153 0
-0.380205 -0.348581 -0.188295 127 127 0
-0.043042 0.617263 -0.102223 76 153 0
0.281926 -0.424458 -0.244606 76 0 153
0.363827 -0.362874 -0.209761 0 255 0
0.012753 0.432608 -0.093772 76 153 0
-0.058701 0.663473 0.629566 76 153 0
0.093697 -0.436628 -0.111093 76 0 153
0.194699 -0.324526 -0.193586 76 0 153
0.038680 0.528661 0.720573 76 153 0
0.288295 -0.373653 -0.183062 76 0 153
0.010320 0.678026 0.732940 76 153 0
0.058822 0.712048 0.091298 76 153 0
0.374496 -0.394952 -0.289057 0 255 0
-0.050140 0.744984 0.059071 76 153 0
-0.013815 0.642472 -0.103050 76 153 0
-0.057619 0.026433 -0.161400 76 153 0
0.058062 0.767881 0.362318 76 153 0
-0.013646 -0.396674 -0.266573 76 0 153
-0.068879 -0.294858 -0.242941 153 0 76
0.015318 0.715398 0.413447 76 153 0
0.366280 -0.383056 -0.269600 0 255 0
-0.058568 -0.644509 -0.257061 153 0 76
0.058004 0.514052 -0.106756 76 153 0
0.011899 0.320118 0.874248 153 76 0
-0.088480 -0.553668 -0.200960 153 0 76
-0.041198 0.527020 0.720670 76 153 0
0.024298 -0.483802 -0.164912 76 0 153
0.048840 0.678835 0.691794 76 153 0
0.202511 -0.470539 -0.234274 76 0 153
0.044700 0.498324 -0.086926 76 153 0
0.058930 0.042537 -0.189838 76 153 0
0.058907 -0.272804 -0.121764 153 0 76
-0.027894 0.348721 0.926222 76 153 0
-0.324736 -0.390110 -0.172008 127 127 0
0.322081 -0.388498 -0.143291 0 255 0
-0.028908 0.319222 -0.236711 76 153 0
-0.392961 -0.397981 -0.169450 127 127 0
-0.051442 0.056336 -0.221672 76 153 0
0.056376 -0.379714 -0.119383 153 0 76
0.059371 0.457139 -0.142519 76 153 0
-0.342953 -0.409423 -0.346994 127 127 0
0.317017 -0.404081 -0.077305 0 255 0
0.083961 -0.258147 -0.165015 153 0 76
-0.023591 -0.044259 -0.242489 76 153 0
-0.189637 -0.486087 -0.191387 76 0 153
-0.349535 -0.354725 -0.156792 127 127 0
-0.376351 -0.390878 -0.120475 127 127 0
-0.167857 -0.370292 -0.112704 76 0 153
0.014492 0.632267 0.606036 76 153 0
0.057430 -0.186185 -0.207609 76 153 0
-0.053479 -0.594667 -0.257216 153 0 76
-0.028210 0.653627 -0.086327 76 153 0
0.071820 -0.257751 -0.234548 153 0 76
0.004305 -0.622757 -0.098462 153 0 76
-0.265872 -0.341097 -0.136023 76 0 153
-0.219345 -0.326381 -0.205640 76 0 153
0.018698 0.658693 0.567995 76 153 0
-0.086464 -0.410925 -0.210040 153 0 76
-0.361599 -0.395971 -0.212134 127 127 0
0.389837 -0.402193 -0.173558 0 255 0
0.262977 -0.454598 -0.121448 76 0 153
0.069065 -0.258388 -0.133288 153 0 76
-0.379106 -0.279544 -0.180062 127 127 0
0.063329 -0.293181 -0.126084 153 0 76
0.376754 -0.401903 -0.233026 0 255 0
0.005511 -0.326062 -0.202271 76 0 153
-0.064991 -0.617473 -0.247260 153 0 76
0.042064 0.710311 0.668924 76 153 0
0.044851 0.806831 0.207377 76 153 0
-0.368762 -0.393921 -0.345213 127 127 0
-0.012207 0.837291 0.403737 76 153 0
0.361953 -0.472874 -0.160618 0 255 0
-0.061768 -0.307013 -0.121423 153 0 76
-0.047505 0.460348 0.764931 76 153 0
0.041555 0.302905 0.846131 76 153 0
0.357650 -0.426291 -0.026986 0 255 0
-0.051366 0.534754 0.811526 76 153 0
-0.356904 -0.565474 -0.171452 127 127 0
0.362156 -0.380059 -0.063350 0 255 0
-0.017000 0.581223 -0.000142 76 153 0
0.081016 -0.377621 -0.216169 153 0 76
0.030810 -0.422079 -0.267674 153 0 76
0.051152 0.644104 0.724468 76 153 0
0.328630 -0.382743 -0.045710 0 255 0
-0.002852 0.812438 0.145856 76 153 0
0.000214 0.164285 -0.124750 76 153 0
0.140365 -0.440999 -0.258550 76 0 153
0.053933 0.085502 -0.160145 76 153 0
0.048490 0.340548 -0.143668 76 153 0
-0.329380 -0.425820 -0.071147 127 127 0
-0.062942 0.715506 0.082186 76 153 0
-0.054439 0.662888 0.047191 76 153 0
-0.024911 0.275678 -0.128247 76 153 0
-0.325523 -0.387687 -0.032479 127 127 0
-0.293715 -0.433730 -0.177807 76 0 153
-0.034822 -0.262400 -0.104649 153 0 76
0.352806 -0.401362 -0.347159 0 255 0
0.055525 0.272608 -0.207424 76 153 0
0.005704 0.698712 0.188596 76 153 0
0.049241 0.518372 -0.155731 76 153 0
0.321566 -0.429111 -0.200952 0 255 0
-0.053866 0.686154 -0.015043 76 153 0
-0.033148 0.780491 0.569862 76 153 0
0.002762 0.692901 0.173024 76 153 0
0.313953 -0.391257 -0.161787 0 255 0
-0.089327 -0.256592 -0.177985 153 0 76
-0.227128 -0.351929 -0.247199 76 0 153
-0.082506 -0.667981 -0.253228 76 0 153
-0.019351 0.638692 0.064076 76 153 0
-0.335107 -0.564348 -0.170156 127 127 0
-0.035604 -0.651940 -0.098032 153 0 76
-0.347445 -0.245000 -0.202385 127 127 0
0.033505 0.529265 -0.055263 76 153 0
0.057794 0.763964 0.148244 76 153 0
-0.089503 -0.477925 -0.182765 153 0 76
0.100997 -0.338746 -0.139393 76 0 153
0.377241 -0.515606 -0.187635 0 255 0
-0.020802 0.730905 -0.005269 76 153 0
0.047457 -0.130677 -0.222970 76 153 0
-0.061159 0.788455 0.392595 76 153 0
0.009988 0.393353 0.909950 76 153 0
0.344908 -0.339633 -0.214948 0 255 0
0.071711 -0.456868 -0.123217 76 0 153
-0.056605 0.442336 0.848000 76 153 0
-0.025590 0.644369 0.759005 76 153 0
-0.002281 -0.563074 -0.097996 153 0 76
0.320027 -0.394818 -0.246847 0 255 0
0.043330 -0.034420 -0.228084 76 153 0
0.060736 -0.352089 -0.248289 153 0 76
-0.014034 0.651336 -0.095790 76 153 0
-0.155153 -0.338964 -0.233116 76 0 153
-0.055296 0.608275 -0.018806 76 153 0
0.012482 0.793095 0.102160 76 153 0
0.058761 0.447540 0.810711 76 153 0
-0.046497 0.294149 -0.226114 76 153 0
0.036698 -0.688803 -0.075045 76 0 153
-0.038644 0.339460 0.814739 76 153 0
-0.028423 0.713356 0.221558 76 153 0
-0.020508 0.549115 -0.030242 76 153 0
0.016634 0.434907 0.758032 76 153 0
0.042225 0.710620 0.164782 76 153 0
0.035934 0.336769 0.916720 153 76 0
-0.044194 0.708806 0.164631 76 153 0
0.049839 -0.221124 -0.130818 153 0 76
0.046545 0.219827 -0.224321 76 153 0
0.025128 0.560690 -0.156083 76 153 0
-0.011295 0.565994 0.673203 76 153 0
0.057388 -0.330537 -0.154459 76 0 153
-0.061195 -0.043742 -0.197708 76 153 0
0.025877 0.775384 0.586853 76 153 0
0.200056 -0.486216 -0.189079 76 0 153
0.192247 -0.413099 -0.266654 76 0 153
-0.003083 0.576686 0.816717 76 153 0
0.027227 0.405145 0.776908 76 153 0
-0.051473 0.800265 0.197731 76 153 0
0.054750 0.461297 0.786587 76 153 0
0.037485 -0.580410 -0.106919 153 0 76
-0.350623 -0.376086 -0.041491 127 127 0
0.039068 0.577879 -0.132927 76 153 0
0.056777 0.464639 0.826721 76 153 0
0.084215 -0.280849 -0.205591 153 0 76
-0.330535 -0.385924 -0.207366 127 127 0
-0.010079 -0.440340 -0.112860 76 0 153
0.041086 0.747503 0.050795 76 153 0
0.058985 -0.080778 -0.185853 76 153 0
-0.023018 0.159606 -0.242676 76 153 0
-0.055854 0.767313 0.124434 76 153 0
0.085991 -0.319177 -0.189054 153 0 76
0.069733 -0.224860 -0.154795 153 0 76
-0.075070 -0.421835 -0.106468 76 0 153
0.374286 -0.394305 -0.030661 0 255 0
-0.034037 0.135005 -0.133966 76 153 0
-0.027220 0.344373 -0.234895 76 153 0
0.040102 0.731008 0.257657 76 153 0
0.281363 -0.353586 -0.228746 76 0 153
0.053880 0.326580 -0.154567 76 153 0
0.058132 0.605976 0.708331 76 153 0
-0.026907 0.592286 0.655585 76 153 0
0.053664 0.749102 0.249169 76 153 0
-0.001393 0.698626 0.711679 76 153 0
-0.039880 0.417347 -0.112658 76 153 0
0.034894 0.487307 -0.187160 76 153 0
-0.086170 -0.371639 -0.112017 76 0 153
0.197416 -0.439265 -0.112313 76 0 153
-0.045923 0.675009 0.571726 76 153 0
0.121700 -0.324211 -0.190833 76 0 153
-0.021540 0.300654 0.824483 76 153 0
0.052588 -0.477717 -0.221956 76 0 153
0.054246 0.031594 -0.160938 76 153 0
0.021681 -0.557032 -0.101298 153 0 76
0.008878 0.395068 -0.230233 76 153 0
0.362795 -0.348672 -0.210510 0 255 0
-0.035861 0.719067 0.433537 76 153 0
-0.067049 -0.606024 -0.245282 153 0 76
0.040637 0.418844 -0.206592 76 153 0
-0.029080 -0.066623 -0.131042 76 153 0
0.012510 -0.126013 -0.244792 76 153 0
0.030668 0.418386 0.773466 76 153 0
0.343912 -0.389001 -0.163259 0 255 0
0.011188 0.717676 0.266323 76 153 0
-0.008704 0.715721 0.260452 76 153 0
0.370402 -0.550144 -0.166756 0 255 0
0.055643 -0.450431 -0.253016 153 0 76
0.273642 -0.402367 -0.110678 76 0 153
-0.103646 -0.350517 -0.245805 76 0 153
0.006733 0.414828 -0.225027 76 153 0
-0.350301 -0.376086 -0.339067 127 127 0
0.056669 0.550791 -0.118765 76 153 0
0.337187 -0.376526 -0.185087 0 255 0
0.056389 0.705322 0.627881 76 153 0
-0.003448 0.335885 0.803293 76 153 0
0.049185 0.475642 0.841411 76 153 0
-0.046958 0.228393 -0.144204 76 153 0
0.361218 -0.506065 -0.160084 0 255 0
-0.088754 -0.537405 -0.198850 153 0 76
0.089929 -0.700136 -0.113625 76 0 153
0.350268 -0.376086 -0.281105 0 255 0
-0.089403 -0.350295 -0.178968 153 0 76
0.019649 -0.076570 -0.242715 76 153 0
-0.052232 0.500082 -0.092444 76 153 0
-0.337392 -0.431641 -0.174280 127 127 0
-0.062713 0.617066 -0.047580 76 153 0
-0.056844 -0.626620 -0.117228 153 0 76
0.085470 -0.565405 -0.199581 153 0 76
-0.075311 -0.417808 -0.233956 153 0 76
0.324174 -0.549311 -0.205054 0 255 0
0.369846 -0.385647 -0.280336 0 255 0
0.376823 -0.408213 -0.218101 0 255 0
-0.374962 -0.387054 -0.303400 127 127 0
0.017071 -0.506757 -0.100109 153 0 76
-0.325138 -0.414845 -0.169579 127 127 0
-0.052878 -0.341572 -0.236440 76 0 153
0.032652 0.693810 0.515410 76 153 0
-0.304332 -0.383102 -0.169044 127 127 0
-0.367553 -0.564382 -0.171688 127 127 0
0.105821 -0.687186 -0.230716 76 0 153
0.339420 -0.401450 -0.024761 0 255 0
-0.060294 0.680049 0.051442 76 153 0
-0.089500 -0.306726 -0.188872 153 0 76
-0.057494 0.518050 -0.092298 76 153 0
0.039157 0.827120 0.351581 76 153 0
-0.364409 -0.485052 -0.160092 127 127 0
0.058590 -0.050918 -0.177233 76 153 0
-0.236984 -0.420170 -0.265547 76 0 153
-0.058294 0.063501 -0.163077 76 153 0
-0.049314 -0.165251 -0.146829 76 153 0
-0.089503 -0.503759 -0.182597 153 0 76
-0.061246 0.689436 0.629351 76 153 0
-0.072947 -0.679630 -0.274054 76 0 153
-0.004484 0.486645 -0.067117 76 153 0
-0.224706 -0.328530 -0.157974 76 0 153
-0.060294 -0.187779 -0.169420 76 153 0
-0.376889 -0.554065 -0.198500 127 127 0
-0.066608 -0.250437 -0.128595 153 0 76
-0.325113 -0.421379 -0.300637 127 127 0
-0.059440 0.549336 0.740383 76 153 0
-0.057771 -0.166955 -0.210004 76 153 0
-0.250854 -0.415357 -0.105437 76 0 153
0.086234 -0.460407 -0.189714 153 0 76
0.259366 -0.325630 -0.201445 76 0 153
0.053685 0.625682 0.669465 76 153 0
-0.252857 -0.471301 -0.138545 76 0 153
0.042290 -0.518902 -0.109465 153 0 76
0.121399 -0.426994 -0.107700 76 0 153
0.051990 -0.180989 -0.154312 76 153 0
0.352859 -0.456431 -0.156792 0 255 0
0.389817 -0.391076 -0.176687 0 255 0
-0.011205 -0.239256 -0.267910 153 0 76
0.039437 0.479739 0.750426 76 153 0
-0.216099 -0.416754 -0.266084 76 0 153
-0.039156 0.699930 0.505791 76 153 0
0.055840 0.502107 -0.105470 76 153 0
-0.367450 -0.428732 -0.128413 127 127 0
-0.000148 0.479858 -0.204038 76 153 0
-0.197645 -0.355362 -0.121727 76 0 153
-0.309988 -0.431777 -0.193971 76 0 153
0.056943 0.794694 0.391673 76 153 0
-0.058138 -0.091637 -0.163027 76 153 0
-0.042617 -0.091819 -0.231722 76 153 0
-0.022080 -0.552786 -0.100565 153 0 76
-0.086993 -0.380526 -0.163402 153 0 76
-0.060901 0.797182 0.312068 76 153 0
0.058345 0.680642 0.631980 76 153 0
-0.160370 -0.363262 -0.255419 76 0 153
-0.378570 -0.263013 -0.193326 127 127 0
0.070080 -0.340023 -0.237295 153 0 76
0.065303 -0.262197 -0.243252 153 0 76
0.111661 -0.397211 -0.266657 76 0 153
-0.194696 -0.325128 -0.173167 76 0 153
0.318035 -0.384052 -0.181655 0 255 0
0.053499 0.432798 0.796121 76 153 0
0.079472 -0.324673 -0.219730 153 0 76
0.033328 0.050944 -0.135595 76 153 0
0.036616 0.607351 0.778920 76 153 0
-0.038105 0.600581 0.656839 76 153 0
-0.352552 -0.373553 -0.156792 127 127 0
-0.203823 -0.395397 -0.266372 76 0 153
0.282069 -0.378017 -0.222070 76 0 153
-0.323232 -0.394741 -0.242805 127 127 0
0.073484 -0.321786 -0.139879 153 0 76
0.048422 -0.256623 -0.258488 153 0 76
-0.055406 -0.352675 -0.255713 153 0 76
-0.019790 0.534872 0.700889 76 153 0
0.003858 0.556605 0.680050 76 153 0
0.000384 0.841758 0.360684 76 153 0
-0.009429 0.841690 0.307270 76 153 0
0.026023 0.698401 0.492157 76 153 0
-0.376678 -0.418445 -0.084290 127 127 0
-0.367697 -0.245389 -0.193426 127 127 0
0.113741 -0.704344 -0.178183 76 0 153
-0.043507 0.697634 0.521447 76 153 0
0.187781 -0.340506 -0.136599 76 0 153
0.333697 -0.371027 -0.159768 0 255 0
-0.038166 0.303957 0.832368 76 153 0
0.055194 0.425625 -0.137449 76 153 0
0.049188 0.379707 0.812531 76 153 0
-0.325388 -0.248864 -0.168809 127 127 0
-0.007014 0.786695 0.578422 76 153 0
-0.120369 -0.433555 -0.109810 76 0 153
0.058635 0.722622 0.115390 76 153 0
-0.048088 0.671377 0.077488 76 153 0
-0.032742 0.637734 0.051551 76 153 0
-0.087004 -0.460084 -0.245539 76 0 153
0.193935 -0.380227 -0.108289 76 0 153
-0.014659 -0.273772 -0.099086 153 0 76
-0.285055 -0.352926 -0.223575 76 0 153
-0.346044 -0.334396 -0.156792 127 127 0
0.034784 0.788091 0.543470 76 153 0
0.329176 -0.265494 -0.163052 0 255 0
-0.042811 0.731883 0.265015 76 153 0
-0.368755 -0.427784 -0.197125 127 127 0
-0.052984 0.353353 -0.143750 76 153 0
0.040130 0.468932 -0.096114 76 153 0
-0.392989 -0.390834 -0.192561 127 127 0
-0.062212 0.120747 -0.182387 76 153 0
0.207154 -0.412145 -0.266708 76 0 153
-0.377737 -0.247599 -0.178265 127 127 0
-0.025226 0.832410 0.413908 76 153 0
-0.030657 -0.212416 -0.121846 76 153 0
-0.009564 0.803930 0.535971 76 153 0
-0.062140 0.000051 -0.187521 76 153 0
-0.027616 -0.622877 -0.102013 153 0 76
-0.056280 -0.484884 -0.200606 76 0 153
0.046802 0.694961 0.546443 76 153 0
0.040818 -0.165601 -0.141344 76 153 0
-0.031098 -0.014039 -0.132051 76 153 0
0.008655 0.792274 0.563091 76 153 0
0.012465 -0.689436 -0.069694 76 0 153
0.067319 -0.663022 -0.256761 76 0 153
-0.051844 0.814255 0.279108 76 153 0
0.282011 -0.359604 -0.219991 76 0 153
0.347358 -0.566235 -0.176842 0 255 0
0.021316 0.668003 0.738986 76 153 0
-0.052252 0.343670 0.828893 76 153 0
0.064742 -0.207637 -0.171889 153 0 76
-0.048005 0.573587 0.693596 76 153 0
0.014986 0.839439 0.300160 76 153 0
0.067580 -0.241927 -0.235166 153 0 76
0.050507 -0.485333 -0.197770 76 0 153
-0.324185 -0.418523 -0.255736 127 127 0
-0.087843 -0.635916 -0.208617 153 0 76
-0.181412 -0.469951 -0.234989 76 0 153
0.040411 0.762256 0.589402 76 153 0
0.352225 -0.424427 -0.205998 0 255 0
0.054548 -0.495198 -0.117921 153 0 76
-0.060504 0.114034 -0.200637 76 153 0
0.055765 -0.119656 -0.207243 76 153 0
-0.018886 -0.496991 -0.272034 153 0 76
-0.026440 0.558504 0.820912 76 153 0
0.006462 -0.569851 -0.098650 153 0 76
-0.085828 -0.330298 -0.216615 76 0 153
-0.069051 -0.212959 -0.204804 153 0 76
0.330726 -0.429108 -0.063415 0 255 0
-0.341082 -0.376086 -0.190933 127 127 0
-0.046388 -0.292531 -0.110006 153 0 76
0.032118 0.199310 -0.134807 76 153 0
-0.107850 -0.480667 -0.155678 76 0 153
-0.029253 0.652336 0.582930 76 153 0
-0.051271 0.406981 0.796595 76 153 0
-0.017049 0.321513 0.812290 76 153 0
-0.331306 -0.565044 -0.186065 127 127 0
-0.033105 0.191334 -0.238432 76 153 0
-0.105069 -0.664745 -0.187918 76 0 153
0.057772 0.765128 0.286543 76 153 0
0.015284 0.503845 -0.059238 76 153 0
-0.034266 -0.602007 -0.267582 153 0 76
0.338913 -0.565879 -0.195431 0 255 0
0.049147 0.657339 0.715918 76 153 0
0.330629 -0.429037 -0.036944 0 255 0
0.212793 -0.459725 -0.245894 76 0 153
0.108587 -0.476825 -0.223711 76 0 153
-0.015244 -0.454141 -0.250776 76 0 153
0.022245 -0.584955 -0.101444 153 0 76
-0.078416 -0.326063 -0.204252 76 0 153
0.042417 0.302517 -0.225714 76 153 0
-0.040765 0.431650 0.877531 76 153 0
0.175727 -0.484242 -0.204381 76 0 153
-0.047110 -0.164396 -0.227568 76 153 0
-0.055399 0.424141 -0.189919 76 153 0
-0.252399 -0.433657 -0.262207 76 0 153
-0.081113 -0.353736 -0.122992 76 0 153
-0.382978 -0.403088 -0.213351 127 127 0
-0.030326 0.712936 0.446285 76 153 0
0.061010 -0.607214 -0.248022 153 0 76
-0.051374 0.788872 0.502915 76 153 0
0.321371 -0.525400 -0.200352 0 255 0
-0.087844 -0.528109 -0.166829 153 0 76
-0.030805 0.811627 0.168356 76 153 0
-0.051928 0.808899 0.422314 76 153 0
0.016082 -0.367485 -0.114136 76 0 153
-0.061687 0.522083 -0.129366 76 153 0
-0.051248 0.264775 -0.148972 76 153 0
0.085990 -0.347690 -0.192738 153 0 76
-0.021967 0.656351 0.749917 76 153 0
0.044951 -0.317746 -0.111027 153 0 76
-0.350629 -0.376086 -0.030404 127 127 0
-0.006005 -0.687167 -0.069648 76 0 153
-0.061087 0.067187 -0.173896 76 153 0
0.068383 -0.484559 -0.169147 76 0 153
-0.040014 0.306291 0.852194 153 76 0
0.324974 -0.424929 -0.144145 0 255 0
-0.023991 -0.092385 -0.128496 76 153 0
-0.022956 0.284267 -0.241428 76 153 0
-0.074577 -0.444116 -0.235495 153 0 76
0.023674 0.391708 -0.225873 76 153 0
-0.021728 0.054644 -0.243096 76 153 0
0.319306 -0.349632 -0.177744 0 255 0
-0.334995 -0.351912 -0.210606 127 127 0
0.003439 0.563914 -0.013084 76 153 0
0.056975 0.417494 0.847811 76 153 0
0.092462 -0.659490 -0.160641 76 0 153
0.373659 -0.392375 -0.266614 0 255 0
-0.322228 -0.358682 -0.178535 127 127 0
0.025854 -0.366179 -0.256940 76 0 153
-0.012100 0.429648 0.758651 76 153 0
-0.285128 -0.468273 -0.190388 76 0 153
-0.012627 0.570204 -0.157441 76 153 0
0.132113 -0.396166 -0.105697 76 0 153
0.040076 0.331154 -0.135147 76 153 0
0.058424 0.592923 -0.081386 76 153 0
-0.059823 0.133730 -0.203526 76 153 0
0.257652 -0.337621 -0.230876 76 0 153
0.085891 -0.424602 -0.264783 76 0 153
0.341318 -0.532596 -0.214948 0 255 0
0.003741 0.308462 -0.121609 76 153 0
0.048178 0.415212 0.793632 76 153 0
0.237420 -0.474037 -0.142673 76 0 153
0.318521 -0.371374 -0.180158 0 255 0
0.017420 0.721156 0.281079 76 153 0
0.052009 0.708053 0.648281 76 153 0
0.254901 -0.439640 -0.112505 76 0 153
-0.379822 -0.401561 -0.112837 127 127 0
-0.040580 0.719039 0.000054 76 153 0
0.326321 -0.384420 -0.189796 0 255 0
0.054556 -0.410358 -0.117928 153 0 76
0.032836 0.646396 0.749852 76 153 0
0.322094 -0.421871 -0.327436 0 255 0
0.319131 -0.505351 -0.178282 0 255 0
0.362468 -0.430042 -0.173584 0 255 0
0.058763 0.773538 0.436149 76 153 0
0.053780 -0.008060 -0.159781 76 153 0
0.376377 -0.379056 -0.181448 0 255 0
-0.017237 -0.652816 -0.278305 76 0 153
-0.086308 -0.361556 -0.160641 153 0 76
0.056337 0.663953 0.636280 76 153 0
0.013862 0.385778 0.781437 76 153 0
-0.044444 0.324096 0.827603 76 153 0
-0.086758 -0.698824 -0.265893 76 0 153
0.056976 0.663923 0.027873 76 153 0
-0.227568 -0.387916 -0.106568 76 0 153
0.044767 0.548397 -0.056093 76 153 0
0.018390 -0.336842 -0.228667 76 0 153
0.100354 -0.668318 -0.156124 76 0 153
-0.365829 -0.293933 -0.161124 127 127 0
-0.055892 0.047824 -0.213562 76 153 0
-0.376432 -0.427801 -0.171832 127 127 0
0.306225 -0.396320 -0.212238 0 255 0
0.004535 -0.412337 -0.273288 153 0 76
0.057548 0.574250 0.731148 76 153 0
-0.060145 0.459614 -0.128690 76 153 0
0.059569 0.623209 -0.042280 76 153 0
-0.076269 -0.428760 -0.232391 153 0 76
0.080661 -0.450224 -0.154602 153 0 76
0.031046 0.581150 -0.139394 76 153 0
0.281845 -0.352953 -0.204575 76 0 153
-0.324422 -0.329055 -0.171785 127 127 0
-0.089465 -0.622540 -0.193210 153 0 76
-0.324093 -0.340664 -0.198945 127 127 0
0.367423 -0.426442 -0.331781 0 255 0
0.021557 0.785934 0.568765 76 153 0
-0.064245 -0.356148 -0.123856 153 0 76
0.281719 -0.344621 -0.171312 76 0 153
0.323008 -0.423500 -0.308815 0 255 0
-0.099895 -0.358494 -0.119355 76 0 153
0.223750 -0.447744 -0.116678 76 0 153
0.336128 -0.377295 -0.125638 0 255 0
0.302035 -0.420348 -0.209192 0 255 0
0.059314 0.780162 0.348792 76 153 0
-0.057101 -0.231541 -0.127056 153 0 76
-0.059844 -0.375095 -0.261435 76 0 153
0.055219 0.099340 -0.208598 76 153 0
0.035900 0.506134 -0.177337 76 153 0
-0.377864 -0.414795 -0.296426 127 127 0
-0.364757 -0.379639 -0.086399 127 127 0
0.055716 0.344917 -0.199082 76 153 0
0.045205 -0.336698 -0.228961 76 0 153
0.047884 0.731956 0.446643 76 153 0
-0.106592 -0.384247 -0.264527 76 0 153
0.022614 -0.703538 -0.300041 76 0 153
-0.285314 -0.370588 -0.220408 76 0 153
0.040200 0.809686 0.462431 76 153 0
0.244983 -0.421328 -0.265365 76 0 153
-0.059784 -0.287016 -0.119574 153 0 76
0.172413 -0.407965 -0.266941 76 0 153
0.037537 -0.586128 -0.264903 153 0 76
-0.367350 -0.356224 -0.162229 127 127 0
0.355306 -0.464094 -0.214948 0 255 0
-0.270531 -0.409585 -0.264621 76 0 153
0.102232 -0.466053 -0.132189 76 0 153
-0.139312 -0.476712 -0.223931 76 0 153
-0.054340 0.389857 0.810938 76 153 0
0.033563 0.716945 -0.008482 76 153 0
0.023749 -0.476208 -0.269992 153 0 76
-0.065182 -0.483505 -0.163353 76 0 153
-0.052590 0.813932 0.369071 76 153 0
-0.049767 0.637197 0.025545 76 153 0
0.022946 0.376677 0.914170 76 153 0
0.058235 0.323512 -0.169740 76 153 0
0.080121 -0.654074 -0.233246 76 0 153
0.359984 -0.431846 -0.237519 0 255 0
0.327161 -0.445603 -0.164516 0 255 0
-0.195048 -0.328368 -0.158430 76 0 153
0.036102 0.803284 0.159565 76 153 0
-0.321085 -0.408980 -0.140044 127 127 0
0.117073 -0.486109 -0.190993 76 0 153
-0.070755 -0.471338 -0.138598 76 0 153
-0.051036 -0.396840 -0.259141 153 0 76
-0.061271 -0.010941 -0.174794 76 153 0
-0.055623 -0.537292 -0.255530 153 0 76
0.026521 0.276257 -0.239297 76 153 0
-0.035387 0.784340 0.104664 76 153 0
0.034301 0.376611 0.796722 76 153 0
-0.011602 0.711842 0.695179 76 153 0
0.321267 -0.336624 -0.200031 0 255 0
-0.387952 -0.387876 -0.206766 127 127 0
-0.045327 0.823949 0.354749 76 153 0
-0.033999 -0.212873 -0.248767 153 0 76
0.043239 0.274588 -0.227350 76 153 0
0.083988 -0.522100 -0.207381 153 0 76
-0.011947 0.644711 0.077635 76 153 0
-0.236996 -0.324308 -0.186638 76 0 153
-0.038412 0.681015 -0.048683 76 153 0
0.104451 -0.482290 -0.159488 76 0 153
0.068308 -0.313470 -0.239592 153 0 76
0.022278 0.455582 0.750742 76 153 0
-0.062484 0.320819 -0.177509 76 153 0
0.049389 0.442615 -0.188806 76 153 0
-0.057380 0.688839 0.582512 76 153 0
0.056791 0.800332 0.324667 76 153 0
0.012286 -0.377363 -0.099159 153 0 76
-0.015653 0.663937 0.554088 76 153 0
-0.001627 -0.381492 -0.108183 76 0 153
0.247690 -0.482464 -0.160043 76 0 153
-0.036770 0.805598 0.160953 76 153 0
-0.061986 0.033837 -0.194348 76 153 0
0.085257 -0.655396 -0.150118 153 0 76
0.059015 0.215687 -0.183675 76 153 0
-0.096932 -0.667189 -0.226214 76 0 153
0.016897 0.680922 0.136304 76 153 0
-0.051964 0.725431 0.629542 76 153 0
0.050033 0.483072 -0.171063 76 153 0
0.030118 -0.069266 -0.133487 76 153 0
0.350257 -0.553085 -0.156792 0 255 0
-0.378114 -0.509005 -0.177010 127 127 0
-0.001090 0.717017 -0.028913 76 153 0
-0.029759 0.638151 0.604678 76 153 0
-0.062167 -0.273842 -0.249934 153 0 76
0.262602 -0.359764 -0.118548 76 0 153
-0.062888 0.766351 0.200145 76 153 0
0.058637 0.544007 0.771559 76 153 0
-0.118666 -0.456862 -0.248532 76 0 153
0.007126 -0.191793 -0.121355 76 153 0
0.016902 0.359598 0.924696 76 153 0
0.056573 0.788137 0.434409 76 153 0
0.214717 -0.431217 -0.108645 76 0 153
-0.061342 0.432833 0.817215 76 153 0
-0.347642 -0.437989 -0.214948 127 127 0
0.012072 -0.598791 -0.272647 153 0 76
-0.052401 0.645347 0.629724 76 153 0
0.026449 0.098947 -0.240507 76 153 0
-0.354100 -0.352645 -0.214948 127 127 0
-0.030993 -0.478663 -0.220097 76 0 153
0.348245 -0.329761 -0.156792 0 255 0
-0.043154 0.505463 0.838557 76 153 0
0.319898 -0.395217 -0.040997 0 255 0
-0.056066 0.202291 -0.213907 76 153 0
0.030458 0.064593 -0.238062 76 153 0
-0.058894 -0.003548 -0.207483 76 153 0
-0.047148 -0.661015 -0.098476 153 0 76
0.028099 0.812068 0.172021 76 153 0
-0.001883 -0.467182 -0.133398 76 0 153
-0.004477 0.303283 0.819381 76 153 0
0.316865 -0.550491 -0.186485 0 255 0
0.035820 0.091549 -0.234680 76 153 0
-0.008022 -0.434953 -0.098502 153 0 76
-0.008558 -0.129933 -0.245638 76 153 0
-0.054610 -0.128092 -0.216951 76 153 0
0.037552 0.356054 -0.129302 76 153 0
-0.079095 -0.447115 -0.144302 153 0 76
0.043369 -0.568112 -0.110098 153 0 76
0.016167 0.559746 -0.020323 76 153 0
-0.258237 -0.485107 -0.199168 76 0 153
-0.080930 -0.360607 -0.253903 76 0 153
-0.114818 -0.486121 -0.190776 76 0 153
0.070430 -0.684089 -0.094220 76 0 153
-0.059961 0.416725 0.849155 76 153 0
0.054680 -0.430525 -0.108429 76 0 153
0.341830 -0.499810 -0.156792 0 255 0
0.053536 0.661860 0.624186 76 153 0
-0.025146 -0.187522 -0.128560 76 153 0
-0.054089 0.735189 0.210176 76 153 0
-0.375987 -0.435027 -0.201276 127 127 0
0.048882 0.615921 -0.003743 76 153 0
0.047567 -0.319234 -0.259335 153 0 76
-0.101774 -0.424063 -0.264879 76 0 153
-0.067576 -0.645240 -0.248634 153 0 76
-0.003745 0.720694 0.337667 76 153 0
-0.061163 0.389943 0.857567 76 153 0
0.024613 -0.359573 -0.118548 76 0 153
-0.042918 0.469737 -0.095127 76 153 0
-0.230790 -0.390349 -0.265576 76 0 153
0.038389 -0.376783 -0.109966 76 0 153
-0.278508 -0.356884 -0.129389 76 0 153
0.346556 -0.421079 -0.346118 0 255 0
0.090417 -0.390696 -0.265631 76 0 153
-0.041748 0.115239 -0.232566 76 153 0
0.030993 0.416695 0.890218 76 153 0
-0.042184 0.774992 0.563524 76 153 0
-0.074617 -0.328443 -0.158230 76 0 153
-0.023373 -0.606790 -0.270905 153 0 76
0.055150 -0.346540 -0.118333 153 0 76
-0.377896 -0.492798 -0.195403 127 127 0
-0.002279 0.590643 -0.145750 76 153 0
0.037916 0.794599 0.141930 76 153 0
0.069065 -0.576253 -0.238626 153 0 76
0.124550 -0.428221 -0.264038 76 0 153
-0.195280 -0.442526 -0.114067 76 0 153
-0.061276 -0.024348 -0.174818 76 153 0
0.000484 0.014199 -0.124764 76 153 0
0.330314 -0.381519 -0.244499 0 255 0
0.369643 -0.246310 -0.179214 0 255 0
0.057877 0.388081 0.859293 76 153 0
0.228425 -0.324200 -0.181175 76 0 153
-0.008319 0.677301 0.735455 76 153 0
-0.035795 0.790376 0.119846 76 153 0
-0.100686 -0.477131 -0.148638 76 0 153
0.053132 0.677480 0.682001 76 153 0
-0.339996 -0.509650 -0.214239 127 127 0
-0.151350 -0.346265 -0.241569 76 0 153
0.016576 0.171677 -0.127047 76 153 0
0.038966 -0.295278 -0.264222 153 0 76
-0.018834 -0.029297 -0.244039 76 153 0
-0.053069 0.489921 0.758197 76 153 0
-0.039653 0.562912 0.691952 76 153 0
0.005070 0.487308 0.728148 76 153 0
0.064675 -0.275367 -0.244243 153 0 76
0.208665 -0.355665 -0.250341 76 0 153
0.071046 -0.672689 -0.270324 76 0 153
0.282084 -0.460090 -0.157423 76 0 153
-0.150858 -0.366858 -0.114456 76 0 153
0.046410 0.637771 0.634693 76 153 0
-0.005442 0.836489 0.417766 76 153 0
-0.061967 0.020029 -0.178194 76 153 0
0.003992 -0.442907 -0.114167 76 0 153
0.027370 0.647751 -0.089479 76 153 0
0.054450 0.781101 0.487654 76 153 0
0.257485 -0.417272 -0.105750 76 0 153
-0.177383 -0.484973 -0.200046 76 0 153
0.041562 -0.430191 -0.108579 76 0 153
0.372364 -0.388391 -0.099894 0 255 0
0.053374 -0.043500 -0.158773 76 153 0
-0.008731 0.641782 0.766475 76 153 0
0.152801 -0.332924 -0.149175 76 0 153
-0.035454 -0.335029 -0.267091 153 0 76
-0.058916 0.769485 0.506261 76 153 0
-0.060905 0.708320 0.610079 76 153 0
0.058330 0.620572 0.703833 76 153 0
0.342094 -0.434242 -0.273765 0 255 0
0.081772 -0.304524 -0.214337 153 0 76
0.004475 0.663647 0.551989 76 153 0
0.005560 -0.453182 -0.120207 76 0 153
0.096933 -0.695470 -0.249327 76 0 153
-0.049023 0.795906 0.168782 76 153 0
0.059604 0.608058 -0.051282 76 153 0
-0.083310 -0.451974 -0.119380 76 0 153
-0.038425 0.591662 -0.128635 76 153 0
-0.357657 -0.517894 -0.214948 127 127 0
-0.058154 -0.411495 -0.266744 76 0 153
0.154936 -0.444769 -0.115417 76 0 153
0.056884 0.645290 0.702080 76 153 0
-0.059356 -0.173324 -0.165780 76 153 0
0.352866 -0.529045 -0.156792 0 255 0
0.328561 -0.383928 -0.028261 0 255 0
-0.009786 0.826318 0.199403 76 153 0
0.369348 -0.385284 -0.313121 0 255 0
-0.057008 0.622859 0.669601 76 153 0
-0.026788 -0.422979 -0.265059 76 0 153
-0.044506 -0.306760 -0.262895 153 0 76
-0.016745 -0.163505 -0.126326 76 153 0
0.009125 -0.004060 -0.125237 76 153 0
0.376905 -0.402367 -0.333464 0 255 0
0.022853 0.786040 0.096286 76 153 0
-0.051922 -0.667618 -0.279741 76 0 153
0.014351 0.003862 -0.244437 76 153 0
-0.238967 -0.486080 -0.191506 76 0 153
-0.082892 -0.562731 -0.152022 153 0 76
-0.059584 0.431711 -0.138405 76 153 0
0.264464 -0.398204 -0.105858 76 0 153
-0.029544 0.775192 0.585600 76 153 0
-0.323852 -0.392832 -0.129577 127 127 0
0.322407 -0.403969 -0.344563 0 255 0
-0.056471 0.648298 0.714561 76 153 0
-0.059488 -0.523488 -0.119337 153 0 76
0.011402 0.310467 0.855119 153 76 0
0.006595 0.819756 0.491272 76 153 0
0.050316 0.633122 -0.071963 76 153 0
0.046120 -0.081883 -0.146664 76 153 0
-0.041533 0.053518 -0.232806 76 153 0
0.353258 -0.382554 -0.156792 0 255 0
-0.006953 -0.226039 -0.110250 153 0 76
0.017176 -0.006797 -0.243519 76 153 0
-0.357523 -0.369189 -0.214948 127 127 0
0.046613 -0.601070 -0.112002 153 0 76
0.081853 -0.315875 -0.214035 153 0 76
-0.005173 0.470938 -0.207455 76 153 0
-0.357259 -0.317556 -0.156792 127 127 0
0.050428 -0.336137 -0.144205 76 0 153
0.047510 0.584508 0.691029 76 153 0
-0.059953 -0.447570 -0.252030 153 0 76
0.085883 -0.394976 -0.193857 153 0 76
0.352671 -0.407777 -0.024539 0 255 0
-0.037072 -0.048747 -0.135755 76 153 0
-0.021492 0.454515 -0.211180 76 153 0
0.372126 -0.303696 -0.203376 0 255 0
-0.072288 -0.632614 -0.132407 153 0 76
0.152538 -0.324551 -0.176856 76 0 153
0.058751 0.511621 0.788050 76 153 0
-0.062857 0.699984 0.046766 76 153 0
0.279564 -0.380359 -0.121833 76 0 153
0.055518 -0.464352 -0.241275 76 0 153
0.047954 0.134410 -0.222360 76 153 0
-0.360006 -0.376187 -0.168408 127 127 0
0.049831 0.745137 0.282538 76 153 0
-0.061950 0.785185 0.260070 76 153 0
-0.051082 0.454117 -0.186610 76 153 0
-0.060474 0.355770 0.845200 76 153 0
-0.229077 -0.372421 -0.260124 76 0 153
-0.049884 0.488998 -0.173367 76 153 0
-0.323935 -0.518117 -0.173281 127 127 0
-0.363027 -0.342978 -0.212652 127 127 0
0.036671 0.359595 0.806388 76 153 0
-0.196267 -0.331588 -0.219541 76 0 153
-0.033969 -0.696229 -0.298495 76 0 153
0.266423 -0.371005 -0.114142 76 0 153
-0.049062 0.741794 0.354581 76 153 0
-0.020980 -0.329350 -0.100280 153 0 76
0.357376 -0.385893 -0.214447 0 255 0
0.357293 -0.341112 -0.157233 0 255 0
-0.026251 -0.202508 -0.123875 76 153 0
-0.345064 -0.273683 -0.214948 127 127 0
-0.072302 -0.617129 -0.133200 153 0 76
-0.008020 -0.271515 -0.273255 153 0 76
0.376689 -0.408626 -0.062878 0 255 0
0.036107 -0.486018 -0.192630 76 0 153
0.033724 0.819594 0.216390 76 153 0
-0.233755 -0.326747 -0.163606 76 0 153
-0.328701 -0.398727 -0.206033 127 127 0
0.041847 -0.675285 -0.080799 76 0 153
-0.061760 0.703223 0.079216 76 153 0
0.265729 -0.457114 -0.247667 76 0 153
0.046478 0.521259 0.822399 76 153 0
0.030108 -0.488534 -0.103824 153 0 76
0.014583 -0.353382 -0.248458 76 0 153
-0.035173 0.412656 0.890621 76 153 0
-0.008616 0.735486 0.665931 76 153 0
0.331848 -0.544859 -0.161110 0 255 0
-0.380906 -0.438945 -0.186137 127 127 0
-0.057793 0.495215 0.766542 76 153 0
-0.053626 0.746545 0.379784 76 153 0
-0.060664 0.388444 0.830554 76 153 0
-0.007465 0.699611 0.469400 76 153 0
0.043486 0.733902 0.409076 76 153 0
-0.062627 0.657593 -0.011242 76 153 0
-0.079212 -0.323380 -0.227193 153 0 76
-0.060147 0.651794 0.651736 76 153 0
-0.089407 -0.608054 -0.193734 153 0 76
-0.336402 -0.301525 -0.211628 127 127 0
0.326395 -0.327565 -0.206667 0 255 0
-0.024884 0.686365 0.514779 76 153 0
0.044652 0.621644 0.010607 76 153 0
-0.035756 0.463064 -0.198960 76 153 0
-0.167693 -0.356968 -0.251414 76 0 153
0.017741 0.553930 -0.164146 76 153 0
-0.361057 -0.420504 -0.026075 127 127 0
-0.001041 -0.398606 -0.097995 153 0 76
0.054299 0.540994 -0.130941 76 153 0
-0.026190 0.331599 0.900774 153 76 0
-0.102604 -0.668390 -0.156147 76 0 153
0.376309 -0.257590 -0.190502 0 255 0
0.059228 0.779145 0.254005 76 153 0
0.052216 0.479129 0.770333 76 153 0
0.011691 0.602977 0.797742 76 153 0
-0.065648 -0.470327 -0.234532 76 0 153
-0.218937 -0.361603 -0.254555 76 0 153
-0.030846 0.085548 -0.239862 76 153 0
0.147832 -0.470368 -0.137263 76 0 153
0.093122 -0.663531 -0.217214 76 0 153
-0.057432 -0.410966 -0.254196 153 0 76
0.319060 -0.260014 -0.193241 0 255 0
-0.077523 -0.224699 -0.203312 153 0 76
0.009532 0.719659 0.373512 76 153 0
0.330859 -0.381123 -0.144830 0 255 0
-0.030565 -0.376086 -0.102762 153 0 76
0.076057 -0.702129 -0.272172 76 0 153
-0.067950 -0.450621 -0.127521 153 0 76
0.064002 -0.340343 -0.137061 76 0 153
-0.323001 -0.490819 -0.195583 127 127 0
-0.084227 -0.653842 -0.231831 153 0 76
0.059775 -0.245360 -0.126085 153 0 76
0.055432 0.440319 -0.131418 76 153 0
0.068314 -0.499884 -0.132694 153 0 76
-0.285215 -0.384308 -0.131259 76 0 153
-0.330897 -0.383405 -0.250050 127 127 0
0.065514 -0.674509 -0.094889 76 0 153
-0.010051 -0.406425 -0.098680 153 0 76
0.344816 -0.440803 -0.214948 0 255 0
0.052738 0.803826 0.247765 76 153 0
-0.077887 -0.342216 -0.134786 76 0 153
-0.049107 0.587847 -0.025097 76 153 0
-0.051237 0.818117 0.344891 76 153 0
-0.054690 0.686771 0.676480 76 153 0
0.281336 -0.337422 -0.183445 76 0 153
-0.334304 -0.386412 -0.027348 127 127 0
0.007228 0.639439 0.069070 76 153 0
0.377320 -0.453039 -0.187389 0 255 0
-0.039532 -0.122872 -0.234409 76 153 0
0.325401 -0.385089 -0.105816 0 255 0
0.377382 -0.292122 -0.184539 0 255 0
0.031370 0.464615 0.866528 76 153 0
0.373526 -0.391967 -0.196760 0 255 0
-0.047981 -0.324216 -0.190930 76 0 153
0.025938 0.494288 -0.070724 76 153 0
-0.005232 0.722978 0.683049 76 153 0
0.074045 -0.667543 -0.114294 76 0 153
-0.336897 -0.431282 -0.216136 127 127 0
0.331547 -0.429704 -0.327276 0 255 0
0.057248 0.646207 0.660299 76 153 0
-0.361569 -0.331302 -0.213711 127 127 0
-0.010779 0.670024 0.742371 76 153 0
-0.016128 -0.325766 -0.199886 76 0 153
0.346183 -0.376086 -0.199330 0 255 0
0.318986 -0.412305 -0.204573 0 255 0
-0.059836 0.780632 0.467615 76 153 0
-0.025193 -0.538737 -0.101371 153 0 76
-0.087756 -0.617337 -0.166771 153 0 76
0.029081 -0.087342 -0.132805 76 153 0
0.057751 -0.125926 -0.173138 76 153 0
-0.042076 0.812807 0.206856 76 153 0
0.326507 -0.486872 -0.206749 0 255 0
-0.039522 -0.015432 -0.234253 76 153 0
-0.061588 -0.545783 -0.250483 153 0 76
-0.052134 0.569837 -0.124184 76 153 0
-0.023629 0.512072 0.717409 76 153 0
0.049260 -0.412226 -0.266704 76 0 153
-0.053986 0.629356 0.006896 76 153 0
-0.355017 -0.417852 -0.214948 127 127 0
0.002448 0.267005 -0.124282 76 153 0
-0.040159 0.711536 0.476892 76 153 0
-0.005637 -0.017526 -0.245983 76 153 0
-0.374225 -0.386518 -0.060196 127 127 0
-0.040368 -0.276148 -0.106798 153 0 76
0.129715 -0.481831 -0.158051 76 0 153
0.059017 0.764139 0.455605 76 153 0
0.063567 -0.325618 -0.199573 76 0 153
-0.392993 -0.421953 -0.176070 127 127 0
-0.061983 0.781498 0.225529 76 153 0
-0.082937 -0.632768 -0.219315 153 0 76
0.373627 -0.392277 -0.233067 0 255 0
0.229559 -0.478994 -0.152295 76 0 153
-0.135266 -0.410778 -0.266784 76 0 153
0.059551 0.743944 0.141444 76 153 0
-0.001278 -0.585905 -0.097974 153 0 76
-0.042399 -0.245331 -0.109545 153 0 76
0.033192 0.380931 -0.222964 76 153 0
-0.008901 0.693127 0.488701 76 153 0
-0.183960 -0.332073 -0.220713 76 0 153
-0.056732 0.170585 -0.159194 76 153 0
-0.038814 -0.060327 -0.136856 76 153 0
-0.005863 0.552849 0.830691 76 153 0
-0.043034 0.567657 0.802832 76 153 0
-0.129190 -0.445363 -0.256309 76 0 153
0.033376 -0.541148 -0.105195 153 0 76
0.008862 0.842030 0.319770 76 153 0
0.009856 0.039744 -0.245103 76 153 0
-0.053838 -0.138737 -0.153539 76 153 0
0.083055 -0.476770 -0.223816 76 0 153
-0.100678 -0.337570 -0.230873 76 0 153
-0.050581 -0.119086 -0.148818 76 153 0
-0.042116 0.315969 0.870257 153 76 0
0.141777 -0.423105 -0.106991 76 0 153
0.054582 0.714944 0.536963 76 153 0
0.013429 0.714020 0.243887 76 153 0
0.021246 -0.626725 -0.270608 153 0 76
0.346312 -0.434242 -0.199499 0 255 0
-0.055556 -0.070115 -0.157344 76 153 0
0.022365 0.609792 0.787798 76 153 0
-0.347306 -0.400603 -0.214948 127 127 0
0.020217 0.792385 0.554451 76 153 0
-0.365714 -0.245891 -0.170687 127 127 0
0.084102 -0.574041 -0.206958 153 0 76
0.382977 -0.417856 -0.210341 0 255 0
0.004615 0.826115 0.197245 76 153 0
-0.285314 -0.386888 -0.231271 76 0 153
-0.056749 0.793082 0.210036 76 153 0
-0.086589 -0.503901 -0.209577 153 0 76
-0.206052 -0.468885 -0.236281 76 0 153
-0.268166 -0.443623 -0.256151 76 0 153
0.048953 0.532295 -0.072836 76 153 0
0.087241 -0.384243 -0.107562 76 0 153
0.333232 -0.379399 -0.084657 0 255 0
-0.053829 0.749424 0.343172 76 153 0
0.014086 0.679997 -0.067855 76 153 0
0.054965 0.555993 0.783604 76 153 0
-0.059819 0.567714 0.727888 76 153 0
0.054860 0.698877 0.572267 76 153 0
-0.007693 -0.246696 -0.101378 153 0 76
0.084898 -0.244540 -0.179928 153 0 76
-0.038770 0.493397 -0.183751 76 153 0
0.014248 -0.347743 -0.128678 76 0 153
-0.060936 0.322231 0.872413 76 153 0
-0.007443 -0.326661 -0.166560 76 0 153
0.198565 -0.358648 -0.119180 76 0 153
-0.057431 0.807874 0.326699 76 153 0
0.077572 -0.409164 -0.224113 153 0 76
0.045828 0.731433 0.225546 76 153 0
0.001690 0.584271 0.655854 76 153 0
-0.008315 0.662967 -0.086730 76 153 0
0.316667 -0.405156 -0.106268 0 255 0
-0.107482 -0.484697 -0.201789 76 0 153
0.008406 0.629162 -0.115964 76 153 0
0.047243 0.097625 -0.148299 76 153 0
-0.345408 -0.311081 -0.214948 127 127 0
0.380764 -0.383222 -0.169228 0 255 0
-0.086683 -0.628017 -0.162530 153 0 76
0.036660 -0.133417 -0.137784 76 153 0
-0.028530 0.706300 -0.029548 76 153 0
0.032406 -0.221945 -0.118932 153 0 76
-0.352589 -0.257218 -0.214948 127 127 0
-0.282809 -0.446740 -0.242121 76 0 153
-0.090209 -0.645691 -0.162347 153 0 76
0.366957 -0.552730 -0.207486 0 255 0
0.345980 -0.545502 -0.214948 0 255 0
-0.363406 -0.501759 -0.212377 127 127 0
0.000929 0.712054 0.419292 76 153 0
-0.106367 -0.666531 -0.178134 76 0 153
-0.005893 0.614988 0.038749 76 153 0
0.058694 0.748944 0.179852 76 153 0
-0.036781 0.717393 0.217535 76 153 0
0.026491 0.542679 0.700672 76 153 0
0.029757 -0.325714 -0.198773 76 0 153
0.050500 -0.665016 -0.097732 76 0 153
-0.077033 -0.376829 -0.109782 76 0 153
0.169994 -0.473576 -0.229877 76 0 153
0.028391 0.725174 -0.003105 76 153 0
0.048643 0.662071 0.052873 76 153 0
0.373605 -0.409519 -0.172915 0 255 0
0.037206 -0.674486 -0.291600 76 0 153
0.027852 -0.052207 -0.239693 76 153 0
-0.006764 -0.514171 -0.273381 153 0 76
-0.375751 -0.421298 -0.311480 127 127 0
0.278131 -0.334611 -0.199687 76 0 153
0.029286 -0.525503 -0.268302 153 0 76
-0.061038 0.402127 0.826896 76 153 0
-0.058509 0.659554 -0.031393 76 153 0
0.368918 -0.454748 -0.206062 0 255 0
0.003266 0.643963 -0.103571 76 153 0
0.259727 -0.325716 -0.170700 76 0 153
0.348195 -0.434242 -0.059895 0 255 0
-0.080423 -0.636283 -0.145990 153 0 76
0.048101 0.034970 -0.149561 76 153 0
-0.029442 0.722789 0.394208 76 153 0
0.281955 -0.360228 -0.151902 76 0 153
-0.020308 0.480486 0.734686 76 153 0
-0.379877 -0.401730 -0.088426 127 127 0
0.051372 -0.081437 -0.217728 76 153 0
-0.043985 0.573733 -0.133479 76 153 0
0.218995 -0.361657 -0.254583 76 0 153
0.095643 -0.354109 -0.122685 76 0 153
-0.052965 0.238270 -0.152016 76 153 0
-0.297579 -0.400621 -0.214423 127 127 0
-0.073816 -0.573772 -0.135165 153 0 76
0.375857 -0.278923 -0.179846 0 255 0
0.051229 0.630515 0.652601 76 153 0
0.330227 -0.397706 -0.162288 0 255 0
0.317906 -0.266397 -0.182050 0 255 0
-0.026089 0.821487 0.200743 76 153 0
0.018128 0.231885 -0.127424 76 153 0
-0.324297 -0.470465 -0.172168 127 127 0
-0.017167 0.394238 -0.229084 76 153 0
0.011638 -0.474694 -0.143933 76 0 153
-0.356473 -0.376086 -0.082092 127 127 0
-0.022224 0.556360 -0.162630 76 153 0
-0.073043 -0.558859 -0.134158 153 0 76
-0.378311 -0.396911 -0.172804 127 127 0
-0.001717 -0.275497 -0.097946 153 0 76
0.092540 -0.325943 -0.202556 76 0 153
0.075695 -0.508291 -0.227772 153 0 76
-0.009994 0.711638 -0.033466 76 153 0
-0.000689 0.363818 -0.112991 76 153 0
-0.374850 -0.247494 -0.201045 127 127 0
0.019213 -0.423806 -0.264919 76 0 153
0.047540 -0.172798 -0.223410 76 153 0
0.079683 -0.659102 -0.134282 153 0 76
-0.061152 0.282781 -0.197380 76 153 0
0.050718 -0.325804 -0.199897 76 0 153
-0.056943 0.335935 -0.206715 76 153 0
0.071812 -0.237068 -0.224562 153 0 76
0.377299 -0.403579 -0.309201 0 255 0
0.011662 0.151147 -0.125854 76 153 0
-0.142400 -0.328331 -0.158551 76 0 153
-0.062936 0.766297 0.211106 76 153 0
0.021437 -0.386732 -0.264954 76 0 153
-0.062052 0.599019 -0.074098 76 153 0
0.038345 0.823253 0.253301 76 153 0
0.321991 -0.299949 -0.169481 0 255 0
0.054053 0.722203 0.515724 76 153 0
-0.015796 -0.036885 -0.126094 76 153 0
0.230039 -0.428794 -0.107884 76 0 153
-0.008181 0.513339 -0.189304 76 153 0
-0.015055 0.681732 -0.066741 76 153 0
-0.056851 0.315090 -0.208663 76 153 0
0.283181 -0.445183 -0.192890 76 0 153
0.044076 0.621137 -0.092967 76 153 0
0.366206 -0.417385 -0.208032 0 255 0
-0.106966 -0.394903 -0.266294 76 0 153
-0.037964 -0.439664 -0.105782 153 0 76
-0.009869 -0.107113 -0.245483 76 153 0
