ply
format ascii 1.0
element vertex 1279
property float x
property float y
property float z
property uchar red
property uchar green
property uchar blue
end_header
-0.553191 0.050247 0.045161 153 76 0
-0.057412 0.034503 0.234462 153 76 0
0.743932 -0.454183 -0.289584 153 0 76
-0.241759 0.034503 -0.061339 153 76 0
0.647255 0.034503 0.083038 153 76 0
0.138962 0.034503 0.138011 153 76 0
0.675797 0.050247 0.067906 255 0 0
0.295901 0.000352 0.222593 127 127 0
0.394908 -0.017976 -0.305532 76 0 153
0.311645 0.009206 0.336649 127 127 0
-0.305460 0.050247 -0.075433 153 76 0
0.474314 -0.007306 -0.204758 204 51 127
0.693382 0.050247 0.152898 255 0 0
-0.193019 0.034503 0.179485 153 76 0
-0.346640 0.016811 -0.032437 204 51 127
-0.004037 0.034503 -0.296763 153 0 76
-0.083044 0.034503 0.072298 153 76 0
0.374174 0.034503 0.000459 153 76 0
-0.162837 0.031599 -0.302704 127 127 0
0.717701 -0.495971 0.379432 76 0 153
-0.730717 -0.314212 0.380371 153 76 0
0.739929 -0.447381 0.358531 76 0 153
-0.181647 0.050247 0.264252 153 76 0
-0.353393 0.050247 -0.234144 153 76 0
0.440137 0.050247 0.206333 153 76 0
0.551227 0.034503 -0.116392 153 76 0
-0.627684 -0.017976 -0.031546 204 51 127
0.127239 0.034503 0.118269 153 76 0
0.030780 0.050247 -0.142397 153 76 0
-0.539156 0.050247 0.292121 153 76 0
0.717701 -0.376688 -0.300127 153 0 76
0.588798 0.034503 0.261870 153 76 0
-0.222974 -0.013403 -0.290568 153 0 76
-0.168583 0.050247 -0.240386 153 76 0
0.236252 0.034503 0.156562 153 76 0
-0.679542 0.005904 -0.032437 204 51 127
0.276303 -0.013403 -0.068847 153 0 76
-0.273245 0.050247 0.305728 153 76 0
-0.282827 -0.007306 -0.187836 153 0 76
0.724630 -0.347264 0.387394 76 0 153
-0.252891 0.034503 0.070287 127 0 127
-0.308711 0.034503 0.276319 0 255 0
0.746564 -0.123158 -0.298045 153 0 76
-0.023220 0.050247 0.070596 153 76 0
0.311645 0.010419 -0.018087 127 127 0
-0.744320 -0.290490 -0.289584 76 0 153
-0.455997 0.034503 0.130399 153 76 0
-0.548162 0.034503 -0.192931 153 76 0
0.730064 -0.175715 0.358531 76 0 153
-0.321905 0.050247 0.034552 153 76 0
-0.354676 0.034503 0.318892 153 76 0
-0.440262 -0.007306 -0.191731 0 0 255
-0.291506 -0.007306 -0.065738 153 0 76
-0.405395 0.034503 0.253053 153 76 0
0.508611 0.050247 0.151660 153 76 0
-0.552700 0.032014 -0.021941 153 76 0
-0.398262 0.034503 0.337852 153 76 0
0.521239 0.034503 0.206680 153 76 0
-0.013154 -0.017976 0.384195 0 0 255
0.370018 -0.004025 -0.032437 204 51 127
0.198327 0.050247 0.050106 153 76 0
-0.424389 -0.013403 -0.083862 0 0 255
0.717701 -0.396743 -0.297174 153 0 76
0.159559 0.050247 -0.271380 153 0 76
-0.355138 0.050247 0.352009 0 0 255
-0.656827 0.050247 0.285479 153 76 0
-0.309574 0.019187 0.224648 0 255 0
-0.601749 0.050247 -0.075400 153 76 0
-0.759581 0.004580 0.003247 204 51 127
0.174452 0.001892 -0.021941 76 153 0
0.399559 0.050247 0.346955 0 0 255
-0.532627 0.050247 -0.179057 153 76 0
-0.075263 0.034503 -0.280438 153 0 76
-0.122339 -0.017976 -0.031453 76 153 0
0.353596 0.050247 0.046212 153 76 0
0.619470 0.034503 0.089827 153 76 0
0.574010 -0.007306 -0.244861 76 0 153
0.727360 0.018577 0.358531 255 0 0
-0.626772 0.050247 -0.043535 153 76 0
-0.294385 0.034503 -0.217406 153 76 0
0.291315 -0.017976 -0.177931 0 127 127
-0.718254 0.000698 -0.081832 76 0 153
0.079585 0.034503 0.083685 153 76 0
-0.548304 0.034503 -0.043608 153 76 0
0.746564 -0.196298 -0.293832 153 0 76
-0.757064 -0.535157 0.381567 153 76 0
-0.250200 0.034503 0.138806 153 76 0
-0.658888 0.050247 -0.050933 153 76 0
0.427811 0.050247 -0.029255 153 76 0
0.296587 -0.017976 0.078008 127 127 0
0.237182 0.034503 0.269757 153 76 0
-0.222468 0.050247 -0.038111 153 76 0
-0.702777 0.034503 0.058617 127 0 127
0.746564 -0.384172 -0.302602 153 0 76
0.155937 0.003938 -0.302704 127 127 0
-0.035900 0.050247 -0.128205 153 76 0
0.455351 0.032323 -0.244289 76 0 153
0.201346 0.050247 0.232832 153 76 0
0.740524 -0.159144 -0.316073 153 0 76
-0.312481 0.009079 0.387394 0 0 255
-0.613532 0.050247 -0.181938 153 76 0
0.013693 0.003036 0.023978 127 0 127
-0.749181 0.050247 0.181860 204 51 127
-0.711630 0.034503 0.107572 204 51 127
-0.480322 -0.017753 0.023978 127 0 127
0.746564 0.005075 -0.021026 255 0 0
-0.558675 -0.017976 0.366443 0 0 255
0.327506 0.033802 -0.318447 76 0 153
0.173372 -0.017976 0.042012 127 0 127
0.314269 -0.016076 -0.139173 153 76 0
-0.297766 0.001373 -0.098568 127 0 127
-0.713302 -0.016786 0.023978 127 0 127
-0.730717 -0.391762 -0.305675 76 0 153
0.527698 0.050247 -0.175543 153 76 0
-0.096731 0.050247 0.249922 153 76 0
0.117576 0.034503 -0.178917 153 76 0
-0.673828 0.034503 -0.081556 153 76 0
0.738391 -0.017976 0.033981 255 0 0
0.231477 0.039411 0.387394 0 0 255
-0.600362 -0.007306 -0.172464 0 0 255
-0.755543 -0.383252 -0.289584 76 0 153
-0.231575 -0.017976 0.040959 127 0 127
-0.412334 -0.008111 -0.302704 0 0 255
-0.337782 0.003167 -0.134966 153 0 76
0.480901 0.034503 0.357306 153 76 0
-0.220178 -0.008165 0.023978 127 0 127
0.328423 0.050247 -0.168963 153 76 0
0.090990 -0.007306 -0.148003 153 0 76
0.355274 0.050247 0.179177 153 76 0
-0.655546 0.034503 0.122427 153 76 0
0.746337 0.048668 0.097814 255 0 0
-0.316502 0.050247 -0.039297 153 76 0
-0.292050 0.034503 0.106603 153 76 0
0.717701 0.007387 -0.040954 76 0 153
-0.213696 0.034503 -0.192008 153 76 0
-0.644181 0.034503 0.302734 153 76 0
0.299118 0.034503 0.102822 127 127 0
-0.469744 0.001317 -0.178249 76 0 153
0.339016 -0.002269 -0.318447 76 0 153
-0.495837 0.008951 -0.159699 76 0 153
0.386456 -0.007306 -0.287472 204 51 127
0.525453 -0.007306 -0.110644 204 51 127
-0.707107 0.024256 -0.032437 204 51 127
-0.149472 0.050247 -0.121619 153 76 0
0.605405 0.034503 0.241522 153 76 0
0.092067 0.050247 0.007169 153 76 0
0.295901 -0.015171 0.315084 127 127 0
-0.057824 0.034503 0.044552 153 76 0
0.646692 0.034503 0.300387 153 76 0
0.149051 0.050247 -0.185608 153 76 0
-0.439931 0.034503 0.358307 0 0 255
0.407884 -0.007306 -0.182017 204 51 127
-0.588716 0.024399 -0.302704 76 0 153
0.229339 0.050247 0.001558 153 76 0
-0.497277 -0.007306 -0.068344 0 0 255
-0.264667 0.032323 -0.031139 76 153 0
-0.337782 0.019443 -0.274648 153 0 76
-0.595986 0.034503 0.125553 153 76 0
0.648420 0.050247 0.099959 153 76 0
0.206116 0.050247 0.192737 153 76 0
0.064085 0.034503 -0.149480 153 76 0
-0.285905 0.034503 0.277562 153 76 0
-0.683780 0.050247 -0.263468 204 51 127
0.723462 -0.405201 -0.318447 153 0 76
0.347693 0.034503 0.216423 153 76 0
-0.269055 0.034503 0.108356 153 76 0
0.702060 -0.007306 -0.040378 204 51 127
-0.053897 0.034503 0.155571 153 76 0
-0.246022 0.034503 -0.177483 153 76 0
0.723279 -0.106343 -0.289584 153 0 76
0.031797 0.034503 -0.049143 153 76 0
0.139012 0.001006 0.023978 127 0 127
-0.598445 -0.007306 -0.038449 0 0 255
-0.026653 0.034503 -0.246360 153 0 76
-0.137978 0.034503 0.304306 153 76 0
-0.509584 -0.007306 -0.296638 153 76 0
0.554147 0.050247 0.098603 153 76 0
-0.758114 -0.148621 0.379996 153 76 0
0.531785 0.034503 -0.157118 153 76 0
-0.600614 0.050247 0.107858 153 76 0
0.050873 0.045376 -0.318447 153 0 76
-0.534014 0.031094 0.358531 153 76 0
-0.759581 0.046911 -0.000637 204 51 127
-0.730717 0.034701 -0.213723 76 0 153
-0.453752 0.001252 0.044969 127 0 127
0.183924 0.050247 -0.133753 153 76 0
-0.324724 0.020610 -0.318447 153 76 0
-0.033872 0.034503 0.153820 153 76 0
0.425304 0.034503 0.256210 153 76 0
0.298189 0.050247 0.157484 153 76 0
-0.042068 0.050247 -0.169681 153 76 0
0.465039 0.034503 -0.024836 153 0 76
-0.367942 0.050247 -0.065953 153 76 0
0.520066 0.017571 -0.318447 76 0 153
0.027972 0.034503 -0.024848 76 153 0
-0.175316 0.034503 0.062975 127 0 127
-0.470505 0.050247 0.092791 153 76 0
-0.448224 0.050247 0.183026 153 76 0
-0.624348 0.050247 0.114937 153 76 0
0.730080 0.050247 -0.301659 255 0 0
0.400418 0.050247 0.228155 153 76 0
0.476864 0.034503 -0.056495 153 76 0
-0.550711 0.050247 0.320702 153 76 0
-0.239392 0.050247 0.190795 153 76 0
-0.510934 0.034503 0.193057 153 76 0
0.317461 0.034503 -0.024872 255 0 0
-0.099057 0.016317 0.044969 127 0 127
-0.657964 0.050247 0.138671 153 76 0
-0.576344 0.034503 -0.247960 153 0 76
-0.596787 -0.000248 -0.205846 76 0 153
-0.183838 0.050247 -0.073658 153 76 0
-0.273982 0.050247 0.183372 153 76 0
0.177674 0.050247 -0.083314 153 76 0
-0.509244 0.034503 0.216345 153 76 0
0.173414 0.034503 -0.026524 153 76 0
-0.730843 -0.211238 -0.318447 76 0 153
-0.047514 0.050247 -0.230484 153 76 0
0.502687 0.050247 0.300330 153 76 0
-0.681857 -0.013403 -0.048630 0 0 255
0.698226 -0.017976 -0.314713 76 0 153
-0.606464 0.034503 0.014182 127 0 127
-0.759581 0.004829 -0.162542 204 51 127
0.702078 0.050247 0.240283 255 0 0
-0.209011 0.050247 -0.174194 153 76 0
-0.692094 0.034503 0.036549 153 76 0
-0.518920 0.034503 -0.283675 153 0 76
-0.562223 0.034503 0.212917 153 76 0
0.385386 -0.013403 -0.210639 204 51 127
-0.608019 0.034503 0.319018 153 76 0
0.311645 -0.005423 0.235344 127 127 0
-0.388118 -0.007306 -0.222223 0 0 255
0.295901 0.013441 0.105945 127 127 0
0.135269 0.050247 -0.096852 153 76 0
-0.633306 0.000339 0.387394 0 0 255
-0.061486 0.034503 0.331406 153 76 0
-0.730717 0.022817 0.153248 204 51 127
-0.021268 0.050247 0.307098 153 76 0
0.386443 -0.013403 -0.180096 204 51 127
0.717701 0.006466 -0.007035 255 0 0
-0.670740 0.034503 -0.036497 204 51 127
0.311645 0.028866 0.315532 153 76 0
-0.002538 0.018734 -0.021941 76 153 0
0.611544 0.050247 -0.143797 153 76 0
-0.120794 0.034503 -0.015544 76 153 0
-0.718254 -0.004721 -0.140962 76 0 153
0.529137 0.034503 -0.119516 153 76 0
0.401288 0.050247 -0.225666 153 76 0
0.225559 -0.013403 -0.242058 153 0 76
0.501900 0.034503 0.103452 153 76 0
-0.234219 0.034750 -0.289584 153 0 76
-0.062441 0.034503 -0.047395 153 76 0
-0.717553 -0.017976 0.381602 0 0 255
0.469774 0.050247 -0.263259 153 0 76
-0.404855 0.050247 0.044073 153 76 0
-0.365449 0.034503 -0.225774 153 76 0
0.260862 0.050247 -0.205645 153 76 0
0.066264 0.050247 0.333638 0 0 255
0.736499 -0.243623 -0.289584 153 0 76
0.279420 0.034503 0.119471 153 76 0
-0.048083 0.050247 0.191122 153 76 0
0.094594 0.050247 0.101254 153 76 0
-0.594815 0.034503 0.239938 153 76 0
0.047609 0.050247 0.159526 153 76 0
0.174595 -0.007306 -0.252179 153 0 76
0.024975 -0.016146 -0.032437 153 0 76
0.062953 0.050247 -0.186631 153 76 0
-0.445166 0.034503 -0.187793 76 0 153
0.581249 -0.007562 0.358531 0 0 255
0.717559 0.050247 -0.200389 255 0 0
0.717701 0.010973 -0.190180 76 0 153
-0.759581 0.004566 -0.216412 204 51 127
-0.759581 0.029375 0.296788 204 51 127
-0.182371 0.050247 0.138213 153 76 0
0.278000 0.034503 -0.254979 153 0 76
0.543763 0.015137 -0.318447 76 0 153
-0.600419 0.034503 0.164108 153 76 0
-0.730717 0.044628 0.054871 204 51 127
-0.324876 0.011811 0.358531 0 255 0
-0.758054 -0.355209 0.380086 153 76 0
0.465893 0.050247 -0.113465 153 76 0
0.295901 -0.009343 -0.068195 127 127 0
0.028026 0.050247 -0.097893 153 76 0
0.149842 0.050247 0.305638 153 76 0
0.717701 0.011496 0.310233 255 0 0
0.707699 -0.017976 -0.242863 76 0 153
-0.755704 -0.117412 0.383574 153 76 0
-0.555909 0.034503 -0.232779 153 0 76
-0.692049 -0.013403 -0.097511 0 0 255
0.155267 0.050247 0.032619 153 76 0
-0.116557 0.050247 0.272131 153 76 0
0.442934 0.034503 -0.199486 153 76 0
0.067144 0.050247 -0.254148 153 0 76
0.527062 0.049749 -0.317274 153 0 76
0.589514 0.034503 0.064602 127 0 127
-0.386843 0.050247 -0.017558 153 76 0
-0.555107 0.050247 -0.286152 153 0 76
0.446231 0.004504 -0.271372 76 0 153
0.069755 0.034503 0.248231 153 76 0
-0.201172 0.034503 0.224736 153 76 0
0.491370 0.034503 -0.041238 153 76 0
0.295901 0.026772 0.142828 127 127 0
-0.286028 0.034503 -0.171661 153 76 0
0.457642 0.050247 0.077375 153 76 0
0.241178 0.034503 0.304943 153 76 0
-0.539865 0.034503 0.126789 153 76 0
0.119524 -0.015793 0.387394 0 0 255
0.285080 -0.017976 -0.022285 0 127 127
-0.072761 0.050247 0.241343 153 76 0
0.647036 0.035657 -0.289584 153 0 76
0.228294 0.050247 0.286268 153 76 0
-0.485970 0.050247 -0.213843 153 76 0
0.417095 0.034503 -0.019838 153 0 76
0.001037 0.034503 0.046456 127 0 127
0.483985 0.034503 0.136928 153 76 0
0.387129 0.034503 0.186877 153 76 0
0.653513 -0.013403 -0.082653 204 51 127
0.502012 0.050247 -0.137121 153 76 0
0.746564 -0.048048 -0.294102 153 0 76
-0.235448 0.034503 -0.148140 153 76 0
-0.391894 -0.007306 -0.108375 0 0 255
0.124227 0.034503 0.002140 153 76 0
0.051920 0.050247 -0.271657 153 0 76
-0.352377 0.034503 0.033403 127 127 0
-0.529110 0.034503 -0.042433 153 76 0
-0.380588 0.050247 0.069153 153 76 0
0.283438 0.015903 -0.119529 0 127 127
-0.095120 0.034503 -0.230568 153 0 76
-0.191731 0.034503 0.112632 153 76 0
-0.517577 -0.017976 -0.029789 0 0 255
0.195071 0.007276 -0.021941 76 153 0
0.242072 -0.004351 0.387394 0 0 255
0.283438 0.010948 -0.151343 0 127 127
-0.107175 0.034503 0.278617 153 76 0
-0.716587 0.034503 0.167799 153 76 0
0.532312 0.034503 -0.061024 153 76 0
0.183569 -0.007306 -0.090967 153 0 76
-0.693070 -0.007306 -0.240011 0 0 255
-0.692904 0.034503 0.324541 204 51 127
0.283438 0.021648 -0.299543 0 127 127
0.179517 0.034503 0.148413 153 76 0
-0.523388 0.050247 -0.099245 153 76 0
0.152145 0.034503 0.221264 153 76 0
0.563155 0.050247 -0.019420 153 76 0
-0.730717 -0.479237 0.377111 153 76 0
0.573274 0.007851 -0.213855 76 0 153
0.116022 0.050247 0.369272 0 0 255
-0.571200 0.050247 0.187405 153 76 0
0.746564 0.005282 -0.210859 255 0 0
0.038970 -0.013403 -0.176644 153 0 76
0.005697 0.050247 -0.001472 153 76 0
0.189288 -0.007306 -0.149490 153 0 76
0.050777 0.050247 -0.169368 153 76 0
0.507454 0.034503 -0.271037 153 0 76
-0.217675 0.050247 0.057660 153 76 0
-0.599112 0.034503 0.064500 127 0 127
0.114484 0.050247 0.321212 0 0 255
0.262621 0.019327 -0.032437 76 153 0
-0.535870 0.035156 0.387394 0 0 255
-0.759581 0.040349 -0.193703 204 51 127
-0.125748 0.034503 -0.185647 153 76 0
0.344472 0.002269 0.023978 127 0 127
0.648793 0.034503 -0.040035 153 0 76
-0.483581 0.034503 -0.187966 76 0 153
0.094775 -0.013403 -0.236121 153 0 76
0.555181 0.050247 -0.277097 153 0 76
-0.730717 -0.277094 0.377516 153 76 0
-0.704594 0.050247 0.299563 204 51 127
-0.103482 0.050247 -0.179103 153 76 0
0.746564 0.019402 -0.086388 255 0 0
-0.047599 0.005224 -0.032437 76 153 0
-0.291920 0.050247 -0.290265 153 0 76
0.367200 -0.007306 -0.123115 204 51 127
0.197536 0.050247 0.144566 153 76 0
0.327527 0.002765 -0.302704 153 76 0
0.659273 0.034503 0.153935 153 76 0
-0.179290 0.034503 0.353781 153 76 0
-0.538331 0.034503 -0.065843 153 76 0
0.593347 -0.013403 -0.233876 204 51 127
-0.350036 0.010836 0.387394 0 0 255
0.206093 0.034503 0.083980 153 76 0
0.641518 0.050247 -0.049214 153 76 0
-0.342888 0.050247 -0.301592 153 0 76
0.599628 0.050247 -0.215445 153 76 0
0.097781 0.034503 -0.241983 153 0 76
0.556095 -0.013403 -0.297824 76 0 153
-0.404281 0.044135 0.387394 0 0 255
-0.735387 0.050247 0.282418 204 51 127
-0.075448 0.028173 0.044969 127 0 127
-0.638206 -0.013687 -0.318447 153 76 0
-0.006688 0.050247 0.180000 153 76 0
-0.245932 0.050247 0.094931 153 76 0
0.518886 -0.017976 0.371007 0 0 255
-0.078367 -0.007306 -0.291554 153 0 76
-0.056012 0.007173 -0.318447 127 127 0
0.535672 0.050247 0.094212 153 76 0
-0.077018 0.034503 -0.088933 153 76 0
0.266762 -0.007306 -0.270537 153 0 76
-0.301702 0.019898 -0.031520 127 0 127
0.231244 -0.013403 -0.107850 153 0 76
0.717701 0.003521 0.166184 255 0 0
0.200858 0.050247 0.375204 0 0 255
0.492376 0.034503 -0.096348 153 76 0
0.677609 0.034503 -0.030315 153 0 76
0.560378 0.034503 -0.219938 153 76 0
0.331391 0.034503 0.170137 153 76 0
0.382226 0.034503 0.255433 153 76 0
0.720456 -0.080773 -0.318447 153 0 76
0.058792 0.050247 0.237622 153 76 0
-0.425509 0.050247 0.365294 0 0 255
0.617143 -0.017321 -0.302704 76 0 153
0.700254 0.050247 0.009514 255 0 0
0.248812 0.050247 0.263530 153 76 0
-0.300805 0.050247 0.097712 153 76 0
-0.652465 0.024906 -0.159699 76 0 153
0.463576 0.034503 0.201848 153 76 0
0.319031 0.032323 -0.274089 127 127 0
-0.309574 0.001748 0.354748 0 255 0
-0.003102 0.026875 0.358531 153 76 0
-0.261407 0.050247 -0.011850 153 76 0
-0.047611 0.002620 0.023978 127 0 127
-0.216248 0.050247 0.031114 153 76 0
-0.225610 0.050247 0.164793 153 76 0
0.446887 0.050247 0.274986 153 76 0
0.472671 -0.007306 -0.117596 204 51 127
-0.130832 0.050247 0.311390 153 76 0
0.504002 -0.007306 -0.129533 204 51 127
-0.635624 0.050247 -0.164096 153 76 0
0.288207 0.032323 -0.099147 153 76 0
0.513342 0.050247 0.263366 153 76 0
0.133476 -0.003225 0.358531 0 0 255
0.012875 0.050247 0.081594 153 76 0
-0.719471 0.033497 0.023978 76 0 153
-0.327286 0.026979 -0.227285 153 0 76
-0.164121 0.034503 0.204075 153 76 0
-0.712232 0.050247 -0.002655 204 51 127
0.588916 0.036891 0.387394 0 0 255
-0.377233 0.050247 0.176647 153 76 0
-0.581828 0.050247 0.298200 153 76 0
-0.177751 -0.013403 -0.201948 153 0 76
0.375385 -0.017976 0.377219 0 0 255
0.485314 0.050247 0.092256 153 76 0
-0.446533 0.050247 0.162056 153 76 0
-0.444888 0.005579 -0.302704 153 76 0
0.422560 0.050247 0.051419 153 76 0
-0.407912 0.050247 0.098427 153 76 0
-0.684678 0.050247 0.305740 153 76 0
-0.709798 -0.013403 -0.267809 0 0 255
-0.185924 -0.017976 -0.023948 76 153 0
-0.259980 0.050247 -0.191166 153 76 0
-0.362330 0.050247 -0.195871 153 76 0
0.722115 -0.553183 0.369955 76 0 153
0.614947 0.021563 0.044969 127 0 127
0.046118 0.050247 0.270840 153 76 0
0.122223 0.050247 -0.056837 153 76 0
0.068410 0.034503 -0.199866 153 76 0
0.311645 0.017069 0.167682 127 127 0
-0.730717 -0.520737 0.377327 153 76 0
-0.161943 0.050247 0.299771 153 76 0
0.221933 0.050247 0.153228 153 76 0
0.028343 -0.007306 -0.235772 153 0 76
0.746564 0.000361 0.332368 255 0 0
0.745893 -0.265251 0.377646 76 0 153
0.116051 0.034503 -0.222214 153 76 0
-0.064685 0.034503 -0.242721 153 0 76
0.733151 -0.093235 0.387394 76 0 153
-0.534365 0.034503 0.075540 153 76 0
0.467844 0.034503 -0.089982 153 76 0
0.587124 0.013505 -0.021941 153 0 76
0.259104 0.050247 -0.143599 153 76 0
-0.371620 0.034503 -0.026099 153 76 0
-0.334902 0.019524 -0.302704 153 0 76
-0.496229 0.021555 -0.318447 153 76 0
0.253870 -0.003141 -0.021941 76 153 0
0.154901 -0.013403 -0.112408 153 0 76
-0.484712 0.034503 -0.081782 153 76 0
-0.644665 0.050247 0.003666 153 76 0
0.176682 0.050247 0.010025 153 76 0
-0.690940 -0.013403 -0.156269 0 0 255
-0.425356 -0.007306 -0.206108 0 0 255
0.702404 0.034503 0.068216 153 76 0
-0.513260 0.050247 -0.195811 153 76 0
0.545842 0.034503 -0.047361 153 76 0
0.369042 0.007844 -0.302704 76 0 153
-0.286737 0.034503 -0.042562 76 153 0
0.268225 0.034503 0.205448 153 76 0
0.628040 0.034503 -0.212733 153 76 0
-0.435632 -0.015588 0.387394 0 0 255
0.056394 -0.013403 -0.159623 153 0 76
0.362020 -0.013403 -0.072754 204 51 127
-0.310705 0.034503 -0.232505 0 255 0
-0.156705 0.034503 0.244859 153 76 0
-0.341431 0.028439 -0.175442 76 0 153
0.581172 0.034503 0.286153 153 76 0
-0.018053 -0.007306 -0.146439 153 0 76
-0.537547 -0.007306 -0.152467 0 0 255
-0.125646 0.050247 -0.174474 153 76 0
-0.075373 0.031368 -0.302704 127 127 0
0.491601 0.050247 -0.005713 153 76 0
-0.730717 0.032448 0.217502 153 76 0
-0.213369 0.050247 0.270290 153 76 0
0.622614 0.034503 -0.116562 153 76 0
-0.153540 0.050247 0.341285 0 0 255
0.658458 0.013671 -0.318447 76 0 153
-0.653891 0.034503 -0.233393 153 0 76
-0.122628 0.050247 0.383327 0 0 255
-0.359400 0.034503 -0.272003 153 0 76
0.352880 0.050247 -0.093869 153 76 0
-0.316387 0.050247 0.204915 153 76 0
-0.400807 0.034503 -0.022054 153 76 0
-0.374246 0.007727 -0.302704 153 76 0
0.643154 0.034503 0.207609 153 76 0
0.362121 0.034503 0.317439 153 76 0
-0.309574 0.024318 0.246343 0 255 0
-0.432450 0.022240 -0.159699 76 0 153
-0.327330 -0.017976 -0.099188 153 0 76
-0.471803 0.050247 0.249567 153 76 0
0.195045 0.050247 -0.279474 153 0 76
0.482610 -0.016982 -0.318447 76 0 153
0.726176 -0.381922 0.358531 76 0 153
-0.022922 0.034503 0.273477 153 76 0
-0.373193 0.034503 0.329471 153 76 0
-0.309574 0.031872 0.162980 153 76 0
-0.072304 0.023839 -0.032437 76 153 0
-0.060871 0.050247 0.171959 153 76 0
-0.740394 -0.076667 -0.289584 76 0 153
-0.730717 0.005194 -0.253542 76 0 153
-0.192957 -0.007306 -0.243763 153 0 76
-0.342255 0.050247 -0.050978 153 76 0
0.435510 0.027739 0.023978 127 0 127
-0.177842 0.050247 -0.150711 153 76 0
0.722864 0.050247 0.304810 255 0 0
0.224193 0.034503 0.136916 153 76 0
-0.703149 0.050247 -0.269511 204 51 127
-0.669385 0.034503 -0.164811 76 0 153
0.172615 0.002452 0.023978 127 0 127
-0.474649 0.034503 0.194509 153 76 0
-0.718254 0.002611 -0.216471 76 0 153
0.295901 0.003549 0.136704 127 127 0
0.127772 0.050247 0.223679 153 76 0
-0.283384 0.034503 -0.095664 153 76 0
-0.577476 0.024906 0.044969 127 0 127
0.314269 0.021383 -0.259923 127 127 0
0.141885 0.034503 -0.214951 153 76 0
0.717701 -0.263507 0.383448 76 0 153
-0.639790 0.034503 0.183340 153 76 0
0.260324 0.034503 -0.283058 153 0 76
-0.086451 0.014594 0.358531 0 0 255
0.058695 -0.017976 0.380083 0 0 255
0.004081 0.021225 -0.318447 127 127 0
-0.711185 0.034503 0.250320 153 76 0
-0.490331 0.050247 0.016504 153 76 0
-0.573737 0.050247 0.023293 153 76 0
-0.469744 0.015065 -0.228395 76 0 153
0.736771 0.050247 0.198133 255 0 0
0.669149 0.050247 0.191298 255 0 0
0.226031 -0.007464 0.023978 127 0 127
0.654624 0.050247 -0.197651 153 76 0
-0.458155 0.037680 0.358531 153 76 0
-0.332534 0.002319 -0.081721 153 0 76
-0.604132 0.034503 -0.064959 153 76 0
0.031438 0.050247 -0.240724 153 76 0
0.143177 0.034503 -0.271213 153 0 76
-0.278853 0.034503 -0.264896 153 0 76
-0.558562 -0.002245 -0.032437 204 51 127
-0.418177 0.034503 -0.188223 153 76 0
-0.363849 0.050247 0.259743 153 76 0
0.590242 0.050247 0.314439 0 0 255
0.407411 0.034503 -0.278678 153 0 76
-0.161353 -0.007481 -0.302704 127 127 0
0.591075 0.050247 0.090618 153 76 0
-0.326356 0.050247 -0.219576 153 76 0
0.717701 -0.137207 -0.304577 153 0 76
0.396749 0.034503 0.290460 153 76 0
-0.679788 0.050247 -0.240277 204 51 127
0.693684 0.033925 0.023978 76 0 153
-0.407337 0.050247 -0.254971 153 0 76
-0.718965 -0.017976 -0.054628 76 0 153
-0.193366 0.050247 0.279743 153 76 0
0.156466 0.034503 0.092901 153 76 0
-0.306145 0.034503 0.196043 0 255 0
-0.109086 -0.017976 0.042831 127 0 127
-0.759581 -0.003204 0.290242 204 51 127
0.320071 -0.014895 0.044969 127 0 127
0.637542 0.050247 0.287940 153 76 0
0.022280 0.034503 0.256524 153 76 0
-0.086982 -0.007306 -0.122968 153 0 76
-0.541196 0.034503 0.319125 153 76 0
0.717701 -0.312440 0.370348 76 0 153
0.223097 -0.017976 -0.028160 153 0 76
-0.759581 0.029224 -0.025816 204 51 127
0.114547 0.050247 -0.267880 153 0 76
0.149933 -0.007306 -0.202344 153 0 76
0.382250 0.034503 -0.151552 153 76 0
-0.329591 -0.017976 -0.284909 153 0 76
-0.382222 0.034503 -0.156742 153 76 0
0.240913 -0.013403 -0.142418 153 0 76
0.107265 0.034503 -0.114235 153 76 0
0.611843 0.050247 -0.091246 153 76 0
0.664955 -0.013403 -0.046165 204 51 127
0.046911 0.050247 -0.099911 153 76 0
-0.730717 -0.457166 0.371861 153 76 0
0.356552 0.050247 0.342864 0 0 255
0.707144 0.050247 0.092669 255 0 0
0.717701 -0.179535 -0.301362 153 0 76
-0.298094 0.050247 -0.005500 153 76 0
-0.677993 -0.007306 -0.266111 0 0 255
0.661726 0.050247 0.112727 153 76 0
0.746564 -0.416057 0.374161 76 0 153
-0.559306 0.034503 -0.274246 153 0 76
0.015875 -0.013403 -0.296674 153 0 76
0.210311 -0.005430 0.044969 127 0 127
0.576534 0.032323 -0.271781 153 0 76
-0.084870 0.027334 0.387394 0 0 255
0.338387 0.050247 0.078970 153 76 0
-0.617994 -0.013403 -0.278382 0 0 255
-0.221217 0.050247 -0.210915 153 76 0
-0.278818 0.009984 -0.021941 76 153 0
0.021287 0.050247 0.323095 0 0 255
-0.323153 0.033847 -0.305352 153 76 0
-0.427901 0.034503 -0.044615 153 76 0
-0.095831 0.034503 0.183920 153 76 0
0.447495 0.034503 0.139976 153 76 0
0.379988 0.050247 0.101400 153 76 0
0.349199 -0.007306 -0.221673 204 51 127
-0.459365 0.034503 0.312606 153 76 0
0.046156 -0.013403 -0.039550 76 153 0
0.403588 -0.006580 0.358531 0 0 255
-0.422767 0.050247 0.015311 153 76 0
-0.202954 -0.013403 -0.267713 153 0 76
-0.166083 -0.017976 0.028171 127 0 127
0.701511 0.050247 -0.216675 255 0 0
0.103353 0.050247 0.142984 153 76 0
0.302095 0.050247 0.262642 153 76 0
-0.577342 0.050247 0.218773 153 76 0
0.192063 0.007841 -0.318447 127 127 0
-0.103229 -0.007306 -0.072653 153 0 76
-0.161483 0.050247 0.158004 153 76 0
-0.397263 0.034503 0.277315 153 76 0
-0.347964 0.050247 0.220982 153 76 0
-0.680583 0.050247 -0.058311 153 76 0
0.521020 0.050247 -0.053426 153 76 0
0.143103 0.050247 0.096437 153 76 0
-0.652310 0.019268 0.044969 127 0 127
0.669483 0.050247 0.215829 153 76 0
-0.721245 0.050247 0.248324 204 51 127
-0.371130 0.034503 0.302473 153 76 0
0.517755 0.050247 0.119271 153 76 0
-0.243772 0.034503 0.342923 153 76 0
0.199947 0.018409 -0.302704 127 127 0
-0.669793 0.034503 0.287086 153 76 0
0.698498 0.050247 -0.256626 255 0 0
0.147272 0.050247 0.129597 153 76 0
-0.616428 0.034503 0.035721 153 76 0
0.315485 0.050247 -0.007743 153 76 0
-0.569771 0.034503 0.267139 153 76 0
0.336118 0.050247 0.370264 0 0 255
-0.501315 0.034503 -0.073967 153 76 0
-0.203133 0.050247 0.338940 0 0 255
-0.692471 -0.007306 -0.122335 0 0 255
-0.395965 0.050247 -0.213100 153 76 0
-0.589547 0.004948 0.023978 127 0 127
-0.456872 -0.017976 0.024995 127 0 127
0.151489 0.050247 0.251941 153 76 0
-0.106653 0.034503 -0.170176 153 76 0
-0.025336 0.050247 0.000186 153 76 0
-0.506296 0.034503 -0.270119 153 0 76
0.609222 0.027983 0.387394 0 0 255
0.492132 0.034503 0.171114 153 76 0
0.398619 0.034503 -0.207747 153 76 0
0.486768 0.034503 0.210619 153 76 0
-0.355345 0.034503 -0.039187 153 76 0
-0.329195 0.050247 -0.077781 153 76 0
-0.457599 -0.007306 -0.213232 76 0 153
0.635782 0.050247 -0.244531 153 76 0
-0.527328 -0.000282 -0.174319 76 0 153
-0.398343 0.034503 0.125787 153 76 0
0.461035 -0.013403 -0.219263 204 51 127
0.103188 0.034503 -0.305758 153 0 76
0.365600 0.050247 0.251012 153 76 0
-0.730717 0.030681 -0.013322 76 0 153
0.172321 0.050247 0.353651 0 0 255
0.314334 0.034503 0.224941 153 76 0
0.636002 -0.007306 -0.266823 204 51 127
-0.163115 -0.013403 -0.259349 153 0 76
-0.713228 0.050247 -0.070476 204 51 127
0.406552 0.050247 0.012921 153 76 0
0.417240 -0.013403 -0.237084 204 51 127
-0.391138 0.034503 -0.089661 153 76 0
0.610158 0.050247 0.089110 153 76 0
-0.085616 0.034503 0.115577 153 76 0
-0.184084 0.034503 -0.119980 153 76 0
-0.356968 0.050247 -0.146384 153 76 0
0.073737 0.034503 -0.098023 153 76 0
0.694709 0.034503 -0.120891 153 76 0
-0.177052 0.034503 0.162626 153 76 0
0.093312 0.034503 0.124942 153 76 0
0.711123 0.050247 -0.005933 255 0 0
0.113794 -0.007306 -0.118336 153 0 76
0.715733 -0.015177 -0.092696 255 0 0
-0.637883 0.008068 -0.302704 153 76 0
-0.730717 0.032669 0.311479 204 51 127
-0.616734 0.050247 0.312929 153 76 0
-0.022424 0.050247 -0.066475 153 76 0
-0.461762 0.050247 -0.179214 153 76 0
-0.309857 0.050247 -0.201016 153 76 0
0.097230 0.050247 0.273049 153 76 0
-0.024856 0.050247 -0.280049 153 0 76
0.424233 0.050247 0.087043 153 76 0
-0.602161 0.050247 0.176090 153 76 0
-0.251466 0.034503 -0.043596 76 153 0
-0.730717 -0.326677 -0.299516 76 0 153
0.036459 -0.007306 -0.115875 153 0 76
-0.664046 -0.002445 -0.175442 0 0 255
0.735819 -0.258869 -0.317975 153 0 76
-0.486912 0.050247 0.129153 153 76 0
-0.260807 0.034503 -0.096896 153 76 0
0.288683 0.050247 -0.134472 153 76 0
-0.200167 0.034503 0.299395 153 76 0
0.036216 0.050247 0.002880 153 76 0
0.683102 0.050247 0.089211 255 0 0
-0.450051 0.009793 -0.032437 204 51 127
0.311645 -0.008556 0.111908 127 127 0
0.388626 -0.007306 -0.089594 204 51 127
-0.057316 0.028426 0.387394 0 0 255
-0.596787 0.014074 -0.068129 76 0 153
0.451350 0.034503 0.356179 153 76 0
-0.502789 0.034503 0.258888 153 76 0
-0.498232 0.050247 -0.102288 153 76 0
-0.755441 -0.547411 0.358531 153 76 0
-0.249247 0.050247 -0.264242 153 0 76
-0.670897 0.050247 0.211514 153 76 0
0.220022 0.050247 0.106048 153 76 0
0.590667 0.034503 0.209788 153 76 0
-0.684165 -0.013379 0.023978 127 0 127
0.477452 0.050247 0.070201 153 76 0
-0.428113 0.050247 -0.141991 153 76 0
-0.190812 0.034503 -0.046024 153 76 0
0.066918 -0.017976 0.039522 127 0 127
-0.574168 0.034503 0.091440 153 76 0
-0.194239 0.050247 0.308930 153 76 0
0.235103 0.050247 0.210970 153 76 0
-0.246476 0.034503 0.261014 153 76 0
0.461761 0.050247 -0.205944 153 76 0
0.317250 0.034503 0.182857 153 76 0
0.442263 0.049738 0.386237 0 0 255
-0.312057 0.050247 0.051960 153 76 0
-0.449182 0.050247 -0.262231 153 0 76
0.050670 0.034503 0.027521 127 0 127
-0.521943 0.034503 0.035011 153 76 0
0.058046 -0.013403 -0.122995 153 0 76
0.547005 0.050247 0.322918 0 0 255
0.234135 0.001834 -0.318447 127 127 0
-0.730717 -0.259851 -0.309502 76 0 153
0.746564 0.014357 0.363328 255 0 0
-0.715177 -0.017733 -0.302704 76 0 153
-0.535157 -0.017976 0.044469 127 0 127
-0.420022 0.031860 0.387394 0 0 255
0.341738 0.034503 0.188925 153 76 0
0.647983 -0.013403 -0.173630 204 51 127
-0.730717 -0.127982 0.381515 153 76 0
-0.097836 0.034503 0.320233 153 76 0
-0.625419 -0.007306 -0.149282 0 0 255
0.270491 0.015980 -0.318447 127 127 0
-0.552971 -0.013403 -0.125636 0 0 255
-0.110835 -0.007306 -0.146596 153 0 76
0.453352 0.050247 0.370820 0 0 255
0.051224 0.034503 -0.243961 153 0 76
-0.638492 0.050247 -0.278266 153 0 76
0.638931 0.034503 -0.098933 153 76 0
0.469787 0.034503 0.250164 153 76 0
0.092861 0.034503 0.223101 153 76 0
-0.179960 0.002341 0.358531 0 0 255
0.366741 0.034503 -0.255212 153 0 76
-0.047014 -0.017976 0.359339 0 0 255
-0.270839 0.050247 -0.090891 153 76 0
0.545924 -0.007306 -0.102429 204 51 127
-0.477015 0.034503 0.347138 153 76 0
0.213054 0.034503 -0.040404 153 76 0
-0.530044 0.034503 0.258741 153 76 0
0.745633 -0.320226 -0.310009 153 0 76
-0.055110 0.034503 0.011202 127 0 127
-0.080325 0.008902 0.023978 127 0 127
0.300274 0.034503 -0.304272 76 0 153
-0.354461 -0.007306 -0.042941 0 0 255
-0.759581 0.041527 -0.097604 204 51 127
-0.661007 -0.013403 -0.076424 0 0 255
0.017417 -0.013403 -0.160598 153 0 76
0.699965 0.034503 -0.141769 153 76 0
-0.109854 -0.012675 0.358531 0 0 255
-0.325318 0.010731 -0.044331 0 255 0
-0.506081 0.034503 -0.096887 153 76 0
-0.383565 0.006774 -0.175442 76 0 153
0.628483 0.009360 -0.302704 76 0 153
-0.642686 0.050247 -0.243719 153 76 0
-0.370668 0.034503 -0.186084 153 76 0
-0.400406 0.050247 -0.277251 153 0 76
-0.474826 0.034503 -0.018673 204 51 127
0.552070 0.050247 0.285202 153 76 0
0.377001 0.031634 0.358531 153 76 0
-0.487122 0.034503 0.104143 153 76 0
0.681239 0.050247 0.296449 255 0 0
0.182752 0.050247 0.109523 153 76 0
-0.273115 0.050247 0.324570 0 0 255
0.740272 -0.531666 0.385188 76 0 153
0.572296 -0.017976 -0.317296 76 0 153
0.208261 -0.017976 0.386965 0 0 255
0.211323 0.034503 0.053823 127 0 127
-0.463770 0.034503 0.036100 127 0 127
0.684871 -0.017976 0.375247 0 0 255
0.412786 0.034503 -0.145375 153 76 0
0.497660 0.050247 -0.166169 153 76 0
-0.081657 0.050247 -0.099808 153 76 0
-0.136599 -0.007306 -0.212936 153 0 76
0.636464 0.034503 0.126275 153 76 0
0.644366 0.050247 0.322174 0 0 255
0.033323 0.004208 0.044969 127 0 127
-0.081693 0.050247 0.287065 153 76 0
0.287084 0.050247 0.021475 153 76 0
0.721601 -0.017976 0.143518 255 0 0
-0.038282 -0.013403 -0.269449 153 0 76
0.717701 -0.209282 -0.309703 153 0 76
-0.066261 0.050247 0.224236 153 76 0
-0.236100 0.001767 0.023978 127 0 127
-0.066634 0.034503 0.303461 153 76 0
0.353398 0.050247 -0.204423 153 76 0
-0.021287 0.034503 0.211437 153 76 0
0.150899 0.050247 0.359469 0 0 255
0.628462 0.034503 0.284874 153 76 0
-0.743563 -0.017976 0.061843 204 51 127
-0.304779 0.050247 0.261208 153 76 0
-0.633669 0.034503 0.006261 127 0 127
0.519830 -0.013403 -0.146640 204 51 127
-0.365325 0.039069 -0.289584 153 0 76
-0.029496 0.002322 -0.302704 127 127 0
-0.367603 0.050222 0.384896 0 0 255
0.446231 0.004359 -0.221796 76 0 153
-0.612258 0.050247 0.368826 0 0 255
-0.025601 0.050247 0.363756 0 0 255
-0.512399 0.031509 -0.302704 153 0 76
-0.692938 -0.007306 -0.034046 204 51 127
0.199372 0.034503 0.292533 153 76 0
-0.730717 0.003102 0.328401 204 51 127
0.241207 0.034503 -0.249223 153 0 76
-0.135242 0.050247 0.186850 153 76 0
-0.203206 0.034503 0.013586 127 0 127
0.456727 -0.000348 -0.166238 76 0 153
-0.239380 0.017888 -0.032437 76 153 0
-0.193565 0.034503 0.260387 153 76 0
0.673009 0.034503 0.229901 153 76 0
0.676871 0.050247 -0.284369 255 0 0
-0.070282 0.034503 -0.166814 153 76 0
-0.719198 0.050247 0.141572 204 51 127
0.735423 -0.151224 0.358531 76 0 153
-0.729071 0.027933 -0.318447 153 76 0
0.164846 0.034503 -0.056157 153 76 0
0.303045 0.050247 0.205797 153 76 0
0.678930 0.008634 0.044969 127 0 127
-0.309574 -0.010466 0.146228 0 255 0
0.165854 0.050247 0.236292 153 76 0
0.311645 0.019649 -0.178872 153 76 0
0.725709 -0.466744 0.358531 76 0 153
-0.676637 0.050247 -0.217642 204 51 127
-0.354054 0.050247 -0.215583 153 76 0
-0.489691 0.005850 -0.032437 204 51 127
-0.546297 0.050247 -0.228192 153 76 0
0.198950 0.017370 0.387394 0 0 255
-0.302922 0.050247 0.217705 153 76 0
-0.745357 0.033263 0.358531 204 51 127
-0.591785 0.050247 -0.098002 153 76 0
-0.691218 0.050247 -0.073946 204 51 127
0.623097 0.050247 0.122585 153 76 0
-0.526758 0.034503 0.091956 153 76 0
-0.746044 -0.017976 0.145437 204 51 127
-0.483998 0.050247 -0.050121 153 76 0
0.222024 0.050247 -0.226318 153 76 0
0.555851 0.034503 0.327106 153 76 0
-0.577041 0.034503 0.286305 153 76 0
0.090488 0.034503 0.306883 153 76 0
0.034856 0.034503 -0.200024 153 76 0
0.293933 0.031465 -0.246982 127 127 0
0.043491 0.050247 -0.291633 153 0 76
0.456727 0.019347 -0.145841 76 0 153
0.386173 0.034503 -0.318372 76 0 153
-0.251190 0.034503 0.189911 153 76 0
0.245030 0.050247 -0.045251 153 76 0
0.640230 0.034503 0.039245 127 0 127
0.219064 0.034503 -0.203592 153 76 0
-0.746450 -0.418448 0.387394 153 76 0
-0.341939 0.034503 0.276617 153 76 0
0.009928 0.034503 0.307036 153 76 0
0.547698 -0.013117 0.387394 0 0 255
0.251818 0.034503 -0.183516 153 76 0
-0.443992 0.050247 0.290789 153 76 0
-0.141457 0.050247 -0.091279 153 76 0
-0.556485 0.005570 -0.175442 76 0 153
-0.031124 0.034503 0.074585 153 76 0
0.746564 0.042171 0.165448 255 0 0
0.717701 -0.137122 0.371070 76 0 153
0.062336 0.050247 -0.121270 153 76 0
-0.319230 0.050247 0.304825 153 76 0
-0.495341 0.050247 -0.176373 153 76 0
0.680854 0.050247 -0.040123 255 0 0
0.409831 0.034503 0.114581 153 76 0
0.665432 0.050247 -0.005614 153 76 0
-0.730717 -0.110824 -0.307903 76 0 153
0.140597 0.023944 -0.302704 153 0 76
-0.335998 0.034503 0.014192 127 127 0
-0.224672 0.034503 0.215200 153 76 0
-0.456082 -0.013403 -0.172348 0 0 255
-0.718521 0.008279 0.023978 76 0 153
0.736546 -0.417616 -0.317830 153 0 76
0.072441 -0.000728 -0.021941 76 153 0
0.283438 0.025402 -0.269582 0 127 127
0.701957 0.020498 -0.007671 76 0 153
-0.135156 0.034503 0.323623 153 76 0
-0.543816 0.050247 0.210380 153 76 0
-0.126939 -0.007306 -0.057889 153 0 76
-0.756505 0.050247 0.130424 204 51 127
0.311645 0.028120 0.115340 153 76 0
-0.393233 0.034503 0.215739 153 76 0
-0.027117 0.050247 -0.188389 153 76 0
-0.404001 0.000843 0.044969 127 0 127
0.073602 0.034585 -0.318447 127 127 0
0.314269 -0.017808 -0.097041 153 76 0
0.636921 0.049345 0.386715 0 0 255
-0.169129 0.034503 -0.094254 153 76 0
0.540734 0.034503 0.288270 153 76 0
-0.074541 0.050247 -0.002078 153 76 0
0.446471 0.032323 -0.085270 76 0 153
-0.361167 0.002812 -0.318447 153 76 0
-0.602412 0.022010 -0.318447 153 76 0
0.717701 -0.002493 -0.057550 76 0 153
0.746564 0.020558 0.122576 255 0 0
0.577256 -0.013403 -0.262081 204 51 127
0.131035 0.034503 -0.049826 153 76 0
-0.183349 0.050247 0.110068 153 76 0
-0.620878 0.001935 -0.302704 153 76 0
-0.698913 0.050247 -0.201786 204 51 127
0.746564 0.033021 -0.057379 255 0 0
-0.262986 0.050247 -0.249159 153 0 76
-0.043756 -0.007306 -0.045728 153 0 76
-0.273994 0.050247 -0.043853 153 76 0
-0.124312 -0.013403 -0.199237 153 0 76
0.505432 0.050247 0.245700 153 76 0
-0.206408 0.029935 -0.318447 127 127 0
-0.093718 -0.007306 -0.033946 76 153 0
0.385738 0.050247 0.029290 153 76 0
0.532053 0.034503 -0.253900 153 0 76
-0.211079 0.050247 0.202699 153 76 0
-0.627285 0.050247 0.183256 153 76 0
0.439231 0.050247 0.163358 153 76 0
-0.196820 0.034503 -0.205751 153 76 0
-0.759581 0.029752 0.087741 204 51 127
-0.414450 -0.013403 -0.256192 0 0 255
0.361553 0.034503 0.154679 153 76 0
-0.709387 0.034503 -0.251581 153 0 76
0.327389 0.017569 0.010417 255 0 0
-0.364666 -0.007306 -0.077812 0 0 255
-0.311712 -0.012728 0.336924 0 255 0
0.357573 0.050247 -0.290205 153 0 76
-0.585221 -0.007306 -0.226625 0 0 255
-0.730717 0.005233 -0.002384 204 51 127
0.037982 0.050247 0.136263 153 76 0
-0.110493 0.034503 0.296309 153 76 0
-0.437053 -0.013403 -0.169383 76 0 153
-0.074008 0.034503 0.019151 127 0 127
0.456751 0.050247 0.114410 153 76 0
-0.092122 -0.011128 -0.302704 153 0 76
0.211164 0.050247 0.357886 0 0 255
0.432620 0.033847 -0.303411 76 0 153
0.685449 0.034503 0.141738 153 76 0
0.426819 0.050247 -0.116635 153 76 0
0.451749 0.034503 0.030892 153 76 0
0.293933 0.023397 -0.203119 0 127 127
-0.444606 0.029091 -0.302704 153 76 0
-0.219086 0.034503 -0.097704 153 76 0
0.253246 0.033847 -0.317403 127 127 0
-0.292148 0.026005 0.044969 127 0 127
0.646723 0.050247 -0.155194 153 76 0
0.044130 0.050247 0.222805 153 76 0
-0.209628 0.050247 0.239198 153 76 0
-0.248282 0.031574 -0.021941 76 153 0
-0.305847 0.034503 0.006350 127 0 127
0.106748 0.015444 0.044969 127 0 127
0.717701 -0.064674 0.362940 76 0 153
-0.517245 -0.013403 -0.127820 0 0 255
-0.325318 0.006029 0.237936 0 255 0
-0.148798 0.034503 0.093352 153 76 0
-0.718254 -0.000826 -0.194826 76 0 153
-0.694823 0.050247 0.124044 204 51 127
-0.202131 0.034503 -0.118255 153 76 0
0.358778 0.034503 0.053835 153 76 0
0.683395 0.050247 0.254829 255 0 0
0.461763 0.034503 -0.268735 153 0 76
0.388317 -0.007306 -0.151728 204 51 127
-0.343904 0.034503 -0.075860 153 0 76
0.593854 0.050247 -0.287730 153 0 76
-0.759581 0.037470 0.069083 204 51 127
0.730531 0.050247 0.366670 255 0 0
0.018758 0.006964 -0.318447 127 127 0
-0.153491 0.050247 0.078732 153 76 0
0.278538 -0.013403 -0.038324 0 127 127
-0.671781 0.050247 0.377300 0 0 255
-0.685247 0.050247 0.254219 153 76 0
-0.395076 -0.007306 -0.191041 0 0 255
-0.327286 -0.000671 -0.229012 0 255 0
0.588110 0.034503 -0.009928 153 76 0
-0.730717 -0.061497 0.377009 153 76 0
-0.410096 0.034503 -0.295606 153 76 0
0.688032 0.050247 0.199698 255 0 0
-0.494046 -0.017976 -0.302827 0 0 255
0.682825 0.050247 0.169267 255 0 0
0.292814 0.050247 0.181133 153 76 0
0.276132 -0.007306 -0.252957 153 0 76
0.243087 0.034503 -0.272294 153 0 76
-0.632375 0.034503 -0.051294 153 76 0
-0.477850 -0.013403 -0.144520 0 0 255
-0.684454 0.050247 0.139049 204 51 127
-0.349588 -0.007306 -0.226902 0 0 255
0.564610 0.001205 -0.021941 153 0 76
-0.608171 0.050247 0.345081 0 0 255
-0.669559 -0.017976 0.376366 0 0 255
-0.456849 0.034503 -0.212951 153 76 0
-0.572360 0.050247 -0.066553 153 76 0
0.691818 -0.013403 -0.079166 204 51 127
-0.419985 -0.017976 0.371218 0 0 255
0.717701 0.036453 -0.156284 76 0 153
0.003928 0.050247 0.203340 153 76 0
0.311645 0.023454 -0.140811 153 76 0
0.032762 0.007755 -0.021941 76 153 0
0.050082 0.050247 0.205757 153 76 0
0.657220 0.034503 -0.150544 153 76 0
-0.644361 0.034503 0.200971 153 76 0
-0.317499 0.031724 0.023978 0 255 0
-0.453251 0.050247 0.212433 153 76 0
-0.661835 0.026406 -0.302704 153 76 0
0.071249 0.050247 -0.227852 153 76 0
-0.011432 0.034503 -0.049367 153 76 0
-0.743124 0.031793 0.387394 204 51 127
-0.017721 -0.007306 -0.091804 153 0 76
0.417015 -0.007306 -0.090719 204 51 127
-0.469744 0.010738 -0.127213 76 0 153
-0.003425 -0.007306 -0.217044 153 0 76
0.351038 0.050247 0.009393 153 76 0
-0.231874 -0.017732 -0.021941 76 153 0
-0.730717 -0.001579 0.058051 204 51 127
-0.295517 -0.007306 -0.156982 127 0 127
-0.197610 0.050247 -0.108077 153 76 0
0.336568 -0.016382 0.023978 127 0 127
0.196137 -0.013403 -0.248537 153 0 76
0.571643 0.050247 0.000395 153 76 0
0.139516 -0.017976 -0.305007 127 127 0
0.551143 -0.013403 -0.210834 204 51 127
-0.322173 0.031402 0.358531 0 255 0
0.646888 0.050247 -0.014772 153 76 0
-0.325318 -0.002566 0.180653 0 255 0
-0.696259 0.050247 0.178834 204 51 127
-0.169825 -0.013403 -0.219221 153 0 76
0.119850 0.034503 0.358471 153 76 0
-0.694029 0.050247 -0.102953 204 51 127
-0.746233 -0.421778 -0.289584 76 0 153
0.147808 0.050247 -0.071179 153 76 0
0.569572 0.050247 0.262901 153 76 0
0.398537 0.050247 0.257168 153 76 0
0.180671 0.028242 -0.302704 127 127 0
0.392828 0.050247 -0.120088 153 76 0
0.352848 -0.004910 0.044969 127 0 127
0.202393 -0.013403 -0.033472 153 0 76
-0.031644 0.050247 0.210770 153 76 0
-0.475320 0.050247 -0.295367 153 0 76
0.054019 -0.017976 0.027203 127 0 127
0.215199 -0.007306 -0.217829 153 0 76
-0.252258 0.050247 0.297291 153 76 0
0.717701 -0.343431 0.370643 76 0 153
0.743717 0.050247 -0.084694 255 0 0
-0.061599 0.050247 0.078674 153 76 0
0.684564 -0.017976 0.030529 127 0 127
0.357479 0.034503 -0.233360 153 0 76
0.265705 0.050247 0.101211 153 76 0
-0.603860 0.034503 -0.305586 153 76 0
-0.738515 -0.017976 0.088350 204 51 127
-0.171179 -0.007306 -0.070141 153 0 76
-0.500514 0.050247 0.349446 0 0 255
0.395687 0.034503 -0.046018 153 76 0
-0.545871 0.032323 -0.173304 76 0 153
0.297235 0.034503 0.060009 127 127 0
0.609552 0.050247 -0.016016 153 76 0
0.314269 0.015272 -0.076617 127 127 0
-0.654424 0.050247 0.246703 153 76 0
-0.042059 -0.013403 -0.087940 153 0 76
0.221606 0.034503 -0.113551 153 76 0
-0.687705 0.013511 0.023978 127 0 127
-0.235619 0.018270 -0.318447 127 127 0
-0.673311 0.034503 0.049350 127 0 127
0.685139 -0.007306 -0.219837 204 51 127
-0.073724 -0.007306 -0.042364 153 0 76
0.464424 0.001406 -0.032437 153 0 76
-0.293831 0.017871 -0.014361 127 0 127
-0.531413 0.005936 -0.302704 153 76 0
0.567170 0.034503 -0.124613 153 76 0
-0.439908 0.034503 0.171204 153 76 0
-0.395879 0.050247 -0.080253 153 76 0
-0.127530 0.050247 0.066417 153 76 0
-0.425749 0.003573 -0.302704 153 76 0
0.746564 -0.097522 0.372060 76 0 153
0.118334 0.034503 0.086463 153 76 0
0.146617 0.034503 0.177221 153 76 0
-0.730717 -0.502956 -0.307164 76 0 153
-0.722342 0.050247 0.323573 204 51 127
0.217000 0.034503 0.263170 153 76 0
0.359245 0.034503 -0.128266 153 76 0
0.172113 -0.015864 -0.021941 76 153 0
-0.469259 0.050247 0.069344 153 76 0
0.448070 -0.003837 0.023978 127 0 127
-0.643576 0.034503 -0.252549 153 0 76
0.573274 0.005240 -0.079164 76 0 153
-0.003260 0.050247 -0.267951 153 0 76
0.269761 -0.000470 0.044969 127 0 127
-0.700906 0.050247 0.041945 204 51 127
-0.053981 0.034503 -0.225390 153 0 76
-0.164942 0.050247 -0.283418 153 0 76
0.606355 0.050247 -0.126210 153 76 0
-0.625921 0.008655 -0.159699 76 0 153
-0.563437 -0.013403 -0.166991 0 0 255
0.733583 -0.230706 0.387366 76 0 153
-0.679386 0.034503 0.168612 153 76 0
-0.479341 0.015512 -0.159699 76 0 153
-0.059080 0.050247 0.053606 153 76 0
-0.209621 0.037428 -0.289584 153 0 76
-0.668336 0.002624 -0.318447 153 76 0
0.041573 -0.013403 -0.065030 153 0 76
0.509858 -0.010387 0.387394 0 0 255
-0.118076 0.050247 0.161353 153 76 0
-0.203262 0.034503 -0.258057 153 0 76
-0.296174 -0.013403 -0.290269 153 0 76
0.746564 -0.015402 -0.146199 255 0 0
-0.297324 -0.013403 -0.037064 127 0 127
0.587588 0.050247 -0.058383 153 76 0
0.069176 -0.013403 -0.101984 153 0 76
-0.308262 0.022889 -0.151495 127 0 127
-0.482029 0.034503 0.319083 153 76 0
0.733208 -0.126777 0.387394 76 0 153
-0.132764 0.034503 0.120763 153 76 0
-0.200763 0.050247 0.373171 0 0 255
0.156978 0.050247 -0.050109 153 76 0
-0.155534 0.034503 -0.165347 153 76 0
0.302005 0.050247 0.382874 0 0 255
-0.675309 0.034503 0.188505 153 76 0
0.448471 0.032323 -0.227955 76 0 153
-0.311731 0.034503 -0.101646 127 0 127
0.360171 0.034503 -0.034678 153 76 0
-0.549413 -0.013403 -0.240896 0 0 255
0.021007 0.050247 0.017855 153 76 0
0.036136 0.034503 0.216388 153 76 0
-0.721816 0.050247 -0.204914 204 51 127
-0.254116 0.034503 0.157402 153 76 0
0.564006 0.034503 -0.036539 153 0 76
0.208097 0.050247 0.271778 153 76 0
-0.417108 0.050247 0.118366 153 76 0
0.322726 0.050247 0.139996 153 76 0
-0.718254 0.002803 -0.033352 76 0 153
0.237607 0.034503 -0.155284 153 76 0
-0.308262 0.027283 -0.271242 0 255 0
-0.110920 0.034503 0.052702 127 0 127
0.295901 0.033604 0.328618 127 127 0
-0.349787 -0.013403 -0.069686 0 0 255
-0.089555 0.050247 -0.245276 153 0 76
-0.131003 -0.013384 0.023978 127 0 127
-0.011401 -0.007306 -0.071922 153 0 76
0.735224 -0.017976 0.240551 255 0 0
0.342519 0.034503 -0.037043 153 0 76
-0.256711 0.034503 -0.217842 153 76 0
0.208120 -0.003821 -0.318447 127 127 0
-0.343744 0.034503 -0.255218 153 0 76
0.283003 0.000943 0.358531 127 127 0
0.240055 0.050247 0.375487 0 0 255
-0.746421 0.032722 -0.289584 204 51 127
-0.374618 -0.007306 -0.112185 0 0 255
0.258094 0.050247 0.144948 153 76 0
0.068369 0.034503 0.341425 153 76 0
0.409069 -0.007306 -0.143013 204 51 127
0.148232 0.050247 -0.124969 153 76 0
-0.657441 0.034503 0.219736 153 76 0
-0.583779 0.015439 -0.021941 204 51 127
0.578420 0.050247 0.020285 153 76 0
0.691589 0.034503 0.224200 153 76 0
0.084241 -0.013403 -0.131819 153 0 76
0.361567 0.050247 -0.055241 153 76 0
0.575417 0.050247 0.108191 153 76 0
0.517636 0.034503 -0.007405 153 76 0
0.437271 0.050247 0.231934 153 76 0
-0.309574 -0.007598 -0.009799 0 255 0
0.387928 0.034503 -0.287808 153 0 76
-0.178247 0.050247 -0.269270 153 0 76
-0.652492 0.034503 0.076331 153 76 0
-0.418602 -0.003098 -0.318447 153 76 0
-0.007085 0.050247 -0.022903 153 76 0
-0.184396 0.050247 0.155761 153 76 0
0.735767 0.050247 0.233433 255 0 0
0.295901 0.014859 0.055465 127 127 0
-0.185562 0.034503 0.287970 153 76 0
-0.018663 -0.016867 -0.021941 76 153 0
-0.048878 0.034503 0.256533 153 76 0
-0.565856 0.050247 0.115003 153 76 0
-0.291501 0.050247 -0.139302 153 76 0
0.011269 0.050247 0.112322 153 76 0
-0.548654 0.050247 0.358000 0 0 255
-0.660662 0.034503 0.031762 153 76 0
-0.676713 0.050247 -0.020707 153 76 0
0.302524 0.050247 0.010482 153 76 0
0.675885 0.034503 0.267181 153 76 0
0.456340 0.050247 -0.136034 153 76 0
-0.124393 -0.007306 -0.260601 153 0 76
0.682896 0.048567 -0.318259 255 0 0
0.544308 0.034503 0.108242 153 76 0
-0.690794 0.034503 -0.169140 76 0 153
0.593980 0.034503 -0.301226 76 0 153
0.108232 0.034503 0.301242 153 76 0
0.505807 0.029152 0.358531 153 76 0
0.111671 0.050247 -0.249355 153 76 0
-0.556302 0.050247 -0.244151 153 0 76
-0.112233 0.050247 0.342309 0 0 255
0.232966 0.050247 0.124125 153 76 0
0.108058 0.034503 0.155329 153 76 0
0.705237 -0.000494 -0.154091 76 0 153
0.746564 -0.005082 0.066051 255 0 0
-0.309574 0.020684 0.323874 0 255 0
0.735030 -0.062224 0.387079 76 0 153
0.728043 -0.316644 0.387394 76 0 153
0.345503 0.034503 0.311560 153 76 0
0.244719 0.020025 -0.302704 127 127 0
-0.159774 -0.007306 -0.192287 153 0 76
-0.425261 0.034503 -0.282310 153 0 76
0.434633 -0.007306 -0.286628 204 51 127
0.705237 0.017424 -0.129918 76 0 153
-0.365150 -0.013403 -0.187322 0 0 255
-0.022836 0.041927 -0.318447 127 127 0
0.738084 -0.017976 -0.236680 255 0 0
-0.341565 -0.004640 0.358531 0 0 255
-0.748952 0.050247 0.150287 204 51 127
-0.287823 0.050247 0.369115 0 0 255
0.590711 0.020829 -0.318447 76 0 153
-0.228664 -0.007306 -0.253014 153 0 76
-0.552414 0.050247 -0.055054 153 76 0
-0.720287 0.050247 0.291538 204 51 127
-0.431309 0.007259 0.023978 127 0 127
0.607886 -0.013403 -0.266139 204 51 127
0.200291 0.034503 -0.069504 153 76 0
-0.738028 -0.017976 0.274771 204 51 127
-0.356953 0.050247 0.331041 0 0 255
-0.139764 0.034503 0.027056 127 0 127
-0.758629 -0.424321 -0.310115 76 0 153
-0.752180 -0.464323 0.358531 153 76 0
0.106955 0.034503 -0.287692 153 0 76
0.262949 0.034503 0.130474 153 76 0
-0.296146 0.050247 0.276540 153 76 0
-0.621529 0.050247 -0.273602 153 0 76
0.580657 0.034503 0.081494 153 76 0
0.196224 -0.003792 -0.302704 127 127 0
-0.680731 0.050247 -0.117435 153 76 0
0.094029 -0.013403 -0.185327 153 0 76
0.606725 0.050247 -0.188048 153 76 0
-0.583144 0.050247 -0.011590 153 76 0
0.370278 0.050247 -0.142776 153 76 0
0.404716 0.050247 -0.263724 153 0 76
-0.384537 0.028589 -0.318447 153 76 0
0.031147 0.034503 -0.113166 153 76 0
0.311645 0.019542 0.145806 127 127 0
-0.236759 0.034503 0.056645 127 0 127
-0.587318 0.034503 -0.035119 153 76 0
-0.320374 -0.000777 -0.289584 0 255 0
0.210302 -0.000535 0.358531 0 0 255
-0.737662 -0.145435 0.358531 153 76 0
-0.290507 0.034503 0.155353 153 76 0
0.154980 0.034503 -0.022344 76 153 0
-0.656719 0.050247 0.336860 0 0 255
-0.561774 0.001480 0.044969 127 0 127
0.465703 0.050247 -0.034607 153 76 0
-0.316404 0.034503 -0.060299 0 255 0
