ply
format ascii 1.0
element vertex 1251
property float x
property float y
property float z
property uchar red
property uchar green
property uchar blue
end_header
-0.542392 -0.550356 -0.358393 0 127 127
0.318206 0.447922 0.557050 153 0 76
-0.539205 0.391451 0.518143 153 0 76
-0.134641 0.301475 0.566053 153 0 76
-0.322447 -0.594139 -0.519828 127 0 127
-0.542392 0.062854 0.296389 0 127 127
0.170280 -0.541026 0.502374 153 0 76
0.512448 -0.658220 -0.223677 127 0 127
0.511463 -0.129502 0.036807 0 127 127
0.192327 -0.326695 -0.519828 0 127 127
-0.263561 0.769367 0.540412 153 0 76
-0.542392 -0.537648 -0.098978 0 127 127
-0.162614 -0.342187 -0.519828 0 127 127
0.511270 -0.675011 -0.500957 127 0 127
0.200614 -0.717636 0.013507 127 0 127
-0.491260 0.157656 -0.519821 0 127 127
0.024303 -0.717636 -0.363028 127 0 127
0.511573 0.071377 -0.111068 0 127 127
0.045945 0.773612 -0.274150 0 127 127
0.357752 0.573862 0.554387 153 0 76
0.095260 0.015302 -0.519828 0 127 127
0.143721 -0.688704 0.341903 127 0 127
0.511463 0.408918 0.394140 0 127 127
0.512462 0.545090 0.050437 0 127 127
0.496772 0.772924 -0.147768 0 127 127
0.150483 -0.107675 0.565044 153 0 76
-0.098392 0.054123 0.566971 153 0 76
-0.542392 0.209612 0.021123 0 127 127
-0.542339 0.718086 -0.444904 0 127 127
0.104903 0.773612 0.196213 0 127 127
-0.072755 0.767437 0.483661 76 0 153
0.471718 -0.053492 0.544479 153 0 76
0.001643 -0.099615 0.567615 153 0 76
0.122471 -0.345949 -0.519828 0 127 127
-0.162335 -0.408258 -0.519828 0 127 127
-0.542392 0.257634 -0.281266 0 127 127
0.226823 0.515108 -0.519828 0 127 127
0.378714 -0.717636 -0.422695 127 0 127
-0.367091 -0.445686 -0.519828 0 127 127
0.512116 0.340733 0.181666 0 127 127
-0.542392 0.486899 -0.018524 0 127 127
-0.484201 -0.430704 0.546264 153 0 76
0.310552 0.767204 0.498048 153 0 76
-0.542392 -0.426041 -0.440347 0 127 127
-0.381079 -0.380271 -0.519828 0 127 127
0.214627 0.113868 0.562630 153 0 76
-0.000973 0.161861 -0.519828 0 127 127
-0.542392 0.586426 0.074253 0 127 127
-0.542392 0.006641 -0.297719 0 127 127
0.203732 -0.457467 0.563079 153 0 76
0.123745 -0.717636 -0.137856 127 0 127
0.467619 0.773219 -0.449798 0 127 127
-0.267270 0.773052 0.183506 0 127 127
0.153099 -0.533538 0.558172 153 0 76
0.512462 -0.017253 -0.074279 0 127 127
0.471051 0.389831 0.544495 153 0 76
0.062459 0.698488 0.603634 76 0 153
-0.496246 -0.717634 0.048918 127 0 127
-0.542392 -0.099807 0.225511 0 127 127
-0.542392 -0.630032 0.223434 127 0 127
-0.004039 -0.023081 0.567633 153 0 76
-0.542392 0.231668 0.121138 0 127 127
0.512462 -0.584556 0.273017 127 0 127
0.511713 0.316349 0.436455 0 127 127
0.512462 -0.428413 -0.218050 0 127 127
-0.318356 0.115242 0.558744 153 0 76
-0.542392 0.129239 0.256376 0 127 127
0.449429 -0.717635 0.204123 127 0 127
-0.542392 -0.257737 0.182276 0 127 127
-0.435935 -0.717636 -0.051610 127 0 127
0.511464 0.074004 0.361425 0 127 127
0.512462 0.378735 -0.303215 0 127 127
-0.260357 -0.233538 0.561897 153 0 76
0.511464 -0.029405 -0.345652 0 127 127
-0.087580 -0.548344 0.380528 0 127 127
0.512027 -0.370973 -0.031186 0 127 127
0.055750 -0.237090 0.567166 153 0 76
0.362026 -0.219650 -0.519828 0 127 127
0.512462 0.323451 0.027475 0 127 127
-0.258373 -0.717636 -0.390763 127 0 127
-0.480924 0.773611 -0.284442 0 127 127
-0.103263 0.773612 0.237541 0 127 127
-0.542391 0.430692 0.429303 0 127 127
-0.062211 -0.717636 -0.117093 127 0 127
-0.281004 -0.717636 0.152621 127 0 127
-0.542392 0.621250 -0.105649 0 127 127
0.277386 0.773292 -0.051873 0 127 127
0.436671 0.773396 0.422172 0 127 127
-0.540312 0.329155 -0.509619 0 127 127
-0.542098 -0.376186 -0.492649 0 127 127
0.122987 0.061724 -0.519828 0 127 127
0.512462 -0.458912 -0.256417 0 127 127
0.201997 0.692440 0.602103 76 0 153
0.422499 -0.717636 -0.410478 127 0 127
-0.110491 -0.717636 -0.306114 127 0 127
-0.368685 0.773612 -0.304315 0 127 127
0.285294 0.764716 -0.510158 0 127 127
-0.541564 -0.273871 0.476221 153 0 76
0.512462 0.440514 -0.430569 0 127 127
-0.111049 0.660216 -0.519828 0 127 127
0.015316 0.773612 -0.131888 0 127 127
0.012176 -0.434896 0.567581 153 0 76
0.512463 -0.533646 -0.458418 0 127 127
0.483489 0.115042 0.539633 153 0 76
-0.542392 0.276576 0.080445 0 127 127
-0.527522 -0.198824 0.535296 153 0 76
0.366657 0.772987 -0.264317 0 127 127
-0.349057 -0.564988 0.356097 127 0 127
0.349456 0.245409 -0.519828 0 127 127
-0.205429 0.772320 0.455978 153 0 76
0.512462 0.656002 -0.337077 0 127 127
-0.371174 0.773482 0.175002 0 127 127
0.331014 0.772613 -0.315538 0 127 127
0.446300 -0.630093 0.342831 127 0 127
-0.542392 -0.457804 0.051774 0 127 127
-0.469653 0.773612 0.170578 0 127 127
0.045960 -0.717636 0.042122 127 0 127
0.434554 0.755993 -0.514993 0 127 127
0.500086 0.771108 0.370581 0 127 127
0.404816 0.476326 0.550649 153 0 76
0.000825 0.773612 -0.224898 0 127 127
-0.542392 0.287842 -0.078458 0 127 127
0.017419 -0.036520 -0.519828 0 127 127
0.511464 0.063005 0.267473 0 127 127
-0.542392 0.399904 -0.445539 0 127 127
0.078408 -0.408191 -0.519828 0 127 127
-0.527059 0.773086 -0.007829 0 127 127
0.003715 -0.717636 -0.255516 127 0 127
-0.541763 0.333449 0.468712 153 0 76
-0.358777 0.699920 -0.519829 0 127 127
0.033867 -0.312717 -0.519828 0 127 127
0.512462 -0.472561 -0.109047 0 127 127
0.241234 0.297299 -0.519828 0 127 127
0.512462 -0.500146 -0.357657 0 127 127
-0.041162 -0.663459 -0.519773 127 0 127
-0.342486 -0.717636 -0.368896 127 0 127
0.512462 0.639380 0.169847 0 127 127
0.236010 -0.541581 0.457995 153 0 76
-0.447195 0.540147 -0.519828 0 127 127
-0.027384 0.391154 0.567295 153 0 76
0.511435 0.062194 0.454335 153 0 76
-0.541618 -0.565497 0.331957 127 0 127
0.410959 0.772975 -0.271290 0 127 127
0.511464 0.160595 0.285346 0 127 127
-0.398147 0.772739 0.382471 0 127 127
-0.158046 0.378809 0.565355 153 0 76
0.362976 -0.154324 0.554017 153 0 76
0.511792 0.043737 -0.478566 0 127 127
0.512462 0.264250 -0.140444 0 127 127
-0.542392 0.547875 -0.420331 0 127 127
-0.069622 0.773612 -0.207222 0 127 127
0.280098 -0.678152 -0.519651 127 0 127
0.199328 -0.013187 -0.519828 0 127 127
0.512462 -0.330650 -0.092572 0 127 127
-0.177186 0.772800 -0.488360 0 127 127
0.509795 -0.372288 0.497616 153 0 76
0.142083 0.261861 -0.519828 0 127 127
-0.542392 -0.384632 -0.378843 0 127 127
-0.024529 -0.717636 0.077785 127 0 127
-0.542392 0.403885 -0.317833 0 127 127
0.512462 -0.223007 -0.112952 0 127 127
0.511553 -0.236042 -0.329164 0 127 127
0.507992 -0.139590 -0.513180 0 127 127
0.408160 0.773612 0.239681 0 127 127
0.278917 -0.333303 -0.519828 0 127 127
0.510820 -0.216532 0.479952 153 0 76
0.330425 0.228085 0.556258 153 0 76
0.290775 0.378878 -0.519828 0 127 127
-0.542287 0.627409 -0.475003 0 127 127
0.109756 0.773612 -0.234516 0 127 127
-0.380698 -0.717636 0.047386 127 0 127
0.512462 -0.536868 -0.300010 0 127 127
0.512462 0.394134 -0.117562 0 127 127
-0.542391 -0.005992 0.427899 0 127 127
0.512297 -0.607834 0.058649 127 0 127
0.017062 0.037331 -0.519828 0 127 127
-0.403912 -0.287573 0.553234 153 0 76
-0.542392 -0.435576 0.217046 0 127 127
0.445812 -0.456559 -0.519826 0 127 127
-0.181240 -0.590569 0.343447 127 0 127
0.487952 0.512383 -0.519523 0 127 127
-0.327974 0.656049 0.558162 153 0 76
-0.542392 0.209987 0.249230 0 127 127
0.511981 -0.210658 -0.026696 0 127 127
-0.535099 -0.711334 -0.459193 127 0 127
0.086282 0.673149 -0.519828 0 127 127
-0.143390 0.773218 -0.252920 0 127 127
0.512462 -0.301275 -0.257435 0 127 127
0.205850 0.773612 -0.192200 0 127 127
-0.517089 0.498520 0.539603 153 0 76
0.510429 0.762832 0.005984 0 127 127
0.135312 -0.717636 -0.377509 127 0 127
0.316278 -0.541022 0.502053 153 0 76
-0.542392 0.238558 0.325087 0 127 127
0.512462 0.590339 0.129509 0 127 127
0.014907 0.773612 -0.358833 0 127 127
-0.124742 -0.555617 -0.519828 0 127 127
0.090195 -0.147370 0.566593 153 0 76
-0.542392 -0.055842 -0.009546 0 127 127
-0.488166 -0.612711 -0.519822 127 0 127
-0.407795 -0.717636 0.244549 127 0 127
-0.343643 0.254856 0.557046 153 0 76
-0.154845 0.773612 0.004858 0 127 127
-0.542392 -0.405140 0.019516 0 127 127
-0.281830 -0.618062 0.342791 127 0 127
0.016032 0.769364 -0.501214 0 127 127
0.145335 0.769884 0.527594 153 0 76
0.512403 0.724830 0.216786 0 127 127
-0.323387 0.772612 0.415409 0 127 127
-0.095921 0.447184 -0.519828 0 127 127
0.511464 -0.008670 0.199414 0 127 127
-0.278039 0.421208 -0.519828 0 127 127
0.511464 0.031604 -0.318006 0 127 127
0.209921 0.639269 0.599683 76 0 153
0.246547 0.557191 -0.519828 0 127 127
-0.542392 -0.597766 -0.000518 127 0 127
0.511544 -0.281317 0.422132 0 127 127
-0.542392 -0.314610 -0.121639 0 127 127
0.297345 0.773612 0.397130 0 127 127
-0.195216 -0.047903 -0.519828 0 127 127
0.229789 0.769650 0.537410 153 0 76
0.512462 0.198818 -0.355827 0 127 127
0.385690 -0.025973 -0.519828 0 127 127
0.482311 0.340997 -0.519642 0 127 127
0.512462 0.338483 -0.068418 0 127 127
0.138649 0.773612 0.047093 0 127 127
-0.215081 -0.189237 0.563820 153 0 76
0.511464 0.059699 0.055348 0 127 127
-0.542392 0.190637 0.322366 0 127 127
-0.362265 0.348835 0.556033 153 0 76
-0.542392 -0.135180 -0.110316 0 127 127
0.499765 -0.715404 -0.352591 127 0 127
-0.542392 0.449350 0.313548 0 127 127
0.204411 0.773612 -0.072531 0 127 127
-0.287639 -0.717277 -0.483807 127 0 127
0.298588 -0.717636 -0.357468 127 0 127
-0.376002 0.772851 0.305855 0 127 127
0.511463 0.455526 0.397576 0 127 127
0.043525 0.773612 0.352168 0 127 127
0.447775 -0.717635 -0.276619 127 0 127
-0.474924 0.107852 0.547093 153 0 76
0.100599 -0.717636 -0.430443 127 0 127
-0.511118 0.735086 -0.519438 0 127 127
0.507855 0.368303 0.513077 153 0 76
-0.542391 -0.318149 0.401494 0 127 127
0.512396 -0.289136 -0.067354 0 127 127
0.232096 0.773612 0.283074 0 127 127
0.478040 0.773495 0.247422 0 127 127
0.512462 0.155166 0.016226 0 127 127
0.512462 0.285264 -0.383044 0 127 127
0.354094 0.161903 -0.519828 0 127 127
-0.542392 -0.072738 0.078547 0 127 127
0.511831 -0.044717 -0.011954 0 127 127
0.182692 -0.246316 0.563920 153 0 76
-0.309975 -0.693978 -0.517186 127 0 127
0.132881 0.675931 0.565555 153 0 76
-0.527140 -0.132122 -0.519267 0 127 127
0.273375 -0.715734 -0.496596 127 0 127
-0.034878 0.686231 0.605908 76 0 153
-0.028401 -0.466353 0.567624 153 0 76
-0.249935 0.771914 0.458911 153 0 76
-0.542392 0.414622 -0.180096 0 127 127
-0.490498 0.390352 0.545657 153 0 76
0.330388 -0.597370 -0.519828 127 0 127
-0.542392 0.464184 0.175583 0 127 127
-0.542392 0.143572 -0.036795 0 127 127
-0.135262 -0.717636 0.033385 127 0 127
0.512462 0.379689 -0.213423 0 127 127
-0.391706 0.455528 -0.519828 0 127 127
-0.234158 -0.717636 -0.122421 127 0 127
0.142411 -0.370615 0.565288 153 0 76
0.287604 -0.064179 -0.519828 0 127 127
0.511449 0.386175 0.453913 153 0 76
-0.539460 -0.313778 0.515156 153 0 76
-0.542392 0.142626 0.307112 0 127 127
-0.126980 0.767437 0.488499 76 0 153
0.512462 0.502021 -0.093427 0 127 127
-0.032197 -0.239943 -0.519828 0 127 127
-0.177719 0.253451 0.564802 153 0 76
-0.005430 0.773612 0.339454 0 127 127
0.004208 0.773612 0.044392 0 127 127
-0.542341 0.717865 0.251470 0 127 127
0.454163 0.099688 -0.519823 0 127 127
-0.542392 0.163603 -0.151290 0 127 127
-0.327632 -0.717636 0.115378 127 0 127
-0.542392 -0.463663 -0.207071 0 127 127
0.043552 -0.541906 0.430694 153 0 76
-0.542392 0.506280 0.120491 0 127 127
0.510913 0.158772 0.474789 153 0 76
-0.542392 0.203674 -0.454002 0 127 127
0.512462 0.688057 0.250230 0 127 127
0.511464 0.137585 0.238804 0 127 127
-0.170269 -0.717636 -0.396285 127 0 127
-0.371794 -0.717636 0.130957 127 0 127
0.274190 0.772991 -0.208138 0 127 127
-0.414878 0.038421 0.552387 153 0 76
0.512015 -0.517071 0.329894 0 127 127
-0.064463 -0.536741 0.554097 153 0 76
0.230238 -0.469171 -0.519828 0 127 127
-0.303535 0.438546 0.559542 153 0 76
-0.212465 -0.714073 0.321252 127 0 127
0.512462 0.566253 -0.321592 0 127 127
-0.072101 0.773612 -0.033328 0 127 127
-0.542392 -0.189922 0.239452 0 127 127
-0.513463 -0.717334 0.009469 127 0 127
0.410845 0.773612 0.180411 0 127 127
-0.542392 0.635426 0.058142 0 127 127
-0.515579 0.417226 -0.519541 0 127 127
0.309563 0.772955 -0.140516 0 127 127
0.511575 0.299029 0.197883 0 127 127
0.011384 0.773050 0.428751 0 127 127
-0.183356 -0.255233 -0.519828 0 127 127
-0.542392 -0.140105 0.104326 0 127 127
0.512462 0.443449 -0.301276 0 127 127
-0.542392 -0.098756 -0.258462 0 127 127
0.511852 -0.458719 -0.014071 0 127 127
-0.288692 -0.717636 0.061128 127 0 127
0.511464 -0.033549 0.358083 0 127 127
0.199434 0.197798 -0.519828 0 127 127
0.511464 -0.385482 0.207883 0 127 127
0.511464 0.000576 -0.227689 0 127 127
-0.155377 -0.144269 -0.519828 0 127 127
0.456169 0.773221 -0.393180 0 127 127
-0.298639 -0.693253 0.340001 127 0 127
0.228968 -0.210983 -0.519828 0 127 127
-0.441924 -0.717636 -0.364301 127 0 127
0.403865 -0.540885 0.507843 153 0 76
-0.107961 0.773612 0.399520 0 127 127
0.075742 0.773612 -0.050360 0 127 127
0.511464 -0.461205 0.285286 0 127 127
0.511087 -0.115834 0.465329 153 0 76
-0.319601 0.346802 -0.519828 0 127 127
-0.542392 0.553420 0.135110 0 127 127
0.450269 0.773034 -0.053770 0 127 127
0.215422 0.773612 0.106068 0 127 127
-0.542393 0.711304 0.391382 0 127 127
-0.542392 0.064440 0.049488 0 127 127
0.502965 0.428444 -0.516086 0 127 127
0.512324 -0.525679 -0.209144 0 127 127
0.189155 -0.717533 0.294803 127 0 127
0.512462 -0.437876 -0.339453 0 127 127
-0.542392 -0.466096 -0.037620 0 127 127
0.394357 -0.717636 -0.210845 127 0 127
0.512331 -0.419111 -0.402263 0 127 127
-0.542392 -0.407034 -0.271671 0 127 127
-0.113246 0.585791 0.566407 153 0 76
0.512462 0.532510 0.179823 0 127 127
0.131341 -0.041714 0.565599 153 0 76
-0.449384 0.603401 0.549348 153 0 76
0.512462 -0.622859 -0.434822 127 0 127
0.477010 0.520844 0.542922 153 0 76
0.476996 -0.717569 0.105051 127 0 127
0.368923 0.736671 -0.519604 0 127 127
-0.542392 0.072453 0.360711 0 127 127
-0.242087 0.692340 0.601774 76 0 153
0.307603 0.493293 -0.519828 0 127 127
0.511464 0.207419 0.157984 0 127 127
-0.270769 0.600496 0.561081 153 0 76
0.512411 0.723392 0.100503 0 127 127
-0.307519 0.016186 -0.519828 0 127 127
-0.213616 -0.415192 -0.519828 0 127 127
0.263811 -0.185127 0.560228 153 0 76
-0.111280 0.772821 -0.451467 0 127 127
0.403687 0.013897 0.550934 153 0 76
-0.252971 0.208488 -0.519828 0 127 127
0.245604 0.667296 -0.519828 0 127 127
-0.487583 -0.717635 0.203139 127 0 127
0.061601 0.365997 -0.519828 0 127 127
0.511811 -0.103086 -0.203529 0 127 127
-0.542392 0.538098 0.324911 0 127 127
0.167627 0.043693 -0.519828 0 127 127
-0.542392 0.448393 0.075386 0 127 127
0.511742 -0.488476 0.116005 0 127 127
0.512462 0.688008 0.337963 0 127 127
-0.542392 0.128512 -0.113081 0 127 127
-0.542392 -0.087282 -0.171909 0 127 127
0.236641 0.711466 -0.519829 0 127 127
0.512217 -0.112791 -0.049777 0 127 127
0.302957 0.773612 0.090913 0 127 127
-0.542392 0.421615 0.108535 0 127 127
-0.542392 -0.463491 0.370277 0 127 127
0.216067 -0.717636 -0.253377 127 0 127
-0.363971 0.080241 -0.519828 0 127 127
0.464439 -0.550282 0.377526 0 127 127
0.068626 -0.588367 0.344536 127 0 127
-0.509484 -0.717460 -0.325824 127 0 127
-0.542392 -0.613427 -0.419025 127 0 127
-0.042677 0.721027 -0.519752 0 127 127
0.511464 0.034245 0.121632 0 127 127
0.457676 0.605141 -0.519822 0 127 127
0.237486 0.356184 -0.519828 0 127 127
0.511463 0.127910 0.399930 0 127 127
0.511560 0.429215 0.298596 0 127 127
-0.542392 0.262365 -0.235495 0 127 127
0.512462 0.324236 0.095386 0 127 127
0.118453 0.469079 0.565960 153 0 76
0.162160 -0.204322 -0.519828 0 127 127
0.512236 -0.602094 -0.140699 127 0 127
0.512346 0.137139 -0.452328 0 127 127
0.140210 0.773612 0.003030 0 127 127
0.502445 -0.194145 0.522881 153 0 76
-0.542392 0.358683 -0.245290 0 127 127
0.015961 -0.664001 0.342717 127 0 127
0.326416 0.772916 -0.210204 0 127 127
0.178670 -0.660582 0.342772 127 0 127
-0.542392 -0.177766 0.198972 0 127 127
0.511464 0.127537 0.162679 0 127 127
-0.252419 0.772707 -0.362666 0 127 127
0.511464 -0.370948 0.385971 0 127 127
0.512462 0.588794 0.231443 0 127 127
0.354019 -0.717636 -0.190100 127 0 127
-0.542392 0.240444 -0.008376 0 127 127
-0.542392 0.243307 -0.192488 0 127 127
-0.541259 0.015669 -0.501149 0 127 127
0.512183 0.602611 -0.488525 0 127 127
-0.459526 -0.716566 0.316123 127 0 127
-0.542392 -0.294555 0.113006 0 127 127
0.512462 -0.358827 -0.125669 0 127 127
0.502633 0.769230 0.299181 0 127 127
-0.200739 0.057355 -0.519828 0 127 127
-0.435534 -0.573451 0.351912 127 0 127
-0.002852 0.637231 0.601709 76 0 153
0.510771 -0.264609 0.482634 153 0 76
0.462668 0.766982 0.519040 153 0 76
-0.371672 -0.540657 0.520113 153 0 76
-0.482943 0.773611 -0.195618 0 127 127
0.358747 -0.116544 -0.519828 0 127 127
-0.255727 0.772803 -0.444921 0 127 127
-0.499904 0.773609 0.072650 0 127 127
0.182981 0.242451 0.563909 153 0 76
-0.267250 0.249277 -0.519828 0 127 127
-0.439010 0.773612 0.022693 0 127 127
0.299565 -0.717636 -0.027618 127 0 127
-0.542392 0.104285 0.198297 0 127 127
0.510264 0.661844 -0.510343 0 127 127
-0.542392 -0.569357 -0.050907 127 0 127
0.511501 0.470800 0.450497 153 0 76
-0.402599 -0.717636 -0.316397 127 0 127
-0.422341 0.623684 -0.519828 0 127 127
-0.542392 0.548493 -0.348244 0 127 127
0.512462 0.565729 -0.012179 0 127 127
-0.469577 0.773602 0.259863 0 127 127
0.510521 0.761871 -0.075220 0 127 127
-0.271161 0.697479 0.561131 153 0 76
0.377471 0.772767 -0.447653 0 127 127
0.512462 -0.568162 0.100687 127 0 127
0.058471 -0.540934 0.510015 153 0 76
0.125800 -0.468084 -0.519828 0 127 127
-0.096318 0.773612 0.146711 0 127 127
-0.188322 0.019306 0.564770 153 0 76
-0.206749 0.469322 0.564101 153 0 76
0.256236 0.669660 0.560628 153 0 76
0.043495 -0.318796 0.567315 153 0 76
-0.010491 -0.329768 -0.519828 0 127 127
-0.403325 0.769769 0.532354 153 0 76
-0.540475 -0.705809 0.276311 127 0 127
0.061984 0.773612 -0.156878 0 127 127
0.510374 0.206670 -0.509352 0 127 127
0.512462 0.670434 0.090929 0 127 127
-0.542392 -0.238101 0.398625 0 127 127
0.045993 0.167792 0.567291 153 0 76
-0.071530 0.773095 0.430253 0 127 127
0.511985 -0.512210 0.153822 0 127 127
0.309868 -0.502623 -0.519828 0 127 127
0.355878 0.772908 -0.131623 0 127 127
-0.542392 -0.181568 -0.277905 0 127 127
-0.542392 0.685421 0.320951 0 127 127
0.512462 -0.500494 -0.269711 0 127 127
-0.419017 -0.373791 0.552090 153 0 76
-0.542392 -0.546665 0.037189 0 127 127
0.107896 0.766954 -0.505889 0 127 127
0.078003 0.773612 -0.438655 0 127 127
-0.415539 0.773612 0.102725 0 127 127
-0.542392 0.195790 -0.068030 0 127 127
-0.105423 -0.717636 0.073363 127 0 127
-0.048988 -0.523860 -0.519828 0 127 127
0.389353 -0.457069 -0.519828 0 127 127
0.382905 -0.717636 -0.003655 127 0 127
0.015497 0.388872 0.567549 153 0 76
0.290623 -0.717636 -0.454948 127 0 127
-0.176145 -0.643268 -0.519828 127 0 127
0.423784 -0.140398 -0.519828 0 127 127
0.162807 0.675887 -0.519828 0 127 127
0.511667 0.602774 0.430220 0 127 127
-0.542392 0.621174 -0.220693 0 127 127
-0.542274 -0.685487 0.045196 127 0 127
-0.540192 0.583849 0.506539 153 0 76
-0.542358 -0.665020 -0.043156 127 0 127
0.511075 -0.697706 0.041318 127 0 127
-0.542392 -0.350576 0.176214 0 127 127
-0.542392 0.250974 0.173135 0 127 127
-0.304978 0.641959 0.596361 76 0 153
-0.517877 0.643719 -0.519486 0 127 127
0.480227 0.179551 0.541297 153 0 76
0.060476 0.226806 -0.519828 0 127 127
-0.542392 -0.338556 -0.315542 0 127 127
-0.021006 -0.308295 0.567649 153 0 76
-0.070437 0.640841 0.567342 153 0 76
0.314105 0.319792 -0.519828 0 127 127
-0.297844 0.729189 0.559488 153 0 76
0.449213 0.395694 -0.519825 0 127 127
-0.060719 -0.151114 0.567436 153 0 76
-0.542392 0.642895 0.144930 0 127 127
-0.542236 -0.666807 0.305456 127 0 127
0.254189 0.489793 0.560736 153 0 76
-0.088608 -0.366865 -0.519828 0 127 127
-0.229148 -0.519549 0.562487 153 0 76
0.511464 0.390773 0.321757 0 127 127
-0.047129 0.773612 0.218315 0 127 127
0.511587 0.364103 0.250164 0 127 127
-0.001032 -0.717636 0.255540 127 0 127
-0.542391 0.059340 0.423082 0 127 127
0.511598 0.025155 0.010840 0 127 127
-0.542392 -0.487494 -0.140477 0 127 127
0.512228 -0.679556 -0.272571 127 0 127
-0.540442 0.760332 -0.045807 0 127 127
0.053818 0.074657 0.567195 153 0 76
0.292457 0.156395 -0.519828 0 127 127
0.289100 0.773487 0.020595 0 127 127
-0.151182 -0.166779 0.565881 153 0 76
-0.284508 0.767204 0.494436 153 0 76
-0.069229 -0.541905 0.430818 153 0 76
0.512462 0.646386 -0.223711 0 127 127
-0.542392 0.668382 -0.151601 0 127 127
0.239548 0.773345 -0.459460 0 127 127
-0.368017 0.638720 0.564058 76 0 153
-0.256424 0.256545 0.561934 153 0 76
-0.542392 -0.252946 0.093606 0 127 127
0.272314 -0.106726 0.559779 153 0 76
0.192308 0.400548 -0.519828 0 127 127
0.452209 -0.335738 -0.519824 0 127 127
0.512462 0.238250 0.062481 0 127 127
0.463954 0.240713 0.545156 153 0 76
0.512453 0.714947 -0.068080 0 127 127
-0.401684 0.136988 0.553196 153 0 76
0.512462 -0.387009 -0.303183 0 127 127
0.185158 -0.717636 -0.097275 127 0 127
0.258513 -0.436163 0.560508 153 0 76
0.202139 0.335609 0.563143 153 0 76
-0.539417 0.143203 0.515659 153 0 76
0.512110 -0.524485 0.052963 0 127 127
-0.375457 -0.717636 0.172659 127 0 127
0.049272 -0.654608 -0.519828 127 0 127
0.171666 0.773612 -0.125975 0 127 127
0.249011 0.771478 0.472401 153 0 76
-0.542392 0.315627 0.026265 0 127 127
-0.246904 -0.717636 0.092563 127 0 127
-0.189326 0.460273 -0.519828 0 127 127
-0.413103 -0.717636 0.094768 127 0 127
0.512462 0.674358 -0.419920 0 127 127
0.077791 0.725493 -0.519710 0 127 127
-0.204917 0.272222 -0.519828 0 127 127
-0.542392 -0.238501 -0.324566 0 127 127
0.511684 -0.384920 -0.451501 0 127 127
-0.233027 0.398531 -0.519828 0 127 127
-0.542392 0.418747 -0.014915 0 127 127
-0.450676 0.354223 -0.519828 0 127 127
-0.542392 -0.382165 -0.338062 0 127 127
0.242965 -0.688271 0.342085 127 0 127
-0.502302 0.249744 -0.519817 0 127 127
-0.313637 -0.384029 0.559136 153 0 76
-0.461929 0.773612 -0.018877 0 127 127
-0.160984 0.773612 0.119914 0 127 127
-0.542392 0.032767 0.192038 0 127 127
-0.542142 0.570925 -0.488521 0 127 127
0.511464 -0.283188 0.126869 0 127 127
-0.141734 -0.708053 0.333640 127 0 127
0.511834 -0.444100 -0.486196 0 127 127
0.512335 0.737385 0.417088 0 127 127
-0.244444 0.768921 -0.501697 0 127 127
-0.542392 -0.209433 0.170867 0 127 127
-0.137007 0.684135 0.565893 153 0 76
-0.431810 0.072580 -0.519828 0 127 127
-0.184523 -0.545226 0.398002 0 127 127
0.511464 -0.117867 -0.386593 0 127 127
-0.414354 -0.717636 -0.143252 127 0 127
-0.383007 0.697244 0.583509 76 0 153
0.083223 -0.544104 0.404292 0 127 127
-0.235987 -0.617318 0.342786 127 0 127
-0.542392 -0.120036 0.177958 0 127 127
0.433460 0.309147 0.547912 153 0 76
0.449613 0.773214 0.068571 0 127 127
-0.183748 -0.436363 0.564928 153 0 76
-0.379388 -0.569662 -0.519828 127 0 127
0.511464 -0.284701 0.075237 0 127 127
0.079307 -0.036032 0.566807 153 0 76
0.512462 0.582409 -0.380112 0 127 127
0.512462 -0.586018 0.167731 127 0 127
-0.343877 -0.541845 0.435985 153 0 76
-0.425386 0.770890 0.494824 153 0 76
0.092777 0.773612 0.397542 0 127 127
0.272815 -0.717636 -0.316153 127 0 127
-0.542392 -0.519943 -0.419026 0 127 127
-0.541852 0.591551 0.464998 153 0 76
0.511464 -0.101088 0.069784 0 127 127
0.512375 0.280655 -0.472503 0 127 127
-0.542285 -0.682957 -0.193264 127 0 127
0.352653 0.772731 -0.494030 0 127 127
-0.542392 -0.589901 -0.331263 127 0 127
-0.010205 -0.717636 -0.052253 127 0 127
-0.094140 0.696758 0.604293 76 0 153
0.385863 0.339763 -0.519828 0 127 127
0.429033 0.176635 -0.519828 0 127 127
0.188971 -0.278219 -0.519828 0 127 127
0.511464 -0.352701 0.163719 0 127 127
-0.344386 0.771778 0.453926 153 0 76
0.512409 -0.662090 -0.182670 127 0 127
0.512449 0.157136 -0.364921 0 127 127
0.511594 0.135337 0.081201 0 127 127
-0.111939 -0.717636 -0.439619 127 0 127
0.511464 -0.098322 0.287761 0 127 127
0.512311 0.721247 -0.470465 0 127 127
-0.094675 -0.598041 -0.519828 127 0 127
0.053131 0.773612 -0.376614 0 127 127
0.368513 0.391494 -0.519828 0 127 127
-0.542392 0.233263 -0.104557 0 127 127
-0.299297 -0.116558 -0.519828 0 127 127
-0.502244 -0.544625 0.401323 0 127 127
-0.542392 -0.652367 0.189768 127 0 127
0.512462 0.460451 -0.009892 0 127 127
0.512462 -0.349087 -0.237125 0 127 127
-0.076096 -0.687104 0.342345 127 0 127
-0.529053 0.771827 -0.357863 0 127 127
0.196722 0.773612 -0.417127 0 127 127
0.206642 -0.386674 -0.519828 0 127 127
-0.097695 0.773612 -0.121474 0 127 127
0.029463 -0.717636 0.155357 127 0 127
-0.542392 0.091941 -0.309771 0 127 127
-0.386433 0.773612 -0.243819 0 127 127
-0.531992 -0.440795 0.530281 153 0 76
0.377982 -0.717636 -0.337345 127 0 127
-0.542176 -0.571931 -0.485358 127 0 127
0.512415 0.619124 0.358825 0 127 127
-0.331343 0.388517 -0.519828 0 127 127
0.117258 -0.280595 -0.519828 0 127 127
0.397265 -0.363992 0.551432 153 0 76
-0.238204 0.390529 0.562866 153 0 76
0.511833 -0.009628 -0.138039 0 127 127
0.482487 0.773363 -0.308799 0 127 127
-0.457940 0.237559 -0.519828 0 127 127
0.037759 0.472304 0.567370 153 0 76
0.511717 -0.313011 -0.000862 0 127 127
-0.331765 -0.658346 -0.519815 127 0 127
-0.032024 0.773612 0.396610 0 127 127
-0.342921 0.662962 -0.519828 0 127 127
-0.542392 0.370241 0.190279 0 127 127
0.006859 0.046755 0.567598 153 0 76
0.512462 0.433425 0.106480 0 127 127
-0.116362 0.570195 -0.519828 0 127 127
-0.234936 0.773030 -0.130836 0 127 127
-0.346211 -0.707393 0.334085 127 0 127
-0.542392 0.467104 -0.402304 0 127 127
-0.229531 -0.017603 -0.519828 0 127 127
-0.542392 -0.215008 -0.397386 0 127 127
-0.310718 0.772613 0.323524 0 127 127
0.512444 -0.587645 -0.265929 127 0 127
-0.193172 0.772814 -0.265026 0 127 127
-0.498929 0.770661 -0.498684 0 127 127
0.511464 0.247581 0.308851 0 127 127
0.105470 0.521414 -0.519828 0 127 127
-0.386043 0.771838 0.451169 153 0 76
0.403659 0.772670 -0.139684 0 127 127
-0.050445 -0.111557 0.567535 153 0 76
-0.100658 0.381080 0.566815 153 0 76
0.418425 -0.709551 0.330557 127 0 127
-0.282636 0.588446 -0.519828 0 127 127
-0.327585 0.773543 0.053567 0 127 127
-0.180823 0.773612 0.324234 0 127 127
0.422570 0.293801 -0.519828 0 127 127
0.511464 -0.086627 0.249203 0 127 127
-0.099328 -0.307889 0.566957 153 0 76
-0.541290 0.062341 0.485547 153 0 76
0.180851 -0.717636 -0.457372 127 0 127
-0.075573 0.454307 0.567282 153 0 76
0.512462 -0.591695 -0.347386 127 0 127
-0.542392 0.351083 -0.461896 0 127 127
-0.542392 0.660159 -0.262769 0 127 127
-0.542392 0.035131 -0.081085 0 127 127
-0.542392 -0.469108 -0.356476 0 127 127
-0.360141 0.587246 0.556058 153 0 76
0.238226 -0.717636 -0.422010 127 0 127
-0.200256 0.767204 0.516878 153 0 76
0.454707 -0.717635 -0.077768 127 0 127
-0.003570 0.767204 0.480592 153 0 76
-0.460321 -0.197360 -0.519828 0 127 127
-0.099957 0.755294 0.561272 153 0 76
0.511952 0.108390 -0.236435 0 127 127
-0.526663 -0.110731 0.536143 153 0 76
0.512004 0.113536 -0.371277 0 127 127
0.301850 -0.541951 0.426867 153 0 76
0.020503 0.349909 -0.519828 0 127 127
-0.026491 0.255941 -0.519828 0 127 127
0.512361 0.733332 -0.291616 0 127 127
0.281164 -0.717636 0.109659 127 0 127
0.324803 -0.295603 -0.519828 0 127 127
-0.239289 -0.717636 0.249223 127 0 127
0.505296 -0.501159 -0.514738 0 127 127
0.512462 0.491908 0.062937 0 127 127
-0.169740 0.647406 0.603982 76 0 153
-0.297234 -0.208424 0.560042 153 0 76
-0.540453 0.246058 0.503526 153 0 76
0.453463 0.677048 0.551881 76 0 153
-0.283270 0.773022 -0.174513 0 127 127
0.512459 0.158121 -0.286008 0 127 127
0.511738 -0.000739 -0.459449 0 127 127
-0.448451 0.773425 0.298464 0 127 127
0.512462 0.511942 -0.382488 0 127 127
0.512462 0.613084 0.199979 0 127 127
0.127572 0.426040 -0.519828 0 127 127
0.153122 -0.188423 0.564953 153 0 76
-0.366191 0.016337 -0.519828 0 127 127
0.325322 0.166241 0.556589 153 0 76
-0.542392 0.353909 -0.023694 0 127 127
0.316323 0.079273 -0.519828 0 127 127
-0.147090 -0.522818 -0.519828 0 127 127
-0.542173 -0.455402 0.451944 153 0 76
-0.200374 -0.717636 -0.051312 127 0 127
-0.013493 -0.145864 -0.519828 0 127 127
-0.542392 -0.029856 -0.146362 0 127 127
0.453653 0.713486 -0.519819 0 127 127
-0.048849 -0.717636 -0.188683 127 0 127
-0.542392 -0.645031 -0.001932 127 0 127
0.037017 0.773612 0.192713 0 127 127
0.512462 0.652752 0.280844 0 127 127
0.327199 -0.669747 -0.519721 127 0 127
0.321902 -0.004398 0.556810 153 0 76
0.349247 -0.717636 0.250614 127 0 127
0.085018 -0.408292 0.566705 153 0 76
0.512462 0.262181 -0.415223 0 127 127
0.358204 0.772799 -0.067471 0 127 127
0.511464 -0.017077 0.307843 0 127 127
-0.542392 0.199921 -0.357563 0 127 127
-0.474712 -0.649921 -0.519827 127 0 127
-0.412591 -0.537125 0.543825 153 0 76
-0.542392 -0.197033 -0.235287 0 127 127
-0.341879 -0.112194 0.557454 153 0 76
0.162147 -0.717636 -0.049267 127 0 127
0.095289 -0.717499 -0.472285 127 0 127
0.095542 0.321854 -0.519828 0 127 127
0.512294 -0.673206 0.278938 127 0 127
-0.542392 0.019222 -0.414105 0 127 127
0.512392 -0.463143 -0.415695 0 127 127
0.511464 -0.111737 0.211244 0 127 127
0.243173 -0.717636 0.124617 127 0 127
0.110073 0.773612 0.325418 0 127 127
0.311316 0.769559 0.537408 153 0 76
0.326673 -0.070828 -0.519828 0 127 127
0.160013 -0.717636 0.149139 127 0 127
0.396319 0.771497 0.481637 153 0 76
0.512462 0.346719 -0.423459 0 127 127
-0.105369 0.642140 0.604162 76 0 153
0.512462 0.330647 -0.011271 0 127 127
-0.148055 -0.717636 -0.003858 127 0 127
-0.542392 0.559980 -0.105703 0 127 127
0.512462 -0.555999 -0.395451 0 127 127
0.402859 -0.077340 0.550998 153 0 76
-0.294184 0.267408 0.559868 153 0 76
0.508338 0.532052 0.509224 153 0 76
0.461966 0.636760 0.541437 76 0 153
0.396131 0.155076 -0.519828 0 127 127
0.219310 -0.717183 -0.488743 127 0 127
-0.085163 0.545662 0.567119 153 0 76
0.512462 -0.249847 -0.242220 0 127 127
0.480416 0.773424 0.153028 0 127 127
-0.143049 0.772770 -0.341372 0 127 127
0.511464 -0.095625 0.130392 0 127 127
-0.079583 -0.502833 0.566955 153 0 76
0.317041 -0.138474 -0.519828 0 127 127
0.137672 -0.285286 0.565421 153 0 76
-0.542392 0.326369 -0.392122 0 127 127
-0.542392 0.405088 0.021912 0 127 127
0.473052 -0.534612 -0.519816 0 127 127
0.475241 -0.693616 0.339813 127 0 127
-0.490639 -0.717634 -0.139102 127 0 127
0.210692 -0.503676 -0.519828 0 127 127
-0.011684 -0.541226 0.486661 153 0 76
0.166946 -0.717636 -0.185337 127 0 127
0.449775 0.355542 0.546496 153 0 76
0.468559 -0.637212 -0.519818 127 0 127
-0.290546 -0.252769 -0.519828 0 127 127
-0.542109 0.424774 -0.491636 0 127 127
-0.101464 -0.427829 0.566925 153 0 76
-0.542318 -0.384569 0.446024 153 0 76
-0.542392 -0.618478 -0.285573 127 0 127
-0.542392 0.095093 0.111489 0 127 127
0.014038 0.773612 -0.034485 0 127 127
0.485876 -0.717364 -0.035132 127 0 127
-0.399851 0.152333 -0.519828 0 127 127
-0.487927 -0.717634 -0.430468 127 0 127
0.269474 0.556129 0.559929 153 0 76
0.336628 -0.717636 0.200977 127 0 127
0.417614 -0.124159 0.549690 153 0 76
0.456588 -0.456121 0.546137 153 0 76
-0.541156 -0.119147 0.490123 153 0 76
-0.354128 -0.717636 -0.211908 127 0 127
0.155109 0.773306 -0.482311 0 127 127
-0.542392 -0.464221 -0.303921 0 127 127
-0.029346 0.773612 -0.065119 0 127 127
0.512422 0.721048 0.017714 0 127 127
0.092486 0.673512 0.605058 76 0 153
0.049856 0.357963 0.567254 153 0 76
-0.417889 -0.541905 0.430754 153 0 76
-0.542392 -0.421601 -0.037228 0 127 127
-0.322608 -0.717636 -0.284299 127 0 127
0.100193 -0.244717 0.566376 153 0 76
-0.542392 -0.032804 0.332681 0 127 127
0.004554 0.174288 0.567538 153 0 76
-0.042928 0.773612 -0.285531 0 127 127
0.511464 -0.304174 0.326405 0 127 127
0.469837 -0.270393 0.544685 153 0 76
-0.542392 0.345759 0.394735 0 127 127
-0.499696 0.463900 0.544640 153 0 76
-0.542392 0.176979 -0.237794 0 127 127
0.072255 0.771171 0.481577 153 0 76
-0.149405 -0.717636 0.232445 127 0 127
0.005253 -0.715183 -0.497666 127 0 127
-0.365385 0.437472 0.555931 153 0 76
-0.542392 0.695457 -0.013257 0 127 127
-0.314419 0.078182 -0.519828 0 127 127
-0.299611 0.000102 0.559916 153 0 76
0.139651 0.772330 0.445871 0 127 127
0.148786 0.598822 -0.519828 0 127 127
-0.538543 -0.491675 0.518284 153 0 76
0.512462 0.476523 0.156829 0 127 127
-0.542392 -0.396945 0.103049 0 127 127
0.317675 -0.568249 0.354484 127 0 127
0.130931 -0.717636 0.244122 127 0 127
0.397922 -0.534272 -0.519828 0 127 127
0.511464 -0.197242 -0.356612 0 127 127
0.511912 -0.176818 -0.251114 0 127 127
-0.300501 0.772694 0.383923 0 127 127
-0.489058 0.615927 -0.519821 0 127 127
-0.510082 0.638208 0.542128 153 0 76
-0.541990 -0.079470 0.459423 153 0 76
0.003365 -0.534139 0.559957 153 0 76
-0.541642 0.747771 0.404767 0 127 127
-0.277529 0.096563 -0.519828 0 127 127
-0.331937 -0.717636 0.199157 127 0 127
-0.475235 0.690839 -0.519827 0 127 127
0.488800 0.291384 -0.519505 0 127 127
-0.141469 0.057331 0.566130 153 0 76
-0.542392 -0.316285 0.346420 0 127 127
0.342147 -0.546338 0.391773 0 127 127
0.244676 -0.115995 -0.519828 0 127 127
-0.409941 -0.247024 -0.519828 0 127 127
0.511463 -0.449447 0.043674 0 127 127
-0.070753 0.323070 -0.519828 0 127 127
0.133622 0.627768 0.565535 153 0 76
-0.542392 0.482526 0.020418 0 127 127
0.119550 -0.541280 0.482307 153 0 76
0.195358 -0.717636 0.222355 127 0 127
-0.523676 0.202957 -0.519349 0 127 127
-0.542392 -0.181706 0.321051 0 127 127
0.185889 0.773612 0.271923 0 127 127
-0.002820 0.004069 -0.519828 0 127 127
0.465150 -0.220339 0.545199 153 0 76
-0.098493 -0.101482 -0.519828 0 127 127
-0.428348 0.638911 0.569379 76 0 153
-0.542392 -0.623480 -0.186950 127 0 127
-0.026920 0.601365 0.567630 153 0 76
0.512462 0.354809 -0.333618 0 127 127
0.512462 0.201135 -0.267235 0 127 127
0.041772 -0.717636 0.229257 127 0 127
-0.166188 0.700844 0.600905 76 0 153
0.354821 0.075763 -0.519828 0 127 127
-0.505912 -0.574989 0.351091 127 0 127
0.511623 0.076248 -0.267242 0 127 127
-0.542392 0.011882 0.125238 0 127 127
-0.296108 0.773153 -0.357482 0 127 127
-0.542392 0.314939 0.106949 0 127 127
0.512462 0.513816 0.099533 0 127 127
-0.017953 -0.717636 0.165227 127 0 127
-0.189712 -0.541402 0.472518 153 0 76
-0.077190 -0.300661 -0.519828 0 127 127
0.511776 -0.324934 0.443559 153 0 76
-0.210245 -0.717636 -0.352117 127 0 127
0.338601 0.772865 -0.457282 0 127 127
-0.542392 -0.009926 -0.210667 0 127 127
-0.473813 0.773612 0.119018 0 127 127
-0.117106 0.143748 0.566658 153 0 76
-0.155910 0.335022 0.565415 153 0 76
0.512061 0.257706 0.129260 0 127 127
-0.256082 0.024161 -0.519828 0 127 127
0.028745 0.773612 -0.458990 0 127 127
-0.442221 -0.209554 0.550155 153 0 76
-0.320914 -0.055129 0.558705 153 0 76
-0.104343 -0.641454 -0.519828 127 0 127
0.511464 0.228083 0.228685 0 127 127
-0.240517 -0.717274 -0.483967 127 0 127
0.103309 0.158070 -0.519828 0 127 127
0.430372 -0.262212 -0.519828 0 127 127
0.512462 0.610667 0.297637 0 127 127
0.352832 0.204161 -0.519828 0 127 127
-0.542392 -0.594553 -0.371397 127 0 127
-0.542392 0.104675 0.029767 0 127 127
-0.444752 -0.445965 -0.519828 0 127 127
0.319528 -0.412205 0.556964 153 0 76
-0.123097 0.773612 0.029296 0 127 127
-0.542197 -0.018361 -0.483397 0 127 127
-0.041672 0.087289 -0.519828 0 127 127
-0.406720 0.773612 -0.160530 0 127 127
0.277634 0.772956 -0.427267 0 127 127
-0.363691 -0.507849 -0.519828 0 127 127
0.511464 -0.143132 0.139714 0 127 127
-0.052181 0.564928 -0.519828 0 127 127
0.511464 -0.368230 0.244401 0 127 127
0.242544 0.445365 -0.519828 0 127 127
0.511464 0.220862 0.337867 0 127 127
-0.542392 0.566860 0.250740 0 127 127
0.271256 -0.603591 0.342693 127 0 127
-0.542392 0.551400 -0.188465 0 127 127
-0.064615 -0.619030 0.342797 127 0 127
-0.104503 0.772806 -0.411379 0 127 127
-0.455148 -0.717636 0.150901 127 0 127
-0.542392 -0.226999 0.310574 0 127 127
0.512356 -0.509898 -0.078567 0 127 127
0.512462 -0.069055 -0.086565 0 127 127
-0.446822 -0.301690 0.549714 153 0 76
-0.010087 0.773612 0.007835 0 127 127
-0.462419 0.488953 -0.519828 0 127 127
-0.540371 -0.307918 -0.509085 0 127 127
0.408627 -0.717636 -0.039972 127 0 127
0.512210 0.511581 0.303975 0 127 127
0.512462 0.243200 -0.211749 0 127 127
-0.200681 0.696927 -0.519828 0 127 127
-0.542392 0.082406 -0.428807 0 127 127
-0.221373 -0.367755 0.563569 153 0 76
-0.542392 -0.615435 -0.242219 127 0 127
-0.542383 -0.658888 -0.326419 127 0 127
0.512462 0.382673 0.154854 0 127 127
0.176797 -0.717636 0.095996 127 0 127
-0.228931 -0.671293 0.342600 127 0 127
0.109998 0.419941 0.566164 153 0 76
-0.542392 0.298276 0.308447 0 127 127
0.511464 -0.443123 0.377219 0 127 127
0.160207 0.773612 -0.338736 0 127 127
-0.542392 0.420297 -0.257820 0 127 127
0.504106 -0.263245 -0.515426 0 127 127
0.168626 0.514742 0.564419 153 0 76
0.156229 -0.586045 0.345684 127 0 127
-0.542391 -0.097505 0.418219 0 127 127
0.512462 0.601909 -0.184101 0 127 127
0.512462 0.205441 -0.425889 0 127 127
-0.494760 0.302608 -0.519819 0 127 127
0.512116 0.124518 -0.326099 0 127 127
-0.432430 -0.699770 0.337275 127 0 127
-0.250911 0.773200 0.314949 0 127 127
0.367479 -0.301218 0.553697 153 0 76
-0.541382 -0.619438 -0.500052 127 0 127
0.246838 -0.374498 0.561124 153 0 76
0.076613 -0.717636 0.129980 127 0 127
0.058812 0.102901 -0.519828 0 127 127
-0.207541 0.644313 0.602543 76 0 153
0.398673 0.201273 0.551070 153 0 76
-0.050934 -0.717636 0.015601 127 0 127
-0.542392 0.549614 -0.258687 0 127 127
-0.540661 0.010001 0.501083 153 0 76
0.027669 0.514464 -0.519828 0 127 127
-0.512531 -0.390013 -0.519613 0 127 127
0.511464 -0.243249 0.185064 0 127 127
0.124386 -0.201825 -0.519828 0 127 127
-0.237636 -0.661016 -0.519793 127 0 127
-0.370733 -0.244311 0.555585 153 0 76
-0.075060 0.203183 0.566965 153 0 76
-0.279403 -0.717636 -0.359304 127 0 127
0.512442 -0.083725 -0.124256 0 127 127
-0.367794 0.773612 -0.027899 0 127 127
0.500888 -0.714575 0.165475 127 0 127
0.460185 -0.198246 -0.519821 0 127 127
0.325571 0.698621 0.588664 76 0 153
-0.019469 -0.285942 -0.519828 0 127 127
-0.191113 -0.717636 0.048673 127 0 127
0.512246 0.137231 -0.212018 0 127 127
0.303545 0.773078 -0.178432 0 127 127
0.401413 0.773608 0.113327 0 127 127
-0.542392 -0.320913 0.204724 0 127 127
-0.176802 0.237109 -0.519828 0 127 127
0.412821 0.773132 -0.332600 0 127 127
-0.542392 0.545569 0.037357 0 127 127
-0.324028 0.295944 0.558188 153 0 76
0.280071 -0.717636 0.039770 127 0 127
-0.542392 0.441323 -0.313141 0 127 127
-0.428485 0.736508 0.550826 153 0 76
-0.542392 -0.133287 -0.191371 0 127 127
0.447342 0.045943 -0.519826 0 127 127
0.146089 -0.554833 0.370876 0 127 127
-0.221439 -0.254001 0.563566 153 0 76
0.512462 0.550025 -0.088791 0 127 127
-0.170139 0.773612 -0.071312 0 127 127
0.485785 0.023516 0.538461 153 0 76
0.397065 0.662773 0.545752 76 0 153
0.030012 0.626531 -0.519828 0 127 127
0.372393 -0.592299 0.342616 127 0 127
-0.542392 0.143844 0.075146 0 127 127
-0.380096 0.773063 0.268437 0 127 127
0.096182 -0.717636 -0.274766 127 0 127
0.096618 -0.708995 0.331700 127 0 127
0.354842 0.310648 0.554595 153 0 76
0.490791 0.606445 0.535819 153 0 76
-0.038936 0.773612 -0.145400 0 127 127
-0.369927 0.486844 -0.519828 0 127 127
-0.542094 -0.074231 -0.493009 0 127 127
0.510572 0.043988 0.488599 153 0 76
-0.080448 -0.154483 -0.519828 0 127 127
0.512463 0.710320 -0.409018 0 127 127
0.290163 0.653385 0.558756 153 0 76
0.147465 0.074597 0.565146 153 0 76
-0.542392 0.393670 -0.402567 0 127 127
-0.223940 0.772790 -0.221609 0 127 127
0.456285 -0.493675 0.545870 153 0 76
-0.542392 0.061487 -0.250975 0 127 127
0.220506 -0.717636 -0.332394 127 0 127
0.511646 0.552723 0.430849 0 127 127
-0.112329 0.773612 -0.169334 0 127 127
-0.399893 -0.648244 -0.519828 127 0 127
-0.150425 0.767204 0.520561 153 0 76
-0.542392 0.484727 0.084633 0 127 127
0.222908 -0.717636 -0.387792 127 0 127
-0.159610 0.203671 0.565311 153 0 76
-0.065199 0.029632 0.567393 153 0 76
-0.482759 0.708854 0.546511 153 0 76
-0.542176 0.733643 0.126922 0 127 127
-0.542392 -0.293924 0.284838 0 127 127
-0.268040 -0.541511 0.463639 153 0 76
-0.305227 -0.549677 -0.519828 0 127 127
-0.218269 0.535913 -0.519828 0 127 127
-0.542380 -0.527300 0.328030 0 127 127
0.353165 -0.007435 -0.519828 0 127 127
0.512296 -0.552547 -0.082286 0 127 127
-0.542181 0.715262 -0.482607 0 127 127
0.111785 -0.116819 0.566125 153 0 76
-0.542392 -0.289765 -0.042334 0 127 127
-0.088845 0.322395 0.566874 153 0 76
-0.110040 -0.717636 0.110471 127 0 127
0.511733 0.180558 0.097219 0 127 127
0.512462 -0.151003 -0.112583 0 127 127
0.242955 0.120328 -0.519828 0 127 127
-0.542392 -0.474996 0.214652 0 127 127
0.511463 0.284570 0.406924 0 127 127
-0.318259 0.166309 0.558600 153 0 76
-0.542392 -0.248374 0.342291 0 127 127
-0.470457 0.772814 0.428683 0 127 127
-0.542392 0.576602 0.329980 0 127 127
0.512462 0.452838 0.203269 0 127 127
-0.542392 0.615343 -0.157228 0 127 127
-0.084112 0.773612 0.105716 0 127 127
-0.472284 0.773612 -0.074769 0 127 127
0.292290 0.301860 0.558630 153 0 76
-0.256432 0.773144 0.378504 0 127 127
-0.441573 0.668781 0.543450 76 0 153
-0.504781 -0.709345 0.330929 127 0 127
-0.130738 0.303503 -0.519828 0 127 127
-0.337783 0.773592 -0.071338 0 127 127
-0.359558 -0.598155 0.342656 127 0 127
-0.227065 0.773307 -0.067966 0 127 127
0.190409 -0.497799 0.563476 153 0 76
-0.384957 0.264903 0.554450 153 0 76
-0.542180 0.733277 -0.161745 0 127 127
-0.399466 -0.717636 -0.201920 127 0 127
-0.440941 0.310659 -0.519828 0 127 127
0.511464 -0.205278 0.112156 0 127 127
0.300533 0.773612 0.320166 0 127 127
0.275177 0.773612 0.360938 0 127 127
0.085644 0.055333 0.566692 153 0 76
-0.458481 -0.100063 -0.519828 0 127 127
-0.542392 0.379896 0.280953 0 127 127
-0.174828 -0.358107 0.565217 153 0 76
-0.411265 -0.717636 -0.010893 127 0 127
0.001086 -0.546751 0.389457 0 127 127
0.020828 0.312004 -0.519828 0 127 127
-0.542392 -0.454796 -0.073073 0 127 127
0.512394 -0.663513 0.126997 127 0 127
-0.303709 -0.717636 -0.015398 127 0 127
-0.172727 -0.711143 -0.505498 127 0 127
-0.246025 -0.544148 -0.519828 0 127 127
0.512462 0.308374 -0.254082 0 127 127
-0.542392 -0.286610 -0.394656 0 127 127
0.511466 -0.065925 -0.203752 0 127 127
0.388775 0.773612 0.405446 0 127 127
0.071663 0.769700 0.538303 153 0 76
0.059971 -0.482806 0.567098 153 0 76
0.501538 -0.134438 0.524476 153 0 76
-0.542392 -0.475024 -0.394208 0 127 127
-0.336785 0.773612 0.000036 0 127 127
-0.147349 0.773592 -0.156246 0 127 127
0.508479 0.449495 0.511219 153 0 76
0.196611 0.770138 0.514200 153 0 76
-0.327299 -0.444615 -0.519828 0 127 127
-0.542392 0.018991 -0.006486 0 127 127
0.510498 -0.704262 -0.116508 127 0 127
-0.233723 0.773493 -0.000292 0 127 127
-0.270670 0.050273 0.561419 153 0 76
0.075844 -0.099448 0.566860 153 0 76
0.501081 -0.027254 0.525278 153 0 76
-0.542392 -0.156526 -0.458675 0 127 127
0.136766 -0.717636 -0.422439 127 0 127
-0.542392 -0.411581 -0.167350 0 127 127
0.511623 0.076256 -0.424224 0 127 127
0.249697 0.773612 0.216300 0 127 127
0.222513 0.692305 0.562264 153 0 76
-0.161616 0.103386 0.565588 153 0 76
-0.122909 -0.088206 0.566532 153 0 76
0.207314 0.635860 0.562936 153 0 76
0.511464 -0.367698 0.314812 0 127 127
0.268277 0.390928 0.559992 153 0 76
0.495056 -0.717152 -0.454988 127 0 127
-0.542392 -0.436389 0.127524 0 127 127
-0.541275 0.111646 0.486050 153 0 76
0.511464 0.042000 0.342920 0 127 127
0.512462 -0.122952 -0.136657 0 127 127
0.511464 0.063488 0.186895 0 127 127
-0.202791 0.330325 -0.519828 0 127 127
0.048783 0.773612 0.266923 0 127 127
0.512462 0.250292 -0.048145 0 127 127
-0.319508 0.376370 0.558570 153 0 76
0.418833 0.243861 0.549239 153 0 76
0.511464 0.206342 0.198864 0 127 127
0.473574 -0.717418 0.305223 127 0 127
-0.428038 -0.025960 -0.519828 0 127 127
0.222297 -0.257170 0.562275 153 0 76
0.512462 0.467491 -0.194683 0 127 127
0.180474 -0.368918 0.564009 153 0 76
-0.411306 -0.609052 0.342730 127 0 127
0.505363 -0.636818 -0.514700 127 0 127
0.511417 -0.624351 0.322877 127 0 127
-0.163356 0.772613 -0.401793 0 127 127
0.457479 -0.493942 -0.519822 0 127 127
-0.542392 -0.207202 -0.347425 0 127 127
-0.542392 0.352126 -0.290671 0 127 127
-0.542392 -0.605595 0.192149 127 0 127
-0.429514 0.209219 0.550917 153 0 76
0.281273 -0.717636 -0.413979 127 0 127
0.340395 -0.717636 0.096763 127 0 127
-0.075882 -0.717636 -0.025777 127 0 127
-0.088453 -0.717636 0.191771 127 0 127
0.278091 0.773368 -0.121467 0 127 127
0.090349 -0.717636 -0.203696 127 0 127
-0.542360 -0.664653 -0.117066 127 0 127
0.176402 -0.717636 -0.307108 127 0 127
0.263725 0.752395 0.556970 153 0 76
0.024664 0.432615 -0.519828 0 127 127
-0.542392 0.357506 0.070481 0 127 127
0.511686 -0.282948 -0.454302 0 127 127
-0.523468 -0.269109 -0.519354 0 127 127
-0.243629 0.324492 0.562659 153 0 76
-0.163769 0.530193 0.565193 153 0 76
-0.542392 0.209333 0.161311 0 127 127
-0.542392 -0.213209 -0.200868 0 127 127
0.512463 0.698254 0.182749 0 127 127
-0.542384 -0.500118 0.372548 0 127 127
0.102866 0.703126 0.566319 153 0 76
-0.232942 0.773384 0.202866 0 127 127
0.501070 -0.565724 0.352186 127 0 127
0.374411 0.044995 0.553204 153 0 76
0.512462 0.514492 -0.343165 0 127 127
0.442344 0.729875 0.547305 153 0 76
0.467877 -0.717634 -0.228229 127 0 127
0.512462 0.531906 0.265884 0 127 127
0.512462 -0.586217 0.204346 127 0 127
-0.542392 -0.133595 0.030995 0 127 127
0.429558 0.628540 -0.519828 0 127 127
0.511464 -0.224158 0.346602 0 127 127
-0.542392 -0.088348 -0.442892 0 127 127
0.511464 0.037096 -0.213920 0 127 127
0.512357 0.734138 0.380667 0 127 127
-0.178864 0.773612 0.272896 0 127 127
0.437963 0.772908 -0.122412 0 127 127
-0.423256 -0.029835 0.551742 153 0 76
0.148484 -0.715754 0.317794 127 0 127
0.452823 -0.383072 0.546550 153 0 76
0.057836 0.773612 -0.193180 0 127 127
-0.542392 -0.275755 0.062890 0 127 127
-0.542392 -0.288502 -0.154659 0 127 127
0.036477 0.169754 -0.519828 0 127 127
0.397856 0.767204 0.518025 153 0 76
-0.542391 -0.440673 0.404893 0 127 127
-0.542392 0.245133 0.232633 0 127 127
-0.151743 -0.653793 0.342833 127 0 127
-0.532139 0.756216 0.514528 153 0 76
-0.488215 -0.392152 0.545844 153 0 76
0.511464 -0.227697 0.060351 0 127 127
0.018150 0.773612 0.247031 0 127 127
-0.542392 0.434528 0.272357 0 127 127
-0.141772 0.375655 -0.519828 0 127 127
-0.140043 -0.717505 0.297586 127 0 127
-0.542392 -0.417402 0.312790 0 127 127
0.409745 -0.655120 0.342833 127 0 127
-0.208338 0.773612 0.074171 0 127 127
0.512462 0.177596 -0.144332 0 127 127
0.121366 -0.447711 0.565878 153 0 76
0.095604 -0.656572 -0.519828 127 0 127
0.511464 -0.374556 0.047620 0 127 127
-0.542392 0.583188 0.110507 0 127 127
-0.479706 0.773611 -0.231871 0 127 127
-0.091106 0.002077 0.567082 153 0 76
-0.542392 0.662049 -0.218683 0 127 127
-0.542392 -0.232846 -0.047312 0 127 127
-0.283264 0.773296 -0.070501 0 127 127
0.512130 -0.651992 -0.001300 127 0 127
0.036619 0.773612 0.021280 0 127 127
0.512462 -0.232460 -0.199213 0 127 127
0.277808 -0.717636 -0.202402 127 0 127
0.243635 -0.717636 -0.057385 127 0 127
0.375038 0.352865 0.553148 153 0 76
0.266523 -0.542176 0.415096 0 127 127
0.512347 0.460493 -0.474833 0 127 127
-0.542391 0.513974 0.432161 0 127 127
0.258595 -0.556336 0.368670 0 127 127
0.512462 -0.392698 -0.206997 0 127 127
-0.106489 0.773612 0.363246 0 127 127
-0.030462 -0.717636 0.206923 127 0 127
0.021554 -0.148115 0.567526 153 0 76
-0.542391 0.673493 0.440349 0 127 127
0.398565 0.425449 0.551079 153 0 76
-0.542392 -0.489742 -0.176668 0 127 127
0.310330 -0.717636 -0.083163 127 0 127
0.186322 -0.717636 0.179986 127 0 127
-0.325519 -0.367894 -0.519828 0 127 127
-0.482082 0.773611 -0.427989 0 127 127
0.323093 0.772613 -0.391710 0 127 127
-0.371769 -0.160214 0.555518 153 0 76
0.511464 -0.434881 0.084316 0 127 127
0.446215 -0.717636 0.045159 127 0 127
-0.311547 0.567394 0.558967 153 0 76
0.512246 -0.287168 -0.308961 0 127 127
-0.495031 0.003424 0.545155 153 0 76
0.187861 -0.178006 -0.519828 0 127 127
-0.541771 0.459935 0.468371 153 0 76
0.512462 -0.258150 -0.150023 0 127 127
-0.501130 0.773609 -0.156212 0 127 127
0.511636 -0.034575 -0.495370 0 127 127
-0.514491 -0.509399 -0.519566 0 127 127
-0.542392 -0.219834 0.020873 0 127 127
-0.358900 0.121493 -0.519828 0 127 127
0.106964 0.773612 0.130264 0 127 127
-0.542392 0.687992 -0.356116 0 127 127
-0.431825 -0.482763 -0.519828 0 127 127
0.119623 -0.717636 0.205620 127 0 127
0.271909 -0.139712 -0.519828 0 127 127
-0.542392 0.160270 -0.406176 0 127 127
0.032269 0.773612 -0.313830 0 127 127
-0.425511 0.195434 -0.519828 0 127 127
-0.542392 0.162017 -0.336091 0 127 127
-0.542392 -0.508237 -0.044363 0 127 127
-0.478491 -0.166249 0.546894 153 0 76
-0.034698 0.426460 0.567409 153 0 76
-0.542391 0.268115 0.421911 0 127 127
-0.542393 0.707123 -0.294098 0 127 127
0.511502 0.458279 0.319993 0 127 127
0.512462 0.312753 -0.192474 0 127 127
-0.000036 0.532410 0.567620 153 0 76
