-0.083745 -0.845472 -0.492351 0.000000 0.500000 0.500000
-0.384908 -0.835612 -0.154657 0.000000 0.500000 0.500000
-0.552857 -0.465317 0.039680 0.000000 0.500000 0.500000
-0.201859 -0.251389 -0.512874 0.000000 0.500000 0.500000
-0.553141 -0.738585 0.036730 0.000000 0.500000 0.500000
0.536349 -0.408955 0.069321 0.000000 0.500000 0.500000
-0.551080 -0.097205 0.053247 0.000000 0.500000 0.500000
0.374998 0.597007 0.322611 0.000000 0.500000 0.500000
0.404159 -0.019056 -0.365900 0.000000 0.500000 0.500000
0.270980 0.653127 -0.320458 0.000000 0.500000 0.500000
-0.116828 -0.010092 -0.538945 0.000000 0.500000 0.500000
0.153935 -0.192693 -0.527162 0.000000 0.500000 0.500000
0.203038 -0.463206 -0.507272 0.000000 0.500000 0.500000
-0.302884 0.360565 -0.463560 0.000000 0.500000 0.500000
-0.400582 0.622772 0.261894 0.000000 0.500000 0.500000
-0.341864 -0.489639 -0.433860 0.000000 0.500000 0.500000
-0.526209 -0.267169 0.173055 0.000000 0.500000 0.500000
0.455123 -0.618788 -0.299357 0.000000 0.500000 0.500000
-0.548664 0.390148 -0.074155 0.000000 0.500000 0.500000
0.064794 -0.178695 0.541099 0.000000 0.500000 0.500000
0.468198 -0.260468 -0.278129 0.000000 0.500000 0.500000
-0.484497 0.094091 0.269077 0.000000 0.500000 0.500000
0.521239 -0.841061 -0.005121 0.000000 0.500000 0.500000
0.377291 -0.701276 -0.395489 0.000000 0.500000 0.500000
0.262640 -0.314347 -0.480713 0.000000 0.500000 0.500000
0.541720 -0.528600 -0.030622 0.000000 0.500000 0.500000
0.120408 0.724396 -0.329255 0.600000 0.000000 0.300000
-0.530014 -0.623969 0.163355 0.000000 0.500000 0.500000
0.322007 -0.026628 0.436662 0.000000 0.500000 0.500000
0.542792 0.173600 0.004038 0.000000 0.500000 0.500000
-0.080215 -0.818719 -0.143168 0.000000 0.500000 0.500000
0.275612 0.820706 -0.265849 0.600000 0.000000 0.300000
-0.389294 0.296126 0.392932 0.000000 0.500000 0.500000
0.098156 0.508486 -0.534731 0.000000 0.500000 0.500000
-0.239027 -0.468640 0.494433 0.000000 0.500000 0.500000
-0.515798 0.403588 -0.201240 0.000000 0.500000 0.500000
-0.456070 -0.841830 0.047784 0.000000 0.500000 0.500000
-0.520757 -0.562376 0.186368 0.000000 0.500000 0.500000
-0.481847 -0.742128 0.273549 0.000000 0.500000 0.500000
0.063926 -0.291212 0.541412 0.000000 0.500000 0.500000
-0.371007 -0.528967 0.408515 0.000000 0.500000 0.500000
0.523865 0.551077 -0.003023 0.000000 0.500000 0.500000
0.199663 -0.822005 -0.120214 0.000000 0.500000 0.500000
0.530466 0.249363 -0.115569 0.000000 0.500000 0.500000
0.514871 0.197401 0.170549 0.000000 0.500000 0.500000
-0.507958 0.061601 -0.220299 0.000000 0.500000 0.500000
-0.547783 -0.499893 0.078333 0.000000 0.500000 0.500000
-0.339144 0.720701 0.196172 0.600000 0.000000 0.300000
-0.552993 0.337124 -0.041594 0.000000 0.500000 0.500000
0.310915 -0.351899 -0.448150 0.000000 0.500000 0.500000
0.257078 0.522889 0.470560 0.000000 0.500000 0.500000
0.430766 -0.734153 0.328118 0.000000 0.500000 0.500000
0.130211 0.055944 0.530859 0.000000 0.500000 0.500000
-0.300448 0.924787 -0.176819 0.600000 0.000000 0.300000
-0.186994 0.269307 -0.518946 0.000000 0.500000 0.500000
0.037019 -0.557208 -0.547903 0.000000 0.500000 0.500000
-0.052743 -0.820958 -0.210844 0.000000 0.500000 0.500000
0.025667 -0.260826 -0.549258 0.000000 0.500000 0.500000
0.500635 0.110212 0.205282 0.000000 0.500000 0.500000
-0.299074 0.215176 0.463256 0.000000 0.500000 0.500000
-0.274534 0.495212 -0.476495 0.000000 0.500000 0.500000
-0.260086 0.289141 0.485484 0.000000 0.500000 0.500000
-0.551329 0.119038 -0.054402 0.000000 0.500000 0.500000
-0.296139 0.652262 0.308220 0.000000 0.500000 0.500000
0.014834 -0.449383 -0.549746 0.000000 0.500000 0.500000
-0.063668 0.314681 0.543073 0.000000 0.500000 0.500000
-0.000355 -0.332097 -0.550431 0.000000 0.500000 0.500000
0.488713 0.525932 0.209058 0.000000 0.500000 0.500000
-0.147238 0.924787 -0.221368 0.600000 0.000000 0.300000
-0.088751 -0.077496 0.539773 0.000000 0.500000 0.500000
0.306585 0.007525 -0.451469 0.000000 0.500000 0.500000
0.422449 -0.692384 -0.341989 0.000000 0.500000 0.500000
-0.178913 0.405054 0.518973 0.000000 0.500000 0.500000
0.055170 -0.816412 -0.023883 0.000000 0.500000 0.500000
-0.252968 0.676867 -0.290636 0.300000 0.600000 0.000000
0.305461 0.923494 0.223983 0.600000 0.000000 0.300000
-0.530684 -0.426782 -0.164566 0.000000 0.500000 0.500000
-0.333732 0.773885 -0.206190 0.600000 0.000000 0.300000
-0.301643 -0.836758 0.309684 0.000000 0.500000 0.500000
0.474045 -0.220857 -0.267841 0.000000 0.500000 0.500000
-0.073579 -0.418941 0.541770 0.000000 0.500000 0.500000
-0.506146 -0.313281 0.221681 0.000000 0.500000 0.500000
0.048817 -0.714252 -0.546298 0.000000 0.500000 0.500000
-0.431140 0.168998 -0.346848 0.000000 0.500000 0.500000
0.116839 -0.138984 -0.537211 0.000000 0.500000 0.500000
0.069704 -0.647550 -0.543604 0.000000 0.500000 0.500000
0.380053 0.424582 0.389834 0.000000 0.500000 0.500000
0.350154 0.146972 0.415068 0.000000 0.500000 0.500000
0.217637 -0.822958 0.118951 0.000000 0.500000 0.500000
-0.433888 -0.710165 -0.343166 0.000000 0.500000 0.500000
-0.526724 0.523428 0.141621 0.000000 0.500000 0.500000
-0.492421 -0.257537 -0.256805 0.000000 0.500000 0.500000
0.206831 0.675287 -0.309050 0.300000 0.600000 0.000000
-0.330089 -0.436297 -0.442894 0.000000 0.500000 0.500000
0.282424 -0.371780 -0.469018 0.000000 0.500000 0.500000
0.540600 0.362262 0.038595 0.000000 0.500000 0.500000
0.016667 -0.831791 0.373512 0.000000 0.500000 0.500000
0.375825 0.817484 -0.045630 0.600000 0.000000 0.300000
-0.353215 0.924787 0.010399 0.600000 0.000000 0.300000
0.123118 -0.823203 -0.221071 0.000000 0.500000 0.500000
-0.245366 0.924787 -0.185515 0.600000 0.000000 0.300000
-0.328464 -0.270705 0.441165 0.000000 0.500000 0.500000
-0.027324 -0.563666 0.546777 0.000000 0.500000 0.500000
0.178207 0.841898 -0.341280 0.600000 0.000000 0.300000
0.160268 0.924787 -0.294290 0.600000 0.000000 0.300000
0.532237 -0.590035 -0.105545 0.000000 0.500000 0.500000
-0.041297 -0.148908 0.546017 0.000000 0.500000 0.500000
-0.456484 0.056625 0.310848 0.000000 0.500000 0.500000
-0.227109 -0.236131 0.499404 0.000000 0.500000 0.500000
-0.457107 0.637212 -0.040839 0.000000 0.500000 0.500000
-0.329624 -0.843804 0.336601 0.000000 0.500000 0.500000
0.535196 -0.616341 -0.083209 0.000000 0.500000 0.500000
0.415685 0.371662 0.347842 0.000000 0.500000 0.500000
-0.554832 -0.367996 0.010689 0.000000 0.500000 0.500000
0.328136 -0.274876 0.431956 0.000000 0.500000 0.500000
0.039549 0.575080 0.511815 0.000000 0.500000 0.500000
0.540917 -0.668572 0.036298 0.000000 0.500000 0.500000
0.300500 0.924787 -0.071961 0.600000 0.000000 0.300000
0.379970 -0.199655 0.390221 0.000000 0.500000 0.500000
0.013110 0.332472 0.546859 0.000000 0.500000 0.500000
0.335682 0.914910 0.177931 0.600000 0.000000 0.300000
-0.287007 -0.456171 -0.473725 0.000000 0.500000 0.500000
0.451725 0.617607 0.143291 0.000000 0.500000 0.500000
0.096516 0.385379 -0.540042 0.000000 0.500000 0.500000
-0.018909 0.890287 -0.387613 0.600000 0.000000 0.300000
0.334956 0.117174 -0.429700 0.000000 0.500000 0.500000
-0.488767 0.452569 0.259865 0.000000 0.500000 0.500000
0.323927 0.719344 -0.117938 0.600000 0.000000 0.300000
-0.087045 -0.430127 -0.542960 0.000000 0.500000 0.500000
-0.021867 -0.457441 -0.549991 0.000000 0.500000 0.500000
-0.489486 0.342143 0.259452 0.000000 0.500000 0.500000
-0.441831 -0.082813 -0.332910 0.000000 0.500000 0.500000
0.109756 -0.289119 -0.538208 0.000000 0.500000 0.500000
0.489591 0.349478 -0.234599 0.000000 0.500000 0.500000
-0.295063 0.429850 -0.468702 0.000000 0.500000 0.500000
-0.139553 0.924787 0.273769 0.600000 0.000000 0.300000
0.142355 0.300303 -0.531321 0.000000 0.500000 0.500000
-0.554841 -0.042856 0.010504 0.000000 0.500000 0.500000
0.474322 -0.536678 0.264849 0.000000 0.500000 0.500000
-0.467205 0.274970 -0.299724 0.000000 0.500000 0.500000
0.053008 -0.136937 -0.545809 0.000000 0.500000 0.500000
-0.194066 0.769169 0.336858 0.600000 0.000000 0.300000
-0.100637 -0.637394 -0.541168 0.000000 0.500000 0.500000
-0.551652 0.224199 -0.051949 0.000000 0.500000 0.500000
-0.022940 -0.817572 -0.119271 0.000000 0.500000 0.500000
0.180585 0.496553 0.509350 0.000000 0.500000 0.500000
0.157696 -0.112453 -0.525700 0.000000 0.500000 0.500000
-0.253417 -0.577102 -0.491455 0.000000 0.500000 0.500000
0.075343 -0.833936 -0.536333 0.000000 0.500000 0.500000
-0.534709 0.139682 -0.154209 0.000000 0.500000 0.500000
-0.304961 -0.208167 0.459066 0.000000 0.500000 0.500000
-0.550823 -0.599250 0.055210 0.000000 0.500000 0.500000
0.513438 -0.226223 0.174010 0.000000 0.500000 0.500000
-0.340078 0.655137 -0.244168 0.000000 0.500000 0.500000
-0.504155 -0.085947 -0.229392 0.000000 0.500000 0.500000
-0.056742 0.099253 0.543985 0.000000 0.500000 0.500000
0.251735 0.000386 0.483406 0.000000 0.500000 0.500000
0.139615 0.314611 0.528856 0.000000 0.500000 0.500000
0.269074 0.569978 0.440035 0.000000 0.500000 0.500000
-0.250816 0.762473 -0.298399 0.600000 0.000000 0.300000
-0.385803 0.062223 0.396081 0.000000 0.500000 0.500000
0.524197 0.310104 0.144984 0.000000 0.500000 0.500000
-0.535340 -0.766634 0.148622 0.000000 0.500000 0.500000
0.532146 -0.113586 -0.101602 0.000000 0.500000 0.500000
-0.429279 -0.487872 -0.349275 0.000000 0.500000 0.500000
-0.424933 0.554170 -0.321780 0.000000 0.500000 0.500000
-0.212612 -0.822298 0.124229 0.000000 0.500000 0.500000
0.273380 0.237360 0.471518 0.000000 0.500000 0.500000
0.536145 0.326549 0.072833 0.000000 0.500000 0.500000
-0.234787 -0.838749 -0.373642 0.000000 0.500000 0.500000
0.252741 -0.236052 0.482883 0.000000 0.500000 0.500000
-0.085669 -0.691742 0.540118 0.000000 0.500000 0.500000
-0.554415 -0.479199 -0.022964 0.000000 0.500000 0.500000
0.348966 -0.691924 0.415926 0.000000 0.500000 0.500000
0.539968 -0.517738 0.043881 0.000000 0.500000 0.500000
-0.143920 -0.828147 0.297379 0.000000 0.500000 0.500000
-0.244898 0.924787 0.001997 0.600000 0.000000 0.300000
-0.248384 0.011866 -0.493540 0.000000 0.500000 0.500000
0.530368 -0.105210 0.115807 0.000000 0.500000 0.500000
0.334584 -0.362414 0.427012 0.000000 0.500000 0.500000
0.102173 0.901304 -0.372774 0.600000 0.000000 0.300000
-0.351714 0.679476 0.153242 0.300000 0.600000 0.000000
0.393912 0.171931 -0.378327 0.000000 0.500000 0.500000
-0.435692 0.222504 -0.340913 0.000000 0.500000 0.500000
0.446320 -0.490304 0.307962 0.000000 0.500000 0.500000
-0.501490 -0.846011 -0.084573 0.000000 0.500000 0.500000
-0.242990 -0.823416 0.102915 0.000000 0.500000 0.500000
-0.543689 -0.122646 0.108827 0.000000 0.500000 0.500000
0.005482 0.396187 -0.550098 0.000000 0.500000 0.500000
-0.191133 0.809183 -0.341038 0.600000 0.000000 0.300000
-0.041413 0.003044 0.546002 0.000000 0.500000 0.500000
0.003985 -0.634656 -0.550236 0.000000 0.500000 0.500000
-0.095323 -0.066259 -0.541868 0.000000 0.500000 0.500000
-0.331837 -0.645917 0.438563 0.000000 0.500000 0.500000
-0.136653 0.924787 -0.314618 0.600000 0.000000 0.300000
0.128930 0.020678 -0.534690 0.000000 0.500000 0.500000
0.328842 0.683635 -0.169773 0.300000 0.600000 0.000000
0.538127 0.465980 -0.051882 0.000000 0.500000 0.500000
-0.527981 0.377350 0.167802 0.000000 0.500000 0.500000
0.348059 0.742442 -0.151016 0.600000 0.000000 0.300000
0.482737 -0.845886 -0.089006 0.000000 0.500000 0.500000
-0.137480 0.804575 -0.363261 0.600000 0.000000 0.300000
-0.153628 -0.191935 -0.531557 0.000000 0.500000 0.500000
0.076913 -0.022231 -0.542663 0.000000 0.500000 0.500000
0.417850 0.546901 0.316822 0.000000 0.500000 0.500000
0.027531 0.924787 0.333710 0.600000 0.000000 0.300000
-0.048207 -0.270920 0.545108 0.000000 0.500000 0.500000
0.296407 0.884194 -0.238748 0.600000 0.000000 0.300000
-0.435487 -0.561769 0.338220 0.000000 0.500000 0.500000
-0.517375 0.168438 -0.197632 0.000000 0.500000 0.500000
-0.388249 0.383826 -0.396697 0.000000 0.500000 0.500000
0.257315 -0.801805 0.478770 0.000000 0.500000 0.500000
0.504710 -0.565251 0.195413 0.000000 0.500000 0.500000
-0.536953 0.542689 -0.047096 0.000000 0.500000 0.500000
0.165011 -0.624368 0.519890 0.000000 0.500000 0.500000
-0.192796 -0.815305 -0.514462 0.000000 0.500000 0.500000
-0.460344 0.107439 -0.308741 0.000000 0.500000 0.500000
0.465743 0.571064 -0.212663 0.000000 0.500000 0.500000
-0.108536 0.504053 0.532273 0.000000 0.500000 0.500000
-0.337669 -0.829007 -0.079362 0.000000 0.500000 0.500000
-0.151825 -0.045573 -0.532013 0.000000 0.500000 0.500000
-0.388529 0.815003 -0.042875 0.600000 0.000000 0.300000
0.366741 -0.614106 0.402153 0.000000 0.500000 0.500000
0.016233 -0.836546 0.413562 0.000000 0.500000 0.500000
-0.153573 -0.799367 0.526689 0.000000 0.500000 0.500000
0.070001 -0.606687 -0.543575 0.000000 0.500000 0.500000
0.543045 -0.114629 -0.001660 0.000000 0.500000 0.500000
-0.216422 0.805333 0.321826 0.600000 0.000000 0.300000
-0.555089 -0.241584 0.005006 0.000000 0.500000 0.500000
0.442174 -0.046795 -0.316372 0.000000 0.500000 0.500000
0.029290 -0.817223 0.100164 0.000000 0.500000 0.500000
0.138134 0.860591 -0.357879 0.600000 0.000000 0.300000
-0.239076 0.924787 0.271321 0.600000 0.000000 0.300000
0.539280 -0.792456 -0.050242 0.000000 0.500000 0.500000
-0.532198 0.174229 -0.160668 0.000000 0.500000 0.500000
-0.370300 0.758121 0.124151 0.600000 0.000000 0.300000
-0.173370 -0.473451 0.521429 0.000000 0.500000 0.500000
0.207986 0.796863 -0.321793 0.600000 0.000000 0.300000
0.541649 0.352791 -0.030903 0.000000 0.500000 0.500000
-0.342058 0.831638 0.192333 0.600000 0.000000 0.300000
0.423195 -0.607260 0.338126 0.000000 0.500000 0.500000
-0.060497 0.924787 0.031220 0.600000 0.000000 0.300000
0.536231 -0.186326 0.070768 0.000000 0.500000 0.500000
-0.413936 -0.086814 -0.369265 0.000000 0.500000 0.500000
-0.507259 -0.398412 0.219012 0.000000 0.500000 0.500000
0.504790 -0.410106 0.194973 0.000000 0.500000 0.500000
0.390635 0.482184 -0.378545 0.000000 0.500000 0.500000
0.483910 -0.817613 0.237010 0.000000 0.500000 0.500000
0.171540 -0.816307 0.513537 0.000000 0.500000 0.500000
-0.003764 0.924787 -0.369477 0.600000 0.000000 0.300000
-0.445866 0.614454 0.197700 0.000000 0.500000 0.500000
-0.542698 -0.038115 -0.118697 0.000000 0.500000 0.500000
-0.250630 0.631256 -0.393754 0.000000 0.500000 0.500000
0.042005 0.237406 0.544285 0.000000 0.500000 0.500000
0.291105 0.635846 0.343789 0.000000 0.500000 0.500000
0.290486 -0.322639 0.460723 0.000000 0.500000 0.500000
0.530617 -0.832884 0.073464 0.000000 0.500000 0.500000
0.301561 0.745114 -0.174368 0.300000 0.600000 0.000000
-0.034508 0.724396 -0.351594 0.600000 0.000000 0.300000
-0.445705 0.558943 0.287129 0.000000 0.500000 0.500000
-0.194669 -0.843344 -0.438672 0.000000 0.500000 0.500000
0.317000 -0.039309 -0.443478 0.000000 0.500000 0.500000
0.169966 -0.318661 -0.520864 0.000000 0.500000 0.500000
0.051493 0.430681 -0.545803 0.000000 0.500000 0.500000
0.359191 -0.023641 0.408130 0.000000 0.500000 0.500000
-0.279400 -0.407658 -0.478329 0.000000 0.500000 0.500000
0.476444 -0.735930 -0.263527 0.000000 0.500000 0.500000
-0.370144 0.749142 -0.127494 0.600000 0.000000 0.300000
-0.306468 0.924787 -0.097429 0.600000 0.000000 0.300000
0.328879 0.316426 0.431374 0.000000 0.500000 0.500000
-0.535624 -0.127590 -0.151420 0.000000 0.500000 0.500000
-0.107428 -0.799950 -0.539917 0.000000 0.500000 0.500000
-0.547204 0.397854 0.082095 0.000000 0.500000 0.500000
0.214754 -0.025612 -0.502386 0.000000 0.500000 0.500000
0.043441 0.924787 -0.210378 0.600000 0.000000 0.300000
0.332712 0.457505 0.427654 0.000000 0.500000 0.500000
-0.082702 -0.831181 -0.361960 0.000000 0.500000 0.500000
-0.533792 0.487090 0.144480 0.000000 0.500000 0.500000
-0.237065 -0.281852 0.495247 0.000000 0.500000 0.500000
-0.334673 -0.342098 0.436392 0.000000 0.500000 0.500000
0.489603 -0.696639 0.231510 0.000000 0.500000 0.500000
0.197078 0.086436 0.506792 0.000000 0.500000 0.500000
-0.354772 0.714621 -0.040317 0.600000 0.000000 0.300000
-0.310872 -0.210363 -0.457589 0.000000 0.500000 0.500000
0.194000 -0.846783 -0.462998 0.000000 0.500000 0.500000
0.495376 -0.220517 -0.220830 0.000000 0.500000 0.500000
0.080907 -0.229087 -0.542136 0.000000 0.500000 0.500000
0.096942 0.898452 0.371976 0.600000 0.000000 0.300000
0.051395 0.924787 0.087385 0.600000 0.000000 0.300000
-0.252369 0.367581 0.488895 0.000000 0.500000 0.500000
-0.390785 0.907670 0.022779 0.600000 0.000000 0.300000
-0.547738 0.049504 0.078672 0.000000 0.500000 0.500000
-0.491264 -0.845581 -0.136903 0.000000 0.500000 0.500000
-0.157408 -0.673667 -0.530447 0.000000 0.500000 0.500000
0.339429 0.718475 -0.054294 0.600000 0.000000 0.300000
-0.474201 0.210047 -0.289304 0.000000 0.500000 0.500000
-0.166313 0.456027 -0.526340 0.000000 0.500000 0.500000
0.513400 0.295680 -0.177115 0.000000 0.500000 0.500000
0.414072 0.471351 0.348298 0.000000 0.500000 0.500000
0.470478 0.590901 0.165088 0.000000 0.500000 0.500000
0.011385 0.717810 0.384014 0.600000 0.000000 0.300000
0.359049 0.383937 0.408051 0.000000 0.500000 0.500000
-0.522349 -0.360943 -0.185452 0.000000 0.500000 0.500000
0.531587 -0.434608 0.103842 0.000000 0.500000 0.500000
-0.487173 -0.838313 0.232898 0.000000 0.500000 0.500000
0.252013 0.471768 -0.484507 0.000000 0.500000 0.500000
-0.203992 0.423863 -0.511792 0.000000 0.500000 0.500000
0.279736 0.924787 -0.181299 0.600000 0.000000 0.300000
0.455962 0.422753 -0.297998 0.000000 0.500000 0.500000
0.541608 0.164489 -0.033079 0.000000 0.500000 0.500000
-0.114928 -0.817299 0.011664 0.000000 0.500000 0.500000
0.099327 0.746466 0.370988 0.600000 0.000000 0.300000
-0.554943 -0.172254 0.008230 0.000000 0.500000 0.500000
0.203814 0.030962 0.503980 0.000000 0.500000 0.500000
-0.358261 0.693361 0.078400 0.300000 0.600000 0.000000
-0.501858 0.557969 -0.175621 0.000000 0.500000 0.500000
0.538816 -0.149661 -0.055044 0.000000 0.500000 0.500000
0.256579 0.722182 0.230271 0.600000 0.000000 0.300000
-0.506338 0.578183 -0.121737 0.000000 0.500000 0.500000
-0.352632 0.693422 0.111150 0.300000 0.600000 0.000000
0.317475 0.506119 0.433890 0.000000 0.500000 0.500000
-0.417080 0.010318 0.362208 0.000000 0.500000 0.500000
0.406763 -0.836729 -0.071691 0.000000 0.500000 0.500000
0.303075 -0.246252 -0.454132 0.000000 0.500000 0.500000
0.325487 0.722803 0.111207 0.600000 0.000000 0.300000
-0.246325 -0.833633 0.483188 0.000000 0.500000 0.500000
0.525683 0.138955 0.139064 0.000000 0.500000 0.500000
-0.360057 0.711235 -0.006711 0.300000 0.600000 0.000000
-0.269058 -0.640753 0.480815 0.000000 0.500000 0.500000
0.041647 -0.843974 -0.468008 0.000000 0.500000 0.500000
-0.529616 -0.424892 0.164379 0.000000 0.500000 0.500000
0.444773 -0.844860 0.230967 0.000000 0.500000 0.500000
-0.121857 0.754340 0.329176 0.300000 0.600000 0.000000
-0.417640 0.607929 -0.266978 0.000000 0.500000 0.500000
-0.223263 -0.845109 0.429479 0.000000 0.500000 0.500000
0.502507 -0.297607 0.199948 0.000000 0.500000 0.500000
0.036204 -0.487186 0.545045 0.000000 0.500000 0.500000
-0.291656 0.111348 -0.470912 0.000000 0.500000 0.500000
-0.195166 0.924787 -0.295522 0.600000 0.000000 0.300000
0.500349 0.377188 0.205960 0.000000 0.500000 0.500000
0.363359 -0.101728 0.404930 0.000000 0.500000 0.500000
-0.555085 -0.075141 0.005093 0.000000 0.500000 0.500000
0.491183 -0.686229 -0.230699 0.000000 0.500000 0.500000
-0.083170 -0.109280 0.540507 0.000000 0.500000 0.500000
-0.206001 0.703156 -0.306051 0.300000 0.600000 0.000000
0.390031 -0.216029 -0.382629 0.000000 0.500000 0.500000
-0.029900 0.406400 -0.549534 0.000000 0.500000 0.500000
0.282207 0.251940 -0.469150 0.000000 0.500000 0.500000
0.338283 -0.833856 -0.203576 0.000000 0.500000 0.500000
0.305502 -0.827684 0.081327 0.000000 0.500000 0.500000
-0.436606 0.034174 -0.339722 0.000000 0.500000 0.500000
0.537981 0.410738 0.058216 0.000000 0.500000 0.500000
0.542588 0.289821 0.008558 0.000000 0.500000 0.500000
0.195826 0.899268 -0.331124 0.600000 0.000000 0.300000
-0.169432 0.131496 -0.525925 0.000000 0.500000 0.500000
0.492799 -0.379328 -0.226979 0.000000 0.500000 0.500000
0.172319 0.195347 0.516931 0.000000 0.500000 0.500000
0.087887 0.516455 0.531106 0.000000 0.500000 0.500000
0.269864 0.208191 -0.476616 0.000000 0.500000 0.500000
-0.552314 -0.402815 -0.046919 0.000000 0.500000 0.500000
-0.041661 0.615282 0.479513 0.000000 0.500000 0.500000
-0.552588 -0.422370 0.041731 0.000000 0.500000 0.500000
0.110372 -0.245946 0.535162 0.000000 0.500000 0.500000
0.151374 0.423313 -0.527652 0.000000 0.500000 0.500000
0.204800 0.924787 0.005814 0.600000 0.000000 0.300000
0.384157 -0.767024 0.386029 0.000000 0.500000 0.500000
0.477369 -0.845353 0.133904 0.000000 0.500000 0.500000
0.533894 -0.535975 0.088454 0.000000 0.500000 0.500000
-0.384495 -0.528402 -0.400232 0.000000 0.500000 0.500000
-0.544580 0.102421 0.102491 0.000000 0.500000 0.500000
-0.337336 0.479585 -0.434955 0.000000 0.500000 0.500000
0.498910 -0.155599 -0.211965 0.000000 0.500000 0.500000
-0.514950 0.367903 -0.203467 0.000000 0.500000 0.500000
-0.158060 -0.468177 -0.530345 0.000000 0.500000 0.500000
0.081361 -0.112342 0.538586 0.000000 0.500000 0.500000
0.236877 -0.338000 0.490067 0.000000 0.500000 0.500000
0.532233 0.041278 0.102589 0.000000 0.500000 0.500000
0.267889 0.714621 0.270287 0.600000 0.000000 0.300000
-0.463791 0.629329 -0.085018 0.000000 0.500000 0.500000
0.143595 0.459717 0.527395 0.000000 0.500000 0.500000
0.296095 -0.162014 0.456466 0.000000 0.500000 0.500000
0.157131 0.750497 -0.350010 0.600000 0.000000 0.300000
-0.341467 -0.724773 0.431075 0.000000 0.500000 0.500000
0.059690 0.924787 -0.272087 0.600000 0.000000 0.300000
0.281897 0.905160 0.254693 0.600000 0.000000 0.300000
0.380946 0.662317 0.042056 0.000000 0.500000 0.500000
-0.481670 -0.791961 -0.276634 0.000000 0.500000 0.500000
-0.537379 -0.594082 -0.144442 0.000000 0.500000 0.500000
0.539353 -0.454895 -0.051594 0.000000 0.500000 0.500000
-0.479379 0.610690 0.116772 0.000000 0.500000 0.500000
0.147292 -0.522496 0.526801 0.000000 0.500000 0.500000
-0.289007 0.002811 0.469152 0.000000 0.500000 0.500000
0.433214 0.593619 0.246050 0.000000 0.500000 0.500000
-0.097232 -0.528512 -0.541617 0.000000 0.500000 0.500000
-0.071642 0.825400 0.377706 0.600000 0.000000 0.300000
-0.397587 -0.216346 -0.387942 0.000000 0.500000 0.500000
-0.550921 -0.277046 0.054458 0.000000 0.500000 0.500000
0.302409 0.714621 0.174422 0.600000 0.000000 0.300000
0.012493 -0.824935 -0.283202 0.000000 0.500000 0.500000
0.066039 0.619791 -0.472125 0.000000 0.500000 0.500000
-0.177839 0.680398 -0.341579 0.300000 0.600000 0.000000
-0.379942 0.714621 0.037215 0.600000 0.000000 0.300000
0.443354 -0.005765 -0.314835 0.000000 0.500000 0.500000
-0.045051 0.650088 -0.426659 0.000000 0.500000 0.500000
-0.244193 0.661426 -0.321331 0.000000 0.500000 0.500000
-0.316894 0.621644 -0.358994 0.000000 0.500000 0.500000
0.501586 -0.616650 0.203007 0.000000 0.500000 0.500000
0.325672 0.924787 0.033827 0.600000 0.000000 0.300000
-0.382573 -0.164708 -0.401966 0.000000 0.500000 0.500000
0.312204 -0.804551 0.442431 0.000000 0.500000 0.500000
-0.242484 0.735051 -0.265688 0.300000 0.600000 0.000000
0.436662 -0.257192 -0.323245 0.000000 0.500000 0.500000
0.539585 -0.561753 -0.049833 0.000000 0.500000 0.500000
-0.422705 -0.838310 -0.100800 0.000000 0.500000 0.500000
-0.488997 -0.131056 -0.263389 0.000000 0.500000 0.500000
-0.321981 0.924787 0.036227 0.600000 0.000000 0.300000
-0.470025 -0.191264 -0.296017 0.000000 0.500000 0.500000
-0.177838 0.924787 -0.155259 0.600000 0.000000 0.300000
0.276737 0.736505 0.210001 0.300000 0.600000 0.000000
-0.100614 0.848798 -0.376857 0.600000 0.000000 0.300000
-0.311560 0.726991 -0.181523 0.300000 0.600000 0.000000
0.164978 0.714865 -0.346759 0.600000 0.000000 0.300000
0.253768 0.616093 -0.406554 0.000000 0.500000 0.500000
-0.547698 -0.731724 -0.081723 0.000000 0.500000 0.500000
-0.241497 0.231239 0.493409 0.000000 0.500000 0.500000
-0.387913 -0.644194 -0.397146 0.000000 0.500000 0.500000
-0.364346 0.715727 -0.141491 0.600000 0.000000 0.300000
0.131456 -0.442598 -0.534056 0.000000 0.500000 0.500000
-0.135758 0.648054 0.412666 0.000000 0.500000 0.500000
-0.387214 0.588724 0.332182 0.000000 0.500000 0.500000
-0.123594 -0.843434 0.455816 0.000000 0.500000 0.500000
-0.089598 -0.840866 -0.445686 0.000000 0.500000 0.500000
0.482105 0.285619 -0.252757 0.000000 0.500000 0.500000
-0.116500 -0.819251 -0.141169 0.000000 0.500000 0.500000
0.300185 -0.826603 -0.029272 0.000000 0.500000 0.500000
-0.483174 0.267941 0.271468 0.000000 0.500000 0.500000
-0.238771 -0.771492 0.494450 0.000000 0.500000 0.500000
0.527162 -0.383311 -0.136004 0.000000 0.500000 0.500000
0.418797 -0.529037 0.343865 0.000000 0.500000 0.500000
0.291366 0.924787 0.049763 0.600000 0.000000 0.300000
0.111479 0.141295 0.534668 0.000000 0.500000 0.500000
0.281881 -0.828222 0.160241 0.000000 0.500000 0.500000
-0.173555 -0.834419 -0.365270 0.000000 0.500000 0.500000
0.162667 0.924787 0.116071 0.600000 0.000000 0.300000
0.380396 0.539556 0.368903 0.000000 0.500000 0.500000
0.128506 0.924787 -0.196099 0.600000 0.000000 0.300000
-0.519249 -0.311286 -0.193044 0.000000 0.500000 0.500000
0.197945 -0.823315 0.156261 0.000000 0.500000 0.500000
0.161805 -0.478729 -0.524104 0.000000 0.500000 0.500000
-0.137557 0.069551 0.532643 0.000000 0.500000 0.500000
0.310111 0.430782 -0.448470 0.000000 0.500000 0.500000
0.533517 0.394304 0.092370 0.000000 0.500000 0.500000
0.159013 0.007408 0.522103 0.000000 0.500000 0.500000
0.273775 -0.726683 0.471188 0.000000 0.500000 0.500000
0.542652 0.001460 0.007150 0.000000 0.500000 0.500000
0.338072 0.750304 0.061259 0.300000 0.600000 0.000000
0.265545 -0.399072 -0.479203 0.000000 0.500000 0.500000
0.522762 -0.794022 -0.148448 0.000000 0.500000 0.500000
0.533610 0.008469 -0.091082 0.000000 0.500000 0.500000
-0.065158 -0.829373 0.338607 0.000000 0.500000 0.500000
-0.437132 -0.530121 0.336074 0.000000 0.500000 0.500000
0.448191 0.389361 -0.308396 0.000000 0.500000 0.500000
0.515134 -0.087737 0.169875 0.000000 0.500000 0.500000
0.513388 0.148390 0.174210 0.000000 0.500000 0.500000
0.378463 -0.841650 0.256114 0.000000 0.500000 0.500000
-0.227388 0.924787 -0.151654 0.600000 0.000000 0.300000
0.390182 0.658892 -0.069851 0.000000 0.500000 0.500000
0.005155 -0.761183 -0.550145 0.000000 0.500000 0.500000
-0.490858 -0.538364 -0.259810 0.000000 0.500000 0.500000
-0.066643 0.078534 -0.545648 0.000000 0.500000 0.500000
-0.390924 -0.834978 0.146870 0.000000 0.500000 0.500000
0.276417 0.016049 -0.472652 0.000000 0.500000 0.500000
-0.145847 0.257803 0.530558 0.000000 0.500000 0.500000
0.535683 0.080971 -0.077211 0.000000 0.500000 0.500000
0.410250 -0.159134 -0.357974 0.000000 0.500000 0.500000
-0.248156 -0.406527 -0.493636 0.000000 0.500000 0.500000
0.105503 0.829207 0.368430 0.600000 0.000000 0.300000
-0.105292 -0.232861 -0.540554 0.000000 0.500000 0.500000
-0.486260 -0.126710 0.265686 0.000000 0.500000 0.500000
0.517342 -0.268895 0.163896 0.000000 0.500000 0.500000
0.474679 -0.621197 0.264161 0.000000 0.500000 0.500000
0.176169 0.492746 -0.514602 0.000000 0.500000 0.500000
0.300306 -0.109381 -0.456232 0.000000 0.500000 0.500000
0.531406 -0.735250 -0.110290 0.000000 0.500000 0.500000
0.009818 -0.819454 0.175769 0.000000 0.500000 0.500000
0.229258 -0.842979 -0.395187 0.000000 0.500000 0.500000
-0.407556 0.410658 -0.376655 0.000000 0.500000 0.500000
0.533513 -0.831151 -0.057253 0.000000 0.500000 0.500000
0.331749 -0.396657 -0.432160 0.000000 0.500000 0.500000
0.199641 -0.671243 0.505502 0.000000 0.500000 0.500000
0.074388 -0.828505 0.322616 0.000000 0.500000 0.500000
0.229747 0.822282 0.302130 0.600000 0.000000 0.300000
0.475800 -0.664543 -0.264932 0.000000 0.500000 0.500000
0.516186 -0.497098 0.166993 0.000000 0.500000 0.500000
0.119241 -0.338540 0.533910 0.000000 0.500000 0.500000
0.395263 -0.010661 0.373863 0.000000 0.500000 0.500000
-0.061936 -0.842698 -0.520542 0.000000 0.500000 0.500000
0.180978 -0.822882 -0.167633 0.000000 0.500000 0.500000
-0.387535 0.887940 0.047459 0.600000 0.000000 0.300000
-0.317755 -0.833504 -0.441508 0.000000 0.500000 0.500000
0.017745 -0.833266 -0.393718 0.000000 0.500000 0.500000
0.299656 0.714621 0.209028 0.600000 0.000000 0.300000
0.340204 0.924787 0.105307 0.600000 0.000000 0.300000
-0.497386 0.459263 -0.244004 0.000000 0.500000 0.500000
0.381936 -0.175212 -0.391415 0.000000 0.500000 0.500000
0.099225 0.562351 -0.514016 0.000000 0.500000 0.500000
0.491081 -0.419125 -0.231101 0.000000 0.500000 0.500000
-0.193227 0.166785 -0.516400 0.000000 0.500000 0.500000
-0.120559 0.908108 -0.370270 0.600000 0.000000 0.300000
-0.521867 0.572311 0.040373 0.000000 0.500000 0.500000
0.402873 -0.805114 -0.364744 0.000000 0.500000 0.500000
0.175233 0.251715 -0.518707 0.000000 0.500000 0.500000
-0.133536 0.321578 -0.536563 0.000000 0.500000 0.500000
-0.384397 0.717839 -0.074264 0.600000 0.000000 0.300000
0.542692 0.343013 0.005119 0.000000 0.500000 0.500000
0.223508 -0.827231 0.216508 0.000000 0.500000 0.500000
0.529001 -0.482636 -0.128173 0.000000 0.500000 0.500000
-0.283044 0.706681 -0.235718 0.300000 0.600000 0.000000
0.045320 0.924787 -0.374525 0.600000 0.000000 0.300000
-0.386752 -0.606930 -0.398196 0.000000 0.500000 0.500000
-0.152009 0.189757 0.529008 0.000000 0.500000 0.500000
0.385449 0.139594 0.384745 0.000000 0.500000 0.500000
0.068835 -0.816590 0.014482 0.000000 0.500000 0.500000
0.340914 -0.841139 0.300033 0.000000 0.500000 0.500000
0.007518 0.052957 0.547111 0.000000 0.500000 0.500000
-0.462905 0.343220 -0.305313 0.000000 0.500000 0.500000
0.474098 -0.801463 0.262117 0.000000 0.500000 0.500000
-0.551268 -0.299477 -0.054869 0.000000 0.500000 0.500000
-0.364156 0.919552 0.138986 0.600000 0.000000 0.300000
-0.537345 0.381451 -0.144025 0.000000 0.500000 0.500000
-0.499016 -0.507431 0.238858 0.000000 0.500000 0.500000
0.040822 0.861546 -0.383103 0.600000 0.000000 0.300000
-0.167989 0.293148 -0.526487 0.000000 0.500000 0.500000
0.341955 0.037754 0.421358 0.000000 0.500000 0.500000
-0.275249 -0.408754 0.477564 0.000000 0.500000 0.500000
0.378335 0.352758 0.391509 0.000000 0.500000 0.500000
-0.148219 0.924787 0.137286 0.600000 0.000000 0.300000
0.128099 0.924787 0.321981 0.600000 0.000000 0.300000
0.304338 0.090310 0.450211 0.000000 0.500000 0.500000
-0.009901 -0.818319 0.143490 0.000000 0.500000 0.500000
-0.415562 0.504953 -0.359140 0.000000 0.500000 0.500000
0.145179 0.539611 -0.513139 0.000000 0.500000 0.500000
0.018067 -0.819958 -0.190387 0.000000 0.500000 0.500000
0.496445 -0.540873 0.215303 0.000000 0.500000 0.500000
-0.309523 0.846590 -0.237739 0.600000 0.000000 0.300000
-0.035089 -0.036953 -0.549387 0.000000 0.500000 0.500000
0.374553 0.298420 0.395108 0.000000 0.500000 0.500000
-0.184321 -0.486662 -0.520037 0.000000 0.500000 0.500000
0.515397 0.057910 -0.172011 0.000000 0.500000 0.500000
-0.132333 0.237631 -0.536733 0.000000 0.500000 0.500000
-0.062052 0.714621 -0.379864 0.600000 0.000000 0.300000
0.484250 0.607862 0.002905 0.000000 0.500000 0.500000
0.052367 0.754333 0.378618 0.600000 0.000000 0.300000
0.202036 0.176521 -0.507690 0.000000 0.500000 0.500000
-0.122294 -0.823606 -0.237057 0.000000 0.500000 0.500000
-0.541744 0.463071 -0.120190 0.000000 0.500000 0.500000
0.153059 -0.218084 0.524551 0.000000 0.500000 0.500000
0.540389 -0.725805 0.040042 0.000000 0.500000 0.500000
0.425495 -0.058959 0.335125 0.000000 0.500000 0.500000
-0.311330 0.402116 0.454210 0.000000 0.500000 0.500000
-0.421980 -0.642225 -0.358787 0.000000 0.500000 0.500000
-0.482984 0.131563 0.271782 0.000000 0.500000 0.500000
0.533741 -0.719995 0.090709 0.000000 0.500000 0.500000
0.242833 0.367768 0.487756 0.000000 0.500000 0.500000
-0.257159 -0.827033 -0.483847 0.000000 0.500000 0.500000
-0.159505 -0.279533 0.526516 0.000000 0.500000 0.500000
0.329387 -0.837415 -0.273508 0.000000 0.500000 0.500000
-0.464147 0.561856 -0.259369 0.000000 0.500000 0.500000
-0.169373 0.605245 -0.465817 0.000000 0.500000 0.500000
-0.257295 0.924787 -0.274309 0.600000 0.000000 0.300000
-0.485051 0.500824 0.257220 0.000000 0.500000 0.500000
0.355069 -0.172638 0.411294 0.000000 0.500000 0.500000
0.379500 -0.464138 0.390645 0.000000 0.500000 0.500000
0.029672 -0.316643 0.545901 0.000000 0.500000 0.500000
0.197550 0.882890 0.326836 0.600000 0.000000 0.300000
-0.172089 -0.839011 0.504312 0.000000 0.500000 0.500000
-0.511034 0.180485 0.209954 0.000000 0.500000 0.500000
-0.227588 -0.053828 0.499203 0.000000 0.500000 0.500000
0.471730 -0.323025 -0.272141 0.000000 0.500000 0.500000
0.497607 0.128129 -0.215507 0.000000 0.500000 0.500000
-0.040394 -0.832033 0.376169 0.000000 0.500000 0.500000
0.506700 0.150591 -0.193529 0.000000 0.500000 0.500000
-0.542963 -0.022164 0.113986 0.000000 0.500000 0.500000
0.523351 0.525017 0.097815 0.000000 0.500000 0.500000
-0.554036 0.423536 -0.028350 0.000000 0.500000 0.500000
0.402884 0.231541 -0.367558 0.000000 0.500000 0.500000
-0.002033 -0.386539 -0.550507 0.000000 0.500000 0.500000
0.370031 0.649097 -0.213182 0.000000 0.500000 0.500000
-0.066690 0.800294 -0.381323 0.600000 0.000000 0.300000
0.180195 -0.824059 0.192503 0.000000 0.500000 0.500000
0.182585 -0.041963 -0.515697 0.000000 0.500000 0.500000
0.161575 0.924787 -0.254448 0.600000 0.000000 0.300000
0.012562 -0.221849 0.546883 0.000000 0.500000 0.500000
0.469520 0.572267 0.200978 0.000000 0.500000 0.500000
-0.271414 -0.735420 -0.482509 0.000000 0.500000 0.500000
-0.520850 0.494123 -0.179567 0.000000 0.500000 0.500000
0.497022 0.301754 -0.216899 0.000000 0.500000 0.500000
0.314945 0.924787 0.156887 0.600000 0.000000 0.300000
-0.430402 -0.306628 -0.347811 0.000000 0.500000 0.500000
-0.417342 -0.249257 0.361867 0.000000 0.500000 0.500000
-0.275130 0.642747 -0.351600 0.000000 0.500000 0.500000
-0.030933 0.924787 0.333254 0.600000 0.000000 0.300000
0.517445 -0.675411 -0.166643 0.000000 0.500000 0.500000
-0.457591 -0.006938 0.309389 0.000000 0.500000 0.500000
-0.470489 -0.487702 -0.295407 0.000000 0.500000 0.500000
-0.362631 -0.712748 -0.417839 0.000000 0.500000 0.500000
0.314662 -0.828590 -0.098376 0.000000 0.500000 0.500000
0.299332 -0.835696 -0.289747 0.000000 0.500000 0.500000
-0.066584 -0.809438 -0.544947 0.000000 0.500000 0.500000
-0.545716 -0.344045 -0.097014 0.000000 0.500000 0.500000
-0.363373 0.924787 -0.059378 0.600000 0.000000 0.300000
-0.552977 0.331066 0.038523 0.000000 0.500000 0.500000
0.213113 0.924787 -0.232717 0.600000 0.000000 0.300000
-0.109387 0.616911 -0.471350 0.000000 0.500000 0.500000
-0.404069 -0.320778 -0.380759 0.000000 0.500000 0.500000
-0.535214 -0.461285 -0.152909 0.000000 0.500000 0.500000
-0.379444 -0.263384 0.401817 0.000000 0.500000 0.500000
-0.460217 0.630021 0.096611 0.000000 0.500000 0.500000
-0.506170 -0.630280 0.221624 0.000000 0.500000 0.500000
-0.447754 -0.783951 -0.325192 0.000000 0.500000 0.500000
0.207584 -0.380203 0.502146 0.000000 0.500000 0.500000
-0.318484 0.734556 -0.226062 0.600000 0.000000 0.300000
-0.554247 -0.734088 -0.025325 0.000000 0.500000 0.500000
-0.546882 -0.034384 -0.088173 0.000000 0.500000 0.500000
-0.236277 -0.274559 -0.498556 0.000000 0.500000 0.500000
0.181139 0.924787 -0.228113 0.600000 0.000000 0.300000
0.115729 0.924787 0.079159 0.600000 0.000000 0.300000
-0.241908 -0.711230 0.493176 0.000000 0.500000 0.500000
-0.417656 -0.627355 0.361457 0.000000 0.500000 0.500000
-0.282485 -0.825055 -0.068053 0.000000 0.500000 0.500000
0.039408 -0.839428 0.433974 0.000000 0.500000 0.500000
-0.272811 -0.335477 0.478862 0.000000 0.500000 0.500000
0.406410 -0.752186 0.359739 0.000000 0.500000 0.500000
0.541612 -0.354120 0.030216 0.000000 0.500000 0.500000
-0.209887 0.326699 -0.509560 0.000000 0.500000 0.500000
0.436492 -0.845274 -0.200753 0.000000 0.500000 0.500000
-0.392877 0.714621 -0.003700 0.600000 0.000000 0.300000
-0.219967 -0.557076 -0.505369 0.000000 0.500000 0.500000
-0.260518 -0.016123 -0.488239 0.000000 0.500000 0.500000
-0.287243 0.640523 0.347171 0.000000 0.500000 0.500000
-0.474798 -0.615913 0.285318 0.000000 0.500000 0.500000
-0.542259 0.026351 0.118989 0.000000 0.500000 0.500000
-0.442482 0.611621 -0.214508 0.000000 0.500000 0.500000
0.206297 -0.312990 -0.505913 0.000000 0.500000 0.500000
-0.466073 0.582839 -0.224295 0.000000 0.500000 0.500000
-0.461033 -0.068727 0.304851 0.000000 0.500000 0.500000
0.446083 -0.755660 -0.311107 0.000000 0.500000 0.500000
0.095850 -0.837606 -0.414694 0.000000 0.500000 0.500000
-0.554813 -0.432762 -0.014251 0.000000 0.500000 0.500000
0.523721 -0.221654 0.145247 0.000000 0.500000 0.500000
-0.281977 0.004188 -0.476769 0.000000 0.500000 0.500000
0.236008 -0.298810 0.490583 0.000000 0.500000 0.500000
-0.091662 0.300512 0.539389 0.000000 0.500000 0.500000
0.376285 -0.554675 0.393546 0.000000 0.500000 0.500000
-0.054710 -0.361917 -0.547217 0.000000 0.500000 0.500000
-0.114703 0.924787 -0.114224 0.600000 0.000000 0.300000
-0.068537 -0.824087 -0.263005 0.000000 0.500000 0.500000
-0.322879 0.111939 -0.448429 0.000000 0.500000 0.500000
-0.551796 0.189202 -0.050853 0.000000 0.500000 0.500000
0.536692 -0.110618 -0.069292 0.000000 0.500000 0.500000
0.457782 0.073031 0.292305 0.000000 0.500000 0.500000
-0.357563 0.153622 -0.421829 0.000000 0.500000 0.500000
0.342499 -0.147459 -0.423916 0.000000 0.500000 0.500000
0.117648 0.924787 -0.088006 0.600000 0.000000 0.300000
0.483219 -0.087125 0.247106 0.000000 0.500000 0.500000
-0.240178 0.488678 -0.494060 0.000000 0.500000 0.500000
-0.017339 -0.839810 0.438224 0.000000 0.500000 0.500000
-0.433143 0.418501 0.341178 0.000000 0.500000 0.500000
-0.123775 -0.486943 -0.537953 0.000000 0.500000 0.500000
-0.507651 0.580474 0.104993 0.000000 0.500000 0.500000
0.441035 0.324678 0.314884 0.000000 0.500000 0.500000
0.357247 -0.211062 -0.412596 0.000000 0.500000 0.500000
-0.379297 -0.119778 -0.404922 0.000000 0.500000 0.500000
-0.258684 0.121816 0.486201 0.000000 0.500000 0.500000
0.498765 0.585921 -0.055504 0.000000 0.500000 0.500000
-0.238493 0.833817 -0.307854 0.600000 0.000000 0.300000
0.085468 0.874896 -0.377226 0.600000 0.000000 0.300000
-0.423136 -0.374181 0.354318 0.000000 0.500000 0.500000
-0.508794 -0.464976 -0.218301 0.000000 0.500000 0.500000
0.297510 -0.723938 -0.458254 0.000000 0.500000 0.500000
0.481910 0.170106 -0.253228 0.000000 0.500000 0.500000
0.274330 0.753125 -0.267519 0.600000 0.000000 0.300000
0.385156 -0.489605 -0.388032 0.000000 0.500000 0.500000
0.237509 -0.167414 0.489960 0.000000 0.500000 0.500000
0.070052 -0.384636 -0.543568 0.000000 0.500000 0.500000
-0.506166 0.309733 -0.224582 0.000000 0.500000 0.500000
-0.275412 0.316054 0.477508 0.000000 0.500000 0.500000
-0.339365 0.417421 -0.435650 0.000000 0.500000 0.500000
-0.552570 -0.770250 0.041220 0.000000 0.500000 0.500000
0.083958 0.216985 -0.541733 0.000000 0.500000 0.500000
0.461786 -0.406153 -0.288736 0.000000 0.500000 0.500000
-0.005701 -0.594893 -0.550672 0.000000 0.500000 0.500000
-0.323393 0.877455 -0.219663 0.600000 0.000000 0.300000
-0.397052 -0.427053 0.385574 0.000000 0.500000 0.500000
0.402739 0.114439 0.364779 0.000000 0.500000 0.500000
-0.369275 -0.843072 -0.296887 0.000000 0.500000 0.500000
-0.547624 -0.565770 -0.082540 0.000000 0.500000 0.500000
0.066564 -0.333585 0.541065 0.000000 0.500000 0.500000
0.530496 -0.237176 0.110121 0.000000 0.500000 0.500000
0.534642 -0.491459 -0.087418 0.000000 0.500000 0.500000
0.513304 -0.433706 -0.177351 0.000000 0.500000 0.500000
0.529606 -0.567268 0.118812 0.000000 0.500000 0.500000
0.287182 -0.663523 0.463143 0.000000 0.500000 0.500000
-0.147212 0.924787 -0.042161 0.600000 0.000000 0.300000
0.530587 0.227064 0.114252 0.000000 0.500000 0.500000
-0.118870 0.658186 -0.388632 0.000000 0.500000 0.500000
-0.267516 -0.829261 -0.225336 0.000000 0.500000 0.500000
0.180733 0.714621 0.325254 0.600000 0.000000 0.300000
-0.550864 -0.133557 0.054899 0.000000 0.500000 0.500000
-0.320491 -0.723705 -0.450219 0.000000 0.500000 0.500000
-0.492323 0.612498 -0.004348 0.000000 0.500000 0.500000
0.176822 0.750584 -0.303394 0.300000 0.600000 0.000000
0.064230 -0.016616 0.541010 0.000000 0.500000 0.500000
0.232513 0.764801 -0.254288 0.300000 0.600000 0.000000
-0.347105 -0.492463 0.426858 0.000000 0.500000 0.500000
0.360257 0.228723 0.407311 0.000000 0.500000 0.500000
0.374372 0.715890 0.053697 0.600000 0.000000 0.300000
0.002519 0.542363 0.532449 0.000000 0.500000 0.500000
-0.476865 -0.249496 -0.284896 0.000000 0.500000 0.500000
-0.364858 -0.840493 -0.265885 0.000000 0.500000 0.500000
-0.082000 0.373609 0.540609 0.000000 0.500000 0.500000
0.353642 -0.799967 -0.413920 0.000000 0.500000 0.500000
-0.255942 0.217911 -0.490409 0.000000 0.500000 0.500000
0.533124 0.202810 -0.096900 0.000000 0.500000 0.500000
-0.160227 0.873646 0.350875 0.600000 0.000000 0.300000
0.542962 -0.454635 0.000280 0.000000 0.500000 0.500000
0.320792 0.668016 0.208437 0.000000 0.500000 0.500000
-0.552026 -0.671361 0.045636 0.000000 0.500000 0.500000
0.217751 0.308924 0.498164 0.000000 0.500000 0.500000
-0.306550 -0.594537 -0.460877 0.000000 0.500000 0.500000
0.026122 -0.053493 0.546272 0.000000 0.500000 0.500000
0.378410 0.766116 0.023026 0.600000 0.000000 0.300000
0.419278 0.402191 0.343120 0.000000 0.500000 0.500000
0.463375 -0.699789 0.283610 0.000000 0.500000 0.500000
0.324304 -0.810484 -0.435568 0.000000 0.500000 0.500000
0.081850 0.441513 -0.541688 0.000000 0.500000 0.500000
0.403662 -0.345465 -0.366546 0.000000 0.500000 0.500000
-0.518595 -0.587845 -0.194647 0.000000 0.500000 0.500000
-0.335000 -0.829866 -0.125674 0.000000 0.500000 0.500000
0.119645 -0.226110 -0.536815 0.000000 0.500000 0.500000
0.246030 0.724396 -0.252697 0.600000 0.000000 0.300000
-0.312164 -0.826544 -0.013675 0.000000 0.500000 0.500000
-0.294727 -0.534710 0.466077 0.000000 0.500000 0.500000
-0.044248 0.924787 0.153612 0.600000 0.000000 0.300000
-0.541657 0.345035 0.121528 0.000000 0.500000 0.500000
0.273764 -0.835114 0.296231 0.000000 0.500000 0.500000
0.027961 0.747334 -0.350665 0.300000 0.600000 0.000000
-0.500346 -0.787766 0.235336 0.000000 0.500000 0.500000
0.528313 -0.636599 -0.131438 0.000000 0.500000 0.500000
-0.528781 -0.679059 -0.169236 0.000000 0.500000 0.500000
0.048468 -0.830586 0.355499 0.000000 0.500000 0.500000
-0.198299 0.433277 0.511032 0.000000 0.500000 0.500000
0.379347 0.854978 0.015911 0.600000 0.000000 0.300000
-0.291432 0.924787 -0.010757 0.600000 0.000000 0.300000
-0.151558 0.128537 0.529121 0.000000 0.500000 0.500000
0.317295 -0.828009 0.048860 0.000000 0.500000 0.500000
0.538228 -0.599964 0.057152 0.000000 0.500000 0.500000
0.160743 0.289128 0.521458 0.000000 0.500000 0.500000
-0.135561 0.924787 0.357577 0.600000 0.000000 0.300000
0.059321 0.109592 -0.544982 0.000000 0.500000 0.500000
0.243586 0.924787 0.062808 0.600000 0.000000 0.300000
-0.491162 -0.317260 0.256254 0.000000 0.500000 0.500000
0.500417 -0.596286 -0.208800 0.000000 0.500000 0.500000
0.538237 0.126495 -0.059726 0.000000 0.500000 0.500000
-0.525327 0.450448 -0.176610 0.000000 0.500000 0.500000
0.007521 0.875413 -0.387487 0.600000 0.000000 0.300000
0.275433 0.714621 -0.219697 0.600000 0.000000 0.300000
-0.009346 0.913980 0.385907 0.600000 0.000000 0.300000
-0.402502 0.493862 0.374106 0.000000 0.500000 0.500000
0.440113 -0.189999 -0.318837 0.000000 0.500000 0.500000
-0.031451 0.924787 0.283399 0.600000 0.000000 0.300000
0.134844 0.356054 -0.532970 0.000000 0.500000 0.500000
-0.118154 0.445455 0.535342 0.000000 0.500000 0.500000
-0.018642 -0.815917 0.006788 0.000000 0.500000 0.500000
0.431785 0.237447 0.326927 0.000000 0.500000 0.500000
0.213081 -0.824308 -0.162581 0.000000 0.500000 0.500000
-0.233389 0.924787 0.200616 0.600000 0.000000 0.300000
0.081000 0.315678 0.539079 0.000000 0.500000 0.500000
-0.461996 -0.413774 0.303583 0.000000 0.500000 0.500000
-0.274562 0.534562 -0.465739 0.000000 0.500000 0.500000
-0.176017 0.746710 0.308198 0.300000 0.600000 0.000000
-0.493394 -0.193345 -0.254935 0.000000 0.500000 0.500000
-0.064665 -0.499890 -0.545908 0.000000 0.500000 0.500000
-0.147892 0.617703 0.457105 0.000000 0.500000 0.500000
-0.108922 -0.817852 0.077551 0.000000 0.500000 0.500000
-0.525271 -0.484919 -0.178301 0.000000 0.500000 0.500000
0.542506 -0.175881 0.010376 0.000000 0.500000 0.500000
-0.447226 -0.053928 -0.325881 0.000000 0.500000 0.500000
-0.076836 0.226468 -0.544306 0.000000 0.500000 0.500000
0.234491 -0.826703 -0.194856 0.000000 0.500000 0.500000
-0.411929 0.656662 0.054727 0.000000 0.500000 0.500000
-0.062159 0.924787 -0.354876 0.600000 0.000000 0.300000
-0.255837 0.924787 0.071117 0.600000 0.000000 0.300000
-0.147046 -0.307626 -0.533214 0.000000 0.500000 0.500000
0.116400 0.595239 0.486107 0.000000 0.500000 0.500000
-0.547126 -0.392645 0.083313 0.000000 0.500000 0.500000
0.065422 -0.202280 -0.544179 0.000000 0.500000 0.500000
0.148060 -0.843979 0.467225 0.000000 0.500000 0.500000
-0.059675 -0.298801 0.543599 0.000000 0.500000 0.500000
-0.522476 -0.046565 0.182170 0.000000 0.500000 0.500000
-0.338950 0.294695 0.433106 0.000000 0.500000 0.500000
0.422510 -0.824978 -0.334433 0.000000 0.500000 0.500000
0.151485 -0.841318 -0.504511 0.000000 0.500000 0.500000
-0.472729 0.314803 0.288738 0.000000 0.500000 0.500000
-0.104745 -0.304212 0.537367 0.000000 0.500000 0.500000
0.536155 -0.042691 -0.073090 0.000000 0.500000 0.500000
-0.520862 -0.704342 0.185763 0.000000 0.500000 0.500000
-0.404541 0.335388 -0.380101 0.000000 0.500000 0.500000
-0.172066 0.214041 0.521938 0.000000 0.500000 0.500000
0.207255 0.548343 -0.486283 0.000000 0.500000 0.500000
0.522184 0.109283 -0.153864 0.000000 0.500000 0.500000
0.304003 -0.832166 -0.221268 0.000000 0.500000 0.500000
0.533911 0.291848 0.089968 0.000000 0.500000 0.500000
0.538273 -0.004098 0.056812 0.000000 0.500000 0.500000
0.379553 0.614559 -0.291102 0.000000 0.500000 0.500000
0.472253 -0.088599 -0.271729 0.000000 0.500000 0.500000
0.062707 0.330509 -0.544521 0.000000 0.500000 0.500000
0.351186 0.088635 0.414275 0.000000 0.500000 0.500000
-0.507324 0.303771 0.218854 0.000000 0.500000 0.500000
-0.363460 -0.591644 0.414317 0.000000 0.500000 0.500000
-0.401909 -0.724933 -0.383009 0.000000 0.500000 0.500000
0.066722 0.924787 0.266856 0.600000 0.000000 0.300000
0.296245 -0.521256 0.456352 0.000000 0.500000 0.500000
-0.350072 0.763890 0.172987 0.600000 0.000000 0.300000
0.530683 -0.609488 0.111185 0.000000 0.500000 0.500000
-0.139684 -0.820580 0.161634 0.000000 0.500000 0.500000
-0.092589 0.924787 -0.326607 0.600000 0.000000 0.300000
0.371280 -0.824117 0.388263 0.000000 0.500000 0.500000
-0.513080 0.470976 0.201225 0.000000 0.500000 0.500000
0.539261 -0.398538 -0.052296 0.000000 0.500000 0.500000
0.507798 -0.526231 -0.190840 0.000000 0.500000 0.500000
-0.175964 0.644444 0.404122 0.000000 0.500000 0.500000
0.326805 0.719387 -0.199132 0.600000 0.000000 0.300000
0.498129 -0.649476 0.211262 0.000000 0.500000 0.500000
0.489665 -0.730147 0.231353 0.000000 0.500000 0.500000
-0.510828 -0.197343 0.210449 0.000000 0.500000 0.500000
0.464189 -0.566374 -0.285400 0.000000 0.500000 0.500000
-0.185902 -0.296022 -0.519393 0.000000 0.500000 0.500000
-0.539980 -0.517923 -0.134096 0.000000 0.500000 0.500000
0.109485 -0.840539 0.425935 0.000000 0.500000 0.500000
-0.486358 0.170415 0.265496 0.000000 0.500000 0.500000
0.060644 0.924787 0.032642 0.600000 0.000000 0.300000
0.508124 -0.319678 -0.190042 0.000000 0.500000 0.500000
0.515142 0.361223 0.169533 0.000000 0.500000 0.500000
0.072598 0.924787 -0.217338 0.600000 0.000000 0.300000
0.049907 0.037105 0.543061 0.000000 0.500000 0.500000
-0.080856 0.166826 0.540812 0.000000 0.500000 0.500000
0.344339 0.720998 0.157032 0.600000 0.000000 0.300000
-0.148903 -0.629105 -0.532747 0.000000 0.500000 0.500000
-0.384351 0.460353 -0.399464 0.000000 0.500000 0.500000
-0.434925 -0.277474 -0.341913 0.000000 0.500000 0.500000
-0.262339 -0.823348 0.020528 0.000000 0.500000 0.500000
-0.137086 -0.398576 0.532587 0.000000 0.500000 0.500000
-0.192591 -0.743042 -0.516497 0.000000 0.500000 0.500000
0.409149 -0.476343 0.356439 0.000000 0.500000 0.500000
0.208810 0.651898 -0.367455 0.000000 0.500000 0.500000
0.371253 -0.314396 0.398084 0.000000 0.500000 0.500000
0.291741 -0.223881 0.459770 0.000000 0.500000 0.500000
-0.016557 0.274936 0.547269 0.000000 0.500000 0.500000
-0.183396 -0.684402 0.517364 0.000000 0.500000 0.500000
-0.198090 -0.843063 -0.481988 0.000000 0.500000 0.500000
-0.538747 0.303024 -0.139008 0.000000 0.500000 0.500000
-0.037616 0.385497 0.546299 0.000000 0.500000 0.500000
0.205653 0.224877 0.503213 0.000000 0.500000 0.500000
