ply
format ascii 1.0
element vertex 1306
property float x
property float y
property float z
property uchar red
property uchar green
property uchar blue
end_header
-0.779993 0.057022 0.288963 0 0 255
0.356912 0.065703 0.139436 0 0 255
0.555730 0.057022 -0.021459 0 0 255
0.853066 0.022922 0.128350 153 0 76
-0.137484 0.065703 -0.042488 0 0 255
0.284212 0.065703 0.263255 0 0 255
-0.514192 0.057022 0.230934 0 0 255
-0.099212 0.057022 0.051751 0 0 255
-0.099471 0.057022 0.199420 0 0 255
-0.559801 -0.179967 -0.005510 0 255 0
-0.872385 0.065703 0.049207 0 0 255
-0.249328 0.023181 0.248569 127 0 127
0.045908 0.057022 0.132508 0 0 255
0.595990 0.047717 -0.261870 0 127 127
-0.769524 0.065703 0.015289 0 0 255
0.204105 0.065703 -0.225299 0 0 255
-0.467177 0.057022 0.107237 0 0 255
0.516627 0.057022 -0.004723 0 0 255
0.569695 0.057022 0.266376 0 0 255
-0.238227 0.065703 -0.075426 0 0 255
-0.608220 0.057022 0.258731 0 0 255
-0.834759 -0.283915 -0.259359 153 0 76
0.578145 0.023181 -0.257578 0 127 127
-0.848386 0.061798 -0.219520 76 153 0
0.263233 0.065703 -0.079548 0 0 255
-0.067853 -0.068955 -0.020684 127 127 0
0.018430 0.065703 -0.188336 0 0 255
0.034641 0.042839 0.251398 127 0 127
0.736061 -0.211602 0.002243 127 127 0
-0.460781 0.065703 -0.041703 0 0 255
0.223034 0.065703 0.096539 0 0 255
-0.897328 0.065703 -0.241239 0 0 255
0.119455 0.057022 -0.046459 0 0 255
-0.815416 0.065703 -0.056876 0 0 255
0.837049 0.065703 0.067004 0 0 255
-0.759458 0.057022 -0.243562 0 0 255
0.114525 0.023181 -0.257550 0 127 127
-0.535759 0.057022 0.233528 0 0 255
-0.371667 0.057022 -0.203140 0 0 255
0.723795 0.065703 -0.292701 0 0 255
-0.831894 0.057022 -0.190127 0 0 255
-0.395069 0.065703 0.065889 0 0 255
-0.697603 0.065703 0.035217 0 0 255
-0.817447 -0.015484 0.221443 76 0 153
-0.361943 0.065703 0.144299 0 0 255
-0.648536 0.057022 -0.224711 0 0 255
-0.178555 -0.120567 -0.012428 0 255 0
-0.697252 0.017180 -0.023483 127 127 0
0.249451 -0.056195 -0.044185 0 255 0
-0.524938 0.065703 -0.048753 0 0 255
0.672253 0.065703 -0.196663 0 0 255
-0.688017 0.065703 0.151872 0 0 255
-0.870226 -0.395936 -0.250447 76 0 153
0.305069 0.065703 0.138148 0 0 255
0.182105 0.065703 0.022843 0 0 255
-0.040811 0.057022 -0.078729 0 0 255
-0.344401 0.057022 0.147634 0 0 255
0.404157 0.057022 -0.158249 0 0 255
0.853066 0.046499 0.036089 153 0 76
0.234147 0.057022 -0.078145 0 0 255
0.846470 -0.398142 0.221104 0 127 127
0.320892 0.065703 -0.253145 0 0 255
0.175883 0.057022 0.286487 0 0 255
0.852574 -0.243629 0.212024 0 0 255
-0.002398 0.057022 0.150379 0 0 255
0.785324 -0.228585 0.001132 127 127 0
0.704778 0.065703 0.213960 0 0 255
0.569329 0.057022 0.044547 0 0 255
0.482045 0.065703 0.136005 0 0 255
-0.576464 0.057022 -0.073426 0 0 255
0.840735 -0.333075 0.217079 0 127 127
-0.843218 -0.287264 0.228762 76 0 153
0.466089 0.057022 -0.081445 0 0 255
0.822394 0.065703 0.253029 0 0 255
0.838985 0.065703 -0.079384 0 0 255
-0.089478 0.065703 -0.196342 0 0 255
-0.808779 0.041743 -0.261870 0 127 127
0.823359 0.024658 -0.241505 76 153 0
0.432618 0.065703 -0.225546 0 0 255
0.470069 0.065703 -0.167671 0 0 255
-0.827404 0.057022 0.234687 0 0 255
0.307571 0.065703 -0.130501 0 0 255
0.653874 -0.203654 -0.019324 127 127 0
0.405888 0.065703 -0.175461 0 0 255
0.833281 -0.231113 -0.258650 76 153 0
-0.208576 0.057022 -0.031148 0 0 255
-0.779402 0.065703 -0.016136 0 0 255
0.500035 0.065703 0.298320 0 0 255
0.217409 -0.069210 -0.028198 0 255 0
-0.303413 0.057022 -0.111743 0 0 255
0.823602 0.065703 -0.144953 0 0 255
0.136482 -0.106217 -0.024838 127 127 0
0.655380 0.065703 0.106922 0 0 255
-0.186040 0.065703 -0.294247 0 0 255
0.908080 0.061132 0.144251 0 0 255
-0.076363 0.065703 0.258418 0 0 255
-0.177912 0.065703 -0.200703 0 0 255
0.719512 0.065703 0.003650 0 0 255
0.477933 0.048462 -0.261870 0 127 127
-0.838271 -0.323815 0.243303 76 0 153
-0.567620 0.057022 0.208253 0 0 255
0.700948 0.022947 -0.036175 0 255 0
-0.432678 0.057022 -0.103720 0 0 255
-0.016186 0.065703 0.113965 0 0 255
0.064135 0.065703 -0.144162 0 0 255
-0.193380 0.065703 -0.266706 0 0 255
-0.314449 0.057022 0.099917 0 0 255
0.216018 0.057022 0.258733 127 0 127
-0.651209 0.057022 -0.146904 0 0 255
-0.839774 0.065703 0.101776 0 0 255
-0.477576 0.065703 -0.269851 0 0 255
0.499167 -0.009803 -0.030645 0 255 0
-0.089547 -0.085133 -0.015157 127 127 0
-0.834952 0.057022 0.013857 0 0 255
0.831403 -0.092750 -0.257872 76 153 0
-0.264049 0.023401 -0.261870 0 127 127
-0.401854 0.065703 0.100776 0 0 255
-0.358949 0.065703 0.182102 0 0 255
0.237113 0.057022 -0.289784 0 0 255
0.241349 0.057022 0.210711 0 0 255
-0.539486 0.057022 -0.205731 0 0 255
-0.715869 -0.224455 -0.011781 0 255 0
-0.532318 0.057022 -0.136403 0 0 255
0.805321 0.057022 0.073158 0 0 255
-0.583830 0.057022 -0.168541 0 0 255
-0.848295 -0.269894 -0.243688 153 0 76
0.113933 0.057022 -0.297347 0 0 255
-0.270830 0.057022 -0.099216 0 0 255
-0.090530 0.065703 0.090516 0 0 255
-0.130412 0.057022 -0.068324 0 0 255
-0.844927 0.065703 -0.074682 0 0 255
-0.645495 0.042480 0.251398 127 0 127
-0.155545 0.057022 0.298792 0 0 255
-0.734381 0.022385 -0.036064 127 127 0
0.734134 0.065703 0.130062 0 0 255
-0.643510 0.065703 -0.249250 0 0 255
-0.609249 0.065703 -0.290903 0 0 255
-0.049782 0.057022 -0.182330 0 0 255
0.884540 0.063835 0.299982 0 0 255
0.210841 0.065703 0.201096 0 0 255
-0.054121 0.065703 0.085802 0 0 255
-0.169785 -0.053681 -0.027790 127 127 0
-0.272904 0.065703 -0.269044 0 0 255
0.117657 0.057022 -0.274872 0 0 255
-0.402207 0.065703 -0.224482 0 0 255
-0.531230 0.057022 -0.235799 0 0 255
-0.201781 -0.139179 -0.025400 0 255 0
0.365696 -0.033292 -0.047506 0 255 0
-0.307664 0.065703 0.159648 0 0 255
0.552886 0.065703 -0.214189 0 0 255
0.137914 0.065703 0.284454 0 0 255
-0.553130 0.057022 0.081444 0 0 255
0.419330 0.057022 -0.125659 0 0 255
0.514437 0.057022 -0.252432 0 0 255
0.617701 0.016821 -0.048457 0 255 0
-0.448078 -0.177246 -0.022294 0 255 0
0.722767 0.065703 0.024022 0 0 255
0.057072 -0.104653 -0.028236 127 127 0
-0.218853 0.065703 -0.127687 0 0 255
-0.578642 0.023181 0.249612 127 0 127
-0.436690 0.065703 0.184922 0 0 255
-0.778058 0.057022 -0.052637 0 0 255
-0.163740 0.065703 -0.281743 0 0 255
-0.597336 0.057022 0.103537 0 0 255
0.278649 0.045370 0.251398 127 0 127
0.598084 0.042326 0.247058 127 0 127
-0.294967 0.065703 0.031796 0 0 255
0.599306 0.057022 0.097510 0 0 255
0.527787 0.023181 0.249990 127 0 127
-0.589148 0.057022 0.128968 0 0 255
0.687305 0.057022 -0.114902 0 0 255
0.586867 0.023181 0.251223 127 0 127
0.903808 0.065703 -0.134615 0 0 255
0.461404 0.042674 0.247058 127 0 127
0.331967 0.065703 -0.270877 0 0 255
0.062496 0.065703 0.096941 0 0 255
0.792161 0.065703 0.122783 0 0 255
-0.823964 -0.266986 -0.232471 153 0 76
0.763432 0.053247 -0.257530 0 127 127
0.452800 0.023181 -0.258878 0 127 127
0.600970 0.057022 -0.184723 0 0 255
0.902063 0.057022 -0.034055 0 0 255
0.670597 0.065703 -0.165524 0 0 255
-0.763816 0.065703 -0.041201 0 0 255
-0.509099 0.057022 -0.063845 0 0 255
-0.215663 0.057022 0.144106 0 0 255
0.017028 0.065703 0.173144 0 0 255
-0.507989 -0.015877 -0.031550 127 127 0
0.834504 -0.269761 -0.259082 76 153 0
0.176838 -0.071454 -0.041079 0 255 0
-0.672959 0.047460 0.247058 127 0 127
0.562169 -0.193255 -0.017290 127 127 0
0.336855 0.057022 -0.095167 0 0 255
0.780644 0.065703 0.281128 0 0 255
-0.851279 -0.380684 0.237432 153 0 76
0.332266 0.065563 0.299982 0 0 255
0.692258 0.057022 0.298930 0 0 255
0.248470 0.065703 0.143735 0 0 255
-0.001760 0.065703 -0.156138 0 0 255
-0.020259 0.057022 0.284773 0 0 255
0.078358 0.057459 -0.307202 0 0 255
-0.752299 0.025598 -0.261870 0 127 127
0.099771 0.057022 0.112105 0 0 255
0.537668 0.057022 0.134112 0 0 255
0.057078 0.057022 0.188518 0 0 255
0.185112 0.065703 0.246617 0 0 255
0.782864 0.057022 -0.289871 0 0 255
0.319236 0.047222 0.247058 127 0 127
0.785218 0.022842 -0.261870 0 127 127
0.123443 0.065703 0.250825 0 0 255
-0.765821 0.057022 -0.268023 0 0 255
-0.389334 0.065703 -0.109268 0 0 255
-0.603784 0.057022 0.043668 0 0 255
0.216786 0.057022 0.155818 0 0 255
0.727380 -0.222667 -0.011480 127 127 0
-0.245294 0.065703 -0.268116 0 0 255
-0.297515 0.057022 0.269679 0 0 255
0.712031 0.057022 -0.056175 0 0 255
0.870479 0.065703 -0.167084 0 0 255
-0.848167 0.047584 0.130578 76 153 0
-0.880830 0.057022 0.136045 0 0 255
-0.637372 0.065703 0.223023 0 0 255
-0.010639 0.057022 -0.025027 0 0 255
0.431954 0.057022 -0.275621 0 0 255
0.797075 0.065703 0.172025 0 0 255
-0.624742 0.065703 -0.181973 0 0 255
0.679538 -0.198800 -0.000015 127 127 0
0.793588 0.057022 0.202650 0 0 255
0.502420 0.065703 -0.155906 0 0 255
0.273513 0.065703 -0.284177 0 0 255
0.852793 -0.240649 0.089383 0 0 255
-0.140367 0.065703 0.280111 0 0 255
0.160467 0.057022 0.274216 0 0 255
0.672135 0.065703 0.117494 0 0 255
-0.278113 0.057022 -0.166093 0 0 255
-0.062356 -0.106206 -0.014415 0 255 0
0.796390 -0.418297 0.227686 76 0 153
0.679943 0.065703 0.155742 0 0 255
0.081835 0.057022 -0.163304 0 0 255
0.841397 0.065703 0.001673 0 0 255
0.352613 0.057022 0.263065 127 0 127
-0.312106 0.057022 -0.200069 0 0 255
0.796389 0.057022 -0.215629 0 0 255
0.088104 0.065703 0.147720 0 0 255
0.625099 0.057022 0.284723 0 0 255
-0.017319 0.057022 -0.196284 0 0 255
-0.815235 0.065703 -0.216291 0 0 255
-0.728399 0.065703 0.146224 0 0 255
0.852793 -0.223448 -0.082064 0 0 255
-0.813944 0.058242 0.299982 0 0 255
-0.138007 0.065703 0.084311 0 0 255
0.325742 0.057022 0.271631 0 0 255
0.847473 0.065703 0.127110 0 0 255
-0.713603 0.065703 0.171777 0 0 255
0.118394 0.057022 -0.073847 0 0 255
0.598523 0.065703 0.028185 0 0 255
-0.731285 0.057022 0.095341 0 0 255
-0.141689 0.065703 0.049052 0 0 255
-0.849703 0.065703 -0.199063 0 0 255
-0.708627 0.065703 -0.095528 0 0 255
0.412224 0.065703 0.274016 0 0 255
0.382174 0.065703 -0.135609 0 0 255
-0.848386 0.034488 -0.187790 76 153 0
0.851336 -0.052269 -0.236794 76 153 0
0.768643 0.046739 0.247058 127 0 127
0.344609 -0.027783 -0.035792 0 255 0
-0.147283 0.057022 -0.231679 0 0 255
-0.852246 0.065703 0.062238 0 0 255
-0.464730 0.057022 0.279993 0 0 255
-0.586875 0.056037 -0.261870 0 0 255
0.434715 0.065703 0.218102 0 0 255
-0.648051 0.065703 0.162670 0 0 255
0.810600 0.057022 -0.003162 0 0 255
-0.010796 0.057022 -0.276432 0 0 255
-0.847025 -0.400503 0.230952 153 0 76
0.658373 0.023057 -0.050783 0 255 0
-0.386161 0.023181 -0.258860 0 127 127
-0.886941 0.057022 0.224048 0 0 255
0.208389 0.057022 -0.136751 0 0 255
-0.172873 0.065703 -0.260082 0 0 255
-0.786452 0.057022 -0.237096 0 0 255
0.562168 0.057022 -0.104594 0 0 255
-0.720829 0.057022 0.066806 0 0 255
-0.330826 0.023181 0.249492 127 0 127
-0.888065 0.065703 0.065859 0 0 255
0.805220 0.057022 -0.270187 0 0 255
0.574915 0.065703 0.160709 0 0 255
-0.368655 0.065703 -0.289050 0 0 255
0.124656 0.065703 0.086011 0 0 255
-0.844603 -0.225370 0.211258 255 0 0
0.440426 0.057022 -0.059643 0 0 255
0.099489 0.057022 -0.153490 0 0 255
0.852925 -0.003419 -0.241028 76 153 0
0.556445 0.057022 0.280109 0 0 255
-0.233674 0.065703 0.211404 0 0 255
-0.632170 0.065703 -0.010243 0 0 255
-0.374465 0.057022 0.035419 0 0 255
0.524174 0.065703 0.074133 0 0 255
0.746545 0.057022 -0.109518 0 0 255
0.693191 0.065703 -0.140900 0 0 255
0.100808 0.057022 0.284610 0 0 255
0.826669 -0.208194 0.242290 0 127 127
-0.001899 0.065703 -0.214392 0 0 255
0.304886 0.039512 -0.261870 0 127 127
0.826197 -0.132332 -0.253507 76 153 0
0.454407 0.057022 -0.124655 0 0 255
0.052198 0.057022 -0.116860 0 0 255
-0.756178 -0.230794 0.000285 0 255 0
-0.104085 0.065703 -0.102488 0 0 255
0.907822 0.057022 -0.094226 0 0 255
-0.200380 0.065703 0.002807 0 0 255
-0.268489 0.065703 -0.135380 0 0 255
0.645282 0.065703 -0.285226 0 0 255
-0.016019 -0.098514 -0.016388 127 127 0
0.301951 0.065703 0.057736 0 0 255
-0.280465 0.041765 -0.261870 0 127 127
0.846136 -0.391117 0.244343 0 127 127
-0.687019 0.057022 0.111027 0 0 255
-0.508944 0.057022 -0.244887 0 0 255
-0.777641 0.024624 0.251398 127 0 127
0.769242 0.065703 0.100484 0 0 255
0.217742 0.065703 -0.206097 0 0 255
0.053057 0.057022 -0.192940 0 0 255
0.435851 0.057022 -0.154554 0 0 255
0.134213 0.057022 -0.136133 0 0 255
0.766695 0.065703 0.172932 0 0 255
0.566245 0.057022 0.018596 0 0 255
0.857135 -0.410082 0.230495 76 0 153
0.237439 0.065703 -0.252298 0 127 127
-0.160877 0.057022 -0.163920 0 0 255
-0.228840 0.065703 0.113039 0 0 255
0.089616 0.065703 0.228552 0 0 255
0.860630 -0.381929 -0.237428 153 76 0
-0.631711 0.057022 -0.052020 0 0 255
0.559065 0.053211 -0.257530 0 127 127
-0.082071 0.057022 0.026981 0 0 255
-0.471595 0.023181 0.250211 127 0 127
0.294096 0.057022 -0.158546 0 0 255
-0.684867 0.057022 -0.040817 0 0 255
0.851789 0.065703 -0.191648 0 0 255
-0.155803 0.065703 0.263675 0 0 255
-0.469563 0.057022 0.068764 0 0 255
0.627159 0.065703 0.095478 0 0 255
-0.016809 0.065703 -0.233258 0 0 255
0.589037 0.065703 -0.217244 0 0 255
-0.693014 0.065703 -0.066668 0 0 255
-0.403424 0.065703 0.265296 0 0 255
-0.599150 0.065703 0.205190 0 0 255
0.812454 0.057022 -0.111148 0 0 255
0.194315 0.057022 0.233109 0 0 255
-0.145345 0.025008 -0.261870 0 127 127
-0.814514 -0.376531 0.238811 76 0 153
-0.254490 0.065703 -0.185577 0 0 255
0.886111 0.062609 -0.307202 0 0 255
0.251177 0.065703 0.040335 0 0 255
-0.813467 -0.429826 -0.242369 76 0 153
-0.190630 0.048604 0.247058 127 0 127
0.697234 0.022678 -0.257530 0 127 127
-0.115893 -0.104562 -0.024774 0 255 0
0.572389 0.065703 -0.154301 0 0 255
-0.682173 0.057022 -0.199224 0 0 255
-0.797227 0.065703 0.060655 0 0 255
0.181994 0.065703 -0.114509 0 0 255
-0.547368 0.057022 -0.007438 0 0 255
0.665707 0.065703 0.140436 0 0 255
-0.759261 0.057022 -0.117233 0 0 255
-0.437007 0.065703 0.217482 0 0 255
-0.747735 0.065703 -0.154818 0 0 255
0.371610 0.065703 -0.221998 0 0 255
0.579090 0.065703 0.189508 0 0 255
-0.814759 0.020712 0.225523 76 0 153
-0.250367 0.057022 0.066458 0 0 255
-0.604245 -0.207257 -0.009762 0 255 0
0.852574 -0.233177 0.068806 0 0 255
0.485645 0.065703 0.248764 0 0 255
0.324820 0.065703 -0.124021 0 0 255
0.853066 0.006281 -0.219541 153 0 76
0.851840 -0.147710 -0.238010 76 153 0
0.334023 0.065703 0.104915 0 0 255
0.305782 0.065703 0.163368 0 0 255
-0.287176 0.057022 -0.080709 0 0 255
-0.848386 0.030666 0.099253 76 153 0
0.026970 0.057022 0.231287 0 0 255
-0.607285 0.065703 -0.211263 0 0 255
-0.422749 0.057022 0.134184 0 0 255
0.830811 -0.398652 -0.231120 76 153 0
0.521068 -0.006951 -0.051823 0 255 0
-0.455696 0.057022 -0.059100 0 0 255
-0.533407 0.065703 -0.175439 0 0 255
-0.330786 0.065703 0.133884 0 0 255
0.204243 0.065703 -0.049830 0 0 255
-0.217073 0.057022 -0.106053 0 0 255
0.816931 -0.434175 -0.244373 153 76 0
0.797853 0.057022 0.143384 0 0 255
-0.885436 0.057022 0.258824 0 0 255
-0.839632 -0.165290 0.242015 76 0 153
-0.882043 0.057022 -0.067739 0 0 255
-0.216142 0.065703 -0.213394 0 0 255
0.540242 0.057022 -0.161701 0 0 255
0.824759 0.065703 0.044132 0 0 255
0.048079 0.065703 -0.260243 0 0 255
0.600065 0.057022 0.061702 0 0 255
-0.832487 -0.260494 0.246490 76 0 153
0.253360 0.057022 0.180978 0 0 255
0.285627 0.057022 0.066172 0 0 255
-0.366333 0.065703 0.205629 0 0 255
0.853066 0.050317 -0.099140 0 0 255
-0.841318 -0.044580 0.223914 76 0 153
0.551783 0.065703 0.187162 0 0 255
-0.774382 0.057022 0.194288 0 0 255
0.829900 0.065703 -0.171035 0 0 255
0.868539 0.057022 -0.018074 0 0 255
-0.527015 -0.193869 -0.008787 0 255 0
-0.783593 0.057022 -0.071644 0 0 255
0.022631 0.057022 -0.284800 0 0 255
-0.153411 0.065703 -0.306629 0 0 255
-0.790709 0.057022 -0.115982 0 0 255
-0.383353 0.065703 -0.262228 0 0 255
0.852574 -0.235782 -0.016934 127 127 0
-0.158035 0.057022 0.214891 0 0 255
0.722025 0.064042 0.299982 0 0 255
0.682374 0.057022 0.053441 0 0 255
0.532417 0.065703 0.248509 0 0 255
-0.745964 0.065703 0.128297 0 0 255
-0.119772 0.057022 0.286045 0 0 255
-0.495455 0.065703 -0.028797 0 0 255
0.763082 0.021091 -0.257530 0 127 127
-0.047336 0.065703 -0.289655 0 0 255
-0.118732 0.065703 0.254860 0 0 255
0.814471 0.049492 -0.054261 0 255 0
-0.061566 0.065703 0.230754 0 0 255
-0.606557 0.065703 0.017300 0 0 255
0.815027 0.065703 0.140135 0 0 255
-0.420004 0.057022 -0.038444 0 0 255
-0.491191 0.065703 -0.098021 0 0 255
-0.220994 0.039925 -0.257530 0 127 127
-0.783508 0.054398 -0.261870 0 127 127
-0.794047 -0.438051 0.224921 153 0 76
-0.034177 0.065703 -0.207994 0 0 255
-0.768562 0.065703 0.105126 0 0 255
-0.814608 -0.047088 0.237844 76 0 153
0.061559 0.065703 -0.177640 0 0 255
0.712202 0.057022 0.133490 0 0 255
0.042619 0.057022 0.109275 0 0 255
-0.125506 -0.065699 -0.030969 127 127 0
-0.359433 0.057022 -0.028403 0 0 255
0.264687 0.065703 -0.238787 0 0 255
0.837231 0.047588 -0.259441 76 153 0
-0.403566 -0.153142 -0.011631 0 255 0
0.848843 -0.117184 -0.255171 76 153 0
0.135623 0.057022 -0.177440 0 0 255
-0.839775 -0.280359 -0.230797 153 0 76
0.532751 0.023181 -0.259517 0 127 127
0.460947 0.057729 0.299982 0 0 255
-0.126835 0.057022 -0.010787 0 0 255
0.023830 0.057022 -0.147107 0 0 255
-0.713069 0.065703 -0.162052 0 0 255
0.824442 0.030848 0.239325 0 127 127
0.759635 0.065703 0.143749 0 0 255
0.027040 0.065703 0.140751 0 0 255
0.691371 0.057022 0.259380 0 0 255
-0.379497 0.057022 0.074143 0 0 255
0.011643 0.057022 0.133623 0 0 255
-0.771386 0.065703 -0.288883 0 0 255
-0.065767 0.065703 -0.287587 0 0 255
-0.564868 0.065703 0.114779 0 0 255
-0.080665 0.057022 0.133494 0 0 255
-0.606449 0.057022 -0.135377 0 0 255
-0.689201 0.065703 0.278621 0 0 255
-0.055461 0.048581 -0.257530 0 127 127
0.679421 0.065703 -0.258460 0 0 255
0.306882 0.057022 -0.275108 0 0 255
0.460916 0.065703 0.039375 0 0 255
-0.737034 0.065703 -0.278234 0 0 255
-0.827825 0.057022 -0.045393 0 0 255
-0.348847 0.065703 -0.109710 0 0 255
-0.226925 0.065703 0.088979 0 0 255
0.613712 0.003721 -0.033791 0 255 0
-0.871835 0.057022 0.155115 0 0 255
-0.403808 0.057022 0.041989 0 0 255
-0.587593 0.065703 0.234419 0 0 255
0.649959 0.009669 -0.034824 0 255 0
0.833747 0.057022 0.214858 0 0 255
-0.793184 0.065703 -0.191700 0 0 255
-0.136293 0.045324 0.247058 127 0 127
-0.852719 0.057022 0.216486 76 153 0
0.815707 0.057022 0.106963 0 0 255
0.211642 0.065703 -0.286676 0 0 255
0.034943 0.057022 0.204156 0 0 255
0.740617 0.065703 -0.030594 0 0 255
0.852793 -0.234604 0.034945 0 0 255
-0.161962 0.057022 0.181449 0 0 255
0.852945 -0.346057 -0.247567 76 153 0
-0.568536 0.057022 -0.135153 0 0 255
0.232396 0.065703 -0.117575 0 0 255
0.403746 0.065703 -0.201922 0 0 255
0.162513 0.057022 0.037599 0 0 255
-0.797314 0.065703 0.220418 0 0 255
0.368377 0.065703 0.231191 0 0 255
0.084200 0.065703 -0.058873 0 0 255
0.738888 0.031302 -0.057357 0 255 0
0.218975 0.065703 -0.150995 0 0 255
0.348046 0.065703 0.211175 0 0 255
0.049317 0.057022 0.071690 0 0 255
-0.039673 -0.098293 -0.035384 0 255 0
0.581254 0.057022 -0.079563 0 0 255
-0.362882 -0.161856 -0.025600 0 255 0
0.108505 -0.107562 -0.028156 127 127 0
-0.852162 0.065703 -0.018881 0 0 255
-0.057729 0.065703 -0.149783 0 0 255
-0.804894 0.065703 0.113910 0 0 255
-0.135449 0.057022 -0.146126 0 0 255
0.189734 0.057022 -0.290059 0 0 255
0.185102 0.065703 -0.158460 0 0 255
-0.638114 0.005598 -0.032936 127 127 0
0.676861 0.049518 0.251398 127 0 127
-0.412260 0.023181 0.250658 127 0 127
0.683895 0.065703 -0.050373 0 0 255
0.196087 0.057022 -0.187941 0 0 255
0.211633 0.057022 0.107567 0 0 255
-0.150190 0.065703 0.097759 0 0 255
-0.224787 0.057022 0.056129 0 0 255
0.852847 0.023161 0.165795 153 0 76
-0.244032 0.065703 -0.106330 0 0 255
0.908080 0.063791 0.218236 0 0 255
0.397786 0.065703 -0.285107 0 0 255
-0.647679 0.065703 0.237858 0 0 255
-0.745281 0.065703 -0.092591 0 0 255
0.868166 0.065703 -0.272019 0 0 255
0.339543 0.065703 0.240371 0 0 255
0.003080 0.065703 -0.246949 0 0 255
0.174566 0.023181 -0.257811 0 127 127
-0.079754 0.065703 -0.113161 0 0 255
-0.636046 0.065703 0.043214 0 0 255
-0.814110 -0.005666 0.236641 76 0 153
0.361827 0.065703 -0.277554 0 0 255
0.075863 0.057022 0.009952 0 0 255
-0.080187 0.057022 -0.016232 0 0 255
0.575641 0.057022 -0.023000 0 0 255
-0.544783 -0.006236 -0.019228 127 127 0
0.049710 -0.091076 -0.011969 127 127 0
-0.073822 0.065703 0.284170 0 0 255
0.140981 0.057022 -0.075416 0 0 255
0.100436 0.057022 0.012655 0 0 255
-0.835597 0.003071 0.245202 76 0 153
-0.668685 0.057022 0.136264 0 0 255
0.863612 0.065703 0.040575 0 0 255
-0.419674 0.057022 -0.172922 0 0 255
-0.036849 0.065703 0.098104 0 0 255
-0.289942 0.065703 0.166131 0 0 255
0.418841 0.065703 0.168592 0 0 255
0.776290 0.065703 -0.216098 0 0 255
0.405212 0.057022 -0.045454 0 0 255
0.377457 0.065703 0.194002 0 0 255
-0.118027 0.057022 -0.241012 0 0 255
0.852574 -0.236162 -0.047325 0 0 255
0.031130 0.057022 0.044879 0 0 255
-0.551310 0.057022 0.285950 0 0 255
-0.370229 0.057022 0.119749 0 0 255
0.193115 0.026129 0.251398 127 0 127
0.214600 0.057022 0.033856 0 0 255
0.645926 0.057022 -0.242843 0 0 255
-0.459237 0.057022 0.037141 0 0 255
0.261490 0.057022 -0.024519 0 0 255
0.852793 -0.236932 -0.097843 0 0 255
0.566846 0.057022 0.101812 0 0 255
-0.747590 0.065703 0.169505 0 0 255
-0.825835 -0.036486 -0.257628 153 0 76
-0.838457 -0.057362 0.243161 76 0 153
-0.203899 -0.051550 -0.013384 127 127 0
-0.819072 -0.102246 -0.239108 153 0 76
0.499307 0.057022 0.042421 0 0 255
0.196480 0.065703 -0.249622 0 0 255
-0.835922 0.057022 -0.250953 153 0 76
-0.339097 0.057022 -0.301686 0 0 255
-0.534263 0.065703 0.012981 0 0 255
0.335567 0.065703 0.179078 0 0 255
0.236271 0.065703 -0.052279 0 0 255
0.758486 0.064372 -0.307202 0 0 255
-0.772215 0.057022 -0.137695 0 0 255
-0.450439 0.057022 -0.250912 0 0 255
0.293436 0.057022 0.173378 0 0 255
0.278519 -0.056192 -0.026443 0 255 0
0.304041 -0.038509 -0.043584 0 255 0
-0.284619 0.065703 -0.190895 0 0 255
-0.806572 0.043753 -0.021217 127 127 0
-0.832506 0.006260 -0.261061 153 0 76
0.551304 0.065703 0.245945 0 0 255
0.737844 0.065703 0.167551 0 0 255
-0.560388 0.065703 -0.176853 0 0 255
-0.034695 0.065703 -0.242383 0 0 255
0.409875 0.065703 0.215080 0 0 255
-0.898018 0.065142 -0.267228 0 0 255
0.501499 0.057022 0.069838 0 0 255
0.115275 0.057022 0.037778 0 0 255
0.382664 0.057022 -0.062320 0 0 255
-0.335646 0.065703 0.160604 0 0 255
0.422856 0.057022 0.017263 0 0 255
0.264451 -0.145313 -0.011949 127 127 0
0.021942 0.057022 0.086730 0 0 255
-0.460936 -0.163151 -0.008947 0 255 0
0.726620 0.057022 0.255794 0 0 255
0.664660 0.057022 -0.053112 0 0 255
-0.848386 0.028978 -0.219369 76 153 0
-0.602858 0.040509 0.251398 127 0 127
-0.850741 -0.451936 -0.250977 76 0 153
0.386768 0.065703 0.136548 0 0 255
-0.554306 0.065703 -0.268545 0 0 255
-0.438093 0.057022 0.088399 0 0 255
0.147180 0.057022 0.183624 0 0 255
-0.472213 0.065703 0.254503 0 0 255
-0.072387 0.065703 -0.096889 0 0 255
-0.555026 0.048393 0.251398 127 0 127
0.853066 0.053943 -0.137334 0 0 255
-0.433756 0.065703 0.152727 0 0 255
0.105007 -0.079122 -0.019214 0 255 0
-0.529038 0.057022 0.053960 0 0 255
-0.415808 0.057022 0.289621 0 0 255
0.842750 0.065703 -0.104389 0 0 255
-0.059731 0.057022 0.142873 0 0 255
0.082295 0.065703 -0.082170 0 0 255
0.887142 0.065703 0.191230 0 0 255
-0.148232 -0.117730 -0.012377 0 255 0
-0.700149 0.065703 -0.244424 0 0 255
0.842821 -0.161516 -0.229996 76 153 0
0.605893 0.065703 -0.009392 0 0 255
-0.197339 0.025274 0.247058 127 0 127
-0.573739 0.057022 -0.204774 0 0 255
0.852574 -0.232311 0.007971 0 0 255
-0.482813 -0.000203 -0.023580 127 127 0
0.520246 0.065703 0.137739 0 0 255
0.528355 0.065703 0.296304 0 0 255
-0.186873 -0.063977 -0.012588 127 127 0
0.764324 0.065703 -0.059900 0 0 255
-0.848167 0.047200 0.177496 76 153 0
-0.468460 0.064038 0.299982 0 0 255
-0.436922 0.065703 0.255377 0 0 255
-0.073617 0.065703 0.172931 0 0 255
0.016680 0.065703 -0.095242 0 0 255
-0.393291 0.057022 0.149551 0 0 255
-0.213979 0.065703 -0.247050 0 0 255
0.439079 0.057022 0.148691 0 0 255
-0.622941 0.023181 0.250762 127 0 127
-0.422346 0.057022 0.075669 0 0 255
-0.615363 0.065703 -0.266648 0 0 255
0.827152 -0.405594 0.242611 0 127 127
-0.286244 0.057022 0.184880 0 0 255
-0.353380 0.057022 0.219761 0 0 255
-0.296005 -0.036399 -0.033260 127 127 0
0.845518 -0.155429 -0.257634 76 153 0
-0.381100 0.065703 -0.167076 0 0 255
0.627017 0.065703 -0.024573 0 0 255
0.081422 0.057022 -0.269626 0 0 255
-0.813856 0.007501 -0.257530 153 0 76
-0.554086 0.065703 -0.037541 0 0 255
-0.324875 0.065703 -0.030731 0 0 255
0.620456 0.033078 0.251398 127 0 127
0.418337 0.057022 -0.147531 0 0 255
0.022203 0.057022 0.274660 0 0 255
-0.827733 -0.050440 -0.230332 153 0 76
0.482254 0.065703 -0.032099 0 0 255
-0.877574 0.057022 0.082076 0 0 255
0.839774 -0.364508 0.229937 0 127 127
0.714011 0.065703 0.167915 0 0 255
0.832431 0.033805 -0.055888 0 255 0
-0.327860 0.065703 -0.133475 0 0 255
0.058591 0.065703 0.256561 0 0 255
0.808509 -0.236630 -0.005539 127 127 0
-0.677798 0.057022 -0.270691 0 0 255
0.786201 0.065703 0.091160 0 0 255
-0.173399 0.065703 0.211196 0 0 255
0.067065 0.065703 -0.243073 0 0 255
-0.848272 0.046499 -0.243510 153 0 76
-0.240353 -0.048257 -0.012831 127 127 0
-0.310696 0.040754 0.247058 127 0 127
-0.709906 0.053130 0.247058 0 0 255
0.790850 0.065703 -0.129896 0 0 255
-0.449520 -0.024744 -0.032259 127 127 0
-0.816317 -0.347343 0.240816 76 0 153
-0.274476 0.065703 -0.210939 0 0 255
0.645674 0.057022 0.222388 0 0 255
0.626100 -0.184966 -0.008852 127 127 0
0.906939 0.057022 -0.073134 0 0 255
-0.324540 -0.046718 -0.020517 127 127 0
-0.500724 0.023181 0.248864 127 0 127
0.835576 0.019775 -0.229523 76 153 0
-0.388164 0.057022 0.298031 0 0 255
-0.511184 0.057022 -0.099276 0 0 255
-0.547599 0.065703 -0.112337 0 0 255
-0.377092 0.065703 -0.001287 0 0 255
-0.559377 -0.199606 -0.009660 0 255 0
0.140703 -0.082261 -0.034727 0 255 0
-0.742060 0.048132 -0.257530 0 127 127
0.841799 0.065703 -0.033966 0 0 255
-0.239786 0.057022 0.277474 0 0 255
0.125176 0.065703 0.219074 0 0 255
-0.040561 0.036703 -0.257530 0 127 127
-0.398701 0.057022 -0.070414 0 0 255
0.031420 0.057022 0.166839 0 0 255
0.058387 0.057022 0.051819 0 0 255
-0.111093 0.065703 -0.012943 0 0 255
-0.139913 0.057022 0.116725 0 0 255
-0.572658 0.065703 0.155474 0 0 255
-0.315451 -0.159097 -0.018265 0 255 0
0.523244 -0.180262 -0.000961 127 127 0
0.446794 -0.157525 -0.005696 127 127 0
-0.864673 -0.434302 0.238811 153 0 76
-0.188714 0.065703 0.071759 0 0 255
-0.145073 0.065703 0.150467 0 0 255
-0.844421 0.065703 0.134652 76 153 0
0.500402 0.057022 0.253647 0 0 255
0.080015 0.023421 -0.257530 0 127 127
0.820734 -0.395969 -0.245403 153 76 0
0.098057 0.057022 -0.011076 0 0 255
-0.025478 0.057022 -0.151911 0 0 255
0.629385 0.057022 0.042435 0 0 255
-0.600193 0.057022 0.173331 0 0 255
-0.706669 0.065703 -0.279593 0 0 255
0.704592 0.065703 0.031879 0 0 255
0.636859 0.057022 0.198606 0 0 255
-0.798486 0.049365 -0.039690 127 127 0
-0.304689 0.023181 -0.260092 0 127 127
0.234789 0.057022 0.125804 0 0 255
-0.272152 0.057022 0.044400 0 0 255
-0.833879 -0.341438 0.245914 76 0 153
0.159247 -0.127818 -0.013754 127 127 0
-0.342538 -0.023375 -0.027203 127 127 0
-0.792907 0.065703 0.273066 0 0 255
0.577075 -0.179342 -0.017455 127 127 0
-0.714817 0.057022 0.218435 0 0 255
0.838868 -0.290036 0.246898 0 127 127
0.769775 -0.230061 -0.009650 127 127 0
-0.240947 0.057022 -0.236515 0 0 255
0.415896 -0.155000 -0.003895 127 127 0
-0.829669 0.029142 0.246895 76 0 153
0.832940 -0.454932 -0.237428 153 76 0
0.176343 0.057022 0.007625 0 0 255
-0.349627 0.065703 0.059211 0 0 255
-0.549099 0.065703 0.174148 0 0 255
0.001243 0.065703 0.058188 0 0 255
-0.402753 -0.032098 -0.019057 127 127 0
0.090566 0.065703 -0.030198 0 0 255
0.293759 0.065703 0.204936 0 0 255
-0.486920 0.065703 -0.005084 0 0 255
0.719821 0.065703 -0.127227 0 0 255
-0.129703 0.057022 -0.206106 0 0 255
0.525738 0.065703 0.170238 0 0 255
0.890379 0.065703 -0.227042 0 0 255
0.272459 0.057022 0.298706 0 0 255
0.638798 0.048869 -0.257530 0 127 127
0.033103 0.054419 -0.257530 0 0 255
-0.167471 0.065703 0.091786 0 0 255
-0.137166 -0.071836 -0.011641 127 127 0
-0.260633 -0.128824 -0.017179 0 255 0
0.232331 0.057022 -0.019251 0 0 255
0.752575 0.018955 -0.049309 0 255 0
-0.850798 0.065703 -0.126549 76 153 0
-0.793260 0.057022 -0.163286 0 0 255
0.115078 0.057022 0.232289 0 0 255
-0.545673 0.065703 0.215670 0 0 255
0.885091 0.065703 -0.049697 0 0 255
-0.297047 -0.051836 -0.021625 127 127 0
0.689397 0.057022 0.200375 0 0 255
0.863255 0.057022 -0.181293 0 0 255
0.517269 0.065703 -0.217789 0 0 255
0.768417 0.065703 -0.037642 0 0 255
0.738019 0.026034 -0.257530 0 127 127
-0.086088 0.065703 -0.134739 0 0 255
0.211144 0.057022 -0.170611 0 0 255
0.807861 0.065703 -0.019093 0 0 255
0.283110 0.051881 -0.257530 0 127 127
-0.815703 -0.268603 0.223716 76 0 153
0.387900 0.057022 0.179845 0 0 255
-0.818158 -0.303460 -0.243190 153 0 76
-0.497259 0.065703 0.200720 0 0 255
-0.514288 0.057022 -0.162785 0 0 255
0.572743 0.057022 -0.056666 0 0 255
0.427344 0.057022 -0.207627 0 0 255
-0.517314 0.057022 0.175963 0 0 255
-0.484246 0.065703 -0.253748 0 0 255
-0.050558 0.057022 0.063829 0 0 255
0.477467 0.057022 0.158878 0 0 255
-0.330886 0.057022 -0.193378 0 0 255
-0.538369 0.065703 -0.021256 0 0 255
-0.110844 0.065703 -0.067107 0 0 255
-0.278336 0.057022 0.136710 0 0 255
-0.831428 -0.084862 -0.229414 153 0 76
0.890833 0.057022 0.172335 0 0 255
0.229862 0.065703 0.264756 0 0 255
0.000336 0.025928 0.247058 127 0 127
0.738462 0.057022 0.050953 0 0 255
0.840678 0.028634 0.251398 0 127 127
0.853066 0.030960 -0.079927 153 0 76
-0.824531 0.049680 -0.261870 153 0 76
-0.850860 0.065703 -0.057027 76 153 0
0.345510 0.057022 -0.049089 0 0 255
-0.734938 0.065703 0.027766 0 0 255
0.082490 -0.097457 -0.010436 127 127 0
-0.635875 0.065703 0.253859 0 0 255
0.342572 0.065703 0.002035 0 0 255
0.599795 0.065703 0.247392 0 0 255
-0.243427 0.048972 -0.257530 0 127 127
-0.006068 0.047222 -0.261870 0 127 127
0.277035 0.057022 -0.137157 0 0 255
0.823191 -0.253681 -0.242780 76 153 0
-0.820335 -0.267459 -0.252357 153 0 76
-0.156265 0.057022 0.005821 0 0 255
0.468781 0.065703 -0.238456 0 0 255
0.709398 0.065703 -0.196312 0 0 255
-0.690551 0.065703 -0.011174 0 0 255
-0.049122 -0.073826 -0.014445 127 127 0
-0.125246 -0.080756 -0.021974 127 127 0
-0.857349 -0.424121 -0.244373 76 0 153
0.275238 0.057022 -0.208491 0 0 255
0.853066 0.032324 -0.115599 153 0 76
0.835606 -0.095225 -0.229519 76 153 0
0.290586 0.030536 0.247058 127 0 127
-0.422919 0.065703 -0.122524 0 0 255
0.270954 0.065703 0.148239 0 0 255
0.210822 0.065703 0.223312 0 0 255
-0.863026 0.065703 -0.040832 0 0 255
0.257757 0.057022 0.100614 0 0 255
-0.243066 0.057022 0.125309 0 0 255
0.156365 0.023181 0.250645 127 0 127
0.220759 -0.060312 -0.043463 0 255 0
0.853066 0.023521 -0.188548 153 0 76
0.796395 0.065703 -0.240266 0 0 255
-0.132472 0.057022 0.222103 0 0 255
0.201627 -0.059971 -0.042799 0 255 0
-0.626643 -0.190436 -0.005035 0 255 0
0.029134 0.065703 -0.123398 0 0 255
-0.165861 0.048000 -0.261870 0 127 127
-0.723727 0.065703 0.186856 0 0 255
-0.757083 0.065703 -0.299821 0 0 255
0.852847 0.034676 -0.241913 153 0 76
-0.756233 0.018022 0.251398 127 0 127
0.518740 0.065703 -0.074648 0 0 255
0.019712 0.023181 0.248349 127 0 127
-0.104982 0.057022 -0.133217 0 0 255
0.427794 0.057022 -0.035226 0 0 255
-0.844807 0.065703 -0.265269 0 0 255
0.295256 0.057022 -0.177459 0 0 255
-0.162691 0.065703 0.243991 0 0 255
0.090804 0.065703 0.260922 0 0 255
-0.121132 0.065703 0.079540 0 0 255
-0.848167 0.025191 0.227516 76 153 0
0.849151 -0.356430 -0.233938 76 153 0
0.457697 0.057022 0.220391 0 0 255
-0.185438 0.065703 -0.041252 0 0 255
-0.325512 0.065703 0.083748 0 0 255
0.837934 0.026548 -0.261870 76 153 0
-0.336617 0.028481 -0.257530 0 127 127
-0.429329 -0.028615 -0.020699 127 127 0
-0.347400 0.065703 -0.074837 0 0 255
-0.127394 -0.121390 -0.032814 0 255 0
0.013589 -0.082896 -0.016484 127 127 0
0.538691 0.057022 -0.118561 0 0 255
-0.655258 -0.207025 -0.018686 0 255 0
0.388904 0.057022 0.055874 0 0 255
-0.609205 0.001352 -0.033878 127 127 0
0.568702 -0.191403 -0.001449 127 127 0
-0.385023 0.047993 0.251398 127 0 127
0.853066 0.048915 -0.162040 153 0 76
0.620946 0.065703 -0.062778 0 0 255
0.464195 0.057022 0.085604 0 0 255
-0.227114 0.065703 0.179028 0 0 255
0.852793 -0.240685 0.174188 0 0 255
-0.603165 0.065703 -0.017941 0 0 255
-0.345487 0.057022 -0.044357 0 0 255
-0.160276 -0.072160 -0.028959 127 127 0
0.510672 0.057022 -0.022500 0 0 255
0.287287 0.057022 -0.291293 0 0 255
0.057686 0.023273 0.251398 127 0 127
0.067076 -0.073971 -0.029069 0 255 0
0.852574 -0.228755 0.187459 0 0 255
0.122160 -0.064884 -0.029209 0 255 0
0.843154 -0.316920 -0.230133 76 153 0
-0.769425 0.026835 -0.031819 127 127 0
0.765529 0.057022 0.218671 0 0 255
-0.312277 0.065703 -0.012501 0 0 255
-0.528831 0.065703 0.200513 0 0 255
-0.001408 0.057022 -0.135365 0 0 255
-0.883332 0.057022 -0.016019 0 0 255
-0.847629 -0.240793 0.031025 255 0 0
-0.201888 0.065703 0.133345 0 0 255
0.159432 0.057022 -0.196622 0 0 255
-0.518523 0.065703 -0.129646 0 0 255
0.474707 0.065703 -0.057092 0 0 255
-0.559751 0.057022 0.147742 0 0 255
0.207802 0.035809 -0.257530 0 127 127
-0.171073 0.065703 0.161814 0 0 255
-0.043605 0.065703 -0.268747 0 0 255
-0.423636 0.057022 -0.067486 0 0 255
0.319149 -0.136911 -0.022162 127 127 0
0.830967 0.057022 0.181124 0 0 255
-0.384844 0.065703 0.213134 0 0 255
-0.841892 0.065703 0.184297 0 0 255
-0.163326 0.057022 -0.104333 0 0 255
-0.471587 0.057022 -0.176890 0 0 255
0.774435 0.065703 -0.010620 0 0 255
0.020072 0.065703 -0.225063 0 0 255
0.561714 0.065703 0.296287 0 0 255
-0.614023 0.065703 0.110141 0 0 255
-0.825495 -0.103097 -0.257451 153 0 76
0.181373 0.057022 0.109197 0 0 255
-0.215624 0.065703 -0.159413 0 0 255
0.238762 0.065703 -0.224670 0 0 255
0.484765 0.057022 -0.169479 0 0 255
-0.090567 0.065703 0.287933 0 0 255
0.090924 0.065703 0.208976 0 0 255
0.509674 0.065703 0.105180 0 0 255
-0.298001 0.065703 -0.144976 0 0 255
-0.434649 0.065703 -0.173252 0 0 255
0.059171 0.065703 -0.056382 0 0 255
-0.252531 0.065703 0.158587 0 0 255
0.408845 0.064503 -0.307202 0 0 255
0.531537 0.055847 -0.261870 0 0 255
-0.289979 0.065703 0.296094 0 0 255
-0.026548 0.057022 0.065463 0 0 255
-0.634887 0.057022 -0.140973 0 0 255
-0.433977 -0.008120 -0.023496 127 127 0
-0.226695 0.065703 0.011424 0 0 255
0.402148 0.057022 0.089909 0 0 255
0.839326 -0.229555 -0.229333 76 153 0
-0.798462 0.057022 -0.206528 0 0 255
0.893899 0.057022 -0.274614 0 0 255
0.439986 0.057022 0.201567 0 0 255
0.769664 0.065703 -0.141854 0 0 255
0.670882 0.006548 -0.050811 0 255 0
0.053808 0.065703 -0.278018 0 0 255
0.413169 0.026915 0.251398 127 0 127
0.852574 -0.234072 0.126510 0 0 255
-0.638917 0.065703 0.180821 0 0 255
-0.629066 0.057022 -0.216946 0 0 255
-0.783051 0.065703 0.168945 0 0 255
0.525503 0.057022 -0.145289 0 0 255
-0.646498 0.065703 -0.266462 0 0 255
0.856254 -0.438003 -0.244373 153 76 0
-0.305139 -0.142475 -0.008527 0 255 0
0.223107 0.057022 -0.256992 0 0 255
-0.253149 0.065703 0.192292 0 0 255
0.689570 0.057022 0.181467 0 0 255
-0.620149 0.057022 0.048553 0 0 255
0.569570 0.065703 -0.302302 0 0 255
-0.558822 0.057022 -0.149831 0 0 255
-0.610749 0.065703 -0.063253 0 0 255
-0.520291 0.057022 0.018595 0 0 255
-0.734317 0.057022 -0.184679 0 0 255
-0.648849 0.065703 0.120674 0 0 255
0.411779 0.057022 0.105499 0 0 255
0.273949 0.065703 -0.189430 0 0 255
0.581411 0.065703 -0.126810 0 0 255
0.838145 0.065703 0.266187 0 0 255
-0.116593 0.065703 0.053472 0 0 255
-0.222882 -0.051879 -0.033218 127 127 0
0.352339 0.065703 -0.125951 0 0 255
0.618653 0.065703 -0.039522 0 0 255
0.358879 0.023181 -0.261237 0 127 127
-0.369783 0.057022 -0.056720 0 0 255
-0.816102 0.065703 0.138325 0 0 255
-0.182487 0.057022 -0.111010 0 0 255
-0.194626 0.065703 0.176789 0 0 255
-0.062756 0.065703 -0.259396 0 0 255
-0.363552 0.045848 -0.257530 0 127 127
-0.848327 0.048861 0.239756 76 153 0
0.396780 -0.163386 -0.021933 127 127 0
0.213673 0.065703 0.068265 0 0 255
-0.583254 0.065703 -0.151217 0 0 255
0.021357 0.065703 -0.017905 0 0 255
-0.590258 0.057022 -0.113373 0 0 255
0.598416 0.057022 0.183786 0 0 255
0.342396 0.050795 -0.261870 0 127 127
0.003057 0.065703 0.076764 0 0 255
0.854532 0.057022 0.164710 153 0 76
0.453652 0.065703 -0.155704 0 0 255
0.507199 0.065703 0.274116 0 0 255
0.694293 0.057022 0.225285 0 0 255
0.741754 0.065703 -0.051056 0 0 255
-0.045301 0.057022 -0.101458 0 0 255
-0.346286 -0.160644 -0.009123 0 255 0
-0.838666 -0.389914 -0.246390 76 0 153
-0.798428 0.057022 -0.142229 0 0 255
-0.404678 0.057022 -0.016156 0 0 255
-0.257883 0.057022 -0.074864 0 0 255
-0.041449 0.065703 0.258398 0 0 255
0.836727 -0.000170 0.216796 0 127 127
0.852688 -0.311268 0.233076 0 127 127
-0.296072 0.065703 0.113632 0 0 255
0.852336 -0.024598 0.235750 0 127 127
-0.754460 0.048650 0.251398 127 0 127
0.351809 0.065703 0.103275 0 0 255
0.398321 0.057022 -0.257891 0 0 255
0.268715 0.065703 0.227303 0 0 255
-0.130258 0.057022 0.193344 0 0 255
-0.813261 -0.074723 0.232004 76 0 153
0.106869 0.062821 0.299982 0 0 255
0.543202 -0.013422 -0.035136 0 255 0
0.100982 0.065703 -0.112369 0 0 255
-0.761322 0.065703 0.070178 0 0 255
-0.883448 0.065703 -0.225858 0 0 255
0.334425 -0.041873 -0.025803 0 255 0
0.603625 0.065703 -0.266537 0 0 255
-0.533844 0.051024 -0.261870 0 127 127
-0.396711 0.065703 -0.055686 0 0 255
-0.848386 0.047784 -0.164109 76 153 0
0.825414 -0.129943 -0.236259 76 153 0
-0.263746 0.065703 0.286782 0 0 255
0.665196 0.065703 -0.267717 0 0 255
0.392154 0.065703 -0.225722 0 0 255
-0.640276 0.057022 -0.075330 0 0 255
-0.378000 0.065703 0.284120 0 0 255
0.144868 0.065703 -0.166044 0 0 255
-0.202499 0.057022 0.034238 0 0 255
0.722817 0.057022 0.194430 0 0 255
0.075046 0.046503 0.247058 127 0 127
-0.659057 0.029550 -0.031667 127 127 0
-0.884508 0.065703 0.198360 0 0 255
-0.725118 0.065703 0.048848 0 0 255
0.417973 0.065703 0.068924 0 0 255
-0.779286 0.006260 -0.261219 0 127 127
0.745056 0.057022 -0.229700 0 0 255
-0.725606 0.065703 -0.009533 0 0 255
-0.831298 0.057022 -0.108401 0 0 255
-0.577268 -0.002835 -0.021601 127 127 0
0.431677 0.065703 -0.178578 0 0 255
0.427113 0.065703 -0.289767 0 0 255
-0.018531 0.057022 -0.056721 0 0 255
-0.374589 0.065703 0.057430 0 0 255
-0.426106 0.057022 0.171342 0 0 255
0.728092 0.065703 -0.262897 0 0 255
-0.608585 0.065703 0.139420 0 0 255
0.782488 0.065703 0.251798 0 0 255
0.439699 -0.016651 -0.030431 0 255 0
-0.820440 0.065703 -0.251430 0 0 255
0.030663 0.057022 -0.064864 0 0 255
-0.708925 0.057022 -0.262361 0 0 255
0.793963 0.065703 -0.159423 0 0 255
0.136827 0.057022 0.058440 0 0 255
-0.047458 0.057022 0.124496 0 0 255
-0.418793 0.065703 0.107798 0 0 255
-0.384533 0.065703 0.093166 0 0 255
-0.211182 0.057022 0.284241 0 0 255
-0.160821 0.057022 -0.130980 0 0 255
-0.577726 0.065703 0.095235 0 0 255
0.125474 0.057022 0.152010 0 0 255
0.595515 0.065703 -0.154007 0 0 255
0.474395 0.065703 -0.299544 0 0 255
-0.268669 0.065703 -0.244265 0 0 255
0.850693 0.057022 0.208464 0 0 255
-0.285627 0.023181 0.247387 127 0 127
0.487046 -0.010238 -0.050094 0 255 0
0.648171 0.065703 0.164238 0 0 255
-0.834656 -0.298442 0.218140 76 0 153
-0.803744 0.065703 -0.109103 0 0 255
0.786261 0.049818 -0.261870 0 127 127
-0.105889 0.057022 -0.040535 0 0 255
-0.824868 -0.355115 -0.256970 153 0 76
0.095671 0.065703 0.095033 0 0 255
0.123742 0.057022 0.268862 0 0 255
0.748810 0.057022 0.083976 0 0 255
-0.752150 0.065703 -0.171091 0 0 255
0.003400 0.065703 -0.172191 0 0 255
0.837299 0.030261 0.216721 0 127 127
-0.395485 0.057022 -0.195562 0 0 255
-0.030120 0.057022 -0.132524 0 0 255
0.385694 0.065703 0.025747 0 0 255
-0.177571 0.065703 -0.136301 0 0 255
0.331359 0.057022 -0.289045 0 0 255
-0.848171 0.028455 0.019245 76 153 0
0.845294 -0.320601 0.244990 0 127 127
-0.769447 0.065703 -0.174242 0 0 255
0.160681 0.065703 0.191457 0 0 255
0.443041 0.037664 -0.257530 0 127 127
-0.618988 0.057022 -0.102511 0 0 255
0.240577 0.065703 0.163226 0 0 255
0.193683 0.057022 0.169979 0 0 255
-0.399426 0.065703 0.182601 0 0 255
-0.711540 0.057022 -0.128262 0 0 255
-0.438922 0.057022 0.015886 0 0 255
0.500627 -0.185212 -0.012984 127 127 0
0.150252 0.065703 -0.030777 0 0 255
-0.311449 0.065703 -0.055920 0 0 255
0.577740 0.057022 -0.227123 0 0 255
0.668153 0.057022 0.208864 0 0 255
0.560556 0.065703 0.219589 0 0 255
0.224820 -0.126794 -0.005555 127 127 0
-0.014603 0.065703 -0.182147 0 0 255
-0.360050 0.065703 0.232603 0 0 255
-0.222534 0.057022 -0.271317 0 0 255
-0.516748 0.065703 0.286047 0 0 255
0.191238 0.065703 0.079849 0 0 255
0.497215 0.065703 0.193170 0 0 255
0.201416 0.057022 0.049851 0 0 255
0.327867 0.065703 0.131440 0 0 255
0.852864 0.065703 -0.238779 0 0 255
0.331489 0.057022 0.161235 0 0 255
-0.620271 0.057022 0.203745 0 0 255
-0.840970 -0.451657 0.236409 153 0 76
-0.847112 -0.249452 -0.250129 153 0 76
-0.231483 0.057022 -0.138644 0 0 255
0.565574 -0.006879 -0.051954 0 255 0
-0.701800 0.065703 0.238487 0 0 255
0.123564 0.023181 0.250435 127 0 127
-0.246133 0.057022 -0.172520 0 0 255
-0.890957 0.065703 0.095246 0 0 255
0.700930 0.057022 -0.085490 0 0 255
-0.246865 0.057022 -0.002562 0 0 255
-0.420293 0.057022 -0.290679 0 0 255
0.131096 0.055622 -0.257530 0 127 127
-0.818026 -0.072332 -0.244553 153 0 76
-0.451676 0.057022 0.184393 0 0 255
-0.818617 0.065703 -0.133448 0 0 255
0.305337 -0.150705 -0.008573 127 127 0
0.585077 0.057022 0.243076 0 0 255
-0.289286 0.057022 0.219894 0 0 255
-0.550196 0.057022 -0.284628 0 0 255
0.609769 0.057022 -0.230481 0 0 255
-0.848386 0.050665 0.045030 0 0 255
0.399876 -0.037037 -0.030760 0 255 0
0.216394 0.057022 0.187895 0 0 255
0.375899 0.057022 0.078381 0 0 255
0.195420 -0.132553 -0.010535 127 127 0
-0.177602 0.065703 0.057177 0 0 255
-0.247776 0.065703 -0.294448 0 0 255
0.393508 0.065703 -0.032391 0 0 255
-0.098079 0.057022 0.258594 0 0 255
0.464903 0.057022 -0.269811 0 0 255
0.730683 0.061016 -0.307202 0 0 255
-0.457791 0.065703 -0.285593 0 0 255
-0.618531 0.065703 -0.124833 0 0 255
-0.616363 0.065703 0.243161 0 0 255
-0.824991 0.065703 0.286630 0 0 255
0.310637 0.065703 0.247737 0 0 255
-0.778814 0.057022 -0.218284 0 0 255
-0.827608 -0.184454 -0.230384 153 0 76
0.044021 0.057022 -0.172130 0 0 255
-0.790660 0.065703 0.011282 0 0 255
0.658927 0.065703 0.035798 0 0 255
0.329290 0.057022 0.201673 0 0 255
0.229956 -0.056276 -0.022809 0 255 0
0.530158 0.057022 -0.197349 0 0 255
0.300981 0.057022 0.286028 0 0 255
-0.823670 0.065703 -0.023726 0 0 255
0.152374 0.057022 -0.061738 0 0 255
-0.107822 0.023181 -0.258090 0 127 127
0.624896 0.065703 0.249399 0 0 255
0.823189 -0.053312 0.236300 0 127 127
0.057453 0.065703 -0.080677 0 0 255
-0.731491 0.065703 -0.218898 0 0 255
0.189729 0.057022 -0.142267 0 0 255
-0.293245 0.065703 -0.162733 0 0 255
-0.056876 -0.094574 -0.025154 0 255 0
-0.806962 0.057022 -0.292764 0 0 255
0.616353 0.024049 -0.257530 0 127 127
0.293144 -0.047867 -0.024525 0 255 0
-0.643749 0.057022 -0.018541 0 0 255
-0.521314 0.065703 0.119820 0 0 255
-0.260248 0.057022 0.086023 0 0 255
-0.206873 -0.048636 -0.029843 127 127 0
-0.046071 0.065703 -0.015704 0 0 255
0.851959 -0.056264 0.227039 0 127 127
0.830286 -0.033398 0.245116 0 127 127
-0.521333 0.057022 0.086956 0 0 255
0.507241 -0.022095 -0.041090 0 255 0
0.537513 0.057022 -0.306940 0 0 255
0.846437 0.065703 -0.216531 0 0 255
-0.650359 -0.197623 -0.000195 0 255 0
0.003163 0.057022 -0.068455 0 0 255
-0.321255 0.057022 0.291092 0 0 255
-0.843000 -0.233651 0.007236 255 0 0
-0.604712 0.057022 0.080025 0 0 255
0.754732 0.057022 0.112234 0 0 255
0.905579 0.065703 0.254096 0 0 255
-0.586064 0.065703 -0.278764 0 0 255
-0.399860 0.057022 -0.099754 0 0 255
0.133581 0.057022 0.126932 0 0 255
-0.193112 0.065703 0.258986 0 0 255
0.475152 0.065703 0.021811 0 0 255
0.853066 0.030345 0.196232 153 0 76
0.415189 -0.157057 -0.023065 127 127 0
-0.663885 0.057022 -0.201388 0 0 255
0.867152 0.057022 0.071913 0 0 255
0.107679 0.065703 -0.093444 0 0 255
0.282917 0.057022 0.140642 0 0 255
0.830316 -0.080629 0.245128 0 127 127
0.836157 -0.228951 0.003868 127 127 0
-0.038188 0.057022 0.158866 0 0 255
-0.380675 -0.159177 -0.005456 0 255 0
-0.618209 0.057022 -0.245659 0 0 255
0.313795 0.065703 -0.229385 0 0 255
0.894594 0.065703 -0.100928 0 0 255
-0.745686 0.008693 -0.261870 0 127 127
0.320488 0.065703 -0.174039 0 0 255
-0.279278 0.065703 0.006606 0 0 255
0.544592 0.023181 0.250401 127 0 127
-0.107314 -0.077782 -0.011573 127 127 0
0.457223 0.065703 -0.046561 0 0 255
-0.848386 0.046383 -0.125852 76 153 0
-0.024946 0.065703 -0.108003 0 0 255
0.827495 -0.326931 -0.233582 76 153 0
0.803720 0.030996 -0.041468 0 255 0
0.150151 -0.071318 -0.020449 0 255 0
0.802663 -0.214909 -0.010307 127 127 0
-0.203468 0.065703 0.202165 0 0 255
-0.820827 -0.318700 -0.235748 153 0 76
0.391973 0.057022 -0.076639 0 0 255
-0.675352 0.065703 -0.129137 0 0 255
0.360514 -0.044302 -0.030569 0 255 0
-0.815908 0.065703 0.195956 0 0 255
0.905058 0.065703 0.032374 0 0 255
-0.092637 0.065703 -0.247947 0 0 255
-0.004662 -0.095943 -0.037198 0 255 0
0.813877 -0.400763 0.231866 76 0 153
0.087953 0.023181 0.250793 127 0 127
-0.656559 0.057022 -0.120022 0 0 255
-0.844603 -0.249257 -0.178071 255 0 0
-0.750910 0.025692 -0.037021 127 127 0
-0.817530 -0.441197 0.231866 153 0 76
0.066976 0.065703 0.284962 0 0 255
-0.369720 0.024436 -0.257530 0 127 127
-0.802142 0.021247 0.247058 127 0 127
-0.836439 -0.243260 -0.010096 0 255 0
-0.875614 0.057022 -0.133680 0 0 255
0.832343 -0.035850 -0.258261 76 153 0
0.841050 0.057022 0.098520 0 0 255
0.505734 0.057022 -0.272456 0 0 255
-0.449773 0.065703 0.005118 0 0 255
0.285612 0.057022 0.089197 0 0 255
0.320996 0.057022 -0.025294 0 0 255
0.539286 0.057022 -0.090991 0 0 255
-0.016525 0.065703 -0.263586 0 0 255
-0.489374 0.057684 0.299982 0 0 255
0.152053 0.057022 0.065085 0 0 255
-0.847130 -0.304888 -0.250088 153 0 76
0.407964 0.057022 0.231032 0 0 255
0.823913 -0.293436 -0.239442 76 153 0
-0.341998 0.065703 0.075951 0 0 255
0.629931 0.065703 0.076996 0 0 255
-0.105241 0.065703 -0.158213 0 0 255
-0.732941 0.057022 0.078039 0 0 255
0.710755 0.065703 -0.149514 0 0 255
0.860639 0.065703 -0.086042 0 0 255
0.842596 -0.455720 0.224921 76 0 153
-0.345059 0.057022 0.171792 0 0 255
-0.450761 0.057022 0.214612 0 0 255
0.436020 0.057022 -0.239641 0 0 255
-0.831489 -0.178070 0.217076 76 0 153
0.860892 0.065703 0.007401 0 0 255
-0.604755 0.023900 -0.257530 0 127 127
-0.069695 0.057022 0.001044 0 0 255
-0.073439 0.065703 -0.237037 0 0 255
0.732327 0.057022 0.286346 0 0 255
0.381245 0.057022 0.111440 0 0 255
0.405293 0.065703 0.007893 0 0 255
-0.639961 0.057022 0.144340 0 0 255
0.364412 0.057022 0.199421 0 0 255
0.492587 0.057022 -0.288657 0 0 255
0.827929 -0.140767 0.220344 0 127 127
-0.622608 0.057022 0.017272 0 0 255
-0.237161 0.065703 -0.047768 0 0 255
-0.336416 -0.141640 -0.020416 0 255 0
0.212519 -0.117895 -0.022359 127 127 0
0.128016 0.065703 -0.213383 0 0 255
0.415773 -0.023762 -0.048762 0 255 0
0.700710 0.065703 0.278048 0 0 255
-0.420675 -0.174958 -0.020577 0 255 0
0.544229 0.057022 0.096829 0 0 255
0.368134 -0.162834 -0.010835 127 127 0
-0.172960 -0.134989 -0.024766 0 255 0
-0.832375 0.057022 0.203882 0 0 255
0.852574 -0.228703 -0.141487 0 0 255
0.611770 0.065703 -0.172477 0 0 255
0.681061 0.057022 0.082166 0 0 255
-0.567886 0.065703 -0.217482 0 0 255
0.265783 0.057022 0.282097 0 0 255
0.847910 -0.220537 -0.255887 76 153 0
0.711954 0.057022 0.269202 0 0 255
-0.499698 0.057022 0.114241 0 0 255
-0.570592 0.057022 -0.094623 0 0 255
0.426653 0.065703 0.140146 0 0 255
-0.069504 0.057022 -0.204214 0 0 255
0.138449 -0.111665 -0.006978 127 127 0
-0.268194 0.044932 0.247058 127 0 127
0.611908 0.057022 -0.291614 0 0 255
-0.802555 -0.410454 0.234050 153 0 76
-0.346885 0.057022 -0.214906 0 0 255
-0.695030 -0.219980 -0.013724 0 255 0
0.841230 -0.197255 0.246587 0 127 127
0.507310 0.065703 0.122397 0 0 255
-0.115363 0.065703 -0.180981 0 0 255
-0.853121 0.057022 0.258923 0 0 255
0.590174 0.057022 0.284095 0 0 255
-0.359999 0.057022 0.007325 0 0 255
-0.133383 0.065703 -0.268865 0 0 255
-0.790655 0.065703 -0.129919 0 0 255
-0.130149 0.065703 -0.101985 0 0 255
0.749393 0.057022 0.019841 0 0 255
0.310388 0.057022 -0.087853 0 0 255
0.596529 -0.201337 -0.010725 127 127 0
0.365515 0.057022 -0.036264 0 0 255
-0.844603 -0.225899 0.127899 255 0 0
-0.477021 0.057022 0.024200 0 0 255
0.211999 0.057022 -0.032738 0 0 255
0.507716 0.062149 -0.307202 0 0 255
-0.830350 -0.404498 -0.244373 76 0 153
0.171286 -0.067336 -0.020989 0 255 0
