ply
format ascii 1.0
element vertex 1285
property float x
property float y
property float z
property uchar red
property uchar green
property uchar blue
end_header
-0.001531 0.069813 -0.022451 127 127 0
-0.412193 -0.013928 -0.015865 76 153 0
0.540920 -0.055799 -0.104477 255 0 0
0.309679 0.083078 0.123471 153 76 0
-0.189670 -0.021541 -0.148265 76 153 0
0.542899 0.134521 0.193436 0 0 255
0.473897 -0.013928 0.119314 153 0 76
0.054650 0.007177 -0.100770 127 0 127
-0.514970 -0.360201 -0.231585 153 76 0
-0.547844 -0.373386 0.242983 204 51 127
-0.116805 -0.033883 -0.180291 127 127 0
-0.615575 0.111683 -0.107565 0 0 255
0.478198 -0.013928 0.203123 153 0 76
0.173290 -0.070339 0.219381 76 0 153
0.039424 0.008227 0.045436 127 0 127
0.578259 -0.193564 0.195671 153 0 76
0.244576 -0.010394 -0.233581 76 153 0
-0.609274 0.134521 0.255920 0 0 255
-0.544289 -0.415050 0.194361 204 51 127
0.043771 -0.055799 0.141155 0 127 127
-0.002891 0.134521 -0.007123 0 0 255
-0.472970 -0.055799 -0.170496 127 127 0
0.021173 0.114609 0.306928 0 0 255
0.762387 0.111683 0.260420 0 0 255
0.604932 -0.253940 0.222801 153 0 76
0.054650 0.011883 0.187571 127 0 127
0.553922 -0.465785 0.222086 153 0 76
0.394987 0.111683 0.085193 0 0 255
-0.557708 -0.627210 -0.213692 153 76 0
-0.561228 -0.433572 -0.208436 153 76 0
-0.127222 0.091416 -0.119389 76 0 153
-0.167165 0.134521 -0.196271 0 0 255
0.486710 0.134521 0.035919 0 0 255
-0.538583 -0.316854 -0.188530 153 76 0
-0.103276 0.111683 0.004478 0 0 255
-0.697616 0.134521 -0.185165 0 0 255
-0.504892 0.013099 -0.006726 127 0 127
0.338715 -0.013928 0.021632 153 76 0
0.347748 0.134521 -0.140171 0 0 255
-0.319042 -0.021541 0.032621 76 153 0
0.177341 0.078780 -0.180291 76 0 153
0.061653 0.134521 -0.068956 0 0 255
-0.561988 0.021438 0.246017 204 51 127
-0.529017 -0.124061 -0.235011 153 76 0
-0.259863 0.003283 0.219381 0 255 0
0.445930 0.134521 -0.300440 0 0 255
0.552067 -0.032960 -0.169346 127 127 0
0.600061 -0.504243 -0.198698 76 0 153
-0.162079 0.111683 0.157247 0 0 255
-0.013330 0.134521 0.044457 0 0 255
0.581967 -0.295347 0.245284 153 0 76
0.020033 0.134521 -0.274243 0 0 255
0.244346 0.111683 0.129070 0 0 255
0.452128 -0.055799 -0.123565 127 127 0
-0.364011 0.134521 -0.234511 0 0 255
0.538292 -0.013928 0.203215 153 0 76
0.469916 0.111683 0.121727 0 0 255
0.252250 -0.032960 -0.022370 0 255 0
0.437756 0.009478 -0.134615 76 153 0
0.050213 -0.055799 -0.014667 0 127 127
0.560974 0.134521 0.042232 0 0 255
0.242368 0.111683 -0.261621 0 0 255
0.098694 -0.013928 0.046417 153 0 76
0.330446 0.134521 0.260863 0 0 255
0.672611 0.111683 0.197268 0 0 255
0.039424 -0.001449 0.130312 127 0 127
0.553270 -0.055799 0.131889 255 0 0
0.118832 -0.047994 -0.210743 76 153 0
0.402425 0.134521 0.271295 0 0 255
-0.452439 -0.071024 0.226904 76 0 153
-0.634262 0.111683 -0.261684 0 0 255
-0.068846 -0.071024 -0.221442 76 153 0
0.604998 -0.067020 0.192736 153 0 76
0.392996 -0.013928 -0.055068 153 0 76
0.004900 0.069813 -0.080870 127 127 0
0.684191 0.134521 0.254429 0 0 255
-0.328039 0.055455 -0.233581 76 153 0
-0.544505 -0.258846 -0.238176 153 76 0
0.534257 0.066538 -0.117331 0 127 127
-0.738986 0.112466 0.126526 0 0 255
-0.536655 -0.168406 0.242389 204 51 127
-0.253771 -0.044380 -0.081069 153 0 76
-0.314698 0.111683 0.306106 0 0 255
0.392629 -0.013928 0.052480 153 0 76
-0.721205 0.111683 0.027614 0 0 255
0.598965 0.096582 -0.187777 76 0 153
0.513669 0.134521 -0.298655 0 0 255
-0.554375 0.078875 0.009639 76 0 153
0.089267 0.134521 0.147925 0 0 255
0.556203 -0.093076 -0.241194 76 0 153
0.189572 -0.021541 0.097080 153 0 76
-0.647331 0.111683 -0.168462 0 0 255
0.480284 0.036150 0.219381 127 127 0
0.111737 0.134521 0.204758 0 0 255
-0.033357 0.111683 -0.159892 0 0 255
0.049938 -0.071024 0.240819 76 0 153
0.587438 0.134521 0.249175 0 0 255
-0.623195 0.111683 -0.000807 0 0 255
-0.354454 -0.021541 0.185466 76 153 0
0.069569 0.134521 0.071168 0 0 255
-0.141001 0.010004 -0.134615 0 127 127
-0.504892 0.011641 0.155620 127 0 127
0.553315 -0.342690 0.219913 153 0 76
-0.177003 0.095027 0.219381 153 0 76
-0.091071 0.111683 -0.078595 0 0 255
-0.455603 0.004661 -0.210743 76 153 0
0.069100 -0.006195 -0.233581 76 153 0
0.566449 -0.561782 0.199033 153 0 76
0.572560 -0.156214 -0.193197 76 0 153
-0.529030 -0.554709 0.243314 204 51 127
0.559894 -0.614355 -0.203417 76 0 153
-0.554375 -0.051727 0.111769 76 0 153
0.161639 -0.013928 -0.029749 153 0 76
0.553289 -0.092243 0.242802 153 0 76
-0.504866 0.134521 0.268619 0 0 255
0.263510 0.134521 -0.011703 0 0 255
-0.509785 -0.317986 0.212531 204 51 127
-0.446758 0.101741 0.242219 153 0 76
-0.004262 -0.030783 0.242219 76 0 153
-0.026592 0.111683 -0.249566 0 0 255
0.780021 0.111683 -0.217558 0 0 255
0.555700 -0.247304 -0.221611 76 0 153
-0.000140 0.030558 -0.233581 76 153 0
-0.316921 -0.038282 -0.210743 76 153 0
0.384247 0.111683 -0.202928 0 0 255
-0.385265 0.096457 -0.165058 76 0 153
-0.554375 0.035172 -0.135045 76 0 153
-0.703024 0.111683 -0.261480 0 0 255
-0.377545 0.134521 -0.110870 0 0 255
0.558977 -0.132806 0.213379 153 0 76
-0.512962 -0.514709 0.207048 204 51 127
0.598022 -0.541919 -0.231750 76 0 153
-0.533642 -0.470150 -0.188461 153 76 0
-0.516086 0.091047 -0.222162 153 76 0
0.466584 0.134521 -0.222949 0 0 255
-0.112067 -0.013928 0.142645 76 153 0
-0.514023 -0.072530 0.192736 204 51 127
0.113441 -0.013011 0.242219 153 0 76
0.024942 0.111683 0.072345 0 0 255
0.268850 -0.071024 0.220701 76 0 153
0.157031 0.134521 -0.007264 0 0 255
0.313556 -0.021541 0.227752 153 0 76
0.178144 0.023964 0.219381 127 127 0
0.598965 0.008763 0.144051 153 0 76
-0.072059 0.111683 0.305780 0 0 255
0.256069 -0.021541 0.026956 0 255 0
-0.489666 0.020675 0.201733 127 0 127
0.156065 0.134521 0.090584 0 0 255
-0.497337 0.111683 0.178228 0 0 255
-0.371715 0.134521 0.251328 0 0 255
-0.350269 0.111683 0.093228 0 0 255
0.561004 0.111683 -0.063898 0 0 255
-0.173452 0.073619 -0.120888 0 127 127
0.087930 0.134521 -0.254758 0 0 255
0.559932 0.134521 0.096565 0 0 255
-0.738986 0.132651 0.171387 0 0 255
0.534257 0.064918 0.057433 0 127 127
0.159201 -0.021541 0.018447 153 0 76
-0.075601 0.095438 -0.233581 76 153 0
0.706916 0.111683 -0.008773 0 0 255
-0.253979 0.111683 0.158703 0 0 255
-0.489666 0.020750 -0.092941 127 0 127
-0.264583 0.049125 -0.210743 76 153 0
0.017443 0.134521 -0.183141 0 0 255
0.576127 -0.070384 0.087922 153 0 76
0.309463 -0.013928 0.108042 0 0 255
-0.370709 -0.032434 -0.210743 76 153 0
-0.695059 0.134521 -0.084212 0 0 255
0.039424 -0.016888 -0.142951 127 0 127
-0.202114 0.111683 0.036251 0 0 255
-0.231938 0.077327 -0.233581 76 153 0
0.054650 0.032079 0.096637 127 0 127
-0.163021 -0.013928 -0.098716 76 153 0
0.598965 -0.023989 -0.121758 153 0 76
0.598965 -0.066771 0.143578 153 0 76
-0.561988 0.084099 0.215952 204 51 127
0.618206 0.111683 0.120556 0 0 255
0.583718 0.111683 -0.135175 153 0 76
0.576127 -0.028728 -0.048989 153 0 76
-0.217282 0.134521 -0.189807 0 0 255
-0.522763 -0.055799 -0.151860 76 0 153
-0.542253 0.134521 -0.030167 0 0 255
-0.546403 -0.399001 -0.238767 153 76 0
0.783576 0.114523 -0.050051 0 0 255
0.295435 -0.044380 -0.043508 0 0 255
0.464220 -0.015077 -0.210743 76 153 0
0.736582 0.111683 -0.076402 0 0 255
-0.531537 0.037691 -0.044727 76 0 153
-0.554375 0.039206 0.084124 76 0 153
-0.335654 0.111683 -0.038352 0 0 255
-0.484769 -0.055799 0.032255 127 0 127
0.228123 -0.003176 -0.119389 76 153 0
0.572421 0.015835 0.246026 153 0 76
0.287054 0.096457 -0.083608 153 76 0
0.005166 0.067965 0.068980 127 127 0
0.273635 -0.044492 -0.210743 76 153 0
0.601240 -0.653187 0.220711 153 0 76
-0.524314 -0.052717 -0.241194 153 76 0
0.309679 0.090604 0.040674 153 76 0
0.224974 0.111683 -0.049980 0 0 255
-0.304088 0.005256 -0.134615 0 127 127
0.584637 -0.291912 -0.189042 76 0 153
0.069383 0.023817 0.242219 127 127 0
0.358509 0.111683 0.203633 0 0 255
0.428133 -0.066404 -0.210743 76 153 0
-0.636392 0.111683 0.141720 0 0 255
-0.390164 0.111683 0.168343 0 0 255
0.518046 -0.055799 0.191625 255 0 0
0.540412 -0.055799 0.044508 255 0 0
0.534257 0.017871 0.040537 0 127 127
-0.205287 0.134521 -0.091341 0 0 255
0.598965 0.050241 -0.074841 153 0 76
0.590337 -0.492667 0.242998 153 0 76
-0.262319 0.096457 0.033625 76 0 153
0.002229 0.062051 0.242219 0 255 0
0.252192 0.134521 -0.170294 0 0 255
0.471484 -0.013928 -0.071571 153 0 76
-0.578792 0.134521 0.145379 0 0 255
0.576127 0.089139 0.011353 153 0 76
-0.554375 0.095593 -0.105215 76 0 153
-0.389662 0.031137 -0.210743 76 153 0
-0.489666 0.067357 -0.078819 127 0 127
-0.039156 -0.013928 -0.017420 76 153 0
-0.176682 -0.054825 -0.180291 127 127 0
-0.465384 0.111683 -0.012957 0 0 255
0.160732 -0.017165 -0.210743 76 153 0
0.396323 0.073619 -0.169070 76 0 153
0.417853 0.082303 -0.233581 76 153 0
-0.175378 -0.039447 0.219381 0 255 0
0.028796 -0.071024 -0.224037 76 153 0
-0.091281 0.111683 0.176541 0 0 255
-0.095597 -0.013928 0.189983 76 153 0
0.174081 0.134521 0.191337 0 0 255
0.598965 0.025364 -0.035089 153 0 76
-0.581054 0.111683 -0.257376 0 0 255
-0.329272 0.096932 -0.210743 76 153 0
0.192009 0.111683 0.273992 0 0 255
-0.216541 0.111683 0.123377 0 0 255
-0.518976 0.010416 -0.241194 153 76 0
-0.275056 0.111683 -0.073228 0 0 255
-0.029153 -0.013928 0.122818 76 153 0
0.062267 -0.013928 0.011227 127 0 127
-0.338803 -0.025758 0.242219 0 255 0
0.245369 0.134521 -0.119311 0 0 255
0.367428 -0.021541 -0.093404 153 0 76
0.005166 0.013526 -0.102217 127 127 0
-0.006780 0.073619 -0.163794 76 0 153
0.535376 0.111683 0.010255 0 0 255
-0.105502 -0.013928 -0.016913 76 153 0
0.095553 -0.013928 -0.080110 153 0 76
0.333996 0.095192 -0.119389 76 0 153
-0.489666 0.069628 0.207869 127 0 127
0.475190 0.111683 0.284989 0 0 255
-0.420169 0.111683 0.037390 0 0 255
0.605866 -0.401244 0.226176 153 0 76
-0.570389 0.111683 0.050287 0 0 255
-0.508698 -0.043501 -0.084794 127 0 127
0.477336 0.111683 -0.060266 0 0 255
0.549482 0.043962 0.213608 153 0 76
-0.401927 0.005487 -0.134615 0 127 127
0.762376 0.111683 0.177173 0 0 255
-0.477040 0.134521 -0.144692 0 0 255
0.624643 0.111683 0.268575 0 0 255
0.404438 -0.055030 -0.119389 127 127 0
0.284328 0.134521 0.252438 0 0 255
-0.156675 -0.013928 0.130492 76 153 0
-0.527423 -0.742369 -0.199310 153 76 0
0.576127 0.030999 -0.148307 153 0 76
0.491767 0.080780 -0.180291 76 0 153
-0.521771 -0.734055 0.208213 204 51 127
-0.343166 -0.035032 -0.119389 127 127 0
-0.091840 -0.021541 -0.143515 76 153 0
-0.501955 0.111683 -0.288430 0 0 255
0.241163 -0.032102 0.169104 0 255 0
0.562743 0.029159 -0.241194 76 0 153
-0.068805 0.134521 0.086825 0 0 255
-0.148185 0.067299 -0.233581 76 153 0
0.576127 0.082357 0.178984 153 0 76
-0.254510 0.134521 0.067129 0 0 255
0.091246 0.045418 -0.210743 76 153 0
-0.520643 -0.548121 -0.234392 153 76 0
-0.097944 -0.021541 0.059240 76 153 0
-0.554575 -0.101363 -0.189601 153 76 0
-0.555271 -0.333783 0.201949 204 51 127
-0.302969 0.111683 0.224144 0 0 255
-0.444962 0.134521 -0.185713 0 0 255
-0.308583 0.111683 -0.300059 0 0 255
-0.556208 -0.659239 0.222299 204 51 127
0.462703 0.111683 0.202400 0 0 255
-0.125459 0.134521 0.140576 0 0 255
-0.120663 0.134521 -0.104868 0 0 255
-0.029256 0.111683 0.137858 0 0 255
0.117449 0.111683 0.279046 0 0 255
-0.517091 -0.474195 0.238192 204 51 127
0.313036 0.097590 -0.210743 76 153 0
0.039424 0.023174 -0.042369 127 0 127
-0.695359 0.134521 0.212389 0 0 255
0.682247 0.134521 0.063316 0 0 255
0.047695 0.069813 -0.024577 127 0 127
0.527758 0.111683 -0.199485 0 0 255
0.429265 -0.041989 0.219381 76 0 153
0.273860 0.073619 -0.164438 76 0 153
-0.026746 -0.021541 0.183136 76 153 0
-0.417153 0.016274 0.219381 0 255 0
-0.554375 -0.016194 -0.029560 76 0 153
0.442811 0.134521 -0.115287 0 0 255
-0.000144 0.134521 0.205949 0 0 255
0.575431 -0.417801 -0.240713 76 0 153
-0.531537 0.099613 0.120152 76 0 153
0.563622 -0.574261 -0.232263 76 0 153
-0.693928 0.111683 0.074944 0 0 255
-0.552714 -0.245395 0.201135 204 51 127
0.254336 0.028713 -0.210743 76 153 0
0.291007 -0.013928 0.163048 0 0 255
-0.304258 0.134521 -0.214602 0 0 255
0.549482 -0.022005 0.093687 0 127 127
-0.260104 -0.021541 -0.171101 153 0 76
-0.510364 -0.282574 -0.207474 153 76 0
0.602871 -0.373720 -0.228337 76 0 153
-0.071502 0.112710 -0.302096 0 0 255
-0.018134 -0.021541 -0.138500 76 153 0
0.055922 -0.055799 0.184627 0 127 127
-0.242872 0.134521 0.200719 0 0 255
0.530751 0.111683 -0.144652 0 0 255
0.573057 -0.383390 -0.188593 76 0 153
-0.081735 0.080491 -0.119389 76 0 153
0.752324 0.111683 0.116516 0 0 255
0.043853 0.069813 0.021806 127 0 127
0.565752 -0.586792 0.238263 153 0 76
-0.489134 -0.027187 0.242219 76 0 153
0.247077 -0.031669 0.242219 76 0 153
0.135068 0.041645 -0.119389 76 153 0
0.417332 0.111683 -0.024533 0 0 255
0.566652 -0.238746 0.198174 153 0 76
0.005166 -0.019282 -0.055073 76 153 0
0.092060 0.073619 -0.164013 76 0 153
0.199936 -0.013928 0.038313 153 0 76
0.414022 0.092950 0.219381 153 0 76
-0.227623 -0.071024 -0.232936 76 153 0
-0.403363 0.096457 -0.122773 76 0 153
0.131857 0.134521 -0.188045 0 0 255
-0.299284 -0.013928 -0.062704 76 153 0
0.334907 0.111683 0.006546 0 0 255
0.152837 -0.055799 -0.121040 127 127 0
-0.346446 0.134521 0.047716 0 0 255
-0.043695 0.111683 0.268866 0 0 255
-0.177344 0.111683 0.277468 0 0 255
0.428495 0.111683 -0.195174 0 0 255
-0.143970 0.111683 0.060107 0 0 255
0.419505 0.111683 0.122389 0 0 255
-0.114147 0.111683 0.291196 0 0 255
0.035047 0.134521 -0.106311 0 0 255
0.346751 -0.015181 -0.149840 153 0 76
-0.076787 0.111683 -0.031241 0 0 255
0.534257 0.018283 -0.081771 0 127 127
-0.449806 -0.040942 -0.210743 76 153 0
-0.461503 0.043342 -0.119389 0 127 127
-0.444937 -0.021541 0.099774 76 153 0
0.052663 0.091769 0.242219 153 0 76
-0.110784 0.111683 -0.258344 0 0 255
0.692724 0.134521 0.120581 0 0 255
-0.010059 -0.007298 0.048140 76 153 0
-0.195079 -0.055799 -0.120733 127 127 0
0.600657 -0.215902 -0.227602 76 0 153
-0.085977 0.134521 0.217220 0 0 255
-0.341894 0.134521 -0.137073 0 0 255
0.173515 0.134521 -0.211844 0 0 255
-0.036048 -0.021541 -0.084048 76 153 0
0.588218 -0.671622 -0.195726 76 0 153
-0.375951 0.050142 -0.134615 0 127 127
0.582161 0.111683 -0.263121 0 0 255
-0.419568 0.086123 -0.233581 76 153 0
-0.554375 -0.068995 0.018140 76 0 153
0.033589 -0.055799 -0.075184 0 127 127
-0.516900 -0.199470 -0.199323 153 76 0
-0.526490 0.111683 0.217091 0 0 255
0.458373 -0.021541 0.164533 153 0 76
0.565154 -0.045266 0.234607 76 0 153
-0.515934 -0.386330 -0.196075 153 76 0
-0.233597 -0.044380 -0.008781 153 0 76
-0.259896 0.111683 -0.206935 76 153 0
-0.706754 0.111683 -0.036432 0 0 255
-0.037438 0.092496 -0.210743 76 153 0
0.110237 -0.013928 0.090950 153 0 76
-0.013866 -0.033142 0.085583 0 127 127
-0.398089 0.134521 -0.301187 0 0 255
-0.365084 0.045714 0.219381 0 255 0
0.456530 0.076528 -0.119389 76 0 153
0.584194 -0.429784 0.193237 153 0 76
-0.309514 0.134521 0.100003 0 0 255
0.509855 -0.021541 -0.025145 153 0 76
-0.508061 0.134521 -0.213844 0 0 255
0.266839 -0.013928 0.097975 153 0 76
0.598965 -0.067547 -0.010123 153 0 76
0.282460 0.099958 0.219381 153 0 76
-0.224248 0.111683 -0.268559 0 0 255
0.562571 -0.174242 0.234790 153 0 76
0.151949 0.023108 -0.233581 76 153 0
-0.328740 0.045809 -0.134615 0 127 127
-0.443116 -0.013928 0.180632 76 153 0
0.047731 0.088350 -0.180291 76 0 153
-0.508540 -0.406063 0.219408 204 51 127
0.371024 0.111683 0.248870 0 0 255
0.602757 -0.306279 -0.227614 76 0 153
0.255892 -0.037360 -0.119389 0 255 0
0.314169 -0.013928 -0.085886 153 0 76
-0.530361 -0.580463 -0.191200 153 76 0
-0.068538 0.018209 -0.210743 76 153 0
0.219647 0.067763 0.219381 127 127 0
0.371032 -0.013928 0.186507 153 0 76
-0.531537 0.029833 0.048338 76 0 153
0.347883 0.111683 0.119154 0 0 255
0.181896 -0.013928 -0.103684 153 0 76
-0.583826 0.111683 -0.190426 0 0 255
0.012459 0.091170 -0.119389 76 0 153
0.179442 -0.032960 -0.151720 127 127 0
0.303499 -0.044380 0.191562 0 0 255
-0.366914 -0.049948 0.219381 76 0 153
-0.520250 -0.686480 0.206410 204 51 127
0.271615 0.092917 -0.031652 153 76 0
0.043393 0.084791 -0.233581 76 153 0
-0.113796 0.096457 -0.167423 76 0 153
-0.529894 -0.103509 0.246026 204 51 127
-0.465830 0.082844 -0.210743 76 153 0
0.392954 -0.032960 -0.180094 127 127 0
-0.153040 0.111683 -0.018450 0 0 255
0.361627 0.052104 -0.119389 76 153 0
0.460092 0.134521 -0.027994 0 0 255
-0.281919 0.134521 0.028663 0 0 255
-0.045438 0.111683 -0.099916 0 0 255
-0.385470 0.134521 -0.186875 0 0 255
0.603106 -0.309075 0.207068 153 0 76
-0.479964 0.045585 0.242219 0 255 0
0.439492 0.111683 0.253611 0 0 255
-0.294532 -0.013928 -0.001922 76 153 0
0.606285 -0.462445 -0.214993 76 0 153
0.430817 0.111683 -0.266448 0 0 255
0.346408 0.028685 -0.210743 76 153 0
-0.618150 0.111683 0.217157 0 0 255
0.427185 -0.013928 0.136071 153 0 76
-0.558876 -0.337109 -0.226817 153 76 0
-0.163677 0.111683 -0.279130 0 0 255
0.597823 -0.104944 -0.196074 76 0 153
-0.554595 -0.669507 -0.222058 153 76 0
0.121613 0.111683 -0.020718 0 0 255
0.138543 0.096890 0.219381 153 0 76
0.576127 0.088894 -0.099737 153 0 76
-0.474235 -0.055799 0.157189 127 0 127
-0.372752 0.111683 0.213169 153 0 76
-0.709487 0.111683 -0.120150 0 0 255
0.041474 -0.055799 -0.175517 127 127 0
0.082873 0.111683 0.035225 0 0 255
0.743681 0.111683 -0.151857 0 0 255
0.362520 -0.006934 0.242219 127 127 0
-0.568888 0.111683 0.275879 0 0 255
-0.570264 0.134521 0.200888 0 0 255
-0.532576 0.134521 0.051375 0 0 255
-0.240227 0.096245 0.242219 153 0 76
0.435028 0.111683 0.048487 0 0 255
-0.048878 0.111683 0.054269 0 0 255
-0.560814 -0.287615 -0.209985 153 76 0
-0.530583 -0.270135 0.244548 204 51 127
-0.531537 0.073536 0.162352 76 0 153
-0.196137 0.073619 -0.166888 76 0 153
0.384585 0.013455 -0.233581 76 153 0
0.556547 -0.484168 -0.203306 76 0 153
0.576127 0.097990 0.118856 153 0 76
0.727713 0.134521 0.190580 0 0 255
0.324038 -0.021541 -0.019631 153 0 76
-0.639179 0.134521 0.286028 0 0 255
0.602265 -0.541060 0.208384 153 0 76
0.576461 -0.738525 -0.231562 76 0 153
-0.417077 0.134521 0.125068 0 0 255
-0.188831 -0.021541 0.182090 76 153 0
0.556755 -0.339810 -0.201395 76 0 153
0.606578 -0.008378 0.200091 153 0 76
0.685246 0.132184 -0.302096 0 0 255
-0.524386 0.111683 -0.069707 76 0 153
-0.150047 -0.042518 -0.210743 76 153 0
-0.402885 -0.024877 0.242219 76 0 153
0.485327 -0.035621 -0.180291 127 127 0
0.513974 -0.071024 -0.233310 76 153 0
0.751720 0.111683 0.060743 0 0 255
-0.734628 0.111683 -0.194759 0 0 255
-0.272701 -0.042874 0.172787 153 0 76
-0.227024 0.078054 0.016632 76 0 153
0.587546 -0.020266 -0.204892 153 0 76
-0.227024 -0.024736 -0.110843 76 153 0
-0.561918 -0.447335 0.219597 204 51 127
0.594554 0.134521 -0.099426 0 0 255
-0.229893 0.096457 -0.025331 76 0 153
0.453523 0.134521 -0.169402 0 0 255
0.006759 0.111683 0.116040 0 0 255
0.204316 -0.033559 -0.233581 76 153 0
-0.560078 -0.539085 0.216627 204 51 127
0.780991 0.134521 -0.008495 0 0 255
0.411164 -0.035403 -0.233581 76 153 0
-0.265088 0.076216 -0.053045 76 0 153
0.005166 -0.008183 0.206920 127 127 0
0.583888 0.134521 0.202383 0 0 255
-0.447833 0.111683 0.201424 0 0 255
0.242169 0.134521 0.268932 0 0 255
-0.048459 -0.032960 0.240421 76 0 153
0.111102 0.134521 -0.298445 0 0 255
-0.072853 0.004672 0.242219 0 255 0
-0.282592 0.084664 -0.180291 76 0 153
-0.339407 -0.021541 -0.078149 76 153 0
-0.173827 0.134521 0.190332 0 0 255
-0.241574 0.041161 0.219381 0 255 0
0.597585 -0.086922 -0.241194 76 0 153
-0.531537 -0.016011 -0.183810 76 0 153
-0.513789 -0.466655 -0.229383 153 76 0
0.623374 0.111683 -0.026001 0 0 255
0.606578 0.074902 0.206622 153 0 76
-0.557612 -0.582152 -0.222849 153 76 0
0.644599 0.111683 0.058854 0 0 255
0.005166 0.027650 0.124703 127 127 0
-0.014728 0.097389 0.219381 153 0 76
-0.472567 -0.021541 -0.091491 127 0 127
0.140927 -0.042275 0.219381 76 0 153
-0.266593 -0.054516 -0.119389 127 127 0
-0.458719 0.134521 0.121266 0 0 255
0.576127 0.015033 0.018519 153 0 76
0.541514 -0.005774 -0.233581 76 153 0
0.303552 0.111683 0.081726 0 0 255
-0.518732 0.086198 -0.180291 76 0 153
0.509760 0.134521 0.218340 0 0 255
-0.220015 -0.032960 0.238994 0 255 0
0.724874 0.134521 0.261914 0 0 255
0.334929 -0.055799 -0.176270 127 127 0
0.516195 -0.013928 0.116846 153 0 76
0.346006 -0.053731 -0.233581 76 153 0
0.301988 -0.013928 0.040536 153 0 76
-0.262448 -0.034213 -0.233581 76 153 0
-0.292961 0.029676 -0.233581 76 153 0
-0.123035 0.134521 -0.190056 0 0 255
0.599640 -0.196676 0.232824 153 0 76
-0.432104 -0.050353 -0.119389 127 127 0
-0.163251 -0.021541 -0.009678 76 153 0
0.548398 -0.055799 -0.063144 255 0 0
0.529762 0.111683 0.161724 0 0 255
-0.514354 0.134521 -0.163891 0 0 255
-0.035764 0.038520 0.242219 0 255 0
-0.641459 0.134521 -0.204809 0 0 255
-0.026335 0.111683 -0.032066 0 0 255
0.020755 -0.055799 0.014012 0 127 127
0.700533 0.134521 -0.224451 0 0 255
0.576127 0.046545 0.158912 153 0 76
0.124252 0.134521 0.053530 0 0 255
0.005166 0.029581 -0.017967 127 127 0
0.115563 -0.013928 -0.044295 153 0 76
0.344535 -0.032960 0.117491 153 76 0
0.652090 0.134521 -0.228364 0 0 255
-0.504892 -0.026997 -0.128834 127 127 0
0.553936 0.134521 0.301484 0 0 255
-0.556937 -0.143607 0.214328 204 51 127
-0.513517 -0.590913 0.228074 204 51 127
-0.517975 -0.171087 -0.229797 153 76 0
0.487529 -0.006111 0.242219 127 127 0
-0.481699 0.134521 -0.080576 0 0 255
-0.554132 -0.524294 -0.231450 153 76 0
0.537625 0.111683 -0.274646 0 0 255
-0.293821 -0.063555 0.219381 76 0 153
-0.531537 -0.015940 0.097170 76 0 153
0.136618 0.134521 0.126507 0 0 255
0.485454 0.134521 0.091638 0 0 255
0.709336 0.134521 -0.052040 0 0 255
-0.353049 0.111683 -0.084112 0 0 255
-0.227024 0.076524 0.152035 76 0 153
-0.542204 -0.295969 0.194130 204 51 127
0.598965 -0.042305 0.067706 153 0 76
0.212730 0.134521 -0.245453 0 0 255
0.606578 0.089141 -0.237250 76 0 153
0.576127 0.045038 0.063087 153 0 76
0.570090 0.111683 -0.216985 0 0 255
0.598965 -0.042061 -0.084929 153 0 76
0.514239 0.042882 -0.210743 76 153 0
-0.180030 0.134521 0.122615 0 0 255
-0.174536 0.134521 -0.120006 0 0 255
0.000019 -0.071024 0.238521 76 0 153
0.593440 -0.694681 -0.228751 76 0 153
-0.561988 -0.057448 0.206388 204 51 127
-0.383612 0.134521 -0.010541 0 0 255
0.390708 0.134521 0.177756 0 0 255
-0.527653 -0.334954 0.244800 204 51 127
-0.556675 -0.206655 -0.203036 153 76 0
0.570367 -0.370376 0.244185 153 0 76
-0.490441 -0.021541 0.102409 76 153 0
-0.556176 0.111683 -0.221312 153 76 0
-0.298263 -0.026843 0.242219 0 255 0
-0.020094 -0.034831 -0.210743 76 153 0
0.309679 0.081771 -0.004379 153 76 0
-0.369190 -0.013928 -0.022248 76 153 0
-0.489666 0.034224 -0.054034 127 0 127
0.624188 0.111683 -0.265848 0 0 255
-0.530496 -0.022515 0.246026 204 51 127
-0.407626 -0.013928 -0.098388 76 153 0
0.482153 -0.013928 0.010908 153 0 76
0.771131 0.111683 -0.301770 0 0 255
0.353741 0.111683 -0.176428 0 0 255
0.005166 -0.027662 0.152716 127 127 0
0.238906 0.080020 -0.233581 76 153 0
0.049001 0.111683 0.152004 0 0 255
0.595321 -0.114797 0.205849 153 0 76
-0.394064 0.111683 0.278775 0 0 255
-0.303120 0.134521 -0.167533 0 0 255
0.525526 0.059185 0.242219 127 127 0
0.121756 0.111683 -0.093140 0 0 255
-0.510986 -0.238017 -0.220265 153 76 0
-0.425115 -0.021541 0.021492 76 153 0
-0.170217 -0.013928 0.053390 76 153 0
0.563302 -0.744559 0.223212 153 0 76
0.145357 0.019992 0.242219 127 127 0
-0.448426 0.134521 -0.115706 0 0 255
-0.100165 -0.071024 0.226698 76 0 153
0.005166 0.051220 -0.116439 127 127 0
-0.230899 -0.013928 -0.053583 204 51 127
0.035618 -0.026847 0.241178 76 153 0
-0.109832 -0.055799 -0.131289 127 127 0
0.441370 0.033243 -0.210743 76 153 0
0.076093 -0.013928 -0.127122 153 0 76
-0.063043 0.134521 -0.223130 0 0 255
0.343118 0.111683 0.046674 0 0 255
-0.409525 0.111683 -0.056563 0 0 255
0.554807 -0.515476 0.215785 153 0 76
0.084394 0.111683 0.115498 0 0 255
0.591353 -0.045427 -0.166053 127 127 0
0.584674 -0.340345 -0.240603 76 0 153
0.601758 -0.632893 -0.211242 76 0 153
0.576127 0.075941 -0.162346 153 0 76
0.343441 0.059958 0.219381 127 127 0
0.222190 0.080746 -0.180291 76 0 153
0.053260 0.081750 -0.119389 76 0 153
-0.510740 -0.222663 0.220747 204 51 127
0.375925 0.096457 -0.133011 76 0 153
0.745219 0.111683 0.002257 0 0 255
0.271615 -0.021995 -0.175741 0 0 255
-0.228226 -0.013928 0.058349 153 0 76
-0.239447 0.134521 0.268772 0 0 255
0.440545 0.038268 0.219381 127 127 0
-0.490307 -0.021541 -0.021793 76 153 0
-0.705888 0.111683 0.178235 0 0 255
0.556480 -0.268319 0.229486 153 0 76
0.399298 0.134521 0.002562 0 0 255
-0.374007 -0.021290 -0.149840 76 153 0
-0.463158 0.111683 0.061607 0 0 255
0.390455 0.111683 0.301674 0 0 255
0.193351 0.134521 0.028431 0 0 255
0.039424 0.033519 0.157346 127 0 127
0.002094 0.134521 0.277325 0 0 255
-0.449166 0.134521 -0.041094 0 0 255
0.588457 -0.687260 0.201443 153 0 76
-0.508698 -0.047898 0.075534 127 0 127
-0.109566 0.134521 0.098098 0 0 255
0.398357 0.111683 -0.067935 0 0 255
-0.531537 0.012235 -0.112226 76 0 153
0.576127 0.027597 -0.108868 153 0 76
0.504491 0.111683 0.254718 0 0 255
-0.103134 0.134521 -0.226956 0 0 255
0.204421 0.073619 -0.145197 76 0 153
-0.231630 0.111683 -0.140711 0 0 255
0.560574 -0.032960 -0.130079 127 127 0
-0.670901 0.134521 -0.259079 0 0 255
0.120811 0.111683 -0.267731 0 0 255
-0.317375 -0.032960 -0.152216 127 127 0
-0.258882 0.096457 0.094574 76 0 153
0.157693 0.097137 -0.210743 76 153 0
-0.524176 0.052088 -0.241194 76 153 0
0.006570 0.134521 -0.227905 0 0 255
-0.529809 -0.702039 -0.196117 153 76 0
0.120809 0.134521 -0.146683 0 0 255
-0.190234 0.039246 -0.210743 76 153 0
0.185214 0.111683 -0.135116 0 0 255
-0.187894 0.027840 0.242219 0 255 0
0.131973 0.083839 -0.119389 76 0 153
0.602564 -0.176459 -0.208551 76 0 153
0.271615 0.074011 0.119642 153 76 0
0.588847 -0.568722 -0.192104 76 0 153
-0.684010 0.111683 0.115712 0 0 255
-0.738986 0.113280 0.272524 0 0 255
-0.435907 0.111683 0.305580 0 0 255
0.666250 0.134521 -0.170194 0 0 255
0.596962 0.134521 -0.197648 0 0 255
-0.072364 0.134521 0.031607 0 0 255
0.266348 0.096457 -0.120926 153 76 0
-0.227024 0.076884 0.108637 76 0 153
-0.559148 -0.200005 0.216964 204 51 127
-0.267253 -0.013928 0.091698 76 153 0
0.133005 0.065558 0.242219 127 127 0
-0.536397 -0.608063 0.196338 204 51 127
-0.574116 0.111683 -0.022881 0 0 255
-0.531537 -0.038596 0.044638 76 0 153
0.363889 -0.071024 0.229014 76 0 153
-0.520400 0.078200 -0.119389 76 0 153
0.357387 0.081539 -0.210743 76 153 0
-0.013866 -0.054436 -0.071230 0 127 127
0.305476 0.134521 -0.072546 0 0 255
0.295301 0.111683 0.182168 0 0 255
0.055983 0.111683 -0.258982 0 0 255
-0.531537 -0.029216 0.161718 76 0 153
0.533064 0.111683 -0.032041 0 0 255
-0.078593 0.062039 -0.210743 76 153 0
0.240479 0.111683 0.090242 0 0 255
0.304638 -0.038267 -0.233581 76 153 0
0.581309 -0.341110 0.192881 153 0 76
-0.405551 -0.013928 0.095369 76 153 0
-0.321541 0.055839 0.242219 0 255 0
0.490428 -0.049217 0.219381 76 0 153
-0.022849 -0.055799 -0.120758 127 127 0
0.184004 0.052477 -0.233581 76 153 0
0.527809 -0.021541 0.061437 153 0 76
-0.008185 0.111683 -0.083548 0 0 255
-0.348001 0.111683 0.286234 0 0 255
0.202925 0.111683 0.117134 0 0 255
-0.508698 -0.091238 -0.230134 153 76 0
-0.129689 -0.025339 0.219381 76 153 0
0.502955 0.134521 -0.236231 0 0 255
-0.173344 0.111683 -0.229148 76 153 0
0.036546 0.134521 -0.018460 0 0 255
0.595326 0.134521 -0.042627 0 0 255
-0.266104 0.111683 -0.012576 0 0 255
0.200683 -0.064548 -0.210743 76 153 0
0.559034 -0.518674 -0.228894 76 0 153
-0.095654 0.061233 0.242219 0 255 0
-0.204974 0.000626 -0.210743 76 153 0
-0.460167 -0.013928 0.044508 76 153 0
-0.385892 -0.050733 -0.180291 127 127 0
0.534257 0.015403 0.178108 0 127 127
0.039424 -0.028368 0.062643 127 0 127
-0.504892 0.048310 0.070895 127 0 127
0.693815 0.134521 0.172152 0 0 255
0.598965 -0.034104 0.027142 153 0 76
0.164844 -0.013928 0.203884 153 0 76
-0.509474 -0.444116 0.213495 204 51 127
0.598965 0.085737 0.042183 153 0 76
-0.595862 0.111683 -0.070938 0 0 255
0.311883 0.035500 0.242219 127 127 0
0.576127 0.032752 0.120386 153 0 76
0.522493 -0.017945 -0.149840 153 0 76
-0.128224 -0.006338 -0.210743 76 153 0
0.308300 -0.013928 -0.140236 153 0 76
0.626146 0.111683 -0.134043 0 0 255
-0.531820 -0.071024 -0.015526 76 0 153
0.470575 0.111683 0.064516 0 0 255
-0.340107 0.134521 0.226437 0 0 255
-0.688408 0.111683 -0.155220 0 0 255
0.271615 0.094134 0.044378 153 76 0
-0.489666 0.040634 0.129045 127 0 127
0.179072 0.134521 -0.288966 0 0 255
0.263975 0.134521 0.304747 0 0 255
0.414196 -0.071024 0.240299 76 0 153
0.515998 -0.055799 0.141089 255 0 0
-0.146942 0.044733 -0.119389 0 127 127
0.183145 0.040473 -0.119389 76 153 0
0.233551 -0.047931 0.210221 76 0 153
-0.316941 0.078921 -0.119389 76 0 153
-0.245408 -0.013928 0.166726 153 0 76
0.576127 0.041720 -0.009092 153 0 76
-0.396798 0.111683 0.092253 0 0 255
0.343818 -0.041188 0.242219 76 0 153
-0.542956 0.059086 -0.192217 76 0 153
0.597980 -0.026237 -0.241194 76 0 153
0.549482 -0.017959 -0.092069 0 127 127
0.431001 -0.013928 -0.050983 153 0 76
0.233273 0.111683 -0.091147 0 0 255
-0.485379 0.102486 0.242219 153 0 76
-0.283552 0.111683 -0.265059 0 0 255
0.039424 0.069264 0.101449 127 0 127
0.705307 0.134521 -0.263748 0 0 255
-0.554375 0.033325 0.155237 76 0 153
0.084978 -0.013928 0.183368 153 0 76
0.239606 0.111683 0.205696 0 0 255
0.588043 -0.623196 0.240309 153 0 76
-0.584322 0.134521 -0.107127 0 0 255
-0.136396 0.079416 0.219381 0 255 0
0.481068 0.051182 -0.233581 76 153 0
0.265210 0.069813 0.238451 153 0 76
0.005166 0.030535 0.056876 127 127 0
-0.526082 -0.618237 -0.193894 153 76 0
0.054650 0.043915 -0.115053 127 0 127
-0.064707 0.042867 -0.134615 0 127 127
-0.240866 -0.071024 0.223751 76 0 153
0.309256 0.037036 -0.210743 76 153 0
0.606578 0.107251 0.226690 0 0 255
0.115402 -0.032960 -0.170225 127 127 0
0.316700 -0.044380 0.140797 0 0 255
0.312166 0.073619 -0.151013 76 0 153
-0.180317 -0.013928 -0.051380 76 153 0
0.633978 0.111683 -0.194900 0 0 255
0.039462 0.134521 0.221596 0 0 255
-0.153906 0.134521 -0.052898 0 0 255
-0.715616 0.134521 0.106169 0 0 255
-0.242456 0.008531 -0.210743 76 153 0
-0.072863 0.106491 0.242219 153 0 76
-0.262777 -0.013928 -0.103730 153 0 76
-0.010059 0.027081 0.206068 127 127 0
0.490996 0.103484 -0.210743 76 153 0
0.091507 0.111683 0.182128 0 0 255
-0.390362 0.134521 -0.263424 0 0 255
-0.191270 0.111683 -0.000143 0 0 255
-0.516832 0.047875 0.192736 204 51 127
0.168500 0.134521 -0.084786 0 0 255
-0.076763 0.111683 -0.155676 0 0 255
-0.471894 0.034221 -0.233581 76 153 0
-0.499839 0.069813 0.015776 127 0 127
0.249583 0.007301 0.219381 127 127 0
0.463604 -0.021541 -0.148534 153 0 76
0.255451 0.050320 -0.134615 76 153 0
0.327954 -0.013928 0.191152 153 0 76
-0.638299 0.134521 -0.036157 0 0 255
-0.247560 0.038027 -0.119389 0 127 127
-0.207438 0.111683 0.204419 0 0 255
-0.289232 0.134521 0.277048 0 0 255
-0.561988 0.026679 -0.222695 153 76 0
0.003136 0.069813 0.152454 127 127 0
-0.319985 0.111683 0.177024 0 0 255
0.454023 0.134521 0.151579 0 0 255
0.339696 0.111683 -0.056828 0 0 255
0.339408 0.134521 -0.250885 0 0 255
-0.074804 -0.013928 0.119849 76 153 0
0.040093 0.134521 0.281130 0 0 255
0.606578 0.049836 -0.225930 76 0 153
-0.454111 -0.032960 -0.146088 127 127 0
0.039424 -0.014871 0.165482 127 0 127
-0.692099 0.134521 0.021035 0 0 255
0.481555 0.096457 -0.147163 76 0 153
-0.509314 -0.329889 -0.210123 153 76 0
0.682522 0.134521 -0.111537 0 0 255
-0.266205 0.096457 -0.126510 76 0 153
0.361788 -0.013928 -0.032503 153 0 76
-0.636757 0.114290 -0.302096 0 0 255
0.404152 -0.013928 0.225094 127 127 0
-0.552519 -0.504194 -0.195436 153 76 0
0.309679 0.079852 0.203198 153 76 0
-0.217137 -0.052774 -0.180291 127 127 0
0.547298 -0.058342 -0.210743 76 153 0
-0.105507 -0.013928 -0.062969 76 153 0
-0.546896 -0.749066 0.231618 204 51 127
-0.488055 -0.055799 -0.006376 127 0 127
0.606578 0.017966 0.227037 153 0 76
-0.115995 0.134521 0.031287 0 0 255
-0.426636 -0.042658 0.219381 76 0 153
0.558380 -0.130141 -0.215990 76 0 153
-0.560824 -0.405475 0.227320 204 51 127
-0.554375 -0.032242 -0.101898 76 0 153
0.202033 0.086002 -0.233581 76 153 0
0.518987 0.111683 -0.107161 0 0 255
0.320024 0.134521 0.301460 0 0 255
-0.536902 0.134521 0.137565 0 0 255
0.018089 -0.032960 0.115274 0 127 127
-0.287023 0.134521 0.149062 0 0 255
-0.561489 0.061986 0.246026 204 51 127
0.009876 0.111683 0.025961 0 0 255
0.084827 -0.055762 0.242219 76 0 153
0.202937 0.095445 0.242219 153 0 76
-0.630830 0.111683 0.079371 0 0 255
0.515225 -0.052052 -0.003551 255 0 0
-0.542386 -0.438158 -0.240252 153 76 0
0.416222 -0.021541 -0.146002 153 0 76
-0.559330 -0.491176 0.209820 204 51 127
0.305680 0.134521 -0.233065 0 0 255
-0.552400 -0.152406 -0.229121 153 76 0
0.234406 -0.055799 -0.156288 127 127 0
-0.407646 0.111683 0.244182 153 0 76
0.032392 0.111683 -0.300812 0 0 255
0.064946 0.111683 -0.098072 0 0 255
-0.278604 0.038294 0.219381 0 255 0
0.493392 0.134521 -0.139823 0 0 255
-0.650475 0.134521 0.214868 0 0 255
-0.655541 0.111683 -0.101199 0 0 255
0.362773 0.134521 -0.004448 0 0 255
0.054650 0.021379 -0.146319 127 0 127
-0.272701 -0.043825 0.000134 153 0 76
0.215888 0.134521 -0.141773 0 0 255
-0.287502 0.134521 -0.105227 0 0 255
-0.349531 0.096457 -0.155444 76 0 153
-0.127968 0.111683 -0.075784 0 0 255
-0.044953 -0.055799 -0.151878 127 127 0
-0.045570 0.111683 0.201809 0 0 255
-0.515756 -0.051398 -0.187904 153 76 0
-0.127278 0.029248 0.242219 0 255 0
-0.531537 -0.003200 0.031743 76 0 153
0.434148 0.134521 0.215043 0 0 255
0.293642 -0.044380 -0.081503 0 0 255
0.058456 -0.033421 -0.090810 0 127 127
0.126675 0.096842 -0.233581 76 153 0
0.648965 0.111683 -0.073060 0 0 255
0.021543 -0.046743 -0.130808 127 127 0
-0.556312 -0.374448 0.203023 204 51 127
-0.473908 0.073619 -0.175995 76 0 153
-0.707262 0.134521 -0.294288 0 0 255
-0.531537 0.049400 -0.008312 76 0 153
0.534257 0.012723 0.002708 0 127 127
0.305196 0.134521 -0.190442 0 0 255
-0.574893 0.111683 -0.151675 0 0 255
0.081602 0.134521 -0.218523 0 0 255
-0.222947 -0.013928 0.010608 76 153 0
0.079725 0.109205 0.219381 0 0 255
0.764330 0.134521 -0.131786 0 0 255
0.054182 -0.032235 -0.210743 76 153 0
0.362210 0.111683 -0.292356 0 0 255
0.144172 -0.013928 -0.113668 153 0 76
-0.525186 -0.134102 -0.195260 153 76 0
0.039424 -0.011832 -0.023050 127 0 127
-0.554375 0.058288 0.052182 76 0 153
-0.554375 0.076123 0.095148 76 0 153
0.538760 0.035630 -0.149840 0 127 127
0.549482 0.067563 -0.030145 0 127 127
-0.418617 0.134521 0.171545 0 0 255
0.598965 0.058850 0.089008 153 0 76
-0.527693 -0.643177 -0.234845 153 76 0
-0.047603 -0.013928 0.045273 76 153 0
0.587067 -0.753562 -0.199650 76 0 153
-0.013866 -0.049247 0.004089 0 127 127
0.010482 -0.040824 -0.233581 76 153 0
-0.054827 0.111683 0.111743 0 0 255
0.546729 -0.055799 0.168989 255 0 0
0.081916 0.111683 -0.147378 0 0 255
0.237067 0.134521 0.156633 0 0 255
-0.038891 0.134521 -0.279437 0 0 255
0.039424 0.050728 0.241071 127 0 127
-0.268756 -0.044380 0.063092 153 0 76
-0.053574 -0.040168 -0.233581 76 153 0
0.323064 0.051803 -0.119389 76 153 0
-0.343353 0.134521 -0.301611 0 0 255
-0.533285 0.111683 0.267102 0 0 255
0.584539 -0.123052 0.240245 153 0 76
-0.497279 -0.019855 0.019991 127 0 127
0.573687 -0.249962 -0.190007 76 0 153
0.523152 0.134521 0.037040 0 0 255
0.087087 0.111683 -0.056276 0 0 255
-0.508698 0.011183 -0.195892 153 76 0
0.274747 0.134521 -0.140891 0 0 255
-0.531537 0.103557 -0.147443 0 0 255
-0.496978 0.134521 0.035164 0 0 255
0.091331 -0.055799 -0.143334 127 127 0
0.385398 -0.021541 0.152367 153 0 76
0.615818 0.134521 0.300190 0 0 255
-0.470772 -0.055799 -0.079353 127 0 127
-0.381264 0.102496 -0.233581 0 0 255
0.020021 0.084090 0.219381 153 0 76
0.081715 -0.021541 -0.020958 153 0 76
0.381378 0.134521 -0.126297 0 0 255
-0.088516 -0.055799 -0.173132 127 127 0
0.576127 -0.070233 -0.098644 153 0 76
-0.051888 -0.014340 -0.149840 76 153 0
-0.471459 -0.022810 -0.233581 76 153 0
-0.185910 0.059333 0.219381 0 255 0
-0.561988 -0.042938 -0.229898 153 76 0
0.576127 0.006309 0.186046 153 0 76
0.549482 -0.020054 -0.005820 0 127 127
-0.706447 0.111683 -0.225347 0 0 255
0.703848 0.111683 -0.172256 0 0 255
-0.200481 0.111683 -0.058919 0 0 255
-0.634995 0.134521 -0.127998 0 0 255
-0.068176 -0.021541 -0.103519 76 153 0
-0.378310 0.134521 0.027196 0 0 255
-0.321435 0.111683 0.022214 0 0 255
-0.430052 0.134521 0.067383 0 0 255
-0.381220 -0.071024 -0.214240 76 153 0
-0.010059 0.040093 0.091834 127 127 0
-0.469275 0.134521 0.178873 0 0 255
-0.078790 0.134521 0.150571 0 0 255
-0.363415 0.047932 -0.233581 76 153 0
0.281444 0.096457 0.150451 153 76 0
0.752340 0.134521 -0.221884 0 0 255
0.039424 0.069467 0.171719 127 0 127
-0.057760 -0.021541 0.202969 76 153 0
-0.121080 0.134521 0.231239 0 0 255
0.275529 -0.008441 -0.210743 76 153 0
-0.369806 -0.021541 0.118497 76 153 0
0.444820 0.106289 -0.233581 0 0 255
-0.461390 0.111683 0.273668 0 0 255
0.077533 0.058966 0.242219 127 127 0
0.277009 0.134521 -0.261920 0 0 255
0.282169 -0.013928 -0.015748 153 0 76
0.054650 0.040580 0.039949 127 0 127
-0.183289 0.134521 0.057860 0 0 255
-0.454065 0.020316 0.219381 0 255 0
-0.554375 -0.035125 -0.065981 76 0 153
-0.227944 -0.013928 0.101012 76 153 0
-0.097601 0.134521 -0.290232 0 0 255
-0.531537 0.011825 -0.157796 76 0 153
-0.249393 -0.044380 0.145370 153 0 76
0.515225 -0.052702 -0.042378 255 0 0
0.243748 -0.014367 -0.149840 127 127 0
-0.677853 0.134521 -0.052589 0 0 255
0.276891 0.111683 0.108528 153 76 0
-0.554375 0.010452 0.105932 76 0 153
0.350926 0.111683 0.280112 0 0 255
-0.353944 0.111683 0.158264 0 0 255
0.416010 0.056826 0.242219 127 127 0
0.576127 0.100611 -0.033208 153 0 76
0.284355 -0.046744 0.242219 76 0 153
0.176602 0.108122 0.219381 0 0 255
-0.265088 0.078040 0.164746 76 0 153
-0.317673 0.010447 -0.210743 76 153 0
-0.383931 -0.013928 0.054141 76 153 0
0.535426 0.111683 0.278217 0 0 255
0.563308 0.054268 -0.187904 76 0 153
0.281697 0.096270 -0.233581 76 153 0
0.132060 0.042298 -0.210743 76 153 0
0.549482 -0.010531 0.237100 153 0 76
-0.497279 0.045185 -0.120290 127 0 127
0.598965 0.018755 0.046782 153 0 76
0.662069 0.111683 0.278961 0 0 255
0.254123 0.134521 0.229126 0 0 255
-0.231376 0.011422 0.242219 0 255 0
-0.159472 0.024258 0.219381 0 255 0
0.692014 0.134521 0.216763 0 0 255
-0.558686 0.134521 -0.273375 0 0 255
0.195823 0.048903 0.242219 127 127 0
0.440430 -0.013928 0.197616 153 0 76
-0.457338 0.134521 -0.219212 0 0 255
0.058456 -0.049886 0.104689 0 127 127
-0.184103 0.111683 0.088113 0 0 255
0.278395 0.041904 -0.233581 76 153 0
-0.300877 0.062677 -0.210743 76 153 0
0.281657 -0.071024 -0.233180 76 153 0
0.368502 0.036353 0.242219 127 127 0
0.333045 -0.004735 -0.233581 76 153 0
-0.325571 -0.013928 0.102620 76 153 0
-0.561988 -0.009478 -0.201148 153 76 0
-0.738986 0.127891 -0.265125 0 0 255
-0.674263 0.134521 0.271777 0 0 255
0.099757 0.134521 0.238297 0 0 255
0.538916 0.110461 0.219381 0 0 255
-0.288407 0.073619 -0.143746 76 0 153
-0.486360 0.134521 -0.266013 0 0 255
-0.508698 -0.012205 0.207668 204 51 127
0.634473 0.134521 0.194104 0 0 255
-0.531537 0.033138 0.126803 76 0 153
0.487639 -0.055799 -0.121679 127 127 0
0.309168 -0.055799 -0.151760 127 127 0
-0.288909 0.134521 -0.047077 0 0 255
0.207194 -0.032960 0.242079 76 0 153
-0.581549 0.134521 0.079397 0 0 255
-0.636436 0.134521 0.032009 0 0 255
-0.237258 -0.044380 0.042433 153 0 76
-0.129407 0.134521 -0.004973 0 0 255
0.287216 -0.021541 -0.112116 153 0 76
0.208966 0.111683 -0.168959 0 0 255
-0.224117 0.111683 -0.218101 0 0 255
-0.530697 -0.642751 0.240651 204 51 127
0.453821 0.040335 -0.119389 76 153 0
0.574823 -0.608157 -0.237055 76 0 153
-0.307511 -0.021541 0.155300 76 153 0
0.584934 -0.449167 -0.188628 76 0 153
-0.527063 0.134521 -0.096649 0 0 255
-0.113031 0.071623 -0.233581 76 153 0
0.168707 0.111683 0.164563 0 0 255
0.299093 0.025751 -0.119389 76 153 0
-0.647187 0.134521 0.167123 0 0 255
0.516508 -0.032960 -0.116086 127 127 0
0.576127 -0.013275 0.128418 153 0 76
0.507746 0.073619 -0.139658 76 153 0
0.396084 0.134521 -0.267308 0 0 255
0.613242 0.134521 0.147099 0 0 255
0.553730 -0.307332 0.220295 153 0 76
0.312347 0.111683 0.240845 0 0 255
-0.561988 -0.013097 0.233042 204 51 127
-0.324965 0.111683 -0.105517 0 0 255
0.309679 0.075046 0.157844 153 76 0
-0.265088 0.093790 0.217284 76 0 153
0.036481 0.017712 -0.210743 76 153 0
-0.417175 0.111683 -0.173399 0 0 255
0.131202 -0.018540 -0.233581 76 153 0
0.196586 0.004395 0.242219 127 127 0
-0.531537 0.051302 -0.156542 76 0 153
-0.021872 0.037715 -0.134615 0 127 127
-0.334283 -0.021541 0.065776 76 153 0
0.591728 0.134521 0.116104 0 0 255
-0.531537 0.101741 -0.022919 0 0 255
0.227529 0.027492 -0.233581 76 153 0
0.683500 0.111683 -0.038043 0 0 255
-0.435262 0.134521 0.236349 0 0 255
0.007267 0.111683 -0.151132 0 0 255
0.463243 0.111683 0.022952 0 0 255
0.746352 0.134521 0.231908 0 0 255
0.039424 -0.020765 0.200190 127 0 127
-0.206309 0.056393 -0.119389 0 127 127
0.035398 0.111683 -0.204210 0 0 255
0.257659 0.134521 0.022983 0 0 255
0.354095 -0.051760 -0.119389 127 127 0
0.560187 -0.685377 -0.211913 76 0 153
0.598965 0.011218 -0.130310 153 0 76
0.288986 0.111683 -0.001512 0 0 255
-0.047064 0.134521 -0.015178 0 0 255
-0.265088 0.077351 -0.088190 76 0 153
0.598225 0.134521 0.038145 0 0 255
0.601736 -0.221356 0.207882 153 0 76
-0.725986 0.134521 -0.054953 0 0 255
0.490877 0.134521 -0.087615 0 0 255
-0.600977 0.111683 0.033014 0 0 255
-0.537821 -0.103603 0.192736 204 51 127
-0.272000 -0.044380 0.108423 153 0 76
-0.734954 0.134521 -0.112478 0 0 255
0.440921 0.111683 -0.088129 0 0 255
-0.619491 0.111683 -0.189829 0 0 255
0.090702 -0.027102 -0.210743 76 153 0
-0.471455 0.111683 0.095645 0 0 255
0.587546 -0.037477 0.204343 153 0 76
-0.274567 -0.021541 -0.135821 153 0 76
-0.585107 0.111683 0.171170 0 0 255
-0.710778 0.111683 0.296418 0 0 255
0.204142 0.111683 0.055751 0 0 255
-0.515888 -0.547031 -0.199306 153 76 0
0.262237 -0.013928 0.143095 153 0 76
-0.540409 0.134521 0.012844 0 0 255
0.181667 0.111683 0.004647 0 0 255
0.377353 -0.045060 -0.210743 76 153 0
-0.523488 0.134521 0.183951 0 0 255
0.116077 0.132752 0.306928 0 0 255
0.745741 0.134521 -0.267223 0 0 255
-0.011580 0.006679 -0.210743 76 153 0
0.022624 -0.055799 0.048954 0 127 127
-0.203297 0.097940 0.242219 153 0 76
0.093858 0.134521 -0.024911 0 0 255
0.196790 -0.000699 -0.134615 76 153 0
-0.472617 0.111683 -0.054993 0 0 255
-0.272701 -0.028809 0.213416 153 0 76
-0.531537 0.019306 0.179149 76 0 153
0.312776 0.134521 0.057035 0 0 255
-0.166869 0.134521 0.250673 0 0 255
-0.508698 -0.041744 -0.047688 127 0 127
0.473455 0.095202 0.242219 153 0 76
-0.483585 0.096457 -0.142046 76 0 153
-0.202511 -0.055799 0.204861 153 76 0
-0.554375 0.074295 -0.076101 76 0 153
-0.508698 -0.100392 0.212935 204 51 127
0.190622 0.134521 0.302308 0 0 255
-0.391050 0.039203 0.242219 0 255 0
0.248549 0.104438 -0.210743 76 153 0
-0.232377 0.134521 -0.293513 0 0 255
-0.334370 0.111683 -0.243071 0 0 255
0.591200 -0.626168 0.199886 153 0 76
-0.083716 0.018110 -0.119389 0 127 127
0.022918 0.134521 0.145563 0 0 255
0.576354 -0.453308 0.245437 153 0 76
0.066827 0.134521 0.009705 0 0 255
0.178364 -0.055066 -0.180291 127 127 0
-0.519157 0.084792 0.192736 204 51 127
-0.228730 -0.021541 -0.150431 153 0 76
0.218205 -0.011460 -0.210743 76 153 0
0.092993 0.019384 -0.233581 76 153 0
-0.149473 -0.032960 -0.168602 127 127 0
0.472932 0.111683 -0.301480 0 0 255
-0.168407 0.134521 -0.161631 0 0 255
-0.531537 -0.069507 0.090100 76 0 153
-0.010855 0.134521 -0.056933 0 0 255
0.511495 0.022003 -0.119389 76 153 0
0.447987 -0.046332 -0.233581 76 153 0
0.158812 0.134521 0.278230 0 0 255
-0.546975 -0.401418 -0.190579 153 76 0
-0.461039 -0.032985 0.219381 0 255 0
0.461544 -0.032960 0.229304 76 0 153
0.340926 0.101620 -0.233581 76 153 0
0.238330 0.111683 -0.005480 0 0 255
0.113651 0.061146 -0.233581 76 153 0
0.374177 0.134521 0.100655 0 0 255
-0.065660 0.041700 0.219381 0 255 0
-0.433650 0.134521 -0.247541 0 0 255
0.104266 -0.071024 -0.231952 76 153 0
0.012150 -0.032960 -0.015582 0 127 127
-0.611465 0.134521 0.134257 0 0 255
-0.026339 -0.013928 0.018094 76 153 0
0.447023 0.134521 0.278360 0 0 255
-0.134686 -0.021541 0.058668 76 153 0
-0.022358 0.059369 -0.210743 76 153 0
0.598965 0.092139 0.145270 153 0 76
0.541869 -0.021084 -0.041976 0 127 127
0.705280 0.111683 0.051614 0 0 255
0.746933 0.134521 0.298739 0 0 255
0.563354 -0.709116 0.210233 153 0 76
0.585563 -0.464177 0.193734 153 0 76
0.560348 0.096063 -0.187904 76 0 153
0.300368 0.111683 -0.296776 0 0 255
0.587546 0.016776 -0.197991 153 0 76
-0.302337 -0.055799 -0.129918 127 127 0
0.206776 0.111683 -0.270464 0 0 255
0.576127 -0.044290 0.000810 153 0 76
0.062287 0.067413 -0.210743 76 153 0
0.181511 0.111683 0.086214 0 0 255
0.396406 0.134521 0.059580 0 0 255
0.083870 0.111683 0.270443 0 0 255
-0.418424 0.134521 0.011809 0 0 255
-0.194022 -0.048064 -0.210743 76 153 0
-0.497279 -0.021522 0.163822 76 153 0
0.229500 -0.013928 -0.042725 153 0 76
-0.152397 0.111683 -0.132901 0 0 255
-0.372265 -0.013928 0.216045 76 153 0
-0.449372 -0.021541 -0.028155 76 153 0
0.410907 0.046164 -0.233581 76 153 0
0.533650 -0.069558 0.219381 76 0 153
-0.011804 0.011839 0.242219 0 255 0
0.233582 -0.013928 -0.087293 153 0 76
-0.019716 -0.032960 -0.176515 127 127 0
-0.716239 0.134521 0.052671 0 0 255
0.497858 0.111683 0.194853 0 0 255
-0.336902 0.134521 0.120566 0 0 255
0.325273 0.134521 0.136600 0 0 255
-0.511482 -0.361831 0.231129 204 51 127
0.540185 0.078413 -0.210743 76 153 0
-0.378929 0.002793 -0.233581 76 153 0
0.553289 -0.015035 -0.202856 76 0 153
0.265880 -0.021541 0.059697 0 0 255
-0.315596 -0.071024 -0.223948 76 153 0
0.666459 0.111683 0.236220 0 0 255
-0.376941 -0.013928 -0.113377 76 153 0
0.580784 -0.153238 0.196864 153 0 76
0.035271 0.111683 0.187697 0 0 255
0.236215 -0.043220 -0.210743 76 153 0
0.541869 -0.018808 0.169625 0 127 127
0.351716 0.134521 0.232442 0 0 255
-0.079374 0.134521 -0.003963 0 0 255
-0.554375 0.019433 -0.027154 76 0 153
-0.559773 -0.267553 0.227085 204 51 127
-0.554375 0.094093 -0.192145 76 0 153
0.276730 0.073619 -0.060476 153 76 0
-0.433330 0.118437 -0.302096 0 0 255
-0.125330 -0.033706 -0.233581 76 153 0
-0.393254 0.111683 -0.086508 0 0 255
-0.125266 -0.021541 -0.136919 76 153 0
0.726732 0.134521 0.122433 0 0 255
0.456096 -0.055799 -0.160311 127 127 0
-0.341954 -0.034880 -0.233581 76 153 0
-0.560261 -0.241771 -0.212488 153 76 0
-0.619037 0.134521 -0.082585 0 0 255
-0.378658 0.134521 -0.153548 0 0 255
0.276250 -0.044380 0.166302 0 0 255
-0.585946 0.111683 0.246445 0 0 255
0.087898 0.006756 0.219381 127 127 0
0.688788 0.134521 0.288103 0 0 255
0.491541 0.058948 0.242219 127 127 0
-0.010059 -0.001420 -0.029705 76 153 0
0.711666 0.134521 -0.148354 0 0 255
-0.453630 0.111683 -0.274265 0 0 255
-0.518759 0.111683 0.086776 0 0 255
0.553289 -0.044361 0.202415 153 0 76
-0.526250 -0.350987 -0.189638 153 76 0
0.570899 0.050908 0.246026 153 0 76
-0.380721 -0.021541 0.163989 76 153 0
0.230291 0.077244 -0.119389 76 0 153
0.193510 0.111683 -0.080048 0 0 255
0.753020 0.111683 -0.189039 0 0 255
0.021094 0.111683 -0.249257 0 0 255
-0.551192 -0.071024 -0.162146 76 0 153
-0.411357 0.134521 -0.109325 0 0 255
0.039424 0.034034 0.211629 127 0 127
-0.422652 0.012377 -0.210743 76 153 0
0.135842 -0.013928 -0.146483 153 0 76
0.545215 0.111683 0.119535 0 0 255
-0.224045 0.134521 -0.015121 0 0 255
-0.186436 -0.013928 0.146499 76 153 0
-0.672290 0.134521 0.061632 0 0 255
-0.010690 0.111683 -0.185274 0 0 255
-0.296006 -0.022243 -0.233581 76 153 0
-0.091915 0.073619 -0.150851 76 0 153
-0.332148 0.134521 -0.013728 0 0 255
-0.554240 0.111683 -0.053951 76 0 153
-0.366760 0.091182 0.242219 153 0 76
0.358412 0.134521 0.168141 0 0 255
0.480719 -0.038399 -0.233581 76 153 0
-0.396937 -0.042396 -0.233581 76 153 0
-0.250760 -0.054034 -0.180291 127 127 0
0.018878 -0.055799 0.165054 0 127 127
0.640219 0.134521 0.109281 0 0 255
0.156372 0.073619 -0.152746 76 0 153
0.557121 -0.277940 -0.202396 76 0 153
-0.106868 0.111683 -0.138259 0 0 255
-0.508341 0.111683 0.295300 0 0 255
-0.559300 -0.572292 0.221601 204 51 127
0.120139 -0.021541 0.150745 153 0 76
-0.194775 -0.013928 -0.109631 76 153 0
-0.459043 0.111683 -0.090158 0 0 255
0.534257 0.041503 0.132884 0 127 127
-0.232087 0.111683 0.057075 0 0 255
-0.561988 0.013785 0.212411 204 51 127
0.575697 -0.656369 0.198580 153 0 76
-0.056010 0.111683 -0.190217 0 0 255
-0.331633 -0.013928 0.209539 76 153 0
-0.221296 0.055239 -0.210743 76 153 0
0.563862 -0.595012 0.202256 153 0 76
0.595812 0.134521 -0.285367 0 0 255
-0.365333 0.111683 -0.200786 0 0 255
