ply
format ascii 1.0
element vertex 1276
property float x
property float y
property float z
property uchar red
property uchar green
property uchar blue
end_header
-0.215345 -0.504150 -0.075998 153 0 76
0.037368 -0.899132 0.040670 153 0 76
-0.121016 0.098717 -0.208962 153 0 76
0.112884 -0.093205 -0.185135 153 0 76
0.248276 -0.586647 -0.002453 153 0 76
0.184198 0.188977 0.176357 153 0 76
-0.199449 0.317697 -0.143799 153 0 76
0.135977 -0.610554 0.215569 153 0 76
-0.190415 -0.679077 0.173757 153 0 76
-0.016912 0.593107 -0.216678 153 0 76
-0.009516 -0.889231 0.007652 153 0 76
0.046406 -0.904824 0.080338 153 0 76
-0.193547 -0.904835 0.010795 153 0 76
-0.011545 0.460716 -0.241319 153 0 76
0.241668 0.105122 -0.056261 153 0 76
-0.045669 0.089194 0.242531 153 0 76
-0.072845 -0.506579 0.223637 153 0 76
0.053846 0.992838 0.084304 153 76 0
0.017760 0.397460 -0.245285 153 0 76
0.194791 -0.272278 -0.086291 153 0 76
-0.169342 -0.749876 0.196614 153 0 76
0.088771 0.253630 -0.230701 153 0 76
0.098464 -0.379492 0.199359 153 0 76
0.205446 -0.453464 -0.092960 153 0 76
-0.143843 -0.533074 0.189319 153 0 76
0.159331 -0.446776 -0.156611 153 0 76
-0.192260 -0.279243 -0.082682 153 0 76
-0.159389 0.240022 -0.187100 153 0 76
0.177425 -0.202509 0.125277 153 0 76
0.151198 -0.055521 0.169042 153 0 76
0.055356 -0.372044 -0.206934 153 0 76
-0.176864 -0.198316 -0.112159 153 0 76
0.125943 0.111912 -0.211011 153 0 76
0.125092 -0.345227 0.180564 153 0 76
-0.122309 -0.521366 0.202844 153 0 76
0.248682 -0.719132 0.079951 153 0 76
0.098948 0.456088 0.229767 153 0 76
-0.005176 -0.156171 0.217783 153 0 76
0.224805 0.145873 0.118115 153 0 76
-0.226523 -0.480782 0.002413 153 0 76
0.189182 -0.240645 0.105407 153 0 76
-0.103262 0.000013 0.207352 153 0 76
-0.243547 0.248853 -0.041847 153 0 76
0.033668 0.681395 -0.185189 153 0 76
0.076448 0.309080 0.243073 153 0 76
-0.034957 0.922866 -0.128507 153 76 0
0.131109 0.975645 -0.039051 153 76 0
-0.204536 -0.443254 -0.081827 153 0 76
0.201494 0.088775 0.143338 153 0 76
-0.075552 -0.631222 0.244309 153 0 76
-0.127771 0.415954 0.216211 153 0 76
-0.041283 -0.617023 0.250813 153 0 76
0.217790 -0.728237 -0.138259 153 0 76
-0.074023 -0.270480 0.202485 153 0 76
0.145089 0.765331 0.054639 153 0 76
0.196424 -0.718928 -0.166063 153 0 76
-0.224332 0.560527 0.038733 153 0 76
0.123505 0.947800 0.067801 153 76 0
-0.001577 -0.607071 -0.245723 153 0 76
-0.065781 -0.851756 -0.234411 153 0 76
0.231632 0.018933 0.033516 153 0 76
0.103270 -0.467011 -0.199429 153 0 76
-0.253757 -0.728794 -0.024734 153 0 76
-0.164728 -0.020686 -0.149451 153 0 76
0.001413 -0.562198 -0.237955 153 0 76
-0.223885 -0.580982 -0.089910 153 0 76
-0.046473 -0.081969 0.217876 153 0 76
-0.251323 -0.673793 0.039290 153 0 76
-0.108412 -0.809034 -0.225376 153 0 76
0.198805 0.345463 -0.150422 153 0 76
0.190730 -0.472928 0.131305 153 0 76
0.201139 -0.106692 -0.084012 153 0 76
-0.070415 -0.112122 0.208784 153 0 76
0.251808 0.374990 -0.010599 153 0 76
-0.037291 -0.866469 -0.231189 153 0 76
0.179126 -0.498077 -0.144633 153 0 76
0.077156 -0.669919 0.248832 153 0 76
-0.184666 -0.621624 0.172617 153 0 76
-0.047409 -0.222699 0.210624 153 0 76
0.130416 0.915212 0.051117 153 76 0
-0.003224 -0.374301 0.220717 153 0 76
0.156269 -0.410876 -0.154734 153 0 76
-0.123278 0.872388 0.078594 76 0 153
-0.024672 0.104174 -0.240686 153 0 76
0.146308 -0.023549 0.177564 153 0 76
-0.007459 -0.900484 0.212397 153 0 76
-0.081490 -0.716929 -0.239874 153 0 76
-0.128154 0.528377 -0.192990 153 0 76
0.243529 0.435600 0.060502 153 0 76
0.067207 -0.552100 0.234590 153 0 76
-0.028219 -0.306854 0.215181 153 0 76
0.028144 0.176933 -0.244763 153 0 76
0.118572 0.555362 -0.195505 153 0 76
0.143196 0.775719 -0.032079 153 0 76
0.035008 -0.795057 0.257008 153 0 76
-0.160483 -0.731840 0.203693 153 0 76
0.191486 -0.560429 -0.145165 153 0 76
-0.243343 -0.783913 -0.069933 153 0 76
-0.035966 0.276355 0.250882 153 0 76
0.024947 0.770184 -0.143063 153 0 76
-0.085534 -0.225733 0.197338 153 0 76
-0.075200 0.905403 0.119583 153 76 0
0.230693 -0.778197 0.121288 153 0 76
0.143583 0.454836 0.205080 153 0 76
0.196368 0.675274 -0.008931 153 0 76
0.091545 -0.349182 0.200074 153 0 76
-0.098085 -0.446856 0.204726 153 0 76
-0.172264 -0.883212 -0.139903 153 0 76
-0.164999 -0.044249 -0.144960 153 0 76
-0.170573 -0.243759 0.127678 153 0 76
-0.106856 -0.723723 0.237391 153 0 76
-0.175301 0.695479 0.059354 153 0 76
-0.184108 -0.802267 -0.170968 153 0 76
-0.209410 -0.150179 0.042144 153 0 76
-0.175823 0.703104 -0.038726 153 0 76
0.134184 0.828436 -0.011726 153 0 76
0.224716 0.425679 0.114316 153 0 76
0.175664 -0.064672 0.141049 153 0 76
0.220988 0.550810 -0.071843 153 0 76
-0.070921 0.518348 -0.222421 153 0 76
-0.169336 0.337843 -0.178956 153 0 76
-0.165973 0.159335 -0.181961 153 0 76
-0.110293 0.069403 0.215845 153 0 76
0.072696 0.661142 -0.182631 153 0 76
-0.085523 0.122144 0.236293 153 0 76
0.149840 0.693653 0.118285 153 0 76
-0.201724 0.413408 0.146557 153 0 76
-0.242320 0.297485 0.056854 153 0 76
0.063725 0.587798 -0.210679 153 0 76
0.103061 0.390331 0.231987 153 0 76
0.008081 0.992838 0.118648 153 76 0
0.157930 0.197966 0.199312 153 0 76
0.227643 0.445781 -0.096320 153 0 76
-0.115724 0.155461 0.224591 153 0 76
0.236177 -0.645181 -0.094472 153 0 76
0.153761 -0.828776 -0.197765 153 0 76
-0.143578 0.863534 0.015082 76 0 153
-0.239176 -0.578037 0.041674 153 0 76
-0.012840 -0.439288 -0.219163 153 0 76
0.145522 -0.893749 0.168012 153 0 76
-0.155387 0.313342 -0.190178 153 0 76
0.183444 -0.890697 -0.121885 153 0 76
-0.142255 0.675061 0.133686 153 0 76
0.219641 0.391134 0.128305 153 0 76
-0.208011 0.506335 -0.111817 153 0 76
-0.163756 -0.459211 0.157058 153 0 76
0.223715 -0.483861 0.062956 153 0 76
-0.208775 -0.630730 -0.135760 153 0 76
-0.210048 -0.688336 0.148901 153 0 76
0.217348 -0.138222 -0.007009 153 0 76
0.220784 -0.408667 0.029073 153 0 76
-0.082582 0.508160 0.227502 153 0 76
0.000210 -0.197516 0.216654 153 0 76
0.080693 -0.845410 0.240313 153 0 76
0.216543 -0.145519 0.022258 153 0 76
0.179801 0.115862 -0.170160 153 0 76
-0.081109 0.992838 -0.019396 153 76 0
0.034926 -0.674870 0.257824 153 0 76
0.224614 -0.664345 -0.123653 153 0 76
-0.043174 -0.496217 -0.222297 153 0 76
-0.001937 0.222893 0.253485 153 0 76
0.061647 -0.231208 -0.200436 153 0 76
0.040613 -0.905011 -0.131696 153 0 76
0.185157 -0.799404 -0.174879 153 0 76
0.022036 -0.331377 -0.210131 153 0 76
-0.003657 -0.905011 0.170992 153 0 76
-0.071681 0.837926 -0.108916 76 0 153
0.126598 0.123444 0.221125 153 0 76
-0.101712 -0.508796 -0.204264 153 0 76
0.157754 0.005382 -0.165803 153 0 76
0.079269 -0.905011 0.150120 153 0 76
0.195019 0.432629 0.159376 153 0 76
0.217776 0.125592 0.130196 153 0 76
0.053494 -0.852789 -0.237191 153 0 76
-0.103589 0.961576 -0.082507 153 76 0
-0.234223 0.163705 0.085833 153 0 76
-0.045681 -0.743584 -0.249141 153 0 76
0.135304 0.741425 -0.092253 153 0 76
-0.075146 -0.136353 0.205077 153 0 76
-0.117094 0.691504 0.148583 153 0 76
0.248494 -0.666216 0.073014 153 0 76
0.059330 -0.761114 -0.247146 153 0 76
0.083347 0.809805 -0.101712 153 0 76
0.156750 -0.095476 0.159032 153 0 76
-0.135513 -0.178531 -0.159657 153 0 76
-0.107539 -0.069311 0.195674 153 0 76
-0.179900 0.645919 -0.091232 153 0 76
0.141173 -0.148867 0.167564 153 0 76
0.243974 0.372894 0.068958 153 0 76
0.203591 0.015726 0.118283 153 0 76
-0.222887 0.199936 -0.105633 153 0 76
-0.218958 0.194330 0.121668 153 0 76
-0.033737 0.145462 -0.243325 153 0 76
0.189180 -0.082835 -0.111341 153 0 76
0.239231 0.145013 0.083734 153 0 76
0.151492 -0.688659 -0.205165 153 0 76
-0.205318 0.358274 -0.136120 153 0 76
0.038948 -0.895529 0.215745 153 0 76
-0.211236 -0.030332 0.076018 153 0 76
-0.239292 -0.773712 0.090856 153 0 76
0.015222 0.992838 0.077458 153 76 0
-0.028466 0.122934 0.250402 153 0 76
-0.222120 -0.771588 0.130496 153 0 76
-0.071322 -0.355753 -0.199586 153 0 76
0.111944 -0.628666 -0.223580 153 0 76
-0.093729 0.734912 0.141827 153 0 76
-0.158562 0.721088 0.071634 153 0 76
0.163566 -0.116825 -0.141825 153 0 76
0.235071 0.179131 0.094507 153 0 76
-0.179821 -0.046547 0.133027 153 0 76
-0.198999 -0.197645 -0.066829 153 0 76
0.152382 0.496660 0.192352 153 0 76
0.223474 0.592238 -0.003003 153 0 76
-0.063964 -0.414835 -0.206893 153 0 76
0.104514 -0.904878 0.160136 153 0 76
-0.150793 0.749238 0.050342 153 0 76
0.087468 0.596628 -0.199246 153 0 76
-0.009620 -0.593550 0.250907 153 0 76
0.066063 -0.173814 0.207866 153 0 76
0.213179 -0.377920 0.058151 153 0 76
-0.178798 0.141810 -0.169474 153 0 76
0.250586 -0.824875 -0.042891 153 0 76
-0.038580 0.986644 -0.120120 153 76 0
0.037423 0.992838 0.051624 153 76 0
0.248825 0.445376 0.017106 153 0 76
0.007715 0.636528 -0.204207 153 0 76
-0.009671 0.946468 0.140001 153 76 0
-0.136952 0.907235 0.010637 153 76 0
0.016355 -0.905011 -0.164560 153 0 76
-0.219024 0.220082 -0.113834 153 0 76
0.034305 0.525829 0.237688 153 0 76
0.220225 -0.691123 0.141231 153 0 76
-0.164515 -0.449391 -0.147442 153 0 76
-0.209148 -0.816608 0.144727 153 0 76
0.128347 0.665773 -0.148258 153 0 76
-0.060665 0.798125 -0.117799 153 0 76
0.057015 -0.904965 -0.178564 153 0 76
-0.174429 -0.764507 -0.183943 153 0 76
-0.211593 -0.076321 -0.049550 153 0 76
0.222600 0.389262 -0.114096 153 0 76
-0.221898 -0.496567 0.059954 153 0 76
0.133271 -0.653688 0.223158 153 0 76
0.196736 0.138442 -0.152716 153 0 76
0.236050 -0.521505 -0.012873 153 0 76
0.152459 -0.135015 -0.151824 153 0 76
-0.104594 0.246142 0.229635 153 0 76
0.138450 -0.484244 0.187506 153 0 76
-0.070396 -0.905011 -0.079725 153 0 76
-0.022347 -0.172383 0.215989 153 0 76
-0.034082 0.894379 0.138830 76 0 153
-0.058176 0.286424 -0.239135 153 0 76
0.175712 0.705070 -0.050361 153 0 76
-0.152562 0.650453 0.135917 153 0 76
-0.136717 0.614458 -0.160635 153 0 76
0.116188 0.886455 0.089780 76 0 153
0.021974 0.745664 0.164811 153 0 76
0.166849 -0.905010 -0.034974 153 0 76
0.143914 0.872607 -0.028463 76 0 153
0.001725 -0.894109 -0.028794 153 0 76
-0.210536 -0.186024 0.021575 153 0 76
-0.218546 -0.886360 0.039357 153 0 76
-0.247348 0.310851 0.022422 153 0 76
-0.211078 -0.294096 0.007173 153 0 76
-0.019842 -0.395959 -0.214135 153 0 76
-0.119870 0.727500 -0.117416 153 0 76
-0.061422 -0.791280 0.251675 153 0 76
-0.031324 0.729388 -0.163054 153 0 76
-0.160631 -0.678452 0.201924 153 0 76
0.189768 -0.240299 -0.096656 153 0 76
0.024269 -0.002650 -0.223646 153 0 76
-0.063625 0.707998 0.171366 153 0 76
0.235418 0.542122 -0.001218 153 0 76
-0.108560 0.862583 -0.093141 76 0 153
0.120040 -0.905011 0.094637 153 0 76
-0.163942 -0.085843 -0.139772 153 0 76
-0.116287 0.934659 -0.068061 153 76 0
0.193426 0.665285 0.056028 153 0 76
0.038261 -0.870969 -0.228244 153 0 76
0.037312 0.089897 -0.236958 153 0 76
0.049597 -0.560741 0.240523 153 0 76
0.177296 0.386885 0.183055 153 0 76
-0.055756 -0.870808 0.231943 153 0 76
-0.070430 -0.238611 0.203731 153 0 76
0.192799 0.521421 0.144867 153 0 76
0.052414 0.036329 0.232572 153 0 76
0.251530 -0.619280 -0.025444 153 0 76
0.035337 -0.156880 -0.208122 153 0 76
-0.031749 -0.903767 0.056854 153 0 76
0.161360 0.751334 -0.005708 153 0 76
0.038321 -0.663071 -0.248841 153 0 76
0.108434 -0.905011 -0.042481 153 0 76
-0.107747 0.043794 0.212227 153 0 76
0.213016 -0.400320 0.065443 153 0 76
-0.106739 -0.567118 0.220535 153 0 76
-0.060622 -0.657198 -0.243448 153 0 76
-0.140188 0.507018 0.196266 153 0 76
0.171448 0.727784 0.029177 153 0 76
0.208777 -0.463037 0.096093 153 0 76
-0.213711 -0.129812 0.006634 153 0 76
-0.037691 -0.635167 -0.245929 153 0 76
-0.242547 0.226117 0.055504 153 0 76
0.020638 -0.002427 0.231797 153 0 76
-0.076250 0.984581 -0.101807 153 76 0
0.205509 -0.154755 -0.065196 153 0 76
-0.151478 0.055896 -0.177158 153 0 76
-0.133723 -0.642775 -0.211281 153 0 76
-0.221029 0.460578 -0.098137 153 0 76
0.177001 -0.562116 0.171246 153 0 76
-0.051966 -0.905011 0.116113 153 0 76
0.186286 -0.219747 0.111187 153 0 76
0.022058 -0.619465 0.254445 153 0 76
0.163886 -0.467508 -0.155794 153 0 76
-0.064840 -0.317017 -0.199618 153 0 76
0.021128 0.807281 -0.128144 153 0 76
0.196026 -0.207924 0.091475 153 0 76
0.153082 -0.366723 -0.152805 153 0 76
0.176907 0.014925 0.155053 153 0 76
0.140488 -0.905011 0.076910 153 0 76
0.009413 -0.857432 -0.240284 153 0 76
0.088900 0.992838 0.016775 153 76 0
-0.212458 -0.438456 -0.058273 153 0 76
-0.216521 0.234644 0.126647 153 0 76
-0.022637 0.782070 -0.136125 153 0 76
-0.184783 0.539407 -0.136196 153 0 76
-0.061574 0.164503 0.245741 153 0 76
0.012901 -0.904962 -0.190164 153 0 76
0.088556 0.775335 0.121406 153 0 76
0.118246 -0.031633 0.197197 153 0 76
-0.194082 -0.755494 0.170562 153 0 76
0.229905 -0.542391 0.073495 153 0 76
0.087112 -0.905011 0.120133 153 0 76
-0.197937 -0.151272 0.081774 153 0 76
-0.101398 0.992838 -0.031242 153 76 0
-0.128383 -0.905011 -0.002589 153 0 76
0.251919 0.236930 0.016818 153 0 76
0.135625 -0.888113 -0.173993 153 0 76
0.173764 -0.654228 -0.184791 153 0 76
0.096698 -0.550080 0.223476 153 0 76
0.205796 -0.792199 0.158070 153 0 76
-0.129211 -0.279484 0.171141 153 0 76
0.236692 0.386017 0.089715 153 0 76
0.180206 0.701628 0.048964 153 0 76
0.014023 -0.314819 0.217172 153 0 76
0.176392 0.628942 -0.114907 153 0 76
-0.203897 -0.290889 0.059500 153 0 76
0.175515 0.721479 -0.014977 153 0 76
-0.125421 0.780309 -0.062868 153 0 76
0.193285 -0.859296 -0.145315 153 0 76
0.115083 0.410005 0.226159 153 0 76
-0.148226 0.741943 -0.061246 153 0 76
-0.234839 0.061692 0.027414 153 0 76
-0.061479 -0.599967 -0.236388 153 0 76
-0.129169 -0.481415 -0.183294 153 0 76
0.060578 -0.021000 -0.214984 153 0 76
-0.009207 -0.905011 0.114914 153 0 76
0.093098 0.095469 0.230595 153 0 76
0.013105 0.370751 0.253475 153 0 76
-0.129907 0.578146 -0.178308 153 0 76
0.247378 -0.626857 0.063555 153 0 76
0.228223 0.028914 -0.053966 153 0 76
-0.232101 0.496639 0.062023 153 0 76
-0.003062 0.388028 0.253423 153 0 76
0.246716 -0.600627 0.047306 153 0 76
0.093645 0.909849 0.105793 153 76 0
0.193012 0.064157 -0.139494 153 0 76
0.122136 -0.216638 -0.172164 153 0 76
0.123259 0.053073 -0.200267 153 0 76
-0.177534 -0.243402 -0.110155 153 0 76
-0.076774 0.046369 0.226028 153 0 76
-0.166660 0.405867 -0.180282 153 0 76
0.049162 -0.383884 0.216719 153 0 76
0.111597 0.762748 0.111274 153 0 76
0.248219 0.369539 -0.039763 153 0 76
0.079613 -0.097087 0.207875 153 0 76
-0.248100 0.169366 0.002087 153 0 76
0.174715 -0.582472 0.179356 153 0 76
-0.188713 0.683160 0.006902 153 0 76
0.225908 -0.454045 0.028905 153 0 76
0.220144 0.299625 -0.120531 153 0 76
0.134334 0.187009 -0.209229 153 0 76
0.170838 -0.869332 0.169587 153 0 76
-0.180900 -0.087545 0.124602 153 0 76
0.106575 -0.324223 -0.183835 153 0 76
0.252598 0.283192 0.004075 153 0 76
-0.011335 0.762871 0.155970 153 0 76
0.217573 -0.019758 -0.065149 153 0 76
0.249393 0.273012 -0.032046 153 0 76
0.128605 0.612728 -0.170981 153 0 76
-0.156192 -0.905011 0.019853 153 0 76
0.234091 -0.603426 -0.085465 153 0 76
0.198479 0.066256 0.140514 153 0 76
-0.221635 0.530211 -0.070096 153 0 76
0.170184 -0.031908 -0.145999 153 0 76
0.164880 -0.066204 -0.146724 153 0 76
0.191866 -0.026549 0.126450 153 0 76
-0.163829 0.565317 0.160907 153 0 76
0.247759 0.164821 0.050862 153 0 76
-0.158586 0.514877 -0.172699 153 0 76
-0.153464 -0.905011 0.063684 153 0 76
0.145210 -0.905011 -0.005250 153 0 76
0.062550 0.027682 -0.221262 153 0 76
-0.109290 -0.087511 -0.185184 153 0 76
-0.251443 -0.791398 -0.027056 153 0 76
0.218082 0.056113 -0.095046 153 0 76
0.114400 -0.031394 -0.191853 153 0 76
-0.220427 -0.461481 -0.035501 153 0 76
0.104468 -0.905011 0.009451 153 0 76
0.023956 0.325409 0.252454 153 0 76
0.009104 0.036256 -0.230188 153 0 76
0.163733 -0.346697 -0.139474 153 0 76
0.177183 0.592488 -0.131657 153 0 76
-0.238965 0.129347 -0.061008 153 0 76
-0.072450 0.992838 -0.059327 153 76 0
0.065991 0.679314 0.185529 153 0 76
-0.217733 -0.756227 -0.131100 153 0 76
-0.107362 0.279614 0.228613 153 0 76
0.137515 0.965904 -0.014386 153 76 0
0.118614 0.759245 -0.098030 153 0 76
0.138909 0.554606 -0.181481 153 0 76
-0.207543 -0.432192 0.078894 153 0 76
0.176473 0.163614 0.184254 153 0 76
0.173519 0.315185 -0.179188 153 0 76
-0.068836 -0.905011 -0.101020 153 0 76
0.182059 -0.300686 -0.111155 153 0 76
-0.197112 -0.878707 0.117978 153 0 76
0.114419 0.992838 -0.029465 153 76 0
0.000693 -0.333550 0.218500 153 0 76
0.171482 0.361539 0.188696 153 0 76
0.190517 -0.398460 0.116998 153 0 76
0.053341 -0.705230 -0.248410 153 0 76
0.036089 -0.216639 0.213639 153 0 76
-0.161395 0.664218 -0.108529 153 0 76
-0.024015 0.059650 -0.232495 153 0 76
-0.215806 -0.553589 -0.095984 153 0 76
-0.244691 0.314033 0.042727 153 0 76
0.247193 -0.615650 -0.050449 153 0 76
0.193560 0.245142 -0.156799 153 0 76
0.120181 -0.440025 0.193916 153 0 76
-0.192222 0.666666 -0.030277 153 0 76
-0.071900 0.296577 0.243099 153 0 76
-0.246590 0.416846 -0.002123 153 0 76
0.093054 0.992838 -0.044791 153 76 0
-0.228429 -0.678410 0.116447 153 0 76
0.179370 0.090684 0.171624 153 0 76
-0.181519 -0.334377 -0.108377 153 0 76
-0.193831 -0.236345 0.085777 153 0 76
0.096914 -0.905011 0.082880 153 0 76
0.219182 -0.106182 0.014594 153 0 76
-0.128268 0.775943 0.069199 153 0 76
0.163944 0.232886 0.194474 153 0 76
-0.189978 0.102765 -0.149268 153 0 76
0.063451 0.992838 -0.069444 153 76 0
0.077610 0.395320 -0.234432 153 0 76
-0.120486 -0.905011 0.035623 153 0 76
-0.036721 -0.129451 0.216365 153 0 76
0.165962 -0.179590 -0.133524 153 0 76
-0.097311 0.960826 0.098859 153 76 0
-0.196612 -0.066575 -0.093078 153 0 76
0.062503 -0.274915 -0.200462 153 0 76
0.191853 0.233557 0.167215 153 0 76
0.115688 0.728344 -0.123511 153 0 76
0.185109 -0.188342 -0.106787 153 0 76
0.045924 -0.822795 0.252938 153 0 76
0.097300 -0.687672 -0.234507 153 0 76
-0.071747 -0.548515 -0.223594 153 0 76
-0.074883 0.781354 0.124013 153 0 76
-0.059069 0.650246 -0.190422 153 0 76
0.226298 0.118306 0.109727 153 0 76
-0.047501 0.859619 0.145383 76 0 153
-0.087626 0.869237 -0.112721 76 0 153
0.006990 0.493946 0.245098 153 0 76
-0.207339 0.221200 -0.133511 153 0 76
-0.226947 -0.653557 -0.107978 153 0 76
0.211200 -0.769386 0.153194 153 0 76
0.203764 -0.802735 -0.151762 153 0 76
0.185562 -0.904984 0.010989 153 0 76
0.055164 -0.548020 -0.229165 153 0 76
-0.076726 0.805073 -0.105550 153 0 76
-0.235489 0.442265 0.073678 153 0 76
0.167233 0.691363 -0.085042 153 0 76
0.123913 -0.490594 0.199375 153 0 76
0.049074 0.663671 0.196936 153 0 76
0.094909 0.743312 0.138670 153 0 76
0.089505 0.715312 -0.150641 153 0 76
-0.013146 -0.701006 0.260811 153 0 76
0.184126 0.701605 -0.018944 153 0 76
0.061268 -0.416780 -0.209280 153 0 76
-0.193486 0.565681 0.122256 153 0 76
-0.032717 -0.568226 -0.235941 153 0 76
0.166412 -0.517216 0.171259 153 0 76
-0.177167 -0.125499 -0.117254 153 0 76
-0.238770 -0.557848 0.002753 153 0 76
0.194721 -0.409173 -0.103970 153 0 76
-0.138353 -0.825105 0.214401 153 0 76
0.257434 -0.791949 -0.013600 153 0 76
0.169808 -0.727885 0.199964 153 0 76
0.233003 0.392062 -0.090668 153 0 76
0.239809 0.237251 -0.074672 153 0 76
-0.121973 -0.670648 -0.220752 153 0 76
0.030174 0.122560 0.250648 153 0 76
-0.045852 0.939414 0.131725 153 76 0
-0.171898 -0.568271 0.173238 153 0 76
-0.045977 0.433771 -0.239226 153 0 76
-0.221630 0.085329 0.097042 153 0 76
-0.108563 -0.477073 -0.196178 153 0 76
0.191393 -0.760465 0.179228 153 0 76
0.093587 -0.271200 -0.188436 153 0 76
-0.042147 0.992838 0.014046 153 76 0
0.043092 0.189553 0.250301 153 0 76
-0.194033 -0.434116 0.110100 153 0 76
0.133243 -0.794587 -0.216279 153 0 76
0.207884 -0.274956 -0.051432 153 0 76
-0.025372 -0.101541 -0.212171 153 0 76
-0.221043 0.325654 -0.109718 153 0 76
0.175382 -0.272920 -0.119601 153 0 76
0.255146 -0.761697 0.049629 153 0 76
-0.087367 0.700713 0.164490 153 0 76
-0.001278 -0.302883 -0.209711 153 0 76
-0.092377 -0.153515 -0.189126 153 0 76
-0.078932 -0.106834 -0.197947 153 0 76
0.240202 0.061290 -0.004255 153 0 76
0.251454 0.136214 0.019841 153 0 76
0.234306 0.499022 0.068394 153 0 76
0.183956 -0.904648 0.056709 153 0 76
0.217110 0.248398 0.133098 153 0 76
-0.083554 0.952024 -0.103169 153 76 0
-0.139824 0.146619 -0.202050 153 0 76
0.075864 0.213872 0.242585 153 0 76
-0.050400 -0.435350 0.220526 153 0 76
0.099833 0.507943 0.222428 153 0 76
-0.245872 0.197114 0.033927 153 0 76
0.214807 -0.211228 -0.001570 153 0 76
-0.134284 0.311672 -0.206356 153 0 76
0.213455 -0.141009 0.045427 153 0 76
0.120988 0.602546 0.187640 153 0 76
0.160782 -0.789830 0.204301 153 0 76
0.052636 0.262554 0.248777 153 0 76
0.255590 -0.821788 0.005756 153 0 76
-0.237820 0.184811 -0.068079 153 0 76
0.077224 -0.792668 0.248525 153 0 76
0.246017 -0.767263 0.085286 153 0 76
0.188987 -0.727542 0.182636 153 0 76
-0.173204 -0.859809 -0.165081 153 0 76
-0.089282 -0.102643 0.201664 153 0 76
-0.227578 -0.745542 0.121182 153 0 76
0.216132 -0.426573 0.064478 153 0 76
0.116658 -0.854027 0.221700 153 0 76
0.257530 -0.730262 0.037813 153 0 76
0.140610 -0.102035 0.172260 153 0 76
0.141887 0.261327 -0.203934 153 0 76
-0.149987 -0.255360 0.152206 153 0 76
-0.140791 0.368940 0.208850 153 0 76
0.156256 0.499176 -0.181205 153 0 76
-0.235854 -0.843704 0.081818 153 0 76
0.258279 -0.694504 -0.019816 153 0 76
0.217600 0.521318 -0.095311 153 0 76
0.072344 0.266439 -0.236814 153 0 76
-0.241961 -0.661836 0.079362 153 0 76
0.142648 0.854677 0.046968 76 0 153
0.112650 0.063299 0.215598 153 0 76
-0.146862 -0.661176 0.211014 153 0 76
-0.240137 -0.680931 0.087916 153 0 76
-0.171489 -0.676913 -0.185500 153 0 76
0.190939 0.547848 0.138773 153 0 76
-0.151325 -0.785344 0.208590 153 0 76
0.221941 -0.075968 0.018033 153 0 76
-0.219816 0.056368 0.087742 153 0 76
0.252028 0.212082 0.016758 153 0 76
0.208858 -0.894627 -0.062991 153 0 76
-0.026006 0.636481 -0.202372 153 0 76
-0.156973 -0.389701 -0.146883 153 0 76
0.133007 0.638391 0.164945 153 0 76
-0.006540 0.566689 -0.223842 153 0 76
0.086642 -0.900564 0.190808 153 0 76
-0.026800 0.748737 0.161823 153 0 76
-0.028475 0.531471 -0.229213 153 0 76
-0.165869 -0.347159 -0.131237 153 0 76
0.086840 0.869611 0.124278 76 0 153
0.234815 -0.855350 -0.072078 153 0 76
-0.217591 -0.029402 0.052649 153 0 76
0.154324 -0.304562 -0.146925 153 0 76
-0.169002 0.687039 -0.076912 153 0 76
-0.170019 -0.329028 -0.124233 153 0 76
-0.119431 0.320900 -0.215427 153 0 76
0.190822 -0.641116 0.174267 153 0 76
0.222213 -0.855667 0.111284 153 0 76
0.196814 0.195545 0.160758 153 0 76
-0.019455 0.017870 0.234033 153 0 76
-0.018215 0.906931 0.141249 153 76 0
0.107194 0.088288 -0.215694 153 0 76
-0.183414 0.276475 -0.164575 153 0 76
-0.031075 0.992838 0.073561 153 76 0
-0.101574 -0.538357 0.217102 153 0 76
0.182171 0.178530 -0.170386 153 0 76
-0.139203 0.674264 -0.130486 153 0 76
0.061572 -0.011558 0.223638 153 0 76
-0.201838 -0.875430 -0.106938 153 0 76
0.037130 -0.714121 0.258938 153 0 76
0.219794 -0.455205 0.064491 153 0 76
-0.213002 -0.570569 0.117598 153 0 76
0.035611 0.457923 -0.239431 153 0 76
0.049924 -0.616229 0.249973 153 0 76
0.114237 0.793706 -0.074473 153 0 76
0.139979 -0.232340 -0.158258 153 0 76
0.208203 -0.268576 0.057338 153 0 76
-0.246717 -0.844671 -0.005255 153 0 76
0.244793 0.279974 0.065596 153 0 76
-0.254003 -0.776963 -0.010142 153 0 76
0.007269 0.347033 0.253738 153 0 76
-0.249098 -0.816457 0.036930 153 0 76
-0.098149 0.937741 0.099234 153 76 0
-0.234389 -0.535804 0.012842 153 0 76
-0.043947 -0.669716 -0.247700 153 0 76
0.006830 0.718607 -0.171523 153 0 76
0.174715 -0.388231 -0.130021 153 0 76
-0.237979 -0.856953 -0.042796 153 0 76
0.096037 0.884481 -0.104809 76 0 153
-0.149896 0.685267 0.117876 153 0 76
-0.220793 0.160165 -0.110222 153 0 76
-0.183560 -0.067074 0.123936 153 0 76
0.224899 -0.024867 0.040602 153 0 76
-0.001033 0.948289 -0.133407 153 76 0
-0.228787 0.300193 -0.091296 153 0 76
-0.179587 0.066968 -0.151900 153 0 76
0.103940 -0.395860 -0.190774 153 0 76
0.036850 -0.075978 -0.213313 153 0 76
-0.112694 0.979232 0.074792 153 76 0
0.102244 -0.818906 0.236422 153 0 76
0.190743 0.358432 0.168298 153 0 76
-0.064957 -0.904154 -0.035208 153 0 76
0.052904 -0.773614 0.255497 153 0 76
0.020453 0.662272 -0.194657 153 0 76
0.125845 -0.597149 -0.211445 153 0 76
0.205974 0.213528 0.148804 153 0 76
0.081465 -0.905011 -0.110931 153 0 76
0.017692 0.017741 0.234644 153 0 76
-0.166877 -0.708717 -0.190813 153 0 76
-0.065998 0.322511 -0.237288 153 0 76
0.204281 -0.241277 -0.062723 153 0 76
-0.211186 -0.339605 0.031330 153 0 76
-0.101233 0.557118 -0.201696 153 0 76
-0.062683 -0.905009 0.174490 153 0 76
0.112095 -0.424228 -0.189395 153 0 76
-0.109795 -0.639312 0.231566 153 0 76
0.039787 0.904697 -0.130985 153 76 0
0.089260 0.122936 -0.228936 153 0 76
-0.144852 0.017438 -0.174744 153 0 76
-0.101586 0.432499 0.228751 153 0 76
-0.029994 -0.043717 0.224798 153 0 76
-0.237248 0.251143 0.077387 153 0 76
0.203940 -0.195452 -0.065781 153 0 76
-0.041275 -0.842760 0.249681 153 0 76
0.163586 0.185070 -0.187128 153 0 76
0.020194 -0.632869 -0.248480 153 0 76
0.250374 -0.677911 -0.061039 153 0 76
0.137152 -0.071067 0.178238 153 0 76
0.207848 -0.178989 -0.054715 153 0 76
-0.079273 0.968379 0.113388 153 76 0
0.140036 0.893282 -0.020852 76 0 153
-0.177496 -0.898642 -0.108200 153 0 76
-0.237248 -0.689971 -0.088983 153 0 76
-0.247630 0.356057 -0.008192 153 0 76
0.193752 -0.341340 -0.093317 153 0 76
0.153699 0.055008 -0.178737 153 0 76
-0.235111 -0.709513 -0.095678 153 0 76
0.098846 0.686236 0.167617 153 0 76
-0.087300 0.073485 0.226670 153 0 76
-0.098789 0.992838 -0.050276 153 76 0
-0.009733 -0.355634 -0.211824 153 0 76
-0.218113 -0.438379 -0.032224 153 0 76
0.068372 -0.792026 -0.243227 153 0 76
0.011156 0.206308 -0.246127 153 0 76
-0.252166 -0.659166 0.025082 153 0 76
-0.189542 -0.654836 -0.164392 153 0 76
-0.136909 0.751489 -0.074313 153 0 76
0.147911 0.268909 0.207017 153 0 76
-0.121175 0.970805 -0.054565 153 76 0
0.129090 0.906920 -0.052738 153 76 0
0.149628 0.098335 0.199297 153 0 76
0.200640 -0.895215 0.090729 153 0 76
0.237358 -0.698507 -0.100097 153 0 76
0.011541 0.992838 -0.107937 153 76 0
-0.016343 0.088476 0.246353 153 0 76
0.092195 -0.905011 -0.010986 153 0 76
0.009073 -0.559351 0.244823 153 0 76
0.122020 0.206829 0.223442 153 0 76
-0.191252 -0.303508 0.094559 153 0 76
0.013725 -0.905011 -0.128939 153 0 76
0.188134 -0.476515 -0.127780 153 0 76
-0.088870 -0.905001 0.167323 153 0 76
0.021131 -0.122648 -0.211865 153 0 76
-0.184014 0.394843 0.170636 153 0 76
0.141426 0.873771 0.045417 76 0 153
0.133639 -0.905011 -0.072081 153 0 76
0.118571 0.009533 -0.195554 153 0 76
-0.246447 0.142328 -0.020487 153 0 76
0.094692 0.521381 -0.214302 153 0 76
-0.111216 0.008642 -0.196891 153 0 76
-0.201180 -0.007705 0.107305 153 0 76
0.097246 0.937552 0.104503 153 76 0
0.181806 0.344725 -0.171233 153 0 76
0.215714 -0.353258 0.036585 153 0 76
0.058720 0.440237 0.244837 153 0 76
-0.005526 0.879529 -0.140646 76 0 153
0.102968 -0.024295 0.206117 153 0 76
-0.036634 -0.846335 -0.241849 153 0 76
0.002418 0.075140 -0.237197 153 0 76
-0.126034 0.891271 -0.057722 76 0 153
0.014608 -0.905011 -0.100342 153 0 76
-0.170618 0.105375 -0.172789 153 0 76
-0.190734 -0.571749 -0.143960 153 0 76
-0.169524 0.376203 0.186168 153 0 76
0.039640 0.060855 -0.231128 153 0 76
0.000849 -0.710821 -0.254204 153 0 76
-0.216459 -0.387426 -0.006253 153 0 76
-0.239971 0.092988 0.033460 153 0 76
-0.002828 0.139722 0.253640 153 0 76
0.032638 0.423123 -0.242498 153 0 76
0.025298 0.506589 0.241892 153 0 76
-0.223390 -0.599160 0.106785 153 0 76
0.056641 -0.905009 0.163632 153 0 76
0.018201 -0.258411 0.215594 153 0 76
0.121522 0.776117 0.087618 153 0 76
0.197165 -0.229176 -0.080743 153 0 76
0.166718 0.216009 -0.184597 153 0 76
-0.117547 0.564737 -0.191424 153 0 76
-0.009285 -0.905011 0.152828 153 0 76
0.237240 0.412529 0.086387 153 0 76
-0.163770 0.731060 -0.030254 153 0 76
0.141143 -0.442763 -0.171551 153 0 76
0.011714 0.865750 0.150583 76 0 153
0.227470 -0.014765 -0.021228 153 0 76
-0.132852 -0.039156 0.182278 153 0 76
0.131343 -0.904584 -0.150558 153 0 76
0.138890 0.514022 -0.191567 153 0 76
-0.007535 0.502640 -0.236314 153 0 76
0.240157 0.071623 0.033504 153 0 76
0.220011 -0.732127 0.142968 153 0 76
-0.154430 -0.026115 0.166342 153 0 76
-0.213994 -0.107386 -0.019060 153 0 76
0.122705 0.880234 -0.076691 76 0 153
-0.236058 -0.732051 -0.093924 153 0 76
-0.145386 -0.154524 0.160035 153 0 76
0.216039 0.618327 -0.001506 153 0 76
-0.141314 -0.223339 0.160631 153 0 76
0.020218 -0.144416 -0.210635 153 0 76
-0.133219 0.964216 0.021059 153 76 0
-0.160457 -0.418652 -0.146890 153 0 76
0.188602 0.323464 0.170805 153 0 76
0.209106 0.488282 0.130863 153 0 76
-0.226916 -0.855512 -0.083648 153 0 76
0.030518 -0.685455 -0.251155 153 0 76
0.220116 0.586037 -0.045496 153 0 76
0.011747 0.355282 -0.246096 153 0 76
-0.207095 0.143802 0.141353 153 0 76
0.191604 -0.424472 0.120298 153 0 76
-0.020737 -0.543649 0.240584 153 0 76
0.075194 0.516246 -0.222840 153 0 76
0.114044 0.287342 0.227597 153 0 76
-0.149683 -0.058260 -0.158580 153 0 76
-0.099176 -0.895043 -0.187384 153 0 76
-0.199368 -0.203765 0.073389 153 0 76
-0.198383 -0.096060 0.090101 153 0 76
-0.142360 0.127159 -0.199076 153 0 76
-0.240280 -0.598203 -0.049204 153 0 76
0.243795 0.455545 0.050236 153 0 76
-0.119680 0.613660 -0.174230 153 0 76
0.026732 -0.646249 0.256738 153 0 76
0.003399 -0.411194 0.224326 153 0 76
-0.097272 0.916372 -0.094005 153 76 0
0.173852 -0.301100 0.130822 153 0 76
0.049418 0.628116 0.209202 153 0 76
0.233756 0.506829 -0.057653 153 0 76
-0.189685 0.612912 -0.094513 153 0 76
-0.209968 -0.194359 -0.017348 153 0 76
-0.140863 0.486814 -0.191708 153 0 76
0.205067 0.416542 0.147848 153 0 76
-0.255222 -0.756973 0.002276 153 0 76
0.201385 0.558710 -0.111617 153 0 76
-0.227884 -0.521997 -0.041611 153 0 76
0.216581 0.202111 -0.126223 153 0 76
-0.027630 -0.905011 -0.113943 153 0 76
0.080080 0.143134 -0.233887 153 0 76
-0.067146 0.646094 0.196645 153 0 76
-0.209997 -0.810460 -0.136867 153 0 76
-0.148169 0.022651 0.180823 153 0 76
0.167343 0.440386 -0.180716 153 0 76
0.150269 0.770144 -0.010220 153 0 76
0.135932 -0.701812 0.224609 153 0 76
-0.127585 -0.852851 -0.206936 153 0 76
-0.245177 0.262428 0.039222 153 0 76
0.245829 -0.795980 -0.073286 153 0 76
-0.015149 -0.798118 -0.250885 153 0 76
-0.039224 0.992838 0.034904 153 76 0
-0.130595 -0.400787 0.178544 153 0 76
-0.218344 0.130146 -0.113833 153 0 76
0.220324 0.008276 -0.069947 153 0 76
0.191710 -0.503374 -0.129311 153 0 76
-0.115765 0.860294 0.093433 76 0 153
-0.233030 0.043272 0.011905 153 0 76
0.133747 0.787473 0.051970 153 0 76
-0.178679 0.038876 -0.145563 153 0 76
0.240395 0.512235 0.021111 153 0 76
-0.247316 0.395917 -0.004461 153 0 76
0.201181 0.366329 -0.147186 153 0 76
-0.161867 0.171386 0.192504 153 0 76
-0.155774 -0.044517 0.162092 153 0 76
0.200758 -0.311752 -0.075260 153 0 76
0.123109 0.978197 0.064047 153 76 0
-0.128982 0.751578 0.093795 153 0 76
-0.054203 0.763576 0.145338 153 0 76
0.016030 0.924376 0.139748 153 76 0
0.117900 0.380775 0.225464 153 0 76
0.158971 0.647598 0.135159 153 0 76
-0.242159 -0.732172 0.085993 153 0 76
0.214006 -0.660631 0.146776 153 0 76
-0.005489 0.768058 -0.145624 153 0 76
0.155529 0.613785 0.156089 153 0 76
0.165581 -0.858105 -0.178452 153 0 76
-0.206897 -0.480161 0.095629 153 0 76
0.251186 0.288710 -0.019251 153 0 76
-0.055196 -0.743790 0.255271 153 0 76
-0.022572 0.382098 -0.244663 153 0 76
0.016319 -0.793087 0.259151 153 0 76
0.035219 -0.905011 -0.167255 153 0 76
-0.140404 -0.550345 0.195835 153 0 76
-0.246642 -0.718710 -0.063530 153 0 76
0.063701 -0.498630 -0.219117 153 0 76
0.097207 -0.817444 -0.231070 153 0 76
-0.127494 0.645323 0.162793 153 0 76
-0.134460 0.945094 0.011634 153 76 0
-0.223672 0.255127 0.111422 153 0 76
-0.009913 0.992838 0.011672 153 76 0
0.245743 0.183952 0.061983 153 0 76
-0.038208 -0.289314 -0.205582 153 0 76
0.053862 0.992838 0.064075 153 76 0
0.225621 0.489464 0.096747 153 0 76
0.075033 0.535883 0.226983 153 0 76
-0.048511 0.069273 0.238231 153 0 76
0.052177 0.467736 -0.235892 153 0 76
-0.246756 -0.749765 -0.062455 153 0 76
0.054966 0.525020 -0.226655 153 0 76
0.231697 -0.567908 -0.074389 153 0 76
-0.179354 -0.493927 -0.137689 153 0 76
0.121774 0.902754 0.076449 153 76 0
-0.106260 0.149429 -0.221614 153 0 76
0.057925 0.765213 0.144887 153 0 76
0.009419 0.992838 -0.073246 153 76 0
-0.097214 -0.211440 0.192175 153 0 76
-0.198703 0.319357 0.152512 153 0 76
0.206126 -0.366290 0.078098 153 0 76
0.002898 -0.899106 0.050464 153 0 76
0.113974 -0.905011 0.122125 153 0 76
-0.067944 0.905775 -0.114381 153 76 0
-0.092360 0.539774 0.217468 153 0 76
-0.089353 0.832655 -0.093645 76 0 153
-0.229257 0.456420 0.087011 153 0 76
-0.168661 -0.189873 0.131463 153 0 76
0.218605 -0.114467 -0.008325 153 0 76
0.159771 0.119302 -0.188028 153 0 76
0.148654 0.302590 0.206479 153 0 76
0.027501 0.640008 0.209120 153 0 76
0.000182 0.438024 0.251489 153 0 76
0.055057 0.992838 0.040112 153 76 0
0.040552 0.992838 -0.044441 153 76 0
0.217795 0.330143 -0.124287 153 0 76
0.123803 -0.475182 -0.189493 153 0 76
-0.080524 0.348866 -0.232270 153 0 76
0.032784 -0.039374 0.225485 153 0 76
-0.140300 -0.390296 -0.162360 153 0 76
-0.242994 -0.823824 0.066473 153 0 76
0.178243 0.473797 0.174099 153 0 76
-0.091401 0.189871 -0.227761 153 0 76
0.158684 -0.763115 -0.199923 153 0 76
0.220868 0.594915 -0.024464 153 0 76
-0.195506 0.454219 -0.142428 153 0 76
-0.176671 -0.319860 0.122347 153 0 76
-0.217625 0.564101 -0.059111 153 0 76
-0.237929 0.120999 0.069654 153 0 76
-0.243843 0.152830 0.047414 153 0 76
0.108470 0.262686 -0.222560 153 0 76
-0.071973 -0.899461 -0.193016 153 0 76
-0.160334 -0.881140 0.163099 153 0 76
0.153340 0.739042 -0.062988 153 0 76
0.043665 0.388442 0.249980 153 0 76
-0.029528 0.696145 -0.179010 153 0 76
-0.056777 0.328092 0.247192 153 0 76
-0.192921 -0.535965 -0.130563 153 0 76
-0.245166 0.370387 -0.030703 153 0 76
-0.203001 0.503968 0.129121 153 0 76
0.065918 0.483562 0.239076 153 0 76
0.027804 -0.895540 -0.019170 153 0 76
0.066192 0.775662 -0.127226 153 0 76
-0.101000 0.635957 0.185385 153 0 76
-0.195929 -0.295780 -0.075025 153 0 76
0.009806 -0.109831 0.220620 153 0 76
-0.040344 0.282343 -0.242429 153 0 76
-0.098261 0.395047 0.232059 153 0 76
0.131678 0.339070 0.218518 153 0 76
0.028390 0.321776 -0.244731 153 0 76
0.026926 0.722472 -0.168030 153 0 76
-0.085651 -0.384683 -0.195855 153 0 76
-0.247980 0.202707 0.008224 153 0 76
-0.063012 0.992838 0.078892 153 76 0
-0.202853 0.369540 0.146918 153 0 76
0.169488 -0.380762 0.143674 153 0 76
0.069401 0.856241 0.132003 76 0 153
-0.236789 0.487660 0.043726 153 0 76
-0.005937 0.560769 0.232681 153 0 76
0.037274 -0.752060 0.258788 153 0 76
0.109726 0.870540 0.103868 76 0 153
0.125301 -0.804342 0.227641 153 0 76
0.058104 0.992838 0.010911 153 76 0
0.109660 0.069056 -0.210510 153 0 76
-0.095744 -0.317622 0.194375 153 0 76
0.132369 0.224209 0.217304 153 0 76
0.231273 0.355023 -0.095966 153 0 76
0.247684 0.409940 -0.037409 153 0 76
-0.071365 -0.785770 -0.241645 153 0 76
-0.119278 0.555259 0.200204 153 0 76
-0.108054 -0.121055 0.190653 153 0 76
-0.115125 -0.244328 0.181466 153 0 76
-0.144150 -0.152237 -0.154042 153 0 76
-0.206204 -0.599136 0.138763 153 0 76
-0.147342 0.062700 0.189558 153 0 76
0.072810 0.354982 0.244355 153 0 76
0.259524 -0.746886 0.015888 153 0 76
-0.054034 -0.005941 0.225121 153 0 76
-0.176695 -0.634079 0.183768 153 0 76
0.036200 -0.099996 0.219090 153 0 76
0.108384 0.164174 0.230086 153 0 76
-0.187647 0.241310 0.166632 153 0 76
0.099777 0.345063 0.233846 153 0 76
-0.067469 -0.887991 -0.207521 153 0 76
0.148690 0.027285 0.184781 153 0 76
-0.131568 0.835675 0.009119 76 0 153
0.241914 -0.588970 -0.053456 153 0 76
-0.214483 -0.893651 -0.019707 153 0 76
-0.083497 -0.685703 -0.238200 153 0 76
-0.244182 0.334264 -0.038063 153 0 76
0.173772 -0.155931 -0.124924 153 0 76
0.140109 0.790964 0.007269 153 0 76
0.205107 -0.858857 -0.131102 153 0 76
0.109426 0.650430 -0.169439 153 0 76
0.056223 0.116306 -0.238271 153 0 76
-0.215520 0.435457 0.123242 153 0 76
0.250042 0.333275 0.034467 153 0 76
-0.213692 -0.589842 -0.117174 153 0 76
-0.040485 -0.672425 0.256211 153 0 76
-0.020927 0.931205 0.138519 153 76 0
-0.227039 -0.807823 0.114676 153 0 76
-0.179016 -0.504884 0.148553 153 0 76
-0.080985 0.473540 -0.225530 153 0 76
-0.038722 0.780430 0.141101 153 0 76
-0.045619 0.242767 0.248934 153 0 76
0.006702 0.033178 0.237349 153 0 76
0.217122 -0.395649 0.046355 153 0 76
-0.240048 0.417685 0.061425 153 0 76
0.190894 -0.875575 -0.130522 153 0 76
-0.215178 0.552680 0.082200 153 0 76
-0.118351 0.917364 0.069537 153 76 0
-0.228447 -0.546892 -0.058170 153 0 76
-0.082180 0.457083 0.234542 153 0 76
0.106215 -0.587072 -0.219139 153 0 76
-0.027447 0.853336 0.145752 76 0 153
-0.126983 0.885914 0.065509 76 0 153
-0.221861 -0.015070 0.039610 153 0 76
0.202319 0.032909 0.125335 153 0 76
0.146867 -0.463826 0.177860 153 0 76
0.055036 0.151632 -0.240631 153 0 76
0.196863 -0.286389 0.090185 153 0 76
0.138215 0.707148 -0.114736 153 0 76
-0.174153 0.678258 0.082539 153 0 76
-0.115090 -0.602349 0.223395 153 0 76
0.184030 -0.263003 -0.106736 153 0 76
-0.049045 0.505220 -0.230249 153 0 76
0.029411 -0.839432 0.252262 153 0 76
0.155286 0.710492 0.097644 153 0 76
0.025339 -0.187294 -0.208267 153 0 76
0.225112 0.042636 -0.071730 153 0 76
-0.119364 0.136419 0.222758 153 0 76
-0.107646 0.510322 -0.208644 153 0 76
0.229694 0.361902 0.107043 153 0 76
0.134242 0.389907 -0.208840 153 0 76
-0.149151 0.452534 0.197946 153 0 76
0.146697 -0.780203 0.215906 153 0 76
0.222045 -0.050805 -0.030082 153 0 76
0.023067 -0.488037 0.232452 153 0 76
-0.204271 -0.388154 0.075715 153 0 76
0.015156 0.595083 0.224205 153 0 76
-0.056656 0.200021 0.246864 153 0 76
0.124549 0.418760 -0.213147 153 0 76
-0.115134 -0.288252 -0.174432 153 0 76
0.207297 -0.371932 -0.067841 153 0 76
0.136872 0.577188 -0.176666 153 0 76
0.109989 -0.550532 -0.210118 153 0 76
0.240993 -0.839010 0.080453 153 0 76
0.164963 -0.231890 -0.133007 153 0 76
-0.103526 0.052826 -0.208294 153 0 76
-0.014750 0.525848 0.239736 153 0 76
-0.166979 0.558327 -0.152216 153 0 76
-0.205427 -0.251946 0.049615 153 0 76
0.139433 0.922424 0.020985 153 76 0
-0.005722 0.583486 0.227217 153 0 76
-0.140653 0.883483 -0.012589 76 0 153
-0.227123 0.539358 -0.041017 153 0 76
0.251727 -0.801244 0.056512 153 0 76
0.159776 -0.532687 -0.172740 153 0 76
-0.085250 -0.536902 -0.216265 153 0 76
0.068898 0.270793 0.245388 153 0 76
0.103553 -0.502783 -0.204335 153 0 76
0.017881 -0.905011 0.133604 153 0 76
0.035428 0.918347 0.137194 153 76 0
-0.181247 -0.275700 0.112794 153 0 76
0.176835 -0.905010 -0.013627 153 0 76
-0.148840 -0.565987 -0.185251 153 0 76
-0.044172 0.592714 -0.212877 153 0 76
-0.145891 0.261787 0.204980 153 0 76
0.140742 0.434779 0.209384 153 0 76
0.180396 0.663228 0.092654 153 0 76
-0.213686 -0.361303 -0.011951 153 0 76
-0.199325 0.520236 -0.122551 153 0 76
-0.238507 0.075617 -0.010148 153 0 76
-0.127929 -0.892589 -0.171805 153 0 76
0.210504 0.627932 0.038112 153 0 76
0.214585 -0.145231 -0.030983 153 0 76
0.217599 0.086883 -0.108794 153 0 76
-0.094866 0.683274 0.168262 153 0 76
-0.243762 -0.638697 0.065502 153 0 76
-0.059332 -0.569517 0.239490 153 0 76
0.189549 -0.089495 0.117561 153 0 76
0.197285 -0.180129 0.090400 153 0 76
0.149690 -0.905011 -0.050270 153 0 76
-0.224902 0.423588 0.104007 153 0 76
0.231873 0.204537 -0.094510 153 0 76
0.168479 -0.904848 0.085183 153 0 76
-0.133500 -0.567518 0.204891 153 0 76
-0.007908 -0.820235 0.257020 153 0 76
0.254692 -0.779404 -0.039993 153 0 76
0.083269 -0.191722 0.200915 153 0 76
-0.040853 0.886331 -0.131843 76 0 153
0.028915 0.046228 0.237777 153 0 76
-0.081913 -0.251967 0.198998 153 0 76
0.056386 0.521019 0.234860 153 0 76
-0.227494 -0.867792 0.063004 153 0 76
0.225923 -0.521617 0.075192 153 0 76
-0.049733 0.760079 -0.141426 153 0 76
-0.229060 -0.536664 0.055113 153 0 76
-0.202146 -0.708992 -0.152605 153 0 76
-0.206701 -0.178738 -0.040972 153 0 76
0.182802 -0.889883 0.130689 153 0 76
-0.147506 0.103504 0.198909 153 0 76
-0.162468 -0.823926 0.195733 153 0 76
0.049009 0.992838 -0.008094 153 76 0
0.011024 0.186000 0.253369 153 0 76
-0.163237 0.091471 0.183829 153 0 76
0.076911 -0.209310 0.202935 153 0 76
-0.025411 0.353335 0.252180 153 0 76
0.178472 0.717172 0.009569 153 0 76
0.134591 0.825170 0.007007 153 0 76
-0.178530 -0.373775 -0.117280 153 0 76
-0.161947 -0.334718 0.142774 153 0 76
-0.186603 -0.423932 -0.112997 153 0 76
0.197836 0.665815 0.033141 153 0 76
0.016180 -0.572717 -0.239245 153 0 76
0.223612 0.589922 0.021137 153 0 76
0.194449 -0.308326 0.097811 153 0 76
-0.108907 0.464840 -0.214915 153 0 76
-0.221986 0.395864 -0.106550 153 0 76
0.098644 -0.147298 -0.188325 153 0 76
0.124394 -0.053700 0.189554 153 0 76
-0.089178 0.770102 0.121456 153 0 76
0.162914 0.747601 0.018179 153 0 76
-0.113515 0.992838 0.030708 153 76 0
0.232052 -0.785107 -0.109757 153 0 76
0.200741 -0.435480 0.106431 153 0 76
-0.187306 -0.189489 0.102283 153 0 76
-0.215087 0.340225 0.129265 153 0 76
0.001834 -0.087926 -0.215456 153 0 76
0.074181 -0.875280 -0.216849 153 0 76
0.218451 0.302056 0.130948 153 0 76
-0.237565 0.342290 -0.068789 153 0 76
-0.041715 -0.775875 -0.248800 153 0 76
-0.142298 -0.461448 0.177464 153 0 76
-0.204822 -0.605437 -0.135126 153 0 76
0.004580 -0.073737 0.224384 153 0 76
-0.054430 -0.902241 0.011582 153 0 76
-0.211578 -0.586273 0.126459 153 0 76
0.210203 0.267337 -0.135424 153 0 76
0.041538 -0.341633 -0.207988 153 0 76
-0.244390 0.118968 -0.023589 153 0 76
0.113688 0.949754 0.082857 153 76 0
0.126349 -0.868364 -0.198110 153 0 76
0.240949 -0.594641 0.071333 153 0 76
0.220523 -0.873757 0.085081 153 0 76
0.137495 -0.905011 0.015741 153 0 76
0.253236 -0.641492 0.039222 153 0 76
0.210739 -0.834333 0.144820 153 0 76
-0.146514 0.561447 -0.170583 153 0 76
-0.100808 -0.478581 0.207678 153 0 76
-0.092215 0.333781 0.235149 153 0 76
-0.187208 -0.154448 -0.097788 153 0 76
0.199343 -0.090131 -0.091810 153 0 76
-0.042182 0.585488 0.223081 153 0 76
-0.058745 -0.626122 0.248486 153 0 76
0.220170 -0.610849 0.127886 153 0 76
0.144607 0.328372 -0.201850 153 0 76
-0.085073 0.417625 0.236636 153 0 76
-0.098590 0.237484 -0.224800 153 0 76
0.109480 0.301657 -0.222145 153 0 76
0.122490 -0.899912 -0.170275 153 0 76
0.155705 0.600748 -0.153168 153 0 76
-0.153242 -0.346655 0.153786 153 0 76
-0.219193 0.005847 0.065359 153 0 76
0.069876 -0.290040 0.205968 153 0 76
0.214789 -0.050789 0.070281 153 0 76
-0.088468 0.288508 0.236703 153 0 76
0.231892 0.128262 -0.091575 153 0 76
0.077412 0.418268 0.241275 153 0 76
0.190315 -0.515343 0.142168 153 0 76
-0.057322 0.444883 0.243883 153 0 76
-0.062614 0.109104 -0.235265 153 0 76
0.176686 -0.208904 -0.118331 153 0 76
-0.179109 0.110854 0.172620 153 0 76
-0.222641 0.439195 -0.099284 153 0 76
0.031280 0.731346 0.170561 153 0 76
0.155162 -0.293898 0.153609 153 0 76
-0.209410 -0.248217 0.024694 153 0 76
0.087281 -0.108801 -0.196164 153 0 76
0.051523 -0.905011 0.112759 153 0 76
0.157567 -0.905011 0.025180 153 0 76
-0.072297 -0.144874 -0.198058 153 0 76
-0.027322 -0.787923 0.257907 153 0 76
-0.207213 -0.331126 0.051703 153 0 76
0.194713 0.618714 0.097733 153 0 76
0.254717 -0.719770 -0.047573 153 0 76
-0.151141 -0.852289 -0.189698 153 0 76
-0.011708 -0.265190 -0.208362 153 0 76
0.130716 0.943843 0.050393 153 76 0
0.056887 -0.254036 -0.201836 153 0 76
0.223047 -0.431911 0.030724 153 0 76
0.009211 0.165393 0.253673 153 0 76
0.200113 0.639566 0.066550 153 0 76
-0.013559 -0.270250 0.215815 153 0 76
-0.180903 -0.725414 -0.178889 153 0 76
0.112140 -0.257084 -0.178638 153 0 76
0.236639 0.068575 0.052066 153 0 76
-0.018410 -0.065826 0.223987 153 0 76
-0.034228 0.344162 -0.243388 153 0 76
-0.124188 -0.801101 0.226255 153 0 76
-0.216837 -0.090677 0.003500 153 0 76
-0.139280 -0.680481 -0.210685 153 0 76
-0.190026 -0.141981 0.100572 153 0 76
-0.244052 -0.824530 -0.054562 153 0 76
-0.221753 -0.842623 0.114650 153 0 76
-0.045968 0.070443 -0.231534 153 0 76
-0.031044 -0.895980 -0.015703 153 0 76
-0.201549 -0.826775 -0.145340 153 0 76
-0.071534 0.398720 -0.234923 153 0 76
-0.039622 -0.814948 -0.246337 153 0 76
-0.247244 0.132802 0.008949 153 0 76
0.137246 0.955390 0.027821 153 76 0
-0.181365 -0.847413 0.172112 153 0 76
0.001594 0.963233 0.141660 153 76 0
0.083560 -0.605877 -0.231907 153 0 76
0.086196 0.583308 0.211038 153 0 76
0.203485 -0.514125 0.122826 153 0 76
0.128323 0.991248 -0.002607 153 76 0
-0.156633 -0.084706 0.155653 153 0 76
0.191464 0.200343 -0.159619 153 0 76
-0.022085 -0.735769 -0.252676 153 0 76
0.198488 -0.903852 -0.042654 153 0 76
-0.133835 0.956003 -0.012129 153 76 0
0.072784 0.703549 0.172164 153 0 76
-0.180611 0.161228 0.174849 153 0 76
-0.113879 -0.207695 -0.174945 153 0 76
-0.059287 0.264757 0.246561 153 0 76
-0.038288 0.483576 0.243152 153 0 76
0.178636 0.235296 0.182163 153 0 76
0.201846 -0.861319 0.139989 153 0 76
-0.003706 0.992838 0.030698 153 76 0
0.207543 0.586715 0.090605 153 0 76
-0.190471 -0.696949 0.174991 153 0 76
-0.014355 0.803147 -0.129466 153 0 76
-0.005828 -0.758641 0.261038 153 0 76
-0.225955 0.511744 -0.066877 153 0 76
0.199781 -0.114023 0.093491 153 0 76
-0.104939 0.600295 -0.187584 153 0 76
0.213555 -0.219149 0.025610 153 0 76
0.209325 -0.170682 0.058076 153 0 76
0.226985 0.425493 -0.100995 153 0 76
0.144682 -0.522539 0.189914 153 0 76
0.043315 0.795177 -0.126332 153 0 76
-0.178665 -0.367174 0.124198 153 0 76
0.128888 -0.140846 0.177750 153 0 76
-0.033638 0.189396 -0.243467 153 0 76
-0.077341 -0.689469 0.248272 153 0 76
0.121405 0.721369 0.131397 153 0 76
0.140573 -0.838330 -0.205093 153 0 76
-0.247167 -0.750199 0.068552 153 0 76
-0.200871 0.071481 0.132362 153 0 76
-0.141459 0.290387 -0.200851 153 0 76
0.058565 0.222631 0.247500 153 0 76
0.163926 -0.125787 0.147713 153 0 76
0.213508 0.162095 -0.131124 153 0 76
0.026740 0.129452 -0.243978 153 0 76
0.231030 -0.831371 -0.102122 153 0 76
-0.228704 0.157409 -0.091482 153 0 76
0.249466 0.169240 -0.032612 153 0 76
-0.183177 0.583277 0.129465 153 0 76
0.229488 0.030251 0.056565 153 0 76
-0.240947 0.456596 0.039289 153 0 76
-0.161088 0.356128 -0.185789 153 0 76
0.152692 -0.434386 0.168885 153 0 76
0.213865 0.533731 0.105798 153 0 76
-0.060347 0.992838 -0.100920 153 76 0
-0.132906 -0.228210 -0.160305 153 0 76
-0.070010 0.469668 0.237837 153 0 76
-0.168633 0.523374 -0.160691 153 0 76
-0.003469 0.668960 0.200367 153 0 76
0.043435 -0.903016 0.200235 153 0 76
0.145148 0.386252 0.208706 153 0 76
-0.076394 0.494328 -0.224398 153 0 76
-0.247521 0.337762 -0.010678 153 0 76
-0.200072 -0.652626 0.158242 153 0 76
0.084283 -0.448327 0.212444 153 0 76
-0.095641 0.375578 -0.225841 153 0 76
-0.137414 -0.323765 0.166568 153 0 76
0.179856 -0.116607 -0.120197 153 0 76
-0.066673 -0.422686 0.214512 153 0 76
0.027902 -0.216359 -0.207276 153 0 76
-0.058278 0.684954 0.184033 153 0 76
-0.103933 -0.881389 -0.197706 153 0 76
0.085344 0.367638 0.239784 153 0 76
-0.166487 -0.216179 0.133366 153 0 76
-0.209392 -0.872292 0.103559 153 0 76
-0.247422 0.217869 -0.012879 153 0 76
0.107687 -0.072849 -0.190069 153 0 76
-0.135004 0.921491 0.000230 153 76 0
-0.210109 -0.215636 -0.008322 153 0 76
0.243446 -0.563492 -0.010655 153 0 76
-0.055224 0.992838 0.101741 153 76 0
0.099745 0.973592 -0.092371 153 76 0
0.209794 -0.405283 -0.069223 153 0 76
-0.116080 0.902710 -0.069919 153 76 0
-0.094721 0.484543 0.226248 153 0 76
-0.138912 -0.110359 0.169321 153 0 76
0.061891 -0.905011 -0.066036 153 0 76
-0.239540 0.292874 -0.061861 153 0 76
-0.080458 -0.435754 0.210896 153 0 76
0.056857 -0.684364 0.254795 153 0 76
0.101915 0.446674 -0.221687 153 0 76
-0.153550 0.631122 -0.137625 153 0 76
-0.045974 -0.117799 -0.207525 153 0 76
-0.146068 -0.706924 -0.206680 153 0 76
-0.091898 -0.621252 -0.229012 153 0 76
-0.042954 0.992838 -0.004433 153 76 0
0.070030 0.639066 0.199710 153 0 76
0.005667 -0.642902 -0.250086 153 0 76
-0.158535 -0.530456 -0.169536 153 0 76
0.111565 -0.625902 0.231035 153 0 76
-0.125814 0.212975 -0.211789 153 0 76
0.131530 -0.271066 0.172395 153 0 76
0.140198 -0.307462 -0.159387 153 0 76
0.012007 -0.682886 -0.252602 153 0 76
0.183257 -0.483329 0.143512 153 0 76
0.098059 -0.079720 0.201599 153 0 76
-0.148048 0.763473 -0.021811 153 0 76
-0.005094 0.646647 0.208353 153 0 76
0.215438 -0.297017 0.010569 153 0 76
0.114737 -0.330059 0.186755 153 0 76
-0.059163 -0.000865 -0.216845 153 0 76
-0.007859 -0.101783 0.221226 153 0 76
0.148329 0.856959 -0.010763 76 0 153
-0.246465 -0.608208 -0.018044 153 0 76
-0.202008 -0.425801 -0.082951 153 0 76
