0.619162 -0.563852 0.167916 0.600000 0.300000 0.000000
-0.586811 -0.710406 -0.192079 0.300000 0.000000 0.600000
0.238706 -0.738006 -0.092263 0.300000 0.000000 0.600000
0.268874 -0.592694 -0.233841 0.800000 0.200000 0.500000
0.035580 0.736546 -0.120284 1.000000 0.000000 0.000000
-0.001309 -0.783247 0.265585 0.000000 0.500000 0.500000
0.288776 0.736546 0.081227 1.000000 0.000000 0.000000
-0.611292 0.058990 0.213015 0.000000 1.000000 0.000000
-0.206355 -0.085965 0.118369 0.600000 0.000000 0.300000
-0.168381 0.510649 0.247017 0.000000 0.500000 0.500000
0.619162 0.022969 -0.076816 0.600000 0.300000 0.000000
-0.608347 0.228544 -0.221840 0.300000 0.000000 0.600000
-0.608347 0.566645 -0.123406 0.300000 0.000000 0.600000
0.619162 0.052469 0.145878 0.600000 0.300000 0.000000
-0.196177 0.061110 0.247017 0.000000 0.500000 0.500000
-0.517193 -0.100290 -0.249992 0.800000 0.200000 0.500000
0.633055 -0.770921 -0.244814 0.000000 0.000000 1.000000
0.313130 -0.136831 -0.233841 0.800000 0.200000 0.500000
0.344651 -0.244823 -0.249992 0.800000 0.200000 0.500000
0.619162 -0.377583 -0.093269 0.600000 0.300000 0.000000
-0.080165 -0.185152 0.270658 0.000000 0.500000 0.500000
-0.073411 -0.213748 0.245318 0.000000 0.500000 0.500000
-0.586811 0.031148 -0.160002 0.300000 0.000000 0.600000
-0.213303 0.715010 0.014518 1.000000 0.000000 0.000000
-0.423013 0.135361 -0.249992 0.800000 0.200000 0.500000
0.640697 0.117036 -0.222729 0.600000 0.300000 0.000000
-0.376273 -0.770921 -0.028408 0.000000 0.000000 1.000000
-0.350743 -0.770921 0.085465 0.000000 0.000000 1.000000
-0.608347 -0.237311 0.110883 0.300000 0.000000 0.600000
-0.048430 0.079127 -0.262723 0.300000 0.600000 0.000000
-0.406735 -0.688881 -0.249992 0.800000 0.200000 0.500000
-0.206355 -0.307482 0.048922 0.600000 0.000000 0.300000
-0.158059 0.715010 -0.270438 1.000000 0.000000 0.000000
-0.174052 -0.091263 0.204034 0.600000 0.000000 0.300000
0.354621 0.267640 0.247017 0.600000 0.000000 0.300000
0.238706 -0.135095 -0.033460 0.300000 0.000000 0.600000
0.258065 0.607806 0.259057 0.600000 0.000000 0.300000
0.633615 -0.080380 -0.271527 0.000000 0.500000 0.500000
0.238706 -0.115545 -0.220740 0.300000 0.000000 0.600000
-0.206355 -0.628294 -0.098515 0.600000 0.000000 0.300000
-0.608347 0.644176 0.197371 0.300000 0.000000 0.600000
0.206403 0.378738 -0.033961 0.300000 0.000000 0.600000
0.138554 -0.031647 0.259057 0.600000 0.000000 0.300000
-0.196457 -0.792457 -0.007614 0.000000 0.000000 1.000000
0.662233 -0.571018 -0.269403 0.000000 0.500000 0.500000
0.238706 -0.401251 0.132940 0.300000 0.000000 0.600000
0.040150 0.715010 -0.188987 1.000000 0.000000 0.000000
0.634017 -0.499548 -0.271527 0.000000 0.500000 0.500000
0.273380 0.271156 0.247017 0.600000 0.000000 0.300000
-0.003888 -0.009415 -0.249992 0.300000 0.600000 0.000000
0.039782 0.390925 0.268593 0.600000 0.000000 0.300000
0.006934 -0.077472 -0.233841 0.800000 0.200000 0.500000
0.640697 -0.197998 -0.056750 0.600000 0.300000 0.000000
-0.206422 0.715010 -0.143767 1.000000 0.000000 0.000000
0.640697 -0.700523 -0.125576 0.600000 0.300000 0.000000
0.627004 -0.007379 -0.271527 0.000000 0.500000 0.500000
0.031946 0.038449 0.245318 0.600000 0.000000 0.300000
0.503754 -0.612853 -0.233841 0.800000 0.200000 0.500000
-0.305302 0.546152 0.247017 0.000000 0.500000 0.500000
0.640697 -0.047008 -0.196979 0.600000 0.300000 0.000000
-0.174052 -0.173082 0.178922 0.600000 0.000000 0.300000
0.614394 0.294825 0.213015 0.500000 0.000000 0.500000
0.603483 -0.458121 0.213015 0.500000 0.000000 0.500000
-0.608347 -0.710391 0.069601 0.300000 0.000000 0.600000
0.181135 -0.629940 -0.249992 0.800000 0.200000 0.500000
0.154094 0.590608 -0.249992 0.300000 0.000000 0.600000
0.210826 0.594525 0.259058 0.600000 0.000000 0.300000
0.640697 0.191595 0.073855 0.600000 0.300000 0.000000
-0.161805 -0.770921 -0.227838 0.000000 0.000000 1.000000
0.560569 -0.767814 0.213015 0.600000 0.000000 0.300000
0.640697 0.029264 0.121327 0.600000 0.300000 0.000000
0.640697 0.606187 0.152926 0.600000 0.300000 0.000000
-0.281517 -0.131591 -0.249992 0.800000 0.200000 0.500000
0.414423 -0.770921 -0.042723 0.000000 0.000000 1.000000
0.429110 0.198744 -0.233841 0.800000 0.200000 0.500000
-0.174052 0.173436 -0.000850 0.600000 0.000000 0.300000
-0.174052 -0.415663 0.098323 0.600000 0.000000 0.300000
-0.411736 -0.201102 0.259058 0.000000 0.500000 0.500000
-0.415729 -0.792457 0.012472 0.000000 0.000000 1.000000
0.577153 -0.418326 -0.271527 0.000000 0.500000 0.500000
-0.495956 -0.712525 0.245318 0.000000 0.500000 0.500000
-0.622605 0.098440 -0.249992 0.500000 0.500000 0.000000
0.238706 -0.192371 0.208938 0.300000 0.000000 0.600000
0.537828 0.219367 -0.249992 0.800000 0.200000 0.500000
-0.175296 -0.103183 -0.233841 0.800000 0.200000 0.500000
0.206403 0.197349 0.021878 0.300000 0.000000 0.600000
-0.586811 0.465895 0.159140 0.300000 0.000000 0.600000
-0.118740 0.578072 -0.249992 0.800000 0.200000 0.500000
0.118960 -0.770921 -0.208844 0.000000 0.000000 1.000000
0.076121 0.736546 0.146296 1.000000 0.000000 0.000000
-0.404817 -0.770921 0.038580 0.000000 0.000000 1.000000
0.651652 0.558097 0.213015 0.500000 0.000000 0.500000
0.053332 0.487652 -0.271527 0.300000 0.600000 0.000000
-0.608347 -0.617103 -0.200618 0.300000 0.000000 0.600000
0.238706 0.038973 -0.178006 0.300000 0.000000 0.600000
-0.518946 -0.502788 0.275541 0.000000 0.500000 0.500000
0.619162 0.188377 0.151223 0.600000 0.300000 0.000000
-0.610182 -0.546952 0.269597 0.000000 0.500000 0.500000
-0.342774 0.071857 -0.249992 0.800000 0.200000 0.500000
0.140951 -0.771493 0.245318 0.600000 0.000000 0.300000
-0.608347 -0.377239 0.196911 0.300000 0.000000 0.600000
0.627666 0.440577 -0.271527 0.000000 0.500000 0.500000
0.432815 -0.481656 0.259058 0.600000 0.000000 0.300000
-0.305911 0.736546 -0.013842 1.000000 0.000000 0.000000
0.238706 0.310997 -0.094782 0.300000 0.000000 0.600000
0.386337 -0.132559 0.247017 0.600000 0.000000 0.300000
0.640697 -0.322064 0.066588 0.600000 0.300000 0.000000
-0.584719 -0.196732 0.316812 0.300000 0.600000 0.000000
0.292618 0.705091 0.268583 0.600000 0.000000 0.300000
-0.174052 -0.421069 0.175703 0.600000 0.000000 0.300000
-0.608347 -0.566813 -0.065288 0.300000 0.000000 0.600000
0.619162 0.698214 0.206227 0.600000 0.300000 0.000000
0.661350 -0.590927 0.213015 0.500000 0.000000 0.500000
-0.608347 -0.543888 0.074847 0.300000 0.000000 0.600000
0.238706 -0.713237 -0.182892 0.300000 0.000000 0.600000
0.293989 -0.519858 -0.233841 0.800000 0.200000 0.500000
-0.264849 -0.770921 -0.205663 0.000000 0.000000 1.000000
0.225329 -0.103078 0.213015 0.300000 0.000000 0.600000
0.640697 0.332194 -0.112368 0.600000 0.300000 0.000000
0.206403 -0.382910 0.196800 0.300000 0.000000 0.600000
-0.272898 0.463188 -0.249992 0.800000 0.200000 0.500000
0.619162 0.104112 0.182298 0.600000 0.300000 0.000000
-0.608347 0.136394 0.148550 0.300000 0.000000 0.600000
0.604031 0.176222 -0.271527 0.000000 0.500000 0.500000
-0.506772 -0.792457 -0.137356 0.000000 0.000000 1.000000
-0.608347 -0.356779 0.072583 0.300000 0.000000 0.600000
-0.586811 -0.110092 -0.059983 0.300000 0.000000 0.600000
0.596623 0.109178 -0.271527 0.000000 0.500000 0.500000
0.178914 0.370426 -0.233841 0.800000 0.200000 0.500000
0.119690 -0.376603 0.274645 0.600000 0.000000 0.300000
0.571440 -0.792457 -0.007152 0.000000 0.000000 1.000000
0.619162 -0.607404 0.065410 0.600000 0.300000 0.000000
0.238706 0.219003 -0.221538 0.300000 0.000000 0.600000
0.632172 -0.550199 0.245318 0.600000 0.000000 0.300000
-0.577572 0.588416 0.245318 0.000000 0.500000 0.500000
0.190587 0.736546 -0.133852 1.000000 0.000000 0.000000
0.429640 0.733570 0.269597 0.600000 0.000000 0.300000
0.640697 -0.528668 0.180880 0.600000 0.300000 0.000000
-0.168479 -0.251611 0.247017 0.000000 0.500000 0.500000
0.619162 -0.262769 0.188909 0.600000 0.300000 0.000000
-0.096334 -0.738746 0.245318 0.600000 0.000000 0.300000
-0.586811 0.483114 -0.216998 0.300000 0.000000 0.600000
0.111153 0.096845 -0.249992 0.800000 0.200000 0.500000
0.206403 0.323144 -0.170863 0.300000 0.000000 0.600000
0.365658 0.313267 -0.233841 0.800000 0.200000 0.500000
-0.606238 -0.770921 0.080562 0.000000 0.000000 1.000000
-0.206355 -0.201427 0.184176 0.600000 0.000000 0.300000
-0.279574 -0.429824 0.259058 0.000000 0.500000 0.500000
-0.051801 -0.001210 -0.233841 0.800000 0.200000 0.500000
0.640697 0.584641 -0.010874 0.600000 0.300000 0.000000
0.165384 -0.710232 0.245318 0.600000 0.000000 0.300000
-0.174052 0.343570 -0.117726 0.600000 0.000000 0.300000
-0.551474 0.420335 -0.233841 0.800000 0.200000 0.500000
-0.629882 -0.052333 0.218238 0.000000 1.000000 0.000000
0.586162 -0.299396 -0.249992 0.000000 0.500000 0.500000
0.533021 0.268011 -0.260477 0.000000 0.500000 0.500000
0.042677 0.085438 0.245318 0.600000 0.000000 0.300000
0.206403 -0.670002 0.090279 0.300000 0.000000 0.600000
0.199197 0.345511 -0.249992 0.800000 0.200000 0.500000
-0.437719 -0.700259 0.245318 0.000000 0.500000 0.500000
0.047691 -0.505056 0.268589 0.600000 0.000000 0.300000
0.206403 0.250019 -0.178314 0.300000 0.000000 0.600000
0.308984 0.475998 -0.249992 0.800000 0.200000 0.500000
0.206403 -0.703864 0.123640 0.300000 0.000000 0.600000
0.206403 -0.769151 -0.206113 0.300000 0.000000 0.600000
0.596027 -0.687334 -0.249992 0.000000 0.500000 0.500000
-0.117314 -0.783468 0.245318 0.000000 0.500000 0.500000
-0.489983 0.601551 0.259057 0.000000 0.500000 0.500000
0.277179 0.142793 -0.233841 0.800000 0.200000 0.500000
0.483498 0.653074 -0.233841 0.800000 0.200000 0.500000
0.296379 -0.240183 -0.249992 0.800000 0.200000 0.500000
-0.586811 -0.641755 -0.224891 0.300000 0.000000 0.600000
-0.586811 0.437898 -0.046976 0.300000 0.000000 0.600000
-0.206355 -0.274531 -0.118052 0.600000 0.000000 0.300000
0.004344 -0.769127 0.213015 0.600000 0.000000 0.300000
0.238706 0.404333 -0.222841 0.300000 0.000000 0.600000
0.409603 0.736546 0.046280 1.000000 0.000000 0.000000
-0.620206 -0.776523 0.213015 0.600000 0.000000 0.300000
0.525783 -0.792457 0.148271 0.000000 0.000000 1.000000
0.662233 0.607398 0.217896 0.500000 0.000000 0.500000
-0.318510 0.128198 -0.233841 0.800000 0.200000 0.500000
0.238706 -0.541543 0.201727 0.300000 0.000000 0.600000
-0.554732 0.612817 0.245318 0.000000 0.500000 0.500000
0.426601 -0.792457 -0.156700 0.000000 0.000000 1.000000
0.598312 0.365817 0.213015 0.500000 0.000000 0.500000
0.181350 0.019787 0.259058 0.600000 0.000000 0.300000
0.321632 0.599151 0.247017 0.600000 0.000000 0.300000
0.097260 -0.071415 0.245318 0.600000 0.000000 0.300000
0.238706 0.250366 0.032685 0.300000 0.000000 0.600000
0.053076 0.714978 0.245318 0.300000 0.000000 0.600000
-0.589725 -0.685527 -0.271527 0.500000 0.500000 0.000000
0.025983 -0.385453 0.269423 0.600000 0.000000 0.300000
-0.578354 -0.792457 -0.060717 0.000000 0.000000 1.000000
0.143309 0.747313 0.242301 0.300000 0.000000 0.600000
-0.428905 -0.444796 -0.249992 0.800000 0.200000 0.500000
0.561135 -0.485463 -0.249992 0.800000 0.200000 0.500000
0.576609 0.433310 0.273249 0.600000 0.000000 0.300000
0.409610 0.525699 -0.249992 0.800000 0.200000 0.500000
0.238706 -0.500488 -0.038946 0.300000 0.000000 0.600000
-0.032288 0.429466 0.245318 0.000000 0.500000 0.500000
0.238706 -0.341899 -0.115987 0.300000 0.000000 0.600000
0.519908 0.035932 0.247017 0.600000 0.000000 0.300000
0.206403 -0.043875 -0.060840 0.300000 0.000000 0.600000
0.427556 0.710268 0.213015 0.300000 0.000000 0.600000
0.640697 0.032141 0.202911 0.600000 0.300000 0.000000
-0.608347 -0.010951 -0.016622 0.300000 0.000000 0.600000
-0.174052 0.542541 -0.120319 0.600000 0.000000 0.300000
0.611686 0.437419 0.268579 0.600000 0.000000 0.300000
-0.608347 -0.178570 -0.082316 0.300000 0.000000 0.600000
-0.531080 0.507960 -0.249992 0.500000 0.500000 0.000000
0.585010 -0.579719 0.270961 0.600000 0.000000 0.300000
-0.270600 -0.345917 -0.249992 0.800000 0.200000 0.500000
-0.004857 -0.148706 0.245318 0.000000 0.500000 0.500000
0.002467 -0.738618 0.222046 0.600000 0.000000 0.300000
-0.240137 -0.072323 0.259058 0.000000 0.500000 0.500000
-0.279011 0.715010 -0.112937 1.000000 0.000000 0.000000
0.619162 -0.208017 -0.022166 0.600000 0.300000 0.000000
0.584142 0.153379 0.271143 0.600000 0.000000 0.300000
0.625080 0.540576 0.213015 0.500000 0.000000 0.500000
0.070163 -0.770921 -0.008542 0.000000 0.000000 1.000000
-0.608347 -0.768051 -0.155524 0.300000 0.000000 0.600000
0.250181 0.715010 -0.193240 1.000000 0.000000 0.000000
0.619162 -0.054171 0.040560 0.600000 0.300000 0.000000
0.238706 0.213340 -0.034408 0.300000 0.000000 0.600000
-0.072037 -0.698652 0.277213 0.000000 0.500000 0.500000
-0.286332 0.715010 0.207434 1.000000 0.000000 0.000000
0.639705 -0.201901 -0.271527 0.000000 0.500000 0.500000
-0.510889 0.736546 0.186139 1.000000 0.000000 0.000000
-0.467896 0.715010 0.122008 1.000000 0.000000 0.000000
-0.174052 0.005920 -0.082496 0.600000 0.000000 0.300000
0.032484 0.567871 0.245318 0.600000 0.000000 0.300000
-0.546925 -0.770921 0.157709 0.000000 0.000000 1.000000
-0.046915 -0.191535 -0.249992 0.300000 0.600000 0.000000
-0.485012 -0.770921 -0.098346 0.000000 0.000000 1.000000
0.442063 0.715010 0.135234 1.000000 0.000000 0.000000
-0.270317 0.245326 0.259058 0.000000 0.500000 0.500000
0.141892 -0.792457 0.106251 0.000000 0.000000 1.000000
0.036692 -0.474945 -0.271527 0.300000 0.600000 0.000000
0.572775 0.730489 -0.271527 1.000000 0.000000 0.000000
-0.608347 0.464883 -0.001639 0.300000 0.000000 0.600000
-0.586811 -0.629713 -0.057869 0.300000 0.000000 0.600000
0.080781 0.364256 -0.260621 0.300000 0.600000 0.000000
-0.421476 -0.753214 0.268579 0.000000 0.500000 0.500000
-0.543097 -0.596573 0.271307 0.000000 0.500000 0.500000
0.569561 -0.110942 0.275770 0.600000 0.000000 0.300000
-0.076433 -0.265218 -0.249992 0.800000 0.200000 0.500000
-0.174052 0.581050 0.092806 0.600000 0.000000 0.300000
-0.608347 -0.159460 -0.200827 0.300000 0.000000 0.600000
-0.562204 0.736546 -0.142015 1.000000 0.000000 0.000000
0.619162 -0.092901 0.049160 0.600000 0.300000 0.000000
0.034867 0.217765 0.245318 0.600000 0.000000 0.300000
0.238706 0.227525 0.155606 0.300000 0.000000 0.600000
0.453291 -0.132753 -0.249992 0.800000 0.200000 0.500000
-0.476865 -0.577372 -0.249992 0.800000 0.200000 0.500000
-0.171582 0.579871 0.259058 0.000000 0.500000 0.500000
-0.174052 0.330378 -0.059725 0.600000 0.000000 0.300000
0.035014 -0.645217 -0.233841 0.800000 0.200000 0.500000
-0.174052 -0.423367 -0.092962 0.600000 0.000000 0.300000
-0.613707 -0.474168 -0.249992 0.500000 0.500000 0.000000
0.281365 0.715010 -0.076905 1.000000 0.000000 0.000000
0.619162 0.533017 -0.187319 0.600000 0.300000 0.000000
0.619162 0.410385 0.011146 0.600000 0.300000 0.000000
0.024251 -0.235004 0.248729 0.600000 0.000000 0.300000
-0.174052 0.336961 0.149549 0.600000 0.000000 0.300000
-0.592623 -0.730491 0.245318 0.000000 0.500000 0.500000
-0.622958 -0.213403 0.245318 0.000000 1.000000 0.000000
-0.540382 0.372113 -0.249992 0.800000 0.200000 0.500000
-0.586811 -0.752750 -0.109922 0.300000 0.000000 0.600000
-0.028089 0.482187 0.245318 0.000000 0.500000 0.500000
0.206403 -0.072728 0.024181 0.300000 0.000000 0.600000
-0.128665 -0.231331 -0.233841 0.800000 0.200000 0.500000
0.533021 -0.050354 -0.269019 0.000000 0.500000 0.500000
0.619162 -0.673360 0.081043 0.600000 0.300000 0.000000
0.206403 0.534810 0.042959 0.300000 0.000000 0.600000
0.619162 -0.609193 -0.023131 0.600000 0.300000 0.000000
-0.473440 0.397261 0.247017 0.000000 0.500000 0.500000
0.471981 0.078013 -0.249992 0.800000 0.200000 0.500000
-0.330016 0.701595 0.245318 0.000000 0.500000 0.500000
0.353407 -0.155117 -0.233841 0.800000 0.200000 0.500000
0.654157 0.669409 0.259622 0.600000 0.000000 0.300000
0.238706 -0.727496 0.198700 0.300000 0.000000 0.600000
0.286702 -0.515998 0.259058 0.600000 0.000000 0.300000
0.365576 0.715010 0.102919 1.000000 0.000000 0.000000
-0.569011 -0.544176 0.213015 0.000000 1.000000 0.000000
-0.586811 0.101537 0.000708 0.300000 0.000000 0.600000
0.611526 -0.538186 -0.249992 0.800000 0.200000 0.500000
-0.206355 0.673421 0.177592 0.600000 0.000000 0.300000
-0.546158 0.736546 -0.177590 1.000000 0.000000 0.000000
-0.156753 0.157896 0.259058 0.000000 0.500000 0.500000
-0.608347 0.224492 0.180983 0.300000 0.000000 0.600000
-0.317247 0.736546 0.183475 1.000000 0.000000 0.000000
0.637085 0.736546 -0.008675 1.000000 0.000000 0.000000
0.033194 0.393202 -0.249992 0.800000 0.200000 0.500000
-0.174052 -0.640927 0.034657 0.600000 0.000000 0.300000
0.064161 -0.509548 -0.233841 0.800000 0.200000 0.500000
-0.608347 -0.346235 0.156295 0.300000 0.000000 0.600000
0.273650 -0.710360 -0.233841 0.800000 0.200000 0.500000
0.204914 0.736546 0.012961 1.000000 0.000000 0.000000
0.597627 0.084559 0.235946 0.500000 0.000000 0.500000
0.427812 -0.346433 0.247017 0.600000 0.000000 0.300000
0.640697 0.476220 0.148926 0.600000 0.300000 0.000000
0.101902 0.237762 -0.249992 0.800000 0.200000 0.500000
0.640697 0.508366 -0.042564 0.600000 0.300000 0.000000
0.640697 -0.716287 0.092649 0.600000 0.300000 0.000000
0.449304 -0.792457 0.097927 0.000000 0.000000 1.000000
-0.586811 -0.367558 -0.236476 0.300000 0.000000 0.600000
0.640697 0.021135 0.047531 0.600000 0.300000 0.000000
-0.548738 0.238655 -0.271527 0.500000 0.500000 0.000000
-0.344891 0.715010 0.172128 1.000000 0.000000 0.000000
0.367176 0.342178 -0.249992 0.800000 0.200000 0.500000
0.305107 -0.637823 0.259058 0.600000 0.000000 0.300000
0.640697 0.159832 -0.086075 0.600000 0.300000 0.000000
-0.164689 -0.792457 -0.193558 0.000000 0.000000 1.000000
-0.608347 -0.636658 -0.247480 0.300000 0.000000 0.600000
-0.568903 -0.129181 0.310098 0.300000 0.600000 0.000000
-0.258433 -0.380458 -0.233841 0.800000 0.200000 0.500000
-0.629882 -0.228449 -0.252267 0.500000 0.500000 0.000000
-0.046189 -0.653172 -0.271527 0.300000 0.600000 0.000000
0.215858 0.541906 0.247017 0.600000 0.000000 0.300000
-0.583407 -0.439962 0.213015 0.000000 1.000000 0.000000
-0.608347 0.334356 0.089357 0.300000 0.000000 0.600000
-0.608347 0.178683 0.136429 0.300000 0.000000 0.600000
0.619162 0.693419 0.047989 0.600000 0.300000 0.000000
-0.191812 -0.697158 0.213015 0.600000 0.000000 0.300000
0.290502 -0.782198 0.213015 0.600000 0.000000 0.300000
0.417421 0.343680 0.247017 0.600000 0.000000 0.300000
-0.459292 -0.766171 0.268586 0.000000 0.500000 0.500000
0.131427 0.246904 0.259057 0.600000 0.000000 0.300000
0.153468 0.577418 0.247017 0.600000 0.000000 0.300000
0.619162 -0.465406 0.166508 0.600000 0.300000 0.000000
-0.608347 0.020476 -0.023618 0.300000 0.000000 0.600000
0.238706 -0.050423 0.144610 0.300000 0.000000 0.600000
-0.622010 -0.603434 0.213015 0.000000 1.000000 0.000000
-0.351223 0.736546 0.114354 1.000000 0.000000 0.000000
0.640697 -0.506592 -0.199211 0.600000 0.300000 0.000000
-0.095308 0.057888 0.247017 0.000000 0.500000 0.500000
-0.608347 -0.056417 0.041954 0.300000 0.000000 0.600000
0.327538 -0.764667 0.213015 0.600000 0.000000 0.300000
0.090071 -0.372645 -0.249992 0.800000 0.200000 0.500000
0.122234 -0.436173 0.247017 0.600000 0.000000 0.300000
0.619162 -0.429003 0.060434 0.600000 0.300000 0.000000
-0.580019 0.527192 0.268584 0.000000 0.500000 0.500000
0.190766 -0.038567 0.259058 0.600000 0.000000 0.300000
-0.069425 -0.646742 -0.249992 0.800000 0.200000 0.500000
-0.586811 0.269810 -0.066757 0.300000 0.000000 0.600000
0.171097 0.736546 -0.177785 1.000000 0.000000 0.000000
0.079434 0.423688 0.268843 0.600000 0.000000 0.300000
-0.098612 0.496633 0.259057 0.000000 0.500000 0.500000
0.619162 -0.461859 -0.220160 0.600000 0.300000 0.000000
-0.030417 0.736546 -0.249916 1.000000 0.000000 0.000000
-0.608347 0.361533 -0.179034 0.300000 0.000000 0.600000
0.238706 -0.697395 -0.014670 0.300000 0.000000 0.600000
-0.269605 0.682707 0.239443 0.300000 0.000000 0.600000
0.190883 -0.132990 -0.233841 0.800000 0.200000 0.500000
-0.586811 -0.618741 0.161847 0.300000 0.000000 0.600000
0.528841 0.715010 0.159489 1.000000 0.000000 0.000000
0.206403 -0.209796 0.107752 0.300000 0.000000 0.600000
-0.586811 -0.331512 0.021873 0.300000 0.000000 0.600000
-0.608347 -0.266878 -0.161671 0.300000 0.000000 0.600000
-0.096687 0.381906 0.247017 0.000000 0.500000 0.500000
0.212055 0.527812 0.213015 0.300000 0.000000 0.600000
0.153738 -0.245451 0.259057 0.600000 0.000000 0.300000
0.645720 -0.623061 0.269175 0.600000 0.000000 0.300000
0.619162 0.139942 0.085144 0.600000 0.300000 0.000000
0.581021 -0.770921 0.113076 0.000000 0.000000 1.000000
0.206403 -0.516532 -0.005116 0.300000 0.000000 0.600000
0.238706 -0.074245 -0.095658 0.300000 0.000000 0.600000
0.238706 -0.760194 0.047182 0.300000 0.000000 0.600000
0.131158 0.341312 -0.249992 0.800000 0.200000 0.500000
-0.272663 0.374515 -0.233841 0.800000 0.200000 0.500000
0.475322 -0.546615 0.259058 0.600000 0.000000 0.300000
-0.031976 0.736546 -0.160165 1.000000 0.000000 0.000000
0.273245 0.214800 -0.249992 0.800000 0.200000 0.500000
-0.039780 -0.384399 0.268905 0.000000 0.500000 0.500000
-0.161369 -0.421746 -0.233841 0.800000 0.200000 0.500000
0.640697 0.536643 -0.248398 0.600000 0.300000 0.000000
-0.206355 0.541323 0.020778 0.600000 0.000000 0.300000
-0.286728 0.647189 0.245318 0.000000 0.500000 0.500000
-0.451171 -0.323170 0.259058 0.000000 0.500000 0.500000
0.619162 -0.744266 -0.006616 0.600000 0.300000 0.000000
0.433000 -0.275759 -0.249992 0.800000 0.200000 0.500000
0.062688 -0.365461 0.268581 0.600000 0.000000 0.300000
0.206403 0.620365 -0.138121 0.300000 0.000000 0.600000
-0.359379 0.719550 0.268591 0.000000 0.500000 0.500000
0.660826 0.685026 -0.271527 0.000000 0.500000 0.500000
0.232936 0.736546 -0.098466 1.000000 0.000000 0.000000
0.319123 0.733790 0.245318 0.600000 0.000000 0.300000
-0.084979 -0.338149 0.259057 0.000000 0.500000 0.500000
0.483795 0.563499 0.247017 0.600000 0.000000 0.300000
0.206403 -0.394598 0.159505 0.300000 0.000000 0.600000
0.510185 0.708207 -0.233841 0.800000 0.200000 0.500000
0.420229 0.376726 0.247017 0.600000 0.000000 0.300000
-0.395745 0.716871 0.213015 0.300000 0.000000 0.600000
0.238706 0.148707 -0.179675 0.300000 0.000000 0.600000
0.149032 -0.792457 -0.200162 0.000000 0.000000 1.000000
0.494427 0.736546 -0.187614 1.000000 0.000000 0.000000
-0.500670 0.493362 -0.254329 0.500000 0.500000 0.000000
-0.079765 0.107028 0.273662 0.000000 0.500000 0.500000
-0.511165 0.049037 -0.249992 0.800000 0.200000 0.500000
-0.608347 -0.735536 0.179381 0.300000 0.000000 0.600000
0.619162 0.670242 -0.164131 0.600000 0.300000 0.000000
0.105458 0.502461 0.274451 0.600000 0.000000 0.300000
-0.206720 0.391912 0.259058 0.000000 0.500000 0.500000
0.149683 0.644737 0.275825 0.600000 0.000000 0.300000
-0.189548 0.711964 0.245318 0.300000 0.000000 0.600000
-0.224223 0.715010 -0.184789 1.000000 0.000000 0.000000
-0.011089 -0.044920 -0.249992 0.800000 0.200000 0.500000
0.032400 0.715010 0.185395 1.000000 0.000000 0.000000
0.206403 -0.057929 -0.166485 0.300000 0.000000 0.600000
-0.572389 0.300424 0.213015 0.000000 1.000000 0.000000
0.335959 -0.387499 -0.233841 0.800000 0.200000 0.500000
-0.337082 0.457039 0.259058 0.000000 0.500000 0.500000
-0.301072 -0.777471 0.245318 0.000000 0.500000 0.500000
-0.248682 -0.092732 -0.233841 0.800000 0.200000 0.500000
-0.206355 -0.755354 -0.229910 0.600000 0.000000 0.300000
-0.200833 -0.408650 -0.249992 0.800000 0.200000 0.500000
0.634076 -0.100480 0.245318 0.600000 0.000000 0.300000
0.290459 0.666834 0.245318 0.600000 0.000000 0.300000
0.168074 0.544120 -0.233841 0.800000 0.200000 0.500000
-0.166713 -0.792457 0.012517 0.000000 0.000000 1.000000
-0.477651 -0.540467 -0.249992 0.800000 0.200000 0.500000
0.630947 0.647635 -0.249992 0.000000 0.500000 0.500000
-0.017766 -0.576144 0.245318 0.000000 0.500000 0.500000
0.575733 0.715010 0.163658 1.000000 0.000000 0.000000
-0.608347 -0.334278 -0.087830 0.300000 0.000000 0.600000
0.640697 0.228995 0.049119 0.600000 0.300000 0.000000
0.567136 0.327719 0.245318 0.600000 0.000000 0.300000
0.407783 -0.792457 -0.188231 0.000000 0.000000 1.000000
0.222927 -0.391975 -0.233841 0.800000 0.200000 0.500000
-0.555086 0.064755 0.269166 0.000000 0.500000 0.500000
0.044436 -0.109711 0.268591 0.600000 0.000000 0.300000
-0.206355 0.052593 -0.023215 0.600000 0.000000 0.300000
0.619162 0.411000 0.060757 0.600000 0.300000 0.000000
0.061012 -0.404589 0.268582 0.600000 0.000000 0.300000
-0.174052 0.388644 0.177402 0.600000 0.000000 0.300000
0.567520 0.564976 -0.271527 0.000000 0.500000 0.500000
0.120368 0.385839 0.273000 0.600000 0.000000 0.300000
-0.023007 0.118419 -0.249992 0.800000 0.200000 0.500000
-0.608347 0.358989 0.007794 0.300000 0.000000 0.600000
0.401893 -0.541968 -0.249992 0.800000 0.200000 0.500000
0.624850 -0.792457 0.176265 0.000000 0.000000 1.000000
-0.533635 0.004809 0.274086 0.000000 0.500000 0.500000
-0.546834 -0.792457 0.101212 0.000000 0.000000 1.000000
-0.543266 -0.522782 -0.271527 0.500000 0.500000 0.000000
-0.554216 -0.792457 0.015321 0.000000 0.000000 1.000000
-0.206355 0.510685 -0.125401 0.600000 0.000000 0.300000
-0.608347 -0.290806 0.115499 0.300000 0.000000 0.600000
0.493070 0.154281 0.259058 0.600000 0.000000 0.300000
0.238706 -0.254576 0.084860 0.300000 0.000000 0.600000
0.469981 -0.770921 -0.187227 0.000000 0.000000 1.000000
0.640697 0.308976 -0.145300 0.600000 0.300000 0.000000
-0.608347 -0.253737 0.172921 0.300000 0.000000 0.600000
0.335946 0.521099 0.247017 0.600000 0.000000 0.300000
-0.586811 0.019521 -0.219841 0.300000 0.000000 0.600000
0.538968 -0.706033 0.277466 0.600000 0.000000 0.300000
-0.326497 0.533543 -0.233841 0.800000 0.200000 0.500000
0.206403 0.111805 -0.111049 0.300000 0.000000 0.600000
-0.517390 0.297368 0.271535 0.000000 0.500000 0.500000
0.640697 -0.326340 0.139981 0.600000 0.300000 0.000000
0.585080 -0.791833 0.245318 0.600000 0.000000 0.300000
-0.608347 0.646130 -0.099423 0.300000 0.000000 0.600000
0.003834 0.736546 -0.191976 1.000000 0.000000 0.000000
0.310144 -0.479380 -0.233841 0.800000 0.200000 0.500000
-0.206355 -0.683640 -0.024024 0.600000 0.000000 0.300000
0.249024 0.715010 -0.012158 1.000000 0.000000 0.000000
-0.028308 -0.375278 -0.271527 0.300000 0.600000 0.000000
0.397550 -0.792457 0.095124 0.000000 0.000000 1.000000
0.281268 -0.621202 -0.249992 0.800000 0.200000 0.500000
0.640697 0.154770 -0.163461 0.600000 0.300000 0.000000
0.046812 -0.438980 0.268590 0.600000 0.000000 0.300000
0.301605 -0.019358 0.247017 0.600000 0.000000 0.300000
0.619162 0.335401 -0.019198 0.600000 0.300000 0.000000
0.485444 0.715010 -0.127849 1.000000 0.000000 0.000000
-0.073609 0.003598 0.277553 0.000000 0.500000 0.500000
0.115405 0.515273 -0.249992 0.800000 0.200000 0.500000
-0.114002 0.585043 0.247017 0.000000 0.500000 0.500000
-0.435193 -0.159057 -0.233841 0.800000 0.200000 0.500000
0.031454 0.165778 -0.249992 0.800000 0.200000 0.500000
0.653708 -0.431410 0.246811 0.600000 0.000000 0.300000
-0.174052 0.575452 -0.023491 0.600000 0.000000 0.300000
-0.275807 0.539189 0.247017 0.000000 0.500000 0.500000
-0.431671 -0.770921 -0.071682 0.000000 0.000000 1.000000
-0.608347 0.475662 -0.068909 0.300000 0.000000 0.600000
-0.174052 -0.320618 0.032596 0.600000 0.000000 0.300000
-0.279081 -0.261648 0.259058 0.000000 0.500000 0.500000
0.352254 -0.331920 -0.249992 0.800000 0.200000 0.500000
0.619162 -0.723108 -0.104978 0.600000 0.300000 0.000000
-0.174052 0.660834 0.064687 0.600000 0.000000 0.300000
-0.050397 0.736546 0.164932 1.000000 0.000000 0.000000
-0.449193 -0.114360 0.259058 0.000000 0.500000 0.500000
0.582934 -0.792457 -0.081544 0.000000 0.000000 1.000000
0.619162 -0.316091 0.001715 0.600000 0.300000 0.000000
0.323120 0.670264 0.270926 0.600000 0.000000 0.300000
-0.608347 0.430286 0.001580 0.300000 0.000000 0.600000
-0.105573 0.736546 -0.270677 1.000000 0.000000 0.000000
0.206403 0.463771 0.212359 0.300000 0.000000 0.600000
-0.302710 0.715010 0.097043 1.000000 0.000000 0.000000
-0.462252 0.337062 -0.233841 0.800000 0.200000 0.500000
-0.608347 0.072558 0.170513 0.300000 0.000000 0.600000
0.391389 -0.800715 0.213015 0.600000 0.000000 0.300000
-0.608347 0.317749 -0.089866 0.300000 0.000000 0.600000
0.006997 0.126327 0.268582 0.000000 0.500000 0.500000
-0.457472 0.180386 -0.233841 0.800000 0.200000 0.500000
-0.606271 -0.542453 0.213015 0.000000 1.000000 0.000000
0.551459 -0.305237 -0.271527 0.000000 0.500000 0.500000
-0.534377 0.702797 0.268582 0.000000 0.500000 0.500000
0.089737 0.613160 0.245318 0.600000 0.000000 0.300000
-0.269273 -0.792457 0.037964 0.000000 0.000000 1.000000
0.619162 -0.323881 -0.238302 0.600000 0.300000 0.000000
-0.174052 -0.260277 0.139409 0.600000 0.000000 0.300000
0.619162 -0.430850 -0.060035 0.600000 0.300000 0.000000
-0.031976 0.267331 -0.233841 0.800000 0.200000 0.500000
-0.586811 0.534430 0.110935 0.300000 0.000000 0.600000
0.619162 -0.504073 -0.239629 0.600000 0.300000 0.000000
0.640697 -0.080058 0.122809 0.600000 0.300000 0.000000
0.653848 -0.770921 -0.200303 0.000000 0.000000 1.000000
0.039308 0.343286 0.268594 0.600000 0.000000 0.300000
0.152288 0.204488 -0.233841 0.800000 0.200000 0.500000
-0.206355 -0.544470 0.211276 0.600000 0.000000 0.300000
-0.624065 -0.329353 -0.249992 0.500000 0.500000 0.000000
0.640697 -0.520307 -0.147720 0.600000 0.300000 0.000000
-0.622845 0.196085 0.213015 0.000000 1.000000 0.000000
-0.378922 -0.792457 0.062584 0.000000 0.000000 1.000000
0.486702 0.366915 -0.249992 0.800000 0.200000 0.500000
-0.197094 0.007419 -0.233841 0.800000 0.200000 0.500000
0.592597 0.543523 -0.249992 0.000000 0.500000 0.500000
0.619162 -0.612666 -0.123598 0.600000 0.300000 0.000000
-0.174052 0.362185 0.116564 0.600000 0.000000 0.300000
-0.404800 0.747313 0.240503 0.300000 0.000000 0.600000
-0.306464 0.630330 -0.249992 0.800000 0.200000 0.500000
-0.206355 -0.583599 0.004053 0.600000 0.000000 0.300000
0.466778 0.123313 0.247017 0.600000 0.000000 0.300000
0.024251 -0.294347 0.250141 0.600000 0.000000 0.300000
0.078736 0.638001 -0.249992 0.800000 0.200000 0.500000
-0.119793 0.682707 0.221973 0.300000 0.000000 0.600000
0.189152 -0.434743 -0.249992 0.800000 0.200000 0.500000
0.230550 0.715010 0.045670 1.000000 0.000000 0.000000
-0.055008 0.736546 -0.107860 1.000000 0.000000 0.000000
0.080781 0.178856 -0.260186 0.300000 0.600000 0.000000
-0.623852 -0.803224 0.230464 0.600000 0.000000 0.300000
0.023582 -0.770921 -0.202000 0.000000 0.000000 1.000000
0.235193 -0.381887 0.247017 0.600000 0.000000 0.300000
0.301814 0.637691 -0.233841 0.800000 0.200000 0.500000
-0.565136 -0.792457 -0.167586 0.000000 0.000000 1.000000
0.270645 0.139306 0.247017 0.600000 0.000000 0.300000
-0.374093 0.446794 -0.249992 0.800000 0.200000 0.500000
-0.457060 0.061398 -0.233841 0.800000 0.200000 0.500000
0.577284 0.715010 0.193158 1.000000 0.000000 0.000000
-0.154552 -0.491365 0.259058 0.000000 0.500000 0.500000
-0.174052 -0.267730 -0.094547 0.600000 0.000000 0.300000
-0.174052 -0.565094 0.118400 0.600000 0.000000 0.300000
0.619162 0.132304 -0.199697 0.600000 0.300000 0.000000
-0.056191 0.715010 0.052630 1.000000 0.000000 0.000000
-0.586811 -0.309888 -0.242048 0.300000 0.000000 0.600000
0.070102 0.736546 -0.016268 1.000000 0.000000 0.000000
0.315380 -0.267309 0.247017 0.600000 0.000000 0.300000
-0.206355 -0.032174 -0.178462 0.600000 0.000000 0.300000
0.540625 0.516880 -0.249992 0.800000 0.200000 0.500000
-0.229101 0.025339 0.247017 0.000000 0.500000 0.500000
0.619162 0.536595 0.115087 0.600000 0.300000 0.000000
0.012386 -0.269934 0.269597 0.000000 0.500000 0.500000
0.437283 -0.217989 0.247017 0.600000 0.000000 0.300000
0.067091 0.064023 -0.233841 0.800000 0.200000 0.500000
-0.458443 -0.384090 -0.249992 0.800000 0.200000 0.500000
0.534069 0.401365 -0.249992 0.800000 0.200000 0.500000
0.452713 -0.427679 0.247017 0.600000 0.000000 0.300000
0.361147 -0.020353 0.259058 0.600000 0.000000 0.300000
0.321162 0.136466 0.259058 0.600000 0.000000 0.300000
0.238706 0.342340 -0.165058 0.300000 0.000000 0.600000
0.024547 -0.483445 0.247111 0.600000 0.000000 0.300000
0.443572 -0.559180 0.259058 0.600000 0.000000 0.300000
0.619162 -0.495554 -0.166913 0.600000 0.300000 0.000000
-0.089147 -0.771446 0.245318 0.000000 0.500000 0.500000
0.206403 0.542791 0.157383 0.300000 0.000000 0.600000
-0.586811 0.602949 -0.194686 0.300000 0.000000 0.600000
-0.044849 -0.019796 0.245318 0.000000 0.500000 0.500000
0.262085 0.594796 -0.249992 0.800000 0.200000 0.500000
-0.020515 -0.770921 0.025856 0.000000 0.000000 1.000000
0.419100 -0.018846 -0.233841 0.800000 0.200000 0.500000
-0.571199 0.474108 -0.271527 0.500000 0.500000 0.000000
0.619162 0.317125 -0.234445 0.600000 0.300000 0.000000
0.331283 0.633561 -0.233841 0.800000 0.200000 0.500000
-0.613267 0.035344 0.268491 0.000000 0.500000 0.500000
0.071820 -0.770921 0.198918 0.000000 0.000000 1.000000
0.029138 0.663917 0.245318 0.600000 0.000000 0.300000
-0.508714 0.718593 0.213015 0.300000 0.000000 0.600000
-0.206355 0.118395 0.132277 0.600000 0.000000 0.300000
0.206403 -0.225663 -0.150580 0.300000 0.000000 0.600000
-0.174052 0.164874 0.068013 0.600000 0.000000 0.300000
-0.399626 -0.712447 -0.233841 0.800000 0.200000 0.500000
0.402894 -0.593056 0.247017 0.600000 0.000000 0.300000
-0.333810 -0.113462 0.247017 0.000000 0.500000 0.500000
-0.206355 -0.172524 0.178666 0.600000 0.000000 0.300000
-0.206355 -0.557269 0.048468 0.600000 0.000000 0.300000
-0.135717 0.736546 0.127233 1.000000 0.000000 0.000000
-0.420978 0.174775 0.247017 0.000000 0.500000 0.500000
0.467761 0.492516 -0.233841 0.800000 0.200000 0.500000
0.206403 0.019944 0.149365 0.300000 0.000000 0.600000
-0.254701 -0.211428 -0.233841 0.800000 0.200000 0.500000
-0.164975 0.736546 -0.239492 1.000000 0.000000 0.000000
0.206403 -0.352955 0.094899 0.300000 0.000000 0.600000
-0.238214 0.235177 0.259058 0.000000 0.500000 0.500000
-0.629882 0.717355 -0.188355 1.000000 0.000000 0.000000
-0.585524 -0.142557 -0.271527 0.500000 0.500000 0.000000
-0.192924 -0.440474 -0.233841 0.800000 0.200000 0.500000
-0.340391 0.715010 0.033288 1.000000 0.000000 0.000000
0.236299 -0.511428 -0.249992 0.800000 0.200000 0.500000
0.619162 -0.644208 0.032812 0.600000 0.300000 0.000000
0.377796 0.287591 -0.249992 0.800000 0.200000 0.500000
-0.389664 -0.367510 -0.249992 0.800000 0.200000 0.500000
-0.518948 0.582318 -0.271527 0.500000 0.500000 0.000000
-0.152330 0.742782 0.213015 0.300000 0.000000 0.600000
0.401185 -0.792457 0.043415 0.000000 0.000000 1.000000
-0.535865 0.255167 0.245318 0.000000 0.500000 0.500000
-0.206355 0.109407 -0.145036 0.600000 0.000000 0.300000
0.238706 -0.451643 -0.176509 0.300000 0.000000 0.600000
-0.628283 -0.770921 0.139728 0.000000 0.000000 1.000000
0.555528 0.736546 -0.129778 1.000000 0.000000 0.000000
0.640697 0.423344 -0.013521 0.600000 0.300000 0.000000
0.174989 0.690562 0.245318 0.300000 0.000000 0.600000
-0.206355 0.403534 0.035180 0.600000 0.000000 0.300000
-0.614201 -0.256130 -0.271527 0.500000 0.500000 0.000000
-0.533636 -0.770921 -0.195229 0.000000 0.000000 1.000000
0.015851 0.633649 0.247053 0.000000 0.500000 0.500000
0.244257 -0.193640 0.259058 0.600000 0.000000 0.300000
-0.274149 0.602827 0.259057 0.000000 0.500000 0.500000
-0.608347 -0.761755 -0.055481 0.300000 0.000000 0.600000
0.619162 0.595935 -0.222268 0.600000 0.300000 0.000000
-0.367645 -0.524356 0.259058 0.000000 0.500000 0.500000
-0.276488 -0.475224 -0.233841 0.800000 0.200000 0.500000
0.602171 0.398270 -0.271527 0.000000 0.500000 0.500000
0.345958 -0.792457 -0.129286 0.000000 0.000000 1.000000
-0.586811 -0.522627 -0.094602 0.300000 0.000000 0.600000
-0.629882 0.106797 0.235010 0.000000 1.000000 0.000000
0.640697 -0.194090 -0.171456 0.600000 0.300000 0.000000
0.051003 -0.579028 0.268587 0.600000 0.000000 0.300000
0.206403 0.345784 -0.012854 0.300000 0.000000 0.600000
0.224293 0.419684 -0.249992 0.300000 0.000000 0.600000
0.640697 0.541472 -0.081371 0.600000 0.300000 0.000000
-0.214838 -0.259844 -0.249992 0.800000 0.200000 0.500000
0.619162 0.314811 0.132690 0.600000 0.300000 0.000000
-0.008234 0.084566 -0.271527 0.300000 0.600000 0.000000
0.206403 -0.716434 -0.189573 0.300000 0.000000 0.600000
0.352909 -0.366484 0.247017 0.600000 0.000000 0.300000
0.329675 0.715010 -0.034782 1.000000 0.000000 0.000000
0.619162 -0.260498 0.042519 0.600000 0.300000 0.000000
0.603601 0.521556 0.245318 0.500000 0.000000 0.500000
0.640697 -0.599886 -0.083524 0.600000 0.300000 0.000000
-0.174052 0.348041 -0.175259 0.600000 0.000000 0.300000
0.609998 -0.338925 -0.271527 0.000000 0.500000 0.500000
-0.292880 -0.770921 0.079455 0.000000 0.000000 1.000000
-0.174052 -0.689495 0.095621 0.600000 0.000000 0.300000
-0.586811 0.377823 0.138416 0.300000 0.000000 0.600000
0.005687 0.354527 -0.271527 0.300000 0.600000 0.000000
0.619162 -0.549599 -0.198127 0.600000 0.300000 0.000000
-0.112589 -0.770921 0.152626 0.000000 0.000000 1.000000
-0.613730 0.175201 0.260534 0.000000 0.500000 0.500000
-0.377279 -0.770921 -0.264081 0.000000 0.000000 1.000000
0.206403 -0.704762 -0.113915 0.300000 0.000000 0.600000
-0.608347 -0.181814 0.154031 0.300000 0.000000 0.600000
0.009449 0.735047 0.245318 0.300000 0.000000 0.600000
-0.048430 0.638821 -0.270322 0.300000 0.600000 0.000000
-0.608347 -0.301645 -0.056567 0.300000 0.000000 0.600000
0.307256 -0.792457 -0.000287 0.000000 0.000000 1.000000
-0.586811 -0.375477 -0.014633 0.300000 0.000000 0.600000
-0.629882 0.185721 -0.262507 0.500000 0.500000 0.000000
-0.174052 -0.339211 -0.047321 0.600000 0.000000 0.300000
0.206403 0.665599 -0.196575 0.300000 0.000000 0.600000
-0.308669 -0.803224 0.228084 0.600000 0.000000 0.300000
0.619162 -0.250170 -0.083792 0.600000 0.300000 0.000000
0.011908 -0.755484 -0.249992 0.800000 0.200000 0.500000
-0.432076 0.254047 0.259058 0.000000 0.500000 0.500000
-0.344166 -0.303482 -0.233841 0.800000 0.200000 0.500000
-0.174052 0.549458 0.050889 0.600000 0.000000 0.300000
-0.032379 -0.550036 0.245318 0.000000 0.500000 0.500000
-0.055646 -0.109823 -0.233841 0.800000 0.200000 0.500000
0.206403 0.701425 -0.147219 0.300000 0.000000 0.600000
0.512904 0.715010 -0.051899 1.000000 0.000000 0.000000
-0.608347 0.063892 -0.030941 0.300000 0.000000 0.600000
0.401234 0.255555 0.247017 0.600000 0.000000 0.300000
0.640697 0.596001 0.185289 0.600000 0.300000 0.000000
-0.028347 -0.761805 -0.249992 0.800000 0.200000 0.500000
-0.608347 -0.473724 0.141248 0.300000 0.000000 0.600000
-0.306179 0.358414 -0.249992 0.800000 0.200000 0.500000
0.640697 0.497508 -0.100045 0.600000 0.300000 0.000000
0.238706 0.326134 0.112460 0.300000 0.000000 0.600000
0.304124 0.204917 -0.249992 0.800000 0.200000 0.500000
0.640697 -0.284714 -0.138393 0.600000 0.300000 0.000000
0.359484 -0.146595 0.247017 0.600000 0.000000 0.300000
-0.607522 -0.671590 0.245318 0.000000 0.500000 0.500000
0.238706 0.599376 -0.161114 0.300000 0.000000 0.600000
-0.586811 0.091691 -0.163594 0.300000 0.000000 0.600000
0.080781 0.409763 -0.258436 0.300000 0.600000 0.000000
0.049974 0.715010 0.102896 1.000000 0.000000 0.000000
0.206403 0.395148 0.018520 0.300000 0.000000 0.600000
-0.608347 0.175262 0.062690 0.300000 0.000000 0.600000
0.639525 -0.280164 0.245318 0.600000 0.000000 0.300000
-0.629882 0.715895 -0.029895 1.000000 0.000000 0.000000
0.206403 0.571321 0.173858 0.300000 0.000000 0.600000
0.054895 0.542829 -0.249992 0.300000 0.600000 0.000000
0.639930 -0.683610 -0.271527 0.000000 0.500000 0.500000
0.106169 -0.707107 0.274710 0.600000 0.000000 0.300000
0.206403 0.674184 0.165486 0.300000 0.000000 0.600000
-0.504070 0.077888 0.247017 0.000000 0.500000 0.500000
0.619162 0.271840 -0.208488 0.600000 0.300000 0.000000
0.206403 0.386725 -0.212904 0.300000 0.000000 0.600000
0.238706 -0.590863 0.192575 0.300000 0.000000 0.600000
-0.500670 0.076475 -0.267061 0.500000 0.500000 0.000000
0.239430 0.715010 -0.149800 1.000000 0.000000 0.000000
0.380461 0.168921 0.259058 0.600000 0.000000 0.300000
0.648378 -0.008360 0.269597 0.600000 0.000000 0.300000
0.375724 0.736546 0.053590 1.000000 0.000000 0.000000
-0.578389 -0.396706 -0.249992 0.500000 0.500000 0.000000
0.239541 -0.225764 -0.233841 0.800000 0.200000 0.500000
0.282374 -0.651426 -0.249992 0.800000 0.200000 0.500000
-0.174052 -0.339520 0.181188 0.600000 0.000000 0.300000
0.124743 0.076737 -0.233841 0.800000 0.200000 0.500000
-0.174052 -0.035201 0.152766 0.600000 0.000000 0.300000
0.640697 -0.314211 -0.122639 0.600000 0.300000 0.000000
-0.608347 -0.397817 -0.151501 0.300000 0.000000 0.600000
-0.206355 0.686278 0.127757 0.600000 0.000000 0.300000
0.489645 0.736546 -0.048075 1.000000 0.000000 0.000000
0.533021 -0.272207 -0.251121 0.000000 0.500000 0.500000
0.468243 -0.792457 -0.250355 0.000000 0.000000 1.000000
0.393776 -0.127098 -0.233841 0.800000 0.200000 0.500000
-0.593167 0.613013 0.245318 0.000000 1.000000 0.000000
-0.331343 -0.588701 0.247017 0.000000 0.500000 0.500000
-0.586811 -0.020748 -0.246138 0.300000 0.000000 0.600000
0.633490 0.019401 -0.249992 0.000000 0.500000 0.500000
0.640697 0.451605 -0.200926 0.600000 0.300000 0.000000
-0.467367 -0.492612 -0.249992 0.800000 0.200000 0.500000
-0.586811 0.642303 -0.078243 0.300000 0.000000 0.600000
0.640697 -0.321571 -0.207338 0.600000 0.300000 0.000000
-0.335976 -0.234256 -0.233841 0.800000 0.200000 0.500000
-0.613730 0.718033 0.266142 0.000000 0.500000 0.500000
0.527955 0.046203 -0.233841 0.800000 0.200000 0.500000
-0.380684 -0.770921 -0.095577 0.000000 0.000000 1.000000
-0.189330 0.100628 -0.249992 0.800000 0.200000 0.500000
0.207465 -0.594401 0.213015 0.300000 0.000000 0.600000
-0.527788 -0.792457 -0.046582 0.000000 0.000000 1.000000
0.597627 0.627119 0.216247 0.500000 0.000000 0.500000
0.221043 -0.612767 -0.233841 0.300000 0.000000 0.600000
-0.356105 -0.552862 -0.249992 0.800000 0.200000 0.500000
-0.206355 -0.073321 -0.041401 0.600000 0.000000 0.300000
-0.001047 0.246830 0.245318 0.000000 0.500000 0.500000
0.648033 -0.712555 -0.271527 0.000000 0.500000 0.500000
-0.608347 -0.042664 -0.158244 0.300000 0.000000 0.600000
0.238706 -0.169960 -0.094814 0.300000 0.000000 0.600000
0.533021 -0.673560 -0.262270 0.000000 0.500000 0.500000
-0.586811 0.713301 -0.212278 0.300000 0.000000 0.600000
0.640697 -0.355051 -0.145432 0.600000 0.300000 0.000000
0.611154 -0.770921 -0.135851 0.000000 0.000000 1.000000
-0.387729 -0.627115 -0.233841 0.800000 0.200000 0.500000
-0.562216 0.715010 0.196001 1.000000 0.000000 0.000000
0.206403 -0.364045 -0.080857 0.300000 0.000000 0.600000
-0.467187 0.038207 0.247017 0.000000 0.500000 0.500000
0.619162 0.565572 0.194415 0.600000 0.300000 0.000000
-0.015096 0.649799 -0.271527 0.300000 0.600000 0.000000
-0.586811 0.114830 -0.181485 0.300000 0.000000 0.600000
0.206403 -0.342207 -0.021598 0.300000 0.000000 0.600000
-0.149701 -0.642086 -0.249992 0.800000 0.200000 0.500000
-0.110951 -0.518694 0.259057 0.000000 0.500000 0.500000
0.640697 0.350087 0.149745 0.600000 0.300000 0.000000
-0.174052 -0.391362 -0.179416 0.600000 0.000000 0.300000
0.238706 0.571059 -0.168569 0.300000 0.000000 0.600000
-0.330077 0.665107 0.245318 0.000000 0.500000 0.500000
0.651294 0.715010 0.096467 1.000000 0.000000 0.000000
-0.001352 -0.466158 0.245318 0.000000 0.500000 0.500000
-0.347867 -0.792457 0.024674 0.000000 0.000000 1.000000
0.401563 0.686148 -0.233841 0.800000 0.200000 0.500000
0.346409 -0.641030 -0.233841 0.800000 0.200000 0.500000
-0.461116 -0.680937 -0.233841 0.800000 0.200000 0.500000
-0.174052 0.076077 -0.169513 0.600000 0.000000 0.300000
-0.586811 -0.061924 0.178432 0.300000 0.000000 0.600000
0.135316 0.261553 -0.249992 0.800000 0.200000 0.500000
0.234757 -0.320077 -0.233841 0.300000 0.000000 0.600000
-0.608347 0.594324 0.082538 0.300000 0.000000 0.600000
-0.455242 -0.170029 0.247017 0.000000 0.500000 0.500000
0.640697 0.296021 -0.048115 0.600000 0.300000 0.000000
-0.225705 0.715010 -0.258543 1.000000 0.000000 0.000000
0.442204 0.723881 -0.271527 1.000000 0.000000 0.000000
-0.033663 0.628578 0.245318 0.000000 0.500000 0.500000
0.206403 -0.298141 -0.041431 0.300000 0.000000 0.600000
0.288370 -0.740222 0.213015 0.600000 0.000000 0.300000
-0.206355 -0.593556 0.149063 0.600000 0.000000 0.300000
0.206403 0.230629 -0.212361 0.300000 0.000000 0.600000
-0.586811 0.607637 -0.146954 0.300000 0.000000 0.600000
-0.537386 0.321412 -0.271527 0.500000 0.500000 0.000000
-0.206355 0.309895 -0.081685 0.600000 0.000000 0.300000
0.551337 -0.792457 -0.098618 0.000000 0.000000 1.000000
-0.206355 0.091623 0.198055 0.600000 0.000000 0.300000
0.608513 -0.069927 -0.249992 0.800000 0.200000 0.500000
0.050253 0.528955 0.268588 0.600000 0.000000 0.300000
0.074517 -0.606243 -0.249992 0.800000 0.200000 0.500000
-0.206355 0.280517 0.105046 0.600000 0.000000 0.300000
0.520986 0.399659 0.247017 0.600000 0.000000 0.300000
-0.442705 -0.770921 0.131125 0.000000 0.000000 1.000000
0.606757 0.736546 -0.227252 1.000000 0.000000 0.000000
-0.565276 0.246266 0.240632 0.000000 1.000000 0.000000
0.057435 0.745186 0.213015 0.300000 0.000000 0.600000
0.072451 0.682707 0.218543 0.300000 0.000000 0.600000
-0.363075 -0.738618 0.222746 0.600000 0.000000 0.300000
0.200839 -0.101085 -0.249992 0.800000 0.200000 0.500000
-0.174052 0.060583 0.184055 0.600000 0.000000 0.300000
0.645667 0.400241 0.245318 0.500000 0.000000 0.500000
0.590646 -0.048483 0.245318 0.600000 0.000000 0.300000
0.530147 -0.773849 0.245318 0.600000 0.000000 0.300000
-0.150196 0.345430 0.247017 0.000000 0.500000 0.500000
0.362143 -0.779307 0.245318 0.600000 0.000000 0.300000
-0.447018 -0.744338 0.245318 0.600000 0.000000 0.300000
-0.608347 0.148652 -0.143079 0.300000 0.000000 0.600000
0.424220 0.565271 0.247017 0.600000 0.000000 0.300000
0.640697 -0.057485 0.174994 0.600000 0.300000 0.000000
-0.055085 0.496218 0.271473 0.000000 0.500000 0.500000
0.114029 0.045644 0.277552 0.600000 0.000000 0.300000
0.177995 -0.441866 0.259058 0.600000 0.000000 0.300000
0.640697 0.673959 -0.072190 0.600000 0.300000 0.000000
-0.174052 0.171258 -0.181221 0.600000 0.000000 0.300000
-0.557472 -0.180580 -0.233841 0.800000 0.200000 0.500000
0.619162 0.152700 0.045252 0.600000 0.300000 0.000000
-0.586811 0.646148 -0.000275 0.300000 0.000000 0.600000
-0.206355 0.467820 0.111119 0.600000 0.000000 0.300000
0.544134 -0.577102 -0.233841 0.800000 0.200000 0.500000
-0.300427 0.454769 0.247017 0.000000 0.500000 0.500000
0.619162 -0.103112 -0.074343 0.600000 0.300000 0.000000
0.050233 -0.526417 0.245318 0.600000 0.000000 0.300000
0.202370 0.417051 0.259058 0.600000 0.000000 0.300000
0.624680 -0.792457 -0.006039 0.000000 0.000000 1.000000
-0.350982 -0.792457 0.156670 0.000000 0.000000 1.000000
0.452440 -0.180383 -0.249992 0.800000 0.200000 0.500000
0.581511 0.102998 -0.233841 0.800000 0.200000 0.500000
0.238706 0.043215 -0.124422 0.300000 0.000000 0.600000
-0.464624 -0.563780 0.247017 0.000000 0.500000 0.500000
0.274952 0.070841 -0.249992 0.800000 0.200000 0.500000
0.008941 -0.209602 -0.271527 0.300000 0.600000 0.000000
0.640697 -0.064809 0.024517 0.600000 0.300000 0.000000
-0.608347 -0.117917 0.175980 0.300000 0.000000 0.600000
-0.174052 0.141712 -0.134399 0.600000 0.000000 0.300000
-0.616737 -0.610822 -0.271527 0.500000 0.500000 0.000000
0.277946 -0.792457 -0.241630 0.000000 0.000000 1.000000
-0.206355 0.118358 -0.005032 0.600000 0.000000 0.300000
-0.147927 -0.633485 0.247017 0.000000 0.500000 0.500000
-0.608347 -0.722664 -0.153558 0.300000 0.000000 0.600000
0.430861 -0.792457 0.075159 0.000000 0.000000 1.000000
0.316820 -0.738618 0.236823 0.600000 0.000000 0.300000
0.619162 0.235000 -0.074204 0.600000 0.300000 0.000000
-0.101397 0.425362 -0.233841 0.800000 0.200000 0.500000
-0.020042 0.232661 0.268582 0.000000 0.500000 0.500000
-0.608347 0.285546 0.183147 0.300000 0.000000 0.600000
-0.586811 -0.350113 -0.133956 0.300000 0.000000 0.600000
-0.360836 0.425682 -0.233841 0.800000 0.200000 0.500000
0.564569 0.065077 -0.271527 0.000000 0.500000 0.500000
0.640697 0.187322 -0.172983 0.600000 0.300000 0.000000
0.465125 0.736546 0.182676 1.000000 0.000000 0.000000
-0.206355 -0.214461 -0.199551 0.600000 0.000000 0.300000
0.343342 -0.554895 -0.249992 0.800000 0.200000 0.500000
0.619162 0.202442 0.122302 0.600000 0.300000 0.000000
0.619162 -0.322674 0.168451 0.600000 0.300000 0.000000
-0.215640 -0.030063 -0.233841 0.800000 0.200000 0.500000
-0.032264 -0.745676 0.245318 0.000000 0.500000 0.500000
-0.586811 -0.662684 0.071782 0.300000 0.000000 0.600000
0.524086 -0.770921 0.199579 0.000000 0.000000 1.000000
0.116239 -0.520709 -0.233841 0.800000 0.200000 0.500000
-0.586811 -0.171444 0.112522 0.300000 0.000000 0.600000
-0.623997 0.006649 0.245318 0.000000 1.000000 0.000000
