ply
format ascii 1.0
element vertex 1264
property float x
property float y
property float z
property uchar red
property uchar green
property uchar blue
end_header
-0.647925 0.268246 -0.006600 76 0 153
0.662808 -0.483686 0.033625 0 255 0
-0.469789 0.171835 -0.253918 153 76 0
-0.467144 0.244985 0.206793 76 0 153
-0.775965 -0.141600 0.189957 76 0 153
0.065192 0.168245 0.173351 153 0 76
-0.719388 0.115213 0.191946 0 255 0
0.701113 -0.463392 0.097195 0 255 0
-0.133370 0.268246 -0.281202 76 0 153
-0.608894 0.244985 0.038532 76 0 153
0.162560 -0.461650 0.112155 204 51 127
0.318572 0.244985 -0.080695 76 0 153
0.206243 0.091952 -0.271613 153 76 0
0.655387 -0.386156 -0.236778 76 0 153
-0.201430 0.177703 -0.253918 153 76 0
-0.399129 0.268246 -0.213031 76 0 153
0.654591 0.193692 0.456403 76 0 153
-0.702509 -0.483125 0.080005 127 127 0
-0.156163 0.268246 -0.077845 76 0 153
-0.023006 0.244985 0.027335 76 0 153
0.228113 -0.461650 0.075200 204 51 127
0.363710 0.268246 -0.030542 76 0 153
-0.062605 -0.483686 0.068061 204 51 127
0.291744 0.129904 0.275125 204 51 127
0.314779 0.223833 -0.277179 153 76 0
0.737158 0.256545 -0.193886 76 0 153
-0.139691 0.221724 0.137419 204 51 127
0.434983 0.091952 0.082526 0 0 255
-0.775965 0.058037 -0.274699 153 76 0
0.694992 0.223156 -0.059448 0 0 255
0.497245 -0.483686 -0.205166 204 51 127
-0.336983 0.122558 -0.204394 76 153 0
0.701113 -0.197031 0.166306 153 0 76
-0.775965 0.237629 -0.261085 153 76 0
-0.109006 0.244985 0.041114 76 0 153
0.695571 -0.074247 -0.236778 76 0 153
0.068217 0.268246 -0.262474 76 0 153
0.697675 -0.461650 -0.132176 0 255 0
-0.602209 0.268246 0.175793 76 0 153
-0.083320 0.268246 -0.070119 76 0 153
-0.230587 -0.483686 0.103116 204 51 127
-0.769844 0.135799 -0.158325 255 0 0
-0.394752 0.142480 0.200285 0 255 0
-0.775965 -0.390133 -0.282137 153 76 0
0.587423 0.221724 0.125949 204 51 127
-0.574663 0.129904 0.140410 76 153 0
0.528011 0.221724 -0.253468 204 51 127
-0.622362 0.244985 0.207746 76 0 153
-0.138975 0.268246 -0.148556 76 0 153
-0.054167 0.115213 0.110373 0 0 255
-0.771235 -0.483686 -0.028736 127 127 0
0.105149 0.268246 -0.180102 76 0 153
0.607306 0.122558 0.355318 204 51 127
-0.737938 -0.477114 -0.283300 153 76 0
-0.507562 0.122558 -0.004701 76 153 0
0.098114 -0.461650 -0.223654 204 51 127
0.658205 -0.086573 -0.283300 76 0 153
-0.454806 0.129904 -0.063478 76 153 0
-0.729443 -0.358297 0.200620 76 0 153
0.065791 0.268246 0.147872 76 0 153
-0.030091 0.244985 0.123440 204 51 127
0.141623 0.212388 -0.131217 204 51 127
0.570205 -0.461650 0.134234 204 51 127
0.090526 0.115213 0.119909 0 0 255
0.367847 0.129904 0.104125 204 51 127
-0.723273 0.115213 -0.159045 127 0 127
0.097872 -0.483686 0.041941 204 51 127
0.639900 0.216967 0.242843 76 0 153
0.404458 -0.483686 -0.005310 204 51 127
-0.766062 0.091952 0.032450 255 0 0
0.123828 0.244985 -0.303139 76 0 153
-0.691048 0.229908 -0.277179 153 76 0
-0.307384 0.245890 0.231797 76 0 153
0.156966 0.091952 -0.059475 204 51 127
-0.017464 -0.483686 0.087166 204 51 127
-0.254727 0.268246 -0.020035 76 0 153
0.032991 -0.483686 -0.185400 204 51 127
-0.075481 0.244985 -0.304882 76 0 153
0.080416 -0.461650 0.136550 204 51 127
-0.006003 0.135550 0.200285 153 0 76
-0.735771 0.132569 -0.236778 153 76 0
-0.239315 0.221724 0.137100 204 51 127
-0.562771 0.221724 0.085871 204 51 127
-0.369666 0.122558 -0.175242 76 153 0
-0.395179 0.268246 0.029621 76 0 153
-0.367485 0.244985 0.059770 76 0 153
0.332503 0.244985 -0.186896 76 0 153
-0.769844 0.131370 -0.076924 255 0 0
-0.717240 0.221724 0.130910 204 51 127
-0.269118 0.109866 -0.044672 204 51 127
-0.586719 0.244985 -0.132753 76 0 153
0.412829 0.129904 0.144170 204 51 127
0.639900 0.178317 0.206413 76 0 153
-0.216475 0.131070 -0.044740 204 51 127
0.677872 0.169635 -0.283300 76 0 153
-0.733555 -0.406277 0.206407 76 0 153
0.179575 0.174020 0.443725 153 76 0
-0.220361 -0.483686 -0.197733 204 51 127
-0.188616 0.268246 0.068071 76 0 153
-0.575688 0.171997 -0.253918 153 76 0
0.194267 0.229937 0.005358 204 51 127
-0.775965 -0.172056 0.160308 76 0 153
-0.769388 -0.483686 0.130599 127 127 0
0.512221 0.268246 0.010957 76 0 153
0.258752 0.268246 0.101551 76 0 153
-0.209341 0.115213 0.143918 0 0 255
-0.305441 0.207170 -0.253918 153 76 0
0.628717 0.123831 0.083859 204 51 127
-0.434527 -0.461650 -0.234614 204 51 127
0.162420 0.244985 0.220847 76 0 153
-0.707618 -0.461650 -0.027443 127 127 0
0.667514 -0.572057 0.206407 153 0 76
-0.135558 0.127967 0.173351 153 0 76
0.310714 -0.461650 0.038459 204 51 127
-0.262647 0.129904 -0.115116 76 153 0
0.335857 0.244985 0.119677 204 51 127
-0.544892 0.268246 0.101099 76 0 153
0.001519 0.099474 -0.236778 204 51 127
0.665447 -0.155671 0.159885 153 0 76
0.145982 0.221724 -0.049700 204 51 127
-0.761638 0.204858 -0.236778 255 0 0
-0.714752 0.154611 -0.048016 127 0 127
0.671731 0.149856 0.122452 0 0 255
-0.130376 -0.483686 0.061362 204 51 127
0.310751 0.091952 0.097871 0 0 255
-0.775965 -0.249416 -0.282724 153 76 0
0.052504 0.268246 0.012476 76 0 153
-0.604536 0.268246 -0.266510 76 0 153
-0.643445 0.091952 0.082443 0 0 255
-0.087488 0.150000 0.173351 153 0 76
-0.336579 -0.461650 0.151125 204 51 127
-0.543899 0.091952 0.137411 0 0 255
-0.259369 0.268246 -0.167982 76 0 153
0.436013 0.162666 0.502558 76 0 153
0.393158 0.268246 -0.309264 76 0 153
-0.613197 0.091952 0.113466 0 0 255
-0.419785 0.268246 0.132059 76 0 153
0.402850 -0.483686 0.119767 204 51 127
-0.421818 0.268246 0.176408 76 0 153
0.530410 -0.483686 0.093081 204 51 127
-0.430447 0.244985 -0.099294 76 0 153
0.448044 0.129904 0.276701 204 51 127
-0.143615 0.268246 0.175994 76 0 153
0.166854 -0.483686 0.010320 204 51 127
-0.775965 -0.168157 -0.239461 153 76 0
0.544618 0.131615 0.502558 76 0 153
-0.266281 0.244985 -0.239710 76 0 153
0.274076 0.091952 0.197353 0 0 255
-0.185617 0.268246 0.195818 76 0 153
-0.280196 0.268246 0.149174 76 0 153
0.654591 0.229806 -0.140596 204 51 127
-0.346550 -0.461650 -0.154317 204 51 127
-0.378298 0.221724 0.181365 0 255 0
0.333986 0.122558 0.346325 204 51 127
0.203976 -0.483686 0.101228 204 51 127
-0.027687 -0.483686 -0.003578 204 51 127
0.659720 -0.531503 -0.236778 76 0 153
0.694992 0.109032 -0.098534 0 0 255
0.523078 0.091952 -0.270688 153 76 0
-0.769844 0.150838 0.011808 255 0 0
-0.645949 0.122558 -0.032935 76 153 0
0.663417 0.194790 -0.236744 204 51 127
0.011971 0.204046 0.200285 153 0 76
0.654591 -0.197588 -0.254008 76 0 153
-0.094368 -0.461650 -0.136921 204 51 127
0.490679 -0.461650 0.101305 204 51 127
-0.345234 -0.461650 -0.094385 204 51 127
-0.729093 0.244985 -0.206356 76 0 153
-0.648918 0.139597 0.200285 0 255 0
-0.254427 0.220325 -0.178939 127 127 0
-0.225551 -0.483686 -0.031845 204 51 127
0.701113 -0.479032 0.147633 0 255 0
-0.198096 0.268246 -0.082340 76 0 153
-0.267832 0.091952 0.160899 0 0 255
-0.495479 0.091952 0.139503 0 0 255
0.701113 -0.225010 -0.261997 76 0 153
-0.660328 0.244985 -0.197202 76 0 153
0.305021 0.247202 -0.310002 76 0 153
-0.652338 -0.483686 -0.084561 204 51 127
-0.605218 -0.461650 -0.014619 204 51 127
0.361209 0.244985 -0.108507 76 0 153
0.531499 0.129904 0.218248 204 51 127
-0.523282 0.105288 0.077859 0 0 255
-0.689862 -0.461650 0.156106 204 51 127
0.654591 0.021621 0.205385 153 0 76
0.211273 0.122558 0.348353 204 51 127
0.313977 0.184356 0.502558 76 0 153
-0.321219 0.244985 -0.179025 76 0 153
0.289880 -0.461650 -0.091043 204 51 127
0.654591 0.050654 0.167114 153 0 76
0.349115 0.091952 0.165145 0 0 255
-0.488782 0.167628 0.173351 0 255 0
0.075170 0.103869 -0.277179 153 76 0
0.493548 0.220584 0.475624 76 0 153
-0.267699 0.244985 0.066457 76 0 153
0.251558 0.221724 0.156845 204 51 127
-0.239736 0.182636 -0.063155 127 127 0
-0.580633 -0.461650 -0.080701 204 51 127
0.186767 0.129904 0.113612 204 51 127
-0.691321 0.097077 -0.236778 204 51 127
0.511781 0.244985 -0.082273 76 0 153
-0.431647 -0.461650 -0.112867 204 51 127
-0.247082 0.129696 -0.077047 127 127 0
0.675101 0.244985 0.085610 0 0 255
-0.034111 0.268246 -0.215470 76 0 153
-0.050733 0.105064 -0.277179 153 76 0
-0.729443 -0.208473 0.203875 76 0 153
0.595483 0.268246 -0.139660 76 0 153
0.612926 0.092259 0.200285 0 0 255
-0.626823 0.236160 -0.253918 153 76 0
-0.705562 0.244985 0.203727 76 0 153
0.618995 0.129904 0.425991 204 51 127
-0.428109 0.244985 -0.026312 76 0 153
-0.746582 0.233622 -0.026964 255 0 0
-0.738302 0.171878 0.206407 76 0 153
-0.343903 0.122558 -0.065348 76 153 0
-0.323435 0.221724 0.099606 204 51 127
0.454618 0.244985 -0.122866 76 0 153
0.654591 0.098117 0.111479 0 0 255
0.144223 0.244985 0.097482 204 51 127
0.356317 -0.483686 -0.139363 204 51 127
0.648922 0.221724 -0.056489 204 51 127
-0.746582 0.233674 0.015653 255 0 0
-0.166977 -0.483686 0.010133 204 51 127
-0.632829 -0.461650 0.043573 204 51 127
0.537683 0.188203 0.083859 153 0 76
-0.203445 0.217548 -0.277179 153 76 0
-0.292151 0.268246 0.104436 76 0 153
0.008768 0.201157 -0.277179 153 76 0
0.485641 -0.483686 -0.131781 204 51 127
-0.308319 0.244985 0.178318 76 0 153
-0.196379 0.244985 -0.129357 76 0 153
-0.775965 -0.590588 -0.249615 153 76 0
0.694992 0.226060 0.048544 0 0 255
-0.022150 0.244985 -0.153538 76 0 153
-0.559160 0.268246 -0.017038 76 0 153
0.415008 0.180791 -0.253918 153 76 0
0.193240 0.268246 0.139854 76 0 153
0.654591 -0.558143 -0.282740 76 0 153
-0.107006 -0.483686 0.118474 204 51 127
-0.417155 -0.461650 -0.061367 204 51 127
0.661335 -0.502915 0.206407 153 0 76
-0.400562 0.222683 0.077859 204 51 127
0.174643 0.129904 0.378480 204 51 127
0.610100 -0.483686 -0.068295 204 51 127
0.067322 0.228421 -0.277179 153 76 0
0.694992 0.093191 0.056687 0 0 255
0.358014 0.122558 0.459388 204 51 127
0.566817 0.129904 0.190548 204 51 127
-0.403452 0.106085 -0.277179 153 76 0
0.519670 0.229082 0.200285 204 51 127
-0.775547 -0.082073 0.206407 76 0 153
-0.070073 -0.461650 0.121214 204 51 127
-0.551729 -0.483686 -0.028897 204 51 127
-0.348205 0.122558 0.177680 76 153 0
0.173713 0.163258 0.083859 153 76 0
-0.091225 0.268246 0.143047 76 0 153
0.245374 0.268246 -0.071751 76 0 153
-0.763676 0.258854 0.243135 76 0 153
-0.598962 0.129904 -0.119631 76 153 0
0.603320 0.118260 -0.277179 153 76 0
-0.685486 0.244985 0.048401 76 0 153
0.248098 0.244985 -0.196768 76 0 153
-0.152234 0.244985 0.014873 76 0 153
-0.437963 -0.461650 0.003288 204 51 127
-0.113957 0.229021 0.077859 204 51 127
0.247963 0.268246 -0.127518 76 0 153
0.651039 0.221724 0.152860 204 51 127
0.498145 -0.461650 0.158351 204 51 127
0.164884 0.140073 -0.204021 204 51 127
0.367712 0.245353 0.231260 76 0 153
-0.584782 -0.483686 -0.197419 204 51 127
-0.650776 0.127198 -0.218414 76 153 0
-0.734128 0.024517 0.159885 76 0 153
0.552656 0.244985 0.135825 76 0 153
-0.367278 0.129904 0.081249 76 153 0
0.599978 -0.483686 -0.113886 204 51 127
0.568557 -0.461650 0.032704 204 51 127
0.654591 0.128539 0.160627 153 0 76
0.096053 0.091952 -0.237123 204 51 127
-0.729443 0.172910 -0.270738 153 76 0
-0.714752 0.175669 -0.098358 127 0 127
-0.225389 0.091952 0.033668 204 51 127
0.165378 0.221724 0.297370 153 76 0
-0.544015 0.135044 -0.253918 153 76 0
0.165404 0.115213 0.479375 76 0 153
-0.769844 0.190685 0.138832 255 0 0
-0.714752 0.154315 -0.184792 127 0 127
0.663965 -0.483686 -0.109016 0 255 0
0.313023 0.242319 0.200285 204 51 127
0.452909 0.129904 0.144849 204 51 127
0.164884 0.125612 0.073291 204 51 127
0.387027 0.120557 0.502558 76 0 153
-0.757002 -0.046343 0.159885 76 0 153
0.171035 -0.483686 -0.201599 204 51 127
0.677746 -0.041570 0.206407 153 0 76
0.524890 -0.461650 -0.015279 204 51 127
0.412147 0.195916 0.502558 76 0 153
0.400078 0.122558 0.390770 204 51 127
-0.512053 0.268246 -0.206818 76 0 153
0.472503 0.268246 -0.301899 76 0 153
-0.573451 0.219245 -0.218414 0 127 127
0.447312 0.244985 -0.184393 76 0 153
0.173046 0.221724 0.189697 204 51 127
-0.262902 0.091952 -0.186396 204 51 127
-0.432032 -0.461650 -0.177293 204 51 127
0.654591 -0.137449 0.194658 153 0 76
0.018810 -0.483686 0.131760 204 51 127
0.700216 -0.581025 -0.236778 76 0 153
0.343437 0.129904 0.176250 204 51 127
0.183447 0.164145 -0.253918 153 76 0
-0.524197 0.217581 -0.277179 153 76 0
-0.480132 -0.461650 -0.109386 204 51 127
0.605661 0.129904 0.289916 204 51 127
0.013628 0.244985 -0.082374 76 0 153
0.309081 -0.483686 -0.018728 204 51 127
-0.769844 0.218803 -0.163090 255 0 0
0.671731 0.231210 0.004478 0 0 255
0.157296 0.091952 -0.276740 153 76 0
-0.132031 0.268246 -0.211220 76 0 153
-0.746698 -0.247189 0.206407 76 0 153
0.210622 -0.461650 0.133701 204 51 127
-0.679708 0.122558 -0.099148 76 153 0
0.048710 0.221724 0.159599 204 51 127
-0.272995 0.134389 -0.277179 153 76 0
0.345225 0.268246 -0.262981 76 0 153
-0.254427 0.192965 -0.013775 127 127 0
-0.029103 0.221724 0.163896 204 51 127
0.179575 0.150962 0.312248 153 76 0
0.654591 -0.007478 -0.246686 76 0 153
-0.583993 -0.461650 0.122357 204 51 127
0.106298 0.268246 -0.127268 76 0 153
-0.675690 0.167609 -0.253918 153 76 0
-0.493125 -0.461650 0.082079 204 51 127
-0.729443 -0.345765 -0.239914 153 76 0
0.263211 0.129904 0.135545 204 51 127
0.355426 0.161607 0.083859 153 0 76
0.252062 0.129904 0.341925 204 51 127
0.361718 0.208848 -0.277179 153 76 0
-0.309768 0.244985 -0.076073 76 0 153
0.444500 0.244985 0.090412 204 51 127
-0.119004 0.228830 -0.277179 153 76 0
0.434551 0.246053 0.231960 76 0 153
-0.538473 0.268246 0.141627 76 0 153
-0.254427 0.162450 -0.143432 127 127 0
0.093891 0.221724 0.101919 204 51 127
0.394468 0.244985 -0.058045 76 0 153
0.626599 0.242764 0.200285 204 51 127
-0.572092 0.221724 0.185534 204 51 127
0.333163 0.122558 0.401366 204 51 127
-0.070961 -0.483686 -0.046223 204 51 127
-0.222781 0.122019 0.200285 153 0 76
0.116960 0.268246 -0.037549 76 0 153
-0.219251 0.244985 -0.194150 76 0 153
-0.600799 -0.483686 -0.133602 204 51 127
0.266517 0.268246 0.020431 76 0 153
0.654591 0.135187 -0.125389 204 51 127
0.392463 0.244985 0.161575 204 51 127
-0.029272 0.255823 0.241730 76 0 153
0.595609 -0.461650 -0.028568 204 51 127
-0.395850 0.185498 -0.218414 0 127 127
0.253390 0.129904 0.206774 204 51 127
-0.681351 -0.483686 -0.145144 204 51 127
-0.639748 0.244985 -0.085381 76 0 153
-0.352181 0.204437 -0.203723 0 127 127
-0.234965 0.091952 -0.025747 204 51 127
0.456900 0.129904 0.359497 204 51 127
-0.379962 -0.483686 -0.191272 204 51 127
0.194267 0.237183 -0.087619 204 51 127
0.611273 0.196003 0.083859 153 0 76
0.463170 0.115213 0.481689 76 0 153
0.096193 0.268246 0.037652 76 0 153
0.654591 0.126573 -0.206676 204 51 127
0.391236 -0.483686 -0.076689 204 51 127
-0.475438 0.188023 -0.218414 0 127 127
-0.744759 0.124847 0.159885 76 0 153
-0.748009 -0.483686 -0.164256 127 127 0
0.642876 -0.483686 0.083996 0 255 0
0.136405 0.091952 -0.240939 204 51 127
-0.175405 0.119993 0.200285 153 0 76
-0.772766 -0.348822 -0.283300 153 76 0
-0.613957 -0.483686 -0.091672 204 51 127
-0.638662 0.091952 0.162192 0 0 255
-0.239736 0.158295 -0.001012 127 127 0
-0.127884 0.091952 0.160548 0 0 255
0.701113 -0.622616 0.174817 153 0 76
0.369179 0.095786 0.200285 0 0 255
-0.140837 -0.461650 -0.209272 204 51 127
-0.408022 0.115213 0.168534 0 0 255
-0.022173 0.268246 0.061391 76 0 153
-0.535694 0.262296 0.243135 76 0 153
0.545047 0.268246 -0.238895 76 0 153
-0.061337 0.244985 -0.144080 76 0 153
0.459962 0.091952 0.117672 0 0 255
-0.640619 -0.461650 -0.154327 204 51 127
-0.198540 0.116671 -0.277179 153 76 0
0.202711 0.268246 0.206299 76 0 153
0.237575 -0.461650 -0.027186 204 51 127
-0.746582 0.149612 -0.112304 255 0 0
-0.216475 0.199775 0.011660 204 51 127
0.656307 0.082004 -0.236778 76 0 153
0.608432 0.244985 -0.274569 153 76 0
-0.512420 -0.483686 0.156260 204 51 127
-0.655909 -0.461650 -0.224237 204 51 127
-0.474025 -0.461650 -0.227123 204 51 127
0.648276 0.244985 0.032009 204 51 127
0.388488 -0.461650 0.158947 204 51 127
-0.801497 0.246032 -0.088579 76 0 153
-0.769844 0.221025 -0.095788 255 0 0
-0.483020 0.244985 -0.304085 76 0 153
-0.460165 0.113362 -0.236778 204 51 127
-0.078703 0.244985 0.070469 76 0 153
-0.729443 0.212728 -0.068659 127 0 127
-0.250008 0.244985 -0.088007 204 51 127
-0.042864 -0.483686 -0.090449 204 51 127
-0.392508 0.244985 0.108339 204 51 127
0.041846 -0.483686 -0.101550 204 51 127
0.164447 0.091952 -0.137551 204 51 127
0.643527 0.129904 0.233206 76 0 153
0.477846 0.244985 0.127034 76 0 153
-0.200315 0.244985 0.168821 204 51 127
-0.603434 0.100055 -0.277179 153 76 0
0.281734 0.268246 0.203979 76 0 153
0.624716 0.244985 0.128168 76 0 153
-0.781610 0.268246 -0.156610 76 0 153
0.038035 0.268246 0.207300 76 0 153
-0.667269 0.268246 -0.149482 76 0 153
-0.494550 -0.483686 -0.076076 204 51 127
0.374267 0.244985 0.054822 76 0 153
-0.451037 0.244985 -0.206267 76 0 153
0.666820 -0.461650 -0.003217 0 255 0
-0.381439 -0.483686 -0.024011 204 51 127
0.198772 0.140524 0.475624 76 0 153
0.164884 0.120882 -0.091409 204 51 127
0.367693 0.129904 0.236003 204 51 127
0.406190 0.234288 0.077859 204 51 127
-0.445336 0.091952 0.115638 0 0 255
-0.037499 0.221724 -0.239970 204 51 127
-0.467941 0.244985 -0.087757 76 0 153
0.701113 -0.428157 0.200948 153 0 76
0.422906 0.268246 0.160691 76 0 153
-0.660018 0.268246 0.080356 76 0 153
-0.663184 0.123688 -0.277179 153 76 0
-0.291450 0.122558 -0.139111 76 153 0
-0.769158 -0.363812 0.159885 76 0 153
0.671731 0.190517 0.120431 0 0 255
0.563442 0.206278 -0.277179 153 76 0
-0.216475 0.197513 -0.198023 204 51 127
0.044342 0.268246 -0.135043 76 0 153
-0.485049 0.244985 0.059904 76 0 153
0.694992 0.125650 -0.137298 0 0 255
-0.462527 0.161313 0.200285 0 255 0
-0.211985 0.165712 0.200285 153 0 76
0.194267 0.113165 -0.151973 204 51 127
0.273455 0.186822 0.502558 76 0 153
-0.294402 0.155943 0.173351 0 255 0
0.658797 0.244985 -0.105922 204 51 127
-0.767727 -0.437813 -0.283300 153 76 0
-0.369055 0.268246 -0.033569 76 0 153
-0.085454 0.244985 0.011218 76 0 153
-0.266617 -0.483686 -0.123533 204 51 127
0.584936 0.244985 -0.228859 76 0 153
0.685963 -0.483686 -0.256070 76 0 153
0.180534 0.129904 0.190658 204 51 127
-0.067347 0.268246 0.188961 76 0 153
0.671731 0.172944 -0.080671 0 0 255
0.292912 0.235774 0.077859 204 51 127
-0.622681 -0.483686 -0.192827 204 51 127
0.701113 0.150622 -0.258102 76 0 153
-0.276362 0.244985 -0.277582 76 0 153
0.642061 0.091952 -0.005940 0 0 255
-0.688346 0.194723 0.200285 0 255 0
0.576288 0.244985 -0.169487 76 0 153
0.220506 0.129904 0.262559 204 51 127
0.280842 -0.483686 0.138655 204 51 127
0.574773 -0.461650 -0.234430 204 51 127
-0.325650 -0.461650 -0.036519 204 51 127
-0.254427 0.161966 0.105897 127 127 0
-0.556176 0.122558 -0.168925 76 153 0
-0.392018 -0.461650 0.048790 204 51 127
0.540452 0.268246 -0.029822 76 0 153
-0.649033 0.230575 0.077859 204 51 127
0.204916 0.115213 -0.241790 204 51 127
0.200893 0.268246 0.027042 76 0 153
0.265502 0.115213 0.495264 76 0 153
-0.613474 0.173594 -0.253918 153 76 0
0.323932 0.147157 0.502558 76 0 153
-0.332885 0.221724 0.161436 204 51 127
0.382227 0.268246 -0.175417 76 0 153
-0.579076 0.244985 -0.087587 76 0 153
-0.216475 0.227356 -0.045931 204 51 127
0.160231 0.244985 -0.186982 204 51 127
0.654591 0.229870 -0.189734 204 51 127
-0.013225 0.132422 -0.277179 153 76 0
0.066357 -0.461650 -0.075380 204 51 127
-0.608211 0.131284 -0.253918 153 76 0
-0.795465 0.244985 -0.025614 76 0 153
-0.773306 -0.079802 -0.236778 153 76 0
-0.154016 -0.461650 0.080936 204 51 127
-0.088162 0.244985 -0.026357 76 0 153
-0.329482 -0.461650 0.030504 204 51 127
-0.779704 0.268246 0.129580 76 0 153
0.654591 -0.055464 0.180181 153 0 76
-0.347501 0.141047 -0.277179 153 76 0
0.291717 0.091952 0.163883 0 0 255
0.444860 0.244985 -0.083178 76 0 153
-0.686616 -0.483686 -0.207177 204 51 127
-0.035815 0.091952 0.161305 0 0 255
-0.089606 0.231285 -0.253918 204 51 127
0.537788 0.221724 0.101481 204 51 127
-0.197986 -0.461650 0.033583 204 51 127
-0.433433 0.244985 0.088128 204 51 127
-0.769059 0.037162 0.206407 76 0 153
-0.170363 0.244985 -0.258030 153 76 0
-0.677479 0.257069 0.242976 76 0 153
0.398793 0.122558 0.316481 204 51 127
0.329224 0.268246 -0.225042 76 0 153
-0.600600 0.115213 0.181072 0 0 255
0.161140 -0.461650 -0.105920 204 51 127
-0.573081 0.268246 -0.237457 76 0 153
0.618783 -0.483686 -0.171384 204 51 127
0.007709 -0.483686 -0.042124 204 51 127
-0.697974 0.115213 0.115322 0 0 255
0.143618 0.176132 0.200285 153 0 76
-0.383430 0.268246 0.176580 76 0 153
0.480726 0.091952 -0.273832 153 76 0
0.012949 0.268246 0.130677 76 0 153
-0.237105 0.091952 -0.111474 204 51 127
-0.769844 0.243688 0.071700 255 0 0
0.326004 -0.483686 0.107299 204 51 127
0.704489 0.268246 -0.026549 76 0 153
0.293742 0.203587 -0.253918 153 76 0
-0.316128 0.122558 0.077155 76 153 0
0.654591 0.137743 -0.050675 204 51 127
0.364956 0.129904 0.421966 204 51 127
0.210284 0.122558 0.402778 204 51 127
-0.647200 0.221724 0.189552 0 255 0
0.197869 0.244985 -0.240730 76 0 153
-0.714752 0.166683 -0.005090 127 0 127
-0.149779 -0.461650 -0.040361 204 51 127
0.221651 0.221724 0.476909 76 0 153
0.258558 0.162480 -0.277179 153 76 0
0.377424 0.160617 0.502558 76 0 153
0.018640 0.268246 -0.181074 76 0 153
0.243014 -0.483686 -0.208081 204 51 127
-0.714396 0.268246 0.125927 76 0 153
-0.487528 0.192054 0.218572 255 0 0
-0.639199 0.129904 -0.090413 76 153 0
-0.283350 0.221724 0.136577 204 51 127
-0.093163 0.091952 0.114203 0 0 255
0.502021 0.154132 0.502558 76 0 153
-0.293918 0.268246 0.043676 76 0 153
0.174832 0.244985 -0.287986 76 0 153
-0.313434 -0.461650 -0.219071 204 51 127
-0.674287 0.244985 0.143280 204 51 127
-0.175016 0.247610 -0.310410 76 0 153
-0.248740 0.244985 -0.303348 76 0 153
0.487776 0.129904 0.265991 204 51 127
-0.558128 0.129904 0.102183 76 153 0
0.654591 0.125425 -0.277905 76 0 153
-0.412291 -0.483686 -0.135666 204 51 127
0.164884 0.158141 0.126871 153 76 0
-0.124858 0.134605 -0.277179 153 76 0
-0.363604 0.268246 -0.095419 76 0 153
0.694992 0.232297 -0.127088 0 0 255
0.668944 -0.051030 -0.283300 76 0 153
0.136155 0.122469 -0.277179 153 76 0
-0.447550 -0.483686 0.130298 204 51 127
-0.769844 0.184788 -0.042598 255 0 0
-0.368693 -0.483686 -0.119749 204 51 127
0.708455 0.268246 -0.070215 76 0 153
-0.740228 0.244985 -0.099967 76 0 153
0.287017 -0.461650 -0.039881 204 51 127
0.358886 0.154019 -0.253918 153 76 0
0.532408 -0.479627 0.159885 204 51 127
-0.030034 0.268246 0.188417 76 0 153
-0.139614 0.221724 0.176388 153 0 76
0.245680 0.181791 0.083859 153 0 76
0.012041 0.091952 0.121774 0 0 255
-0.608408 0.244985 0.139663 76 0 153
-0.445501 0.244985 -0.289534 76 0 153
0.668791 -0.617423 0.206407 153 0 76
0.617066 0.091952 0.102245 0 0 255
0.701855 0.268246 0.073468 76 0 153
0.701113 0.050756 -0.247963 76 0 153
-0.739125 0.268246 -0.266784 76 0 153
0.214796 0.233414 -0.277179 153 76 0
-0.432369 0.244985 0.219905 76 0 153
0.101115 -0.483686 -0.150346 204 51 127
-0.549474 0.244985 -0.171581 76 0 153
-0.658228 0.122558 0.098595 76 153 0
-0.563239 0.154640 0.173351 0 255 0
-0.730512 -0.294826 -0.283300 153 76 0
0.706374 0.268246 0.170456 76 0 153
-0.044843 0.268246 -0.262425 76 0 153
-0.769844 0.181401 0.032252 255 0 0
-0.736194 -0.461650 -0.105251 127 127 0
0.541018 0.122558 0.309077 204 51 127
-0.608257 0.163199 0.173351 0 255 0
0.369097 0.244985 -0.288546 76 0 153
-0.438043 0.202778 -0.277179 153 76 0
-0.180342 0.196944 0.173351 153 0 76
-0.769844 0.181740 -0.101856 255 0 0
0.646697 0.268246 -0.038374 76 0 153
-0.002341 0.221724 0.102174 204 51 127
0.472012 0.268246 -0.158868 76 0 153
-0.081701 0.091952 -0.244099 204 51 127
0.659922 0.268246 -0.165117 76 0 153
-0.604844 0.093990 0.077859 0 0 255
-0.102051 0.268246 -0.233568 76 0 153
0.691522 0.268246 -0.198394 76 0 153
-0.367193 0.244985 0.207386 76 0 153
-0.074877 -0.483686 -0.212313 204 51 127
-0.541059 -0.461650 -0.133668 204 51 127
-0.221926 0.262113 0.243135 76 0 153
0.663561 -0.217949 0.206407 153 0 76
0.116802 0.244985 0.168332 204 51 127
0.141623 0.207291 0.135278 204 51 127
0.114351 0.115213 0.166398 0 0 255
0.073027 -0.483686 0.108297 204 51 127
-0.542593 0.268246 0.201542 76 0 153
0.397522 0.110038 -0.277179 153 76 0
0.118159 0.244985 -0.212728 76 0 153
0.237984 0.096773 0.200285 0 0 255
-0.125812 0.268246 -0.098144 76 0 153
0.300154 0.268246 -0.059425 76 0 153
0.654837 0.244985 -0.276352 76 0 153
-0.669118 0.268246 -0.069453 76 0 153
0.349027 -0.483686 0.029295 204 51 127
-0.460173 0.122558 -0.117910 76 153 0
-0.511583 0.221724 0.161519 204 51 127
-0.537976 0.268246 -0.081220 76 0 153
0.435704 -0.461650 0.058647 204 51 127
-0.076901 0.189644 0.173351 153 0 76
-0.025647 0.091952 0.108605 0 0 255
-0.428758 -0.483686 0.084816 204 51 127
0.561660 0.268246 0.239754 76 0 153
0.054704 0.260213 -0.320028 76 0 153
-0.612415 0.268246 -0.031610 76 0 153
-0.644412 0.268246 -0.228883 76 0 153
-0.775965 -0.007351 -0.250494 153 76 0
0.559419 0.129904 0.351156 204 51 127
-0.414085 0.178251 0.200285 0 255 0
-0.453154 0.149398 -0.277179 153 76 0
0.528137 -0.461650 -0.188358 204 51 127
0.390594 -0.461650 -0.201251 204 51 127
-0.265063 -0.483686 -0.052890 204 51 127
-0.775965 -0.315031 0.202271 76 0 153
-0.746582 0.124711 0.114315 255 0 0
0.463865 -0.461650 -0.070403 204 51 127
0.435940 0.268246 -0.013808 76 0 153
-0.221006 0.091952 -0.162383 204 51 127
0.226926 -0.483686 0.040727 204 51 127
0.065711 0.222899 0.077859 204 51 127
-0.729443 -0.450229 0.163686 76 0 153
0.383782 0.268246 -0.127477 76 0 153
-0.394291 0.150746 -0.277179 153 76 0
0.292770 0.122558 0.105137 204 51 127
-0.493992 0.129904 0.059479 76 153 0
-0.757365 -0.516145 -0.236778 153 76 0
-0.525066 0.109379 -0.236778 204 51 127
-0.716317 0.244985 -0.246116 204 51 127
0.375136 0.244985 -0.232625 76 0 153
0.575066 0.129904 0.091106 153 0 76
0.364918 -0.483686 -0.007107 204 51 127
0.694144 0.087920 -0.283300 76 0 153
0.546995 0.132560 -0.277179 153 76 0
0.511524 -0.461650 -0.067816 204 51 127
-0.336086 0.196069 -0.277179 153 76 0
-0.257287 0.268246 0.021288 76 0 153
-0.774991 -0.483686 -0.221489 127 127 0
0.188461 0.178187 0.502558 76 0 153
-0.705445 -0.461650 0.042209 127 127 0
0.385306 0.218853 0.475624 76 0 153
-0.335296 0.129904 -0.112745 76 153 0
0.469077 0.122558 0.176258 204 51 127
-0.731550 0.268246 0.009502 76 0 153
-0.775965 -0.217788 0.170435 76 0 153
0.653734 0.160839 0.482932 76 0 153
0.272910 0.244985 -0.254247 76 0 153
0.685962 0.244985 0.150675 76 0 153
-0.436848 0.221724 0.161969 204 51 127
0.448431 0.169657 0.083859 153 0 76
0.423960 0.268246 -0.239443 76 0 153
-0.675227 0.244985 -0.018252 76 0 153
-0.246836 0.268246 0.213238 76 0 153
0.266729 0.268246 0.146280 76 0 153
0.029538 0.091952 -0.273893 153 76 0
0.701113 -0.186108 0.202876 153 0 76
0.188764 0.244985 0.167226 76 0 153
-0.740875 -0.441244 -0.236778 153 76 0
0.625208 0.243968 -0.204908 204 51 127
0.623202 0.268246 0.174229 76 0 153
0.314218 0.268246 0.053151 76 0 153
-0.251649 0.129904 0.126036 76 153 0
0.383438 0.268246 0.010773 76 0 153
0.293910 -0.461650 -0.221438 204 51 127
-0.295163 0.091952 0.082497 0 0 255
0.059418 0.268246 -0.068097 76 0 153
0.044909 -0.461650 -0.159696 204 51 127
-0.560072 0.268246 -0.138824 76 0 153
-0.056453 0.268246 -0.117195 76 0 153
-0.638466 0.194300 -0.277179 153 76 0
-0.659354 0.214954 -0.218414 0 127 127
0.581957 0.183403 -0.253918 153 76 0
-0.254427 0.194639 -0.093535 127 127 0
0.674604 0.244985 -0.039731 0 0 255
-0.775965 0.072512 -0.241251 153 76 0
0.502503 0.115213 0.096719 0 0 255
-0.239736 0.118951 -0.194747 127 127 0
0.102799 0.091952 0.095651 0 0 255
0.557940 0.244985 0.058580 76 0 153
-0.529206 -0.483686 -0.192995 204 51 127
0.183848 -0.483686 0.042321 204 51 127
0.654591 0.143608 0.291313 76 0 153
0.087524 0.221724 0.185124 204 51 127
0.403541 0.115213 0.079860 0 0 255
0.334800 0.129904 0.117704 204 51 127
-0.278689 0.159970 -0.218414 0 127 127
-0.508168 0.154327 0.200285 0 255 0
0.433012 -0.461650 -0.042505 204 51 127
0.465976 0.244985 -0.035418 76 0 153
-0.234746 0.190414 -0.253918 153 76 0
-0.550134 -0.483686 0.030024 204 51 127
-0.309211 0.266318 -0.320028 76 0 153
0.585956 0.268246 -0.058325 76 0 153
0.694992 0.177115 0.009122 0 0 255
-0.162210 0.244985 -0.207850 76 0 153
-0.746582 0.157916 0.143448 255 0 0
-0.153241 -0.483686 -0.154146 204 51 127
0.694992 0.229875 -0.224172 0 0 255
-0.239736 0.161912 0.052141 127 127 0
-0.065134 0.191601 -0.253918 153 76 0
-0.230633 0.227423 0.077859 204 51 127
-0.725991 0.165225 0.173351 127 0 127
-0.775965 -0.176077 0.198820 76 0 153
-0.497053 0.244985 0.001330 76 0 153
0.663224 0.268246 0.194215 76 0 153
0.455795 -0.483686 0.078015 204 51 127
0.265432 0.122558 0.297873 204 51 127
0.216962 -0.483686 -0.162874 204 51 127
-0.361842 0.184441 0.200285 0 255 0
-0.078249 0.221724 0.148280 204 51 127
0.288882 0.169520 0.475624 76 0 153
-0.729443 -0.532285 0.192692 76 0 153
-0.739229 0.232511 0.159885 76 0 153
0.308948 0.221724 0.111855 204 51 127
0.546370 0.091952 0.164582 0 0 255
0.284793 0.244985 -0.135566 76 0 153
-0.122192 -0.483686 -0.136413 204 51 127
-0.556518 0.244985 0.032242 76 0 153
-0.042248 0.107515 0.077859 0 0 255
0.285039 0.122558 0.352728 204 51 127
-0.312152 0.244985 -0.233794 76 0 153
0.497897 0.091952 0.123216 0 0 255
-0.684760 0.091952 0.085773 0 0 255
0.463542 0.129904 0.109099 204 51 127
0.674512 0.089587 0.206407 153 0 76
-0.361520 -0.483686 0.019081 204 51 127
0.538777 0.122558 0.113708 204 51 127
0.429714 -0.461650 0.006080 204 51 127
-0.769844 0.093821 -0.137919 255 0 0
0.221024 0.091952 0.077930 0 0 255
-0.052745 0.103177 0.200285 0 0 255
-0.726781 0.244985 0.080402 204 51 127
-0.451214 0.244985 -0.138459 76 0 153
-0.691469 0.122558 -0.132467 76 153 0
0.671731 0.123401 0.074289 204 51 127
-0.152540 0.268246 0.220623 76 0 153
0.467597 0.126738 -0.253918 153 76 0
0.394812 0.244985 0.115384 76 0 153
0.654591 -0.248503 -0.249439 76 0 153
0.671731 0.225597 0.116537 0 0 255
0.603021 0.149499 0.502558 76 0 153
0.173197 0.244985 0.029334 204 51 127
-0.320556 0.244985 0.023268 76 0 153
-0.622537 0.244985 0.004752 76 0 153
0.575827 -0.461650 -0.176881 204 51 127
0.701113 0.106975 0.179114 153 0 76
-0.714752 0.186388 -0.131938 127 0 127
0.693256 -0.238836 0.159885 153 0 76
-0.699517 0.190338 -0.277179 153 76 0
0.210604 -0.461650 -0.199737 204 51 127
0.569324 -0.483686 -0.038297 204 51 127
0.075899 0.268246 0.069047 76 0 153
-0.506832 0.165054 -0.203723 0 127 127
-0.212184 -0.483686 -0.144648 204 51 127
-0.122286 0.244985 0.117604 204 51 127
0.068467 0.091952 0.103254 0 0 255
-0.741726 0.028973 -0.283300 153 76 0
0.475864 0.221724 0.084673 153 0 76
0.413540 -0.483686 -0.116500 204 51 127
-0.515798 0.122558 0.161673 76 153 0
0.546926 -0.461650 -0.131325 204 51 127
0.294360 0.244985 -0.016264 76 0 153
-0.729443 0.210087 -0.210260 127 0 127
-0.381732 0.268246 -0.180669 76 0 153
-0.365508 0.091952 0.171194 0 0 255
-0.224369 0.244985 -0.248394 204 51 127
0.100242 0.244087 -0.277179 153 76 0
0.343725 0.268246 -0.163158 76 0 153
0.138543 0.120089 0.200285 153 0 76
-0.239095 0.244985 -0.151365 204 51 127
0.287684 -0.483686 0.023889 204 51 127
-0.385987 0.122558 0.114438 76 153 0
0.419865 0.129904 0.466382 204 51 127
-0.287574 -0.483686 -0.004713 204 51 127
0.221274 0.268246 -0.179945 76 0 153
-0.611386 0.268246 -0.072618 76 0 153
0.262875 -0.483686 -0.094068 204 51 127
0.448318 0.234173 0.200285 204 51 127
0.468789 0.238295 -0.277179 153 76 0
-0.092902 0.115213 0.159060 0 0 255
-0.066209 -0.483686 0.029043 204 51 127
-0.807241 0.251776 0.202686 76 0 153
-0.425123 0.167148 -0.203723 0 127 127
-0.184499 -0.461650 0.132522 204 51 127
0.100081 -0.483686 0.155153 204 51 127
-0.366608 0.268246 -0.130176 76 0 153
-0.233164 0.091952 0.164759 0 0 255
0.554846 0.268246 -0.293064 76 0 153
0.565993 0.244985 0.103620 204 51 127
-0.294468 0.096337 -0.236778 204 51 127
0.701113 -0.336826 -0.275333 76 0 153
0.260879 0.129904 0.407384 204 51 127
0.158619 0.194790 0.068175 204 51 127
-0.351995 -0.461650 -0.207234 204 51 127
-0.656556 0.115213 0.142285 0 0 255
-0.243427 0.213650 0.192940 0 255 0
0.701113 -0.462989 -0.053513 0 255 0
-0.361558 0.268246 0.136698 76 0 153
0.627657 -0.465692 0.134870 204 51 127
0.333828 -0.483686 -0.088999 204 51 127
0.064654 -0.483686 -0.039133 204 51 127
0.141623 0.233641 0.064329 204 51 127
-0.523083 -0.483686 0.110330 204 51 127
0.269716 0.244985 -0.060031 76 0 153
0.022078 0.268246 0.072699 76 0 153
-0.664914 -0.461650 0.014922 204 51 127
-0.585732 0.244985 0.071734 76 0 153
-0.253425 -0.461650 0.085555 204 51 127
0.619089 0.244985 0.069810 76 0 153
-0.714752 0.220667 0.031508 127 0 127
-0.506454 0.244985 0.136405 204 51 127
-0.013873 0.244985 -0.039481 76 0 153
-0.677148 0.119592 0.200285 0 255 0
0.140003 -0.461650 -0.144509 204 51 127
0.536218 0.206527 0.475624 76 0 153
-0.731021 0.022867 -0.236778 153 76 0
-0.311162 0.268246 -0.101607 76 0 153
-0.742274 0.224356 -0.283300 153 76 0
-0.298049 -0.483686 -0.197372 204 51 127
0.028725 -0.483686 -0.225502 204 51 127
0.701113 0.243284 -0.258636 76 0 153
-0.769844 0.118791 -0.234738 255 0 0
0.698514 -0.140986 -0.236778 76 0 153
0.654280 0.221724 0.321814 76 0 153
-0.751263 -0.483686 0.172357 127 127 0
0.671731 0.161896 -0.188846 0 0 255
-0.526535 0.244985 -0.139723 76 0 153
0.654088 0.115213 0.466863 76 0 153
0.672965 -0.483686 -0.216393 0 255 0
-0.764370 -0.329272 -0.236778 153 76 0
-0.775965 -0.596672 0.172473 76 0 153
-0.118495 -0.483686 -0.195064 204 51 127
-0.211686 0.244985 0.133147 76 0 153
-0.478250 0.221724 -0.211900 0 127 127
-0.042471 0.191436 0.173351 153 0 76
-0.291292 0.244985 -0.162032 76 0 153
-0.070906 0.244985 -0.187143 76 0 153
0.634331 0.268246 -0.006263 76 0 153
0.424101 0.204448 -0.277179 153 76 0
0.331375 0.129904 0.294366 204 51 127
-0.812693 0.266097 0.120112 76 0 153
0.510794 0.268246 -0.233446 76 0 153
-0.529831 0.129904 -0.108692 76 153 0
-0.621453 0.268246 -0.185374 76 0 153
0.566150 0.244985 -0.130267 76 0 153
-0.596236 0.237256 -0.236778 204 51 127
-0.102926 0.164707 0.200285 153 0 76
-0.673914 0.149818 0.173351 0 255 0
-0.645620 0.244985 -0.303170 76 0 153
-0.746005 -0.190278 0.159885 76 0 153
-0.465322 0.244985 -0.052252 76 0 153
0.152305 0.142147 -0.161212 204 51 127
-0.223084 0.122372 -0.253918 204 51 127
-0.775936 -0.516736 0.159885 76 0 153
0.340562 0.091952 -0.268278 153 76 0
-0.672829 0.244985 -0.252386 76 0 153
-0.379502 0.122558 -0.139918 76 153 0
0.409706 0.146342 0.517183 153 0 76
-0.155812 -0.483686 -0.120002 204 51 127
-0.424568 -0.481659 0.159885 204 51 127
0.022361 0.244985 -0.156241 76 0 153
-0.453841 0.122558 0.132917 76 153 0
-0.312768 0.115213 0.171632 0 0 255
-0.670961 0.122558 0.044180 76 153 0
0.368528 -0.461650 0.060374 204 51 127
0.506726 0.167788 -0.253918 153 76 0
0.161030 0.091952 0.113072 0 0 255
-0.297622 -0.461650 -0.116911 204 51 127
-0.565111 0.129904 -0.124543 76 153 0
0.031320 0.163513 0.173351 153 0 76
0.664185 0.091952 0.035954 204 51 127
-0.307644 0.268246 -0.050984 76 0 153
0.654591 0.133147 -0.164286 204 51 127
-0.481612 -0.461650 -0.193817 204 51 127
-0.714752 0.150531 0.101947 127 0 127
-0.461923 0.129904 0.071105 76 153 0
0.454573 -0.461650 -0.103407 204 51 127
0.519760 -0.461650 0.069337 204 51 127
0.672840 -0.483686 0.179871 153 0 76
0.737841 0.266141 -0.018896 76 0 153
-0.237501 0.115213 0.083952 0 0 255
-0.733162 0.268246 -0.316353 76 0 153
0.567199 0.151633 0.475624 76 0 153
0.141623 0.108623 -0.010334 204 51 127
-0.218753 0.142147 0.020920 204 51 127
-0.772283 0.087591 0.206407 76 0 153
-0.471892 0.091952 0.174796 0 0 255
-0.319653 0.134208 -0.253918 153 76 0
-0.120640 0.244985 0.208920 76 0 153
0.329787 0.268246 -0.042773 76 0 153
-0.457958 0.268246 0.084721 76 0 153
-0.215427 -0.461650 -0.108429 204 51 127
-0.006622 0.268246 0.213019 76 0 153
0.006805 -0.483686 -0.076065 204 51 127
-0.450939 -0.461650 0.071580 204 51 127
-0.564158 0.221724 0.149852 204 51 127
0.121143 0.163723 -0.253918 153 76 0
-0.120384 0.244985 -0.132284 76 0 153
-0.254427 0.209876 0.102899 127 127 0
0.685110 0.207313 0.206407 153 0 76
-0.527369 0.122558 -0.075517 76 153 0
0.155178 0.244985 0.156403 204 51 127
0.112700 0.142027 0.200285 153 0 76
0.412575 0.244985 -0.268476 153 76 0
-0.347783 0.091952 -0.241584 204 51 127
-0.431840 0.129904 -0.034588 76 153 0
-0.064462 0.268246 -0.001667 76 0 153
0.639900 0.193843 0.375197 76 0 153
-0.594847 -0.461650 -0.221089 204 51 127
-0.728234 -0.461650 0.072066 127 127 0
0.383079 -0.461650 -0.165015 204 51 127
0.253499 -0.483686 0.071256 204 51 127
-0.601936 0.244985 -0.200864 76 0 153
0.123906 0.244985 -0.156589 76 0 153
0.334936 0.244985 -0.294372 76 0 153
-0.676327 0.268246 0.018305 76 0 153
0.473742 0.268246 0.049939 76 0 153
-0.404079 0.268246 -0.021350 76 0 153
-0.233266 0.164843 0.173351 153 0 76
0.139716 -0.483686 0.131893 204 51 127
-0.450333 0.244985 0.125887 204 51 127
-0.149169 0.115213 0.116577 0 0 255
-0.255224 -0.461650 0.010134 204 51 127
-0.102472 0.268246 -0.157907 76 0 153
-0.540721 0.122558 0.001542 76 153 0
-0.746674 -0.461650 -0.035722 127 127 0
-0.247082 0.128532 -0.147428 127 127 0
0.063196 0.244985 0.187007 204 51 127
-0.517025 0.244985 0.034274 76 0 153
-0.729443 0.201681 0.000363 127 0 127
-0.769844 0.208847 0.081742 255 0 0
0.377446 0.221724 0.180749 204 51 127
0.370939 0.122558 0.341675 204 51 127
0.585982 -0.461650 0.083074 204 51 127
0.164884 0.121539 -0.036017 204 51 127
-0.746582 0.128092 0.075451 255 0 0
0.704471 0.258121 -0.320028 76 0 153
0.671731 0.194249 0.066184 0 0 255
-0.635732 0.244985 0.105199 76 0 153
-0.489964 0.268246 -0.151783 76 0 153
-0.750237 0.268246 0.208028 76 0 153
-0.003522 0.244985 0.168471 76 0 153
0.446119 -0.461650 0.138091 204 51 127
0.600358 -0.461650 0.021789 204 51 127
0.385612 0.244985 -0.199449 76 0 153
-0.496134 0.122558 -0.134933 76 153 0
0.446982 0.148333 -0.277179 153 76 0
-0.474216 0.244985 0.173940 204 51 127
-0.586696 0.268246 0.205582 76 0 153
-0.283507 0.196971 -0.277179 153 76 0
-0.749807 0.083344 -0.283300 153 76 0
0.164884 0.155623 0.231255 153 76 0
-0.679597 0.122558 -0.023646 76 153 0
0.239799 0.141394 -0.253918 153 76 0
-0.354414 -0.461650 -0.005087 204 51 127
-0.237509 0.194790 -0.153030 204 51 127
0.035424 0.244985 0.139227 76 0 153
-0.169097 0.115213 0.078916 0 0 255
0.216766 0.244985 -0.130841 76 0 153
0.694992 0.135663 -0.069144 0 0 255
-0.511776 -0.483686 -0.041440 204 51 127
0.202121 0.129904 0.083924 204 51 127
0.694992 0.189860 -0.056627 0 0 255
0.694992 0.175884 0.139430 0 0 255
0.701113 -0.328053 -0.237201 76 0 153
-0.366157 0.150392 0.173351 0 255 0
0.138649 0.268246 -0.176573 76 0 153
-0.253393 0.129904 -0.012080 127 127 0
0.517172 0.244985 0.086664 204 51 127
0.511785 0.221724 0.168301 204 51 127
-0.558302 0.268246 -0.053116 76 0 153
-0.704728 -0.483686 -0.172347 127 127 0
0.701113 -0.092833 0.166986 153 0 76
0.329420 -0.461650 -0.194390 204 51 127
0.520010 0.268246 -0.164860 76 0 153
0.695743 0.251869 0.237776 76 0 153
-0.055596 -0.483686 0.100652 204 51 127
-0.429493 0.190431 0.173351 0 255 0
-0.101933 0.115213 0.085228 0 0 255
0.654591 -0.470157 -0.270914 76 0 153
-0.353764 -0.461650 0.080706 204 51 127
0.654591 -0.321968 0.183480 153 0 76
0.670498 -0.221247 -0.236778 76 0 153
-0.723308 0.115213 0.017966 127 0 127
0.193782 0.193396 0.098550 153 0 76
-0.142448 0.268246 0.102305 76 0 153
0.369405 -0.483686 -0.102406 204 51 127
0.252476 -0.461650 -0.141376 204 51 127
0.179575 0.184538 0.372426 153 76 0
0.173598 0.091952 0.165450 0 0 255
-0.171961 0.115213 0.167528 0 0 255
-0.481498 0.255254 0.241161 76 0 153
0.634686 0.268246 -0.070822 76 0 153
-0.363886 -0.461650 0.122946 204 51 127
0.200104 0.244985 -0.023698 76 0 153
-0.392635 0.256764 0.242671 76 0 153
0.654591 0.040184 -0.281743 76 0 153
0.437468 -0.461650 -0.196279 204 51 127
-0.256630 -0.461650 0.051719 204 51 127
-0.211223 0.244985 0.036605 76 0 153
0.658005 0.091952 -0.063121 204 51 127
0.694992 0.208195 -0.002579 0 0 255
0.645540 0.122558 0.356453 76 0 153
-0.319857 0.268246 0.201167 76 0 153
-0.324180 0.130131 0.200285 0 255 0
0.043623 -0.461650 0.132157 204 51 127
-0.416040 0.244985 0.057355 76 0 153
0.154796 -0.483686 0.085364 204 51 127
-0.106339 0.091952 -0.269479 153 76 0
-0.519186 0.268246 -0.108557 76 0 153
0.690099 -0.265917 -0.283300 76 0 153
-0.557017 0.204224 -0.277179 153 76 0
0.565094 0.162853 0.083859 153 0 76
0.141623 0.240297 0.020466 204 51 127
0.639900 0.174149 0.115160 76 0 153
-0.410307 0.122558 0.083624 76 153 0
-0.630089 0.268246 -0.136584 76 0 153
0.124393 -0.483686 -0.022366 204 51 127
0.578126 0.244985 0.166207 204 51 127
0.355007 0.244985 0.148040 204 51 127
-0.505163 0.244985 -0.272149 153 76 0
0.687431 -0.461650 0.034315 0 255 0
-0.693803 0.091952 0.141924 0 0 255
0.229499 0.244985 0.164857 76 0 153
0.654591 -0.354624 -0.246599 76 0 153
-0.016067 0.244985 -0.291426 76 0 153
-0.703220 0.122673 -0.253918 153 76 0
0.154114 0.194665 -0.277179 153 76 0
0.581229 0.101479 0.200285 0 0 255
0.671731 0.116792 0.132613 204 51 127
-0.297532 0.122558 0.104410 76 153 0
-0.344905 0.268246 0.068332 76 0 153
0.654591 0.201781 -0.121189 204 51 127
-0.715888 0.268246 -0.073637 76 0 153
-0.197306 0.205546 0.200285 153 0 76
-0.173525 0.268246 -0.134208 76 0 153
0.234801 0.143770 0.475624 76 0 153
0.142247 0.115213 -0.144764 204 51 127
-0.385290 -0.461650 -0.052988 204 51 127
0.665868 0.119435 -0.236778 204 51 127
0.589997 0.268246 -0.291897 76 0 153
0.204828 0.221724 0.113157 204 51 127
0.654591 0.064185 0.197131 153 0 76
0.611890 0.258422 -0.320028 76 0 153
-0.105511 -0.461650 0.054678 204 51 127
0.518095 0.163557 0.098550 153 0 76
0.654591 -0.539072 0.201941 153 0 76
-0.616895 -0.461650 0.122784 204 51 127
0.277670 0.244985 0.167618 204 51 127
-0.413848 -0.483686 0.007163 204 51 127
-0.779420 0.268246 -0.309627 76 0 153
0.205917 -0.483686 -0.062659 204 51 127
-0.580423 -0.483686 -0.012844 204 51 127
0.060291 0.244985 -0.219424 76 0 153
-0.441298 0.129904 0.005951 76 153 0
-0.709822 -0.483686 0.112048 127 127 0
0.164884 0.201883 0.347587 153 76 0
0.522431 0.116397 0.475624 76 0 153
0.141623 0.227230 -0.227348 204 51 127
0.343043 -0.463325 0.159885 204 51 127
0.294583 0.190906 0.083859 153 0 76
-0.729443 -0.558713 -0.262392 153 76 0
0.654591 0.148054 0.208180 76 0 153
0.091703 0.268246 -0.096188 76 0 153
0.191141 -0.483686 -0.111612 204 51 127
-0.661505 -0.483686 0.140901 204 51 127
-0.714752 0.194233 0.089380 127 0 127
0.671731 0.165764 0.044580 0 0 255
-0.269118 0.096573 0.034011 204 51 127
-0.235312 0.221724 -0.123630 204 51 127
-0.099918 0.268246 0.192896 76 0 153
0.268315 -0.483686 -0.177132 204 51 127
0.155864 0.268246 0.077625 76 0 153
-0.280896 0.194067 0.200285 0 255 0
-0.749235 0.236735 -0.236778 255 0 0
-0.025658 0.115213 -0.250259 204 51 127
0.620030 0.174942 -0.253918 153 76 0
0.642479 -0.483686 -0.063799 0 255 0
-0.157917 0.221724 -0.238736 204 51 127
-0.325025 0.129904 -0.039701 76 153 0
-0.216113 0.268246 -0.216882 76 0 153
0.191530 0.117183 0.502558 76 0 153
-0.029263 -0.461650 0.066171 204 51 127
-0.293392 -0.461650 0.018629 204 51 127
0.164884 0.116914 0.024866 204 51 127
-0.095246 -0.483686 -0.020232 204 51 127
-0.655890 -0.461650 0.083947 204 51 127
0.161321 -0.461650 0.034038 204 51 127
-0.746582 0.178969 -0.020030 255 0 0
-0.448931 0.211463 0.200285 0 255 0
-0.154668 0.091952 -0.244448 204 51 127
0.226932 0.268246 0.094643 76 0 153
0.599533 0.244985 -0.078444 76 0 153
-0.117491 0.125127 0.200285 153 0 76
-0.285511 -0.461650 0.127756 204 51 127
0.489130 0.268246 0.213082 76 0 153
0.654591 0.117773 0.434431 76 0 153
-0.279676 0.221724 0.085798 204 51 127
0.164884 0.160391 0.159325 153 76 0
0.288293 0.181509 -0.277179 153 76 0
-0.775965 -0.169699 -0.271951 153 76 0
-0.581669 0.122558 -0.052899 76 153 0
-0.219536 0.194790 0.137574 204 51 127
-0.098881 -0.483686 -0.112577 204 51 127
0.016651 0.268246 -0.286990 76 0 153
-0.140871 -0.461650 0.136234 204 51 127
-0.744835 -0.380936 -0.283300 153 76 0
-0.313315 -0.483686 0.096455 204 51 127
0.273963 0.244985 -0.168800 76 0 153
0.349944 -0.483686 -0.220197 204 51 127
0.179575 0.189019 0.473289 153 76 0
0.007086 0.142360 -0.253918 153 76 0
0.625208 0.223143 0.038533 204 51 127
0.637231 0.268246 0.217294 76 0 153
-0.683296 0.244985 -0.133557 76 0 153
0.695220 -0.543277 0.159885 153 0 76
-0.158194 0.162354 -0.253918 153 76 0
-0.383003 0.244985 -0.303214 76 0 153
0.339761 0.268246 0.188481 76 0 153
-0.561190 0.122558 0.169192 76 153 0
0.692350 -0.327653 0.206407 153 0 76
0.536872 0.268246 0.075653 76 0 153
0.179119 0.221724 0.262317 153 76 0
-0.067106 0.244985 0.128664 204 51 127
-0.714752 0.148311 0.035493 127 0 127
0.579416 0.221724 -0.250715 204 51 127
-0.474315 0.244985 -0.251737 204 51 127
-0.746582 0.160742 -0.168102 255 0 0
0.227463 0.091952 0.125508 0 0 255
-0.366007 0.091952 0.123967 0 0 255
0.209656 0.129904 0.166021 204 51 127
0.160631 0.194790 -0.060076 204 51 127
0.009360 -0.461650 -0.187255 204 51 127
-0.340591 0.244985 -0.141023 76 0 153
0.046793 0.183500 0.200285 153 0 76
-0.175201 -0.483686 0.070341 204 51 127
-0.729443 -0.186010 -0.281491 153 76 0
-0.257297 0.244985 0.150551 76 0 153
0.639900 0.150684 0.179031 76 0 153
0.518244 0.244985 -0.113945 76 0 153
0.367834 0.244985 -0.008496 76 0 153
0.654591 -0.280783 -0.250874 76 0 153
0.075517 -0.483686 -0.216739 204 51 127
-0.476442 0.268246 -0.190833 76 0 153
0.231613 0.244985 0.072720 76 0 153
-0.510581 0.129904 -0.167802 76 153 0
0.271853 -0.483686 -0.062802 204 51 127
0.184515 0.268246 -0.049675 76 0 153
0.556239 0.091952 -0.271506 153 76 0
0.408521 0.268246 -0.075478 76 0 153
0.164884 0.156455 0.266753 153 76 0
0.697408 -0.270707 0.206407 153 0 76
-0.780358 0.268246 0.161843 76 0 153
-0.741306 0.268246 -0.138575 76 0 153
-0.041810 -0.461650 -0.207983 204 51 127
-0.631086 0.170313 -0.218414 0 127 127
0.501782 -0.483686 0.018737 204 51 127
0.671731 0.174178 -0.038848 0 0 255
0.608720 0.171255 0.475624 76 0 153
0.612575 0.091952 -0.260994 153 76 0
-0.746582 0.158870 0.110734 255 0 0
0.119184 0.174828 0.173351 153 0 76
-0.551998 -0.483686 -0.076131 204 51 127
0.066087 0.162223 -0.277179 153 76 0
-0.129697 0.197537 -0.277179 153 76 0
0.484383 0.122558 0.429275 204 51 127
0.118856 0.244985 0.117256 76 0 153
-0.569969 0.129904 -0.011561 76 153 0
0.101073 0.207073 -0.277179 153 76 0
0.345938 0.122558 0.207455 204 51 127
0.125304 0.244985 -0.250224 204 51 127
0.325006 0.244985 -0.151224 76 0 153
-0.531274 -0.461650 0.016157 204 51 127
-0.271732 0.244985 -0.190155 76 0 153
-0.372396 0.244985 -0.209781 76 0 153
0.580213 0.244985 0.010203 76 0 153
-0.127873 0.244985 -0.033277 76 0 153
0.174030 -0.461650 -0.232312 204 51 127
0.667142 -0.461650 -0.073469 0 255 0
-0.581660 -0.461650 -0.036457 204 51 127
-0.376131 0.129904 0.019841 76 153 0
-0.462165 0.122558 0.175388 76 153 0
-0.659069 -0.483686 -0.116397 204 51 127
0.063197 -0.483686 -0.145204 204 51 127
0.598881 0.129904 0.146730 204 51 127
0.094378 0.091952 0.149414 0 0 255
-0.556796 0.091952 -0.258956 153 76 0
0.148125 0.115213 -0.215414 204 51 127
0.694992 0.208703 -0.166179 0 0 255
0.194267 0.094186 0.009760 204 51 127
0.701113 -0.303292 0.182648 153 0 76
0.301653 0.128042 -0.253918 153 76 0
0.236925 0.187340 -0.277179 153 76 0
-0.745115 -0.027562 0.206407 76 0 153
0.233423 0.268246 0.027851 76 0 153
-0.654387 0.244985 0.020057 76 0 153
-0.293850 0.268246 -0.290927 76 0 153
-0.406328 -0.483686 -0.081890 204 51 127
0.164884 0.198094 -0.189441 204 51 127
0.663637 -0.011702 0.206407 153 0 76
0.255027 0.156148 0.502558 76 0 153
-0.258110 0.138369 0.200285 0 255 0
0.354258 0.198150 0.475624 76 0 153
-0.386892 0.129904 -0.023395 76 153 0
-0.717060 -0.461650 0.012460 127 127 0
-0.746582 0.216949 -0.136716 255 0 0
-0.010244 0.268246 -0.105280 76 0 153
0.369117 0.115213 -0.242874 204 51 127
-0.442156 0.244985 0.184379 204 51 127
-0.731737 -0.483686 -0.018019 127 127 0
0.360284 0.190280 0.098550 153 0 76
-0.370296 0.192026 -0.277179 153 76 0
-0.369888 0.268246 -0.233439 76 0 153
0.190927 -0.461650 -0.044731 204 51 127
0.072154 0.135620 0.200285 153 0 76
0.037055 -0.461650 0.035281 204 51 127
-0.275907 -0.483686 0.068949 204 51 127
0.627657 -0.469978 -0.131405 204 51 127
-0.631637 0.129904 0.175330 76 153 0
0.596710 0.244985 0.047143 76 0 153
-0.503535 0.268246 0.071367 76 0 153
-0.749387 0.244985 -0.069468 76 0 153
0.516971 0.094570 0.200285 0 0 255
0.344121 0.091952 0.091870 0 0 255
-0.491901 0.221724 0.087672 204 51 127
-0.256536 -0.483686 -0.211200 204 51 127
0.351595 0.268246 0.005906 76 0 153
0.266279 0.187539 -0.253918 153 76 0
-0.141962 -0.483686 0.029778 204 51 127
0.216679 0.091952 0.162958 0 0 255
0.654591 0.132220 0.102116 204 51 127
