ply
format ascii 1.0
element vertex 1272
property float x
property float y
property float z
property uchar red
property uchar green
property uchar blue
end_header
0.247904 -0.186534 0.158048 127 0 127
0.456034 0.169158 0.073840 153 0 76
-0.175012 0.097658 0.105590 76 0 153
0.702246 0.023078 -0.199872 0 255 0
0.690264 -0.174527 -0.279103 0 255 0
-0.873097 0.173174 -0.122869 153 0 76
0.348684 0.156760 0.158048 153 0 76
0.438579 0.181992 -0.281601 153 0 76
0.460586 0.160217 0.158048 127 0 127
-0.155425 0.169158 -0.267226 153 0 76
-0.601538 0.111704 0.372355 0 127 127
0.469125 0.169158 0.027661 153 0 76
0.342541 0.175454 -0.281601 153 0 76
0.626970 -0.132543 0.158048 76 0 153
0.242614 0.123164 -0.204866 127 127 0
0.375007 0.121361 0.140562 127 0 127
0.504569 0.184146 -0.079672 153 0 76
-0.189352 0.124220 -0.114234 0 0 255
-0.660723 0.184146 -0.019151 153 0 76
0.571164 -0.054776 -0.279103 204 51 127
-0.537951 -0.019880 -0.192287 0 127 127
0.540089 -0.314876 0.167306 127 127 0
-0.398046 0.169158 -0.118320 153 0 76
-0.493789 0.184146 0.041351 153 0 76
0.189217 0.169158 -0.135953 153 0 76
0.595236 0.169158 0.066571 153 0 76
-0.177540 0.109259 0.028542 0 0 255
-0.099115 0.184146 -0.107079 153 0 76
-0.464320 0.154378 0.001071 204 51 127
-0.179099 0.145147 -0.269111 204 51 127
-0.198749 0.129243 0.043558 0 0 255
0.684760 -0.243450 -0.005563 0 255 0
0.225128 -0.245642 -0.276501 127 127 0
0.153484 0.123070 0.120578 204 51 127
0.589619 -0.322948 -0.106512 153 76 0
-0.364864 0.184146 0.058353 153 0 76
0.702246 -0.115724 -0.208199 0 255 0
0.702246 -0.293153 -0.017082 0 255 0
0.357388 -0.333644 -0.261616 204 51 127
-0.010343 0.109259 -0.031943 0 0 255
-0.315080 0.184146 0.038089 153 0 76
0.656306 -0.322948 -0.246493 153 76 0
0.242614 -0.099020 0.047397 127 127 0
-0.312201 0.184146 -0.244720 153 0 76
0.566368 -0.322948 0.129501 153 76 0
0.702157 -0.350648 0.158048 127 127 0
0.665816 0.184146 -0.098610 153 0 76
0.319657 -0.025946 -0.261616 204 51 127
0.242614 -0.246607 -0.071091 127 127 0
-0.031238 0.184146 0.068882 153 0 76
-0.847445 0.184146 -0.059130 153 0 76
0.225128 -0.322441 -0.118112 0 255 0
0.424142 -0.080582 -0.261616 204 51 127
0.445215 -0.021980 -0.279103 204 51 127
0.471250 -0.239104 -0.279103 204 51 127
-0.137032 0.109259 -0.072473 0 0 255
-0.673872 0.184146 0.084254 153 0 76
0.122728 0.169158 -0.054792 153 0 76
0.478793 -0.305462 -0.238137 153 76 0
0.393133 0.184146 0.000938 153 0 76
0.678784 0.141706 0.158048 127 0 127
0.672911 -0.305462 0.041786 153 76 0
-0.526420 0.156469 -0.154202 0 127 127
0.236206 -0.356979 -0.279103 204 51 127
-0.384263 0.169158 -0.076706 153 0 76
0.321133 -0.348409 -0.261616 204 51 127
0.217227 0.184146 -0.040514 153 0 76
0.716364 0.169158 -0.246899 153 0 76
-0.079033 0.129243 0.040341 0 0 255
-0.108079 0.109259 -0.008705 0 0 255
-0.364207 0.169158 0.012963 153 0 76
-0.260860 0.184146 -0.252640 153 0 76
-0.614597 0.184146 -0.217871 153 0 76
-0.538183 0.184146 -0.231446 153 0 76
0.702246 -0.305766 -0.250223 0 255 0
0.242614 -0.229019 -0.121679 127 127 0
0.702246 0.027220 0.079538 0 255 0
0.460716 -0.008813 0.158048 76 0 153
0.587699 0.089945 -0.261616 204 51 127
0.163938 0.160032 -0.256620 153 0 76
-0.724645 0.184146 0.284405 153 0 76
0.453932 -0.101300 0.174285 76 0 153
0.388873 -0.305462 -0.098954 153 76 0
-0.478968 0.122067 0.228775 255 0 0
0.494370 -0.305462 -0.049542 153 76 0
-0.712518 0.138114 -0.211656 204 51 127
-0.699395 0.169158 0.059036 153 0 76
-0.537046 0.169158 -0.085303 153 0 76
0.601346 -0.322948 -0.195891 153 76 0
-0.763831 0.169158 0.408323 153 0 76
-0.555678 0.184146 0.380623 153 0 76
0.665108 0.058527 -0.279103 204 51 127
0.366751 0.184146 -0.171384 153 0 76
0.568710 -0.160140 0.158048 76 0 153
-0.494296 0.110187 -0.093023 0 0 255
0.702246 0.076305 0.019710 0 255 0
0.297309 -0.322948 0.091459 153 76 0
0.481009 0.129768 0.161915 76 0 153
0.225128 0.083179 0.088092 127 127 0
0.364782 -0.314876 0.166101 76 0 153
-0.547572 -0.295791 -0.203809 0 127 127
0.349204 0.008085 -0.261616 204 51 127
0.702246 0.125294 -0.266504 204 51 127
0.307342 -0.189392 -0.279103 204 51 127
0.242614 -0.196959 0.021022 127 127 0
-0.702264 0.169158 0.467403 153 0 76
-0.505235 0.130505 0.445318 153 0 76
-0.058753 0.109259 -0.065959 0 0 255
0.404823 0.122274 0.173505 76 0 153
-0.483853 0.169158 -0.199984 0 127 127
-0.805981 -0.346405 -0.188162 76 153 0
-0.230858 0.184146 0.165511 153 0 76
0.394296 0.047667 -0.279103 204 51 127
0.684760 -0.223092 0.131258 0 255 0
-0.599060 0.169158 -0.156492 153 0 76
-0.868247 0.180053 0.352019 153 0 76
-0.494333 0.078616 0.018648 0 0 255
-0.293422 0.169158 -0.037411 153 0 76
-0.345438 0.184146 0.146429 153 0 76
-0.775099 0.169158 -0.011641 153 0 76
0.444129 0.057326 0.173362 76 0 153
-0.707906 0.184146 0.112803 153 0 76
0.225128 0.012648 0.135345 127 127 0
-0.335627 0.169158 -0.087459 153 0 76
-0.799052 0.125887 -0.065912 255 0 0
0.335190 -0.322948 -0.049004 153 76 0
0.507791 -0.026313 0.174285 76 0 153
-0.492881 -0.206482 -0.202599 0 127 127
0.439958 -0.065219 -0.279103 204 51 127
-0.798876 -0.125090 -0.154842 76 153 0
0.334276 -0.322948 0.022697 153 76 0
0.402416 -0.123455 -0.261616 204 51 127
-0.824596 -0.073641 -0.177585 76 153 0
0.255631 -0.305462 0.034138 153 76 0
0.579510 -0.254363 -0.279103 204 51 127
0.242614 -0.281485 0.089001 127 127 0
-0.506786 0.148150 0.347217 255 0 0
-0.373933 0.133289 0.105590 76 0 153
-0.445696 0.184146 0.023097 153 0 76
0.211133 0.184146 0.132432 153 0 76
0.242614 -0.029975 -0.036884 127 127 0
0.397877 -0.305462 0.062915 153 76 0
0.387035 -0.305462 -0.151511 153 76 0
-0.312747 0.072798 0.105590 76 0 153
0.335290 -0.069184 -0.261616 204 51 127
-0.119914 0.169158 0.101262 153 0 76
-0.464320 0.149091 0.051403 204 51 127
0.314803 -0.404559 -0.279103 204 51 127
0.350555 -0.124216 0.174285 76 0 153
0.637037 -0.055412 0.174285 76 0 153
-0.283653 0.109259 -0.092705 0 0 255
-0.505346 -0.085531 -0.222089 0 127 127
0.684760 -0.069030 0.054616 0 255 0
0.601312 -0.022380 -0.261616 204 51 127
0.416475 0.184146 -0.034923 153 0 76
0.225128 -0.129994 -0.024137 127 127 0
-0.494505 -0.159759 -0.215881 0 127 127
-0.663711 0.169158 0.527913 153 0 76
-0.492263 0.164014 -0.256620 204 51 127
0.232806 0.184146 -0.106421 153 0 76
-0.284995 0.109259 0.016892 0 0 255
0.401467 0.156771 0.158048 127 0 127
0.038018 0.169158 0.086344 153 0 76
-0.467244 0.169158 -0.129936 204 51 127
-0.851960 0.184146 0.307332 153 0 76
-0.042300 0.169158 -0.177893 153 0 76
-0.810212 0.169158 -0.250560 153 0 76
0.435179 -0.151962 0.158048 76 0 153
0.702246 -0.016154 -0.154645 0 255 0
0.344275 0.169158 -0.195212 153 0 76
-0.843548 0.169158 -0.210252 153 0 76
-0.133990 0.184146 -0.192162 153 0 76
0.276623 -0.305462 0.127431 153 76 0
-0.819487 -0.122749 0.459435 76 0 153
-0.530392 0.137524 0.426961 0 255 0
0.546464 -0.366468 -0.261616 204 51 127
-0.576785 0.184146 0.099280 153 0 76
-0.494296 0.107335 0.053693 0 0 255
0.702246 -0.130283 -0.277302 204 51 127
0.225128 0.157276 0.073647 127 127 0
-0.550233 0.131688 0.258071 0 127 127
-0.670682 0.184146 0.026605 153 0 76
-0.693233 0.088968 -0.196668 204 51 127
-0.656526 0.111704 0.398445 0 127 127
0.409879 0.099757 0.158048 76 0 153
0.637515 0.184146 -0.212280 153 0 76
0.648014 0.169158 -0.019620 153 0 76
0.225128 0.158428 -0.175690 153 0 76
-0.791305 -0.164156 0.445754 76 0 153
-0.504781 0.184146 -0.034767 153 0 76
-0.799052 0.138613 0.095492 255 0 0
-0.763783 0.169158 -0.056167 153 0 76
0.531015 0.030685 0.158048 76 0 153
-0.567545 0.169158 -0.189817 153 0 76
0.242614 -0.347928 -0.239649 127 127 0
0.023053 0.169158 -0.036192 153 0 76
0.702246 -0.232428 -0.051716 0 255 0
0.597361 -0.329392 -0.261616 204 51 127
-0.549629 0.184146 -0.152490 153 0 76
-0.456289 0.169158 -0.275843 204 51 127
0.127722 0.109259 -0.093452 0 0 255
-0.383086 0.184146 -0.027266 153 0 76
0.654305 -0.322948 0.112114 255 0 0
-0.513995 0.005178 -0.222825 0 127 127
-0.551750 0.101046 0.453766 153 0 76
-0.590032 0.111704 0.285439 0 127 127
-0.546273 0.184146 -0.006598 153 0 76
0.476177 0.184146 -0.030601 153 0 76
0.439240 -0.240051 -0.279103 204 51 127
0.702246 -0.289154 -0.108430 0 255 0
-0.654502 0.156707 -0.211656 204 51 127
-0.583488 0.137789 0.189651 127 127 0
-0.466201 0.169158 0.304982 153 0 76
-0.055384 0.184146 0.021069 153 0 76
0.242614 0.040599 -0.249379 127 127 0
0.661831 -0.322948 -0.020457 153 76 0
0.702246 -0.092362 -0.152892 0 255 0
0.580943 -0.106463 -0.261616 204 51 127
0.684760 0.023464 -0.235720 0 255 0
-0.130504 0.169158 -0.052188 153 0 76
-0.858047 0.169158 -0.280581 153 0 76
0.702246 -0.348121 -0.111439 255 0 0
0.426431 -0.333624 0.140562 127 127 0
0.414901 -0.322948 -0.166444 153 76 0
-0.497987 -0.283321 -0.175674 0 127 127
-0.464320 0.154164 -0.229068 204 51 127
0.162765 0.184146 -0.007284 153 0 76
-0.533949 0.111704 0.418382 0 127 127
-0.811916 0.081814 0.202454 255 0 0
0.252474 0.184146 -0.058685 153 0 76
0.461518 -0.305462 0.032195 153 76 0
0.684760 0.069308 -0.087136 0 255 0
-0.691528 0.169158 -0.115263 153 0 76
-0.521094 0.169158 0.372240 153 0 76
0.623063 0.184146 -0.089587 153 0 76
0.359775 0.124689 -0.279103 204 51 127
0.379069 0.048619 0.158048 76 0 153
-0.623381 0.184146 0.014078 153 0 76
0.561454 0.169158 -0.036788 153 0 76
0.397468 -0.271915 -0.261616 204 51 127
-0.729108 0.157387 0.247897 127 0 127
0.310114 -0.324824 0.158048 127 127 0
0.419871 0.119764 -0.279103 204 51 127
0.323860 0.036193 0.167109 76 0 153
0.594043 -0.322948 -0.016632 153 76 0
-0.814040 0.144446 0.382660 255 0 0
0.702246 -0.302739 0.119086 0 255 0
0.027910 0.184146 -0.248916 153 0 76
0.699549 0.006364 -0.279103 0 255 0
-0.829815 0.184146 0.365215 153 0 76
0.499037 -0.201502 -0.279103 204 51 127
-0.815518 0.169158 -0.196497 153 0 76
-0.756586 0.148819 -0.197272 76 153 0
-0.318563 0.184146 0.009940 153 0 76
-0.864945 0.182158 -0.088117 153 0 76
0.684760 -0.176148 0.061810 0 255 0
0.684760 -0.084009 -0.198161 0 255 0
0.060603 0.169158 -0.034964 153 0 76
0.251793 -0.384720 0.158048 127 0 127
0.658384 -0.271806 0.172571 127 0 127
0.242614 0.083582 -0.218591 127 127 0
-0.509284 0.124568 -0.060562 0 0 255
-0.092972 0.169158 -0.005718 153 0 76
0.556881 0.051466 0.174285 76 0 153
-0.127464 0.097209 0.131354 76 0 153
0.684760 -0.248495 0.023012 0 255 0
-0.032526 0.184146 -0.151428 153 0 76
0.225442 0.080991 -0.279103 204 51 127
0.684760 0.033510 -0.093801 0 255 0
0.354816 0.184146 -0.145651 153 0 76
-0.527279 -0.346617 -0.179364 0 127 127
-0.043065 0.184146 -0.071887 153 0 76
-0.492665 -0.062553 -0.214637 0 127 127
0.684760 -0.297039 -0.189494 153 76 0
-0.490397 0.169158 0.263025 153 0 76
-0.725809 0.169158 -0.134133 153 0 76
-0.679723 0.144685 0.414471 0 255 0
0.131504 0.129243 0.101818 0 0 255
-0.031207 0.129243 0.105009 0 0 255
0.288193 -0.322948 -0.056912 153 76 0
0.619300 -0.305462 0.055394 153 76 0
0.577244 0.184146 -0.088496 153 0 76
0.034636 0.126755 -0.269111 204 51 127
0.157842 0.071736 -0.265602 204 51 127
-0.520695 -0.034495 0.503008 153 0 76
0.225128 -0.236767 -0.163177 127 127 0
-0.172986 0.184146 0.108637 153 0 76
0.582310 -0.228088 0.174285 76 0 153
0.225128 -0.219651 0.133531 127 127 0
-0.764666 0.059777 -0.224147 76 153 0
0.225128 -0.224192 -0.230643 127 127 0
0.450044 -0.107677 -0.279103 204 51 127
0.468753 -0.175684 -0.261616 204 51 127
-0.621057 0.111704 0.352556 0 127 127
0.422308 0.170235 0.175389 153 0 76
0.148970 0.169158 -0.177332 153 0 76
0.242614 -0.173499 -0.014374 127 127 0
0.225128 -0.082036 -0.139403 127 127 0
-0.823311 0.184146 0.105555 153 0 76
-0.801588 -0.247601 -0.204508 76 153 0
-0.063256 0.129243 0.078717 0 0 255
0.702246 -0.254913 0.083158 0 255 0
-0.522308 0.034836 -0.159434 0 127 127
0.437032 -0.086870 0.158048 76 0 153
0.702246 -0.257146 -0.119949 0 255 0
0.478779 -0.088664 -0.261616 204 51 127
0.242614 0.108698 0.044710 127 127 0
0.267418 -0.307266 0.158048 127 127 0
0.377509 -0.050600 0.174285 76 0 153
-0.799052 0.077391 -0.089365 255 0 0
0.416961 -0.373993 -0.261616 204 51 127
0.297714 0.123335 0.172994 76 0 153
-0.153551 0.169158 -0.148653 153 0 76
0.038969 0.129243 0.049756 0 0 255
0.378705 0.169158 -0.096720 153 0 76
-0.071441 0.129243 -0.084856 0 0 255
0.225128 -0.071656 -0.020050 127 127 0
0.315817 -0.179463 0.158048 76 0 153
-0.385762 0.173422 0.174556 153 0 76
0.702246 -0.001294 0.052035 0 255 0
0.548312 -0.047554 0.174285 76 0 153
-0.446775 0.169158 -0.182606 153 0 76
-0.558127 0.184146 0.321209 153 0 76
-0.097467 0.126149 -0.114234 0 0 255
0.632275 -0.305199 -0.279103 204 51 127
-0.077115 0.145994 -0.256620 204 51 127
0.649266 0.008134 -0.261616 204 51 127
-0.618672 0.096004 0.487784 153 76 0
0.593655 -0.083693 0.158048 76 0 153
0.320535 -0.118731 -0.261616 204 51 127
-0.637141 0.169158 0.329394 153 0 76
0.370581 -0.289942 -0.261616 204 51 127
0.242614 -0.096166 0.012684 127 127 0
0.225128 0.135875 -0.151555 127 127 0
-0.799052 0.159073 0.044749 255 0 0
-0.605113 0.156592 0.487784 153 76 0
0.529137 -0.150761 0.158048 76 0 153
-0.797461 -0.301788 -0.154761 76 153 0
-0.003933 0.129243 0.059207 0 0 255
-0.551750 0.063752 -0.197716 0 127 127
0.430640 0.169158 -0.201208 153 0 76
0.456301 -0.222165 -0.261616 204 51 127
0.342664 -0.257708 -0.261616 204 51 127
0.702246 0.044549 -0.232900 0 255 0
-0.551872 0.169158 0.163953 153 0 76
0.256861 -0.048201 0.158048 127 0 127
0.625674 0.169158 0.062010 153 0 76
0.580477 -0.305462 -0.035750 153 76 0
-0.813980 -0.144727 0.507121 76 0 153
0.684760 -0.034512 0.015881 0 255 0
0.655105 -0.305462 -0.194148 153 76 0
0.538760 0.162739 -0.261616 204 51 127
0.297484 -0.219969 0.158048 76 0 153
-0.065504 0.094425 -0.269111 204 51 127
0.483341 0.169158 0.146634 153 0 76
0.642442 -0.322948 -0.052858 153 76 0
0.719383 0.179714 0.103181 153 0 76
-0.722134 0.184146 0.060609 153 0 76
-0.593658 0.184146 0.246623 153 0 76
-0.481806 0.084529 -0.184770 0 127 127
-0.553436 0.169158 0.411839 153 0 76
0.552765 -0.106806 -0.261616 204 51 127
0.225128 -0.145477 0.036271 127 127 0
0.225128 -0.390426 -0.264149 127 127 0
-0.592390 0.111704 0.413479 0 127 127
-0.509284 0.071861 0.392579 0 0 255
0.160816 0.184146 -0.096977 153 0 76
-0.801421 0.184146 0.394438 153 0 76
0.420100 0.025870 0.158048 76 0 153
0.225128 -0.344800 0.075976 0 255 0
-0.804989 -0.353097 0.478953 76 0 153
0.684760 -0.153352 -0.019490 0 255 0
-0.816911 0.028699 0.457647 76 0 153
0.580594 -0.365305 -0.261616 204 51 127
-0.665525 0.111704 0.210019 0 127 127
0.161654 0.169158 0.046861 153 0 76
0.594337 0.068708 0.158048 76 0 153
0.702246 -0.069712 0.075891 0 255 0
0.225128 -0.070305 -0.064656 127 127 0
0.096386 0.169158 0.069510 153 0 76
0.598746 0.020091 -0.279103 204 51 127
-0.586780 0.111704 0.217874 0 127 127
0.672704 -0.405382 -0.276488 0 255 0
-0.815422 0.031219 -0.213000 76 153 0
0.591162 0.169158 -0.201084 153 0 76
0.271030 0.044604 0.167408 76 0 153
-0.778009 0.169158 0.299321 153 0 76
0.225128 0.047145 0.068699 127 127 0
0.064484 0.129243 -0.112923 0 0 255
-0.546574 0.005522 0.496692 153 0 76
-0.149099 0.184146 -0.000004 153 0 76
-0.596250 0.169158 -0.028722 153 0 76
-0.792818 0.169158 0.475215 153 0 76
0.684760 -0.083590 0.132664 0 255 0
0.387765 -0.249046 -0.279103 204 51 127
-0.524242 0.073791 -0.154202 0 127 127
-0.042727 0.169158 0.147467 153 0 76
0.122489 0.109259 -0.060571 0 0 255
-0.488771 0.184146 -0.095887 153 0 76
0.225128 -0.220406 -0.012314 127 127 0
0.684760 -0.182015 -0.054677 0 255 0
0.652333 0.037611 0.146510 76 0 153
-0.401146 0.169158 0.133901 153 0 76
0.684760 -0.055138 -0.087168 0 255 0
0.225128 -0.078314 0.144780 127 0 127
0.523566 0.184146 0.097059 153 0 76
0.453169 0.169158 -0.060659 153 0 76
0.702246 -0.361361 -0.072265 255 0 0
0.507610 -0.305462 0.081193 153 76 0
0.407798 -0.200428 -0.261616 204 51 127
0.225128 0.073808 -0.113113 127 127 0
-0.094624 0.074206 0.120408 76 0 153
0.281924 0.105609 -0.279103 204 51 127
0.023158 0.169158 -0.143923 153 0 76
-0.349925 0.131022 0.120578 76 0 153
-0.495907 0.184146 0.376394 153 0 76
-0.822478 -0.067418 0.463708 76 0 153
0.300174 -0.094178 0.158048 76 0 153
-0.744821 0.120342 0.502772 153 76 0
0.608111 0.119198 0.148525 127 0 127
0.225128 0.109507 -0.001129 127 127 0
-0.140050 0.099259 -0.256620 204 51 127
-0.583636 0.111704 0.333547 0 127 127
-0.778987 -0.072831 0.447790 76 0 153
0.284806 0.184146 0.084128 153 0 76
0.684760 -0.220377 -0.255458 0 255 0
0.684760 0.127114 -0.102822 0 255 0
-0.629414 0.169158 0.366648 153 0 76
0.455160 -0.376790 -0.261616 204 51 127
-0.485062 0.052938 -0.176150 0 127 127
-0.125636 0.129243 0.100444 0 0 255
0.225128 -0.251502 0.032493 127 127 0
0.574759 -0.201550 0.174285 76 0 153
-0.599923 0.184146 0.138196 153 0 76
-0.533651 -0.244989 0.487769 153 0 76
-0.151577 0.169158 0.149129 153 0 76
-0.714392 0.169158 -0.165064 153 0 76
-0.262538 0.099467 -0.256620 204 51 127
-0.792029 0.169158 0.415742 153 0 76
0.622695 0.163676 -0.261616 153 0 76
0.571394 0.169158 -0.123349 153 0 76
0.242614 -0.120851 -0.063877 127 127 0
0.617969 -0.348519 0.140562 127 127 0
-0.147792 0.129243 -0.095156 0 0 255
0.091965 0.129243 -0.065243 0 0 255
-0.541391 0.143818 0.202141 127 127 0
-0.791485 0.184146 0.355491 153 0 76
-0.181713 0.129243 -0.068954 0 0 255
-0.555576 0.131688 0.385212 0 255 0
-0.751852 0.184146 0.119835 153 0 76
-0.784331 -0.248454 -0.172564 76 153 0
-0.014133 0.076793 0.105590 76 0 153
0.686350 -0.062129 0.158048 127 0 127
-0.091843 0.103478 0.135906 204 51 127
0.311023 -0.305462 -0.021290 153 76 0
-0.710429 0.184146 -0.029095 153 0 76
0.242614 -0.144397 -0.124262 127 127 0
-0.476810 0.098397 -0.067827 204 51 127
-0.379319 0.184146 -0.101005 153 0 76
0.598367 0.184146 0.151863 153 0 76
0.242614 -0.024681 -0.073787 127 127 0
-0.590538 0.169158 0.285200 153 0 76
-0.531095 -0.325443 0.469435 153 0 76
0.702246 -0.020736 -0.025924 0 255 0
0.225128 -0.139993 -0.268516 204 51 127
-0.142918 0.109259 0.062903 0 0 255
0.340524 -0.160552 -0.261616 204 51 127
-0.645367 0.124052 0.426961 0 127 127
0.684760 0.019681 -0.179251 0 255 0
-0.027287 0.169158 -0.050753 153 0 76
0.242614 -0.335663 -0.190729 0 255 0
-0.427842 0.184146 -0.210154 153 0 76
0.306553 0.058973 -0.279103 204 51 127
0.048970 0.109259 0.071720 0 0 255
-0.707863 0.169158 -0.196986 204 51 127
-0.309724 0.115765 -0.269111 204 51 127
0.242614 -0.097360 -0.258195 127 127 0
0.722823 0.169158 0.046620 153 0 76
0.566100 0.058367 -0.261616 204 51 127
-0.616905 0.184146 0.463654 153 0 76
0.225128 -0.033201 -0.215959 127 127 0
0.684760 -0.383563 0.134017 255 0 0
-0.099479 0.169158 0.027811 153 0 76
-0.518819 -0.207893 -0.189353 0 127 127
-0.725138 0.184146 0.182656 153 0 76
-0.423828 0.169158 0.166128 153 0 76
0.242614 -0.214630 0.078687 127 127 0
0.684760 0.159046 -0.010454 0 255 0
0.242614 -0.049912 -0.092336 127 127 0
-0.595115 0.169158 0.164672 153 0 76
0.083521 0.169158 -0.236425 153 0 76
0.518059 -0.078831 0.158048 76 0 153
-0.709694 0.184146 0.321459 153 0 76
0.061588 0.169158 -0.006128 153 0 76
0.253644 -0.305462 0.074713 153 76 0
0.552318 -0.008218 0.158048 76 0 153
-0.563836 0.169158 0.132887 153 0 76
0.620438 0.169158 0.014341 153 0 76
0.080636 0.184146 0.116201 153 0 76
-0.825253 0.011750 -0.181299 76 153 0
-0.271452 0.169158 -0.208155 153 0 76
-0.790063 -0.295846 0.514509 76 0 153
0.419861 -0.020949 0.158048 76 0 153
0.163647 0.099214 0.106530 76 0 153
0.524027 -0.192387 -0.279103 204 51 127
-0.799093 0.071736 0.354181 255 0 0
-0.186029 0.129243 0.069979 0 0 255
0.225128 0.075576 0.062763 127 127 0
0.225128 -0.375168 -0.233789 127 127 0
0.104030 0.122881 0.120578 204 51 127
0.662519 -0.192188 0.140562 127 0 127
0.443650 0.169158 0.108086 153 0 76
-0.519630 0.169158 -0.107380 153 0 76
-0.710884 0.169158 0.163846 153 0 76
0.449692 0.169158 -0.127688 153 0 76
0.242614 -0.294438 0.139839 127 0 127
0.005109 0.169158 -0.183900 153 0 76
-0.490830 -0.163867 0.457627 153 0 76
0.684760 -0.052755 -0.126430 0 255 0
0.265072 -0.327995 -0.261616 204 51 127
0.038840 0.077380 0.105590 76 0 153
-0.398110 0.184146 0.024629 153 0 76
0.273095 -0.396667 -0.279103 127 127 0
0.053582 0.091046 -0.269111 204 51 127
0.446379 -0.305462 -0.152827 153 76 0
0.677414 -0.090287 0.158048 127 0 127
0.702246 0.038309 0.038157 0 255 0
-0.606181 0.169158 0.325917 153 0 76
-0.667236 0.184146 -0.164685 153 0 76
-0.213198 0.184146 0.049001 153 0 76
0.537731 -0.204290 0.174285 76 0 153
-0.802069 -0.101561 0.513539 76 0 153
0.242614 0.086186 -0.259776 204 51 127
-0.014418 0.169158 -0.104489 153 0 76
0.388422 0.003772 -0.261616 204 51 127
0.636252 0.029225 -0.279103 204 51 127
0.289711 -0.330002 -0.279103 204 51 127
0.600003 -0.322948 -0.164878 153 76 0
-0.755943 0.184146 -0.097880 153 0 76
0.567247 -0.185221 -0.261616 204 51 127
-0.415986 0.159396 0.105590 76 0 153
-0.054947 0.109259 -0.093945 0 0 255
-0.555746 0.184146 0.475729 153 0 76
-0.711029 0.111704 0.261608 0 127 127
0.013454 0.169158 0.071174 153 0 76
0.488787 -0.322948 0.103712 153 76 0
-0.051754 0.169158 -0.122958 153 0 76
-0.799052 0.161201 -0.037406 255 0 0
0.702246 0.110759 0.130261 127 0 127
0.684760 -0.111133 -0.024364 0 255 0
-0.581624 0.169158 0.338106 153 0 76
0.315896 -0.322948 -0.082948 153 76 0
-0.519745 -0.173083 0.513848 153 0 76
-0.462921 0.169158 0.216209 153 0 76
0.225128 -0.303851 -0.222101 127 127 0
-0.464320 0.096998 -0.150547 204 51 127
-0.217533 0.169158 0.110751 204 51 127
0.632333 0.063836 0.174285 76 0 153
0.030059 0.129243 -0.041431 0 0 255
-0.766751 0.169158 0.205602 153 0 76
0.684760 -0.222139 -0.227403 0 255 0
0.072925 0.169158 0.084330 153 0 76
0.185947 0.184146 0.073546 153 0 76
0.284147 -0.305462 -0.037779 153 76 0
0.622276 -0.322948 -0.126919 153 76 0
0.402893 -0.107970 0.158048 76 0 153
0.347650 -0.305462 0.117585 153 76 0
-0.781412 -0.184437 0.511046 76 0 153
-0.315150 0.184146 -0.212559 153 0 76
0.684760 -0.114698 -0.114179 0 255 0
-0.658770 0.184146 0.199348 153 0 76
-0.565243 0.111704 0.196719 0 127 127
-0.498601 0.184146 0.014284 153 0 76
0.702246 0.132346 0.013674 0 255 0
-0.824882 0.169158 0.145073 153 0 76
-0.244397 0.125791 0.120578 0 0 255
0.483591 0.169158 -0.117336 153 0 76
-0.745936 0.184146 0.145561 153 0 76
-0.795979 -0.171598 -0.222752 76 153 0
0.465380 -0.305462 -0.182112 153 76 0
0.225128 -0.025685 0.139296 127 127 0
0.702246 -0.010222 -0.123617 0 255 0
0.625537 -0.322948 0.115769 153 76 0
-0.657181 0.184146 0.289429 153 0 76
0.702246 -0.334075 0.059217 255 0 0
0.225128 0.111299 -0.097263 127 127 0
0.666637 0.184146 -0.195621 153 0 76
0.702246 0.139649 -0.181089 0 255 0
0.702246 -0.071845 -0.020745 0 255 0
0.132386 0.109259 -0.034465 0 0 255
0.570464 0.135525 -0.279103 204 51 127
-0.844472 0.169158 -0.009585 153 0 76
-0.801905 -0.035681 0.459759 76 0 153
-0.664735 0.109145 -0.211656 204 51 127
-0.799052 0.126172 0.423871 255 0 0
-0.509284 0.124560 0.103505 0 0 255
-0.509787 0.184146 0.408832 153 0 76
0.170321 0.169158 0.102741 76 0 153
-0.787164 -0.150541 0.514892 76 0 153
0.121317 0.109259 0.081748 0 0 255
-0.618313 0.131688 0.371453 0 127 127
0.684760 0.025434 -0.051864 0 255 0
0.225128 -0.269208 -0.072150 127 127 0
0.702246 0.143392 -0.139848 0 255 0
0.702832 0.184146 -0.116607 153 0 76
-0.344119 0.099559 0.120578 76 0 153
0.542243 -0.322948 -0.057294 153 76 0
0.256353 0.169158 -0.093691 153 0 76
-0.484665 -0.305229 0.467656 153 0 76
0.294005 -0.322948 -0.108891 153 76 0
0.242614 -0.185567 -0.117924 127 127 0
-0.814040 0.155478 0.245308 255 0 0
0.080708 0.184146 -0.076868 153 0 76
-0.825985 -0.156966 0.485224 76 0 153
-0.575953 0.184146 -0.116235 153 0 76
-0.346441 0.169158 -0.199549 153 0 76
0.006391 0.184146 -0.095129 153 0 76
0.242614 -0.208863 -0.105169 127 127 0
-0.587065 0.184146 -0.261242 153 0 76
0.242614 0.045526 -0.222480 127 127 0
-0.550117 -0.163168 0.489836 153 0 76
0.225128 0.121176 -0.183458 127 127 0
-0.012457 0.169945 0.175428 153 0 76
0.512209 -0.110158 -0.261616 204 51 127
0.573300 -0.322948 -0.196879 153 76 0
0.684760 -0.200333 0.100980 0 255 0
0.702246 -0.019280 -0.095989 0 255 0
0.684760 -0.098356 0.105484 0 255 0
-0.494296 0.156847 0.159030 0 0 255
-0.508249 0.184146 0.074481 153 0 76
0.568675 0.100598 0.158048 76 0 153
-0.768801 -0.016952 -0.185704 76 153 0
0.225128 -0.173297 0.102639 127 127 0
-0.068688 0.178690 0.171247 153 0 76
0.604490 -0.383669 -0.279103 204 51 127
0.133160 0.184146 -0.236168 153 0 76
-0.500892 0.111704 0.264900 255 0 0
-0.696457 0.169158 0.556453 153 0 76
0.424964 0.169158 0.143289 127 0 127
0.278815 -0.032589 -0.261616 204 51 127
0.605088 0.184146 -0.034041 153 0 76
0.636643 0.154478 0.158048 127 0 127
0.307590 -0.296068 -0.261616 204 51 127
0.242614 0.117466 0.084846 127 127 0
-0.515503 0.050696 0.510962 153 0 76
-0.634807 0.184146 0.179628 153 0 76
0.482828 -0.305462 -0.001297 153 76 0
0.536754 0.184146 -0.089533 153 0 76
0.507767 -0.156595 0.174285 76 0 153
0.278794 -0.322948 0.003726 153 76 0
-0.601282 0.081868 0.500854 153 76 0
0.278109 -0.322948 -0.132726 153 76 0
0.526126 -0.303562 -0.279103 204 51 127
0.699049 -0.060910 -0.279103 0 255 0
0.684760 0.144418 -0.068327 0 255 0
-0.496142 0.081886 0.162189 0 0 255
0.225128 -0.011059 0.029327 127 127 0
-0.215280 0.118748 0.135906 204 51 127
-0.774193 0.024781 0.457255 76 0 153
-0.470037 0.071736 -0.232612 204 51 127
-0.346730 0.132861 -0.256620 204 51 127
0.684760 -0.294421 -0.041553 0 255 0
0.274653 0.154632 -0.261616 204 51 127
-0.745633 0.169158 -0.175956 76 153 0
-0.419286 0.184146 -0.117987 153 0 76
0.242614 0.028817 -0.034884 127 127 0
-0.665823 0.169158 0.350212 153 0 76
0.259116 -0.255864 0.140562 127 0 127
0.606273 -0.041834 0.158048 76 0 153
0.558377 0.169158 0.101689 153 0 76
-0.762619 0.169158 -0.265509 153 0 76
0.475520 -0.305462 -0.029128 153 76 0
0.540456 -0.322948 -0.028934 153 76 0
0.684760 -0.094026 -0.068248 0 255 0
0.122641 0.100828 -0.256620 204 51 127
0.315227 0.100456 -0.261616 204 51 127
-0.494296 0.130858 0.205391 255 0 0
-0.799052 0.077935 -0.046558 255 0 0
0.125479 0.109259 0.038955 0 0 255
0.225128 -0.282646 0.011488 127 127 0
0.127050 0.071823 0.120144 76 0 153
0.335951 -0.322948 -0.193597 153 76 0
0.458862 -0.279084 -0.279103 204 51 127
0.702246 -0.111093 0.022994 0 255 0
-0.215584 0.184146 -0.163447 153 0 76
0.455701 0.184146 -0.215929 153 0 76
-0.494296 0.134166 0.022063 0 0 255
0.242614 0.113955 -0.134676 127 127 0
0.059291 0.169158 -0.159747 153 0 76
0.684760 0.080129 0.139867 127 0 127
0.702246 -0.265799 -0.225982 0 255 0
0.594108 -0.305462 0.089966 153 76 0
0.225128 0.012795 0.042647 127 127 0
-0.767084 0.169158 0.162026 153 0 76
0.554645 -0.009955 -0.261616 204 51 127
-0.743184 0.095718 -0.196668 204 51 127
0.342492 -0.305462 -0.066492 153 76 0
0.378077 -0.305462 0.143417 153 76 0
0.225128 0.158296 0.147471 127 127 0
0.526214 0.021419 -0.279103 204 51 127
0.702455 0.184146 -0.032869 153 0 76
-0.813197 0.184146 0.520253 153 0 76
0.492828 -0.005281 -0.261616 204 51 127
-0.826530 0.137013 -0.167259 76 153 0
-0.455489 0.169158 0.070568 204 51 127
-0.294083 0.184146 0.130998 153 0 76
-0.494582 0.083320 0.122705 76 0 153
0.527757 -0.322948 0.027104 153 76 0
0.684760 0.159682 -0.096076 153 0 76
-0.464671 0.170403 0.557560 153 0 76
0.672807 0.169158 0.120791 153 0 76
0.242614 0.043399 -0.102595 127 127 0
0.684760 0.084988 -0.247620 204 51 127
-0.222517 0.169158 0.082516 153 0 76
0.702246 0.114337 -0.024090 0 255 0
0.587127 0.184146 0.090369 153 0 76
0.452596 0.095501 0.174285 76 0 153
0.684760 -0.338462 -0.206005 255 0 0
0.140701 0.184146 0.069745 153 0 76
0.701889 -0.330880 0.022766 255 0 0
-0.509284 0.103461 0.424263 0 0 255
-0.437241 0.171499 0.467492 153 0 76
0.225128 -0.133026 -0.215348 127 127 0
0.225128 -0.312476 -0.042536 127 127 0
-0.538344 0.111704 0.214518 0 127 127
-0.547579 -0.052225 0.463573 153 0 76
-0.792819 0.037798 -0.189285 76 153 0
0.681264 -0.335572 -0.261616 0 255 0
0.290636 0.184146 -0.006529 153 0 76
0.125172 0.129243 -0.015299 0 0 255
0.283701 -0.261592 0.158048 76 0 153
0.539591 0.064538 -0.279103 204 51 127
-0.461115 0.184146 -0.075657 153 0 76
0.663329 -0.382552 0.158048 255 0 0
-0.209517 0.169158 -0.024599 153 0 76
-0.484321 0.013209 -0.178703 0 127 127
0.609091 0.125795 -0.261616 204 51 127
0.702246 0.023034 0.122706 0 255 0
-0.667892 0.131688 0.244702 0 127 127
0.697874 0.044230 0.158048 127 0 127
-0.526424 0.015000 0.511997 153 0 76
0.308061 -0.156848 -0.279103 204 51 127
0.225128 -0.132866 0.148116 127 0 127
0.635964 -0.322948 -0.165154 153 76 0
-0.799052 0.112843 0.185625 255 0 0
0.225128 -0.094642 -0.234813 127 127 0
-0.759936 -0.114550 0.495272 76 0 153
0.684190 0.075855 -0.279103 0 255 0
0.629003 -0.305462 0.147602 153 76 0
-0.679663 0.169158 -0.032831 153 0 76
-0.680080 0.169158 0.155458 153 0 76
-0.053733 0.076612 0.119389 76 0 153
0.267596 0.184146 -0.035862 153 0 76
0.220704 0.184146 0.011508 153 0 76
-0.464320 0.123405 -0.201852 204 51 127
-0.531400 0.093401 -0.224147 0 127 127
-0.584716 0.169158 0.426584 153 0 76
-0.295305 0.091520 0.105590 76 0 153
0.409447 -0.305462 -0.184308 153 76 0
0.242614 0.036741 -0.071199 127 127 0
-0.570242 0.184146 -0.076104 153 0 76
0.321041 -0.212089 -0.261616 204 51 127
-0.799067 -0.007675 0.501962 76 0 153
0.225128 0.081753 -0.152952 127 127 0
0.599282 -0.310320 0.172455 76 0 153
0.702246 0.148764 0.097237 153 0 76
-0.596795 0.184146 0.540391 153 0 76
0.585453 -0.305462 -0.259887 204 51 127
-0.289176 0.082004 -0.256620 204 51 127
-0.781747 -0.388131 -0.193809 76 153 0
-0.821107 -0.127431 -0.170188 76 153 0
0.372579 -0.322948 -0.210138 153 76 0
-0.613358 0.131688 0.272797 0 127 127
-0.494344 0.162264 -0.224147 153 0 76
0.577532 -0.305462 0.144948 76 0 153
0.503342 -0.322948 0.035032 153 76 0
0.523780 0.071577 0.158048 76 0 153
0.597808 0.180320 -0.281601 153 0 76
0.530017 -0.290859 0.158048 76 0 153
-0.125314 0.109259 0.010410 0 0 255
0.467294 -0.049275 0.174285 76 0 153
-0.222875 0.087186 0.118748 76 0 153
0.282237 -0.229123 -0.261616 204 51 127
0.523661 -0.405382 -0.278917 204 51 127
0.336901 0.026281 -0.279103 204 51 127
0.404823 -0.246156 0.158048 76 0 153
0.477345 -0.238136 0.174285 76 0 153
-0.560445 0.169158 0.510104 153 0 76
0.689390 -0.405382 -0.253986 0 255 0
-0.010876 0.169158 0.082504 153 0 76
0.360517 -0.322948 0.029806 153 76 0
0.584056 -0.305462 -0.155374 153 76 0
-0.814040 0.098936 -0.064287 255 0 0
0.629559 0.096643 -0.279103 204 51 127
0.398707 0.169158 -0.134411 153 0 76
0.684760 0.028713 0.022284 0 255 0
-0.836324 0.169158 0.416879 153 0 76
0.409110 -0.013165 -0.279103 204 51 127
0.284117 -0.090416 -0.261616 204 51 127
0.553837 0.119198 0.144205 127 0 127
0.165941 0.184146 -0.211051 153 0 76
0.027534 0.109259 -0.092277 0 0 255
0.348104 0.169158 -0.003797 153 0 76
0.387282 -0.061354 -0.261616 204 51 127
0.388710 -0.151664 -0.261616 204 51 127
-0.464574 0.184146 0.448056 153 0 76
-0.739052 0.169158 -0.215038 204 51 127
0.568680 -0.322948 0.016524 153 76 0
-0.335678 0.169158 -0.031990 153 0 76
-0.481806 0.150272 0.480722 153 0 76
0.702246 -0.211691 -0.119569 0 255 0
-0.099089 0.119851 -0.269111 204 51 127
0.029904 0.129243 0.008284 0 0 255
-0.778101 0.158326 0.515262 76 0 153
0.254206 -0.305462 0.110029 127 127 0
0.446922 -0.322948 0.011816 153 76 0
-0.478968 0.126398 0.253809 255 0 0
0.403397 0.054979 0.174285 76 0 153
0.483960 0.169158 0.074320 153 0 76
0.684760 -0.301366 -0.214520 153 76 0
0.646975 0.169158 0.123785 153 0 76
-0.497540 0.156041 0.445318 153 0 76
-0.042653 0.109547 0.135906 204 51 127
0.225128 -0.262166 0.086087 127 127 0
0.515730 -0.128221 -0.279103 204 51 127
0.541267 0.101375 0.158048 76 0 153
0.632027 -0.057899 -0.279103 204 51 127
0.399218 -0.322999 -0.261616 204 51 127
0.684760 -0.342074 0.133036 255 0 0
0.684760 -0.025320 0.128960 0 255 0
-0.420617 0.086594 0.119666 76 0 153
0.345862 -0.092525 -0.261616 204 51 127
0.412236 -0.295710 -0.261616 204 51 127
-0.564213 0.111704 0.274668 0 127 127
0.702246 -0.313544 -0.066860 0 255 0
-0.219828 0.116226 -0.269111 204 51 127
-0.739646 0.134610 -0.211656 204 51 127
-0.739176 0.170558 0.557540 153 0 76
-0.503932 0.169158 -0.160137 153 0 76
-0.826530 0.060787 -0.184342 76 153 0
-0.587305 0.131688 0.316270 0 127 127
0.724417 0.171114 -0.157934 153 0 76
0.243068 0.158342 -0.261616 204 51 127
-0.205924 0.109259 -0.071407 0 0 255
0.319801 0.169158 -0.039851 153 0 76
-0.828655 0.169158 0.042861 153 0 76
0.484522 0.157060 -0.261616 153 0 76
0.684760 0.056899 -0.020086 0 255 0
-0.786769 0.184146 -0.168848 153 0 76
0.263829 0.046960 -0.261616 204 51 127
0.684760 -0.229381 -0.163174 0 255 0
0.569545 0.087808 -0.279103 204 51 127
0.372110 0.169158 0.113109 153 0 76
-0.482769 0.184146 0.472491 153 0 76
-0.698294 0.131688 0.358861 127 0 127
0.684760 0.008448 0.007039 0 255 0
-0.190077 0.119823 0.120578 0 0 255
-0.700070 0.169158 0.385240 153 0 76
-0.464320 0.144832 -0.093951 204 51 127
0.557206 -0.305462 -0.235968 204 51 127
-0.085604 0.071736 -0.266060 204 51 127
-0.393615 0.184146 0.063311 153 0 76
-0.427494 0.121812 -0.256620 204 51 127
0.661654 -0.310898 0.169125 76 0 153
-0.629705 0.168127 0.502772 153 76 0
0.274072 -0.305462 -0.223430 153 76 0
0.311908 -0.065687 -0.279103 204 51 127
0.242614 0.023232 -0.209194 127 127 0
0.419334 0.139902 -0.261616 204 51 127
0.276049 0.062065 -0.279103 204 51 127
-0.658099 0.111704 0.288728 0 127 127
-0.085503 0.169158 0.146744 153 0 76
0.685078 -0.379907 -0.229143 0 255 0
0.535260 -0.087906 0.174285 76 0 153
-0.614333 0.111704 0.401083 0 127 127
-0.630648 0.184146 -0.193073 153 0 76
0.683867 -0.404356 0.158048 255 0 0
-0.731780 0.184146 0.309329 153 0 76
0.063203 0.129243 0.100586 0 0 255
-0.082722 0.124253 0.120578 204 51 127
-0.509284 0.095150 -0.144283 0 0 255
0.587027 -0.148074 0.174285 76 0 153
-0.514962 -0.121236 -0.154117 0 127 127
-0.843971 0.169158 0.104735 153 0 76
0.702246 -0.138800 -0.064740 0 255 0
0.288115 -0.322948 -0.164859 153 76 0
-0.521116 -0.189021 0.449199 153 0 76
-0.273321 0.157677 0.120578 204 51 127
-0.341384 0.184146 -0.244907 153 0 76
0.702246 -0.209523 -0.168163 0 255 0
0.257435 0.131460 0.158048 76 0 153
0.259798 -0.197269 -0.261616 204 51 127
0.242614 0.154742 0.018040 127 127 0
0.225128 -0.318469 0.071158 0 255 0
0.100806 0.109259 -0.025165 0 0 255
0.296211 0.169158 -0.098898 153 0 76
0.242614 -0.279943 -0.184047 127 127 0
0.225128 -0.046269 -0.048006 127 127 0
-0.303104 0.109259 -0.109048 0 0 255
0.568496 0.184146 -0.213752 153 0 76
-0.788821 0.184146 -0.122094 153 0 76
0.633922 -0.011250 0.158048 76 0 153
0.225128 -0.396283 0.156961 127 0 127
-0.053914 0.149860 0.135906 204 51 127
0.008801 0.109259 0.082461 0 0 255
0.567725 0.169158 0.174442 153 0 76
0.260549 -0.116817 0.140562 127 0 127
0.292476 -0.305462 0.050959 153 76 0
0.276297 -0.278770 -0.279103 204 51 127
0.587590 -0.305462 0.062840 153 76 0
0.684760 -0.022063 0.061244 0 255 0
-0.488388 -0.194260 -0.178499 0 127 127
-0.206042 0.153294 -0.256620 204 51 127
-0.686528 0.151436 0.202141 127 127 0
-0.510394 0.184146 0.265329 153 0 76
0.702246 0.123802 -0.059661 0 255 0
0.685632 0.169158 -0.222982 0 255 0
0.684760 -0.137147 0.068970 0 255 0
0.506644 0.044470 0.158048 76 0 153
0.702246 -0.040309 0.058589 0 255 0
0.386251 0.184146 0.028537 153 0 76
0.672532 -0.322948 0.021826 255 0 0
-0.029947 0.184146 -0.255626 153 0 76
0.417506 0.036949 -0.261616 204 51 127
-0.494296 0.123964 0.352556 255 0 0
-0.662270 0.184146 -0.051910 153 0 76
-0.809032 0.169158 0.018609 255 0 0
0.702246 0.169158 0.018446 0 255 0
-0.463456 0.184146 0.147489 153 0 76
0.453584 -0.006106 -0.261616 204 51 127
0.310344 0.005778 -0.261616 204 51 127
0.155241 0.128606 0.070883 0 0 255
-0.494296 0.157854 0.037395 0 0 255
0.628866 0.169158 -0.064908 153 0 76
-0.485876 0.099214 0.341836 255 0 0
-0.768920 -0.220908 -0.193699 76 153 0
0.066713 0.184146 -0.194233 153 0 76
0.044088 0.184146 -0.205179 153 0 76
-0.224999 0.159515 0.134097 153 0 76
-0.361656 0.110532 -0.269111 204 51 127
-0.792713 0.039463 0.505983 76 0 153
-0.560844 0.120084 -0.211656 204 51 127
0.456167 -0.261590 0.158048 76 0 153
0.225128 -0.076893 -0.278893 127 127 0
0.519471 -0.305462 0.044748 153 76 0
0.650000 -0.305462 -0.094640 153 76 0
-0.565096 0.184146 -0.042711 153 0 76
0.225128 0.071824 -0.185735 127 127 0
-0.075715 0.169158 0.081965 153 0 76
0.089179 0.131939 -0.256620 204 51 127
-0.564858 0.184146 0.245252 153 0 76
0.515867 -0.305462 -0.153787 153 76 0
0.669515 -0.305462 0.094597 153 76 0
-0.867035 0.169158 -0.036388 153 0 76
-0.494732 0.071819 -0.073911 0 0 255
-0.707571 0.111704 0.344189 0 127 127
0.188287 0.130096 0.120578 76 0 153
0.495254 0.067191 -0.261616 204 51 127
0.225128 -0.146572 -0.085177 127 127 0
0.303767 -0.322948 -0.134226 153 76 0
-0.165568 0.109259 -0.054201 0 0 255
0.630581 -0.364059 -0.279103 204 51 127
-0.100018 0.129243 -0.078972 0 0 255
0.378499 -0.083473 -0.279103 204 51 127
0.526082 -0.322948 0.091526 153 76 0
-0.476810 0.157235 -0.045206 204 51 127
-0.828685 0.169158 0.274175 153 0 76
0.014022 0.074849 -0.269111 204 51 127
-0.837389 0.184146 -0.138162 153 0 76
0.091195 0.129243 0.070738 0 0 255
0.684760 -0.226260 -0.092041 0 255 0
0.483788 -0.383602 -0.261616 204 51 127
0.392559 -0.322948 -0.226127 153 76 0
-0.509353 0.184146 -0.060248 153 0 76
0.242614 0.008030 -0.050726 127 127 0
0.393831 -0.305462 -0.062396 153 76 0
-0.806234 -0.239293 0.467782 76 0 153
-0.757450 -0.299444 -0.181602 76 153 0
-0.115517 0.169158 0.163317 153 0 76
0.336795 -0.305462 -0.148668 153 76 0
0.684760 -0.169997 -0.152156 0 255 0
0.225128 -0.141649 0.095524 127 127 0
0.512165 0.169158 -0.173194 153 0 76
0.417105 -0.158863 -0.261616 204 51 127
0.042756 0.169158 0.114785 204 51 127
0.684760 -0.002005 -0.072029 0 255 0
0.684760 0.050287 -0.119644 0 255 0
0.230647 0.141222 -0.279103 204 51 127
0.458516 0.184146 -0.165339 153 0 76
0.500572 0.184146 -0.232401 153 0 76
0.702246 -0.236566 -0.248294 0 255 0
0.242614 0.033781 -0.138327 127 127 0
-0.755326 0.169158 -0.032775 153 0 76
0.680008 -0.305462 -0.015933 0 255 0
-0.184931 0.169158 -0.047942 153 0 76
0.242614 -0.002543 -0.125043 127 127 0
-0.165677 0.082607 -0.269111 204 51 127
-0.680881 0.184146 0.303455 153 0 76
0.345223 -0.305462 0.086276 153 76 0
0.690718 -0.377699 -0.279103 0 255 0
0.684760 -0.274335 -0.059979 0 255 0
0.254962 0.184146 0.163455 153 0 76
0.684760 0.107273 0.112954 0 255 0
0.587115 -0.332992 0.158048 127 127 0
-0.800996 0.184146 0.440994 153 0 76
0.375036 0.021183 0.158048 76 0 153
0.387102 0.169158 -0.189512 153 0 76
0.350934 0.169158 -0.065274 153 0 76
0.165996 0.169158 -0.059273 153 0 76
-0.346401 0.169158 0.102448 153 0 76
0.242614 -0.279968 -0.114038 127 127 0
0.242614 -0.292204 0.051622 153 76 0
-0.438360 0.125503 0.105590 76 0 153
-0.494296 0.087996 -0.030961 0 0 255
-0.114011 0.098877 0.105590 76 0 153
-0.807017 -0.037148 -0.210220 76 153 0
-0.002463 0.118824 0.120578 0 0 255
0.225128 0.138496 0.119912 127 127 0
0.442068 -0.305462 -0.210112 153 76 0
0.652333 -0.100137 0.157781 127 0 127
0.271030 -0.019999 0.161895 76 0 153
0.003256 0.169158 -0.226472 153 0 76
0.408465 -0.221375 -0.279103 204 51 127
0.084120 0.129243 -0.033721 0 0 255
0.225128 -0.053833 -0.114356 127 127 0
0.099651 0.169158 -0.262536 153 0 76
-0.697038 0.184146 0.198663 153 0 76
-0.549578 0.005240 0.471578 153 0 76
-0.764383 0.184146 0.010454 153 0 76
0.374681 0.063430 -0.279103 204 51 127
0.225128 -0.073694 0.054319 127 127 0
-0.509326 -0.384439 -0.197345 0 127 127
0.696225 0.184146 0.065595 153 0 76
0.529936 -0.305462 -0.117157 153 76 0
0.146374 0.097170 0.131219 204 51 127
0.702246 -0.211047 0.054489 0 255 0
-0.260244 0.087973 0.119388 76 0 153
0.203753 0.184146 -0.019734 153 0 76
0.684760 0.160043 -0.172682 153 0 76
-0.770628 -0.228094 0.485042 76 0 153
0.702246 -0.271952 0.060441 0 255 0
0.553354 0.169158 0.056678 153 0 76
0.522580 -0.190215 0.158048 76 0 153
-0.465990 0.169158 0.388751 153 0 76
-0.238184 0.129243 0.026225 0 0 255
-0.295050 0.184146 -0.004401 153 0 76
-0.548659 0.131945 0.445318 153 0 76
0.250606 -0.305462 -0.193902 153 76 0
-0.484581 0.169158 0.520993 153 0 76
0.112784 0.169158 0.151297 153 0 76
-0.717946 0.169158 0.020280 153 0 76
0.225128 -0.130395 -0.180810 127 127 0
0.620459 -0.208290 0.158048 76 0 153
0.702246 -0.256087 0.006638 0 255 0
-0.509284 0.155977 -0.018908 153 0 76
0.346024 -0.044066 0.174285 76 0 153
0.641194 0.184146 0.049956 153 0 76
0.253751 -0.239244 0.158048 127 0 127
-0.449422 0.133206 -0.256620 204 51 127
-0.251973 0.184146 0.142433 153 0 76
0.684760 0.146200 -0.033016 0 255 0
0.108590 0.109259 0.001777 0 0 255
-0.504027 -0.293557 -0.219900 0 127 127
0.262851 0.169158 -0.221898 153 0 76
0.431013 -0.322948 -0.017840 153 76 0
0.459607 -0.151869 -0.261616 204 51 127
-0.528527 0.111704 0.237171 0 127 127
0.242614 -0.041420 -0.141738 127 127 0
-0.544007 0.131688 0.230770 0 127 127
0.702246 -0.169187 0.110162 0 255 0
-0.109315 0.184146 -0.198668 153 0 76
0.702246 -0.262259 0.157874 127 0 127
0.606775 -0.262515 0.167057 76 0 153
-0.628095 0.169158 -0.238441 153 0 76
-0.814040 0.160835 0.098343 255 0 0
0.684760 0.059825 0.111312 0 255 0
0.299095 -0.305462 -0.089513 153 76 0
0.343234 0.076677 -0.279103 204 51 127
0.328659 -0.133409 0.167643 76 0 153
0.684760 -0.327674 -0.108680 255 0 0
0.375316 -0.354919 -0.261616 204 51 127
0.684760 -0.293586 0.023717 153 76 0
-0.348839 0.184146 -0.133502 153 0 76
-0.531987 -0.242462 -0.200183 0 127 127
0.451045 -0.214245 0.174285 76 0 153
0.225128 -0.161325 -0.195576 127 127 0
-0.763241 -0.087916 -0.168876 76 153 0
-0.509284 0.095432 0.038010 0 0 255
0.702246 -0.092670 -0.252184 0 255 0
-0.197479 0.184146 0.148062 153 0 76
0.621892 -0.097381 -0.261616 204 51 127
-0.451667 0.088689 -0.256620 204 51 127
0.272224 -0.006331 -0.279103 204 51 127
-0.575296 0.131688 0.240716 0 127 127
0.684760 -0.072662 -0.234526 0 255 0
0.679751 -0.163988 0.158048 127 0 127
-0.662293 0.184146 0.444195 153 0 76
0.225128 0.134375 -0.226109 127 127 0
-0.596716 0.169158 0.094506 153 0 76
0.225128 -0.034211 0.005202 127 127 0
-0.068091 0.184146 0.044634 153 0 76
-0.707825 0.131688 0.229885 127 0 127
-0.384564 0.072688 -0.269111 204 51 127
0.242614 0.131816 -0.107482 127 127 0
-0.743703 0.169158 0.436499 153 0 76
-0.654494 0.169158 0.404012 153 0 76
-0.786785 -0.016985 -0.166689 76 153 0
0.562398 -0.251185 -0.261616 204 51 127
0.330931 0.184146 -0.181017 153 0 76
0.702246 -0.332992 -0.249077 255 0 0
0.380369 0.169158 -0.045740 153 0 76
0.441353 0.169158 -0.004105 153 0 76
0.289869 -0.146958 0.158048 76 0 153
0.663216 -0.061385 0.166455 76 0 153
0.145528 0.147571 -0.269111 204 51 127
-0.814040 0.124972 0.161231 255 0 0
0.423510 0.069086 -0.261616 204 51 127
0.130973 0.184146 -0.205472 153 0 76
-0.503812 -0.145550 -0.156780 0 127 127
0.532490 0.169158 0.023085 153 0 76
-0.030112 0.129243 -0.035273 0 0 255
0.588292 0.017896 0.174285 76 0 153
-0.798212 0.184146 0.260883 153 0 76
0.299109 -0.241569 0.174285 76 0 153
-0.817350 -0.054146 0.503753 76 0 153
0.225128 -0.081115 -0.184174 127 127 0
0.275088 0.093891 0.144775 127 0 127
0.099665 0.184146 -0.188649 153 0 76
-0.530947 -0.039764 -0.215053 0 127 127
0.241839 -0.346491 -0.154373 0 255 0
0.686738 -0.262456 -0.279103 204 51 127
0.585091 0.041802 -0.279103 204 51 127
0.408059 0.173271 -0.281601 153 0 76
-0.500764 -0.258603 0.487494 153 0 76
-0.529879 0.169158 0.238530 153 0 76
-0.826530 0.120235 -0.188877 76 153 0
-0.804607 -0.210561 0.457509 76 0 153
0.510736 -0.059970 -0.279103 204 51 127
0.341137 0.124038 -0.261616 204 51 127
-0.458585 0.147999 0.105590 76 0 153
-0.542613 0.169158 0.275082 153 0 76
0.702246 0.048961 -0.191218 0 255 0
-0.811661 0.098491 -0.224147 76 153 0
0.528176 0.115977 0.174285 76 0 153
-0.239584 0.184146 -0.145029 153 0 76
-0.476810 0.126431 0.066755 204 51 127
-0.494296 0.127516 -0.038269 0 0 255
-0.159951 0.169158 -0.087998 153 0 76
-0.534885 0.111704 0.296627 0 127 127
0.656896 -0.347566 0.158048 127 127 0
0.606903 0.184146 -0.222648 153 0 76
0.225128 -0.316123 -0.094382 127 127 0
-0.089484 0.169158 -0.248987 153 0 76
0.242614 -0.203173 -0.054111 127 127 0
-0.319340 0.169158 -0.189259 153 0 76
0.291301 -0.173628 0.158048 76 0 153
0.684760 0.091629 0.077342 0 255 0
0.217281 0.184146 -0.231091 153 0 76
0.390703 0.147478 -0.279103 204 51 127
0.242614 -0.346388 0.134393 127 127 0
0.289284 0.184146 0.053868 153 0 76
0.702246 -0.279540 -0.182068 0 255 0
0.250132 -0.007404 0.158048 127 0 127
0.561459 -0.341283 -0.261616 204 51 127
0.476163 -0.077827 0.158048 76 0 153
-0.056658 0.184146 -0.003324 153 0 76
-0.108438 0.184146 -0.164187 153 0 76
-0.141789 0.184146 -0.101054 153 0 76
-0.092003 0.109259 0.014666 0 0 255
0.459306 0.012009 0.174285 76 0 153
-0.527684 0.169158 0.478526 153 0 76
0.702246 -0.011435 0.104618 0 255 0
-0.761004 0.184146 -0.162089 153 0 76
0.633638 0.065078 -0.279103 204 51 127
-0.509284 0.079818 -0.124779 0 0 255
-0.651090 0.184146 -0.130152 153 0 76
0.435350 0.169158 -0.255490 204 51 127
0.099216 0.109259 -0.093610 0 0 255
-0.788362 0.169816 0.557639 153 0 76
-0.814040 0.124931 0.404668 255 0 0
0.242614 -0.022389 -0.257058 127 127 0
0.242614 0.055387 -0.013769 127 127 0
-0.763169 0.026909 -0.176215 76 153 0
0.089573 0.072704 0.120506 76 0 153
0.414242 0.169158 0.103622 153 0 76
0.613951 0.184146 -0.130043 153 0 76
-0.814726 0.184146 0.076336 153 0 76
-0.367939 0.184146 0.031818 153 0 76
0.225128 -0.320474 0.045195 0 255 0
0.402795 -0.069157 0.174285 76 0 153
-0.033485 0.109259 -0.071561 0 0 255
-0.775760 -0.274786 0.471836 76 0 153
0.242614 -0.271888 0.130621 127 127 0
0.503801 0.095153 0.158048 76 0 153
0.457852 0.143490 0.140562 127 0 127
0.684760 -0.032442 -0.218920 0 255 0
0.225128 -0.178236 0.155748 127 127 0
0.225128 -0.204463 0.043926 127 127 0
0.400118 0.104135 -0.279103 204 51 127
-0.373507 0.169158 -0.052982 153 0 76
-0.064029 0.109259 -0.036364 0 0 255
-0.814040 0.158859 0.419499 255 0 0
-0.265901 0.125415 -0.256620 204 51 127
0.702246 0.024883 0.002259 0 255 0
-0.665783 0.184146 0.495928 153 0 76
0.040329 0.169158 0.015561 153 0 76
0.598007 0.033177 0.158048 76 0 153
0.355832 -0.322948 -0.123030 153 76 0
-0.122094 0.129243 -0.065916 0 0 255
0.381631 -0.108056 -0.279103 204 51 127
0.242614 0.073187 0.013485 127 127 0
-0.645931 0.140308 0.202141 127 127 0
0.598405 0.169158 0.029956 153 0 76
-0.501113 -0.286271 0.503471 153 0 76
0.429823 -0.254048 -0.261616 204 51 127
-0.187014 0.184146 0.031368 153 0 76
-0.530795 0.129106 -0.154202 0 127 127
0.252788 0.169799 -0.281601 204 51 127
-0.771399 0.078759 -0.154202 76 153 0
0.412898 0.184146 -0.218478 153 0 76
0.418327 -0.184081 0.158048 76 0 153
0.523948 -0.267131 0.169005 76 0 153
-0.514527 0.184146 0.129445 153 0 76
0.702246 0.065175 -0.070113 0 255 0
0.271939 -0.297831 -0.261616 204 51 127
-0.623371 0.169158 -0.031413 153 0 76
-0.854120 0.169158 0.165520 153 0 76
0.247662 -0.322948 -0.063570 153 76 0
0.475805 -0.269333 -0.261616 204 51 127
-0.603704 0.148154 0.202141 127 127 0
0.685789 0.184146 0.105518 153 0 76
-0.678198 0.131688 0.215269 127 127 0
0.702246 -0.123442 -0.180694 0 255 0
0.702246 0.149255 -0.262929 0 255 0
-0.793240 0.184146 -0.235434 153 0 76
-0.799052 0.123013 0.264498 255 0 0
0.225128 0.125190 0.041732 127 127 0
0.242614 -0.163871 -0.177254 127 127 0
-0.717103 0.169158 0.438837 153 0 76
0.355019 -0.089228 0.158048 76 0 153
0.702246 -0.008052 0.009875 0 255 0
0.642025 -0.305462 0.123485 153 76 0
-0.541657 0.169158 -0.135247 153 0 76
-0.796732 -0.256249 0.497129 76 0 153
-0.233999 0.109259 0.096767 0 0 255
0.120908 0.184146 0.098068 153 0 76
-0.486070 -0.045346 0.493304 153 0 76
0.225128 0.049885 0.096150 127 127 0
-0.610092 0.111704 0.311561 0 127 127
-0.083571 0.173822 -0.281601 153 0 76
0.677151 -0.322948 -0.158054 255 0 0
0.273140 -0.056436 -0.279103 204 51 127
-0.480274 0.102152 0.242416 255 0 0
-0.814035 0.084587 0.026251 255 0 0
-0.273213 0.109259 0.082488 0 0 255
0.658130 -0.305462 0.068655 153 76 0
0.139165 0.184146 -0.275332 153 0 76
-0.487650 -0.137075 0.499431 153 0 76
0.217624 0.184146 -0.130989 153 0 76
0.602008 0.055085 -0.261616 204 51 127
0.225128 -0.239774 0.106433 127 127 0
0.702246 -0.187864 -0.193425 0 255 0
0.709601 0.184146 -0.009297 153 0 76
0.675620 -0.305462 -0.251762 204 51 127
0.540646 -0.032021 -0.279103 204 51 127
-0.813485 -0.011872 -0.181835 76 153 0
-0.645945 0.184146 -0.093603 153 0 76
-0.566482 0.093449 0.487784 153 76 0
-0.313561 0.169158 -0.263750 153 0 76
0.512631 -0.226827 -0.279103 204 51 127
0.517289 -0.322167 0.158048 76 0 153
0.477515 -0.322948 -0.135516 153 76 0
