-0.421668 -0.191131 -0.122301 0.300000 0.600000 0.000000
0.141524 -0.685198 0.280172 0.300000 0.600000 0.000000
-0.422718 0.174700 0.131621 0.300000 0.600000 0.000000
-0.071533 0.524833 0.295410 0.300000 0.600000 0.000000
0.211820 0.260733 0.296833 0.300000 0.600000 0.000000
0.269849 -0.692961 -0.087629 0.300000 0.600000 0.000000
0.112627 0.800807 0.034655 0.600000 0.000000 0.300000
0.066794 0.258986 -0.285388 0.300000 0.600000 0.000000
0.109179 0.915418 -0.033700 0.300000 0.000000 0.600000
0.409519 -0.410391 -0.135830 0.300000 0.600000 0.000000
0.080735 -0.692961 -0.123143 0.300000 0.600000 0.000000
-0.000860 0.049705 -0.285388 0.300000 0.600000 0.000000
0.203583 -0.510952 -0.285383 0.300000 0.600000 0.000000
-0.276241 0.390872 0.291432 0.300000 0.600000 0.000000
0.143707 0.356777 0.294969 0.300000 0.600000 0.000000
0.314807 -0.595518 0.217229 0.300000 0.600000 0.000000
-0.445112 -0.012085 -0.037495 0.300000 0.600000 0.000000
-0.326902 0.222585 0.265375 0.300000 0.600000 0.000000
0.124210 -0.655753 0.294833 0.300000 0.600000 0.000000
0.355088 0.586259 -0.038019 0.300000 0.600000 0.000000
0.151279 -0.129405 -0.285387 0.300000 0.600000 0.000000
0.442168 -0.094241 -0.023585 0.300000 0.600000 0.000000
-0.328545 0.274466 -0.252285 0.300000 0.600000 0.000000
0.099602 0.780941 0.069934 0.600000 0.000000 0.300000
0.342145 -0.376220 0.242004 0.300000 0.600000 0.000000
-0.055223 -0.517912 -0.284421 0.300000 0.600000 0.000000
-0.367142 0.155431 0.221554 0.300000 0.600000 0.000000
-0.301175 -0.410886 0.285024 0.300000 0.600000 0.000000
0.243205 0.303385 0.295988 0.300000 0.600000 0.000000
0.352934 0.004168 0.231454 0.300000 0.600000 0.000000
0.053101 0.873391 0.106229 0.300000 0.000000 0.600000
0.072697 0.856976 -0.059958 0.300000 0.000000 0.600000
-0.435945 -0.032121 -0.088615 0.300000 0.600000 0.000000
-0.440831 0.282908 -0.064910 0.300000 0.600000 0.000000
-0.306276 -0.353886 0.281671 0.300000 0.600000 0.000000
-0.399080 0.277733 -0.168129 0.300000 0.600000 0.000000
-0.177842 -0.312371 0.295834 0.300000 0.600000 0.000000
0.047705 0.715566 0.159335 0.600000 0.000000 0.300000
0.202769 -0.132403 -0.285387 0.300000 0.600000 0.000000
0.368916 -0.330365 0.214007 0.300000 0.600000 0.000000
0.340049 0.603582 0.055330 0.300000 0.600000 0.000000
-0.167897 0.351164 0.293625 0.300000 0.600000 0.000000
-0.085697 0.757646 -0.096787 0.600000 0.000000 0.300000
-0.441792 0.201220 -0.058737 0.300000 0.600000 0.000000
-0.155053 0.697426 0.147687 0.600000 0.000000 0.300000
-0.149200 -0.572313 -0.284635 0.300000 0.600000 0.000000
0.070395 -0.396504 0.296408 0.300000 0.600000 0.000000
0.053474 -0.505363 -0.284159 0.300000 0.600000 0.000000
-0.426478 -0.313060 0.123986 0.300000 0.600000 0.000000
-0.442340 -0.450549 0.054297 0.300000 0.600000 0.000000
0.109071 0.598470 -0.275057 0.300000 0.600000 0.000000
0.055677 -0.692961 -0.011557 0.300000 0.600000 0.000000
-0.321034 -0.461942 0.266948 0.300000 0.600000 0.000000
0.357875 0.212100 0.225211 0.300000 0.600000 0.000000
-0.377355 0.399791 -0.192013 0.300000 0.600000 0.000000
0.047518 -0.031735 0.296610 0.300000 0.600000 0.000000
-0.362898 -0.665477 -0.034727 0.300000 0.600000 0.000000
0.366009 -0.522206 -0.186311 0.300000 0.600000 0.000000
0.317237 0.156244 -0.258161 0.300000 0.600000 0.000000
-0.120235 -0.164931 0.295834 0.300000 0.600000 0.000000
0.444257 0.337388 -0.007186 0.300000 0.600000 0.000000
-0.371857 -0.259026 -0.204954 0.300000 0.600000 0.000000
-0.143202 -0.568761 0.296075 0.300000 0.600000 0.000000
0.329210 -0.475402 -0.239650 0.300000 0.600000 0.000000
-0.394190 -0.614966 0.050949 0.300000 0.600000 0.000000
0.078815 -0.349553 0.295834 0.300000 0.600000 0.000000
-0.431416 -0.529812 -0.021944 0.300000 0.600000 0.000000
-0.221255 -0.314558 0.295834 0.300000 0.600000 0.000000
0.226581 0.579664 -0.234373 0.300000 0.600000 0.000000
0.072504 -0.692961 0.128667 0.300000 0.600000 0.000000
0.199473 -0.017345 -0.285387 0.300000 0.600000 0.000000
0.009730 0.065022 0.296492 0.300000 0.600000 0.000000
0.299215 -0.330712 -0.271720 0.300000 0.600000 0.000000
-0.194580 -0.380326 -0.284825 0.300000 0.600000 0.000000
-0.436860 0.244149 0.096508 0.300000 0.600000 0.000000
0.055613 -0.536748 0.296162 0.300000 0.600000 0.000000
0.088895 0.328227 -0.285382 0.300000 0.600000 0.000000
-0.252741 0.558383 0.248105 0.300000 0.600000 0.000000
0.015718 0.659670 -0.236152 0.300000 0.600000 0.000000
0.084323 0.265789 0.296834 0.300000 0.600000 0.000000
-0.338207 -0.691332 -0.016862 0.300000 0.600000 0.000000
0.377307 0.555692 0.044269 0.300000 0.600000 0.000000
-0.376384 -0.286239 0.211448 0.300000 0.600000 0.000000
0.197412 0.668112 -0.154579 0.300000 0.600000 0.000000
0.434334 0.408978 -0.032602 0.300000 0.600000 0.000000
0.438395 0.157311 -0.043836 0.300000 0.600000 0.000000
-0.431344 -0.205541 0.113706 0.300000 0.600000 0.000000
-0.220354 -0.692961 -0.033259 0.300000 0.600000 0.000000
0.241490 -0.122774 0.295834 0.300000 0.600000 0.000000
0.001315 -0.692928 0.266794 0.300000 0.600000 0.000000
0.292354 0.365869 0.286129 0.300000 0.600000 0.000000
-0.431817 -0.026352 0.112397 0.300000 0.600000 0.000000
0.253276 0.626363 -0.163829 0.300000 0.600000 0.000000
-0.390827 -0.174919 0.193987 0.300000 0.600000 0.000000
0.407531 0.038851 0.151993 0.300000 0.600000 0.000000
-0.102222 0.842036 0.066968 0.600000 0.000000 0.300000
-0.363964 0.082807 0.225013 0.300000 0.600000 0.000000
-0.074647 0.815907 -0.086290 0.600000 0.000000 0.300000
-0.347360 -0.517620 0.225464 0.300000 0.600000 0.000000
0.217364 0.635618 0.198681 0.300000 0.600000 0.000000
-0.446114 -0.219985 -0.031143 0.300000 0.600000 0.000000
-0.076920 0.891251 -0.083346 0.300000 0.000000 0.600000
-0.301971 0.430860 0.273048 0.300000 0.600000 0.000000
-0.445182 0.248230 0.048551 0.300000 0.600000 0.000000
0.116879 0.784791 -0.018112 0.600000 0.000000 0.300000
-0.064176 0.906581 0.106487 0.300000 0.000000 0.600000
0.201824 0.627715 -0.206076 0.300000 0.600000 0.000000
0.396941 0.036031 -0.161593 0.300000 0.600000 0.000000
-0.066987 0.153096 -0.285388 0.300000 0.600000 0.000000
0.425278 -0.514217 -0.054478 0.300000 0.600000 0.000000
0.302620 0.637682 0.072081 0.300000 0.600000 0.000000
0.218525 -0.276404 -0.285389 0.300000 0.600000 0.000000
0.389853 -0.580764 0.112230 0.300000 0.600000 0.000000
0.236323 -0.182647 -0.284769 0.300000 0.600000 0.000000
0.396068 -0.130606 -0.163804 0.300000 0.600000 0.000000
-0.440843 -0.391156 -0.064836 0.300000 0.600000 0.000000
-0.189239 -0.535159 0.296315 0.300000 0.600000 0.000000
0.378678 -0.415936 0.202783 0.300000 0.600000 0.000000
0.401486 -0.510244 0.139739 0.300000 0.600000 0.000000
-0.033079 -0.278064 0.295834 0.300000 0.600000 0.000000
0.408260 -0.383945 0.149097 0.300000 0.600000 0.000000
0.150826 -0.455667 -0.283835 0.300000 0.600000 0.000000
0.344370 0.605105 -0.000506 0.300000 0.600000 0.000000
0.013664 0.918616 -0.111805 0.300000 0.000000 0.600000
0.440046 -0.029540 0.048215 0.300000 0.600000 0.000000
0.142220 0.703696 -0.126837 0.600000 0.000000 0.300000
-0.223736 0.186191 0.295168 0.300000 0.600000 0.000000
0.162465 -0.309252 0.295834 0.300000 0.600000 0.000000
0.183637 -0.057311 -0.285387 0.300000 0.600000 0.000000
0.221633 -0.171927 0.295834 0.300000 0.600000 0.000000
0.223588 -0.383005 -0.284668 0.300000 0.600000 0.000000
0.388403 0.269199 -0.177332 0.300000 0.600000 0.000000
0.128929 -0.353232 -0.284374 0.300000 0.600000 0.000000
0.402362 -0.336326 0.160213 0.300000 0.600000 0.000000
0.153924 0.336109 0.296001 0.300000 0.600000 0.000000
0.350064 -0.636229 0.131435 0.300000 0.600000 0.000000
-0.063191 0.932164 0.108840 0.300000 0.000000 0.600000
-0.176923 0.025335 0.295775 0.300000 0.600000 0.000000
0.029258 -0.692961 0.071330 0.300000 0.600000 0.000000
0.274119 -0.688353 0.173300 0.300000 0.600000 0.000000
-0.237149 0.603078 -0.211256 0.300000 0.600000 0.000000
-0.197608 0.128568 -0.284907 0.300000 0.600000 0.000000
0.368678 -0.490646 0.204446 0.300000 0.600000 0.000000
0.068420 0.428932 0.294643 0.300000 0.600000 0.000000
0.252606 -0.582224 0.276196 0.300000 0.600000 0.000000
0.243519 -0.692961 -0.054560 0.300000 0.600000 0.000000
0.302360 -0.692796 0.100617 0.300000 0.600000 0.000000
-0.420748 -0.227921 0.135617 0.300000 0.600000 0.000000
0.148205 -0.660743 0.288500 0.300000 0.600000 0.000000
-0.250861 -0.692961 0.068731 0.300000 0.600000 0.000000
0.441454 0.130745 0.039567 0.300000 0.600000 0.000000
-0.375777 0.398489 0.205447 0.300000 0.600000 0.000000
-0.387432 -0.203153 0.198469 0.300000 0.600000 0.000000
0.388910 -0.362556 0.187678 0.300000 0.600000 0.000000
-0.064970 0.655499 0.247050 0.300000 0.600000 0.000000
-0.124358 -0.355518 0.295834 0.300000 0.600000 0.000000
0.011317 0.409201 0.294833 0.300000 0.600000 0.000000
0.258975 0.493276 0.276921 0.300000 0.600000 0.000000
0.209346 0.433428 0.295948 0.300000 0.600000 0.000000
-0.317783 -0.157975 0.273374 0.300000 0.600000 0.000000
-0.237586 -0.491534 0.295459 0.300000 0.600000 0.000000
-0.306511 0.033125 -0.270299 0.300000 0.600000 0.000000
-0.139257 -0.689764 -0.266333 0.300000 0.600000 0.000000
-0.064481 0.367637 0.295435 0.300000 0.600000 0.000000
0.032860 0.994552 0.036383 0.300000 0.000000 0.600000
-0.127609 -0.664423 -0.279089 0.300000 0.600000 0.000000
0.057993 0.286504 0.296834 0.300000 0.600000 0.000000
-0.441404 -0.325699 0.072722 0.300000 0.600000 0.000000
0.373610 -0.457048 0.205436 0.300000 0.600000 0.000000
0.291374 -0.379110 0.287499 0.300000 0.600000 0.000000
0.339084 0.106576 0.246616 0.300000 0.600000 0.000000
-0.332021 0.213770 -0.248520 0.300000 0.600000 0.000000
0.434311 -0.113342 0.084682 0.300000 0.600000 0.000000
0.157092 -0.671636 -0.266914 0.300000 0.600000 0.000000
-0.387947 0.231304 -0.186337 0.300000 0.600000 0.000000
-0.065611 -0.603159 0.296684 0.300000 0.600000 0.000000
-0.417663 -0.244796 0.141872 0.300000 0.600000 0.000000
-0.444489 -0.415012 -0.040285 0.300000 0.600000 0.000000
0.442832 0.015978 -0.019339 0.300000 0.600000 0.000000
-0.380957 0.451432 0.180544 0.300000 0.600000 0.000000
0.059181 0.034062 -0.285388 0.300000 0.600000 0.000000
0.346746 0.033832 -0.226789 0.300000 0.600000 0.000000
0.295921 -0.097247 -0.273842 0.300000 0.600000 0.000000
-0.015015 0.972762 -0.108317 0.300000 0.000000 0.600000
0.093920 -0.261726 0.295834 0.300000 0.600000 0.000000
0.003888 0.097213 -0.285388 0.300000 0.600000 0.000000
0.278671 0.652798 0.084840 0.300000 0.600000 0.000000
0.038203 -0.203454 -0.285388 0.300000 0.600000 0.000000
0.099317 -0.417214 0.296833 0.300000 0.600000 0.000000
0.206100 -0.489132 -0.285358 0.300000 0.600000 0.000000
0.042628 -0.378561 -0.283984 0.300000 0.600000 0.000000
0.315710 0.630047 0.047212 0.300000 0.600000 0.000000
0.043808 0.726294 0.147095 0.600000 0.000000 0.300000
-0.061651 -0.396125 -0.283680 0.300000 0.600000 0.000000
0.000561 0.776874 -0.111008 0.600000 0.000000 0.300000
0.149241 0.193126 -0.285387 0.300000 0.600000 0.000000
-0.088938 -0.692961 0.021112 0.300000 0.600000 0.000000
-0.448654 -0.234184 0.026445 0.300000 0.600000 0.000000
0.303299 -0.271864 -0.269087 0.300000 0.600000 0.000000
-0.277836 0.633233 0.141639 0.300000 0.600000 0.000000
0.402342 -0.417802 -0.150498 0.300000 0.600000 0.000000
-0.450259 0.178868 0.004458 0.300000 0.600000 0.000000
0.106948 -0.357239 -0.284332 0.300000 0.600000 0.000000
-0.245556 0.365858 0.291971 0.300000 0.600000 0.000000
0.413345 -0.447373 -0.125264 0.300000 0.600000 0.000000
0.011688 0.224244 0.296710 0.300000 0.600000 0.000000
0.141057 -0.692961 0.181493 0.300000 0.600000 0.000000
-0.159228 0.738953 -0.006825 0.600000 0.000000 0.300000
0.421422 -0.411372 -0.111481 0.300000 0.600000 0.000000
0.032679 -0.491626 -0.283896 0.300000 0.600000 0.000000
0.322581 -0.162508 0.264574 0.300000 0.600000 0.000000
-0.414511 0.343773 0.147353 0.300000 0.600000 0.000000
0.060422 -0.043414 0.296650 0.300000 0.600000 0.000000
-0.267394 -0.637963 -0.228065 0.300000 0.600000 0.000000
-0.412698 -0.046397 0.151941 0.300000 0.600000 0.000000
0.231217 0.011476 -0.284962 0.300000 0.600000 0.000000
-0.262630 -0.548026 0.285189 0.300000 0.600000 0.000000
-0.175203 -0.036275 0.295703 0.300000 0.600000 0.000000
0.267815 -0.140328 -0.284517 0.300000 0.600000 0.000000
0.044500 0.443337 -0.283497 0.300000 0.600000 0.000000
0.210409 0.048600 0.296833 0.300000 0.600000 0.000000
-0.088679 -0.119115 0.295899 0.300000 0.600000 0.000000
0.006242 0.299943 0.296832 0.300000 0.600000 0.000000
-0.019715 -0.489195 -0.284100 0.300000 0.600000 0.000000
-0.117566 0.450248 0.294928 0.300000 0.600000 0.000000
-0.390450 0.522921 0.098263 0.300000 0.600000 0.000000
-0.424263 0.025284 0.128490 0.300000 0.600000 0.000000
0.171550 -0.692961 -0.207173 0.300000 0.600000 0.000000
0.307444 -0.625197 0.203901 0.300000 0.600000 0.000000
-0.113070 -0.131432 -0.285388 0.300000 0.600000 0.000000
-0.043832 0.030471 0.295845 0.300000 0.600000 0.000000
-0.153855 -0.248729 0.295834 0.300000 0.600000 0.000000
-0.109248 0.862956 0.043771 0.300000 0.000000 0.600000
0.032986 0.961792 -0.104868 0.300000 0.000000 0.600000
-0.304915 0.642257 -0.050799 0.300000 0.600000 0.000000
-0.338742 -0.425398 0.252086 0.300000 0.600000 0.000000
-0.070974 -0.220747 0.295834 0.300000 0.600000 0.000000
0.001749 -0.276989 0.295834 0.300000 0.600000 0.000000
-0.332210 -0.155038 0.259776 0.300000 0.600000 0.000000
-0.031094 -0.094912 -0.285388 0.300000 0.600000 0.000000
0.040329 0.993930 -0.098378 0.300000 0.000000 0.600000
0.132770 0.676788 -0.184770 0.300000 0.600000 0.000000
-0.302387 -0.562745 0.254336 0.300000 0.600000 0.000000
0.190598 0.685384 0.138323 0.300000 0.600000 0.000000
-0.213473 0.406302 0.295528 0.300000 0.600000 0.000000
-0.442676 0.400974 -0.019750 0.300000 0.600000 0.000000
0.159728 -0.396163 0.296396 0.300000 0.600000 0.000000
-0.036217 0.166143 -0.285388 0.300000 0.600000 0.000000
0.387987 -0.407596 -0.178652 0.300000 0.600000 0.000000
-0.083620 0.994552 -0.061671 0.300000 0.000000 0.600000
0.116343 0.749611 -0.073389 0.600000 0.000000 0.300000
0.025450 0.037360 -0.285389 0.300000 0.600000 0.000000
0.308434 0.144980 0.276895 0.300000 0.600000 0.000000
0.429594 0.114733 -0.092917 0.300000 0.600000 0.000000
0.125478 0.510596 0.295833 0.300000 0.600000 0.000000
-0.199922 -0.158826 -0.284104 0.300000 0.600000 0.000000
-0.080420 0.994552 -0.014485 0.300000 0.000000 0.600000
-0.090981 0.885990 -0.068626 0.300000 0.000000 0.600000
-0.014510 -0.457193 -0.284155 0.300000 0.600000 0.000000
-0.100070 0.737384 0.114840 0.600000 0.000000 0.300000
-0.198086 -0.087074 -0.284129 0.300000 0.600000 0.000000
-0.424610 -0.051484 -0.116337 0.300000 0.600000 0.000000
0.212696 0.135788 -0.285387 0.300000 0.600000 0.000000
0.026479 -0.639275 -0.285387 0.300000 0.600000 0.000000
0.257641 0.325238 -0.284385 0.300000 0.600000 0.000000
0.088535 0.994552 -0.024782 0.300000 0.000000 0.600000
0.361586 -0.663554 -0.019607 0.300000 0.600000 0.000000
0.131257 0.767256 -0.008308 0.600000 0.000000 0.300000
-0.440150 -0.348496 -0.069289 0.300000 0.600000 0.000000
0.374940 0.235571 0.206981 0.300000 0.600000 0.000000
0.445026 -0.015766 0.002537 0.300000 0.600000 0.000000
0.391929 0.531895 -0.031602 0.300000 0.600000 0.000000
-0.215040 0.253059 0.295633 0.300000 0.600000 0.000000
-0.433331 0.441792 0.037816 0.300000 0.600000 0.000000
-0.230783 -0.624756 0.271731 0.300000 0.600000 0.000000
0.373712 -0.521681 0.187727 0.300000 0.600000 0.000000
0.236144 -0.255457 -0.285386 0.300000 0.600000 0.000000
-0.147350 0.751457 -0.017612 0.600000 0.000000 0.300000
0.053055 -0.450313 0.296717 0.300000 0.600000 0.000000
0.415767 0.464062 0.075145 0.300000 0.600000 0.000000
0.134362 0.063346 0.296834 0.300000 0.600000 0.000000
0.012628 0.799675 0.120371 0.600000 0.000000 0.300000
0.118264 0.010551 0.296833 0.300000 0.600000 0.000000
-0.332354 0.122281 -0.248158 0.300000 0.600000 0.000000
-0.113974 0.984677 0.029110 0.300000 0.000000 0.600000
0.251849 0.408655 0.296241 0.300000 0.600000 0.000000
-0.443315 0.087971 0.060468 0.300000 0.600000 0.000000
0.056456 -0.303649 -0.284856 0.300000 0.600000 0.000000
-0.119351 -0.323680 0.295834 0.300000 0.600000 0.000000
0.137839 0.649626 -0.217834 0.300000 0.600000 0.000000
-0.112970 0.864259 -0.023322 0.300000 0.000000 0.600000
-0.441259 0.359701 -0.055250 0.300000 0.600000 0.000000
-0.084914 0.243182 0.296583 0.300000 0.600000 0.000000
0.225422 0.560775 0.260969 0.300000 0.600000 0.000000
0.167386 0.531895 -0.284250 0.300000 0.600000 0.000000
0.110865 0.698527 -0.157617 0.600000 0.000000 0.300000
0.204969 0.528283 0.292867 0.300000 0.600000 0.000000
-0.320911 0.629795 0.050057 0.300000 0.600000 0.000000
-0.362964 -0.162040 -0.214663 0.300000 0.600000 0.000000
-0.004405 0.994552 0.080456 0.300000 0.000000 0.600000
0.370278 0.458652 0.185332 0.300000 0.600000 0.000000
0.444218 -0.346724 -0.007015 0.300000 0.600000 0.000000
-0.111314 -0.079751 -0.285388 0.300000 0.600000 0.000000
-0.042655 -0.687310 -0.294373 0.300000 0.600000 0.000000
0.300091 0.043935 0.282598 0.300000 0.600000 0.000000
-0.111852 0.732220 -0.101234 0.600000 0.000000 0.300000
0.113119 -0.138757 -0.285388 0.300000 0.600000 0.000000
-0.018321 0.146174 0.296464 0.300000 0.600000 0.000000
-0.413160 0.240435 0.151005 0.300000 0.600000 0.000000
-0.420914 -0.374159 -0.123831 0.300000 0.600000 0.000000
-0.079860 0.166518 -0.285388 0.300000 0.600000 0.000000
0.305534 0.523676 -0.210648 0.300000 0.600000 0.000000
-0.419915 0.176297 -0.125857 0.300000 0.600000 0.000000
0.188582 -0.692961 -0.052335 0.300000 0.600000 0.000000
-0.060239 -0.673940 -0.286634 0.300000 0.600000 0.000000
-0.052560 0.994552 -0.058774 0.300000 0.000000 0.600000
0.154801 0.728819 0.055114 0.600000 0.000000 0.300000
-0.390781 -0.624057 -0.029382 0.300000 0.600000 0.000000
-0.310388 0.191014 -0.267823 0.300000 0.600000 0.000000
0.115325 0.195218 0.296833 0.300000 0.600000 0.000000
0.060925 -0.046283 -0.285388 0.300000 0.600000 0.000000
0.028573 0.630350 -0.263808 0.300000 0.600000 0.000000
0.202493 0.192763 0.296834 0.300000 0.600000 0.000000
0.262757 -0.692961 0.094727 0.300000 0.600000 0.000000
0.195786 0.226640 0.296833 0.300000 0.600000 0.000000
-0.310543 0.500976 0.236893 0.300000 0.600000 0.000000
-0.010573 -0.558362 -0.284868 0.300000 0.600000 0.000000
0.359731 0.578907 0.054846 0.300000 0.600000 0.000000
0.275933 0.441261 -0.272634 0.300000 0.600000 0.000000
-0.135746 0.181451 -0.285156 0.300000 0.600000 0.000000
0.369451 -0.602225 0.132806 0.300000 0.600000 0.000000
0.244952 -0.222039 -0.285340 0.300000 0.600000 0.000000
0.102656 -0.023832 -0.285387 0.300000 0.600000 0.000000
0.100316 0.934130 -0.054891 0.300000 0.000000 0.600000
-0.409531 -0.502295 0.137753 0.300000 0.600000 0.000000
-0.410611 -0.078376 -0.144745 0.300000 0.600000 0.000000
0.016205 0.473610 0.294870 0.300000 0.600000 0.000000
-0.075128 0.493970 0.294970 0.300000 0.600000 0.000000
0.222413 0.698698 0.017986 0.300000 0.600000 0.000000
-0.200783 0.451743 -0.284685 0.300000 0.600000 0.000000
0.414628 -0.565056 0.032305 0.300000 0.600000 0.000000
-0.197152 0.519518 0.295721 0.300000 0.600000 0.000000
0.444939 0.236392 0.009108 0.300000 0.600000 0.000000
-0.168387 0.045657 0.296020 0.300000 0.600000 0.000000
-0.026818 0.589417 -0.284478 0.300000 0.600000 0.000000
0.241267 -0.352115 -0.285308 0.300000 0.600000 0.000000
-0.256885 -0.518978 0.291451 0.300000 0.600000 0.000000
-0.236533 0.060268 0.293270 0.300000 0.600000 0.000000
-0.364570 0.137343 0.224353 0.300000 0.600000 0.000000
-0.275650 0.535504 0.247075 0.300000 0.600000 0.000000
-0.444350 -0.147774 -0.042357 0.300000 0.600000 0.000000
-0.422853 0.100475 -0.119900 0.300000 0.600000 0.000000
-0.140077 0.354106 0.294929 0.300000 0.600000 0.000000
-0.412585 0.314739 0.152171 0.300000 0.600000 0.000000
-0.076561 -0.692961 -0.203392 0.300000 0.600000 0.000000
-0.153591 0.194392 -0.285054 0.300000 0.600000 0.000000
-0.409496 0.185344 -0.147006 0.300000 0.600000 0.000000
-0.237313 -0.136942 0.294629 0.300000 0.600000 0.000000
0.402837 0.364714 -0.146294 0.300000 0.600000 0.000000
0.326338 0.325239 0.260506 0.300000 0.600000 0.000000
-0.420737 -0.019572 -0.124190 0.300000 0.600000 0.000000
0.262680 -0.027471 -0.284655 0.300000 0.600000 0.000000
0.278729 -0.488391 -0.277616 0.300000 0.600000 0.000000
0.026197 0.994552 -0.050271 0.300000 0.000000 0.600000
0.335001 -0.318462 -0.239663 0.300000 0.600000 0.000000
-0.248118 0.520559 0.273854 0.300000 0.600000 0.000000
-0.043422 0.693961 -0.188230 0.600000 0.000000 0.300000
0.335409 0.053738 -0.239219 0.300000 0.600000 0.000000
-0.443824 -0.239634 -0.045700 0.300000 0.600000 0.000000
0.056520 0.671672 0.228732 0.300000 0.600000 0.000000
0.078093 -0.494243 -0.284038 0.300000 0.600000 0.000000
0.016763 0.958765 -0.108812 0.300000 0.000000 0.600000
0.008828 0.864387 0.118465 0.300000 0.000000 0.600000
-0.176073 -0.692013 -0.235494 0.300000 0.600000 0.000000
-0.440537 -0.392189 0.078274 0.300000 0.600000 0.000000
-0.257964 -0.061481 -0.282487 0.300000 0.600000 0.000000
-0.382926 -0.102260 0.204037 0.300000 0.600000 0.000000
-0.279162 -0.692949 0.149510 0.300000 0.600000 0.000000
0.397095 -0.229540 -0.161716 0.300000 0.600000 0.000000
0.209759 -0.692961 -0.064145 0.300000 0.600000 0.000000
0.083376 -0.692961 -0.085104 0.300000 0.600000 0.000000
-0.131695 0.754906 -0.051621 0.600000 0.000000 0.300000
-0.444022 -0.169270 0.055951 0.300000 0.600000 0.000000
0.359151 -0.540739 0.197442 0.300000 0.600000 0.000000
0.362527 -0.144791 -0.209049 0.300000 0.600000 0.000000
-0.373072 0.060785 -0.203624 0.300000 0.600000 0.000000
0.116622 -0.692961 -0.111462 0.300000 0.600000 0.000000
-0.426257 -0.260878 0.124436 0.300000 0.600000 0.000000
0.443027 -0.383909 -0.015769 0.300000 0.600000 0.000000
0.270743 -0.366594 0.294314 0.300000 0.600000 0.000000
0.348421 -0.322819 -0.224381 0.300000 0.600000 0.000000
0.144272 -0.692961 0.111253 0.300000 0.600000 0.000000
-0.169108 -0.692961 0.083909 0.300000 0.600000 0.000000
0.097794 -0.343426 0.295834 0.300000 0.600000 0.000000
-0.431682 0.458884 0.010680 0.300000 0.600000 0.000000
0.396416 0.306821 0.174535 0.300000 0.600000 0.000000
-0.200294 -0.051057 -0.284605 0.300000 0.600000 0.000000
-0.444425 0.150927 -0.041876 0.300000 0.600000 0.000000
0.128727 -0.692961 -0.038676 0.300000 0.600000 0.000000
-0.390964 0.274587 -0.182360 0.300000 0.600000 0.000000
-0.443749 0.020366 0.057693 0.300000 0.600000 0.000000
0.428901 0.196539 0.106251 0.300000 0.600000 0.000000
-0.230396 0.372650 -0.283120 0.300000 0.600000 0.000000
0.075464 0.684811 0.206144 0.300000 0.600000 0.000000
-0.311525 -0.172005 -0.267053 0.300000 0.600000 0.000000
0.018788 0.461290 -0.283500 0.300000 0.600000 0.000000
0.306781 -0.395463 -0.266711 0.300000 0.600000 0.000000
0.184795 0.264461 -0.285387 0.300000 0.600000 0.000000
0.073054 0.905233 0.095570 0.300000 0.000000 0.600000
-0.439215 -0.449072 0.075502 0.300000 0.600000 0.000000
-0.137934 -0.586553 -0.284718 0.300000 0.600000 0.000000
0.282403 0.657684 0.055851 0.300000 0.600000 0.000000
0.149597 -0.164927 0.295956 0.300000 0.600000 0.000000
0.269198 -0.522784 0.287397 0.300000 0.600000 0.000000
-0.036299 -0.119291 -0.285388 0.300000 0.600000 0.000000
0.139112 0.228461 0.296833 0.300000 0.600000 0.000000
-0.208672 0.174072 0.295510 0.300000 0.600000 0.000000
0.192586 0.707225 0.061866 0.300000 0.600000 0.000000
-0.008858 -0.351195 0.295834 0.300000 0.600000 0.000000
-0.352481 -0.649577 -0.107228 0.300000 0.600000 0.000000
-0.107463 0.979387 -0.039013 0.300000 0.000000 0.600000
0.269000 -0.166941 0.294712 0.300000 0.600000 0.000000
-0.148822 0.128605 -0.285064 0.300000 0.600000 0.000000
-0.019723 0.795874 0.119971 0.600000 0.000000 0.300000
-0.167400 0.164677 -0.285054 0.300000 0.600000 0.000000
-0.318415 -0.439374 0.271856 0.300000 0.600000 0.000000
-0.227772 0.392158 0.294882 0.300000 0.600000 0.000000
-0.080275 0.199033 -0.285388 0.300000 0.600000 0.000000
-0.059799 -0.399606 0.296508 0.300000 0.600000 0.000000
0.394061 0.138460 0.179315 0.300000 0.600000 0.000000
-0.380064 0.039866 0.207294 0.300000 0.600000 0.000000
0.199692 -0.308325 0.296153 0.300000 0.600000 0.000000
-0.352789 0.601068 0.013606 0.300000 0.600000 0.000000
0.322889 0.439138 0.246698 0.300000 0.600000 0.000000
-0.089287 0.882436 0.081700 0.300000 0.000000 0.600000
0.317940 0.352241 0.267870 0.300000 0.600000 0.000000
0.309966 0.544520 -0.190027 0.300000 0.600000 0.000000
0.115796 0.812836 0.001545 0.600000 0.000000 0.300000
-0.407953 -0.440513 -0.147720 0.300000 0.600000 0.000000
0.244780 -0.450851 0.296452 0.300000 0.600000 0.000000
-0.336979 0.251567 0.254580 0.300000 0.600000 0.000000
0.241983 -0.641408 0.250134 0.300000 0.600000 0.000000
0.165994 -0.678376 0.270875 0.300000 0.600000 0.000000
-0.445214 0.345740 -0.033782 0.300000 0.600000 0.000000
-0.354562 -0.325264 -0.223851 0.300000 0.600000 0.000000
-0.142674 -0.538456 0.296507 0.300000 0.600000 0.000000
0.014399 -0.092863 0.295947 0.300000 0.600000 0.000000
-0.197570 0.609930 0.241800 0.300000 0.600000 0.000000
-0.239886 -0.587435 -0.272470 0.300000 0.600000 0.000000
0.072381 -0.451529 -0.283727 0.300000 0.600000 0.000000
0.366054 0.422221 -0.193388 0.300000 0.600000 0.000000
0.437203 0.300408 0.065463 0.300000 0.600000 0.000000
-0.424263 0.345127 0.127480 0.300000 0.600000 0.000000
-0.219699 -0.123948 -0.283763 0.300000 0.600000 0.000000
0.338466 -0.057082 0.247296 0.300000 0.600000 0.000000
0.423414 -0.364745 -0.107890 0.300000 0.600000 0.000000
-0.028483 0.648436 0.258606 0.300000 0.600000 0.000000
-0.082121 0.971371 -0.077969 0.300000 0.000000 0.600000
-0.223880 -0.570656 -0.279776 0.300000 0.600000 0.000000
-0.375719 0.428027 0.197837 0.300000 0.600000 0.000000
0.100611 -0.488855 0.296318 0.300000 0.600000 0.000000
0.019728 0.305763 -0.285388 0.300000 0.600000 0.000000
0.151003 -0.644718 0.293821 0.300000 0.600000 0.000000
-0.367392 0.576490 0.051682 0.300000 0.600000 0.000000
-0.245572 0.673363 -0.090812 0.300000 0.600000 0.000000
0.202641 -0.618124 -0.278113 0.300000 0.600000 0.000000
0.430962 -0.406340 0.099103 0.300000 0.600000 0.000000
0.246269 0.280452 0.295890 0.300000 0.600000 0.000000
0.066224 0.449078 0.294683 0.300000 0.600000 0.000000
0.192432 0.364938 0.295579 0.300000 0.600000 0.000000
0.284799 -0.692961 0.099065 0.300000 0.600000 0.000000
0.442964 -0.223455 -0.018538 0.300000 0.600000 0.000000
-0.334832 0.566570 -0.144544 0.300000 0.600000 0.000000
0.152015 0.662834 -0.194943 0.300000 0.600000 0.000000
-0.053835 0.994552 0.001339 0.300000 0.000000 0.600000
0.407895 -0.557560 -0.079372 0.300000 0.600000 0.000000
0.435638 0.126488 0.076771 0.300000 0.600000 0.000000
-0.294728 -0.692961 0.091309 0.300000 0.600000 0.000000
-0.082086 0.318854 0.296207 0.300000 0.600000 0.000000
0.193076 0.661489 0.181666 0.300000 0.600000 0.000000
0.083948 0.466277 0.294680 0.300000 0.600000 0.000000
0.219688 0.667530 -0.132927 0.300000 0.600000 0.000000
0.422899 0.256218 0.120444 0.300000 0.600000 0.000000
-0.238332 0.307765 0.288576 0.300000 0.600000 0.000000
-0.029356 0.066650 -0.285388 0.300000 0.600000 0.000000
0.433608 -0.332361 -0.077944 0.300000 0.600000 0.000000
0.051047 -0.489910 0.296004 0.300000 0.600000 0.000000
0.399458 0.509166 0.067205 0.300000 0.600000 0.000000
0.002166 0.994552 -0.082169 0.300000 0.000000 0.600000
-0.346736 -0.260504 0.243853 0.300000 0.600000 0.000000
-0.211621 -0.280749 0.295834 0.300000 0.600000 0.000000
0.444756 -0.127525 -0.002280 0.300000 0.600000 0.000000
-0.405589 0.155714 -0.154929 0.300000 0.600000 0.000000
-0.055314 -0.229401 0.295834 0.300000 0.600000 0.000000
0.439551 -0.135773 0.049464 0.300000 0.600000 0.000000
0.221290 0.224197 0.296833 0.300000 0.600000 0.000000
-0.249368 -0.338006 -0.283675 0.300000 0.600000 0.000000
-0.293649 -0.692961 0.047166 0.300000 0.600000 0.000000
-0.197884 0.641393 -0.196729 0.300000 0.600000 0.000000
-0.432370 -0.120434 0.110865 0.300000 0.600000 0.000000
-0.313584 0.346470 0.276287 0.300000 0.600000 0.000000
-0.353820 -0.182879 0.236099 0.300000 0.600000 0.000000
-0.092607 0.962406 0.078463 0.300000 0.000000 0.600000
0.370807 -0.632893 0.091702 0.300000 0.600000 0.000000
-0.076656 -0.692961 0.120850 0.300000 0.600000 0.000000
-0.442190 0.123933 0.067683 0.300000 0.600000 0.000000
0.087208 0.314426 0.296832 0.300000 0.600000 0.000000
0.060474 0.668373 -0.220407 0.300000 0.600000 0.000000
-0.049838 -0.331429 -0.284567 0.300000 0.600000 0.000000
0.327647 -0.614336 -0.178917 0.300000 0.600000 0.000000
-0.292018 0.348737 -0.276299 0.300000 0.600000 0.000000
0.202193 -0.692961 0.111790 0.300000 0.600000 0.000000
0.440396 0.146315 0.046284 0.300000 0.600000 0.000000
0.429273 -0.486695 -0.064490 0.300000 0.600000 0.000000
0.054610 -0.306137 0.295834 0.300000 0.600000 0.000000
-0.095129 0.722076 0.133927 0.600000 0.000000 0.300000
-0.003201 -0.383144 -0.283826 0.300000 0.600000 0.000000
-0.103558 -0.689283 0.296615 0.300000 0.600000 0.000000
-0.307418 0.155445 0.279709 0.300000 0.600000 0.000000
0.444093 0.355322 0.011477 0.300000 0.600000 0.000000
-0.146240 -0.070992 -0.285116 0.300000 0.600000 0.000000
-0.264459 0.045374 0.291224 0.300000 0.600000 0.000000
-0.115583 0.836161 0.045709 0.600000 0.000000 0.300000
0.213483 -0.119341 0.295834 0.300000 0.600000 0.000000
0.141310 -0.692870 -0.252913 0.300000 0.600000 0.000000
-0.330064 -0.316066 0.262110 0.300000 0.600000 0.000000
-0.119096 -0.153125 -0.285349 0.300000 0.600000 0.000000
0.164706 0.456211 0.295787 0.300000 0.600000 0.000000
0.358995 0.518661 0.157997 0.300000 0.600000 0.000000
0.079587 0.133087 0.296833 0.300000 0.600000 0.000000
0.246888 0.439212 0.295222 0.300000 0.600000 0.000000
-0.298183 -0.691145 -0.128684 0.300000 0.600000 0.000000
-0.096473 -0.271147 0.295834 0.300000 0.600000 0.000000
-0.110402 0.166881 -0.285332 0.300000 0.600000 0.000000
0.089120 -0.014976 -0.285387 0.300000 0.600000 0.000000
0.009882 -0.692961 0.069515 0.300000 0.600000 0.000000
0.442702 -0.340456 0.031607 0.300000 0.600000 0.000000
0.219132 0.569824 -0.246743 0.300000 0.600000 0.000000
0.060171 0.330994 0.296577 0.300000 0.600000 0.000000
-0.320150 0.412648 0.262720 0.300000 0.600000 0.000000
0.383072 -0.165818 0.197448 0.300000 0.600000 0.000000
0.371601 -0.301699 0.211068 0.300000 0.600000 0.000000
0.241133 -0.581136 -0.272981 0.300000 0.600000 0.000000
-0.316349 0.601055 -0.125036 0.300000 0.600000 0.000000
-0.434871 0.363980 -0.087614 0.300000 0.600000 0.000000
0.404871 -0.174102 -0.145947 0.300000 0.600000 0.000000
-0.047271 0.058939 0.295852 0.300000 0.600000 0.000000
-0.320567 -0.485969 -0.252017 0.300000 0.600000 0.000000
0.155712 -0.264544 0.296088 0.300000 0.600000 0.000000
0.025202 0.279692 0.296834 0.300000 0.600000 0.000000
-0.332885 -0.189992 -0.247585 0.300000 0.600000 0.000000
0.361029 0.069217 -0.211181 0.300000 0.600000 0.000000
0.046144 0.418852 0.294624 0.300000 0.600000 0.000000
0.431131 0.404548 0.069608 0.300000 0.600000 0.000000
0.107215 -0.429136 -0.283787 0.300000 0.600000 0.000000
-0.136877 0.016787 0.296459 0.300000 0.600000 0.000000
-0.430980 0.432818 -0.055082 0.300000 0.600000 0.000000
-0.316066 -0.213764 -0.263507 0.300000 0.600000 0.000000
0.109276 0.835421 -0.037464 0.600000 0.000000 0.300000
0.096208 0.091576 0.296834 0.300000 0.600000 0.000000
0.031953 -0.317081 -0.284528 0.300000 0.600000 0.000000
0.132748 0.721842 -0.090814 0.600000 0.000000 0.300000
0.046808 -0.692961 -0.151074 0.300000 0.600000 0.000000
0.097053 -0.180502 -0.285387 0.300000 0.600000 0.000000
0.401230 0.520145 0.021792 0.300000 0.600000 0.000000
-0.037401 0.099425 -0.285388 0.300000 0.600000 0.000000
-0.161084 -0.596463 -0.284121 0.300000 0.600000 0.000000
-0.249689 -0.411357 -0.283015 0.300000 0.600000 0.000000
-0.212314 -0.248901 -0.284180 0.300000 0.600000 0.000000
0.253332 -0.518079 0.295759 0.300000 0.600000 0.000000
0.226597 -0.078917 -0.285196 0.300000 0.600000 0.000000
0.107176 0.460302 -0.283516 0.300000 0.600000 0.000000
-0.122113 0.821247 0.013663 0.600000 0.000000 0.300000
-0.009344 0.939424 0.123844 0.300000 0.000000 0.600000
0.338165 0.610969 0.025135 0.300000 0.600000 0.000000
-0.429140 -0.449551 -0.103312 0.300000 0.600000 0.000000
-0.229081 -0.669014 -0.230705 0.300000 0.600000 0.000000
-0.302788 -0.378135 0.283982 0.300000 0.600000 0.000000
0.423206 -0.155970 -0.108727 0.300000 0.600000 0.000000
-0.444954 0.070954 0.050005 0.300000 0.600000 0.000000
0.169519 0.063996 -0.285388 0.300000 0.600000 0.000000
0.423094 -0.325693 -0.108621 0.300000 0.600000 0.000000
-0.365726 0.204253 -0.211651 0.300000 0.600000 0.000000
0.229186 0.352566 -0.284917 0.300000 0.600000 0.000000
0.100632 0.849818 0.033409 0.600000 0.000000 0.300000
-0.038442 -0.622833 0.296690 0.300000 0.600000 0.000000
-0.061770 0.400726 -0.283535 0.300000 0.600000 0.000000
0.328735 -0.080572 0.257961 0.300000 0.600000 0.000000
-0.412729 -0.158661 -0.140446 0.300000 0.600000 0.000000
0.313530 0.615337 -0.091530 0.300000 0.600000 0.000000
-0.193015 -0.354538 0.295834 0.300000 0.600000 0.000000
0.298600 0.499606 0.244672 0.300000 0.600000 0.000000
-0.414360 -0.573916 0.045524 0.300000 0.600000 0.000000
-0.113487 0.839160 -0.029691 0.600000 0.000000 0.300000
0.186826 0.620987 -0.222827 0.300000 0.600000 0.000000
-0.033934 -0.297138 -0.285082 0.300000 0.600000 0.000000
0.084608 0.533700 0.295832 0.300000 0.600000 0.000000
-0.059987 -0.264367 0.295834 0.300000 0.600000 0.000000
0.395577 -0.492178 -0.148686 0.300000 0.600000 0.000000
-0.107580 0.950635 -0.046178 0.300000 0.000000 0.600000
0.407792 -0.037184 0.151464 0.300000 0.600000 0.000000
-0.004205 -0.210020 -0.285388 0.300000 0.600000 0.000000
0.419798 0.128630 0.127116 0.300000 0.600000 0.000000
0.414699 -0.234071 0.136767 0.300000 0.600000 0.000000
0.226612 -0.692961 -0.096872 0.300000 0.600000 0.000000
0.257712 0.489996 -0.267605 0.300000 0.600000 0.000000
0.418680 -0.130525 0.129201 0.300000 0.600000 0.000000
-0.425143 0.478155 0.000413 0.300000 0.600000 0.000000
0.040923 0.581674 0.295831 0.300000 0.600000 0.000000
0.315053 -0.692409 -0.086801 0.300000 0.600000 0.000000
0.046342 0.621555 -0.269410 0.300000 0.600000 0.000000
-0.288928 -0.006232 0.287112 0.300000 0.600000 0.000000
-0.445562 -0.430702 -0.030894 0.300000 0.600000 0.000000
-0.449716 -0.408461 -0.003490 0.300000 0.600000 0.000000
0.260500 0.677022 0.000902 0.300000 0.600000 0.000000
0.399427 0.525140 0.005248 0.300000 0.600000 0.000000
-0.078946 0.753943 0.114912 0.600000 0.000000 0.300000
-0.437863 -0.501938 0.035359 0.300000 0.600000 0.000000
0.099532 0.363988 -0.283660 0.300000 0.600000 0.000000
0.433805 0.324562 0.088182 0.300000 0.600000 0.000000
-0.005874 0.994552 -0.036365 0.300000 0.000000 0.600000
-0.279763 -0.543450 -0.266319 0.300000 0.600000 0.000000
-0.024457 0.596761 0.295701 0.300000 0.600000 0.000000
-0.378003 0.246734 -0.198187 0.300000 0.600000 0.000000
0.078527 0.163279 -0.285387 0.300000 0.600000 0.000000
0.125857 -0.488966 0.296784 0.300000 0.600000 0.000000
-0.326491 0.619937 -0.061129 0.300000 0.600000 0.000000
-0.417794 -0.484978 -0.116836 0.300000 0.600000 0.000000
0.421607 0.345908 0.121536 0.300000 0.600000 0.000000
0.316621 0.368775 -0.256521 0.300000 0.600000 0.000000
0.024277 -0.692961 -0.249944 0.300000 0.600000 0.000000
-0.165685 -0.692961 -0.059256 0.300000 0.600000 0.000000
-0.382125 -0.425628 0.204357 0.300000 0.600000 0.000000
0.141843 -0.589437 0.296500 0.300000 0.600000 0.000000
0.401955 0.279047 -0.149613 0.300000 0.600000 0.000000
0.318625 0.470053 -0.227472 0.300000 0.600000 0.000000
0.259594 0.246083 0.296145 0.300000 0.600000 0.000000
-0.441057 0.303181 0.074937 0.300000 0.600000 0.000000
0.202172 -0.692961 -0.041213 0.300000 0.600000 0.000000
0.295085 -0.325131 0.285112 0.300000 0.600000 0.000000
-0.367873 0.219698 0.220758 0.300000 0.600000 0.000000
0.435538 -0.395142 -0.065952 0.300000 0.600000 0.000000
-0.400466 -0.039246 -0.165318 0.300000 0.600000 0.000000
0.041857 0.832592 -0.106657 0.600000 0.000000 0.300000
-0.310040 0.627671 0.094036 0.300000 0.600000 0.000000
-0.121153 0.064059 -0.285256 0.300000 0.600000 0.000000
0.440352 -0.182025 -0.035022 0.300000 0.600000 0.000000
0.042591 0.944069 0.114238 0.300000 0.000000 0.600000
-0.303055 0.649408 0.014216 0.300000 0.600000 0.000000
-0.447772 -0.457317 0.002581 0.300000 0.600000 0.000000
-0.326270 0.286424 0.265970 0.300000 0.600000 0.000000
0.134584 -0.299561 0.295834 0.300000 0.600000 0.000000
0.060444 -0.623158 0.296834 0.300000 0.600000 0.000000
-0.385742 0.548173 -0.043187 0.300000 0.600000 0.000000
-0.235423 -0.272222 -0.283021 0.300000 0.600000 0.000000
-0.012490 -0.615624 0.296714 0.300000 0.600000 0.000000
0.347060 0.310954 0.237395 0.300000 0.600000 0.000000
-0.345329 -0.397289 0.245355 0.300000 0.600000 0.000000
0.431200 -0.070265 -0.087141 0.300000 0.600000 0.000000
-0.302928 0.508082 -0.229159 0.300000 0.600000 0.000000
-0.428098 -0.188719 0.120686 0.300000 0.600000 0.000000
0.263728 0.114631 -0.284627 0.300000 0.600000 0.000000
-0.212907 0.640044 0.199314 0.300000 0.600000 0.000000
0.027135 0.944763 -0.108846 0.300000 0.000000 0.600000
0.036312 0.434096 0.294696 0.300000 0.600000 0.000000
0.180671 0.557032 -0.277499 0.300000 0.600000 0.000000
-0.444573 0.260577 -0.040934 0.300000 0.600000 0.000000
-0.235132 -0.513539 -0.283258 0.300000 0.600000 0.000000
0.379960 0.315421 0.201553 0.300000 0.600000 0.000000
0.171139 0.590027 0.270929 0.300000 0.600000 0.000000
-0.355394 0.446795 0.214064 0.300000 0.600000 0.000000
0.188545 0.652379 0.196669 0.300000 0.600000 0.000000
-0.338753 0.577558 -0.120390 0.300000 0.600000 0.000000
0.267704 0.396219 -0.283880 0.300000 0.600000 0.000000
-0.386484 0.334362 -0.188018 0.300000 0.600000 0.000000
-0.320720 -0.692070 0.102108 0.300000 0.600000 0.000000
0.101821 -0.692961 0.165713 0.300000 0.600000 0.000000
0.112855 -0.203223 -0.285388 0.300000 0.600000 0.000000
0.382184 0.555221 0.008054 0.300000 0.600000 0.000000
0.110750 -0.100420 -0.285388 0.300000 0.600000 0.000000
0.050023 -0.547879 -0.284703 0.300000 0.600000 0.000000
-0.393823 0.257027 0.189080 0.300000 0.600000 0.000000
0.289834 0.142608 0.289085 0.300000 0.600000 0.000000
-0.399524 0.519033 -0.057182 0.300000 0.600000 0.000000
-0.375373 -0.594460 0.140097 0.300000 0.600000 0.000000
-0.154858 0.305094 -0.285051 0.300000 0.600000 0.000000
0.193283 -0.692552 0.224486 0.300000 0.600000 0.000000
0.288116 -0.692436 -0.139629 0.300000 0.600000 0.000000
-0.140805 -0.692961 -0.109688 0.300000 0.600000 0.000000
-0.157217 -0.511874 0.296578 0.300000 0.600000 0.000000
0.310577 -0.156731 0.275025 0.300000 0.600000 0.000000
0.424237 0.315928 0.117138 0.300000 0.600000 0.000000
0.376708 0.242852 -0.193826 0.300000 0.600000 0.000000
-0.445180 -0.381164 0.048528 0.300000 0.600000 0.000000
0.375899 -0.572642 -0.137464 0.300000 0.600000 0.000000
-0.369682 0.457307 0.193935 0.300000 0.600000 0.000000
-0.369488 0.010350 -0.207547 0.300000 0.600000 0.000000
-0.231987 0.523086 -0.271508 0.300000 0.600000 0.000000
0.336364 0.496144 -0.194669 0.300000 0.600000 0.000000
0.404385 0.185229 -0.144918 0.300000 0.600000 0.000000
-0.352818 -0.235158 0.237195 0.300000 0.600000 0.000000
-0.092701 -0.475799 0.296750 0.300000 0.600000 0.000000
0.263837 0.657845 0.101627 0.300000 0.600000 0.000000
0.428707 -0.287352 -0.095368 0.300000 0.600000 0.000000
0.142130 0.174448 0.296833 0.300000 0.600000 0.000000
-0.208440 0.218201 0.295762 0.300000 0.600000 0.000000
0.124857 -0.353903 0.295834 0.300000 0.600000 0.000000
0.408818 -0.546045 0.100067 0.300000 0.600000 0.000000
-0.193188 0.045909 0.295334 0.300000 0.600000 0.000000
-0.253464 0.238402 0.290538 0.300000 0.600000 0.000000
0.321641 0.125980 0.265462 0.300000 0.600000 0.000000
-0.328887 -0.109853 0.263389 0.300000 0.600000 0.000000
-0.112825 0.878669 0.039205 0.300000 0.000000 0.600000
-0.408428 -0.176577 -0.149173 0.300000 0.600000 0.000000
-0.159861 -0.626835 0.293092 0.300000 0.600000 0.000000
0.348354 0.583705 -0.077699 0.300000 0.600000 0.000000
0.319552 -0.557397 0.233826 0.300000 0.600000 0.000000
0.307460 -0.099494 0.277310 0.300000 0.600000 0.000000
-0.361626 -0.597138 0.164477 0.300000 0.600000 0.000000
0.246094 -0.692945 0.162349 0.300000 0.600000 0.000000
-0.260741 -0.184043 0.293807 0.300000 0.600000 0.000000
0.173464 0.647664 -0.201000 0.300000 0.600000 0.000000
0.399557 0.258078 -0.154848 0.300000 0.600000 0.000000
0.222340 -0.692961 0.025798 0.300000 0.600000 0.000000
-0.054273 0.271810 -0.285388 0.300000 0.600000 0.000000
0.218278 0.076098 0.296833 0.300000 0.600000 0.000000
0.149405 -0.200742 0.296225 0.300000 0.600000 0.000000
0.284221 0.465582 -0.259534 0.300000 0.600000 0.000000
-0.137411 0.109881 0.296605 0.300000 0.600000 0.000000
-0.049974 -0.374680 -0.283808 0.300000 0.600000 0.000000
0.063109 0.789461 -0.089180 0.600000 0.000000 0.300000
0.335696 0.167852 0.250344 0.300000 0.600000 0.000000
-0.253462 -0.692961 0.008975 0.300000 0.600000 0.000000
0.106847 0.534914 0.295833 0.300000 0.600000 0.000000
-0.016830 -0.145508 0.295834 0.300000 0.600000 0.000000
-0.392027 0.088944 0.192122 0.300000 0.600000 0.000000
-0.243465 0.408351 -0.284228 0.300000 0.600000 0.000000
-0.069090 -0.150498 -0.285388 0.300000 0.600000 0.000000
0.416889 -0.135067 -0.121573 0.300000 0.600000 0.000000
0.439781 -0.474378 -0.008736 0.300000 0.600000 0.000000
-0.250509 -0.054456 0.291766 0.300000 0.600000 0.000000
-0.117683 0.794982 -0.030317 0.600000 0.000000 0.300000
0.146551 -0.032728 0.296370 0.300000 0.600000 0.000000
-0.333687 0.183938 0.258170 0.300000 0.600000 0.000000
0.281042 0.278958 -0.282278 0.300000 0.600000 0.000000
0.285351 0.194746 0.291384 0.300000 0.600000 0.000000
-0.140398 -0.441196 0.296832 0.300000 0.600000 0.000000
0.177771 -0.692961 -0.089264 0.300000 0.600000 0.000000
0.044003 -0.692780 0.269164 0.300000 0.600000 0.000000
-0.031134 0.913769 -0.109695 0.300000 0.000000 0.600000
-0.235962 0.592740 0.232327 0.300000 0.600000 0.000000
0.198704 -0.235660 -0.285387 0.300000 0.600000 0.000000
-0.061923 -0.342940 -0.284450 0.300000 0.600000 0.000000
0.371655 -0.056169 0.211010 0.300000 0.600000 0.000000
0.237367 -0.690850 0.200441 0.300000 0.600000 0.000000
-0.345138 -0.355733 -0.234169 0.300000 0.600000 0.000000
0.077335 0.596833 0.293263 0.300000 0.600000 0.000000
0.399097 -0.554325 -0.105442 0.300000 0.600000 0.000000
0.173424 -0.438204 0.296831 0.300000 0.600000 0.000000
-0.276787 0.471239 -0.266049 0.300000 0.600000 0.000000
0.283317 0.630571 0.131802 0.300000 0.600000 0.000000
-0.450269 0.138046 0.004637 0.300000 0.600000 0.000000
-0.351294 -0.608184 -0.160974 0.300000 0.600000 0.000000
0.427619 0.446249 -0.022115 0.300000 0.600000 0.000000
0.097766 0.611053 -0.268944 0.300000 0.600000 0.000000
-0.123044 -0.692961 -0.087254 0.300000 0.600000 0.000000
-0.426142 0.406996 -0.099957 0.300000 0.600000 0.000000
-0.425802 0.448146 0.074627 0.300000 0.600000 0.000000
0.280968 -0.633961 -0.214703 0.300000 0.600000 0.000000
-0.362530 0.564111 -0.092853 0.300000 0.600000 0.000000
0.061212 -0.592378 0.296833 0.300000 0.600000 0.000000
0.319963 0.619945 0.077769 0.300000 0.600000 0.000000
0.125489 -0.093473 -0.285388 0.300000 0.600000 0.000000
0.435630 -0.418070 -0.063701 0.300000 0.600000 0.000000
0.138352 -0.061076 -0.285387 0.300000 0.600000 0.000000
-0.254840 -0.692961 -0.094448 0.300000 0.600000 0.000000
0.321510 -0.641239 0.175353 0.300000 0.600000 0.000000
-0.008032 0.896216 0.122428 0.300000 0.000000 0.600000
0.143678 -0.330453 -0.284788 0.300000 0.600000 0.000000
-0.080642 0.918962 -0.083953 0.300000 0.000000 0.600000
0.408182 0.015407 -0.138477 0.300000 0.600000 0.000000
0.342646 0.013081 0.242715 0.300000 0.600000 0.000000
-0.248753 0.016061 -0.283400 0.300000 0.600000 0.000000
0.045013 0.055792 0.296744 0.300000 0.600000 0.000000
0.033376 0.791771 -0.101668 0.600000 0.000000 0.300000
0.435373 -0.047024 -0.066606 0.300000 0.600000 0.000000
-0.385829 0.133161 0.200584 0.300000 0.600000 0.000000
0.406664 -0.532476 -0.105568 0.300000 0.600000 0.000000
-0.258228 0.590735 0.217371 0.300000 0.600000 0.000000
0.276381 -0.606578 -0.237138 0.300000 0.600000 0.000000
0.426045 -0.151063 0.114133 0.300000 0.600000 0.000000
0.402655 0.315890 0.161882 0.300000 0.600000 0.000000
-0.406594 -0.464254 -0.146023 0.300000 0.600000 0.000000
-0.176878 0.722497 0.023806 0.600000 0.000000 0.300000
-0.057818 -0.658422 0.296061 0.300000 0.600000 0.000000
-0.414705 0.280108 0.147870 0.300000 0.600000 0.000000
0.319248 -0.259799 -0.256265 0.300000 0.600000 0.000000
0.274933 -0.652973 0.215707 0.300000 0.600000 0.000000
0.292043 0.641405 0.088666 0.300000 0.600000 0.000000
-0.052702 0.241570 0.296606 0.300000 0.600000 0.000000
-0.267301 -0.692961 -0.034180 0.300000 0.600000 0.000000
-0.354526 0.534477 -0.147724 0.300000 0.600000 0.000000
0.353461 0.190959 0.230536 0.300000 0.600000 0.000000
0.353704 0.021110 -0.219172 0.300000 0.600000 0.000000
0.197847 0.019095 -0.285387 0.300000 0.600000 0.000000
-0.065112 -0.692961 0.091112 0.300000 0.600000 0.000000
0.058116 -0.277779 0.295834 0.300000 0.600000 0.000000
0.269266 -0.163017 -0.284478 0.300000 0.600000 0.000000
0.165334 -0.625284 -0.284480 0.300000 0.600000 0.000000
-0.436496 0.230994 -0.086509 0.300000 0.600000 0.000000
0.090210 -0.692961 -0.140007 0.300000 0.600000 0.000000
-0.029774 -0.692961 0.022316 0.300000 0.600000 0.000000
-0.408774 0.064883 -0.148470 0.300000 0.600000 0.000000
0.023978 0.878620 -0.106447 0.300000 0.000000 0.600000
0.167227 -0.692961 0.055837 0.300000 0.600000 0.000000
-0.392968 -0.134735 0.190529 0.300000 0.600000 0.000000
0.010496 0.282076 -0.285388 0.300000 0.600000 0.000000
-0.063931 0.512779 -0.283653 0.300000 0.600000 0.000000
0.051988 0.582088 -0.284380 0.300000 0.600000 0.000000
0.301679 0.493807 -0.233320 0.300000 0.600000 0.000000
0.434399 -0.427784 0.081555 0.300000 0.600000 0.000000
0.177006 0.141852 0.296833 0.300000 0.600000 0.000000
-0.149675 0.672469 0.196458 0.300000 0.600000 0.000000
-0.386803 -0.169670 -0.187846 0.300000 0.600000 0.000000
-0.238989 -0.215367 0.296148 0.300000 0.600000 0.000000
0.014689 -0.692961 0.025614 0.300000 0.600000 0.000000
-0.075140 -0.268464 -0.285388 0.300000 0.600000 0.000000
0.187694 0.005643 0.296834 0.300000 0.600000 0.000000
0.215279 -0.639807 0.268492 0.300000 0.600000 0.000000
-0.449971 -0.025541 0.012105 0.300000 0.600000 0.000000
-0.136601 -0.692849 -0.251131 0.300000 0.600000 0.000000
0.441393 0.378691 -0.012730 0.300000 0.600000 0.000000
0.192399 -0.455261 -0.283785 0.300000 0.600000 0.000000
0.392705 0.300781 -0.168937 0.300000 0.600000 0.000000
0.049303 -0.692961 -0.181026 0.300000 0.600000 0.000000
-0.335823 -0.689747 -0.058004 0.300000 0.600000 0.000000
-0.316905 0.101145 0.273777 0.300000 0.600000 0.000000
0.346900 0.187003 -0.225645 0.300000 0.600000 0.000000
-0.448617 0.171859 0.026681 0.300000 0.600000 0.000000
-0.433413 0.048621 -0.096551 0.300000 0.600000 0.000000
-0.351754 0.465907 0.210049 0.300000 0.600000 0.000000
0.060600 -0.692961 0.020593 0.300000 0.600000 0.000000
-0.024418 0.994552 -0.071763 0.300000 0.000000 0.600000
-0.212282 -0.308785 -0.284862 0.300000 0.600000 0.000000
0.345512 0.387412 -0.223056 0.300000 0.600000 0.000000
0.175411 -0.692961 0.028104 0.300000 0.600000 0.000000
0.435671 -0.022773 -0.063217 0.300000 0.600000 0.000000
0.181259 0.576448 0.276350 0.300000 0.600000 0.000000
0.134166 -0.692961 0.061888 0.300000 0.600000 0.000000
0.177128 0.292330 -0.285387 0.300000 0.600000 0.000000
0.016341 0.165385 0.296709 0.300000 0.600000 0.000000
0.310487 -0.692960 -0.007230 0.300000 0.600000 0.000000
-0.037782 -0.692961 -0.109838 0.300000 0.600000 0.000000
0.273436 -0.692892 0.129166 0.300000 0.600000 0.000000
-0.095515 0.900606 -0.065097 0.300000 0.000000 0.600000
0.221625 -0.017479 -0.285387 0.300000 0.600000 0.000000
-0.289288 -0.692961 -0.073493 0.300000 0.600000 0.000000
0.153416 -0.417562 -0.283923 0.300000 0.600000 0.000000
-0.220448 -0.468079 0.296365 0.300000 0.600000 0.000000
0.206611 0.288267 -0.285387 0.300000 0.600000 0.000000
0.427813 -0.429289 -0.096234 0.300000 0.600000 0.000000
-0.177732 -0.660952 0.277916 0.300000 0.600000 0.000000
0.124116 0.717987 0.118811 0.600000 0.000000 0.300000
0.085056 0.422764 0.294660 0.300000 0.600000 0.000000
0.237865 0.690036 -0.012008 0.300000 0.600000 0.000000
-0.354977 -0.112184 0.234831 0.300000 0.600000 0.000000
