ply
format ascii 1.0
element vertex 1252
property float x
property float y
property float z
property uchar red
property uchar green
property uchar blue
end_header
0.056230 0.518292 0.482102 127 127 0
-0.288484 -0.540212 -0.430452 127 127 0
0.053380 0.570662 -0.451824 127 127 0
-0.083860 0.376173 0.523531 127 127 0
-0.316080 0.300389 0.423173 127 127 0
0.321501 0.904389 0.196669 0 255 0
-0.467472 -0.794985 -0.079787 127 127 0
-0.115756 0.805329 -0.438823 0 255 0
0.231182 0.207717 -0.464061 127 127 0
0.167982 -0.708042 0.501234 127 127 0
0.288345 0.895774 -0.330925 0 255 0
0.025359 0.145586 0.531498 127 127 0
-0.435764 0.779160 0.062660 0 255 0
0.318787 -0.755860 0.398664 127 127 0
-0.383856 -0.810819 -0.004079 127 127 0
-0.168926 0.811153 0.432058 0 255 0
0.139422 0.703626 0.403675 127 127 0
-0.073475 0.904389 0.066909 0 255 0
0.064168 0.490281 -0.476126 127 127 0
0.455806 0.837814 0.059997 0 255 0
-0.400557 0.727298 0.131332 127 127 0
-0.372418 0.904389 0.082600 0 255 0
-0.445621 0.126564 0.284414 127 127 0
-0.389442 -0.810819 0.035368 127 127 0
0.446059 0.462096 -0.215035 127 127 0
0.103700 -0.395513 -0.507288 127 127 0
0.243429 -0.309300 -0.458988 127 127 0
0.450610 -0.027129 -0.266631 127 127 0
-0.471737 -0.494805 -0.219050 127 127 0
-0.358744 -0.237938 -0.376540 127 127 0
0.191179 -0.134473 -0.480631 127 127 0
-0.263743 0.321816 -0.449436 127 127 0
-0.143379 -0.279561 -0.499599 127 127 0
0.140064 0.096299 0.515699 127 127 0
0.333829 -0.400771 -0.397197 127 127 0
-0.036988 -0.810819 -0.316513 127 127 0
-0.511151 -0.265073 0.125452 127 127 0
0.486311 -0.106229 0.202608 127 127 0
-0.048358 -0.810819 0.454579 127 127 0
0.527983 -0.286859 0.012852 127 127 0
0.296820 -0.695742 0.438275 127 127 0
-0.172524 0.904389 -0.277896 0 255 0
0.347271 0.418042 0.384219 127 127 0
0.353988 0.502178 -0.327122 127 127 0
0.067663 0.904389 0.132358 0 255 0
0.004577 0.333128 0.534234 127 127 0
0.157163 -0.642235 0.508617 127 127 0
-0.498743 -0.144866 0.167748 127 127 0
-0.517062 0.119930 0.080559 127 127 0
-0.072134 -0.810819 -0.116028 127 127 0
0.472660 0.041189 0.235563 127 127 0
-0.521519 -0.082190 -0.032809 127 127 0
-0.132946 0.821318 0.447023 0 255 0
0.278331 -0.810819 0.034230 127 127 0
-0.429840 0.453096 -0.251235 127 127 0
0.217662 0.904389 0.257438 0 255 0
-0.085992 0.209396 -0.509355 127 127 0
0.013212 -0.175789 0.533097 127 127 0
0.471108 0.368268 0.239310 127 127 0
-0.023767 0.698019 0.428600 127 127 0
-0.442535 0.003790 0.288435 127 127 0
-0.286588 -0.228802 0.445802 127 127 0
-0.488052 -0.054013 0.193559 127 127 0
0.435537 0.434766 -0.255978 127 127 0
-0.125543 0.385183 0.515308 127 127 0
-0.147418 0.675381 0.409231 127 127 0
-0.468483 -0.312722 0.240804 127 127 0
0.305124 0.904389 -0.210072 0 255 0
0.025358 0.747488 0.425947 127 127 0
-0.247272 0.548692 0.407164 127 127 0
0.466447 -0.614359 -0.236668 127 127 0
0.328753 -0.810819 -0.276549 127 127 0
-0.391406 -0.376801 -0.341173 127 127 0
-0.280559 -0.111267 0.450428 127 127 0
-0.115293 0.904389 0.077246 0 255 0
-0.459901 -0.702112 0.257081 127 127 0
0.148052 -0.810819 0.402660 127 127 0
-0.480170 -0.289394 -0.198691 127 127 0
0.347497 0.076970 -0.386709 127 127 0
0.453924 0.580192 0.080607 127 127 0
-0.215006 0.673297 -0.368055 127 127 0
-0.145453 -0.676800 0.512636 127 127 0
0.381183 0.748416 -0.169055 127 127 0
-0.502025 0.090686 -0.145929 127 127 0
0.480855 -0.750167 -0.159670 127 127 0
0.150772 0.085222 -0.497369 127 127 0
0.452451 0.806120 0.081788 0 255 0
-0.096373 0.904389 -0.333402 0 255 0
-0.524426 -0.177256 -0.010730 127 127 0
-0.127025 0.825534 -0.435580 0 255 0
0.213456 0.256303 -0.471404 127 127 0
0.433441 0.628000 -0.106088 127 127 0
-0.486947 -0.180600 0.196225 127 127 0
-0.145788 -0.067096 -0.498602 127 127 0
0.016675 -0.731405 -0.510075 127 127 0
-0.485636 0.121492 0.199391 127 127 0
-0.220110 0.450658 0.456292 127 127 0
0.342614 0.067237 0.404352 127 127 0
-0.330036 -0.810819 0.204524 127 127 0
0.463195 -0.028877 0.258415 127 127 0
0.377943 -0.556082 -0.361333 127 127 0
0.516140 -0.572271 -0.088908 127 127 0
-0.221151 -0.678765 0.481280 127 127 0
-0.493687 -0.382299 0.179955 127 127 0
-0.399708 -0.320623 -0.330353 127 127 0
-0.149529 0.904389 -0.121741 0 255 0
-0.193375 0.878144 0.419418 0 255 0
-0.092138 0.167317 -0.508546 127 127 0
-0.496438 -0.369753 -0.159416 127 127 0
-0.458598 -0.347865 0.264666 127 127 0
0.058221 0.060872 0.527171 127 127 0
0.393190 -0.810819 0.089339 127 127 0
0.317903 -0.461816 0.423314 127 127 0
-0.177963 0.904389 0.038107 0 255 0
0.058845 -0.810819 0.274768 127 127 0
0.183396 -0.247237 0.497750 127 127 0
0.479155 -0.012844 0.219884 127 127 0
0.383554 -0.030156 -0.354021 127 127 0
-0.055011 0.777171 -0.426494 0 255 0
-0.293124 -0.653435 -0.426891 127 127 0
0.452382 0.082021 0.278218 127 127 0
0.018155 -0.810819 0.062124 127 127 0
-0.288323 0.776487 -0.320194 0 255 0
0.422494 -0.655770 -0.303272 127 127 0
0.196725 -0.227275 -0.478334 127 127 0
0.193624 -0.735096 -0.468879 127 127 0
0.472680 -0.779001 0.147373 127 127 0
0.315053 0.570399 -0.334117 127 127 0
0.420729 0.583053 -0.175908 127 127 0
0.399195 0.310748 0.347533 127 127 0
0.466893 0.006156 0.249486 127 127 0
0.404724 0.376353 0.340327 127 127 0
0.102273 -0.810819 0.370970 127 127 0
0.017945 -0.712248 0.528947 127 127 0
-0.292321 -0.525848 0.441403 127 127 0
0.156313 -0.748152 -0.478566 127 127 0
-0.233700 0.578435 0.405684 127 127 0
-0.435865 0.405131 -0.268380 127 127 0
-0.395524 0.790088 0.228564 0 255 0
0.392530 0.673049 0.183273 127 127 0
-0.002438 0.453950 -0.495613 127 127 0
0.484977 0.445020 -0.135235 127 127 0
0.459269 0.292418 0.267894 127 127 0
0.014344 0.903068 0.437506 0 255 0
-0.083056 0.856327 0.457668 0 255 0
-0.415980 0.883389 0.184451 0 255 0
-0.025421 -0.092884 -0.517329 127 127 0
-0.044966 -0.100562 0.528652 127 127 0
0.515635 0.192610 -0.092743 127 127 0
-0.232253 0.781208 0.386524 0 255 0
-0.507183 -0.706586 -0.123326 127 127 0
-0.482820 -0.641994 0.206190 127 127 0
-0.424319 0.346668 0.312176 127 127 0
0.280910 -0.021807 -0.437803 127 127 0
0.503388 -0.342788 0.161380 127 127 0
0.434648 -0.699243 0.299081 127 127 0
-0.166766 0.206750 -0.489912 127 127 0
-0.484446 -0.259931 0.202264 127 127 0
-0.438794 -0.037641 -0.279415 127 127 0
-0.488971 -0.682927 0.190936 127 127 0
0.502329 -0.409007 0.163938 127 127 0
-0.387105 -0.755950 0.329352 127 127 0
0.437706 0.006117 -0.283448 127 127 0
0.263263 0.904389 0.300403 0 255 0
0.163122 0.007736 0.506148 127 127 0
-0.521378 -0.125738 0.047774 127 127 0
-0.435247 -0.604589 -0.284037 127 127 0
-0.115448 0.904389 -0.064549 0 255 0
0.497314 0.226922 -0.162148 127 127 0
-0.120385 -0.026174 0.518723 127 127 0
0.276364 0.435409 -0.417787 127 127 0
0.092235 0.171589 0.522693 127 127 0
0.331142 -0.492691 -0.399260 127 127 0
0.285378 -0.277421 -0.434375 127 127 0
0.214957 0.772457 0.370531 0 255 0
-0.131421 -0.626902 -0.503375 127 127 0
-0.277549 -0.335305 -0.438843 127 127 0
-0.480841 -0.702287 0.206474 127 127 0
-0.390210 -0.709598 -0.337832 127 127 0
0.223567 0.075130 0.481111 127 127 0
-0.459424 0.828835 -0.003374 0 255 0
0.383381 -0.061285 -0.354246 127 127 0
-0.004191 -0.288336 -0.520124 127 127 0
-0.035878 0.584991 0.463174 127 127 0
0.288376 -0.810819 0.224401 127 127 0
0.497957 0.240359 0.174492 127 127 0
-0.475055 -0.099911 -0.211041 127 127 0
0.504163 0.447074 0.022563 127 127 0
0.098734 -0.246001 -0.507942 127 127 0
0.001209 0.904389 -0.160746 0 255 0
-0.487909 0.153735 0.193904 127 127 0
-0.076516 -0.810819 0.443650 127 127 0
0.341165 -0.269761 0.405464 127 127 0
0.442879 -0.524482 0.290602 127 127 0
-0.304336 0.247584 0.432184 127 127 0
-0.001247 0.671560 0.440031 127 127 0
0.161798 0.063922 -0.492801 127 127 0
-0.486971 0.460389 0.105543 127 127 0
0.269974 -0.810819 0.315657 127 127 0
-0.295551 -0.810819 0.086321 127 127 0
0.490343 0.102144 0.192872 127 127 0
-0.017914 -0.247809 0.532213 127 127 0
-0.417356 0.540069 -0.214843 127 127 0
0.431419 0.801491 0.160461 0 255 0
-0.516156 -0.194259 0.087440 127 127 0
-0.111791 -0.390411 -0.505959 127 127 0
0.301056 0.170543 0.436241 127 127 0
-0.363361 0.726493 -0.205818 127 127 0
0.178142 0.295825 0.499927 127 127 0
-0.481717 -0.611638 0.208853 127 127 0
-0.109189 -0.810819 -0.288821 127 127 0
0.525328 -0.182605 0.033016 127 127 0
-0.010380 -0.810819 -0.255715 127 127 0
0.487040 -0.301361 0.200846 127 127 0
0.395246 0.017292 0.352679 127 127 0
-0.123985 -0.810819 0.399803 127 127 0
0.113837 0.805190 0.453208 0 255 0
0.512202 -0.698034 0.123303 127 127 0
0.062792 -0.299749 -0.512674 127 127 0
-0.297094 -0.750604 0.417132 127 127 0
-0.201396 -0.057107 0.489463 127 127 0
-0.047588 0.373270 -0.514411 127 127 0
0.479928 -0.358709 0.218018 127 127 0
0.520211 -0.220338 0.071886 127 127 0
-0.277857 0.651162 -0.328822 127 127 0
-0.405044 -0.810819 0.065261 127 127 0
-0.516102 -0.733285 0.016821 127 127 0
-0.329868 -0.244338 -0.398696 127 127 0
0.493811 0.055683 0.184500 127 127 0
0.392144 -0.211775 -0.342826 127 127 0
-0.494127 -0.493908 0.178893 127 127 0
-0.450459 -0.177719 -0.264213 127 127 0
-0.104581 -0.740984 0.508662 127 127 0
0.422266 -0.429284 0.317466 127 127 0
0.380244 -0.591385 -0.358335 127 127 0
0.271205 0.778340 0.353071 0 255 0
0.484717 -0.044933 -0.192559 127 127 0
0.268704 0.401481 -0.437232 127 127 0
-0.526599 -0.091141 0.005778 127 127 0
0.206330 -0.665453 -0.474355 127 127 0
0.372006 -0.014353 0.381799 127 127 0
-0.138062 -0.601752 -0.501802 127 127 0
-0.376833 -0.023649 -0.360165 127 127 0
-0.210756 0.720131 -0.358188 127 127 0
-0.437305 -0.764108 -0.240662 127 127 0
-0.525598 -0.491097 -0.001826 127 127 0
-0.348508 -0.249489 0.398290 127 127 0
-0.519287 0.192393 -0.049761 127 127 0
0.062773 0.444310 0.504915 127 127 0
0.527202 -0.267041 -0.004885 127 127 0
-0.409214 0.495751 -0.255884 127 127 0
0.492673 0.452583 -0.082553 127 127 0
-0.352793 -0.810819 -0.139212 127 127 0
-0.130794 -0.055127 -0.503457 127 127 0
0.308281 -0.499151 0.430697 127 127 0
-0.355626 -0.391457 -0.378932 127 127 0
0.150435 -0.799673 0.454742 127 127 0
0.360387 0.904389 0.128536 0 255 0
-0.200949 0.036568 -0.475753 127 127 0
0.455218 -0.805411 -0.101144 127 127 0
-0.244559 0.252760 0.471585 127 127 0
-0.042765 0.441698 0.508121 127 127 0
-0.126413 0.675637 -0.403948 127 127 0
0.109358 -0.797026 -0.456531 127 127 0
0.206474 0.904389 -0.073295 0 255 0
-0.396540 -0.218705 0.348377 127 127 0
-0.264624 -0.348061 0.462656 127 127 0
-0.283171 0.593735 0.361605 127 127 0
0.420940 0.689114 -0.052495 127 127 0
-0.513679 -0.485479 0.106253 127 127 0
-0.509312 -0.357442 0.139422 127 127 0
0.376729 -0.684591 -0.362556 127 127 0
-0.465211 -0.383896 -0.234807 127 127 0
-0.396960 -0.552231 -0.333935 127 127 0
-0.330122 0.887998 0.315159 0 255 0
-0.153480 -0.621344 -0.495416 127 127 0
0.521524 -0.023255 0.061912 127 127 0
0.521570 0.331474 -0.047663 127 127 0
-0.500061 -0.612553 0.164566 127 127 0
-0.378148 -0.403236 0.372347 127 127 0
0.512408 0.096949 -0.117259 127 127 0
-0.435585 0.469438 0.243286 127 127 0
-0.419818 -0.203965 0.318041 127 127 0
0.191572 -0.810819 0.149254 127 127 0
0.108672 -0.810819 -0.208730 127 127 0
0.479381 0.246159 0.219338 127 127 0
0.160936 -0.025398 -0.493159 127 127 0
-0.516001 -0.137036 0.088618 127 127 0
-0.084757 0.773210 0.425144 0 255 0
-0.015028 0.357522 -0.518698 127 127 0
0.416548 0.442314 0.290687 127 127 0
0.217751 0.347231 -0.469624 127 127 0
-0.341527 0.043482 0.403646 127 127 0
-0.415588 0.904389 -0.022871 0 255 0
0.321390 -0.184282 -0.406742 127 127 0
-0.417273 0.903413 0.100394 0 255 0
0.520099 -0.448153 -0.058841 127 127 0
0.201136 0.338909 -0.476507 127 127 0
-0.513807 0.046423 0.105281 127 127 0
-0.462312 0.577807 0.006446 127 127 0
-0.381179 0.820421 -0.247060 0 255 0
0.509271 -0.721642 -0.097318 127 127 0
0.023267 0.904389 -0.366266 0 255 0
0.085973 0.904389 0.248878 0 255 0
0.339552 0.568089 0.325481 127 127 0
-0.462964 0.134748 0.254126 127 127 0
0.507279 -0.026006 -0.138091 127 127 0
0.415493 0.719686 -0.051654 127 127 0
-0.399297 0.223965 -0.330888 127 127 0
0.230513 -0.810819 0.351142 127 127 0
0.182557 0.694952 0.388787 127 127 0
0.265531 -0.465575 -0.449604 127 127 0
-0.226132 -0.725089 0.472009 127 127 0
0.127745 0.119806 0.518018 127 127 0
-0.401626 -0.792060 0.268337 127 127 0
0.257900 -0.401707 0.466890 127 127 0
-0.180292 -0.767328 -0.456566 127 127 0
-0.346070 -0.274304 -0.386265 127 127 0
-0.462550 -0.084037 0.255126 127 127 0
-0.279023 0.161154 -0.437711 127 127 0
0.304444 0.021389 0.433641 127 127 0
-0.234204 0.125140 -0.461978 127 127 0
0.483938 -0.756945 0.157097 127 127 0
-0.243130 -0.077024 -0.458281 127 127 0
0.268489 -0.763632 0.431924 127 127 0
0.337719 -0.570243 -0.394212 127 127 0
0.127324 -0.628612 0.518073 127 127 0
-0.214552 0.493424 0.443908 127 127 0
0.515912 0.084771 0.104539 127 127 0
0.152814 0.826585 -0.425728 0 255 0
-0.389909 -0.587784 0.357019 127 127 0
0.518121 0.145818 0.087759 127 127 0
-0.388310 0.730045 0.160898 127 127 0
0.379015 0.213050 0.373832 127 127 0
0.235612 0.216922 0.476122 127 127 0
0.140394 -0.810819 -0.141629 127 127 0
0.317176 0.373839 0.423871 127 127 0
0.449631 0.363758 0.281804 127 127 0
-0.262910 0.904389 -0.096772 0 255 0
0.438143 0.435081 0.266315 127 127 0
-0.346822 0.219641 -0.385688 127 127 0
-0.060157 0.684669 0.428081 127 127 0
-0.504606 0.396024 -0.114137 127 127 0
-0.048009 0.328614 -0.514356 127 127 0
0.370915 -0.810819 0.035872 127 127 0
0.485786 0.208610 0.203876 127 127 0
0.265026 -0.810819 -0.291686 127 127 0
-0.236662 -0.206557 0.474856 127 127 0
-0.226002 -0.153800 -0.465375 127 127 0
-0.259346 -0.810819 -0.218477 127 127 0
-0.168243 -0.810819 -0.199522 127 127 0
-0.239734 0.640189 -0.362463 127 127 0
-0.436438 0.875563 0.143312 0 255 0
0.462757 -0.474232 0.259472 127 127 0
0.525999 -0.001698 -0.014022 127 127 0
0.503119 0.449661 -0.010311 127 127 0
0.515970 -0.439140 -0.090200 127 127 0
0.491607 0.404641 -0.152706 127 127 0
-0.461108 -0.006993 -0.244713 127 127 0
0.408945 0.731183 0.115290 127 127 0
-0.324340 -0.561957 -0.402939 127 127 0
0.263927 0.440559 0.439167 127 127 0
-0.457408 -0.675965 -0.253644 127 127 0
0.011934 -0.099966 -0.519369 127 127 0
-0.151781 0.860654 -0.425325 0 255 0
0.445704 -0.740079 -0.253784 127 127 0
-0.256738 -0.198384 -0.452644 127 127 0
-0.255471 -0.787698 -0.404371 127 127 0
-0.483804 -0.783608 0.047778 127 127 0
0.213226 0.077739 -0.471499 127 127 0
0.514767 -0.003366 -0.099335 127 127 0
0.522771 -0.118893 -0.038542 127 127 0
0.093027 -0.810819 -0.153683 127 127 0
0.521243 -0.468754 -0.050151 127 127 0
-0.122227 0.308159 0.518480 127 127 0
0.116084 -0.330467 0.519553 127 127 0
-0.193501 -0.291056 -0.478838 127 127 0
0.376567 0.521187 -0.287790 127 127 0
0.342556 0.144310 0.404397 127 127 0
0.091547 0.363415 0.522784 127 127 0
0.132450 0.402484 0.509126 127 127 0
0.065470 0.904389 0.331830 0 255 0
-0.414094 0.663103 -0.120718 127 127 0
-0.520937 0.092966 -0.037227 127 127 0
-0.452577 -0.774070 0.200792 127 127 0
-0.409699 -0.201139 -0.317332 127 127 0
-0.064013 -0.810819 0.334919 127 127 0
0.018533 0.904389 -0.079480 0 255 0
0.329316 -0.610576 -0.400661 127 127 0
-0.381006 -0.177824 0.368622 127 127 0
-0.513629 -0.676561 0.106636 127 127 0
0.283176 0.814804 0.367520 0 255 0
-0.123893 0.282105 -0.504366 127 127 0
0.420736 0.859361 0.190008 0 255 0
0.473504 -0.570854 0.233527 127 127 0
0.119491 0.573125 0.456228 127 127 0
-0.339011 -0.534172 0.405577 127 127 0
-0.122189 0.634143 -0.419947 127 127 0
-0.186080 0.815063 -0.411118 0 255 0
0.273392 0.722254 0.325562 127 127 0
0.381774 -0.538435 0.370236 127 127 0
0.247788 -0.648095 -0.457183 127 127 0
-0.034859 -0.810819 0.349832 127 127 0
0.288880 0.743161 0.313677 127 127 0
-0.444408 0.277420 -0.272098 127 127 0
0.401667 -0.004546 -0.330416 127 127 0
0.490797 -0.711357 0.183091 127 127 0
0.132074 0.818608 -0.434320 0 255 0
0.515347 0.302677 -0.094935 127 127 0
0.500476 -0.435748 -0.154514 127 127 0
0.204848 -0.810819 -0.234826 127 127 0
-0.515949 -0.275259 -0.075117 127 127 0
0.140778 -0.425617 0.515403 127 127 0
0.169698 -0.810819 -0.065600 127 127 0
0.120230 -0.810819 0.091517 127 127 0
-0.050591 0.272799 -0.514016 127 127 0
-0.456494 -0.753433 0.223504 127 127 0
0.205626 -0.810819 0.410554 127 127 0
-0.257746 0.904389 0.042576 0 255 0
-0.520756 0.378828 0.047160 127 127 0
-0.233349 0.904389 0.097125 0 255 0
0.519387 -0.368054 -0.064244 127 127 0
0.512124 -0.248880 -0.119416 127 127 0
-0.136698 0.412982 0.503780 127 127 0
0.215520 0.266570 0.484444 127 127 0
-0.507131 -0.676646 -0.133601 127 127 0
0.255763 -0.545718 0.467775 127 127 0
0.154950 -0.490981 0.509533 127 127 0
-0.401019 0.589078 0.227550 127 127 0
-0.438754 -0.229483 0.293363 127 127 0
0.018854 0.620703 0.454252 127 127 0
-0.249077 -0.798011 0.410790 127 127 0
0.365809 -0.463199 -0.372658 127 127 0
0.069975 -0.810819 0.307119 127 127 0
0.372350 0.353021 0.381536 127 127 0
-0.055712 0.007627 -0.513342 127 127 0
0.044675 0.895044 -0.434933 0 255 0
0.244849 0.692367 0.353108 127 127 0
0.408008 0.279951 0.336048 127 127 0
0.522622 -0.507487 -0.039674 127 127 0
0.469945 -0.085431 0.242117 127 127 0
-0.478505 0.306170 0.216607 127 127 0
0.514437 -0.623614 0.115741 127 127 0
-0.290118 -0.810819 -0.302951 127 127 0
0.454370 0.883936 0.033113 0 255 0
-0.373136 0.642442 -0.226453 127 127 0
0.157941 0.396552 -0.487559 127 127 0
-0.252049 0.527208 -0.398195 127 127 0
-0.176538 0.904389 -0.363263 0 255 0
0.166669 0.017940 -0.490784 127 127 0
0.187469 0.896882 0.407573 0 255 0
-0.434165 -0.220777 -0.285447 127 127 0
0.418812 0.741651 -0.026448 127 127 0
0.509390 0.285132 -0.132993 127 127 0
0.410716 -0.574060 -0.318623 127 127 0
-0.198508 0.513192 -0.429869 127 127 0
-0.369027 0.904007 -0.207210 0 255 0
0.212701 0.374724 -0.471716 127 127 0
-0.522544 -0.162436 0.038919 127 127 0
-0.491066 -0.624471 -0.172386 127 127 0
-0.375895 0.545291 0.287384 127 127 0
-0.242893 0.038912 0.472275 127 127 0
-0.138222 0.904117 0.406827 0 255 0
-0.333181 0.069513 0.410051 127 127 0
-0.518040 0.348665 0.073129 127 127 0
0.382314 0.827622 0.262093 0 255 0
-0.032702 0.239712 0.530267 127 127 0
-0.013354 0.737571 0.427263 127 127 0
-0.263523 -0.033773 0.463501 127 127 0
0.058539 -0.519771 0.527129 127 127 0
-0.100474 -0.358492 0.521344 127 127 0
-0.295501 -0.103813 -0.425067 127 127 0
0.521827 -0.242732 -0.045713 127 127 0
-0.423966 -0.707264 0.308479 127 127 0
0.209322 -0.526553 0.487012 127 127 0
-0.482081 0.340768 0.207973 127 127 0
0.449426 0.412324 -0.248171 127 127 0
0.006770 -0.810819 0.026956 127 127 0
0.360876 0.756670 0.225568 127 127 0
0.238910 0.904389 -0.117865 0 255 0
0.034023 -0.810819 -0.345867 127 127 0
-0.469413 -0.122502 0.238556 127 127 0
-0.368406 0.904389 -0.114086 0 255 0
-0.059918 0.904389 -0.092382 0 255 0
0.482899 -0.786485 0.051124 127 127 0
0.425893 0.774996 -0.077256 0 255 0
-0.092226 -0.810819 0.109584 127 127 0
0.219884 0.895799 -0.381832 0 255 0
0.528057 -0.105449 0.001609 127 127 0
-0.415529 0.904343 0.055392 0 255 0
-0.464562 -0.753569 0.203831 127 127 0
0.081607 0.709694 0.418542 127 127 0
0.474953 0.510132 -0.077270 127 127 0
-0.000343 -0.643018 -0.520631 127 127 0
0.500890 -0.066929 -0.153515 127 127 0
0.001421 0.724998 0.429098 127 127 0
-0.195822 -0.125941 -0.477877 127 127 0
0.033433 0.799462 -0.448431 0 255 0
0.278112 -0.810819 0.255557 127 127 0
-0.203531 0.904389 -0.198053 0 255 0
-0.241705 0.242481 -0.458871 127 127 0
-0.285019 0.830921 -0.350669 0 255 0
0.012353 0.635528 -0.436468 127 127 0
-0.078049 0.904389 -0.063648 0 255 0
0.390856 -0.810819 0.025598 127 127 0
0.259232 -0.810819 -0.105514 127 127 0
0.396355 0.459699 -0.294047 127 127 0
-0.405477 -0.810819 0.121617 127 127 0
0.513518 -0.596241 0.122718 127 127 0
-0.335244 0.709298 -0.242461 127 127 0
-0.312898 -0.495188 -0.411718 127 127 0
-0.121251 0.612913 0.441522 127 127 0
-0.433684 -0.735244 0.283584 127 127 0
-0.420560 0.622565 -0.138714 127 127 0
-0.192080 -0.793679 0.443383 127 127 0
0.035980 -0.810819 0.306962 127 127 0
-0.026400 0.757099 0.425545 127 127 0
-0.459641 0.540548 -0.104396 127 127 0
0.288836 -0.769478 0.411551 127 127 0
0.312160 0.748831 0.289054 127 127 0
-0.334359 -0.429231 0.409146 127 127 0
-0.485524 -0.611628 -0.185766 127 127 0
0.287844 0.185656 -0.432483 127 127 0
0.424932 -0.501965 0.313992 127 127 0
0.169579 -0.286532 0.503473 127 127 0
0.469487 0.168686 0.243224 127 127 0
0.154183 0.904389 -0.160540 0 255 0
0.344346 0.029571 0.403023 127 127 0
-0.185053 0.539591 0.440273 127 127 0
0.486667 0.456298 -0.119140 127 127 0
0.010294 0.689039 0.433511 127 127 0
-0.055579 -0.229081 0.527255 127 127 0
-0.026624 -0.441827 0.531067 127 127 0
-0.316053 -0.810819 -0.262591 127 127 0
0.107742 0.339326 0.520652 127 127 0
0.342890 0.243401 0.404141 127 127 0
0.374367 0.561846 -0.269467 127 127 0
-0.029602 0.019433 0.530675 127 127 0
0.344143 0.639408 -0.268433 127 127 0
-0.186475 -0.810819 0.289243 127 127 0
0.462293 -0.743386 0.226329 127 127 0
-0.480798 -0.630309 -0.197175 127 127 0
0.357959 0.583993 -0.279308 127 127 0
-0.388425 0.685894 -0.163792 127 127 0
0.024807 -0.810819 -0.433146 127 127 0
0.053203 0.894820 0.447961 0 255 0
0.002862 -0.757320 0.514475 127 127 0
-0.473557 -0.162379 -0.214657 127 127 0
-0.108977 0.741161 0.414474 127 127 0
-0.282924 -0.006071 0.448614 127 127 0
-0.392172 0.357340 -0.340174 127 127 0
-0.163476 -0.810819 0.290617 127 127 0
-0.163489 -0.089681 0.505165 127 127 0
0.327384 0.727001 -0.255319 127 127 0
-0.420532 -0.337368 -0.303215 127 127 0
-0.445315 -0.777070 -0.198556 127 127 0
-0.225203 -0.050590 0.479602 127 127 0
0.115026 -0.260683 -0.505797 127 127 0
-0.036050 0.716403 0.424275 127 127 0
0.500845 0.079244 -0.153622 127 127 0
-0.311491 0.061225 0.426694 127 127 0
0.003281 0.785071 0.457743 0 255 0
-0.208690 -0.428974 0.486442 127 127 0
0.524821 -0.074565 -0.022969 127 127 0
-0.008879 -0.627676 0.533403 127 127 0
-0.215599 -0.708933 0.480492 127 127 0
-0.460709 -0.157369 -0.245675 127 127 0
-0.345154 0.904389 -0.025424 0 255 0
-0.470712 0.281419 -0.221526 127 127 0
-0.517056 -0.514832 -0.066705 127 127 0
-0.116409 0.904389 -0.230889 0 255 0
0.382676 0.904389 0.066174 0 255 0
-0.117608 0.266828 0.519088 127 127 0
-0.141988 -0.189734 0.514071 127 127 0
-0.283201 0.239079 -0.434505 127 127 0
-0.405517 0.465495 -0.276470 127 127 0
0.318318 -0.409580 -0.409099 127 127 0
0.441704 -0.810819 0.022808 127 127 0
0.317721 0.904389 0.276203 0 255 0
-0.460134 0.031594 0.260958 127 127 0
0.141870 0.904389 -0.309293 0 255 0
-0.493408 -0.648117 -0.166732 127 127 0
-0.266237 0.887802 0.369675 0 255 0
0.433421 -0.737652 0.285121 127 127 0
0.040170 -0.810819 0.230996 127 127 0
-0.454620 0.572521 0.078714 127 127 0
-0.296107 0.904389 0.047512 0 255 0
-0.211450 -0.424378 -0.471403 127 127 0
-0.299429 0.387334 0.431670 127 127 0
0.402073 0.772545 -0.122377 0 255 0
-0.500671 0.355726 0.163094 127 127 0
0.525328 -0.583158 0.033020 127 127 0
0.234441 -0.198322 -0.462711 127 127 0
0.388556 0.277471 0.361398 127 127 0
0.435784 -0.777366 0.239715 127 127 0
-0.411473 -0.100344 -0.315021 127 127 0
0.488419 0.289765 -0.183622 127 127 0
0.414806 0.419575 -0.290913 127 127 0
-0.367769 -0.733351 -0.356707 127 127 0
-0.195957 0.192007 0.491716 127 127 0
-0.444746 0.536811 0.165314 127 127 0
-0.518502 -0.675534 -0.055721 127 127 0
-0.344761 0.837852 0.308417 0 255 0
0.393223 0.812832 -0.233980 0 255 0
-0.423145 0.497674 0.249911 127 127 0
0.489581 -0.693190 0.192962 127 127 0
0.474177 -0.241283 0.231901 127 127 0
-0.364686 0.744796 0.217933 127 127 0
0.288986 -0.594280 0.445502 127 127 0
0.303418 0.538316 -0.355875 127 127 0
0.360594 -0.046775 -0.376660 127 127 0
-0.014560 0.227896 0.532655 127 127 0
0.519478 0.278497 -0.063552 127 127 0
0.491786 0.446696 0.117496 127 127 0
-0.519679 0.170849 0.060681 127 127 0
0.348663 0.904389 -0.103169 0 255 0
0.180538 -0.212646 -0.485039 127 127 0
-0.450153 0.035784 0.278508 127 127 0
-0.014271 0.904389 -0.282964 0 255 0
0.450276 -0.166876 -0.267066 127 127 0
0.207762 0.535653 0.433050 127 127 0
-0.426466 0.052571 -0.295481 127 127 0
0.334148 0.221827 0.410849 127 127 0
0.337254 -0.810819 0.149845 127 127 0
0.212162 0.773209 -0.366480 0 255 0
0.527473 -0.483621 0.016726 127 127 0
0.137245 -0.306149 0.516767 127 127 0
0.526060 -0.327536 -0.013563 127 127 0
0.514295 0.310241 0.116819 127 127 0
0.090519 0.349464 -0.509024 127 127 0
-0.070721 -0.024582 -0.511366 127 127 0
-0.404724 -0.138986 -0.323816 127 127 0
0.065938 -0.810819 -0.027048 127 127 0
0.416584 -0.810819 -0.149088 127 127 0
-0.115879 -0.524963 0.519316 127 127 0
0.317620 -0.482857 -0.409635 127 127 0
-0.322694 -0.376462 0.418098 127 127 0
0.244046 -0.771446 -0.428098 127 127 0
-0.228377 -0.781547 0.439672 127 127 0
-0.242215 -0.561008 0.472555 127 127 0
0.480635 -0.200112 -0.202414 127 127 0
-0.366589 0.291651 -0.370520 127 127 0
0.161382 0.211841 0.506869 127 127 0
-0.463918 -0.071994 -0.237927 127 127 0
0.041820 -0.635264 -0.515435 127 127 0
-0.265363 0.244880 0.462089 127 127 0
-0.317617 -0.129964 -0.408098 127 127 0
0.006731 0.175617 0.533950 127 127 0
0.216578 -0.810819 0.261687 127 127 0
-0.117211 -0.810819 0.188746 127 127 0
0.420448 -0.556343 -0.305939 127 127 0
0.316379 0.904389 -0.125367 0 255 0
-0.043569 -0.404007 0.528836 127 127 0
0.353724 0.872090 -0.284219 0 255 0
0.386821 0.051348 0.363659 127 127 0
-0.338870 0.764865 0.251631 127 127 0
-0.265673 0.499010 -0.399016 127 127 0
-0.114402 -0.792001 -0.460593 127 127 0
0.516733 0.210640 -0.084402 127 127 0
0.372197 0.904389 -0.078099 0 255 0
-0.153345 -0.810819 -0.398289 127 127 0
0.073171 0.313747 -0.511307 127 127 0
0.036828 0.361428 -0.516092 127 127 0
-0.501851 0.423436 0.082335 127 127 0
-0.505682 0.411328 -0.068768 127 127 0
-0.510670 -0.220399 0.129111 127 127 0
0.335441 0.380123 -0.394565 127 127 0
0.137913 0.904389 -0.261564 0 255 0
0.461723 0.371990 -0.248073 127 127 0
-0.430834 -0.330272 0.303685 127 127 0
0.020127 0.904389 0.305963 0 255 0
-0.491395 -0.020870 0.185489 127 127 0
-0.361400 0.548842 0.304423 127 127 0
0.463011 0.550522 -0.069804 127 127 0
-0.521083 -0.333869 0.050013 127 127 0
-0.458834 0.845966 0.021756 0 255 0
0.453884 -0.288101 -0.262365 127 127 0
-0.163830 0.744259 -0.377857 127 127 0
0.226799 -0.593240 -0.465877 127 127 0
0.250853 0.047331 -0.455913 127 127 0
0.172277 0.904320 0.390212 0 255 0
-0.065775 0.061122 -0.512017 127 127 0
-0.232650 0.262176 -0.462622 127 127 0
0.185681 -0.810819 -0.239194 127 127 0
-0.421714 -0.455569 -0.301673 127 127 0
-0.518320 -0.054250 0.071005 127 127 0
0.200349 -0.131389 0.490728 127 127 0
0.520396 -0.724912 -0.005933 127 127 0
-0.072183 0.416757 0.512229 127 127 0
-0.489063 -0.777665 -0.028741 127 127 0
-0.428531 0.660105 -0.050108 127 127 0
0.522414 -0.545959 0.055153 127 127 0
0.400865 0.028500 -0.331461 127 127 0
0.357878 -0.305402 0.392640 127 127 0
0.261359 0.119991 0.465457 127 127 0
-0.168105 0.036867 -0.489358 127 127 0
0.116952 -0.810819 0.305669 127 127 0
-0.199245 -0.147372 0.490354 127 127 0
-0.473458 0.095112 -0.214897 127 127 0
-0.331253 -0.810819 0.157443 127 127 0
-0.224578 -0.189447 0.479861 127 127 0
0.278710 -0.485847 0.453387 127 127 0
-0.194821 0.904389 -0.129558 0 255 0
0.357247 -0.645968 0.393124 127 127 0
0.119830 0.313450 0.519060 127 127 0
-0.147555 -0.001592 0.511765 127 127 0
-0.383122 -0.093506 0.365864 127 127 0
-0.331031 0.653536 0.289440 127 127 0
-0.512718 -0.051674 -0.099654 127 127 0
0.520280 -0.353440 0.071358 127 127 0
0.291726 0.281682 0.443400 127 127 0
-0.235763 0.904122 0.357993 0 255 0
-0.520583 0.044333 -0.039917 127 127 0
0.418443 0.233191 -0.308552 127 127 0
0.078265 -0.804446 0.466409 127 127 0
0.179023 -0.810819 -0.117529 127 127 0
-0.437425 -0.313136 0.295095 127 127 0
0.369513 -0.110142 -0.369816 127 127 0
-0.483023 0.184629 0.205699 127 127 0
-0.446684 -0.154078 0.283028 127 127 0
-0.015133 -0.657224 0.532580 127 127 0
-0.130963 -0.008232 -0.503435 127 127 0
-0.135373 -0.768531 -0.474327 127 127 0
0.472239 -0.701326 0.232374 127 127 0
-0.336003 0.773706 -0.257398 0 255 0
0.392490 -0.026484 0.356271 127 127 0
-0.340650 0.195538 0.404319 127 127 0
-0.456115 -0.334952 -0.256766 127 127 0
-0.423968 0.773099 0.037024 0 255 0
0.108275 0.904389 0.307522 0 255 0
-0.140249 0.756742 0.401521 127 127 0
0.504589 -0.525224 -0.144585 127 127 0
0.022940 0.904389 0.030340 0 255 0
-0.515904 0.130195 -0.075459 127 127 0
-0.347744 -0.034010 0.398876 127 127 0
0.362158 -0.810819 0.209050 127 127 0
-0.300006 -0.751703 -0.400380 127 127 0
-0.195861 0.237800 -0.477861 127 127 0
-0.435322 -0.265595 0.297836 127 127 0
0.380993 0.139821 -0.357358 127 127 0
0.154653 -0.340298 -0.495761 127 127 0
-0.513740 -0.072810 0.105787 127 127 0
-0.453549 -0.053151 -0.260185 127 127 0
-0.074767 -0.810819 -0.282000 127 127 0
0.443743 0.013815 0.289476 127 127 0
-0.268880 -0.199992 0.459390 127 127 0
-0.387342 -0.307498 -0.346469 127 127 0
-0.140103 0.048671 -0.500957 127 127 0
-0.374948 -0.810819 0.012711 127 127 0
-0.370500 0.243960 0.381415 127 127 0
0.515007 -0.123555 0.111413 127 127 0
-0.375791 -0.303863 -0.361523 127 127 0
-0.061022 0.904389 0.201054 0 255 0
0.191373 -0.793568 0.444614 127 127 0
-0.405179 0.257723 -0.323223 127 127 0
0.160624 0.599732 0.430571 127 127 0
-0.526348 0.107393 0.010028 127 127 0
-0.100381 -0.810819 -0.306597 127 127 0
-0.132241 0.478765 -0.469141 127 127 0
0.496093 -0.043759 -0.165094 127 127 0
0.406934 -0.201963 0.337447 127 127 0
0.464518 -0.543291 0.255220 127 127 0
0.078851 0.882608 0.454165 0 255 0
-0.292983 0.472259 -0.388759 127 127 0
0.093643 -0.709200 0.519578 127 127 0
-0.235707 -0.810819 0.343844 127 127 0
-0.525500 -0.257946 0.016465 127 127 0
-0.007186 0.526621 0.485630 127 127 0
-0.187173 -0.198905 -0.481459 127 127 0
0.305111 -0.353738 0.433129 127 127 0
0.505749 -0.722731 -0.121774 127 127 0
-0.198680 -0.339809 0.490588 127 127 0
-0.084740 -0.158248 0.523416 127 127 0
-0.059544 0.904389 0.293757 0 255 0
-0.454721 0.794468 -0.007162 0 255 0
-0.449613 0.499583 -0.170533 127 127 0
-0.125915 -0.810819 0.365153 127 127 0
-0.395673 0.047671 0.349508 127 127 0
-0.220742 0.904389 -0.062324 0 255 0
-0.443024 -0.337527 -0.273902 127 127 0
0.299410 0.496569 -0.375645 127 127 0
-0.447545 -0.414710 -0.268010 127 127 0
0.376295 0.890066 -0.241059 0 255 0
0.515816 -0.415467 0.105268 127 127 0
0.248633 -0.786126 -0.412930 127 127 0
-0.352104 0.594232 -0.278988 127 127 0
0.438215 0.396622 0.286263 127 127 0
0.232180 0.658338 -0.362541 127 127 0
-0.102991 0.538748 -0.455241 127 127 0
-0.514391 0.229319 0.100849 127 127 0
-0.388674 -0.673015 0.358629 127 127 0
0.522820 -0.668376 0.052067 127 127 0
0.389570 0.391479 -0.338444 127 127 0
-0.512254 -0.616056 0.117080 127 127 0
0.000958 -0.810819 0.328011 127 127 0
0.344159 -0.534187 -0.389271 127 127 0
-0.411596 0.051418 -0.314860 127 127 0
-0.261406 0.583051 -0.368683 127 127 0
0.311654 0.449996 0.398770 127 127 0
0.228543 0.904389 0.316630 0 255 0
0.356736 -0.430056 -0.379620 127 127 0
0.350890 -0.808709 -0.293381 127 127 0
-0.349001 0.904389 -0.207303 0 255 0
0.211121 0.786103 0.404969 0 255 0
0.092957 0.102179 0.522598 127 127 0
-0.278527 0.904389 0.251788 0 255 0
-0.192219 0.000338 -0.479369 127 127 0
0.332282 -0.810819 0.131246 127 127 0
0.417271 -0.710636 -0.304848 127 127 0
0.517155 -0.529796 0.095093 127 127 0
0.494580 -0.629783 -0.168747 127 127 0
0.514716 -0.730847 0.049307 127 127 0
0.032236 0.786051 0.454790 0 255 0
-0.520436 0.260321 0.054930 127 127 0
0.032299 0.729585 0.425033 127 127 0
-0.268387 -0.810819 -0.098133 127 127 0
-0.040913 -0.677813 0.529186 127 127 0
-0.458846 0.460737 0.194343 127 127 0
-0.513519 -0.458136 0.107473 127 127 0
0.197022 0.904389 0.034624 0 255 0
0.448461 0.236492 0.283328 127 127 0
0.359520 0.904389 0.206158 0 255 0
0.479342 -0.777273 -0.120119 127 127 0
-0.421176 0.755821 0.006748 127 127 0
0.515231 -0.455786 0.109714 127 127 0
-0.513156 -0.706043 -0.078758 127 127 0
0.033992 -0.287274 -0.516465 127 127 0
0.395409 -0.801008 0.264184 127 127 0
0.476049 -0.659268 0.227381 127 127 0
0.354948 0.370175 0.394888 127 127 0
-0.515462 -0.189105 -0.078814 127 127 0
0.343800 0.904389 -0.159824 0 255 0
0.275666 0.559670 0.382526 127 127 0
-0.518215 0.230737 0.071799 127 127 0
0.061684 -0.085958 0.526715 127 127 0
0.519625 0.244596 -0.062439 127 127 0
0.349822 0.565525 -0.299537 127 127 0
0.001371 0.904389 0.026690 0 255 0
0.360578 0.119028 -0.376672 127 127 0
-0.265090 0.897020 -0.345094 0 255 0
-0.444632 0.056960 -0.271807 127 127 0
0.244202 0.094371 -0.458668 127 127 0
0.511336 -0.289110 -0.125402 127 127 0
0.249368 0.548807 0.407050 127 127 0
-0.068767 -0.700070 0.524042 127 127 0
-0.197465 0.395389 -0.470755 127 127 0
0.376389 0.460864 0.333357 127 127 0
-0.516950 -0.401335 0.081406 127 127 0
0.462254 -0.380594 -0.246791 127 127 0
-0.394323 -0.456463 -0.337370 127 127 0
-0.434264 0.332154 0.299214 127 127 0
-0.431911 -0.213702 0.302281 127 127 0
-0.520030 0.353616 -0.044116 127 127 0
0.194372 0.798543 0.419781 0 255 0
0.394499 0.642132 -0.190255 127 127 0
-0.512372 -0.407566 0.116182 127 127 0
0.257880 -0.161958 -0.453002 127 127 0
0.494858 0.310342 -0.168077 127 127 0
0.514437 0.421085 0.007692 127 127 0
0.018385 -0.239737 0.532416 127 127 0
0.525032 -0.369950 -0.021368 127 127 0
-0.487325 0.022095 -0.181418 127 127 0
-0.047977 0.302260 0.528256 127 127 0
-0.181170 -0.179346 0.497841 127 127 0
0.326797 0.387497 0.412145 127 127 0
0.396370 -0.252804 -0.337319 127 127 0
0.182373 -0.716066 -0.479692 127 127 0
-0.368172 0.184963 0.383202 127 127 0
-0.332210 0.238447 0.410796 127 127 0
0.219353 -0.785499 0.440838 127 127 0
-0.168619 0.503776 0.459379 127 127 0
-0.146746 -0.229189 -0.498205 127 127 0
-0.208381 -0.608992 -0.472674 127 127 0
-0.337349 -0.353695 0.406853 127 127 0
-0.161572 0.460748 0.477074 127 127 0
0.496820 -0.319625 -0.163340 127 127 0
0.402001 -0.597710 0.343876 127 127 0
0.245275 0.173575 -0.458224 127 127 0
-0.256303 0.777489 -0.347302 0 255 0
-0.032073 0.904389 -0.313254 0 255 0
0.264385 0.796818 0.378131 0 255 0
-0.419414 -0.409406 -0.304672 127 127 0
0.228450 0.175560 0.479089 127 127 0
-0.244932 -0.810819 -0.028265 127 127 0
-0.491221 0.463555 -0.051664 127 127 0
-0.421445 0.012545 -0.302024 127 127 0
-0.509519 -0.175338 -0.123959 127 127 0
0.265655 -0.132656 -0.449509 127 127 0
-0.171458 -0.118181 0.501864 127 127 0
-0.219043 0.873501 0.410244 0 255 0
-0.320461 -0.201301 0.419811 127 127 0
0.115426 0.904389 -0.225855 0 255 0
0.366455 -0.372925 -0.372163 127 127 0
-0.188759 -0.810819 0.411687 127 127 0
-0.522435 0.210506 0.039747 127 127 0
-0.205267 -0.366063 0.487860 127 127 0
0.449611 -0.805974 0.135752 127 127 0
-0.070293 -0.500407 -0.511422 127 127 0
0.219253 -0.725954 0.475433 127 127 0
0.487100 0.497981 0.028433 127 127 0
-0.513252 -0.573785 -0.095603 127 127 0
0.480097 0.284566 0.217610 127 127 0
0.178091 0.275330 0.499948 127 127 0
-0.489339 -0.399534 -0.176556 127 127 0
-0.447385 0.580855 -0.099517 127 127 0
0.008434 0.281933 0.533726 127 127 0
0.514017 0.360301 -0.105039 127 127 0
0.099967 -0.282039 0.521675 127 127 0
0.496821 0.051986 -0.163339 127 127 0
-0.514972 -0.439197 0.096431 127 127 0
0.411182 0.745328 -0.084401 127 127 0
-0.403709 -0.649525 -0.325139 127 127 0
0.324154 -0.069960 -0.404621 127 127 0
-0.480906 0.511242 -0.014105 127 127 0
-0.371452 -0.353768 -0.366788 127 127 0
0.512897 0.156219 0.127435 127 127 0
-0.380928 -0.269012 -0.354827 127 127 0
0.387538 -0.810819 -0.208288 127 127 0
0.335671 0.309791 0.409680 127 127 0
-0.175634 -0.652194 0.500134 127 127 0
-0.337880 0.247310 -0.392549 127 127 0
0.078670 -0.419394 0.524479 127 127 0
0.098399 0.401339 -0.500080 127 127 0
-0.124013 -0.653742 0.518245 127 127 0
0.528124 0.141076 0.002118 127 127 0
-0.501292 0.134550 0.161594 127 127 0
-0.063770 -0.577720 0.526176 127 127 0
0.520590 0.154813 -0.055110 127 127 0
-0.304332 0.528968 -0.357373 127 127 0
-0.220717 -0.717588 -0.462588 127 127 0
-0.385630 0.672016 -0.182046 127 127 0
-0.139767 -0.726671 -0.493416 127 127 0
0.215838 0.902508 0.383719 0 255 0
0.448908 0.584847 0.107391 127 127 0
0.360959 -0.305728 -0.376380 127 127 0
0.188846 0.391642 0.490339 127 127 0
0.352892 0.257215 0.396466 127 127 0
0.447564 -0.537652 -0.270601 127 127 0
0.154868 0.904389 -0.017903 0 255 0
-0.223008 -0.384283 -0.466616 127 127 0
0.243096 0.904389 0.229722 0 255 0
0.171261 0.045228 0.502777 127 127 0
-0.522878 0.048357 0.036379 127 127 0
0.441995 -0.280096 -0.277859 127 127 0
-0.143093 -0.807774 0.446843 127 127 0
0.403144 -0.427101 -0.328491 127 127 0
0.340070 0.401605 -0.382422 127 127 0
-0.263480 -0.810819 -0.298954 127 127 0
0.292340 0.702304 -0.298796 127 127 0
0.150005 -0.272284 0.511581 127 127 0
0.071026 0.902242 -0.418636 0 255 0
0.518420 -0.029924 -0.071591 127 127 0
-0.458474 -0.744291 -0.215748 127 127 0
0.460790 0.840983 -0.008243 0 255 0
0.107282 -0.810819 -0.243731 127 127 0
-0.325443 0.565154 0.340598 127 127 0
0.135304 -0.156152 0.517023 127 127 0
-0.413268 0.768565 -0.053313 127 127 0
-0.147807 -0.038477 0.511660 127 127 0
0.101378 0.508934 0.479153 127 127 0
-0.330297 -0.744223 -0.381367 127 127 0
0.287851 -0.316033 -0.432477 127 127 0
-0.071685 -0.810819 -0.378774 127 127 0
0.127452 0.446027 -0.481955 127 127 0
0.260593 -0.074876 0.465774 127 127 0
0.040504 0.344615 0.529504 127 127 0
0.036509 -0.501813 0.530029 127 127 0
-0.510914 0.352151 -0.113358 127 127 0
-0.492992 0.275236 0.181631 127 127 0
0.330433 0.084871 -0.399803 127 127 0
0.371946 0.662629 0.233996 127 127 0
0.457701 0.259065 0.271286 127 127 0
-0.511095 -0.702695 0.112342 127 127 0
0.235645 0.594032 -0.385598 127 127 0
0.402534 -0.508367 -0.329286 127 127 0
0.093115 -0.361976 -0.508682 127 127 0
0.527534 -0.210936 -0.002366 127 127 0
0.471517 0.407959 -0.198456 127 127 0
0.392239 0.595187 0.242697 127 127 0
0.349364 0.778558 0.274763 0 255 0
0.378767 -0.810819 -0.173960 127 127 0
-0.060823 -0.810819 0.175396 127 127 0
0.460756 0.393805 -0.236170 127 127 0
-0.261111 0.249066 -0.450833 127 127 0
0.364987 0.646442 0.251499 127 127 0
0.520171 -0.699516 -0.047563 127 127 0
0.032538 -0.210133 0.530552 127 127 0
0.321032 -0.810819 -0.185979 127 127 0
0.198883 0.328010 0.491336 127 127 0
0.340735 0.893378 -0.282421 0 255 0
-0.398701 0.222677 0.345561 127 127 0
0.330697 0.303182 -0.399600 127 127 0
-0.314964 -0.423389 0.424029 127 127 0
-0.182263 -0.486817 0.497388 127 127 0
-0.012870 -0.540739 -0.518982 127 127 0
0.090929 -0.300429 0.522865 127 127 0
-0.010147 -0.498935 0.533236 127 127 0
-0.453094 0.586700 0.055846 127 127 0
-0.059889 -0.810819 -0.056316 127 127 0
0.526399 0.359774 0.024879 127 127 0
-0.193076 -0.252863 -0.479014 127 127 0
-0.034641 0.043023 -0.516116 127 127 0
-0.409334 0.315669 0.331704 127 127 0
-0.278981 -0.177765 0.451640 127 127 0
-0.103161 0.082696 -0.507095 127 127 0
-0.460537 -0.236919 0.259987 127 127 0
-0.048830 -0.398712 -0.514248 127 127 0
0.437110 -0.810819 -0.083633 127 127 0
0.375198 0.586529 0.269417 127 127 0
-0.301408 0.286234 0.434431 127 127 0
-0.167010 -0.458624 -0.489811 127 127 0
0.120628 -0.388912 0.518955 127 127 0
-0.345772 0.897526 -0.264776 0 255 0
0.083834 -0.052127 -0.509904 127 127 0
-0.497935 -0.553850 0.169698 127 127 0
-0.265118 -0.278403 0.462277 127 127 0
0.158649 0.562579 -0.430251 127 127 0
-0.286916 0.904389 -0.278268 0 255 0
-0.472106 -0.647419 0.232057 127 127 0
0.429010 -0.741304 -0.274777 127 127 0
-0.083678 0.518682 0.478100 127 127 0
0.483452 -0.272698 0.209510 127 127 0
-0.016790 -0.304703 -0.518466 127 127 0
0.294967 0.904389 0.200695 0 255 0
0.118675 -0.810819 -0.341103 127 127 0
0.479182 0.479340 -0.119987 127 127 0
-0.436802 0.169324 -0.282010 127 127 0
-0.296115 0.082838 -0.424596 127 127 0
0.294100 0.478442 -0.386969 127 127 0
0.053304 0.552189 -0.457745 127 127 0
-0.516452 -0.603403 0.085191 127 127 0
0.040039 0.676111 0.433732 127 127 0
-0.509350 -0.388669 -0.125240 127 127 0
-0.300929 0.439095 -0.395923 127 127 0
0.124845 -0.587508 0.518400 127 127 0
-0.523904 0.144983 -0.014692 127 127 0
0.172309 0.206054 -0.488447 127 127 0
-0.518611 -0.228865 -0.054899 127 127 0
0.162717 -0.810819 -0.039886 127 127 0
-0.225359 0.147338 0.479538 127 127 0
-0.296614 0.781133 0.337032 0 255 0
0.230791 -0.272789 0.478119 127 127 0
0.493770 -0.023449 0.184601 127 127 0
-0.185116 0.904389 -0.319308 0 255 0
-0.526613 -0.422589 0.008014 127 127 0
0.488380 -0.628822 0.197612 127 127 0
0.399175 -0.578628 -0.333663 127 127 0
0.501332 0.319956 -0.152446 127 127 0
-0.439356 -0.705224 -0.275176 127 127 0
-0.046733 0.550064 0.472921 127 127 0
0.329261 0.708362 0.266769 127 127 0
-0.145901 0.904389 -0.089423 0 255 0
0.097900 -0.810819 -0.289288 127 127 0
0.011249 0.582897 -0.453455 127 127 0
-0.009693 0.592885 0.464095 127 127 0
-0.209801 -0.454144 0.485982 127 127 0
0.046334 -0.250121 0.528736 127 127 0
0.173089 -0.810819 -0.007736 127 127 0
0.291429 0.205701 -0.429732 127 127 0
-0.332406 0.862549 0.324519 0 255 0
-0.518281 -0.617960 0.071301 127 127 0
0.128295 0.754083 -0.393408 127 127 0
0.519248 -0.664528 -0.065300 127 127 0
0.274829 -0.262304 -0.442469 127 127 0
-0.460491 0.106965 0.260097 127 127 0
-0.460391 -0.369252 0.260338 127 127 0
0.134270 0.239057 0.517159 127 127 0
0.297083 0.570366 0.361816 127 127 0
0.298922 -0.810819 0.105206 127 127 0
-0.342169 0.310676 -0.389258 127 127 0
0.271522 0.479326 -0.403940 127 127 0
-0.352813 -0.765789 0.363938 127 127 0
0.050700 -0.810819 -0.407805 127 127 0
0.430774 0.671519 0.034461 127 127 0
-0.038480 -0.427687 0.529506 127 127 0
0.316145 0.032587 0.424663 127 127 0
-0.098095 0.161379 0.521657 127 127 0
-0.227019 0.282889 0.478850 127 127 0
0.004289 -0.798789 -0.468506 127 127 0
-0.289153 0.607928 0.351339 127 127 0
-0.468017 0.359621 -0.228032 127 127 0
0.054408 -0.726332 0.520611 127 127 0
0.359086 0.601256 -0.268843 127 127 0
0.508662 -0.256382 0.148648 127 127 0
-0.417245 -0.774380 -0.257877 127 127 0
0.102605 -0.810819 0.326059 127 127 0
-0.224888 -0.810819 -0.023586 127 127 0
0.188104 0.904389 0.127904 0 255 0
0.170912 -0.133798 -0.489026 127 127 0
0.315456 -0.663053 -0.411295 127 127 0
0.523805 -0.329374 0.044584 127 127 0
-0.371694 0.149394 0.380499 127 127 0
0.346566 0.491635 -0.341434 127 127 0
0.454964 0.325723 -0.260956 127 127 0
0.122666 0.081202 -0.504791 127 127 0
-0.035970 -0.345016 0.529836 127 127 0
0.442177 0.618264 -0.063397 127 127 0
-0.498168 -0.641995 0.169137 127 127 0
-0.260123 0.019321 0.465138 127 127 0
0.377270 0.404376 0.361648 127 127 0
0.518460 0.107555 0.085183 127 127 0
0.098410 0.024094 0.521880 127 127 0
0.132606 0.610102 0.438615 127 127 0
0.245313 0.078705 0.472104 127 127 0
-0.498298 0.318345 -0.154927 127 127 0
0.506129 0.431805 0.044743 127 127 0
0.512549 0.395076 0.085251 127 127 0
0.222174 -0.810819 0.109534 127 127 0
0.372869 0.149037 0.381137 127 127 0
-0.341513 -0.083461 -0.389761 127 127 0
0.029763 0.904389 -0.043331 0 255 0
-0.258085 -0.574355 0.465982 127 127 0
-0.098171 0.904389 0.328970 0 255 0
-0.508960 0.227733 -0.128200 127 127 0
0.431161 0.364745 0.305874 127 127 0
-0.472364 -0.597896 -0.217537 127 127 0
-0.355788 -0.096190 0.392704 127 127 0
0.334938 -0.328745 -0.396346 127 127 0
-0.370412 -0.804295 -0.274173 127 127 0
0.379822 0.085711 -0.358884 127 127 0
-0.306740 0.904389 0.087345 0 255 0
-0.481363 -0.587318 0.209707 127 127 0
0.415598 0.633957 -0.146095 127 127 0
-0.362381 -0.635607 0.387645 127 127 0
-0.296621 -0.810819 0.121735 127 127 0
0.130677 -0.494866 -0.503737 127 127 0
0.499164 -0.077547 0.171578 127 127 0
0.181827 -0.486898 -0.484505 127 127 0
-0.210973 -0.753065 -0.452663 127 127 0
-0.506579 -0.179468 0.148831 127 127 0
0.348101 0.728930 -0.228321 127 127 0
-0.202078 0.535186 0.434734 127 127 0
0.014159 0.288375 -0.519076 127 127 0
-0.254798 -0.810819 0.298608 127 127 0
-0.475004 0.242018 -0.211163 127 127 0
0.482342 0.515827 -0.007301 127 127 0
0.527213 -0.533066 0.018700 127 127 0
0.146224 0.904389 0.268508 0 255 0
0.310526 0.707007 0.291185 127 127 0
-0.082965 0.399652 0.516283 127 127 0
0.484952 -0.563697 0.205888 127 127 0
0.046609 -0.810819 -0.302630 127 127 0
-0.318207 0.156129 0.421540 127 127 0
-0.154462 0.904389 0.022643 0 255 0
0.272483 0.810127 -0.361673 0 255 0
0.390521 0.522257 -0.269047 127 127 0
-0.414240 0.114395 -0.311414 127 127 0
0.099587 -0.223486 0.521725 127 127 0
-0.107156 0.785555 0.444228 0 255 0
-0.007803 0.473674 -0.488596 127 127 0
-0.469997 0.011166 -0.223252 127 127 0
-0.134108 0.904389 -0.057085 0 255 0
0.112532 -0.810819 0.003549 127 127 0
-0.146481 -0.810819 -0.046545 127 127 0
0.343296 -0.810209 0.314165 127 127 0
-0.194753 0.538841 -0.422617 127 127 0
0.019844 0.904389 -0.393135 0 255 0
-0.393811 0.755378 -0.133722 127 127 0
-0.525426 -0.603491 0.017024 127 127 0
0.400316 0.776257 0.180170 0 255 0
0.096345 -0.324130 0.522152 127 127 0
-0.204089 0.904389 -0.001953 0 255 0
-0.477451 0.511724 0.053074 127 127 0
0.168402 -0.810819 -0.302848 127 127 0
-0.494329 0.346313 0.178404 127 127 0
0.528701 0.176483 0.006502 127 127 0
0.462241 -0.256145 -0.246821 127 127 0
-0.355020 0.036488 0.393293 127 127 0
0.474934 -0.787404 0.105321 127 127 0
-0.198625 -0.810819 0.363748 127 127 0
0.200002 -0.763727 0.465650 127 127 0
-0.429370 0.830679 0.164317 0 255 0
-0.142463 0.904389 0.261725 0 255 0
-0.465785 -0.578170 -0.233421 127 127 0
0.526508 0.289976 -0.010157 127 127 0
0.229825 0.710889 -0.345095 127 127 0
0.487436 -0.704602 -0.180731 127 127 0
-0.452833 0.304581 0.275014 127 127 0
0.272381 0.904389 -0.131800 0 255 0
0.302778 0.179422 -0.421024 127 127 0
-0.432839 -0.810819 0.040699 127 127 0
0.126514 0.756165 0.408042 127 127 0
-0.116737 -0.079482 -0.505308 127 127 0
0.053957 0.866451 -0.447760 0 255 0
0.508617 0.301845 0.148756 127 127 0
-0.004822 -0.810819 0.465695 127 127 0
-0.488907 -0.762087 0.122734 127 127 0
0.512834 -0.483221 0.127916 127 127 0
0.513876 -0.504684 -0.106103 127 127 0
0.528306 -0.587183 0.003497 127 127 0
-0.521143 -0.604793 0.049563 127 127 0
0.201149 0.904389 -0.038980 0 255 0
-0.522569 0.086801 0.038728 127 127 0
0.298804 0.900602 0.326953 0 255 0
-0.518002 -0.557193 -0.059520 127 127 0
0.525203 -0.444507 -0.020069 127 127 0
-0.466144 -0.514775 0.246449 127 127 0
0.459503 -0.611773 -0.253432 127 127 0
-0.234377 0.600645 0.396283 127 127 0
-0.469947 0.007614 0.237270 127 127 0
-0.215499 0.059188 0.483622 127 127 0
0.378558 -0.117374 0.374427 127 127 0
-0.306919 -0.682549 0.430025 127 127 0
0.209333 0.904389 0.049559 0 255 0
-0.366076 -0.779244 -0.318470 127 127 0
0.134257 -0.810819 0.047033 127 127 0
0.278344 -0.058031 0.453668 127 127 0
-0.056387 0.167573 0.527148 127 127 0
0.051325 0.757042 0.422528 127 127 0
-0.087429 0.904389 0.038782 0 255 0
-0.521378 -0.103906 -0.033882 127 127 0
-0.409987 -0.493131 -0.316957 127 127 0
-0.505689 0.056857 -0.137083 127 127 0
-0.067129 -0.325991 -0.511839 127 127 0
-0.093845 0.904389 -0.388306 0 255 0
-0.053570 -0.511600 -0.513624 127 127 0
-0.306825 0.853602 0.347833 0 255 0
0.434317 0.637544 -0.076233 127 127 0
0.322873 0.145006 0.419500 127 127 0
0.527363 -0.071822 -0.003663 127 127 0
0.322438 -0.002174 0.419834 127 127 0
0.491491 -0.371805 0.190101 127 127 0
-0.467668 -0.727835 0.223393 127 127 0
-0.081347 0.904389 -0.268952 0 255 0
-0.514349 -0.231323 0.101167 127 127 0
-0.046968 -0.255284 -0.514493 127 127 0
0.478350 -0.159981 -0.207932 127 127 0
0.131377 -0.400278 -0.503645 127 127 0
0.278596 -0.034097 0.453475 127 127 0
-0.159200 -0.405402 0.506941 127 127 0
0.291948 0.418439 0.426512 127 127 0
-0.194067 0.904389 -0.066718 0 255 0
0.161289 0.527425 0.455125 127 127 0
0.164902 -0.005788 -0.491516 127 127 0
0.407452 -0.163720 -0.322876 127 127 0
-0.429153 -0.065726 -0.291979 127 127 0
-0.328960 -0.748968 0.393605 127 127 0
-0.400628 -0.590593 -0.329154 127 127 0
-0.149162 0.904389 0.148719 0 255 0
-0.019923 -0.238151 -0.518053 127 127 0
0.481519 -0.690778 0.212984 127 127 0
-0.466742 -0.786789 0.140545 127 127 0
-0.509739 0.188574 -0.122282 127 127 0
0.275950 0.291749 -0.441609 127 127 0
0.212898 0.443636 -0.448626 127 127 0
-0.100879 -0.535197 0.521291 127 127 0
-0.355037 0.613045 -0.265360 127 127 0
0.356675 0.044289 -0.379667 127 127 0
0.289314 -0.038991 -0.431355 127 127 0
0.134311 0.467664 0.486822 127 127 0
0.068708 0.904389 -0.284324 0 255 0
-0.445819 0.341447 0.284155 127 127 0
