ply
format ascii 1.0
element vertex 1260
property float x
property float y
property float z
property uchar red
property uchar green
property uchar blue
end_header
0.647910 0.661655 0.367136 153 0 76
0.661559 0.541283 -0.261109 127 127 0
0.309627 0.613172 -0.448366 153 76 0
-0.335667 0.094830 0.425212 76 153 0
-0.630608 -0.501704 0.184860 0 0 255
-0.630608 -0.149452 -0.335097 0 255 0
0.008650 -0.220228 -0.411967 127 0 127
-0.344978 -0.362109 -0.109838 0 127 127
0.661559 0.220974 -0.228813 127 127 0
0.661559 -0.314422 0.380731 153 0 76
-0.521863 -0.039752 -0.411967 127 0 127
0.523102 -0.367448 -0.448366 204 51 127
-0.295610 0.392424 -0.421066 127 0 127
-0.346698 -0.362109 -0.181670 0 127 127
0.580513 0.510406 0.452512 76 0 153
-0.231895 -0.098431 -0.411967 127 0 127
-0.198197 0.034648 -0.421066 127 0 127
0.647910 0.483289 -0.290431 127 127 0
0.089403 -0.308123 -0.421066 127 0 127
-0.630608 0.017918 0.355038 76 0 153
-0.426428 -0.114619 0.452512 76 153 0
-0.582171 -0.457864 -0.421066 204 51 127
0.392086 0.517128 0.425212 76 0 153
-0.616958 0.075726 0.211096 0 255 0
0.048789 -0.237067 0.425212 76 0 153
-0.294480 0.652043 0.397913 153 0 76
-0.210699 0.018531 0.425212 76 153 0
0.661559 0.277376 -0.274000 127 127 0
0.028904 -0.343561 -0.421066 127 0 127
-0.353090 -0.362109 -0.289544 0 127 127
-0.148016 -0.362109 0.392094 0 127 127
0.029403 -0.347370 0.397913 76 0 153
0.301208 0.203185 0.452512 76 0 153
-0.630608 -0.038691 -0.101930 0 255 0
-0.536036 0.640013 0.425212 153 0 76
0.647910 -0.170504 -0.010148 127 127 0
0.661559 -0.433944 0.084917 153 0 76
0.501212 0.403070 0.425212 76 0 153
0.433588 0.592537 -0.421066 127 0 127
0.661559 0.152355 0.283865 127 127 0
-0.292864 0.536443 -0.411967 127 0 127
0.122067 -0.412874 -0.421066 204 51 127
-0.266563 -0.296520 -0.421066 127 0 127
-0.094606 0.030302 -0.421066 127 0 127
0.425664 -0.571199 -0.448366 204 51 127
-0.251100 0.253971 0.452512 76 153 0
0.616721 0.244788 -0.411967 127 0 127
-0.616958 -0.250142 -0.263278 0 255 0
0.670659 0.164105 0.404722 76 153 0
-0.616958 0.031357 -0.176050 0 255 0
-0.369937 -0.410599 0.311465 255 0 0
0.438896 -0.380309 0.360020 0 127 127
-0.288951 0.587221 -0.421066 127 0 127
0.647910 -0.379404 -0.444267 127 127 0
-0.630608 0.141285 -0.041199 0 255 0
0.521237 -0.537002 0.297815 255 0 0
-0.630608 -0.175026 -0.385652 0 255 0
-0.558170 0.319990 -0.411967 127 0 127
0.257467 0.165224 0.452512 76 0 153
-0.616958 0.198719 0.087315 0 255 0
-0.616958 -0.297094 -0.349641 0 255 0
0.661559 0.289799 -0.303265 127 127 0
-0.630608 -0.535534 -0.099684 0 0 255
-0.475865 0.194448 0.452512 76 153 0
-0.630608 -0.317070 0.363062 76 0 153
-0.630608 -0.321775 0.387380 76 0 153
-0.622553 -0.407608 -0.388862 0 0 255
-0.630608 -0.043746 -0.137292 0 255 0
-0.113234 -0.380309 0.236537 0 127 127
-0.563859 -0.362109 -0.344805 0 127 127
-0.616958 0.210683 -0.002213 0 255 0
0.586428 -0.360978 0.425212 76 0 153
-0.191169 0.081718 0.452512 76 153 0
0.661559 -0.570797 0.305452 153 0 76
0.092731 -0.362109 0.322342 0 127 127
0.324057 0.046882 -0.411967 127 0 127
0.638925 -0.313255 -0.411967 127 0 127
0.080497 0.658287 0.397913 153 0 76
-0.598783 0.638866 0.374024 127 0 127
-0.556406 -0.379051 -0.448366 204 51 127
-0.060636 0.350477 0.452512 76 153 0
0.647910 0.601413 -0.113488 127 127 0
0.197529 -0.362109 -0.124383 0 127 127
-0.630608 -0.404942 0.110084 0 255 0
0.506870 0.034731 -0.421066 127 0 127
-0.639708 0.198424 0.420995 153 0 76
-0.479057 0.659464 0.397913 153 0 76
-0.630608 -0.232606 0.294430 0 255 0
-0.201995 -0.362109 -0.360565 0 127 127
0.647910 0.504255 -0.420975 127 0 127
-0.366369 -0.362109 -0.395091 0 127 127
-0.150987 -0.362109 -0.190035 0 127 127
0.600819 0.657065 -0.419961 0 127 127
0.647910 0.429113 -0.100673 127 127 0
0.593215 0.398423 -0.411967 127 0 127
0.661559 0.037873 -0.022293 127 127 0
-0.630608 0.610316 0.245796 0 255 0
-0.457608 0.059112 0.425212 76 153 0
-0.620293 -0.571404 -0.119752 0 0 255
-0.181294 -0.325099 -0.421066 127 0 127
0.647910 -0.090054 0.174870 127 127 0
0.597130 -0.114244 -0.421066 127 0 127
0.046651 0.593812 0.425212 76 0 153
-0.561862 0.220997 -0.411967 127 0 127
-0.482138 -0.380309 0.265494 0 127 127
-0.630608 0.444306 -0.141267 0 255 0
0.178670 0.566368 -0.421066 127 0 127
0.647910 0.275727 -0.226742 127 127 0
-0.102115 0.578246 -0.411967 127 0 127
-0.302064 0.197854 -0.421066 127 0 127
0.345077 -0.380309 0.072446 0 127 127
0.661559 0.516798 -0.035674 127 127 0
-0.616958 -0.471648 0.275916 0 0 255
0.340760 -0.380309 -0.098192 0 127 127
-0.137699 0.672214 0.397913 153 0 76
0.315111 -0.115532 0.425212 76 0 153
0.661559 -0.495963 0.040721 153 0 76
0.289327 0.344572 -0.411967 127 0 127
0.647910 0.593772 0.100691 127 127 0
-0.380759 -0.380309 -0.203742 0 127 127
0.147677 -0.344444 -0.421066 127 0 127
0.644881 -0.173379 -0.411967 127 0 127
0.267955 0.067037 0.425212 76 0 153
0.540244 -0.262472 -0.411967 127 0 127
0.546888 -0.056922 -0.411967 127 0 127
0.378395 -0.061857 0.452512 76 0 153
0.385994 -0.081278 -0.421066 127 0 127
0.488286 -0.325597 -0.411967 127 0 127
0.285306 -0.362109 0.252313 0 127 127
0.086206 -0.222118 -0.411967 127 0 127
-0.277631 0.385233 0.452512 76 153 0
-0.148311 0.207725 -0.421066 127 0 127
-0.600453 -0.142640 0.425212 153 0 76
-0.616958 -0.024354 -0.371064 0 255 0
-0.337503 -0.495634 0.297815 255 0 0
0.042356 -0.380309 -0.331076 0 127 127
0.029209 -0.041385 -0.411967 127 0 127
-0.630608 -0.394965 -0.147027 0 255 0
0.561865 -0.215924 -0.411967 127 0 127
-0.526032 0.301035 0.425212 76 153 0
0.647910 -0.090668 -0.176993 127 127 0
0.573173 -0.362109 0.143318 0 127 127
0.067298 0.684364 -0.425219 153 76 0
0.332565 -0.380309 -0.394387 0 127 127
0.187142 0.045188 -0.411967 127 0 127
0.661559 -0.526497 -0.266004 153 0 76
-0.509511 -0.362109 -0.360267 0 127 127
0.661559 0.252035 0.372859 153 0 76
0.113927 -0.317581 -0.411967 127 0 127
0.150997 0.311856 -0.421066 127 0 127
0.603286 -0.028948 0.452512 76 0 153
-0.630608 -0.358065 -0.004495 0 255 0
-0.402784 -0.233105 -0.411967 127 0 127
-0.187595 -0.362109 -0.292637 0 127 127
-0.226186 0.662970 -0.448366 153 76 0
-0.616958 0.104063 0.163677 0 255 0
-0.630608 0.446575 -0.069535 0 255 0
-0.385170 -0.362109 -0.297238 0 127 127
0.500389 -0.059110 -0.411967 127 0 127
0.251606 -0.362109 0.327647 0 127 127
-0.244597 -0.362109 0.027104 0 127 127
-0.438888 -0.419551 0.311465 255 0 0
0.547611 -0.380243 0.425212 76 0 153
0.661559 0.150592 0.361397 153 0 76
0.128112 0.278800 0.425212 76 0 153
0.647910 -0.155662 0.102513 127 127 0
-0.630608 0.378244 0.007694 0 255 0
0.588257 -0.329083 -0.411967 127 0 127
0.340324 -0.236914 -0.421066 127 0 127
-0.588371 0.002902 0.425212 76 153 0
0.124420 -0.341480 0.425212 76 0 153
-0.520446 -0.250232 -0.421066 127 0 127
0.375108 0.583403 -0.448366 153 76 0
0.189573 -0.246659 -0.411967 127 0 127
0.524154 -0.383571 0.297815 255 0 0
0.269765 0.528924 -0.421066 127 0 127
0.639921 0.657065 -0.398814 0 127 127
-0.374661 -0.380309 -0.244919 0 127 127
0.661559 -0.269096 -0.369226 127 127 0
0.291587 -0.380309 0.127821 0 127 127
-0.007624 -0.015034 -0.421066 127 0 127
0.150633 -0.362109 -0.107515 0 127 127
-0.616958 -0.546526 -0.060025 0 0 255
-0.252960 -0.063787 -0.421066 127 0 127
0.566977 0.146651 0.452512 76 0 153
-0.171063 -0.362109 0.356212 0 127 127
0.600434 -0.380309 -0.296155 0 127 127
0.318608 -0.380309 -0.369269 0 127 127
-0.376913 0.292341 0.452512 76 153 0
0.557392 0.313795 0.452512 76 0 153
-0.229152 -0.423348 0.297815 255 0 0
-0.578074 -0.148641 0.452512 76 153 0
0.202206 -0.362109 -0.342061 0 127 127
0.012513 -0.380309 -0.081519 0 127 127
-0.630608 0.422878 0.112301 0 255 0
0.164333 -0.389659 -0.448366 204 51 127
0.544485 0.570596 0.452512 76 0 153
0.035143 -0.359698 0.425212 76 0 153
0.661559 0.183620 -0.348335 127 127 0
-0.616499 -0.150130 -0.421066 127 0 127
-0.140001 -0.380309 -0.356133 0 127 127
0.300061 -0.380309 -0.132955 0 127 127
0.063508 -0.396232 0.311465 255 0 0
0.569614 0.608319 -0.448366 153 76 0
0.218054 0.153727 -0.421066 127 0 127
0.098761 -0.380309 0.225963 0 127 127
0.647910 0.114874 0.020029 127 127 0
0.507314 -0.016426 0.425212 76 0 153
0.405840 -0.380309 0.361385 0 127 127
-0.327473 -0.550148 -0.421066 204 51 127
0.054695 -0.362109 0.070913 0 127 127
0.488326 -0.380309 0.355074 0 127 127
-0.272324 -0.362109 0.376948 0 127 127
-0.273669 0.068034 0.452512 76 153 0
-0.630608 -0.485903 0.286704 0 0 255
-0.616958 0.584040 -0.211041 0 255 0
-0.292862 0.097470 0.425212 76 153 0
-0.000688 -0.410799 -0.448366 204 51 127
0.530377 -0.309363 -0.421066 127 0 127
-0.614145 -0.335160 0.397913 153 0 76
0.647910 0.500677 0.250925 127 127 0
0.427492 -0.107138 -0.411967 127 0 127
-0.193859 -0.096278 -0.421066 127 0 127
0.308495 -0.380309 -0.345730 0 127 127
-0.156747 -0.515679 -0.421066 204 51 127
0.014600 0.477271 -0.411967 127 0 127
0.369958 -0.362109 -0.020137 0 127 127
-0.266746 -0.096422 -0.411967 127 0 127
-0.616958 0.496931 0.215349 0 255 0
-0.451950 0.468377 0.425212 76 153 0
-0.630608 -0.305582 0.247237 0 255 0
-0.630608 0.462620 -0.163981 0 255 0
-0.626058 -0.148753 0.440054 76 153 0
-0.630608 0.258150 0.048410 0 255 0
0.351718 -0.362109 -0.346378 0 127 127
0.510179 0.251948 0.452512 76 0 153
0.243988 -0.498825 -0.448366 204 51 127
-0.366094 0.265617 -0.421066 127 0 127
-0.302657 -0.063713 -0.411967 127 0 127
0.002077 0.684364 0.404419 153 0 76
0.270832 0.269564 -0.411967 127 0 127
0.661559 0.623046 0.053651 127 127 0
-0.630608 0.352728 -0.329346 0 255 0
-0.470671 0.670715 0.443392 76 153 0
0.115285 -0.362109 -0.281338 0 127 127
-0.545342 -0.319587 0.425212 76 153 0
0.006900 -0.362109 -0.311512 0 127 127
0.070074 -0.045001 0.406524 76 0 153
0.329214 -0.394804 0.297815 255 0 0
0.493483 -0.399913 -0.421066 204 51 127
-0.011108 0.618518 -0.421066 127 0 127
0.417744 0.618301 -0.448366 153 76 0
-0.067570 -0.380309 -0.074873 0 127 127
-0.630608 0.679436 0.101144 0 255 0
0.491169 0.195969 0.425212 76 0 153
-0.209051 0.514662 0.425212 76 153 0
0.647910 0.305663 -0.135983 127 127 0
-0.570065 -0.362109 -0.268939 0 127 127
0.131972 0.130718 -0.411967 127 0 127
0.661559 -0.274148 0.059281 127 127 0
0.647910 0.031716 -0.427071 127 127 0
0.466589 0.624743 0.452512 76 0 153
-0.616958 0.123915 0.196131 0 255 0
0.647910 0.196735 -0.091457 127 127 0
-0.630608 0.242290 0.261710 0 255 0
-0.551914 0.607219 -0.448366 153 76 0
-0.325083 0.266860 -0.421066 127 0 127
0.610461 0.364624 -0.421066 127 0 127
0.372902 0.411301 -0.421066 127 0 127
-0.387502 -0.380309 -0.071494 0 127 127
0.647910 -0.553251 0.050513 153 0 76
-0.201621 0.186855 0.425212 76 153 0
0.647910 0.570123 0.288641 127 127 0
-0.518727 -0.522056 -0.421066 204 51 127
-0.188395 -0.185077 -0.421066 127 0 127
-0.419814 -0.362109 -0.370781 0 127 127
0.065902 0.419281 0.425212 76 0 153
0.635020 -0.380309 -0.331080 0 127 127
-0.630608 0.603932 -0.111127 0 255 0
0.116844 0.223091 0.452512 76 0 153
-0.630608 0.614717 0.083850 0 255 0
-0.297097 0.684364 -0.443470 153 76 0
0.304267 0.648294 -0.421066 153 76 0
0.620836 -0.268549 -0.421066 127 0 127
0.661559 0.056620 0.386039 153 0 76
0.196665 -0.553150 -0.421066 204 51 127
-0.515285 -0.393958 0.428637 76 153 0
0.661559 0.310918 -0.410342 127 127 0
-0.413824 0.571019 0.425212 76 153 0
-0.415661 -0.535289 0.311465 255 0 0
0.055560 0.590474 0.452512 76 0 153
-0.022728 -0.392182 0.452512 76 153 0
0.211184 -0.459189 -0.421066 204 51 127
-0.155514 -0.404666 0.297815 255 0 0
-0.082909 -0.362109 0.140756 0 127 127
0.249710 -0.362109 0.163752 0 127 127
-0.542796 -0.141053 0.452512 76 153 0
-0.098856 0.469046 0.452512 76 153 0
-0.630608 -0.128005 -0.287330 0 255 0
0.397494 -0.546422 -0.421066 204 51 127
-0.616958 0.186122 -0.165446 0 255 0
0.347405 -0.544773 -0.448366 204 51 127
-0.616958 -0.165143 0.182584 0 255 0
-0.616958 -0.122641 -0.183082 0 255 0
-0.029183 0.361163 -0.421066 127 0 127
-0.297763 -0.303805 -0.421066 127 0 127
0.670659 -0.277834 0.412338 76 153 0
0.144315 -0.311431 0.425212 76 0 153
0.661559 -0.180745 0.226852 127 127 0
-0.093536 0.294222 0.452512 76 153 0
0.461703 -0.306089 0.425212 76 0 153
0.647910 0.125347 0.349083 153 0 76
0.474179 -0.362109 -0.259636 0 127 127
0.647910 -0.318133 0.194553 127 127 0
0.647910 -0.040187 0.072554 127 127 0
-0.092347 -0.153374 0.452512 76 153 0
0.394568 0.501378 0.452512 76 0 153
0.647910 0.523260 -0.162622 127 127 0
-0.218600 -0.380309 -0.065794 0 127 127
-0.379621 -0.380309 -0.315152 0 127 127
0.294919 -0.380309 0.272133 0 127 127
0.574816 0.264604 -0.411967 127 0 127
-0.398320 0.037028 0.452512 76 153 0
-0.616958 0.636039 0.015810 0 255 0
0.657010 0.358936 0.426510 76 0 153
0.079107 -0.380309 0.381662 0 127 127
0.647910 -0.344035 -0.196236 127 127 0
0.432167 -0.250252 -0.411967 127 0 127
-0.341320 -0.475950 -0.448366 204 51 127
-0.630608 0.280161 -0.297218 0 255 0
0.139566 0.607657 -0.448366 153 76 0
-0.389235 -0.362109 0.138995 0 127 127
0.463437 -0.362109 0.200171 0 127 127
-0.163835 0.189339 -0.421066 127 0 127
-0.384948 -0.362109 0.328757 0 127 127
0.253225 -0.498659 0.311465 255 0 0
-0.092310 -0.367677 -0.421066 127 0 127
0.647910 -0.431560 0.173736 153 0 76
-0.616958 -0.076738 0.183255 0 255 0
0.647910 -0.047323 -0.220949 127 127 0
-0.630608 -0.524400 0.010074 0 0 255
0.553742 0.657065 -0.412979 0 127 127
0.347545 -0.354226 -0.421066 127 0 127
0.157568 -0.478384 0.311465 255 0 0
0.131570 -0.018101 0.452512 76 0 153
-0.630608 -0.211445 -0.161184 0 255 0
-0.630608 -0.292389 0.086484 0 255 0
0.061942 -0.348327 0.452512 76 0 153
0.056595 -0.040497 0.425212 76 0 153
0.647910 -0.510764 -0.030231 153 0 76
-0.630608 0.010189 0.112963 0 255 0
0.594820 -0.359359 -0.448366 204 51 127
-0.358578 -0.548173 -0.448366 204 51 127
-0.524050 -0.362109 -0.115197 0 127 127
-0.616958 -0.441430 -0.020768 0 0 255
0.661559 0.437247 0.241418 127 127 0
-0.266341 -0.380309 0.348051 0 127 127
0.647910 0.334354 -0.258956 127 127 0
0.647910 -0.178787 0.291940 127 127 0
0.184498 -0.380309 0.262018 0 127 127
-0.593786 0.511453 0.425212 76 153 0
0.653725 0.327345 0.425212 76 0 153
0.661559 -0.463267 -0.338902 153 0 76
-0.120830 -0.186356 0.425212 76 153 0
-0.176203 -0.267699 -0.421066 127 0 127
-0.282147 -0.380309 -0.367613 0 127 127
0.661559 0.122296 0.199009 127 127 0
-0.276667 -0.395491 0.311465 255 0 0
0.302843 0.635668 -0.448366 153 76 0
0.313824 0.014926 0.425212 76 0 153
0.517140 0.007273 0.452512 76 0 153
-0.630608 0.595655 0.000894 0 255 0
0.647910 -0.272211 0.395817 153 0 76
0.142437 -0.380309 0.245319 0 127 127
0.647910 -0.234241 0.343182 153 0 76
0.555122 -0.380309 0.116886 0 127 127
-0.537459 0.099273 -0.411967 127 0 127
-0.630608 0.121333 0.363714 76 0 153
-0.630608 -0.281356 0.117451 0 255 0
-0.053110 -0.299855 0.452512 76 153 0
0.399657 0.660289 -0.421066 153 76 0
-0.630608 0.031925 0.088781 0 255 0
0.001826 0.665420 0.445081 76 153 0
0.017258 0.235017 0.425212 76 0 153
0.661559 -0.067673 0.125898 127 127 0
-0.054169 -0.380309 0.382216 0 127 127
0.647910 0.518425 -0.296913 127 127 0
0.354519 0.684364 -0.428932 153 76 0
0.229850 -0.452287 0.311465 255 0 0
-0.604680 0.384452 0.452512 76 153 0
0.647910 0.081810 0.109591 127 127 0
0.627066 -0.380309 -0.219138 0 127 127
0.585937 -0.164042 0.425212 76 0 153
0.499831 -0.343029 -0.421066 127 0 127
0.494194 -0.380309 -0.114118 0 127 127
-0.409908 -0.362109 -0.050893 0 127 127
0.661559 -0.307774 -0.041885 127 127 0
-0.594865 0.064500 0.452512 76 153 0
0.505831 0.278806 0.452512 76 0 153
0.236179 -0.362109 0.205882 0 127 127
-0.599802 -0.438238 -0.448366 204 51 127
0.661559 -0.326819 0.330808 153 0 76
-0.630608 0.388323 -0.264197 0 255 0
0.581828 0.045014 -0.411967 127 0 127
-0.007159 -0.095493 -0.411967 127 0 127
-0.315587 -0.496829 0.311465 255 0 0
0.020242 0.632355 -0.421066 127 0 127
-0.616958 0.264504 -0.024214 0 255 0
-0.261281 -0.381906 -0.421066 204 51 127
0.177151 -0.294247 0.425212 76 0 153
0.661559 0.571447 0.103078 127 127 0
-0.404618 -0.362109 -0.111121 0 127 127
-0.285711 0.484425 0.425212 76 153 0
-0.239828 -0.380309 0.207671 0 127 127
0.192008 -0.393958 0.448518 76 0 153
-0.616958 -0.243238 -0.374076 0 255 0
-0.245541 -0.571404 -0.438932 204 51 127
0.303236 0.484269 -0.411967 127 0 127
-0.608811 0.190470 0.452512 76 153 0
-0.630608 0.003103 0.007670 0 255 0
0.661559 0.477544 -0.141649 127 127 0
0.282020 0.368449 0.452512 76 0 153
0.647910 -0.270808 0.202143 127 127 0
0.295694 -0.380309 0.066310 0 127 127
0.661559 -0.512369 -0.426651 153 0 76
0.391068 0.246354 -0.411967 127 0 127
0.661559 -0.538527 -0.085688 153 0 76
0.555350 -0.380309 0.344107 0 127 127
0.157265 0.635184 0.452512 76 0 153
0.319773 0.681913 -0.421066 153 76 0
0.062086 -0.116566 0.397913 76 0 153
-0.448996 -0.571404 -0.438041 204 51 127
0.383034 -0.116638 0.452512 76 0 153
-0.616958 -0.004181 -0.062474 0 255 0
-0.616958 -0.507509 -0.127678 0 0 255
-0.447676 0.570200 0.452512 76 153 0
-0.504392 -0.211784 0.425212 76 153 0
-0.281207 -0.380309 -0.144615 0 127 127
0.097122 -0.172627 -0.411967 127 0 127
-0.547989 -0.530377 0.311465 255 0 0
0.647910 0.634724 0.144489 127 127 0
-0.581263 0.657065 -0.401605 127 127 0
0.245179 -0.353009 0.425157 76 0 153
-0.388237 -0.327225 -0.421066 127 0 127
-0.630608 0.464983 0.226309 0 255 0
0.161263 -0.380309 0.090771 0 127 127
-0.316324 -0.543010 0.297815 255 0 0
0.200759 0.293686 -0.421066 127 0 127
-0.630608 0.309283 -0.085660 0 255 0
0.387067 -0.380309 0.042738 0 127 127
0.207960 -0.209470 0.452512 76 0 153
-0.630608 0.314561 0.162043 0 255 0
0.291195 -0.252480 0.425212 76 0 153
-0.192420 -0.386182 -0.448366 204 51 127
0.265207 -0.155051 -0.411967 127 0 127
-0.121044 0.663678 -0.448366 153 76 0
-0.328348 -0.362109 -0.292655 0 127 127
0.070023 -0.089197 0.425212 76 0 153
-0.166546 -0.380309 0.314906 0 127 127
-0.461381 -0.362109 -0.301739 0 127 127
-0.323235 0.653708 0.397913 153 0 76
-0.616958 0.240450 0.160767 0 255 0
0.647910 0.663657 -0.273956 127 127 0
-0.479954 0.333620 -0.421066 127 0 127
-0.616958 0.375439 -0.152512 0 255 0
0.647910 -0.269557 0.009743 127 127 0
0.433186 -0.158733 0.425212 76 0 153
-0.239886 -0.434802 -0.448366 204 51 127
0.434177 0.272696 0.425212 76 0 153
-0.621820 -0.007149 0.425212 153 0 76
-0.630608 0.132052 0.222335 0 255 0
0.325115 0.176403 -0.421066 127 0 127
0.599308 0.003611 0.452512 76 0 153
-0.616958 0.577216 0.250541 0 255 0
0.102844 0.587327 -0.421066 127 0 127
-0.498634 0.610635 -0.421066 127 0 127
-0.406088 0.109331 -0.421066 127 0 127
-0.616958 0.195319 -0.026640 0 255 0
-0.616958 0.416377 -0.334221 0 255 0
0.414391 0.648813 -0.448366 153 76 0
0.541338 -0.421093 0.311465 255 0 0
-0.441135 0.058884 -0.421066 127 0 127
0.657010 0.269883 0.441008 76 0 153
0.647910 -0.141301 -0.403365 127 127 0
0.645465 -0.362109 0.290574 0 127 127
0.576281 -0.192044 0.452512 76 0 153
-0.567563 -0.362109 -0.076949 0 127 127
0.647910 0.079086 0.178057 127 127 0
0.647910 0.201373 0.082015 127 127 0
-0.259289 0.684364 -0.429677 153 76 0
0.647910 -0.512927 -0.346495 153 0 76
0.095185 -0.131650 -0.421066 127 0 127
-0.143287 -0.316905 0.452512 76 153 0
0.349073 -0.240506 0.452512 76 0 153
0.647910 0.492614 -0.401328 127 127 0
0.017192 -0.057623 -0.421066 127 0 127
-0.616958 -0.167363 0.077223 0 255 0
0.647910 0.457621 0.259496 127 127 0
-0.630608 -0.163768 -0.354885 0 255 0
-0.370164 -0.017688 0.452512 76 153 0
-0.234101 -0.362109 -0.296810 0 127 127
-0.445226 0.241627 -0.411967 127 0 127
0.519687 0.394516 -0.411967 127 0 127
-0.594018 0.657065 -0.364979 127 127 0
0.647910 -0.404078 -0.289279 127 127 0
-0.630608 0.126149 -0.424255 0 255 0
0.476297 -0.362109 0.308084 0 127 127
0.121565 0.230858 -0.421066 127 0 127
-0.071078 -0.030635 0.452512 76 153 0
0.097063 0.563752 0.425212 76 0 153
0.285459 -0.307460 -0.421066 127 0 127
-0.499201 -0.286327 -0.421066 76 0 153
0.647910 0.444749 -0.069378 127 127 0
0.279617 0.673859 -0.448366 153 76 0
0.661559 -0.098920 -0.393273 127 127 0
-0.000294 -0.362109 0.104848 0 127 127
0.223189 -0.380309 0.233411 0 127 127
0.207123 -0.101904 -0.411967 127 0 127
-0.616958 0.569762 -0.148650 0 255 0
-0.630608 0.641810 0.173783 0 255 0
0.661559 0.374011 -0.266255 127 127 0
-0.561886 -0.390678 0.397913 76 0 153
0.637138 0.177310 -0.411967 127 0 127
0.647910 0.458280 -0.414968 127 127 0
-0.630608 -0.039097 0.022301 0 255 0
0.098188 -0.380309 -0.296640 0 127 127
0.362556 -0.083537 -0.411967 127 0 127
0.661559 0.237575 0.073796 127 127 0
-0.627486 -0.571404 0.158367 0 0 255
-0.209489 -0.190138 -0.421066 127 0 127
0.647910 0.201776 0.011679 127 127 0
0.202557 -0.320402 0.425212 76 0 153
0.105791 -0.380309 0.091517 0 127 127
-0.037632 -0.388241 -0.448366 204 51 127
-0.498103 -0.380309 -0.224117 0 127 127
0.631991 0.657065 0.383377 76 153 0
0.647910 0.641597 -0.361181 0 127 127
-0.585109 0.012744 0.402067 153 0 76
-0.626100 0.676474 0.425212 153 0 76
0.656256 0.684364 0.305671 127 127 0
0.484682 0.684364 0.409474 153 0 76
-0.275792 -0.362109 -0.018633 0 127 127
-0.365804 -0.362109 -0.058026 0 127 127
0.096368 0.065278 -0.421066 127 0 127
-0.012111 0.575167 -0.427592 153 76 0
-0.616958 -0.124580 0.036306 0 255 0
-0.549377 0.139088 -0.411967 127 0 127
-0.386011 -0.359320 -0.448366 204 51 127
0.647910 0.163937 -0.395957 127 127 0
-0.009655 -0.362109 0.328941 0 127 127
0.217411 0.473145 0.452512 76 0 153
0.647910 0.358024 -0.333797 127 127 0
-0.436437 -0.362109 0.328586 0 127 127
0.626079 -0.385227 0.311465 255 0 0
0.661559 -0.098772 -0.432958 127 127 0
-0.133707 -0.458689 -0.448366 204 51 127
-0.592384 0.071550 0.425212 76 153 0
-0.162988 0.644960 -0.421066 153 76 0
-0.354081 0.449842 -0.411967 127 0 127
0.040546 0.426747 0.452512 76 0 153
0.111616 -0.507293 0.297815 255 0 0
0.549498 -0.362109 -0.185536 0 127 127
0.527015 -0.380309 -0.176555 0 127 127
0.661559 0.552058 -0.042496 127 127 0
0.661559 -0.006217 0.358130 153 0 76
0.413228 0.530930 -0.411967 127 0 127
0.661559 -0.313097 -0.125858 127 127 0
0.606914 0.654550 -0.352865 0 127 127
0.221466 0.342056 0.452512 76 0 153
-0.021314 0.001338 0.452512 76 153 0
0.161306 -0.448818 -0.448366 204 51 127
-0.616958 0.268728 -0.085654 0 255 0
0.209404 -0.362109 -0.046941 0 127 127
0.490106 0.487026 0.425212 76 0 153
0.288059 -0.073829 0.425212 76 0 153
0.006763 -0.254649 -0.411967 127 0 127
0.142112 -0.380309 -0.229600 0 127 127
0.128966 -0.380309 0.020336 0 127 127
-0.323890 -0.380309 0.153790 0 127 127
0.661559 0.121924 0.307119 127 127 0
0.478628 -0.440607 -0.421066 204 51 127
0.058283 -0.444613 -0.421066 204 51 127
-0.467534 0.442631 -0.421066 127 0 127
0.107784 0.491106 0.452512 76 0 153
0.484482 0.666582 -0.421066 153 76 0
-0.033886 -0.020378 0.452512 76 153 0
0.073787 0.282848 -0.411967 127 0 127
-0.616958 0.440695 0.245510 0 255 0
0.246081 -0.272238 0.452512 76 0 153
0.626728 -0.380309 -0.105192 0 127 127
-0.506101 -0.207515 -0.411967 127 0 127
-0.568721 0.509097 0.425212 76 153 0
0.658008 0.684364 0.005760 127 127 0
-0.513582 0.250177 0.425212 76 153 0
-0.630608 -0.315054 -0.113566 0 255 0
0.124629 -0.380309 0.073344 0 127 127
-0.616958 0.293053 -0.368154 0 255 0
-0.622396 -0.316109 0.425212 153 0 76
-0.197386 -0.486595 0.297815 255 0 0
-0.233540 -0.120011 -0.421066 127 0 127
-0.419811 -0.000682 0.452512 76 153 0
-0.630608 -0.518552 0.033028 0 0 255
-0.115890 -0.362109 -0.350557 0 127 127
-0.616958 0.290659 -0.139269 0 255 0
-0.155558 0.263354 -0.421066 127 0 127
-0.449938 -0.322101 -0.421066 76 0 153
-0.077818 -0.043529 0.425212 76 153 0
0.359687 0.106654 0.425212 76 0 153
-0.630608 0.501908 0.162138 0 255 0
-0.616958 0.631089 0.339108 76 0 153
0.661559 -0.278753 0.345662 153 0 76
0.495894 -0.362109 -0.190341 0 127 127
-0.588949 -0.380309 -0.127009 0 127 127
0.647910 0.284866 0.121098 127 127 0
0.569047 -0.362109 -0.382008 0 127 127
-0.499806 -0.362109 -0.096532 0 127 127
-0.024763 -0.380309 0.141725 0 127 127
0.632023 -0.362109 -0.343567 0 127 127
-0.418144 -0.362109 0.104737 0 127 127
0.005953 -0.362109 0.026958 0 127 127
-0.630608 -0.138034 -0.099524 0 255 0
-0.630608 0.032700 0.229624 0 255 0
0.389887 -0.450653 0.311465 255 0 0
-0.639708 0.489639 0.423547 153 0 76
-0.113358 -0.362109 0.261721 0 127 127
0.566762 -0.156739 -0.411967 127 0 127
-0.467970 -0.072280 0.452512 76 153 0
0.154615 0.211962 -0.421066 127 0 127
-0.630608 0.580209 -0.380695 0 255 0
0.299117 -0.198037 0.425212 76 0 153
0.025772 -0.362109 0.215989 0 127 127
-0.630608 0.508358 0.035229 0 255 0
0.196919 -0.362109 0.105446 0 127 127
-0.616958 -0.434930 -0.357697 0 0 255
0.070074 -0.255003 0.411580 76 0 153
-0.630608 0.207499 0.357238 76 0 153
0.079809 0.480509 0.452512 76 0 153
0.132312 -0.563676 -0.448366 204 51 127
0.446908 0.511567 -0.411967 127 0 127
0.627215 0.223133 0.452512 76 0 153
-0.616958 -0.346980 0.358243 76 0 153
-0.585109 -0.305070 0.418579 153 0 76
-0.092606 -0.571259 0.311465 255 0 0
0.631857 -0.362109 0.078910 0 127 127
-0.626058 0.492706 0.451479 76 153 0
-0.324422 -0.380309 0.185065 0 127 127
0.647910 -0.147155 -0.016327 127 127 0
-0.057484 -0.130397 0.425212 76 153 0
-0.616958 0.170824 -0.103606 0 255 0
0.661559 -0.011814 0.139480 127 127 0
-0.616958 0.190747 -0.427751 0 255 0
-0.630608 -0.535240 0.198156 0 0 255
0.201295 -0.362109 -0.372709 0 127 127
0.647910 -0.218566 0.030915 127 127 0
0.647910 -0.156281 -0.103908 127 127 0
-0.453265 -0.429866 -0.421066 204 51 127
0.647910 0.016107 0.053982 127 127 0
-0.027492 -0.221842 -0.411967 127 0 127
-0.630608 0.070841 -0.177069 0 255 0
-0.069744 -0.081407 -0.421066 127 0 127
-0.630608 0.058962 0.106443 0 255 0
0.049326 -0.362109 -0.284910 0 127 127
0.406109 -0.380309 0.220440 0 127 127
0.031525 0.595884 0.397913 76 0 153
0.310834 -0.534392 0.297815 255 0 0
0.043346 -0.380309 0.324852 0 127 127
-0.616958 -0.027606 -0.150610 0 255 0
0.661559 -0.341372 -0.344262 127 127 0
0.115764 -0.362109 0.060016 0 127 127
0.492433 -0.380309 -0.331720 0 127 127
-0.616958 -0.450479 0.288083 0 0 255
0.647910 0.436005 -0.228133 127 127 0
0.661559 0.119066 -0.179059 127 127 0
-0.616958 -0.414435 0.147824 0 0 255
0.029126 0.557626 0.437885 76 0 153
-0.088237 0.026569 0.452512 76 153 0
0.583208 -0.510574 -0.448366 204 51 127
0.256714 -0.380309 -0.280397 0 127 127
-0.240145 0.304143 -0.421066 127 0 127
-0.047871 -0.066899 0.452512 76 153 0
0.264503 -0.112470 -0.411967 127 0 127
-0.365837 -0.504817 0.311465 255 0 0
0.272975 -0.362109 -0.258804 0 127 127
-0.332277 -0.380309 -0.249288 0 127 127
0.087566 0.276103 0.425212 76 0 153
0.661559 0.576918 -0.042187 127 127 0
0.172582 -0.423044 0.311465 255 0 0
-0.630608 -0.268528 -0.410168 0 255 0
0.088525 0.011595 -0.411967 127 0 127
-0.616958 0.461138 -0.305998 0 255 0
-0.247657 0.281161 0.452512 76 153 0
0.659185 0.171826 -0.448366 127 127 0
-0.194883 -0.213160 -0.411967 127 0 127
-0.406912 -0.380309 -0.153066 0 127 127
0.546001 -0.380309 -0.314362 0 127 127
0.647910 0.619624 -0.126027 127 127 0
0.622856 0.154404 -0.421066 127 0 127
-0.630608 -0.289461 -0.431411 0 255 0
0.481907 0.273138 0.425212 76 0 153
0.661559 0.672502 0.240276 127 127 0
-0.216108 0.205899 -0.421066 127 0 127
0.661559 -0.488817 0.262427 153 0 76
0.347290 0.579737 0.425212 76 0 153
0.556464 -0.380309 -0.395148 0 127 127
0.647910 0.594265 -0.181004 127 127 0
0.590180 0.638866 0.397333 76 153 0
-0.630608 -0.489548 -0.355788 0 0 255
0.576711 0.163183 0.425212 76 0 153
-0.291486 -0.047043 0.452512 76 153 0
0.647910 -0.493729 0.151560 153 0 76
0.395020 -0.362109 -0.242643 0 127 127
0.097641 -0.380071 0.397913 0 127 127
0.661559 -0.282243 0.129681 127 127 0
0.647910 -0.260949 -0.332738 127 127 0
-0.237969 0.601453 -0.421066 127 0 127
0.368075 0.362298 -0.411967 127 0 127
-0.477789 -0.290223 -0.411967 127 0 127
-0.546559 -0.362109 -0.120019 0 127 127
0.025510 -0.362109 -0.328917 0 127 127
0.301187 -0.380309 0.184946 0 127 127
0.500116 0.597351 -0.448366 153 76 0
-0.586402 -0.270070 0.425212 153 0 76
0.400869 0.102503 -0.411967 127 0 127
-0.616958 0.681965 0.031931 0 255 0
-0.630608 -0.529150 -0.219255 0 0 255
0.506927 0.374088 -0.411967 127 0 127
0.661559 -0.497220 -0.353484 153 0 76
-0.515296 0.226966 -0.421066 127 0 127
0.016391 0.008658 0.425212 76 0 153
0.389950 0.085551 0.425212 76 0 153
-0.630608 0.147884 -0.437117 0 255 0
0.151050 0.408556 -0.421066 127 0 127
-0.616958 -0.180987 0.227528 0 255 0
-0.016949 -0.217771 0.425212 76 153 0
-0.616958 -0.321282 0.220624 0 255 0
0.001826 0.199702 0.445563 76 153 0
-0.497530 0.632565 0.452512 76 153 0
-0.422100 -0.362109 0.230621 0 127 127
-0.179933 -0.034326 0.452512 76 153 0
-0.010014 0.665012 -0.448366 153 76 0
-0.616958 0.592999 0.180121 0 255 0
0.647910 0.284560 0.238735 127 127 0
0.399287 -0.380309 -0.253904 0 127 127
0.661559 -0.272874 0.259313 127 127 0
-0.590887 -0.105189 0.397913 153 0 76
0.647910 0.011575 0.302592 127 127 0
0.647910 -0.478353 0.074139 153 0 76
-0.616958 -0.478306 0.066869 0 0 255
0.003322 0.164258 0.397913 76 0 153
0.323642 -0.362109 -0.407627 0 127 127
0.458199 -0.380309 -0.117380 0 127 127
0.562948 -0.380309 -0.350168 0 127 127
0.661559 -0.116830 0.293146 127 127 0
0.140986 0.433409 0.452512 76 0 153
0.661559 -0.366126 0.103031 127 127 0
0.647910 -0.311642 -0.090219 127 127 0
0.647910 0.384680 -0.086468 127 127 0
0.382840 -0.380309 -0.168041 0 127 127
0.202898 0.229089 0.452512 76 0 153
0.527755 0.464199 -0.421066 127 0 127
-0.630608 0.474231 0.391731 76 0 153
-0.500148 -0.362109 0.117878 0 127 127
0.139645 -0.386727 0.397913 76 0 153
0.647910 -0.127555 -0.145805 127 127 0
0.350924 -0.280621 -0.421066 127 0 127
0.661559 -0.231508 -0.057871 127 127 0
0.647910 0.573360 -0.010821 127 127 0
0.574529 -0.380309 0.050250 0 127 127
0.515095 -0.362109 -0.309212 0 127 127
0.160363 0.292780 -0.411967 127 0 127
0.383705 -0.407608 0.404320 76 0 153
0.661559 -0.136966 0.350292 153 0 76
0.647910 -0.197995 0.017583 127 127 0
-0.508758 -0.380309 0.100287 0 127 127
0.661559 -0.170678 -0.393888 127 127 0
0.524090 -0.380309 -0.207601 0 127 127
0.647910 0.491888 0.305374 127 127 0
0.466352 -0.563765 -0.421066 204 51 127
-0.616958 -0.058912 0.377476 76 0 153
-0.624050 0.684364 0.128139 0 255 0
-0.571297 -0.215222 0.425212 76 153 0
0.020324 -0.362109 0.068495 0 127 127
-0.239469 0.584894 0.425212 76 153 0
-0.616958 -0.377085 -0.215875 0 127 127
0.417611 0.196707 -0.421066 127 0 127
0.372026 0.499616 0.452512 76 0 153
0.647910 0.494599 -0.217370 127 127 0
-0.497940 0.258559 -0.411967 127 0 127
-0.433370 0.491098 0.425212 76 153 0
0.661559 0.221091 0.120861 127 127 0
-0.164139 0.563552 0.452512 76 153 0
0.647910 -0.265501 -0.206019 127 127 0
0.607930 -0.362109 -0.043509 0 127 127
-0.616958 0.057847 -0.133519 0 255 0
0.647910 -0.447858 -0.373518 153 0 76
0.655207 0.684364 0.266400 127 127 0
0.461456 -0.030881 0.452512 76 0 153
-0.300742 -0.362109 -0.255348 0 127 127
0.321416 0.277688 -0.411967 127 0 127
0.137835 -0.518327 -0.421066 204 51 127
-0.358702 0.229029 0.452512 76 153 0
0.374062 -0.525567 -0.448366 204 51 127
0.141563 0.553544 0.425212 76 0 153
-0.274409 -0.362109 0.079725 0 127 127
-0.148582 -0.380309 -0.314524 0 127 127
0.525377 0.020457 0.425212 76 0 153
-0.192952 0.030201 0.425212 76 153 0
0.584116 0.234549 -0.411967 127 0 127
0.167861 -0.380309 0.310638 255 0 0
-0.630608 0.269833 -0.333792 0 255 0
-0.616958 0.570872 -0.428823 0 255 0
0.246747 -0.362109 -0.309436 0 127 127
0.400349 0.079078 -0.411967 127 0 127
0.475375 0.599597 0.452512 76 0 153
-0.616958 -0.481794 -0.218568 0 0 255
0.466241 -0.103317 -0.411967 127 0 127
0.507984 -0.380309 0.009176 0 127 127
-0.039123 -0.225793 0.425158 76 0 153
-0.302875 -0.312623 0.452512 76 153 0
0.374929 -0.344720 -0.411967 127 0 127
0.661559 -0.021465 0.242915 127 127 0
0.337073 0.425231 -0.421066 127 0 127
-0.085441 -0.380309 0.039930 0 127 127
0.184458 -0.362109 0.306856 0 127 127
-0.160673 -0.362109 0.192812 0 127 127
-0.043894 -0.362109 -0.372533 0 127 127
-0.630608 0.655584 -0.327466 0 255 0
-0.500166 -0.481234 -0.421066 204 51 127
0.077136 0.648855 -0.448366 153 76 0
0.050332 -0.362109 -0.216627 0 127 127
-0.630608 -0.147287 0.277636 0 255 0
-0.606249 0.053005 -0.411967 127 0 127
-0.616958 0.157918 -0.360900 0 255 0
0.480475 -0.357559 -0.426172 204 51 127
0.661559 0.459913 -0.363238 127 127 0
0.131281 -0.362109 -0.308692 0 127 127
-0.107536 0.345234 -0.421066 127 0 127
0.647910 0.297012 -0.246154 127 127 0
0.214040 0.383493 -0.411967 127 0 127
0.608965 0.097143 0.452512 76 0 153
0.032976 -0.362109 -0.163348 0 127 127
-0.490811 -0.362109 -0.238006 0 127 127
0.584760 0.539537 -0.421066 127 0 127
0.053893 -0.380309 0.232443 0 127 127
-0.160824 -0.380309 0.109132 0 127 127
0.127883 -0.238470 -0.421066 127 0 127
0.202787 -0.390821 -0.448366 204 51 127
0.661559 0.380451 -0.340778 127 127 0
0.554358 0.331628 -0.411967 127 0 127
-0.630608 -0.546311 -0.151430 0 0 255
-0.595914 -0.362109 0.016286 0 127 127
0.647910 -0.269007 -0.019962 127 127 0
-0.386672 -0.085610 -0.421066 127 0 127
0.228349 -0.362109 0.021433 0 127 127
-0.621586 -0.525505 0.311465 0 0 255
-0.242580 -0.380309 0.304721 255 0 0
-0.630608 -0.332841 -0.362107 0 255 0
-0.324101 -0.521783 0.297815 255 0 0
-0.241783 -0.362109 -0.220829 0 127 127
-0.062738 0.089425 0.425212 76 153 0
-0.511100 0.442806 -0.421066 127 0 127
0.001826 0.480723 0.445735 76 153 0
0.236358 -0.380309 0.302201 0 127 127
-0.261791 -0.189340 -0.421066 127 0 127
0.083555 -0.380309 0.277973 0 127 127
0.249057 -0.380309 -0.381007 0 127 127
0.408952 -0.380309 -0.377135 0 127 127
-0.026403 0.633587 0.397913 153 0 76
-0.446896 -0.216216 0.452512 76 153 0
0.184661 0.516642 -0.421066 127 0 127
0.661559 -0.395770 -0.346831 127 127 0
0.180339 0.628395 0.452512 76 0 153
0.273664 0.069190 -0.411967 127 0 127
0.241366 -0.362109 0.384694 0 127 127
-0.405155 -0.380309 -0.361086 0 127 127
-0.630608 -0.210937 -0.431834 0 255 0
0.281228 0.393389 0.425212 76 0 153
-0.402204 -0.162169 0.452512 76 153 0
0.661559 -0.099563 0.089737 127 127 0
-0.237940 0.485174 -0.411967 127 0 127
-0.161250 0.099041 -0.411967 127 0 127
0.421029 -0.029707 0.425212 76 0 153
0.378669 -0.362109 0.001991 0 127 127
-0.544452 0.245357 -0.421066 127 0 127
-0.616958 0.489000 -0.037720 0 255 0
0.577929 -0.362109 -0.025709 0 127 127
-0.616958 0.432452 -0.189085 0 255 0
0.599982 -0.246572 -0.411967 127 0 127
-0.141551 -0.362109 0.183971 0 127 127
0.014160 0.650916 0.425212 153 0 76
0.661559 -0.250437 -0.378746 127 127 0
-0.628435 0.684364 -0.231566 0 255 0
0.205872 -0.362109 -0.280102 0 127 127
-0.616958 -0.133649 0.173530 0 255 0
0.299836 -0.384140 -0.421066 204 51 127
-0.269289 0.042594 0.425212 76 153 0
0.611934 0.661319 -0.448366 153 76 0
0.647910 0.114573 -0.273022 127 127 0
-0.616958 -0.361844 0.143487 0 255 0
-0.630608 0.128716 0.124668 0 255 0
-0.616958 -0.037170 -0.085754 0 255 0
-0.623320 -0.407608 0.035296 0 0 255
0.647910 -0.189112 0.319113 153 0 76
0.141550 -0.362109 -0.017259 0 127 127
0.604194 -0.023602 -0.421066 127 0 127
0.040942 -0.098070 0.425212 76 0 153
-0.630608 -0.407716 0.212452 0 0 255
0.037884 0.606384 -0.421066 127 0 127
0.425904 -0.380309 -0.141392 0 127 127
0.242113 -0.427517 0.311465 255 0 0
0.287940 -0.362109 0.057303 0 127 127
0.211172 -0.021783 -0.421066 127 0 127
0.661559 -0.023004 0.007146 127 127 0
-0.439322 -0.140915 0.452512 76 153 0
-0.056813 0.629764 0.425212 76 153 0
0.352653 0.638730 0.425212 76 0 153
0.647910 0.615906 0.325668 153 0 76
-0.014183 0.252572 -0.421066 127 0 127
-0.199302 -0.362109 -0.133172 0 127 127
0.170957 -0.099823 0.425212 76 0 153
-0.306033 -0.129433 0.425212 76 153 0
0.234672 0.330883 -0.411967 127 0 127
0.647910 -0.028974 -0.080603 127 127 0
0.491225 -0.362109 -0.080310 0 127 127
-0.616958 -0.112285 0.233236 0 255 0
0.368880 -0.571404 -0.426555 204 51 127
-0.630608 -0.221805 0.134336 0 255 0
-0.348321 -0.333450 -0.421066 127 0 127
-0.557607 0.297816 0.425212 76 153 0
-0.300304 0.647310 0.425212 76 153 0
-0.002077 -0.362109 -0.393585 0 127 127
-0.321716 0.084152 -0.421066 127 0 127
0.646666 0.113948 0.397913 76 153 0
0.647910 -0.213404 -0.383229 127 127 0
0.498910 -0.362109 0.216756 0 127 127
0.228000 0.474053 -0.421066 127 0 127
0.661559 -0.394864 0.271432 127 127 0
-0.630608 -0.419470 0.293929 0 0 255
0.262455 -0.263180 0.425212 76 0 153
0.332320 0.283222 0.452512 76 0 153
0.356296 0.017510 0.425212 76 0 153
-0.401266 -0.528761 0.297815 255 0 0
0.661559 0.665732 -0.027195 127 127 0
-0.639708 0.274115 0.416225 153 0 76
0.272466 -0.488903 -0.448366 204 51 127
-0.630608 0.445753 -0.339987 0 255 0
-0.513278 0.146182 0.452512 76 153 0
0.421205 -0.249518 0.425212 76 0 153
0.647910 0.211396 -0.442518 127 127 0
-0.630608 -0.464576 0.158270 0 0 255
0.627283 0.216942 0.425212 76 0 153
0.661559 0.377262 -0.162098 127 127 0
0.661559 -0.016151 -0.166563 127 127 0
0.359447 -0.362109 -0.073211 0 127 127
0.661559 0.167069 -0.093135 127 127 0
-0.616958 -0.340734 -0.082308 0 255 0
0.171773 0.241543 -0.411967 127 0 127
0.647910 0.451624 0.327986 153 0 76
0.661559 0.020017 -0.147622 127 127 0
-0.616958 -0.017588 -0.231701 0 255 0
-0.504751 -0.353009 0.420746 76 0 153
-0.630608 0.606777 -0.045310 0 255 0
-0.041080 0.358469 0.425212 76 153 0
-0.630608 0.118777 0.179176 0 255 0
0.645456 -0.380309 -0.053478 0 127 127
-0.493402 -0.494568 0.297815 255 0 0
-0.194082 -0.141077 -0.411967 127 0 127
-0.296764 0.132309 -0.421066 127 0 127
0.171376 0.132079 -0.421066 127 0 127
-0.412282 -0.450582 -0.448366 204 51 127
-0.500563 -0.380309 -0.267319 0 127 127
-0.616958 -0.444234 -0.245867 0 0 255
-0.514907 -0.001454 -0.411967 127 0 127
0.505490 -0.288486 0.452512 76 0 153
-0.103374 -0.060888 0.452512 76 153 0
0.128412 -0.102136 -0.421066 127 0 127
0.370272 -0.380309 -0.387120 0 127 127
-0.440103 -0.098898 0.452512 76 153 0
0.531813 -0.179760 0.452512 76 0 153
0.262206 -0.380309 0.371683 0 127 127
-0.203736 -0.366826 0.397913 76 0 153
0.661559 0.301013 0.297005 127 127 0
0.630713 -0.082534 -0.411967 127 0 127
-0.630608 0.152579 0.156872 0 255 0
0.353490 0.257368 -0.421066 127 0 127
0.066832 0.349707 0.397913 76 0 153
0.440850 0.095878 -0.411967 127 0 127
0.530238 -0.362109 -0.108969 0 127 127
-0.488607 0.302370 0.425212 76 153 0
0.640686 0.062140 0.425212 76 0 153
-0.027151 0.470897 -0.411967 127 0 127
-0.330654 -0.362109 0.078810 0 127 127
-0.616958 -0.450294 0.112581 0 0 255
0.651828 0.150670 0.452512 76 0 153
0.661559 0.183950 -0.178043 127 127 0
0.647910 0.207775 0.296456 127 127 0
-0.616958 -0.077543 0.301298 0 255 0
0.432654 -0.380309 0.147172 0 127 127
0.530842 -0.380309 0.080145 0 127 127
0.110114 0.399228 -0.421066 127 0 127
0.647910 0.117749 -0.415924 127 127 0
-0.621223 -0.041091 0.452512 76 153 0
0.315540 -0.362109 0.381847 0 127 127
-0.616958 0.329014 -0.440492 0 255 0
-0.206553 -0.362109 0.326840 0 127 127
-0.532561 -0.380309 0.235878 0 127 127
-0.164733 -0.362109 -0.327488 0 127 127
-0.616958 0.015331 0.215128 0 255 0
-0.072654 -0.380309 -0.189339 0 127 127
0.644503 -0.380309 0.115219 0 127 127
0.350579 -0.362109 0.213220 0 127 127
0.010452 -0.380309 -0.347466 0 127 127
0.600130 -0.362109 0.255763 0 127 127
-0.630608 0.187204 -0.040066 0 255 0
0.134765 -0.362109 0.295503 0 127 127
0.661559 -0.373468 -0.374388 127 127 0
-0.616958 0.530874 -0.426403 0 255 0
-0.616958 -0.347440 -0.378424 0 255 0
0.506008 -0.514723 0.311465 255 0 0
-0.260704 -0.380309 -0.301707 0 127 127
0.002393 -0.116152 -0.421066 127 0 127
0.661559 0.385464 0.203911 127 127 0
-0.380923 0.210821 0.452512 76 153 0
-0.468127 0.432956 0.425212 76 153 0
-0.476476 -0.550251 -0.421066 204 51 127
0.661559 -0.006962 -0.352015 127 127 0
0.661559 -0.528213 -0.193266 153 0 76
-0.015413 -0.551691 0.297815 255 0 0
0.647910 -0.215404 -0.430696 127 127 0
-0.616958 -0.261985 -0.330611 0 255 0
-0.028468 0.530064 0.452512 76 153 0
0.647910 -0.375223 0.348083 153 0 76
0.030489 -0.380309 0.013155 0 127 127
-0.449743 -0.362109 -0.410213 0 127 127
-0.171509 0.471658 -0.421066 127 0 127
0.588420 0.268485 0.452512 76 0 153
0.612953 -0.222277 0.425212 76 0 153
-0.490496 -0.228546 -0.411967 127 0 127
-0.572244 0.487439 -0.421066 127 0 127
0.612889 -0.540336 0.311465 255 0 0
-0.630608 0.516932 0.072326 0 255 0
0.362343 0.112591 -0.421066 127 0 127
-0.630608 0.288011 0.272825 0 255 0
0.064017 -0.273371 0.425212 76 0 153
0.441166 -0.068247 0.452512 76 0 153
0.434800 -0.380309 0.380357 0 127 127
0.396617 0.649813 0.452512 76 0 153
-0.630608 0.334513 -0.383497 0 255 0
-0.500364 0.524512 0.425212 76 153 0
0.661559 -0.135962 -0.196733 127 127 0
-0.356427 -0.247872 -0.411967 127 0 127
-0.616958 0.574378 0.189257 0 255 0
-0.531236 -0.047413 0.452512 76 153 0
0.536317 0.090590 0.452512 76 0 153
-0.039123 0.274509 0.412691 76 0 153
-0.157067 -0.124951 0.425212 76 153 0
-0.592849 -0.285756 -0.411967 127 0 127
0.042488 -0.380309 -0.122432 0 127 127
0.039155 -0.380309 -0.042932 0 127 127
0.155786 -0.487653 -0.448366 204 51 127
0.585516 -0.380309 0.002815 0 127 127
-0.532627 -0.380309 0.110712 0 127 127
0.617060 -0.349577 0.397913 76 153 0
-0.630608 -0.463759 -0.380378 0 0 255
0.065802 -0.362109 0.183463 0 127 127
-0.385536 -0.462208 0.311465 255 0 0
-0.616958 0.668185 0.350935 76 0 153
0.622786 -0.285289 0.397913 76 153 0
0.157919 -0.362109 0.235278 0 127 127
-0.616958 -0.209115 0.304049 0 255 0
-0.630608 0.329199 0.359226 76 0 153
0.393563 -0.362109 0.327846 0 127 127
-0.337004 -0.362109 0.051900 0 127 127
0.647910 0.306917 -0.303498 127 127 0
0.358874 -0.362109 0.013016 0 127 127
-0.546782 -0.120224 -0.411967 127 0 127
0.413102 -0.381314 0.311465 255 0 0
-0.204149 -0.380309 0.267103 0 127 127
-0.003844 -0.153400 0.425212 76 153 0
-0.173401 -0.362109 -0.140320 0 127 127
0.647910 0.426219 -0.424243 127 127 0
0.128042 -0.362109 -0.114082 0 127 127
0.647910 0.591821 0.190224 127 127 0
-0.567944 -0.328466 0.425212 76 153 0
-0.350937 -0.192263 0.425212 76 153 0
-0.129765 -0.371892 -0.421066 127 0 127
-0.108483 -0.362109 -0.033363 0 127 127
-0.630608 0.143828 0.338772 76 0 153
0.372598 0.333361 0.425212 76 0 153
0.061153 0.078448 -0.421066 127 0 127
0.036916 -0.034726 0.397913 76 0 153
0.620309 -0.041664 0.425212 76 0 153
-0.053234 -0.435543 -0.421066 204 51 127
-0.078019 0.176956 0.452512 76 153 0
0.661559 -0.539289 -0.315706 153 0 76
0.296934 0.182378 0.452512 76 0 153
0.647910 0.038382 -0.387467 127 127 0
0.575400 -0.482465 -0.448366 204 51 127
-0.507075 -0.362109 0.027510 0 127 127
0.339329 -0.408808 0.311465 255 0 0
-0.630608 0.112217 0.310317 0 255 0
-0.288310 -0.380309 0.330969 0 127 127
0.647910 0.184362 -0.239611 127 127 0
-0.630608 -0.421794 -0.095458 0 0 255
-0.103766 -0.510840 0.297815 255 0 0
0.661559 0.397946 0.128944 127 127 0
-0.616958 0.121475 0.394485 76 0 153
0.647910 -0.532431 -0.404152 153 0 76
-0.616958 0.476071 -0.365703 0 255 0
0.249905 -0.362109 -0.164129 0 127 127
0.134806 0.655767 0.397913 153 0 76
0.661559 -0.365698 -0.272393 127 127 0
-0.597162 -0.362109 -0.288466 0 127 127
-0.122737 -0.028918 0.452512 76 153 0
-0.630608 0.492037 0.233093 0 255 0
0.018643 0.039853 -0.421066 127 0 127
0.263548 -0.506603 -0.421066 204 51 127
0.142405 -0.362109 0.327761 0 127 127
0.280482 -0.362109 -0.105890 0 127 127
0.613627 -0.380309 -0.391666 0 127 127
-0.630608 0.333033 -0.191404 0 255 0
-0.510395 0.254782 0.452512 76 153 0
0.158558 -0.379685 -0.421066 204 51 127
-0.454782 -0.492243 -0.448366 204 51 127
0.252739 0.120972 -0.421066 127 0 127
0.468369 -0.362109 -0.390576 0 127 127
-0.137134 0.371067 -0.411967 127 0 127
-0.630608 -0.222615 0.314648 76 0 153
-0.630608 0.098256 0.000312 0 255 0
0.647910 0.030185 0.167042 127 127 0
-0.242819 0.560397 -0.411967 127 0 127
0.098316 0.105581 -0.411967 127 0 127
0.126442 -0.362109 -0.400733 0 127 127
0.661559 -0.356418 0.018590 127 127 0
-0.364112 0.670715 0.427422 76 153 0
0.661559 -0.196134 0.096628 127 127 0
-0.177756 -0.555717 0.297815 255 0 0
-0.245005 0.459664 -0.421066 127 0 127
0.414602 -0.287855 0.425212 76 0 153
-0.577776 0.649043 0.425212 153 0 76
0.171299 -0.073963 -0.421066 127 0 127
-0.405041 0.500883 0.425212 76 153 0
-0.630608 -0.466067 -0.010777 0 0 255
-0.347750 0.564976 0.452512 76 153 0
0.328724 0.442234 0.452512 76 0 153
0.267644 0.620754 0.425212 76 0 153
-0.616958 -0.532035 0.066199 0 0 255
-0.571033 0.218182 0.452512 76 153 0
0.541893 -0.362109 -0.015541 0 127 127
-0.630608 -0.108378 0.271855 0 255 0
-0.091210 -0.362109 -0.054796 0 127 127
0.661559 0.116363 -0.133723 127 127 0
-0.630608 -0.242717 -0.039956 0 255 0
-0.161149 -0.441558 0.297815 255 0 0
-0.246646 -0.380309 0.056880 0 127 127
0.647910 -0.206221 -0.324307 127 127 0
0.647910 -0.450465 -0.258918 153 0 76
-0.296990 -0.227184 -0.411967 127 0 127
-0.616958 -0.195567 -0.213959 0 255 0
-0.517982 0.624900 -0.421066 127 0 127
-0.551349 -0.548472 -0.421066 204 51 127
-0.032501 -0.532436 0.297815 255 0 0
-0.616958 -0.329051 0.255400 0 255 0
0.460513 -0.036381 0.425212 76 0 153
0.661559 -0.564876 0.242688 153 0 76
-0.616958 0.286100 -0.111496 0 255 0
-0.438586 0.134568 -0.411967 127 0 127
-0.616958 -0.388085 0.149317 0 255 0
-0.616958 0.412656 -0.379236 0 255 0
-0.630608 -0.410904 -0.237154 0 0 255
-0.616958 0.039874 -0.026188 0 255 0
-0.630608 0.523468 0.049504 0 255 0
-0.449313 -0.514058 0.297815 255 0 0
0.647910 0.677131 -0.102791 127 127 0
0.440058 0.682372 0.425212 153 0 76
0.206678 -0.557826 -0.448366 204 51 127
-0.075748 -0.166376 0.425212 76 153 0
-0.616958 0.243297 -0.315268 0 255 0
-0.578791 0.114409 0.425212 76 153 0
0.661559 0.445373 0.060049 127 127 0
-0.630608 0.642145 -0.116116 0 255 0
0.647910 0.251996 -0.313818 127 127 0
-0.217719 -0.277900 -0.421066 127 0 127
-0.436666 0.297176 0.425212 76 153 0
-0.296125 -0.419429 0.297815 255 0 0
0.258889 -0.362109 0.286438 0 127 127
-0.254272 -0.380309 -0.237484 0 127 127
-0.630608 0.116634 -0.293666 0 255 0
-0.579042 -0.380309 -0.155784 0 127 127
0.661559 0.518010 0.284457 127 127 0
-0.630608 0.134504 -0.352296 0 255 0
-0.315462 -0.016187 0.452512 76 153 0
-0.183011 -0.362109 0.222528 0 127 127
0.205241 0.097152 0.452512 76 0 153
0.486543 0.434467 0.425212 76 0 153
-0.616958 0.601465 0.049751 0 255 0
0.647910 0.232359 0.109100 127 127 0
0.670659 0.241322 0.424025 76 153 0
-0.324785 -0.380309 -0.167677 0 127 127
-0.583918 -0.362109 -0.009710 0 127 127
-0.110875 -0.229296 -0.411967 127 0 127
0.120375 0.475407 -0.411967 127 0 127
0.343691 -0.362109 -0.273572 0 127 127
-0.611597 0.638866 0.317527 127 0 127
-0.630608 -0.546404 -0.391547 0 0 255
-0.630608 0.343877 -0.430173 0 255 0
-0.085997 0.233427 -0.421066 127 0 127
-0.616958 0.628125 0.118477 0 255 0
-0.442025 -0.362109 -0.210358 0 127 127
0.354773 -0.380309 -0.140019 0 127 127
-0.400816 -0.380309 -0.003368 0 127 127
-0.342811 0.259440 -0.411967 127 0 127
0.661559 -0.383086 -0.330699 127 127 0
0.204201 0.540369 -0.411967 127 0 127
-0.630608 0.135697 0.252993 0 255 0
0.655615 -0.144335 0.425212 76 153 0
0.647910 0.590666 -0.048933 127 127 0
0.652173 0.387284 0.452512 76 0 153
0.062654 -0.388404 0.425212 76 0 153
0.271875 0.648511 -0.421066 153 76 0
-0.016613 -0.515267 -0.448366 204 51 127
0.446619 0.351710 0.452512 76 0 153
0.642332 0.021987 0.452512 76 0 153
0.499891 -0.199505 0.425212 76 0 153
-0.110982 -0.362109 0.099373 0 127 127
0.051869 0.160699 0.452512 76 0 153
0.647910 0.000107 -0.272262 127 127 0
-0.630608 -0.471904 -0.030921 0 0 255
-0.033450 -0.292147 -0.411967 127 0 127
0.531695 0.645049 0.452512 76 0 153
-0.554602 0.185620 0.425212 76 153 0
-0.572899 -0.380309 0.252425 0 127 127
-0.178671 -0.035542 0.425212 76 153 0
0.197830 0.188482 -0.421066 127 0 127
-0.616958 0.375545 0.175730 0 255 0
0.213227 -0.019589 0.452512 76 0 153
0.251416 -0.380309 0.267766 0 127 127
-0.616958 0.323463 0.094395 0 255 0
-0.630608 0.076002 0.248638 0 255 0
-0.268308 -0.380309 -0.334178 0 127 127
-0.062982 0.608951 -0.411967 127 0 127
-0.311787 -0.132693 -0.421066 127 0 127
-0.444233 0.391013 -0.421066 127 0 127
0.636408 0.040185 0.397913 76 153 0
-0.585109 -0.400823 0.420029 153 0 76
0.319747 -0.571404 0.302936 255 0 0
0.176979 -0.362109 0.095526 0 127 127
-0.630608 0.003682 0.180986 0 255 0
-0.630608 0.445019 -0.445343 0 255 0
-0.259683 0.013529 0.425212 76 153 0
-0.490222 -0.360757 0.397913 76 0 153
0.394641 -0.362109 -0.054188 0 127 127
-0.394356 -0.380309 -0.051306 0 127 127
0.295859 0.616819 -0.411967 127 0 127
0.575724 -0.362109 0.039084 0 127 127
0.513719 -0.214303 -0.411967 127 0 127
0.465207 0.332463 -0.411967 127 0 127
-0.220813 0.290249 -0.421066 127 0 127
0.348958 -0.384652 0.452512 76 0 153
0.661559 -0.121639 -0.125381 127 127 0
