0.272984 -0.339251 0.307268 0.500000 0.000000 0.500000
0.178528 0.029772 0.283150 0.500000 0.000000 0.500000
-0.802735 0.163414 0.027921 0.000000 1.000000 0.000000
0.411716 -0.012548 -0.153677 0.600000 0.000000 0.300000
0.156061 -0.012548 0.229343 0.600000 0.000000 0.300000
0.059089 -0.237957 0.307268 0.500000 0.000000 0.500000
0.358582 -0.425406 0.319328 0.500000 0.000000 0.500000
-0.751788 -0.509193 0.283150 0.600000 0.000000 0.300000
-0.133521 0.511095 -0.295696 0.300000 0.600000 0.000000
-0.207860 -0.012548 -0.208568 0.600000 0.000000 0.300000
0.080894 0.418571 0.295574 0.500000 0.000000 0.500000
-0.333203 -0.081689 0.283150 0.300000 0.000000 0.600000
-0.546288 -0.146145 0.283150 0.300000 0.000000 0.600000
0.764971 -0.036822 0.114644 1.000000 0.000000 0.000000
0.040455 0.495247 0.319328 0.500000 0.000000 0.500000
0.263994 0.023630 0.067143 0.600000 0.000000 0.300000
-0.100435 -0.561245 -0.278661 0.000000 0.500000 0.500000
0.318560 -0.165521 0.283150 0.500000 0.000000 0.500000
-0.751749 0.529119 0.283150 0.600000 0.000000 0.300000
-0.167665 0.524090 0.009596 0.000000 0.000000 1.000000
0.221217 -0.513008 -0.005252 0.800000 0.200000 0.500000
0.173365 0.315383 -0.271577 0.600000 0.000000 0.300000
0.698603 -0.012548 -0.054791 0.600000 0.000000 0.300000
0.740853 -0.358752 -0.027085 1.000000 0.000000 0.000000
-0.334271 -0.012548 0.192604 0.600000 0.000000 0.300000
-0.802735 0.344425 -0.236255 0.000000 1.000000 0.000000
-0.742439 0.172754 0.249091 0.600000 0.000000 0.300000
0.349753 -0.366218 -0.271577 0.600000 0.000000 0.300000
0.057382 0.281159 -0.271577 0.600000 0.000000 0.300000
-0.175240 0.524090 0.105039 0.000000 0.000000 1.000000
-0.237005 -0.036084 0.246972 0.300000 0.000000 0.600000
-0.073772 -0.321338 -0.271577 0.600000 0.000000 0.300000
0.240334 0.017359 -0.271577 0.600000 0.000000 0.300000
-0.239188 0.462148 -0.253488 0.600000 0.000000 0.300000
-0.802735 0.486952 0.015179 0.000000 1.000000 0.000000
-0.219101 -0.372104 0.246972 0.300000 0.000000 0.600000
-0.504342 0.023630 0.085371 0.600000 0.000000 0.300000
0.777031 0.022783 0.247562 0.300000 0.000000 0.600000
0.710441 0.524090 0.162949 0.000000 0.000000 1.000000
0.476951 0.524090 0.231694 0.000000 0.000000 1.000000
-0.802735 0.398151 -0.132452 0.000000 1.000000 0.000000
-0.034135 0.524090 0.198324 0.000000 0.000000 1.000000
0.763450 -0.561245 -0.053922 1.000000 0.000000 0.000000
0.546954 -0.012548 0.191197 0.600000 0.000000 0.300000
0.740853 -0.371844 0.207199 1.000000 0.000000 0.000000
-0.778617 0.370821 -0.014841 0.000000 1.000000 0.000000
0.441811 -0.178049 0.307268 0.500000 0.000000 0.500000
-0.142715 0.176865 -0.271577 0.600000 0.000000 0.300000
-0.285223 -0.513008 -0.128347 0.800000 0.200000 0.500000
-0.626346 -0.540130 -0.271577 0.000000 0.500000 0.500000
-0.362165 -0.012548 0.017642 0.600000 0.000000 0.300000
-0.064763 -0.012548 0.224946 0.600000 0.000000 0.300000
-0.099496 0.524090 0.105798 0.000000 0.000000 1.000000
-0.802735 0.429064 -0.032269 0.000000 1.000000 0.000000
0.332224 0.553125 0.319328 0.500000 0.000000 0.500000
-0.802735 -0.046131 0.218320 0.000000 1.000000 0.000000
-0.163593 -0.392649 0.275560 0.300000 0.000000 0.600000
-0.152343 0.437259 0.319328 0.500000 0.000000 0.500000
-0.736347 0.548209 0.070032 0.000000 0.000000 1.000000
-0.190635 -0.537127 0.058288 0.800000 0.200000 0.500000
0.111783 -0.561245 0.257464 0.500000 0.000000 0.500000
-0.784083 0.088967 -0.295696 0.000000 1.000000 0.000000
0.581341 -0.537127 0.176916 0.800000 0.200000 0.500000
-0.158031 -0.379837 -0.271577 0.600000 0.000000 0.300000
-0.222361 0.023630 -0.131676 0.600000 0.000000 0.300000
0.130482 0.499971 0.269769 0.500000 0.500000 0.000000
0.676248 0.023630 -0.232811 0.600000 0.000000 0.300000
-0.802735 -0.243452 0.220817 0.000000 1.000000 0.000000
-0.236914 -0.537127 -0.261729 0.800000 0.200000 0.500000
-0.675162 0.571627 -0.295696 0.300000 0.600000 0.000000
0.666352 0.447412 -0.271577 0.600000 0.000000 0.300000
0.100614 0.023630 -0.020356 0.600000 0.000000 0.300000
-0.196535 0.522945 -0.295696 0.300000 0.600000 0.000000
0.261570 -0.496088 0.246972 0.500000 0.000000 0.500000
0.643535 -0.402948 0.319328 0.500000 0.000000 0.500000
0.139247 0.448113 -0.253488 0.600000 0.000000 0.300000
0.370443 -0.032681 -0.295696 0.600000 0.000000 0.300000
-0.602654 0.548209 0.204263 0.000000 0.000000 1.000000
-0.342126 0.524090 -0.030837 0.000000 0.000000 1.000000
-0.367349 -0.513008 -0.167813 0.800000 0.200000 0.500000
-0.457290 -0.513008 0.042152 0.800000 0.200000 0.500000
-0.284019 0.023630 -0.069292 0.600000 0.000000 0.300000
0.709801 -0.537127 -0.156306 0.800000 0.200000 0.500000
0.698632 -0.288547 0.319328 0.500000 0.000000 0.500000
0.277598 0.240176 0.307268 0.500000 0.000000 0.500000
-0.492519 0.023630 -0.215826 0.600000 0.000000 0.300000
0.403845 0.369924 0.307268 0.500000 0.000000 0.500000
-0.163330 -0.012548 -0.004427 0.600000 0.000000 0.300000
-0.302905 -0.245331 0.283150 0.300000 0.000000 0.600000
-0.501598 0.548209 -0.083424 0.000000 0.000000 1.000000
-0.671461 -0.513008 0.170802 0.800000 0.200000 0.500000
0.089078 -0.369187 0.307268 0.500000 0.000000 0.500000
0.072831 0.572104 0.246972 0.500000 0.500000 0.000000
-0.460445 -0.070871 0.246972 0.300000 0.000000 0.600000
0.582585 -0.228716 0.283150 0.500000 0.000000 0.500000
0.767986 -0.157092 0.294610 0.500000 0.000000 0.500000
-0.778617 -0.195935 0.030875 0.000000 1.000000 0.000000
0.227515 -0.012548 0.178058 0.600000 0.000000 0.300000
-0.285642 0.220391 0.246972 0.300000 0.000000 0.600000
0.235706 -0.254529 0.307268 0.500000 0.000000 0.500000
-0.437824 -0.481102 -0.253488 0.600000 0.000000 0.300000
-0.528708 0.332673 -0.271577 0.600000 0.000000 0.300000
-0.629365 -0.430156 -0.295696 0.000000 0.500000 0.500000
-0.152157 -0.552201 0.316549 0.500000 0.000000 0.500000
0.055832 0.023630 0.068625 0.600000 0.000000 0.300000
0.704216 0.137958 0.319328 0.500000 0.000000 0.500000
0.624593 0.023630 0.136409 0.600000 0.000000 0.300000
-0.540404 -0.488699 -0.253488 0.600000 0.000000 0.300000
-0.017236 0.503648 -0.295696 0.300000 0.600000 0.000000
0.236933 0.572327 0.256499 0.500000 0.500000 0.000000
0.403453 -0.537127 -0.154202 0.800000 0.200000 0.500000
0.435774 0.031530 -0.295696 0.600000 0.000000 0.300000
-0.571074 -0.513008 -0.172795 0.800000 0.200000 0.500000
-0.558754 0.555814 0.246972 0.500000 0.500000 0.000000
0.059349 0.023630 0.244291 0.600000 0.000000 0.300000
0.454212 -0.420212 -0.295696 0.000000 0.500000 0.500000
0.306050 0.026114 -0.295696 0.600000 0.000000 0.300000
-0.802735 -0.301640 -0.214372 0.000000 1.000000 0.000000
0.588495 0.023630 0.041233 0.600000 0.000000 0.300000
0.580432 0.572327 -0.272096 0.300000 0.600000 0.000000
-0.802735 -0.247336 -0.121736 0.000000 1.000000 0.000000
0.150025 -0.282206 -0.253488 0.600000 0.000000 0.300000
-0.802735 -0.492818 -0.272416 0.000000 1.000000 0.000000
-0.141717 -0.012548 0.183483 0.600000 0.000000 0.300000
-0.611798 0.548209 0.054226 0.000000 0.000000 1.000000
0.466315 -0.232728 -0.253488 0.600000 0.000000 0.300000
-0.149055 0.501495 0.246972 0.500000 0.500000 0.000000
-0.016691 0.367727 -0.271577 0.600000 0.000000 0.300000
0.764971 0.285846 0.158116 1.000000 0.000000 0.000000
-0.801892 0.349554 0.283150 0.600000 0.000000 0.300000
-0.540523 0.444635 -0.295696 0.300000 0.600000 0.000000
0.764971 0.029092 -0.292438 1.000000 0.000000 0.000000
-0.778617 0.362876 0.218908 0.000000 1.000000 0.000000
-0.625768 -0.513008 0.018972 0.800000 0.200000 0.500000
0.060164 -0.537127 0.210790 0.800000 0.200000 0.500000
-0.118441 -0.458656 -0.253488 0.600000 0.000000 0.300000
-0.734564 -0.513008 -0.011524 0.800000 0.200000 0.500000
0.718748 -0.449723 -0.253488 0.600000 0.000000 0.300000
-0.759268 -0.031660 -0.271577 0.600000 0.000000 0.300000
-0.241603 -0.155504 0.246972 0.300000 0.000000 0.600000
0.090338 0.023630 -0.230446 0.600000 0.000000 0.300000
-0.802735 -0.330160 -0.010117 0.000000 1.000000 0.000000
0.333505 0.353545 0.283150 0.500000 0.000000 0.500000
-0.167038 0.120869 0.246972 0.300000 0.000000 0.600000
0.287342 -0.449349 0.319328 0.500000 0.000000 0.500000
0.082136 -0.265352 -0.253488 0.600000 0.000000 0.300000
-0.751014 -0.290937 -0.271577 0.600000 0.300000 0.000000
-0.156980 -0.537127 -0.083587 0.800000 0.200000 0.500000
0.226531 -0.391126 -0.271577 0.600000 0.000000 0.300000
-0.059936 0.016583 -0.253488 0.600000 0.000000 0.300000
-0.073406 -0.561245 0.259840 0.500000 0.000000 0.500000
0.532536 0.023630 -0.147168 0.600000 0.000000 0.300000
-0.371037 0.023630 -0.074429 0.600000 0.000000 0.300000
-0.271934 -0.012548 -0.130391 0.600000 0.000000 0.300000
0.197780 -0.513008 -0.063550 0.800000 0.200000 0.500000
-0.498099 0.548209 -0.173660 0.000000 0.000000 1.000000
-0.451255 0.023630 0.189612 0.600000 0.000000 0.300000
0.777031 0.312632 0.249835 0.300000 0.000000 0.600000
-0.425555 0.548209 0.095424 0.000000 0.000000 1.000000
-0.066067 0.341109 0.307268 0.500000 0.000000 0.500000
0.740853 0.057605 -0.222132 1.000000 0.000000 0.000000
-0.452333 -0.178613 -0.253488 0.600000 0.000000 0.300000
-0.737279 0.499317 -0.295696 0.300000 0.600000 0.000000
-0.545476 0.243053 0.246972 0.300000 0.000000 0.600000
0.497205 0.098458 0.283150 0.500000 0.000000 0.500000
-0.438519 0.524090 0.007447 0.000000 0.000000 1.000000
0.298133 -0.226773 0.307268 0.500000 0.000000 0.500000
0.216945 0.083423 -0.253488 0.600000 0.000000 0.300000
-0.802735 -0.450979 -0.216033 0.000000 1.000000 0.000000
-0.238854 0.115856 0.283150 0.300000 0.000000 0.600000
-0.654896 -0.327483 -0.271577 0.600000 0.000000 0.300000
-0.679532 0.548209 -0.016936 0.000000 0.000000 1.000000
0.572525 -0.282723 -0.271577 0.600000 0.000000 0.300000
0.285162 0.353618 -0.271577 0.600000 0.000000 0.300000
0.522895 -0.517153 -0.295696 0.000000 0.500000 0.500000
0.717740 0.432413 0.246972 0.300000 0.000000 0.600000
0.021901 -0.031692 0.283150 0.500000 0.000000 0.500000
-0.086018 -0.537127 -0.144640 0.800000 0.200000 0.500000
0.238025 0.572327 -0.288972 0.300000 0.600000 0.000000
-0.778617 -0.451745 -0.105919 0.000000 1.000000 0.000000
0.545928 0.548209 0.076917 0.000000 0.000000 1.000000
-0.485493 0.184498 -0.253488 0.600000 0.000000 0.300000
-0.552483 -0.537127 0.056078 0.800000 0.200000 0.500000
0.764971 -0.306322 -0.076157 1.000000 0.000000 0.000000
-0.802735 0.051345 -0.182490 0.000000 1.000000 0.000000
-0.086219 0.023630 0.063568 0.600000 0.000000 0.300000
0.630581 0.428902 0.283150 0.500000 0.000000 0.500000
-0.267753 -0.330015 -0.271577 0.600000 0.000000 0.300000
0.475129 -0.513008 0.040752 0.800000 0.200000 0.500000
0.032710 0.149515 0.307268 0.500000 0.000000 0.500000
-0.170966 -0.495654 -0.253488 0.600000 0.000000 0.300000
0.443075 -0.513008 -0.069207 0.800000 0.200000 0.500000
0.149260 -0.163614 -0.253488 0.600000 0.000000 0.300000
0.634835 -0.537127 -0.161734 0.800000 0.200000 0.500000
0.547889 -0.012548 -0.053585 0.600000 0.000000 0.300000
0.584177 0.011834 -0.295696 0.600000 0.000000 0.300000
-0.163593 -0.185679 0.262566 0.300000 0.000000 0.600000
0.617968 -0.012548 -0.080321 0.600000 0.000000 0.300000
0.637306 -0.033985 0.283150 0.500000 0.000000 0.500000
0.324522 0.484481 -0.271577 0.600000 0.000000 0.300000
0.616919 0.524090 -0.051250 0.000000 0.000000 1.000000
0.031487 -0.514513 0.283150 0.500000 0.000000 0.500000
0.265549 0.548209 -0.203137 0.000000 0.000000 1.000000
0.452019 -0.351689 -0.253488 0.600000 0.000000 0.300000
-0.753264 -0.012548 0.199517 0.600000 0.000000 0.300000
-0.400374 -0.513008 0.238949 0.800000 0.200000 0.500000
-0.648574 -0.513008 -0.145158 0.800000 0.200000 0.500000
-0.802735 0.059177 0.103780 0.000000 1.000000 0.000000
0.713274 -0.076135 -0.253488 0.600000 0.000000 0.300000
0.682697 -0.229598 0.319328 0.500000 0.000000 0.500000
-0.544727 0.366432 0.283150 0.300000 0.000000 0.600000
-0.575595 0.023630 -0.162388 0.600000 0.000000 0.300000
-0.044542 0.184572 0.283150 0.500000 0.000000 0.500000
0.669720 0.023630 0.052391 0.600000 0.000000 0.300000
0.379572 0.556932 0.246972 0.500000 0.500000 0.000000
-0.082193 -0.435094 0.305610 0.500000 0.000000 0.500000
-0.384706 0.427167 -0.253488 0.600000 0.000000 0.300000
0.119959 -0.398562 -0.253488 0.600000 0.000000 0.300000
-0.390418 -0.407532 -0.253488 0.600000 0.000000 0.300000
-0.346316 -0.176970 0.246972 0.300000 0.000000 0.600000
0.332420 0.073615 -0.271577 0.600000 0.000000 0.300000
0.164943 -0.467286 -0.253488 0.600000 0.000000 0.300000
0.492251 0.208952 0.283150 0.500000 0.000000 0.500000
0.278301 -0.012548 -0.057465 0.600000 0.000000 0.300000
-0.778617 -0.446301 0.002924 0.000000 1.000000 0.000000
-0.802735 0.130046 -0.192806 0.000000 1.000000 0.000000
0.471741 -0.374232 0.283150 0.500000 0.000000 0.500000
-0.492261 -0.383987 0.246972 0.300000 0.000000 0.600000
-0.591947 0.363451 -0.271577 0.600000 0.000000 0.300000
-0.425004 -0.375425 0.246972 0.300000 0.000000 0.600000
-0.202846 -0.277080 -0.253488 0.600000 0.000000 0.300000
-0.802735 0.514685 -0.152700 0.000000 1.000000 0.000000
-0.810279 0.462601 0.283150 0.600000 0.000000 0.300000
-0.082981 0.524090 -0.258726 0.000000 0.000000 1.000000
-0.213669 0.235081 0.319328 0.500000 0.000000 0.500000
-0.802735 0.223891 0.141434 0.000000 1.000000 0.000000
0.616234 -0.561245 0.257927 0.500000 0.000000 0.500000
-0.459123 0.390524 0.283150 0.300000 0.000000 0.600000
0.570673 -0.513008 -0.260545 0.800000 0.200000 0.500000
0.244057 -0.513008 -0.248278 0.800000 0.200000 0.500000
-0.746637 0.548209 -0.054610 0.000000 0.000000 1.000000
-0.778617 -0.079674 -0.235161 0.000000 1.000000 0.000000
-0.333103 -0.180435 -0.253488 0.600000 0.000000 0.300000
0.693020 -0.134378 0.319328 0.500000 0.000000 0.500000
0.720553 0.524090 0.237312 0.000000 0.000000 1.000000
0.740853 0.148573 -0.030956 1.000000 0.000000 0.000000
-0.281284 0.524090 0.067539 0.000000 0.000000 1.000000
0.438296 0.524090 0.105303 0.000000 0.000000 1.000000
0.606748 0.023630 -0.153889 0.600000 0.000000 0.300000
-0.019327 0.085231 -0.271577 0.600000 0.000000 0.300000
0.307041 0.524090 0.067265 0.000000 0.000000 1.000000
0.394817 -0.513008 0.158552 0.800000 0.200000 0.500000
0.001639 -0.513008 0.035394 0.800000 0.200000 0.500000
0.764971 -0.216431 -0.245358 1.000000 0.000000 0.000000
-0.565174 0.003340 -0.295696 0.600000 0.000000 0.300000
-0.802735 0.534950 0.129608 0.000000 1.000000 0.000000
0.108582 -0.012548 0.079151 0.600000 0.000000 0.300000
0.035145 0.524090 -0.201422 0.000000 0.000000 1.000000
0.740853 0.437689 -0.087963 1.000000 0.000000 0.000000
0.316866 -0.012548 -0.189525 0.600000 0.000000 0.300000
-0.778617 0.328174 -0.095504 0.000000 1.000000 0.000000
-0.525791 -0.094730 -0.253488 0.600000 0.000000 0.300000
-0.105634 0.524090 -0.109901 0.000000 0.000000 1.000000
-0.797697 0.572327 0.230832 0.000000 1.000000 0.000000
0.230025 -0.537127 -0.166715 0.800000 0.200000 0.500000
-0.066134 0.567266 0.283150 0.500000 0.500000 0.000000
0.245522 -0.130832 0.283150 0.500000 0.000000 0.500000
0.546566 0.524090 -0.235656 0.000000 0.000000 1.000000
-0.022334 -0.167797 0.283150 0.500000 0.000000 0.500000
-0.564520 0.077139 -0.271577 0.600000 0.000000 0.300000
-0.333999 0.416939 0.246972 0.300000 0.000000 0.600000
-0.237661 0.031540 0.283150 0.300000 0.000000 0.600000
-0.173612 0.315470 -0.271577 0.600000 0.000000 0.300000
0.163747 -0.561245 -0.279934 0.000000 0.500000 0.500000
-0.778617 -0.430820 0.107671 0.000000 1.000000 0.000000
-0.778617 0.284082 0.229308 0.000000 1.000000 0.000000
-0.279046 0.242271 -0.253488 0.600000 0.000000 0.300000
-0.802735 0.511087 -0.090715 0.000000 1.000000 0.000000
0.240973 0.023630 -0.134663 0.600000 0.000000 0.300000
-0.024580 -0.513008 0.246711 0.800000 0.200000 0.500000
0.398913 0.444412 0.319328 0.500000 0.000000 0.500000
0.684579 0.524090 -0.127422 0.000000 0.000000 1.000000
-0.802735 -0.149884 0.141766 0.000000 1.000000 0.000000
0.657465 0.192019 0.283150 0.500000 0.000000 0.500000
-0.571500 -0.425284 -0.295696 0.000000 0.500000 0.500000
-0.670186 0.512692 -0.253488 0.600000 0.000000 0.300000
0.029475 -0.012548 -0.108132 0.600000 0.000000 0.300000
-0.489343 -0.561174 -0.295696 0.000000 0.500000 0.500000
-0.743413 -0.533484 -0.295696 0.000000 0.500000 0.500000
0.343210 -0.513008 -0.133975 0.800000 0.200000 0.500000
-0.547798 -0.537127 0.190169 0.800000 0.200000 0.500000
0.072285 -0.513008 0.101625 0.800000 0.200000 0.500000
0.307140 -0.537127 0.074807 0.800000 0.200000 0.500000
0.764971 -0.025147 -0.010680 1.000000 0.000000 0.000000
-0.068627 0.023630 -0.070141 0.600000 0.000000 0.300000
-0.395192 0.119493 0.283150 0.300000 0.000000 0.600000
0.366264 -0.012548 -0.067414 0.600000 0.000000 0.300000
-0.423024 -0.125194 0.283150 0.300000 0.000000 0.600000
0.764971 0.515208 0.180107 1.000000 0.000000 0.000000
0.539467 -0.155634 -0.253488 0.600000 0.000000 0.300000
-0.564816 -0.537127 -0.065345 0.800000 0.200000 0.500000
0.282670 0.141586 -0.271577 0.600000 0.000000 0.300000
0.186542 -0.537127 0.097999 0.800000 0.200000 0.500000
-0.628383 -0.241006 -0.271577 0.600000 0.000000 0.300000
-0.470837 -0.395452 -0.271577 0.600000 0.300000 0.000000
0.598640 0.357263 0.307268 0.500000 0.000000 0.500000
-0.479760 -0.537127 0.235553 0.800000 0.200000 0.500000
0.764971 0.176104 0.139428 1.000000 0.000000 0.000000
0.500979 -0.175875 0.307268 0.500000 0.000000 0.500000
0.326691 -0.537127 -0.043019 0.800000 0.200000 0.500000
0.231088 -0.215942 -0.253488 0.600000 0.000000 0.300000
-0.481836 0.047183 0.246972 0.300000 0.000000 0.600000
-0.644802 0.306590 -0.253488 0.600000 0.000000 0.300000
0.706674 -0.468299 0.319328 0.500000 0.000000 0.500000
-0.778617 0.020765 0.032194 0.000000 1.000000 0.000000
-0.635198 0.086144 -0.253488 0.600000 0.000000 0.300000
0.623275 0.278741 0.316009 0.500000 0.000000 0.500000
0.445136 -0.012548 0.145452 0.600000 0.000000 0.300000
-0.189526 0.524090 0.192702 0.000000 0.000000 1.000000
0.740853 0.249260 -0.076599 1.000000 0.000000 0.000000
-0.436946 -0.318152 -0.253488 0.600000 0.000000 0.300000
0.477447 0.377042 -0.271577 0.600000 0.000000 0.300000
0.764971 -0.431754 -0.117741 1.000000 0.000000 0.000000
-0.778617 -0.234577 0.163881 0.000000 1.000000 0.000000
0.762704 0.450276 -0.295696 1.000000 0.000000 0.000000
-0.024975 0.390161 0.307268 0.500000 0.000000 0.500000
0.227390 0.483953 0.319328 0.500000 0.000000 0.500000
0.623275 0.100946 0.313976 0.500000 0.000000 0.500000
0.740853 -0.167811 0.129455 1.000000 0.000000 0.000000
0.522002 -0.111077 0.307268 0.500000 0.000000 0.500000
-0.287809 0.544515 -0.271577 0.300000 0.600000 0.000000
0.764971 -0.260192 0.036742 1.000000 0.000000 0.000000
-0.022880 -0.104455 0.283150 0.500000 0.000000 0.500000
-0.403164 0.158344 -0.271577 0.600000 0.000000 0.300000
0.764971 -0.393126 0.096117 1.000000 0.000000 0.000000
-0.294119 0.023630 0.018635 0.600000 0.000000 0.300000
-0.512065 0.524090 0.122006 0.000000 0.000000 1.000000
-0.475891 0.548209 0.235349 0.000000 0.000000 1.000000
0.444359 0.023630 -0.183288 0.600000 0.000000 0.300000
-0.464910 -0.283105 0.246972 0.300000 0.000000 0.600000
-0.172382 -0.075541 0.319328 0.500000 0.000000 0.500000
0.036716 0.321832 0.307268 0.500000 0.000000 0.500000
-0.447567 -0.513008 -0.069251 0.800000 0.200000 0.500000
-0.339581 -0.012548 0.130817 0.600000 0.000000 0.300000
0.154895 -0.537127 -0.165277 0.800000 0.200000 0.500000
-0.781107 -0.561245 -0.019302 0.000000 1.000000 0.000000
0.566528 0.468645 0.283150 0.500000 0.000000 0.500000
0.021426 0.023630 0.118104 0.600000 0.000000 0.300000
-0.802735 -0.134969 -0.040032 0.000000 1.000000 0.000000
0.129482 0.302085 0.283150 0.500000 0.000000 0.500000
-0.072498 -0.064975 -0.295696 0.600000 0.000000 0.300000
-0.374505 0.023630 -0.155393 0.600000 0.000000 0.300000
-0.027062 -0.204856 -0.253488 0.600000 0.000000 0.300000
0.526548 0.524090 0.186884 0.000000 0.000000 1.000000
-0.261875 -0.012548 0.181912 0.600000 0.000000 0.300000
0.645685 -0.137723 -0.253488 0.600000 0.000000 0.300000
0.703115 -0.024252 -0.295696 0.600000 0.000000 0.300000
-0.778617 -0.138054 0.229779 0.000000 1.000000 0.000000
0.531201 -0.537127 0.120696 0.800000 0.200000 0.500000
0.764971 -0.162873 0.191182 1.000000 0.000000 0.000000
-0.661184 -0.552184 0.283150 0.500000 0.000000 0.500000
0.476764 0.563283 0.310800 0.500000 0.000000 0.500000
-0.301271 -0.443103 -0.271577 0.000000 0.500000 0.500000
-0.190090 0.014728 0.246972 0.600000 0.000000 0.300000
-0.462236 0.257427 0.246972 0.300000 0.000000 0.600000
-0.165114 0.385522 0.246972 0.300000 0.000000 0.600000
-0.762460 -0.134838 -0.253488 0.600000 0.000000 0.300000
-0.778617 -0.337032 0.220367 0.000000 1.000000 0.000000
-0.805553 0.134683 0.246972 0.600000 0.000000 0.300000
0.777031 -0.254595 0.262978 0.300000 0.000000 0.600000
-0.157366 -0.012548 -0.233939 0.600000 0.000000 0.300000
0.714905 0.023630 0.166158 0.600000 0.000000 0.300000
-0.566559 -0.537127 -0.226771 0.800000 0.200000 0.500000
-0.046001 -0.559801 -0.295696 0.000000 0.500000 0.500000
0.764971 0.360371 0.164347 1.000000 0.000000 0.000000
0.183138 -0.021018 0.307268 0.500000 0.000000 0.500000
-0.495610 0.337874 0.246972 0.300000 0.000000 0.600000
0.506732 0.023630 -0.013440 0.600000 0.000000 0.300000
0.451615 0.405209 0.307268 0.500000 0.000000 0.500000
-0.446221 -0.066815 -0.279890 0.600000 0.000000 0.300000
-0.163593 0.288926 0.255747 0.300000 0.000000 0.600000
0.764971 0.155611 0.205797 1.000000 0.000000 0.000000
-0.802735 -0.505028 -0.123621 0.000000 1.000000 0.000000
-0.778617 -0.267863 -0.066166 0.000000 1.000000 0.000000
-0.629843 -0.513008 0.126950 0.800000 0.200000 0.500000
0.336448 0.023630 0.040724 0.600000 0.000000 0.300000
0.777031 -0.465177 0.250623 0.300000 0.000000 0.600000
0.421661 -0.549262 0.283150 0.500000 0.000000 0.500000
-0.418158 0.524090 -0.172177 0.000000 0.000000 1.000000
0.018612 -0.395437 0.283150 0.500000 0.000000 0.500000
0.174825 -0.513008 0.048655 0.800000 0.200000 0.500000
0.421626 -0.105106 0.307268 0.500000 0.000000 0.500000
0.097230 0.548209 0.153798 0.000000 0.000000 1.000000
0.741428 -0.561245 0.073671 1.000000 0.000000 0.000000
-0.578110 -0.012548 0.195294 0.600000 0.000000 0.300000
0.727446 -0.012548 0.228662 0.600000 0.000000 0.300000
-0.458255 0.023630 0.043857 0.600000 0.000000 0.300000
0.063133 0.227333 0.307268 0.500000 0.000000 0.500000
0.192016 -0.004431 -0.253488 0.600000 0.000000 0.300000
-0.439208 0.326395 -0.253488 0.600000 0.000000 0.300000
-0.778617 -0.546298 -0.241417 0.000000 1.000000 0.000000
0.650251 0.503422 -0.295696 0.300000 0.600000 0.000000
-0.753612 -0.537127 -0.090933 0.800000 0.200000 0.500000
-0.576458 0.572327 -0.278091 0.300000 0.600000 0.000000
-0.211535 -0.513008 0.009686 0.800000 0.200000 0.500000
-0.412015 0.012458 0.246972 0.300000 0.000000 0.600000
0.715710 -0.345227 0.283150 0.500000 0.000000 0.500000
-0.252812 0.053982 -0.295696 0.600000 0.000000 0.300000
-0.203877 -0.537127 0.160641 0.800000 0.200000 0.500000
0.550781 0.428973 -0.253488 0.600000 0.000000 0.300000
-0.504150 0.524090 -0.241069 0.000000 0.000000 1.000000
0.654646 -0.513008 -0.234352 0.800000 0.200000 0.500000
-0.346596 -0.062668 -0.295696 0.600000 0.000000 0.300000
-0.054745 0.445176 -0.253488 0.600000 0.000000 0.300000
0.653753 0.524090 0.147758 0.000000 0.000000 1.000000
-0.529127 0.253570 -0.253488 0.600000 0.000000 0.300000
-0.346240 0.072385 -0.253488 0.600000 0.000000 0.300000
-0.419430 -0.437275 0.246972 0.300000 0.000000 0.600000
0.740853 0.288488 -0.233300 1.000000 0.000000 0.000000
-0.202666 -0.523419 0.246972 0.500000 0.000000 0.500000
0.462750 -0.508067 -0.295696 0.000000 0.500000 0.500000
-0.775483 -0.012548 -0.073879 0.600000 0.000000 0.300000
-0.269742 0.427616 -0.287709 0.300000 0.600000 0.000000
0.764971 0.062896 -0.031428 1.000000 0.000000 0.000000
-0.256107 0.572327 0.267465 0.500000 0.500000 0.000000
-0.443009 0.524090 -0.080951 0.000000 0.000000 1.000000
0.617876 -0.416534 -0.288157 0.000000 0.500000 0.500000
0.740853 -0.203253 -0.099022 1.000000 0.000000 0.000000
0.060260 0.062252 -0.295696 0.600000 0.000000 0.300000
-0.308497 0.481579 -0.253488 0.600000 0.000000 0.300000
0.452666 0.520556 0.283150 0.500000 0.000000 0.500000
0.152344 0.023630 -0.105164 0.600000 0.000000 0.300000
-0.370786 0.023630 -0.243254 0.600000 0.000000 0.300000
-0.655926 0.023630 -0.238961 0.600000 0.000000 0.300000
0.705418 0.548706 -0.295696 0.300000 0.600000 0.000000
-0.778617 -0.506408 0.165106 0.000000 1.000000 0.000000
-0.004432 -0.012548 0.007151 0.600000 0.000000 0.300000
0.731361 0.491307 0.283150 0.300000 0.000000 0.600000
-0.395935 -0.214447 -0.271577 0.600000 0.000000 0.300000
0.740853 0.235436 0.001161 1.000000 0.000000 0.000000
-0.366045 -0.045168 0.246972 0.300000 0.000000 0.600000
-0.535433 -0.454486 0.283150 0.300000 0.000000 0.600000
0.304885 0.023630 0.122491 0.600000 0.000000 0.300000
-0.213716 -0.474298 -0.295696 0.000000 0.500000 0.500000
0.740853 0.081326 0.057579 1.000000 0.000000 0.000000
0.712445 -0.513008 0.232804 0.800000 0.200000 0.500000
0.575572 0.526819 0.283150 0.500000 0.500000 0.000000
0.087451 -0.308618 0.307268 0.500000 0.000000 0.500000
-0.302586 -0.509157 -0.253488 0.600000 0.000000 0.300000
-0.778617 0.205506 -0.081533 0.000000 1.000000 0.000000
0.740853 -0.185189 -0.037295 1.000000 0.000000 0.000000
-0.481024 -0.005354 -0.295696 0.600000 0.000000 0.300000
0.454985 -0.513008 -0.185543 0.800000 0.200000 0.500000
0.619042 -0.488890 0.270205 0.500000 0.000000 0.500000
0.445023 -0.111974 -0.271577 0.600000 0.000000 0.300000
-0.211639 -0.303261 0.246972 0.300000 0.000000 0.600000
-0.365405 0.524090 0.103769 0.000000 0.000000 1.000000
0.764971 0.438619 -0.028713 1.000000 0.000000 0.000000
-0.344826 -0.297654 0.283150 0.300000 0.000000 0.600000
0.719559 0.023630 -0.019032 0.600000 0.000000 0.300000
-0.599375 -0.457206 -0.253488 0.600000 0.000000 0.300000
-0.007519 -0.012548 -0.066266 0.600000 0.000000 0.300000
-0.134777 -0.012548 0.043132 0.600000 0.000000 0.300000
-0.413765 -0.012548 -0.215053 0.600000 0.000000 0.300000
-0.302014 0.120401 -0.253488 0.600000 0.000000 0.300000
0.473064 0.005716 0.307268 0.500000 0.000000 0.500000
-0.107469 -0.244441 0.283150 0.500000 0.000000 0.500000
0.366342 -0.302929 0.283150 0.500000 0.000000 0.500000
-0.802735 0.300181 0.058218 0.000000 1.000000 0.000000
0.344542 -0.245661 -0.271577 0.600000 0.000000 0.300000
-0.667452 0.137257 -0.253488 0.600000 0.000000 0.300000
0.740853 -0.102915 -0.081930 1.000000 0.000000 0.000000
0.619576 -0.085861 0.283150 0.500000 0.000000 0.500000
0.392706 -0.468302 0.319328 0.500000 0.000000 0.500000
-0.599619 0.510154 -0.295696 0.300000 0.600000 0.000000
0.489764 0.548209 -0.143002 0.000000 0.000000 1.000000
-0.226905 -0.197027 0.306664 0.500000 0.000000 0.500000
-0.044887 -0.255760 0.307268 0.500000 0.000000 0.500000
0.546916 -0.513008 0.234320 0.800000 0.200000 0.500000
0.184930 0.513351 -0.271577 0.300000 0.600000 0.000000
0.020938 -0.537127 -0.154303 0.800000 0.200000 0.500000
0.078324 0.511080 0.283150 0.500000 0.000000 0.500000
0.620108 -0.334495 -0.271577 0.600000 0.000000 0.300000
-0.032420 0.484930 0.283150 0.500000 0.000000 0.500000
0.492921 0.540182 -0.295696 0.300000 0.600000 0.000000
0.398122 -0.340748 -0.271577 0.600000 0.000000 0.300000
-0.492233 -0.012548 0.193611 0.600000 0.000000 0.300000
0.386195 0.439510 -0.295696 0.300000 0.600000 0.000000
0.764971 0.355670 -0.018269 1.000000 0.000000 0.000000
-0.108548 0.079765 -0.253488 0.600000 0.000000 0.300000
0.503027 0.172239 -0.271577 0.600000 0.000000 0.300000
0.009543 -0.513008 0.109452 0.800000 0.200000 0.500000
-0.778617 0.499444 -0.246528 0.000000 1.000000 0.000000
0.223681 -0.012548 -0.001591 0.600000 0.000000 0.300000
-0.802735 0.070154 -0.036554 0.000000 1.000000 0.000000
-0.240427 -0.012548 0.127546 0.600000 0.000000 0.300000
-0.802735 -0.423220 -0.064323 0.000000 1.000000 0.000000
-0.384250 -0.513008 0.131590 0.800000 0.200000 0.500000
0.525735 0.083728 -0.271577 0.600000 0.000000 0.300000
-0.118170 0.023630 0.134825 0.600000 0.000000 0.300000
0.262912 -0.513008 0.122483 0.800000 0.200000 0.500000
0.106917 0.370671 -0.271577 0.600000 0.000000 0.300000
0.548159 -0.000555 -0.253488 0.600000 0.000000 0.300000
-0.802735 0.336557 0.134026 0.000000 1.000000 0.000000
0.012930 -0.012548 0.077842 0.600000 0.000000 0.300000
0.724010 -0.058413 0.319328 0.500000 0.000000 0.500000
0.764971 -0.554519 -0.242999 1.000000 0.000000 0.000000
-0.661138 0.546623 0.246972 0.500000 0.500000 0.000000
-0.052247 -0.537127 -0.048225 0.800000 0.200000 0.500000
-0.590085 -0.196626 -0.271577 0.600000 0.000000 0.300000
-0.607783 0.548209 -0.187918 0.000000 0.000000 1.000000
-0.480235 -0.012548 -0.172747 0.600000 0.000000 0.300000
-0.201231 0.548209 -0.150191 0.000000 0.000000 1.000000
0.162141 0.524090 -0.079220 0.000000 0.000000 1.000000
0.399639 0.548209 0.134528 0.000000 0.000000 1.000000
-0.776867 0.122044 -0.253488 0.600000 0.000000 0.300000
-0.205019 0.548209 0.051536 0.000000 0.000000 1.000000
-0.278962 0.118406 0.246972 0.300000 0.000000 0.600000
0.123778 -0.222641 0.307268 0.500000 0.000000 0.500000
-0.664036 0.023630 0.199677 0.600000 0.000000 0.300000
-0.545535 -0.012548 -0.060109 0.600000 0.000000 0.300000
0.632111 0.023630 0.227146 0.600000 0.000000 0.300000
0.245751 -0.552201 0.307218 0.500000 0.000000 0.500000
-0.007275 -0.347147 0.307268 0.500000 0.000000 0.500000
0.687220 -0.016106 0.319328 0.500000 0.000000 0.500000
-0.023617 0.548209 -0.106675 0.000000 0.000000 1.000000
-0.148845 0.085251 0.283150 0.500000 0.000000 0.500000
0.764971 0.364041 -0.168649 1.000000 0.000000 0.000000
0.058146 0.460110 -0.253488 0.600000 0.000000 0.300000
-0.277486 0.177972 0.283150 0.300000 0.000000 0.600000
0.359456 -0.131777 -0.271577 0.600000 0.000000 0.300000
-0.605735 0.188239 -0.271577 0.600000 0.000000 0.300000
-0.456174 0.526786 0.283150 0.500000 0.500000 0.000000
0.434870 0.111064 0.307268 0.500000 0.000000 0.500000
0.709796 0.080047 0.246972 0.300000 0.000000 0.600000
-0.778617 -0.151331 -0.158997 0.000000 1.000000 0.000000
0.740853 0.140472 0.037962 1.000000 0.000000 0.000000
0.104411 -0.043916 -0.253488 0.600000 0.000000 0.300000
0.740853 0.441243 0.111160 1.000000 0.000000 0.000000
-0.552554 -0.012548 0.243214 0.600000 0.000000 0.300000
0.571651 0.023630 0.160032 0.600000 0.000000 0.300000
0.351336 -0.537127 -0.246827 0.800000 0.200000 0.500000
-0.113336 -0.513008 0.238353 0.800000 0.200000 0.500000
-0.380977 -0.561245 0.274149 0.500000 0.000000 0.500000
0.777031 0.433027 0.275132 0.300000 0.000000 0.600000
0.629242 -0.012548 0.013196 0.600000 0.000000 0.300000
0.120195 0.524090 0.032432 0.000000 0.000000 1.000000
-0.781322 -0.049315 0.283150 0.600000 0.000000 0.300000
-0.802735 0.143465 0.191245 0.000000 1.000000 0.000000
0.294993 -0.040813 -0.295696 0.600000 0.000000 0.300000
-0.376689 0.548209 0.006867 0.000000 0.000000 1.000000
-0.233932 -0.227473 -0.253488 0.600000 0.000000 0.300000
-0.352611 0.572327 0.251319 0.500000 0.500000 0.000000
0.175386 -0.274964 0.307268 0.500000 0.000000 0.500000
-0.701210 -0.012548 -0.047561 0.600000 0.000000 0.300000
-0.131696 0.245984 0.319328 0.500000 0.000000 0.500000
0.188413 -0.012548 -0.089253 0.600000 0.000000 0.300000
0.713578 0.023630 -0.190679 0.600000 0.000000 0.300000
0.764971 -0.335319 0.102675 1.000000 0.000000 0.000000
0.263574 -0.041838 0.307268 0.500000 0.000000 0.500000
0.612553 -0.559338 -0.271577 0.000000 0.500000 0.500000
-0.108715 -0.012548 -0.173030 0.600000 0.000000 0.300000
-0.627462 -0.132135 -0.271577 0.600000 0.000000 0.300000
0.254486 0.524090 -0.085378 0.000000 0.000000 1.000000
-0.802735 -0.501750 0.001864 0.000000 1.000000 0.000000
-0.802735 -0.011140 -0.154437 0.000000 1.000000 0.000000
-0.211481 0.075725 -0.253488 0.600000 0.000000 0.300000
-0.802735 0.453347 0.203540 0.000000 1.000000 0.000000
-0.186874 -0.012548 0.072290 0.600000 0.000000 0.300000
0.224175 0.138239 0.283150 0.500000 0.000000 0.500000
-0.460715 -0.012548 -0.011353 0.600000 0.000000 0.300000
-0.745315 0.548209 0.155599 0.000000 0.000000 1.000000
-0.239046 -0.331259 0.283150 0.300000 0.000000 0.600000
0.675323 0.288269 0.283150 0.500000 0.000000 0.500000
0.432268 0.548209 0.216076 0.000000 0.000000 1.000000
0.683456 0.548209 -0.022818 0.000000 0.000000 1.000000
-0.151226 -0.002300 0.283150 0.500000 0.000000 0.500000
0.473216 -0.537127 0.088520 0.800000 0.200000 0.500000
0.448014 -0.012548 0.203008 0.600000 0.000000 0.300000
0.134330 -0.000236 0.307268 0.500000 0.000000 0.500000
-0.332463 -0.371059 0.246972 0.300000 0.000000 0.600000
0.227337 -0.479664 -0.295696 0.000000 0.500000 0.500000
0.089798 -0.442641 0.283150 0.500000 0.000000 0.500000
-0.802735 -0.356428 0.157270 0.000000 1.000000 0.000000
-0.498361 -0.244728 -0.271577 0.600000 0.000000 0.300000
-0.303292 0.023630 -0.233429 0.600000 0.000000 0.300000
0.326423 0.102233 0.283150 0.500000 0.000000 0.500000
0.454191 -0.436693 0.319328 0.500000 0.000000 0.500000
-0.802735 0.237816 -0.190440 0.000000 1.000000 0.000000
-0.740226 -0.012548 -0.189883 0.600000 0.000000 0.300000
0.032541 -0.012548 -0.030733 0.600000 0.000000 0.300000
0.334438 -0.537127 -0.189532 0.800000 0.200000 0.500000
-0.471814 0.433937 0.246972 0.300000 0.000000 0.600000
0.716649 0.217276 0.283150 0.300000 0.000000 0.600000
0.740470 0.036473 0.283150 0.500000 0.000000 0.500000
-0.172181 -0.537127 -0.180523 0.800000 0.200000 0.500000
0.623275 -0.295188 0.306564 0.500000 0.000000 0.500000
0.600866 0.142431 -0.253488 0.600000 0.000000 0.300000
-0.292111 -0.066815 -0.291876 0.600000 0.000000 0.300000
-0.802735 -0.194881 -0.116127 0.000000 1.000000 0.000000
0.607941 0.548209 -0.156574 0.000000 0.000000 1.000000
0.307957 0.554496 -0.295696 0.300000 0.600000 0.000000
0.628854 -0.537127 -0.089218 0.800000 0.200000 0.500000
-0.778617 0.048543 0.150361 0.000000 1.000000 0.000000
-0.443660 0.023630 -0.099091 0.600000 0.000000 0.300000
0.712301 -0.012548 -0.142835 0.600000 0.000000 0.300000
0.145179 0.524090 0.220832 0.000000 0.000000 1.000000
0.704675 -0.397233 0.253560 0.300000 0.000000 0.600000
0.231686 0.548209 -0.001699 0.000000 0.000000 1.000000
-0.399440 -0.219818 0.283150 0.300000 0.000000 0.600000
-0.025735 -0.002656 0.307268 0.500000 0.000000 0.500000
-0.026767 0.427616 -0.294669 0.300000 0.600000 0.000000
0.137633 -0.012548 -0.185091 0.600000 0.000000 0.300000
-0.171898 -0.015610 -0.295696 0.600000 0.000000 0.300000
0.619554 0.058547 0.283150 0.500000 0.000000 0.500000
-0.210815 0.023630 -0.022093 0.600000 0.000000 0.300000
-0.208388 0.150563 -0.271577 0.600000 0.000000 0.300000
0.564342 0.484215 -0.271577 0.300000 0.600000 0.000000
0.377193 -0.358708 0.307268 0.500000 0.000000 0.500000
-0.145140 0.176724 0.319328 0.500000 0.000000 0.500000
0.196030 -0.513008 0.190313 0.800000 0.200000 0.500000
0.717674 0.222264 -0.271577 0.600000 0.000000 0.300000
-0.802735 0.425162 0.113262 0.000000 1.000000 0.000000
0.740303 0.548209 -0.245243 0.000000 0.000000 1.000000
-0.142605 -0.089546 -0.253488 0.600000 0.000000 0.300000
-0.349703 -0.495956 0.246972 0.500000 0.000000 0.500000
0.263055 0.471176 0.283150 0.500000 0.000000 0.500000
0.097295 -0.424490 -0.295696 0.000000 0.500000 0.500000
-0.419415 0.506712 -0.253488 0.600000 0.000000 0.300000
-0.258773 0.548209 -0.042710 0.000000 0.000000 1.000000
0.405234 -0.537127 -0.248171 0.800000 0.200000 0.500000
0.067488 -0.184555 -0.253488 0.600000 0.000000 0.300000
-0.456846 -0.537127 0.152120 0.800000 0.200000 0.500000
0.631521 0.548209 0.101375 0.000000 0.000000 1.000000
-0.129758 -0.219502 -0.271577 0.600000 0.000000 0.300000
0.464436 0.005531 -0.253488 0.600000 0.000000 0.300000
0.575499 0.548209 -0.089313 0.000000 0.000000 1.000000
0.454490 -0.537127 0.196095 0.800000 0.200000 0.500000
-0.802735 0.218000 -0.238797 0.000000 1.000000 0.000000
-0.140050 0.548209 0.225406 0.000000 0.000000 1.000000
0.511202 0.532257 0.283150 0.500000 0.500000 0.000000
0.442098 0.293536 0.283150 0.500000 0.000000 0.500000
0.648418 0.548209 -0.225331 0.000000 0.000000 1.000000
-0.042872 -0.012548 0.042706 0.600000 0.000000 0.300000
0.453011 0.023630 -0.103077 0.600000 0.000000 0.300000
0.552448 0.230980 0.307268 0.500000 0.000000 0.500000
0.542345 -0.365338 0.283150 0.500000 0.000000 0.500000
-0.641868 0.023630 -0.046296 0.600000 0.000000 0.300000
-0.532374 0.023630 0.010474 0.600000 0.000000 0.300000
0.389140 0.247312 0.307268 0.500000 0.000000 0.500000
0.044840 0.563283 0.295728 0.500000 0.000000 0.500000
0.233795 0.525929 0.283150 0.500000 0.500000 0.000000
0.096386 -0.012548 0.238690 0.600000 0.000000 0.300000
0.154926 0.548209 -0.215591 0.000000 0.000000 1.000000
0.016716 -0.479758 -0.253488 0.600000 0.000000 0.300000
-0.743496 -0.402587 0.246972 0.600000 0.000000 0.300000
0.095560 -0.507042 -0.271577 0.600000 0.000000 0.300000
-0.459021 -0.537127 -0.258964 0.800000 0.200000 0.500000
0.322866 -0.438070 0.283150 0.500000 0.000000 0.500000
-0.355297 0.043503 -0.295696 0.600000 0.000000 0.300000
-0.057982 -0.356953 0.283150 0.500000 0.000000 0.500000
0.372514 -0.513008 0.100405 0.800000 0.200000 0.500000
0.582373 -0.127575 0.307268 0.500000 0.000000 0.500000
-0.739021 -0.537127 0.133472 0.800000 0.200000 0.500000
0.764971 0.506145 0.129020 1.000000 0.000000 0.000000
0.223360 -0.331313 -0.271577 0.600000 0.000000 0.300000
-0.223069 0.228135 -0.253488 0.600000 0.000000 0.300000
-0.382959 0.399189 0.283150 0.300000 0.000000 0.600000
0.342670 -0.537127 0.216796 0.800000 0.200000 0.500000
0.429093 -0.468628 -0.253488 0.600000 0.000000 0.300000
0.767986 -0.539991 0.288653 0.500000 0.000000 0.500000
0.061946 -0.012548 0.192845 0.600000 0.000000 0.300000
-0.169534 0.023630 -0.191300 0.600000 0.000000 0.300000
0.332202 0.273885 0.283150 0.500000 0.000000 0.500000
-0.116223 -0.012548 -0.029050 0.600000 0.000000 0.300000
-0.193451 -0.409472 0.319328 0.500000 0.000000 0.500000
-0.248984 -0.404429 0.283150 0.300000 0.000000 0.600000
0.764971 -0.447986 -0.067037 1.000000 0.000000 0.000000
-0.802735 -0.250052 -0.176126 0.000000 1.000000 0.000000
-0.036692 0.253205 -0.253488 0.600000 0.000000 0.300000
-0.778617 0.296412 -0.172207 0.000000 1.000000 0.000000
0.362910 0.193672 -0.271577 0.600000 0.000000 0.300000
-0.521672 0.023630 -0.133146 0.600000 0.000000 0.300000
-0.463265 0.014536 0.283150 0.300000 0.000000 0.600000
0.732039 0.524090 -0.153458 0.000000 0.000000 1.000000
0.038482 0.524090 -0.252940 0.000000 0.000000 1.000000
-0.644637 -0.012548 0.089444 0.600000 0.000000 0.300000
0.087818 -0.064614 0.307268 0.500000 0.000000 0.500000
-0.029393 0.023630 0.235056 0.600000 0.000000 0.300000
0.498501 0.273184 -0.253488 0.600000 0.000000 0.300000
0.764971 0.539041 -0.083432 1.000000 0.000000 0.000000
-0.696995 0.548209 0.194023 0.000000 0.000000 1.000000
-0.802735 0.070605 0.053363 0.000000 1.000000 0.000000
-0.712555 -0.537127 -0.238585 0.800000 0.200000 0.500000
-0.733685 0.054266 -0.295696 0.600000 0.000000 0.300000
0.154311 0.070193 0.307268 0.500000 0.000000 0.500000
-0.500498 -0.150351 0.246972 0.300000 0.000000 0.600000
-0.225619 -0.002695 -0.295696 0.600000 0.000000 0.300000
-0.067777 0.023630 -0.196841 0.600000 0.000000 0.300000
0.550282 0.136775 0.283150 0.500000 0.000000 0.500000
-0.209903 -0.561245 0.281041 0.500000 0.000000 0.500000
0.038307 0.398903 -0.271577 0.600000 0.000000 0.300000
-0.802735 0.019620 0.218123 0.000000 1.000000 0.000000
0.112922 -0.012548 0.163355 0.600000 0.000000 0.300000
-0.778617 0.257613 0.171657 0.000000 1.000000 0.000000
0.740853 0.454008 -0.241032 1.000000 0.000000 0.000000
0.276991 0.563283 0.287243 0.500000 0.000000 0.500000
0.325229 0.380039 -0.253488 0.600000 0.000000 0.300000
-0.802735 -0.502077 0.061948 0.000000 1.000000 0.000000
0.013834 0.325907 -0.253488 0.600000 0.000000 0.300000
0.507923 -0.513008 -0.123783 0.800000 0.200000 0.500000
-0.802735 -0.141961 0.067707 0.000000 1.000000 0.000000
0.240214 -0.537127 -0.116510 0.800000 0.200000 0.500000
0.587899 -0.535742 0.319328 0.500000 0.000000 0.500000
-0.160640 0.548209 -0.188607 0.000000 0.000000 1.000000
-0.117917 0.243293 -0.271577 0.600000 0.000000 0.300000
-0.778617 0.257361 0.039971 0.000000 1.000000 0.000000
0.392866 -0.012548 -0.023703 0.600000 0.000000 0.300000
0.306208 0.548209 -0.142744 0.000000 0.000000 1.000000
-0.599320 -0.537127 0.225843 0.800000 0.200000 0.500000
0.764971 -0.514458 -0.083712 1.000000 0.000000 0.000000
0.549381 0.183880 -0.253488 0.600000 0.000000 0.300000
0.740853 -0.085364 0.092489 1.000000 0.000000 0.000000
0.764971 0.444393 -0.132489 1.000000 0.000000 0.000000
-0.743036 0.283285 0.283150 0.600000 0.000000 0.300000
0.177747 -0.513008 0.142627 0.800000 0.200000 0.500000
-0.403851 -0.340381 0.283150 0.300000 0.000000 0.600000
0.764971 0.427003 0.068081 1.000000 0.000000 0.000000
0.364128 0.524090 -0.041728 0.000000 0.000000 1.000000
0.188568 -0.012548 0.095425 0.600000 0.000000 0.300000
0.233439 0.209777 -0.271577 0.600000 0.000000 0.300000
-0.012503 -0.263770 -0.253488 0.600000 0.000000 0.300000
-0.017922 -0.353967 -0.253488 0.600000 0.000000 0.300000
0.654000 0.010124 -0.295696 0.600000 0.000000 0.300000
-0.802735 0.398147 -0.226976 0.000000 1.000000 0.000000
-0.520187 0.524090 0.044311 0.000000 0.000000 1.000000
0.583746 -0.220798 -0.253488 0.600000 0.000000 0.300000
-0.685750 -0.513008 0.063190 0.800000 0.200000 0.500000
0.412526 0.563283 0.312403 0.500000 0.000000 0.500000
-0.375734 -0.012548 0.081663 0.600000 0.000000 0.300000
-0.510109 -0.066815 -0.293074 0.600000 0.000000 0.300000
-0.276229 0.524090 0.118273 0.000000 0.000000 1.000000
0.764971 -0.235141 0.210160 1.000000 0.000000 0.000000
0.321543 -0.520380 0.283150 0.500000 0.000000 0.500000
0.174731 -0.082707 0.283150 0.500000 0.000000 0.500000
-0.143440 0.427616 -0.294375 0.300000 0.600000 0.000000
0.154072 -0.488890 0.271710 0.500000 0.000000 0.500000
0.451079 0.023630 0.094261 0.600000 0.000000 0.300000
0.493887 -0.485577 -0.253488 0.600000 0.000000 0.300000
-0.778617 0.542924 0.017571 0.000000 1.000000 0.000000
-0.778617 -0.393466 -0.190496 0.000000 1.000000 0.000000
-0.802735 0.163533 -0.239824 0.000000 1.000000 0.000000
-0.802735 -0.386901 -0.287928 0.000000 1.000000 0.000000
0.628115 -0.537127 0.005452 0.800000 0.200000 0.500000
0.717408 -0.537127 -0.032309 0.800000 0.200000 0.500000
-0.244345 -0.087301 0.246972 0.300000 0.000000 0.600000
-0.369889 0.207019 -0.271577 0.600000 0.000000 0.300000
0.580761 -0.046697 -0.253488 0.600000 0.000000 0.300000
0.259251 -0.151874 -0.253488 0.600000 0.000000 0.300000
0.323505 0.023630 0.200184 0.600000 0.000000 0.300000
0.246929 0.524090 0.088937 0.000000 0.000000 1.000000
0.764971 -0.148353 -0.287499 1.000000 0.000000 0.000000
0.451246 0.548209 -0.240799 0.000000 0.000000 1.000000
0.303611 -0.537127 -0.093858 0.800000 0.200000 0.500000
0.327854 -0.537127 0.168314 0.800000 0.200000 0.500000
0.134187 0.111292 0.283150 0.500000 0.000000 0.500000
-0.242175 0.214217 0.283150 0.300000 0.000000 0.600000
-0.556232 -0.518132 0.283150 0.500000 0.000000 0.500000
-0.299017 -0.421456 0.283150 0.300000 0.000000 0.600000
-0.499242 0.461076 0.283150 0.300000 0.000000 0.600000
-0.748178 0.321670 -0.253488 0.600000 0.000000 0.300000
-0.335909 -0.012548 -0.076988 0.600000 0.000000 0.300000
-0.646345 0.023630 -0.105128 0.600000 0.000000 0.300000
0.572988 -0.513008 0.105869 0.800000 0.200000 0.500000
0.471306 0.217294 -0.253488 0.600000 0.000000 0.300000
-0.520343 -0.343766 0.283150 0.300000 0.000000 0.600000
0.166488 0.082507 -0.253488 0.600000 0.000000 0.300000
-0.313475 0.445511 0.283150 0.300000 0.000000 0.600000
-0.411765 -0.490297 -0.295696 0.000000 0.500000 0.500000
-0.696296 -0.012548 -0.225981 0.600000 0.000000 0.300000
0.358613 -0.012548 0.013465 0.600000 0.000000 0.300000
-0.534681 -0.007637 -0.253488 0.600000 0.000000 0.300000
0.643528 -0.513008 0.090177 0.800000 0.200000 0.500000
-0.354965 -0.559081 -0.271577 0.000000 0.500000 0.500000
-0.503718 0.287214 0.246972 0.300000 0.000000 0.600000
0.763401 -0.498505 -0.295696 1.000000 0.000000 0.000000
0.564968 0.023630 -0.084195 0.600000 0.000000 0.300000
0.758680 0.315436 0.319328 0.500000 0.000000 0.500000
-0.397795 0.509863 0.283150 0.500000 0.500000 0.000000
0.207494 0.524090 -0.103472 0.000000 0.000000 1.000000
-0.270276 0.499971 0.275852 0.500000 0.500000 0.000000
-0.138368 -0.167482 -0.271577 0.600000 0.000000 0.300000
-0.246333 0.513588 -0.253488 0.600000 0.000000 0.300000
0.423713 0.515876 -0.295696 0.300000 0.600000 0.000000
-0.741940 -0.465495 -0.295696 0.000000 0.500000 0.500000
-0.674244 0.524090 -0.131272 0.000000 0.000000 1.000000
0.764971 -0.088317 0.035153 1.000000 0.000000 0.000000
-0.082193 -0.075608 0.302398 0.500000 0.000000 0.500000
-0.205480 -0.034924 -0.253488 0.600000 0.000000 0.300000
0.187992 -0.417801 -0.253488 0.600000 0.000000 0.300000
0.368231 -0.474856 -0.253488 0.600000 0.000000 0.300000
-0.399269 -0.513008 -0.249258 0.800000 0.200000 0.500000
-0.483609 -0.496263 0.283150 0.500000 0.000000 0.500000
-0.402506 -0.012548 -0.013333 0.600000 0.000000 0.300000
0.631333 0.023630 -0.197622 0.600000 0.000000 0.300000
-0.623068 -0.488890 0.281752 0.500000 0.000000 0.500000
-0.295272 -0.063922 0.246972 0.300000 0.000000 0.600000
-0.050127 -0.012548 -0.100938 0.600000 0.000000 0.300000
0.740853 -0.310628 0.062792 1.000000 0.000000 0.000000
-0.263010 -0.513008 0.083590 0.800000 0.200000 0.500000
0.150598 -0.187881 0.283150 0.500000 0.000000 0.500000
0.530556 -0.537127 -0.171946 0.800000 0.200000 0.500000
-0.663158 0.022071 -0.295696 0.600000 0.000000 0.300000
-0.053956 -0.455259 -0.253488 0.600000 0.000000 0.300000
0.417665 -0.016138 -0.295696 0.600000 0.000000 0.300000
-0.335164 0.111966 0.283150 0.300000 0.000000 0.600000
-0.041754 0.072635 0.307268 0.500000 0.000000 0.500000
-0.087286 0.548209 -0.214206 0.000000 0.000000 1.000000
0.767986 0.219786 0.295839 0.500000 0.000000 0.500000
0.500166 0.045320 0.283150 0.500000 0.000000 0.500000
-0.428290 0.048498 -0.253488 0.600000 0.000000 0.300000
-0.278105 0.344322 -0.271577 0.600000 0.000000 0.300000
0.300270 -0.428722 -0.295696 0.000000 0.500000 0.500000
0.649648 -0.012548 -0.032347 0.600000 0.000000 0.300000
0.030972 0.181218 -0.253488 0.600000 0.000000 0.300000
0.067958 0.352329 0.283150 0.500000 0.000000 0.500000
-0.729768 -0.012548 -0.107310 0.600000 0.000000 0.300000
0.136071 -0.513008 0.221787 0.800000 0.200000 0.500000
0.181209 -0.513008 -0.264800 0.800000 0.200000 0.500000
0.764971 0.015116 0.123318 1.000000 0.000000 0.000000
0.428608 -0.380224 0.307268 0.500000 0.000000 0.500000
0.740853 -0.289087 0.133165 1.000000 0.000000 0.000000
-0.205266 0.213795 0.246972 0.300000 0.000000 0.600000
-0.739046 -0.012548 0.121390 0.600000 0.000000 0.300000
-0.802735 -0.548750 -0.152917 0.000000 1.000000 0.000000
0.390067 -0.534884 0.319328 0.500000 0.000000 0.500000
-0.778617 0.342279 -0.290322 0.000000 1.000000 0.000000
-0.387253 0.168565 0.283150 0.300000 0.000000 0.600000
-0.165656 -0.012548 -0.097982 0.600000 0.000000 0.300000
-0.802735 0.478293 -0.186552 0.000000 1.000000 0.000000
-0.014421 -0.537127 -0.213881 0.800000 0.200000 0.500000
-0.342429 -0.356054 -0.253488 0.600000 0.000000 0.300000
-0.615959 0.548209 0.004742 0.000000 0.000000 1.000000
-0.390588 0.209245 0.246972 0.300000 0.000000 0.600000
0.009630 -0.111839 -0.271577 0.600000 0.000000 0.300000
-0.102007 -0.172298 0.319328 0.500000 0.000000 0.500000
-0.175021 0.548209 -0.106324 0.000000 0.000000 1.000000
-0.035989 -0.485858 0.319328 0.500000 0.000000 0.500000
-0.778617 -0.332049 -0.112009 0.000000 1.000000 0.000000
-0.441117 0.264091 -0.253488 0.600000 0.000000 0.300000
0.394845 0.548209 -0.129942 0.000000 0.000000 1.000000
-0.534802 0.524090 -0.111237 0.000000 0.000000 1.000000
-0.124287 0.023630 -0.130386 0.600000 0.000000 0.300000
0.740853 -0.378810 -0.196442 1.000000 0.000000 0.000000
-0.072540 0.295895 0.283150 0.500000 0.000000 0.500000
0.504781 -0.012548 0.080971 0.600000 0.000000 0.300000
-0.307835 0.029181 0.246972 0.300000 0.000000 0.600000
0.740853 -0.100198 0.194228 1.000000 0.000000 0.000000
-0.283211 -0.513008 0.000674 0.800000 0.200000 0.500000
0.203478 -0.522646 0.283150 0.500000 0.000000 0.500000
-0.163593 -0.140460 0.282646 0.300000 0.000000 0.600000
-0.654503 -0.436077 -0.253488 0.600000 0.000000 0.300000
0.659717 -0.455432 -0.295696 0.000000 0.500000 0.500000
0.432423 -0.064993 -0.253488 0.600000 0.000000 0.300000
