ply
format ascii 1.0
element vertex 1275
property float x
property float y
property float z
property uchar red
property uchar green
property uchar blue
end_header
0.231167 -0.137775 0.056252 76 0 153
0.043192 0.543046 0.070739 153 76 0
0.038406 0.510218 -0.068054 153 76 0
-0.231648 -0.034430 0.014035 76 0 153
-0.224463 0.092631 -0.063118 76 0 153
-0.162748 -0.339133 0.168366 76 0 153
-0.060754 -0.569188 0.227312 76 0 153
-0.046910 0.543559 -0.050723 153 76 0
-0.006220 -0.173125 0.160853 76 0 153
0.193905 -0.629196 -0.022657 76 0 153
0.049712 0.755307 -0.023563 76 0 153
0.201290 -0.357753 -0.125066 76 0 153
-0.171923 -0.043376 -0.156722 76 0 153
-0.177677 -0.484991 0.149763 76 0 153
-0.231242 -0.410889 -0.016582 76 0 153
0.233176 0.046937 0.040995 76 0 153
0.087596 -0.349407 0.218296 76 0 153
-0.231302 0.139250 -0.016125 76 0 153
-0.130305 -0.504246 0.193261 76 0 153
0.157992 -0.629196 -0.021405 76 0 153
0.214370 0.020646 -0.099743 76 0 153
0.235793 -0.610180 -0.020582 76 0 153
0.056802 0.755307 -0.072798 76 0 153
0.076876 -0.249841 -0.222197 76 0 153
-0.229843 0.231882 -0.027204 76 0 153
-0.090160 0.039410 0.215132 76 0 153
-0.071254 0.898405 0.064312 76 0 153
0.214406 0.299881 -0.099654 76 0 153
-0.071441 -0.580332 -0.102383 76 0 153
0.151939 -0.356233 0.180557 76 0 153
0.064276 0.232763 0.227956 76 0 153
-0.006148 -0.234126 -0.234585 76 0 153
-0.026502 -0.449628 -0.231906 76 0 153
-0.073747 -0.325872 -0.221389 76 0 153
0.096117 0.152641 -0.166824 76 0 153
0.083045 0.152641 0.001709 76 0 153
-0.231991 -0.159595 -0.010895 76 0 153
0.000622 -0.629196 0.215375 76 0 153
-0.177230 0.190126 -0.149805 76 0 153
0.028055 0.422381 -0.097994 153 76 0
0.201399 0.111329 -0.124923 76 0 153
0.229552 -0.304136 -0.063089 76 0 153
-0.184118 -0.418129 -0.140827 76 0 153
0.072078 0.888290 0.071894 76 0 153
-0.106834 -0.235996 -0.207684 76 0 153
-0.025188 -0.173125 0.136012 76 0 153
-0.136118 0.349776 -0.159053 76 0 153
-0.014336 0.804413 0.097846 76 0 153
-0.159639 -0.482616 0.170751 76 0 153
-0.229797 -0.594126 -0.027555 76 0 153
0.007288 -0.298762 0.235644 76 0 153
0.047863 0.673116 -0.066727 153 76 0
0.045765 0.999631 0.067260 76 0 153
0.000201 0.903506 0.099759 76 0 153
-0.130864 0.152641 -0.036550 76 0 153
0.006601 -0.002374 -0.235194 76 0 153
-0.103216 -0.109236 0.209723 76 0 153
0.213588 -0.316186 0.102172 76 0 153
0.200005 0.299823 0.127281 76 0 153
0.096213 0.152641 -0.102236 76 0 153
-0.038240 0.755307 0.036569 76 0 153
-0.059816 0.606696 -0.051105 153 76 0
-0.232988 0.245360 -0.003318 76 0 153
-0.065234 -0.173125 -0.143557 76 0 153
-0.034723 0.503113 0.067939 153 76 0
-0.054238 0.755307 0.022795 76 0 153
-0.048073 -0.131470 -0.229065 76 0 153
0.150607 -0.629196 -0.113671 76 0 153
0.181942 0.357166 0.031839 76 0 153
0.224713 0.263185 -0.074772 76 0 153
0.223737 0.244214 0.077670 76 0 153
0.214545 -0.569295 -0.099319 76 0 153
0.096306 -0.173125 0.161508 76 0 153
-0.047968 0.792524 0.085159 76 0 153
0.090487 -0.629196 -0.208207 76 0 153
0.117872 -0.361297 0.205755 76 0 153
0.026972 0.361765 0.168876 76 0 153
0.203991 -0.523982 -0.121545 76 0 153
0.150240 0.295377 0.181860 76 0 153
0.034756 0.456379 0.078734 153 76 0
0.135852 -0.529031 0.192900 76 0 153
-0.055867 0.474733 -0.054554 153 76 0
0.110437 -0.005879 0.208834 76 0 153
0.209357 0.205706 0.112385 76 0 153
0.203590 -0.153855 -0.122068 76 0 153
-0.018019 -0.173125 -0.102400 76 0 153
-0.224653 -0.512676 0.063201 76 0 153
0.115312 0.018176 -0.206276 76 0 153
0.035469 0.152641 -0.161016 76 0 153
-0.112244 -0.187111 0.205983 76 0 153
0.113437 0.348216 -0.205321 76 0 153
0.166554 -0.222244 0.169342 76 0 153
0.091105 0.089334 0.216843 76 0 153
0.104907 0.184226 0.211126 76 0 153
-0.226972 0.041713 -0.049010 76 0 153
-0.211013 0.014712 -0.095589 76 0 153
-0.190005 0.210812 0.133696 76 0 153
-0.166123 -0.629196 -0.162112 76 0 153
-0.181642 0.152641 0.087286 76 0 153
0.034146 0.156104 -0.231567 76 0 153
0.063235 0.543559 -0.052123 153 76 0
0.111917 -0.629196 0.156895 76 0 153
-0.211324 0.103811 0.095379 76 0 153
-0.229358 -0.007920 -0.030891 76 0 153
-0.103511 -0.512670 0.209600 76 0 153
0.229531 -0.153949 -0.063142 76 0 153
0.234860 0.337606 -0.027663 76 0 153
0.089944 0.905864 0.046738 76 0 153
-0.073672 0.500040 -0.008828 153 76 0
0.007629 0.272037 -0.235059 76 0 153
-0.133201 -0.053954 0.191039 76 0 153
0.235484 0.220022 0.023468 76 0 153
-0.111163 -0.612512 -0.090299 76 0 153
0.183541 0.152641 -0.114805 76 0 153
0.099727 0.783197 0.013192 76 0 153
0.075654 -0.173125 0.081278 76 0 153
-0.228558 -0.173125 -0.030454 76 0 153
-0.094966 -0.580332 -0.103302 76 0 153
0.094877 0.214229 0.215280 76 0 153
0.077516 0.887266 -0.060139 76 0 153
-0.227063 -0.488763 0.048867 76 0 153
0.226969 -0.442427 -0.069327 76 0 153
-0.229378 -0.338329 0.031280 76 0 153
-0.028075 -0.556329 0.232238 76 0 153
-0.106302 -0.012101 -0.207905 76 0 153
0.057202 0.962852 0.083308 76 0 153
-0.178942 0.152641 -0.144836 76 0 153
0.138424 -0.624006 0.052005 76 0 153
0.126858 -0.326387 -0.199262 76 0 153
0.040344 -0.173125 -0.117362 76 0 153
0.113687 0.152641 0.083145 76 0 153
-0.160921 -0.451140 0.169769 76 0 153
-0.113569 -0.250296 0.205434 76 0 153
0.172676 0.251023 0.162896 76 0 153
-0.120768 0.018253 -0.200039 76 0 153
-0.157082 -0.392979 0.172714 76 0 153
0.225498 -0.298868 0.073417 76 0 153
0.080922 -0.173125 -0.064012 76 0 153
-0.195158 -0.408483 0.126981 76 0 153
-0.131229 -0.173125 0.015117 76 0 153
0.058804 -0.629196 -0.179319 76 0 153
-0.034764 0.152641 0.128077 76 0 153
0.197873 0.044836 -0.129520 76 0 153
0.215486 -0.532918 0.097589 76 0 153
0.217979 0.035564 0.091570 76 0 153
0.030197 -0.615311 -0.232087 76 0 153
0.034896 0.755307 0.057585 76 0 153
0.208485 0.007803 0.114490 76 0 153
0.222208 0.161485 0.081361 76 0 153
0.220160 -0.483891 -0.085764 76 0 153
0.106585 -0.173125 -0.157529 76 0 153
-0.001887 0.525854 -0.077712 153 76 0
0.181738 -0.534702 0.151088 76 0 153
0.159481 -0.173125 -0.007382 76 0 153
-0.203000 -0.253455 0.115476 76 0 153
-0.037794 0.513524 -0.065691 153 76 0
-0.146217 -0.268548 0.181052 76 0 153
0.159944 0.034944 0.174413 76 0 153
-0.142125 -0.559947 0.184191 76 0 153
-0.041690 -0.442350 0.230446 76 0 153
-0.076335 0.008859 0.220857 76 0 153
-0.149821 0.004895 0.178285 76 0 153
0.054854 0.944897 -0.080207 76 0 153
0.195317 -0.421225 -0.132850 76 0 153
0.066743 0.933029 -0.071084 76 0 153
-0.000605 -0.457759 0.235855 76 0 153
-0.044868 0.394199 0.113812 76 0 153
-0.101016 -0.397670 -0.210094 76 0 153
0.186769 0.166475 0.144530 76 0 153
0.065187 0.617759 0.051264 153 76 0
0.078190 0.543504 -0.028065 153 76 0
-0.053488 0.720977 -0.058515 153 76 0
0.078667 -0.624757 -0.124513 76 0 153
0.222267 0.213767 -0.080678 76 0 153
-0.184297 -0.321629 -0.140595 76 0 153
0.083902 0.779071 0.000859 76 0 153
-0.034625 0.160482 0.231376 76 0 153
0.087007 -0.173125 0.140657 76 0 153
-0.009476 -0.173125 0.106955 76 0 153
0.000641 -0.580332 0.032742 76 0 153
-0.149360 0.193471 0.178639 76 0 153
0.051948 -0.145913 0.229764 76 0 153
-0.001758 0.522958 0.077798 153 76 0
0.049181 -0.420842 0.230128 76 0 153
-0.002470 0.326711 0.235609 76 0 153
-0.016274 -0.368005 -0.233252 76 0 153
0.128367 -0.615275 0.075034 76 0 153
-0.064542 -0.289527 0.225743 76 0 153
-0.075708 -0.220746 0.221118 76 0 153
-0.210659 -0.042499 -0.096445 76 0 153
0.124682 0.349588 0.175532 76 0 153
0.050374 0.755307 -0.046080 76 0 153
0.072365 0.755307 -0.063521 76 0 153
-0.227941 0.139765 -0.041649 76 0 153
0.231183 0.235412 0.056131 76 0 153
0.154509 -0.173125 0.067777 76 0 153
0.091188 -0.516458 -0.216269 76 0 153
0.233236 -0.373554 -0.039998 76 0 153
0.234422 0.328613 0.031529 76 0 153
-0.069007 0.999631 0.025959 76 0 153
-0.032564 0.152641 0.088665 76 0 153
0.237118 -0.221191 -0.010515 76 0 153
-0.212614 -0.593366 0.092263 76 0 153
-0.010153 -0.173125 0.014110 76 0 153
-0.128428 0.264540 -0.194161 76 0 153
0.001712 0.828608 -0.095054 76 0 153
-0.230918 -0.147857 0.019579 76 0 153
0.135190 -0.586561 -0.059274 76 0 153
-0.030915 0.795432 0.073810 76 0 153
-0.132042 0.355663 -0.129541 76 0 153
-0.061509 -0.512650 -0.226459 76 0 153
-0.059456 -0.173125 -0.075841 76 0 153
0.221323 0.157245 -0.082957 76 0 153
0.005332 0.718455 0.081344 153 76 0
-0.199426 0.090089 -0.120878 76 0 153
-0.053432 0.787702 -0.058557 76 0 153
-0.060095 -0.173125 -0.024942 76 0 153
0.029895 0.759833 -0.075796 76 0 153
-0.014243 -0.608175 0.234060 76 0 153
-0.033209 0.567138 -0.072320 153 76 0
0.026939 0.438201 -0.089415 153 76 0
0.232693 0.037490 -0.044121 76 0 153
0.184632 0.283776 -0.146774 76 0 153
-0.156618 -0.500957 0.173070 76 0 153
-0.221248 -0.542209 0.071422 76 0 153
-0.230568 -0.534408 -0.021702 76 0 153
-0.205876 -0.316170 0.108531 76 0 153
0.137335 -0.432403 0.191763 76 0 153
-0.071643 0.770461 -0.031635 153 76 0
0.175846 0.360732 -0.008495 76 0 153
-0.113157 -0.541462 -0.205066 76 0 153
0.084432 -0.629196 0.174313 76 0 153
0.097437 -0.549106 -0.213680 76 0 153
0.016673 -0.551065 -0.233868 76 0 153
0.117751 0.394697 0.042454 76 0 153
-0.195566 0.053108 -0.125908 76 0 153
-0.061681 0.640785 0.049215 153 76 0
-0.108764 0.152641 0.131441 76 0 153
-0.130393 0.263914 0.193193 76 0 153
-0.037645 -0.580332 -0.062082 76 0 153
0.194220 0.015418 -0.134280 76 0 153
-0.216654 -0.508795 0.082513 76 0 153
-0.053449 0.755307 -0.010430 76 0 153
0.057882 -0.208074 0.228982 76 0 153
-0.231481 -0.407193 0.015305 76 0 153
-0.068036 0.725319 -0.040344 153 76 0
-0.130031 0.074588 0.193471 76 0 153
-0.216889 -0.057011 -0.081402 76 0 153
-0.173289 -0.572745 -0.154941 76 0 153
-0.228994 0.295757 -0.033656 76 0 153
0.119162 0.387439 -0.058569 76 0 153
-0.184415 0.144285 0.140981 76 0 153
-0.025794 -0.547104 -0.231999 76 0 153
0.157566 0.338047 0.176239 76 0 153
0.185641 -0.280120 0.146001 76 0 153
-0.025374 0.660705 -0.075566 153 76 0
0.128814 -0.362548 -0.197761 76 0 153
-0.125577 0.134025 -0.196348 76 0 153
0.017761 -0.263972 0.234265 76 0 153
-0.198977 0.351740 -0.015866 76 0 153
0.058543 0.801809 -0.077376 76 0 153
0.131830 -0.173125 0.117733 76 0 153
0.234305 0.185623 0.032420 76 0 153
-0.070277 0.621140 -0.034935 153 76 0
-0.059225 -0.629196 -0.221926 76 0 153
-0.226171 -0.320898 -0.055099 76 0 153
0.029912 0.797394 -0.091448 76 0 153
0.209180 -0.173125 0.109698 76 0 153
-0.132746 0.301051 -0.190847 76 0 153
-0.191290 0.152641 0.119007 76 0 153
0.020862 -0.173125 0.071956 76 0 153
0.053884 0.450983 0.069810 153 76 0
-0.154616 0.368499 -0.010062 76 0 153
-0.022707 0.152641 0.160697 76 0 153
-0.128564 -0.471454 -0.194056 76 0 153
-0.080948 0.755307 -0.019207 76 0 153
0.083731 0.651656 0.002162 153 76 0
-0.062025 0.152641 0.209632 76 0 153
0.054178 -0.576396 0.229470 76 0 153
-0.003923 0.770968 0.080860 76 0 153
0.144722 0.261701 0.186094 76 0 153
-0.028573 0.710995 0.074781 153 76 0
0.147662 -0.607659 0.183839 76 0 153
0.077979 -0.580332 -0.078803 76 0 153
-0.068197 -0.341729 0.224228 76 0 153
-0.231517 0.296448 -0.014490 76 0 153
0.177706 0.061293 0.156340 76 0 153
0.209185 0.332194 0.112800 76 0 153
-0.225652 0.247323 -0.059041 76 0 153
0.005803 0.143841 -0.235299 76 0 153
0.179599 -0.581702 -0.153333 76 0 153
0.076986 0.964374 -0.060829 76 0 153
-0.013106 -0.014903 -0.233670 76 0 153
0.224712 -0.629196 -0.036420 76 0 153
0.145246 -0.629196 0.171172 76 0 153
0.219012 0.152641 -0.024614 76 0 153
-0.098621 0.408114 -0.043811 76 0 153
-0.102971 -0.424216 0.209824 76 0 153
-0.227907 0.295542 0.042453 76 0 153
0.214148 0.189649 -0.100279 76 0 153
0.048752 0.354927 0.183740 76 0 153
0.077459 0.370925 0.134844 76 0 153
0.056609 -0.629196 -0.149837 76 0 153
-0.057311 0.122039 0.228390 76 0 153
-0.040708 -0.200740 -0.230035 76 0 153
-0.078018 0.638710 -0.006451 153 76 0
-0.192297 0.152641 0.014536 76 0 153
0.236962 0.155170 0.012241 76 0 153
0.140593 -0.173125 -0.053407 76 0 153
-0.217324 -0.279427 0.080892 76 0 153
-0.050619 -0.629196 -0.164063 76 0 153
-0.214033 0.155267 0.088838 76 0 153
0.028864 0.356633 -0.181186 76 0 153
0.200098 -0.231005 -0.126620 76 0 153
-0.043508 0.155505 -0.229667 76 0 153
-0.044788 0.776162 -0.082461 76 0 153
0.130283 0.152641 0.048542 76 0 153
0.080584 -0.104806 0.221201 76 0 153
0.065028 0.180331 0.227644 76 0 153
0.097928 0.822037 -0.021949 76 0 153
0.028637 0.862424 0.096860 76 0 153
0.074969 0.540333 0.035045 153 76 0
-0.079869 -0.545753 -0.218854 76 0 153
-0.068139 0.567808 0.040635 153 76 0
-0.049120 -0.549380 0.229469 76 0 153
-0.054725 0.071599 -0.228190 76 0 153
-0.030269 0.855133 -0.088474 76 0 153
0.015462 0.755307 -0.021097 76 0 153
-0.172550 -0.212597 0.156444 76 0 153
-0.202778 -0.415494 -0.115472 76 0 153
-0.139286 -0.595595 -0.035963 76 0 153
-0.115106 -0.550037 0.204798 76 0 153
0.024520 -0.038907 0.233375 76 0 153
-0.023581 0.781303 0.096148 76 0 153
0.216460 0.170740 0.095236 76 0 153
0.118318 -0.173125 -0.191724 76 0 153
-0.071516 0.799966 0.032483 76 0 153
0.112207 -0.580332 -0.068623 76 0 153
-0.013361 -0.580332 -0.036148 76 0 153
-0.231875 -0.390133 0.012311 76 0 153
-0.039492 -0.276029 -0.230195 76 0 153
-0.188959 0.010853 -0.134519 76 0 153
-0.081984 0.867732 -0.044579 76 0 153
-0.210858 -0.271672 0.096506 76 0 153
-0.193138 0.352832 0.024110 76 0 153
-0.101277 -0.481234 -0.209986 76 0 153
-0.224304 -0.209852 0.064044 76 0 153
0.099386 0.857542 0.015781 76 0 153
0.062786 -0.173125 0.167745 76 0 153
-0.189899 -0.196123 -0.133295 76 0 153
-0.052064 0.739605 0.060149 153 76 0
0.238194 0.090934 -0.002343 76 0 153
0.109986 0.244947 0.209022 76 0 153
-0.192878 0.279725 -0.129413 76 0 153
-0.152719 -0.414907 0.176062 76 0 153
0.231264 0.016408 0.055518 76 0 153
0.014234 0.872177 0.098757 76 0 153
-0.035224 -0.173125 -0.174379 76 0 153
0.002571 0.688213 -0.081168 153 76 0
-0.066345 0.751464 -0.042597 76 0 153
-0.214459 0.187574 0.087812 76 0 153
-0.026736 0.230979 0.232414 76 0 153
-0.231630 -0.539901 0.014169 76 0 153
0.022928 -0.211046 0.233585 76 0 153
0.193617 0.263655 -0.135067 76 0 153
0.166273 -0.213928 -0.169017 76 0 153
-0.052940 -0.629196 0.182512 76 0 153
-0.209398 0.131371 0.100028 76 0 153
0.199029 -0.173125 -0.097172 76 0 153
-0.026398 0.999631 0.020627 76 0 153
0.183438 -0.308288 0.148872 76 0 153
-0.093129 0.933877 -0.006586 76 0 153
-0.067257 0.999631 -0.054505 76 0 153
-0.053405 -0.296431 -0.228364 76 0 153
0.101161 -0.606217 0.212677 76 0 153
0.219487 -0.215161 0.087928 76 0 153
-0.002214 0.603948 0.081086 153 76 0
-0.017299 -0.173125 0.192766 76 0 153
0.187748 0.152641 -0.075505 76 0 153
-0.030884 -0.357311 0.231868 76 0 153
-0.086915 -0.173125 -0.131448 76 0 153
-0.212314 -0.629196 0.012734 76 0 153
-0.016225 0.909846 -0.092693 76 0 153
0.139973 -0.621775 -0.047725 76 0 153
0.238224 0.282041 -0.002117 76 0 153
-0.205927 -0.629196 0.090581 76 0 153
0.233814 -0.176646 -0.035603 76 0 153
0.033706 -0.580332 -0.018792 76 0 153
0.186460 -0.066875 -0.144393 76 0 153
0.065611 0.971386 -0.071953 76 0 153
-0.187548 -0.629196 0.028685 76 0 153
0.010466 -0.300092 -0.234686 76 0 153
-0.218724 -0.165154 -0.076973 76 0 153
0.045525 -0.245025 -0.230070 76 0 153
-0.045460 0.249093 -0.229410 76 0 153
0.140732 -0.629196 -0.186102 76 0 153
-0.012568 0.071784 0.234280 76 0 153
-0.092864 0.152641 0.010439 76 0 153
0.080753 -0.443109 0.221131 76 0 153
-0.054554 -0.173125 0.211493 76 0 153
-0.099795 -0.426776 -0.210601 76 0 153
0.032610 -0.581803 -0.142366 76 0 153
-0.070193 -0.580332 0.028411 76 0 153
0.110254 0.358102 -0.143484 76 0 153
-0.000839 -0.420658 0.235825 76 0 153
-0.228758 0.264031 -0.035444 76 0 153
0.169940 0.322093 0.166463 76 0 153
0.096949 -0.044257 -0.213883 76 0 153
0.190317 -0.477625 -0.139367 76 0 153
-0.157752 0.290066 -0.171660 76 0 153
-0.055212 0.818849 0.057646 76 0 153
0.141787 0.004381 0.188345 76 0 153
-0.094198 -0.580332 -0.031340 76 0 153
0.105351 -0.378865 -0.210403 76 0 153
0.221185 -0.243161 -0.083291 76 0 153
-0.227113 0.348229 -0.034315 76 0 153
-0.142003 -0.173125 0.137785 76 0 153
0.078219 0.673174 0.028557 153 76 0
-0.074767 0.652141 -0.024094 153 76 0
-0.007374 0.576109 -0.079866 153 76 0
0.215161 -0.484872 0.098373 76 0 153
-0.019597 -0.466675 -0.232815 76 0 153
-0.189598 0.111876 -0.133686 76 0 153
-0.037924 0.432062 -0.085885 153 76 0
0.058414 0.152641 -0.144029 76 0 153
0.185760 -0.452608 0.145845 76 0 153
0.047805 -0.266572 -0.229770 76 0 153
0.204002 -0.047012 0.122072 76 0 153
0.098791 0.824615 0.020304 76 0 153
-0.218141 -0.200498 0.078921 76 0 153
-0.218034 -0.124986 0.079180 76 0 153
-0.000946 -0.579166 0.235810 76 0 153
-0.021520 0.152641 0.216887 76 0 153
-0.064037 0.589732 -0.045605 153 76 0
-0.009256 -0.168172 0.234717 76 0 153
-0.116678 -0.173125 -0.119802 76 0 153
0.233275 -0.580653 -0.039702 76 0 153
-0.134414 -0.173125 0.050441 76 0 153
0.169132 0.349211 -0.141739 76 0 153
-0.043545 0.755307 0.003514 76 0 153
0.049931 -0.173125 -0.045599 76 0 153
0.020529 0.804842 0.097929 76 0 153
-0.200060 -0.241802 -0.120053 76 0 153
-0.094002 0.873268 0.004850 76 0 153
0.234879 0.088139 0.028059 76 0 153
-0.015842 0.152641 0.123425 76 0 153
-0.068561 0.215170 -0.223538 76 0 153
0.133638 -0.173125 -0.162351 76 0 153
0.054289 0.840303 0.085545 76 0 153
0.118699 -0.614695 0.205412 76 0 153
0.038788 -0.236784 0.231497 76 0 153
0.188462 -0.629196 -0.140764 76 0 153
-0.102887 -0.623482 0.209859 76 0 153
0.221259 0.070868 0.083652 76 0 153
0.055705 -0.266610 0.229269 76 0 153
0.006950 -0.629196 0.175953 76 0 153
0.116979 0.404581 -0.000454 76 0 153
-0.073704 0.549626 -0.026660 153 76 0
0.093501 0.006962 0.215850 76 0 153
0.087199 -0.580332 0.045577 76 0 153
0.011814 0.749832 0.080490 153 76 0
-0.203343 0.184886 0.114646 76 0 153
-0.228535 0.069486 -0.037136 76 0 153
0.093831 -0.181651 -0.215173 76 0 153
-0.225941 -0.292371 0.057384 76 0 153
-0.069772 -0.589386 0.223576 76 0 153
0.088803 -0.580332 0.016285 76 0 153
-0.040391 0.197162 -0.230077 76 0 153
0.022359 -0.580332 0.111983 76 0 153
-0.228556 -0.058169 0.037516 76 0 153
-0.113823 -0.314709 0.205329 76 0 153
-0.033005 0.937747 -0.087340 76 0 153
-0.185323 -0.173125 -0.079650 76 0 153
0.106055 -0.428676 0.210650 76 0 153
0.184615 0.090179 -0.146797 76 0 153
-0.057088 -0.429975 -0.227879 76 0 153
-0.126750 -0.536152 -0.195448 76 0 153
-0.062594 0.181295 0.226549 76 0 153
-0.168178 -0.629196 0.086858 76 0 153
0.066558 0.231477 -0.226469 76 0 153
-0.064527 0.152641 -0.052149 76 0 153
0.045208 0.593101 0.069305 153 76 0
0.145380 -0.580332 -0.017143 76 0 153
0.060165 0.357977 -0.170625 76 0 153
-0.209792 -0.473399 0.099078 76 0 153
0.137213 0.220180 0.191856 76 0 153
-0.227317 -0.227701 -0.046396 76 0 153
-0.166995 -0.173125 0.139811 76 0 153
0.076237 -0.425883 -0.222461 76 0 153
0.083476 0.944465 0.057274 76 0 153
0.231460 0.110114 -0.053491 76 0 153
0.238127 -0.295149 0.003384 76 0 153
0.199415 -0.164994 0.128050 76 0 153
-0.206919 0.069300 -0.105474 76 0 153
0.223355 -0.629196 0.029387 76 0 153
0.032033 -0.558465 -0.231845 76 0 153
0.030185 -0.629196 -0.191677 76 0 153
-0.121909 0.204744 0.199703 76 0 153
0.100392 -0.289438 -0.212456 76 0 153
0.100410 0.977795 0.008004 76 0 153
-0.233023 -0.621235 -0.003049 76 0 153
0.233735 -0.218723 0.036749 76 0 153
0.074408 0.804468 -0.064188 76 0 153
-0.229810 -0.342562 -0.027453 76 0 153
0.182568 -0.629196 -0.001937 76 0 153
0.089823 -0.547032 0.217374 76 0 153
0.207782 0.349098 -0.079576 76 0 153
0.180139 -0.204073 -0.152630 76 0 153
0.047860 0.152641 -0.016739 76 0 153
0.227651 -0.548976 0.068220 76 0 153
0.029752 0.713345 -0.075856 153 76 0
-0.066021 0.877029 -0.066226 76 0 153
0.005229 -0.334983 0.235915 76 0 153
0.018075 0.190059 -0.233684 76 0 153
-0.044346 -0.023699 -0.229556 76 0 153
0.129250 -0.629196 -0.154376 76 0 153
0.171980 -0.304673 0.163804 76 0 153
-0.025629 0.106854 0.232561 76 0 153
0.222194 -0.173125 -0.001156 76 0 153
0.113450 0.366544 0.117483 76 0 153
0.070841 0.801800 -0.043354 76 0 153
0.007958 0.036097 -0.235015 76 0 153
0.209780 0.250899 0.111364 76 0 153
-0.001745 -0.580332 -0.064434 76 0 153
0.064371 0.916340 -0.072903 76 0 153
-0.031032 0.132154 0.231849 76 0 153
-0.233152 -0.558821 0.002611 76 0 153
0.113299 -0.316777 -0.207110 76 0 153
-0.149087 -0.588129 0.178849 76 0 153
0.228061 -0.471754 -0.066691 76 0 153
-0.192400 -0.375685 0.130575 76 0 153
0.087258 -0.372463 0.218436 76 0 153
0.050217 0.750329 0.065462 76 0 153
-0.135348 -0.582398 0.047175 76 0 153
-0.150081 0.131133 0.178086 76 0 153
0.205453 -0.261278 0.120181 76 0 153
0.087145 0.427789 0.049573 76 0 153
-0.084269 0.450977 -0.002513 153 76 0
-0.228053 -0.091861 -0.040806 76 0 153
0.049730 -0.173125 -0.149695 76 0 153
-0.125491 -0.281637 0.196955 76 0 153
-0.231016 0.210358 -0.018296 76 0 153
-0.203967 0.159921 -0.112599 76 0 153
0.188809 -0.067087 0.141871 76 0 153
0.167710 0.145188 -0.167915 76 0 153
-0.170316 -0.101441 0.159356 76 0 153
0.038242 0.606096 -0.072338 153 76 0
-0.043454 0.999631 0.017663 76 0 153
0.023657 -0.346592 -0.232949 76 0 153
-0.215891 -0.486481 -0.083813 76 0 153
0.006841 -0.460206 -0.235162 76 0 153
0.164185 0.152641 0.148952 76 0 153
0.114395 -0.173125 0.130072 76 0 153
-0.228022 0.107624 0.041578 76 0 153
0.020703 -0.132532 0.233878 76 0 153
-0.232312 -0.261033 -0.008456 76 0 153
-0.218850 0.302393 0.077210 76 0 153
-0.199436 0.345913 0.121406 76 0 153
0.035603 0.072375 -0.231376 76 0 153
0.155677 -0.596851 -0.177148 76 0 153
-0.004645 -0.608597 -0.234784 76 0 153
0.144236 -0.243292 -0.185927 76 0 153
-0.048707 0.571024 0.062725 153 76 0
0.042683 -0.043882 0.230985 76 0 153
-0.122498 0.190152 -0.198711 76 0 153
0.117170 -0.629196 -0.180012 76 0 153
-0.108836 -0.363132 -0.206855 76 0 153
0.027948 -0.580332 0.059083 76 0 153
-0.076620 0.776062 0.057318 76 0 153
-0.056809 0.764198 0.055563 76 0 153
0.099587 0.793977 -0.009355 76 0 153
0.213394 0.306760 0.102639 76 0 153
-0.071407 0.461383 -0.038964 153 76 0
-0.024837 0.053054 0.232665 76 0 153
-0.205630 0.324530 -0.108585 76 0 153
0.099025 0.883578 -0.013616 76 0 153
-0.066368 -0.147521 0.224987 76 0 153
-0.103750 0.355612 -0.152522 76 0 153
-0.019379 -0.245513 -0.232844 76 0 153
0.176218 -0.501750 0.158281 76 0 153
0.196042 -0.192812 -0.131905 76 0 153
0.092253 -0.457683 -0.215827 76 0 153
-0.212656 -0.173125 -0.060648 76 0 153
0.192432 -0.121949 -0.136610 76 0 153
0.124541 0.031024 0.201580 76 0 153
-0.168411 0.354999 -0.077294 76 0 153
0.096055 0.131321 0.214793 76 0 153
-0.226704 -0.410343 -0.051051 76 0 153
0.142288 -0.581932 -0.187421 76 0 153
0.234147 -0.003527 0.033620 76 0 153
-0.046621 0.011242 -0.229258 76 0 153
-0.007034 0.365214 0.163206 76 0 153
-0.160893 -0.093735 -0.169250 76 0 153
-0.033645 -0.173125 0.170432 76 0 153
-0.061942 0.457209 0.055164 153 76 0
0.002660 0.250749 0.236253 76 0 153
-0.037606 -0.461608 0.230985 76 0 153
0.138824 0.181523 -0.190080 76 0 153
0.123197 -0.173125 0.176368 76 0 153
-0.231103 0.303171 0.018172 76 0 153
-0.228705 -0.128215 0.036389 76 0 153
-0.036229 -0.629196 0.218544 76 0 153
0.170813 -0.051173 0.165326 76 0 153
-0.227510 0.068114 0.045465 76 0 153
-0.233359 -0.594341 -0.000502 76 0 153
-0.059128 -0.173125 0.147241 76 0 153
-0.186578 -0.199472 0.138162 76 0 153
0.208435 -0.017981 0.114611 76 0 153
0.003160 -0.173125 -0.217645 76 0 153
0.060106 0.784830 -0.076176 76 0 153
-0.101024 0.217049 -0.210091 76 0 153
-0.091285 0.775377 0.025493 76 0 153
-0.203675 0.302911 0.113845 76 0 153
-0.075068 0.171497 -0.220843 76 0 153
-0.199839 -0.440736 -0.120341 76 0 153
0.232952 -0.192200 0.042699 76 0 153
0.233073 -0.164755 0.041781 76 0 153
0.201833 0.189437 0.124899 76 0 153
-0.082498 0.932666 -0.043339 76 0 153
0.142812 -0.173125 0.149744 76 0 153
-0.077326 0.707081 -0.011709 153 76 0
0.122118 0.290338 0.203439 76 0 153
0.217029 -0.352546 0.093862 76 0 153
0.190310 -0.173125 0.076255 76 0 153
-0.100879 -0.086025 0.210691 76 0 153
-0.091364 -0.535972 0.214633 76 0 153
0.163115 -0.173125 0.100103 76 0 153
0.027426 -0.580332 -0.107672 76 0 153
0.232722 -0.428516 -0.043909 76 0 153
-0.210528 0.137455 -0.096762 76 0 153
0.171475 -0.560354 0.164462 76 0 153
0.167144 -0.331226 -0.168349 76 0 153
0.093204 -0.033181 0.215974 76 0 153
-0.183273 -0.085928 -0.141929 76 0 153
0.142930 -0.173125 0.038281 76 0 153
0.118204 -0.173125 0.065418 76 0 153
-0.098277 -0.580332 0.050154 76 0 153
-0.160093 -0.063920 0.170403 76 0 153
0.200071 0.351771 0.045640 76 0 153
-0.080790 0.350696 -0.188701 76 0 153
-0.120835 0.152641 0.077139 76 0 153
-0.112299 -0.032077 0.205961 76 0 153
0.025769 -0.580332 0.130639 76 0 153
-0.129997 -0.413563 0.193497 76 0 153
0.018014 0.348833 0.224011 76 0 153
0.237986 -0.556682 0.004459 76 0 153
-0.213070 -0.027900 0.091164 76 0 153
-0.037751 0.152641 -0.001870 76 0 153
-0.205357 0.144349 0.109784 76 0 153
0.037174 0.949494 0.093343 76 0 153
-0.125648 -0.442846 0.196835 76 0 153
0.113481 0.152641 -0.115778 76 0 153
0.009107 0.713939 -0.080307 153 76 0
0.217030 -0.021037 0.093860 76 0 153
0.095661 0.051502 0.214956 76 0 153
0.027346 -0.580332 -0.000609 76 0 153
0.089194 0.260948 -0.217093 76 0 153
0.045023 -0.580332 0.132055 76 0 153
0.138091 -0.173125 -0.086526 76 0 153
0.008613 -0.122990 -0.234929 76 0 153
-0.195732 -0.169947 0.126232 76 0 153
0.069741 -0.173125 0.047689 76 0 153
-0.014009 0.021812 0.234090 76 0 153
-0.054064 -0.421080 0.228818 76 0 153
0.237344 0.112421 -0.008795 76 0 153
-0.062476 -0.041520 0.226599 76 0 153
0.225537 -0.028182 0.073324 76 0 153
-0.010667 0.543559 0.034492 153 76 0
0.175464 -0.173125 0.154915 76 0 153
-0.221885 0.187768 0.069883 76 0 153
-0.227946 -0.262735 -0.041610 76 0 153
0.173729 -0.629196 0.095432 76 0 153
-0.205426 -0.566983 -0.109080 76 0 153
0.225050 -0.046523 -0.073960 76 0 153
-0.087112 -0.173125 0.155572 76 0 153
-0.172256 0.025503 0.156828 76 0 153
-0.055583 0.831924 0.079315 76 0 153
-0.092998 0.772519 -0.007578 76 0 153
0.064969 0.537154 0.049851 153 76 0
-0.168611 -0.144303 0.161578 76 0 153
-0.015957 -0.185092 -0.233294 76 0 153
-0.164005 0.167322 -0.166862 76 0 153
-0.075738 0.768455 0.022290 76 0 153
-0.232749 0.148397 0.005670 76 0 153
-0.151818 -0.173125 -0.116587 76 0 153
0.007437 0.543559 -0.038469 153 76 0
-0.125003 -0.137765 0.197330 76 0 153
-0.120975 0.385336 0.049283 76 0 153
-0.042242 0.269429 0.230374 76 0 153
0.211336 -0.047381 -0.107067 76 0 153
-0.058365 0.999631 0.071821 76 0 153
0.171643 0.170348 -0.163702 76 0 153
0.059732 -0.626813 -0.133354 76 0 153
-0.110603 -0.173125 0.076169 76 0 153
0.145267 0.377210 -0.010603 76 0 153
0.093664 0.852330 -0.032854 76 0 153
-0.209992 -0.584119 -0.098054 76 0 153
-0.169766 0.277685 -0.159534 76 0 153
0.218908 0.349294 0.022886 76 0 153
-0.185247 -0.601776 0.139898 76 0 153
-0.067639 0.654973 -0.040911 153 76 0
-0.002832 0.352343 -0.199997 76 0 153
0.169804 -0.587448 0.166639 76 0 153
-0.115252 0.358325 0.135582 76 0 153
0.165966 0.152641 -0.019507 76 0 153
-0.090011 0.262062 0.215193 76 0 153
-0.030794 -0.580332 -0.029273 76 0 153
0.233030 -0.303012 0.042105 76 0 153
-0.078774 -0.018821 0.219848 76 0 153
0.094827 -0.334135 -0.214761 76 0 153
0.071784 -0.337401 -0.224305 76 0 153
0.230663 -0.366679 0.060080 76 0 153
0.095047 0.950018 -0.029515 76 0 153
-0.045379 -0.580332 0.118613 76 0 153
-0.097106 -0.173125 0.022913 76 0 153
-0.056016 0.779352 0.078983 76 0 153
0.019212 0.539130 -0.078257 153 76 0
0.232782 0.163229 0.043986 76 0 153
-0.041982 0.221303 -0.229868 76 0 153
0.164167 0.302547 0.171174 76 0 153
0.093655 0.949362 0.037780 76 0 153
0.226741 -0.118028 -0.069877 76 0 153
-0.076211 0.485974 -0.000159 153 76 0
0.076737 0.586618 -0.031595 153 76 0
-0.227366 -0.194399 0.046559 76 0 153
-0.193322 -0.260053 0.129375 76 0 153
-0.116364 0.152641 -0.127782 76 0 153
0.018792 0.824454 -0.093253 76 0 153
0.009853 -0.430589 -0.234766 76 0 153
0.077841 0.404585 0.085617 76 0 153
-0.051483 0.152641 0.137985 76 0 153
-0.016463 0.246915 0.233767 76 0 153
0.072625 0.465855 0.043629 153 76 0
-0.083756 -0.626875 -0.116711 76 0 153
-0.004747 -0.354691 -0.234769 76 0 153
0.126160 -0.385242 -0.199796 76 0 153
0.008332 0.986359 0.099533 76 0 153
0.171684 0.275456 -0.163649 76 0 153
-0.231516 0.175725 -0.014497 76 0 153
-0.155649 0.088861 -0.173273 76 0 153
0.079274 0.660983 -0.025470 153 76 0
0.076866 -0.308824 -0.222200 76 0 153
-0.177142 -0.173125 -0.003899 76 0 153
0.232033 -0.519951 0.049678 76 0 153
-0.197471 -0.024120 0.123967 76 0 153
-0.012886 0.776290 -0.093132 76 0 153
-0.228112 -0.581379 -0.040352 76 0 153
0.050480 -0.583718 -0.229418 76 0 153
-0.050419 0.365713 0.153612 76 0 153
0.076234 0.487391 0.026003 153 76 0
-0.084370 -0.320392 0.217530 76 0 153
-0.029948 0.543559 -0.016889 153 76 0
0.101123 0.950900 0.002322 76 0 153
-0.049782 0.088250 0.229381 76 0 153
0.032447 0.247610 -0.231791 76 0 153
-0.226863 -0.398219 0.050384 76 0 153
-0.001637 -0.615780 0.146315 76 0 153
0.170149 0.152641 0.107338 76 0 153
-0.202358 0.256768 0.117024 76 0 153
-0.093992 0.196766 0.213543 76 0 153
-0.232961 -0.326121 -0.003519 76 0 153
0.207083 -0.445792 0.117874 76 0 153
-0.062992 0.545818 0.047505 153 76 0
-0.026398 -0.173125 0.078749 76 0 153
0.115732 0.377816 -0.085762 76 0 153
0.012949 -0.613971 -0.144954 76 0 153
-0.208062 -0.078778 -0.102715 76 0 153
-0.079742 -0.173125 -0.080576 76 0 153
-0.011443 0.630388 -0.079330 153 76 0
-0.116668 -0.595800 -0.083125 76 0 153
0.043197 -0.328078 -0.230376 76 0 153
0.046172 0.755307 0.029091 76 0 153
0.206152 0.173749 0.119269 76 0 153
0.002656 -0.580332 -0.025827 76 0 153
0.082696 0.348677 0.211687 76 0 153
-0.055309 -0.173125 0.090022 76 0 153
0.039267 0.384570 -0.129357 76 0 153
0.103054 -0.580332 0.082867 76 0 153
-0.187477 -0.181048 0.136992 76 0 153
-0.050913 0.655846 0.061033 153 76 0
-0.013596 -0.108661 0.234144 76 0 153
-0.227491 0.280947 -0.045072 76 0 153
-0.145210 -0.173125 0.003104 76 0 153
-0.220447 -0.084635 -0.072812 76 0 153
-0.214184 0.345305 0.088474 76 0 153
0.118213 -0.295458 -0.205075 76 0 153
-0.100084 0.183975 -0.210480 76 0 153
-0.075895 0.590468 0.021910 153 76 0
0.178868 -0.393026 -0.154287 76 0 153
-0.032857 0.348380 0.227700 76 0 153
-0.166047 -0.173125 0.114253 76 0 153
0.147382 0.152641 -0.175568 76 0 153
0.008710 0.558018 -0.080359 153 76 0
0.235920 -0.573606 -0.019611 76 0 153
0.192935 0.348767 -0.120811 76 0 153
-0.187189 0.330356 -0.136827 76 0 153
-0.027354 0.389996 -0.123990 76 0 153
-0.049572 0.637347 -0.061520 153 76 0
0.134774 -0.629196 -0.109091 76 0 153
0.236279 0.057057 -0.016886 76 0 153
-0.213234 0.069787 0.090768 76 0 153
-0.203180 -0.204515 0.115041 76 0 153
0.221681 -0.128671 -0.082092 76 0 153
-0.024571 -0.518160 0.232700 76 0 153
-0.160040 0.307163 -0.169904 76 0 153
0.229392 -0.566873 -0.063476 76 0 153
-0.118639 0.256726 0.202212 76 0 153
-0.061173 0.152641 -0.148990 76 0 153
-0.057405 0.804314 0.077918 76 0 153
0.236612 -0.399201 -0.014357 76 0 153
-0.014424 -0.173125 0.045081 76 0 153
-0.122169 0.349250 0.179455 76 0 153
0.139777 0.152641 0.102096 76 0 153
-0.226997 0.122352 -0.048822 76 0 153
0.080825 0.157949 0.221101 76 0 153
0.091405 0.772046 0.043213 76 0 153
0.024211 -0.371522 -0.232876 76 0 153
0.121666 0.193353 0.203785 76 0 153
-0.129464 0.383384 -0.033518 76 0 153
0.034321 -0.173125 -0.081965 76 0 153
-0.179755 -0.140341 -0.146515 76 0 153
-0.126789 0.083441 -0.195418 76 0 153
-0.091305 0.429742 0.024257 76 0 153
0.002521 0.487471 -0.078321 153 76 0
-0.228695 0.198097 -0.035926 76 0 153
-0.105261 0.137599 -0.208336 76 0 153
-0.230735 -0.491975 0.020975 76 0 153
-0.029568 0.297930 -0.231501 76 0 153
-0.134199 0.348555 -0.181800 76 0 153
0.198126 -0.562086 -0.129190 76 0 153
0.134633 0.366778 0.091130 76 0 153
-0.228763 -0.322592 0.035954 76 0 153
-0.085436 -0.516521 -0.216547 76 0 153
-0.205885 -0.351140 0.108510 76 0 153
-0.155698 -0.629196 0.107037 76 0 153
-0.232545 0.083572 -0.006682 76 0 153
0.231726 -0.489981 -0.051473 76 0 153
0.231409 0.178723 0.054415 76 0 153
-0.049133 -0.259211 0.229466 76 0 153
-0.170403 0.338423 -0.158702 76 0 153
-0.221877 0.335045 -0.069360 76 0 153
-0.087946 -0.360861 0.216048 76 0 153
0.130104 -0.086051 -0.196770 76 0 153
0.020522 0.152641 -0.006302 76 0 153
-0.196406 0.349551 -0.078418 76 0 153
0.198582 0.164562 -0.128596 76 0 153
-0.026556 0.552182 0.075615 153 76 0
0.007058 -0.268016 -0.235134 76 0 153
0.046734 -0.094032 0.230450 76 0 153
0.088099 0.921929 -0.046288 76 0 153
-0.082233 0.832002 -0.043980 76 0 153
0.236999 -0.351251 -0.011419 76 0 153
0.020658 0.071228 0.233884 76 0 153
-0.210440 0.349656 0.010283 76 0 153
-0.110040 -0.173125 0.127100 76 0 153
0.004367 -0.629196 -0.189132 76 0 153
-0.073026 0.838949 0.062002 76 0 153
-0.223167 -0.260304 0.066787 76 0 153
0.018771 -0.091958 -0.233592 76 0 153
0.232136 0.265913 0.048892 76 0 153
0.021507 -0.173125 0.111130 76 0 153
-0.141787 -0.590409 0.017508 76 0 153
0.158811 0.041756 -0.174744 76 0 153
-0.064280 0.404759 -0.091386 153 76 0
0.238052 -0.622500 -0.003416 76 0 153
-0.066443 0.368832 -0.140646 76 0 153
0.004650 0.569463 0.081434 153 76 0
-0.016164 -0.417700 -0.233266 76 0 153
0.100722 -0.072439 0.212859 76 0 153
0.089154 -0.016584 -0.217111 76 0 153
-0.050622 0.152641 -0.180200 76 0 153
0.209080 -0.629196 -0.098277 76 0 153
0.091954 0.176009 -0.215950 76 0 153
-0.073045 -0.580332 -0.060599 76 0 153
-0.132695 0.006924 -0.190886 76 0 153
0.157992 -0.629196 -0.128265 76 0 153
-0.080601 -0.629196 -0.205803 76 0 153
0.236244 -0.574401 0.017692 76 0 153
0.045967 0.739188 -0.068182 153 76 0
0.162757 0.162473 0.172256 76 0 153
-0.221322 -0.622074 0.071241 76 0 153
0.235935 0.028893 0.020039 76 0 153
0.024099 -0.173125 -0.195632 76 0 153
0.136749 -0.629196 0.086532 76 0 153
0.028294 -0.008819 0.232879 76 0 153
-0.136240 0.063227 -0.188166 76 0 153
-0.201650 -0.574806 0.118521 76 0 153
0.081523 0.619831 0.018934 153 76 0
-0.160016 -0.333513 -0.169923 76 0 153
-0.092294 0.915198 0.017823 76 0 153
0.183995 -0.588179 0.148147 76 0 153
0.197403 0.129463 0.130672 76 0 153
0.124331 0.392795 0.027644 76 0 153
-0.124029 -0.118704 -0.197536 76 0 153
0.117764 0.071529 0.205800 76 0 153
-0.140382 0.142265 0.185528 76 0 153
-0.232876 -0.462231 0.004709 76 0 153
-0.110625 -0.629196 0.181114 76 0 153
-0.078258 0.090017 -0.219521 76 0 153
0.093951 0.205146 -0.215123 76 0 153
0.123000 0.389547 -0.042491 76 0 153
-0.133346 0.354298 0.136363 76 0 153
0.171359 -0.614232 0.164612 76 0 153
0.065816 0.693993 -0.049902 153 76 0
0.047805 0.656813 -0.066773 153 76 0
0.168153 0.220285 0.168116 76 0 153
-0.016635 0.755307 -0.085536 76 0 153
0.052522 0.703123 0.063693 153 76 0
-0.184839 0.172557 -0.139888 76 0 153
0.101070 0.417500 0.034214 76 0 153
0.238466 -0.589201 -0.000277 76 0 153
-0.122699 0.053091 -0.198557 76 0 153
-0.210713 -0.412091 0.096854 76 0 153
0.115206 0.041708 -0.206320 76 0 153
-0.186450 0.313551 0.138330 76 0 153
0.142359 -0.110692 -0.187367 76 0 153
0.236256 -0.456792 0.017600 76 0 153
0.232020 0.288660 -0.049238 76 0 153
-0.186853 -0.297422 -0.137264 76 0 153
0.199932 0.152641 0.083864 76 0 153
0.026041 0.376581 -0.141580 76 0 153
0.174806 -0.173125 0.020969 76 0 153
-0.157096 0.349261 -0.149663 76 0 153
-0.014743 -0.391523 0.233994 76 0 153
0.122184 -0.133961 0.203388 76 0 153
0.065367 -0.512475 -0.226963 76 0 153
0.234155 0.126965 -0.033019 76 0 153
0.158574 -0.084955 -0.174925 76 0 153
0.193716 -0.187922 0.135477 76 0 153
0.028277 -0.629196 -0.162803 76 0 153
-0.040532 0.749290 -0.068457 153 76 0
0.175176 -0.523795 -0.159098 76 0 153
-0.137372 -0.629196 0.064993 76 0 153
0.012051 0.999631 -0.082526 76 0 153
-0.162053 0.348825 0.153648 76 0 153
-0.036579 -0.498941 0.231119 76 0 153
0.097185 -0.405398 0.214324 76 0 153
0.231871 -0.068257 -0.050365 76 0 153
0.121952 -0.265019 -0.203026 76 0 153
-0.045120 -0.593893 0.137845 76 0 153
-0.013525 0.439449 -0.090015 153 76 0
-0.102979 0.152641 0.029889 76 0 153
0.183162 0.114741 0.149232 76 0 153
-0.061864 0.639046 -0.048436 153 76 0
-0.060564 -0.173125 0.128341 76 0 153
-0.007072 -0.040336 -0.234463 76 0 153
-0.072660 0.514764 0.018193 153 76 0
0.099791 0.916769 -0.007802 76 0 153
0.008153 -0.514739 0.235530 76 0 153
0.030519 0.775493 0.076077 76 0 153
0.063362 0.063932 -0.227721 76 0 153
-0.145539 -0.173125 -0.014359 76 0 153
0.070447 0.604026 0.044407 153 76 0
0.173558 0.349649 0.126559 76 0 153
-0.134788 -0.381911 0.189821 76 0 153
0.046539 0.152641 0.159991 76 0 153
-0.062552 0.338378 0.226567 76 0 153
0.161386 0.152641 0.047060 76 0 153
0.038256 -0.173125 0.167325 76 0 153
0.236055 -0.188824 -0.018581 76 0 153
0.027836 0.621751 0.077189 153 76 0
0.052131 0.619128 -0.063453 153 76 0
-0.040430 0.384307 0.127665 76 0 153
0.191743 0.349478 0.105100 76 0 153
0.182335 0.163739 -0.149767 76 0 153
-0.172874 -0.629196 0.121005 76 0 153
-0.015545 0.539926 -0.078200 153 76 0
0.004119 0.348312 0.233099 76 0 153
0.226445 0.171066 -0.070590 76 0 153
-0.213653 -0.066624 0.089757 76 0 153
0.066095 0.154672 -0.226663 76 0 153
-0.078821 0.670327 0.000890 153 76 0
0.102996 -0.173125 0.047323 76 0 153
-0.055831 0.674433 0.056839 153 76 0
0.218870 -0.097657 0.089418 76 0 153
0.029927 0.999631 0.005402 76 0 153
0.099718 0.349123 0.197957 76 0 153
-0.009874 0.999631 0.009189 76 0 153
-0.038067 -0.145884 0.230923 76 0 153
-0.005915 -0.580332 0.070071 76 0 153
0.167166 0.302298 -0.168331 76 0 153
-0.009882 0.050451 -0.234093 76 0 153
0.040814 0.488076 0.068665 153 76 0
-0.161841 -0.538442 0.169062 76 0 153
0.237257 -0.375646 0.009998 76 0 153
-0.211714 -0.551975 -0.093898 76 0 153
-0.128740 -0.617793 -0.062588 76 0 153
0.190988 -0.629196 0.058541 76 0 153
0.088364 -0.366894 -0.217438 76 0 153
0.230238 -0.087873 0.061975 76 0 153
-0.031132 0.973731 -0.088116 76 0 153
0.098018 -0.136075 0.213979 76 0 153
-0.183604 -0.506039 -0.141498 76 0 153
-0.083922 -0.433958 -0.217175 76 0 153
-0.115023 0.232998 0.204833 76 0 153
-0.017777 -0.141800 -0.233054 76 0 153
-0.031258 0.297240 0.231820 76 0 153
-0.077798 0.698080 0.008661 153 76 0
0.198634 0.099950 0.129068 76 0 153
-0.052121 0.793296 -0.077069 76 0 153
-0.046901 0.348891 -0.218190 76 0 153
0.030705 0.332466 0.232561 76 0 153
-0.151880 -0.158099 0.176705 76 0 153
0.032639 0.795026 -0.074659 76 0 153
0.120273 -0.536164 -0.204221 76 0 153
-0.163903 0.272032 0.167480 76 0 153
-0.152469 0.152641 0.133137 76 0 153
0.234842 0.104472 0.028342 76 0 153
-0.009317 -0.155731 -0.234168 76 0 153
0.234039 0.087962 -0.033904 76 0 153
-0.233348 -0.238964 0.001124 76 0 153
0.212716 -0.594932 0.104276 76 0 153
0.072669 0.999631 0.044730 76 0 153
-0.081226 -0.451113 -0.218292 76 0 153
-0.027555 0.013232 0.232307 76 0 153
0.173986 -0.173125 -0.038875 76 0 153
-0.225975 -0.483693 -0.056587 76 0 153
-0.148578 0.319424 -0.178699 76 0 153
-0.069008 -0.203598 -0.223353 76 0 153
-0.217184 0.168765 -0.080693 76 0 153
-0.004676 0.806464 -0.094213 76 0 153
-0.166928 -0.173125 0.008974 76 0 153
-0.083351 -0.084537 -0.217411 76 0 153
-0.009359 0.628511 0.080145 153 76 0
0.052605 0.819197 0.063629 76 0 153
0.172999 -0.173125 0.043752 76 0 153
0.233076 -0.346669 -0.041211 76 0 153
-0.092985 -0.629196 0.119154 76 0 153
0.231795 -0.143466 -0.050946 76 0 153
0.210474 -0.330398 0.109690 76 0 153
0.075748 -0.171212 -0.222664 76 0 153
-0.193758 -0.510522 -0.128265 76 0 153
0.093699 -0.618429 0.113518 76 0 153
-0.212319 -0.248850 -0.092436 76 0 153
0.165949 0.091069 -0.169266 76 0 153
0.191623 0.349737 -0.095516 76 0 153
0.163373 0.064612 -0.171244 76 0 153
0.185537 0.114897 -0.145594 76 0 153
0.198752 -0.173125 0.024432 76 0 153
-0.098757 0.420675 -0.010964 76 0 153
0.007570 0.746572 -0.080509 153 76 0
-0.062428 0.036810 0.226618 76 0 153
-0.167876 -0.438601 -0.161994 76 0 153
0.230863 -0.333220 0.058566 76 0 153
-0.093510 -0.580332 0.100867 76 0 153
-0.184212 0.106073 0.141246 76 0 153
-0.214188 0.307699 -0.087922 76 0 153
-0.121705 -0.629196 0.104312 76 0 153
-0.133345 -0.017347 -0.190388 76 0 153
-0.105018 0.152641 -0.195402 76 0 153
0.236118 -0.604043 0.018648 76 0 153
0.082609 0.705398 0.010679 153 76 0
0.083311 0.676751 0.005351 153 76 0
0.062596 -0.580332 0.107479 76 0 153
-0.153889 -0.218062 0.175165 76 0 153
-0.078074 -0.173125 -0.047153 76 0 153
-0.213487 0.243449 0.090158 76 0 153
0.195163 -0.318162 0.133592 76 0 153
0.098551 0.796518 0.022127 76 0 153
0.049625 -0.173125 0.020145 76 0 153
-0.020606 -0.571516 0.233223 76 0 153
-0.178444 -0.015357 0.148763 76 0 153
-0.083753 0.152641 -0.113579 76 0 153
-0.054130 0.695799 0.058563 153 76 0
0.162216 0.366418 -0.018238 76 0 153
0.055810 -0.170836 -0.228716 76 0 153
0.179623 -0.465117 0.153843 76 0 153
-0.147138 -0.127476 0.180344 76 0 153
0.035174 0.199702 0.231973 76 0 153
-0.052051 -0.580332 0.091085 76 0 153
-0.184496 0.348496 0.131884 76 0 153
0.033432 -0.173125 0.183789 76 0 153
-0.227559 -0.456945 -0.044554 76 0 153
-0.006201 0.301875 0.235118 76 0 153
0.023087 -0.296808 0.233563 76 0 153
-0.231265 0.220798 0.016945 76 0 153
-0.094578 -0.058470 -0.212761 76 0 153
0.184924 -0.629196 -0.103257 76 0 153
0.077276 0.782797 0.030833 76 0 153
-0.195140 -0.456666 0.127006 76 0 153
0.087257 0.152641 -0.202513 76 0 153
-0.071048 0.964453 -0.059677 76 0 153
-0.037993 0.152641 0.192632 76 0 153
0.080039 0.566613 -0.023622 153 76 0
-0.226589 0.205139 -0.051922 76 0 153
0.188780 -0.173125 0.119051 76 0 153
-0.196082 -0.483218 0.125777 76 0 153
-0.182079 0.152641 -0.061280 76 0 153
0.056092 -0.580332 -0.121483 76 0 153
0.235071 -0.544532 -0.026060 76 0 153
-0.143383 -0.592175 -0.004842 76 0 153
0.194019 -0.342773 0.135081 76 0 153
0.091925 0.791460 0.041958 76 0 153
-0.180903 -0.063370 0.145559 76 0 153
0.137108 -0.492864 -0.191396 76 0 153
0.075374 0.821404 -0.062930 76 0 153
-0.204139 -0.014573 -0.112185 76 0 153
0.221317 -0.001299 -0.082972 76 0 153
0.042871 0.094946 0.230960 76 0 153
0.232562 -0.550846 0.045660 76 0 153
-0.126548 -0.580332 -0.028215 76 0 153
-0.091210 -0.291930 0.214697 76 0 153
0.069606 -0.064009 0.225748 76 0 153
0.128631 -0.605250 -0.074151 76 0 153
0.131914 -0.446889 0.195922 76 0 153
-0.069067 -0.173125 -0.159356 76 0 153
0.180722 0.152641 0.018364 76 0 153
-0.205313 -0.085991 0.109891 76 0 153
-0.004635 -0.492073 -0.234785 76 0 153
-0.128596 -0.016792 0.194572 76 0 153
0.219371 -0.540356 -0.087668 76 0 153
0.185034 -0.629196 -0.076973 76 0 153
-0.089900 -0.054821 0.215240 76 0 153
-0.131830 -0.607906 -0.191550 76 0 153
-0.049078 -0.609619 -0.135665 76 0 153
0.170397 -0.363842 -0.165327 76 0 153
-0.099314 0.114655 -0.210800 76 0 153
0.081004 0.681719 -0.021291 153 76 0
-0.078284 0.801503 -0.004429 76 0 153
0.154101 0.273246 0.178898 76 0 153
0.110188 0.036388 0.208938 76 0 153
0.043959 -0.173125 0.139048 76 0 153
-0.010720 -0.173125 0.128380 76 0 153
-0.076712 0.546670 0.016911 153 76 0
-0.017422 0.018220 -0.233102 76 0 153
-0.037889 -0.565702 -0.230406 76 0 153
0.165371 -0.629196 -0.048791 76 0 153
-0.147478 0.287081 0.180084 76 0 153
0.029829 0.837861 0.096387 76 0 153
0.231571 0.084931 0.053181 76 0 153
-0.151135 -0.629196 -0.154238 76 0 153
-0.069300 -0.173125 -0.190613 76 0 153
-0.200919 0.037650 -0.118933 76 0 153
-0.023647 0.954250 0.096120 76 0 153
-0.225921 -0.629196 0.029463 76 0 153
-0.082079 0.152641 -0.167037 76 0 153
-0.055453 -0.580332 0.061832 76 0 153
-0.037281 -0.535716 -0.230487 76 0 153
0.140139 -0.293681 -0.189071 76 0 153
0.221252 -0.448591 0.083669 76 0 153
-0.198022 -0.104676 -0.122709 76 0 153
0.046471 0.584386 -0.067796 153 76 0
-0.015042 0.467431 -0.079649 153 76 0
0.221254 0.078850 -0.083123 76 0 153
-0.137976 -0.316992 -0.186834 76 0 153
0.059041 -0.360393 0.228831 76 0 153
0.094168 0.148271 0.215575 76 0 153
0.227064 0.336797 0.069637 76 0 153
-0.115129 0.152641 0.168260 76 0 153
-0.018648 0.353399 0.193790 76 0 153
-0.076880 0.798021 0.015636 76 0 153
-0.063041 0.436631 -0.066550 153 76 0
-0.186189 0.261884 -0.138130 76 0 153
-0.006087 -0.580332 -0.082529 76 0 153
0.004170 0.088937 0.236055 76 0 153
0.139578 -0.287992 0.190042 76 0 153
-0.158270 0.215355 -0.171262 76 0 153
0.116549 -0.598922 0.206304 76 0 153
0.147576 -0.386427 0.183904 76 0 153
-0.066207 0.060668 -0.224512 76 0 153
-0.225290 -0.398072 -0.061123 76 0 153
-0.226527 -0.516004 -0.052395 76 0 153
-0.231357 -0.025700 -0.015710 76 0 153
0.234334 0.010245 -0.031664 76 0 153
0.034970 0.152641 0.112868 76 0 153
0.198823 -0.489856 -0.128281 76 0 153
0.072770 0.029636 0.224438 76 0 153
0.024425 -0.628781 0.143982 76 0 153
-0.060043 -0.547673 -0.227066 76 0 153
-0.172476 -0.555662 -0.156000 76 0 153
0.192902 -0.402783 -0.135997 76 0 153
0.199141 0.046074 0.128406 76 0 153
0.220364 -0.323283 0.085811 76 0 153
-0.045922 -0.580332 0.000393 76 0 153
0.178958 -0.364690 0.154710 76 0 153
-0.063892 0.864699 0.072941 76 0 153
0.061970 0.588391 0.055454 153 76 0
0.144811 -0.173125 -0.143460 76 0 153
-0.062768 0.803704 -0.047258 76 0 153
-0.131431 0.033687 -0.191856 76 0 153
0.146087 -0.588549 0.023408 76 0 153
-0.229075 -0.027831 0.033579 76 0 153
0.078684 -0.173125 -0.102773 76 0 153
-0.013033 -0.173125 -0.197397 76 0 153
0.050662 0.348609 0.222830 76 0 153
-0.104882 0.068337 -0.208494 76 0 153
-0.136802 -0.173125 -0.170457 76 0 153
0.049314 -0.391732 0.230111 76 0 153
0.089369 -0.629196 0.207410 76 0 153
0.092435 -0.580576 0.114488 76 0 153
0.085503 -0.173125 -0.152520 76 0 153
-0.180525 0.357170 0.003969 76 0 153
-0.214925 0.216944 0.086685 76 0 153
-0.096531 0.152641 0.197832 76 0 153
-0.089747 -0.503959 0.215302 76 0 153
-0.060544 0.543559 -0.000697 153 76 0
0.024661 0.152641 0.087898 76 0 153
0.079411 -0.173125 -0.044203 76 0 153
0.066991 0.445145 0.062362 153 76 0
0.182341 0.152641 0.125011 76 0 153
-0.116876 -0.067795 -0.203026 76 0 153
0.227018 0.277127 0.069747 76 0 153
0.027490 0.543559 -0.045024 153 76 0
0.103513 0.319281 -0.211163 76 0 153
-0.136392 -0.183304 0.188590 76 0 153
0.126564 -0.405594 0.200028 76 0 153
0.214005 -0.067799 -0.100624 76 0 153
0.176614 0.216775 -0.157224 76 0 153
0.078743 0.575391 0.027293 153 76 0
-0.072118 0.668839 0.031030 153 76 0
-0.158640 0.352022 -0.119301 76 0 153
-0.083175 0.999631 -0.008461 76 0 153
0.030866 -0.626967 0.232540 76 0 153
0.164208 0.068025 0.171143 76 0 153
0.060021 0.506575 0.051536 153 76 0
0.182313 0.141645 -0.149797 76 0 153
0.098417 0.926259 0.023148 76 0 153
0.094794 0.241013 0.215314 76 0 153
0.031542 0.519334 0.071537 153 76 0
-0.031913 -0.173125 0.186585 76 0 153
0.030067 0.006466 -0.232104 76 0 153
0.157515 0.152641 0.022026 76 0 153
-0.029704 0.599391 -0.073772 153 76 0
0.074459 0.469070 -0.037870 153 76 0
-0.153532 -0.629196 0.033863 76 0 153
0.055325 0.783632 -0.061002 76 0 153
-0.060794 -0.441853 0.227295 76 0 153
-0.011099 0.245293 -0.233933 76 0 153
0.086057 0.152641 0.185455 76 0 153
-0.080349 -0.580332 0.074502 76 0 153
0.020522 0.657411 -0.078804 153 76 0
0.221099 -0.629196 0.058235 76 0 153
0.041431 0.543559 0.024285 153 76 0
-0.134562 -0.173125 -0.094852 76 0 153
-0.111110 -0.580332 0.076365 76 0 153
-0.222158 0.017150 0.069222 76 0 153
-0.161459 -0.282644 -0.168815 76 0 153
-0.117600 -0.225258 -0.202470 76 0 153
-0.000217 -0.173125 -0.008431 76 0 153
0.178900 0.152641 0.143096 76 0 153
0.118080 -0.580332 0.004890 76 0 153
-0.022822 -0.382398 -0.232390 76 0 153
0.067162 0.152641 -0.076881 76 0 153
0.083936 -0.173125 -0.185279 76 0 153
-0.052230 -0.580332 -0.130080 76 0 153
0.084271 0.091257 -0.219133 76 0 153
-0.112935 0.082298 -0.205158 76 0 153
0.009473 -0.173125 0.134649 76 0 153
0.010937 -0.583609 -0.234623 76 0 153
0.165533 -0.383366 0.170125 76 0 153
0.172607 -0.173125 -0.150845 76 0 153
0.219973 0.009771 0.086756 76 0 153
-0.028698 -0.016589 -0.231616 76 0 153
-0.224622 -0.362277 -0.062735 76 0 153
-0.097365 -0.173125 -0.115855 76 0 153
-0.175353 0.357763 0.031749 76 0 153
0.138731 0.349589 -0.164190 76 0 153
0.233294 -0.238289 -0.039559 76 0 153
-0.165911 0.182849 -0.164557 76 0 153
-0.042886 -0.119972 0.230289 76 0 153
0.089769 0.041315 -0.216856 76 0 153
-0.110769 -0.109683 -0.206055 76 0 153
-0.092038 0.892929 -0.014870 76 0 153
0.034211 -0.206773 -0.231560 76 0 153
0.183725 -0.038574 0.148498 76 0 153
0.061982 -0.005925 -0.227903 76 0 153
0.071535 0.755307 0.009061 76 0 153
-0.162497 -0.125698 0.168560 76 0 153
0.146280 0.152641 0.133883 76 0 153
-0.107571 0.350338 -0.177471 76 0 153
0.051663 0.152641 0.221765 76 0 153
-0.230744 -0.431162 -0.020359 76 0 153
-0.227528 0.041687 0.045324 76 0 153
0.102827 -0.260083 -0.211447 76 0 153
0.041430 -0.133738 -0.230609 76 0 153
