ply
format ascii 1.0
element vertex 1244
property float x
property float y
property float z
property uchar red
property uchar green
property uchar blue
end_header
0.112476 0.408635 -0.055827 255 0 0
-0.118304 -0.026599 0.799987 153 0 76
0.142032 0.184458 -0.502497 127 0 127
-0.225806 -0.660367 0.230619 127 0 127
0.067482 -0.660367 -0.144806 127 0 127
0.080876 -0.660367 0.282822 127 0 127
-0.187825 0.446134 -0.350761 127 0 127
0.118516 0.020814 -0.502497 127 0 127
-0.362719 0.074926 -0.502497 127 0 127
0.410634 -0.217454 -0.057014 127 0 127
-0.139761 0.293175 -0.518147 127 0 127
-0.399549 0.132140 0.115853 127 0 127
-0.435546 -0.370101 0.310795 127 0 127
-0.034972 -0.197234 0.369244 127 0 127
0.279061 -0.459407 -0.518147 127 0 127
-0.435546 0.541805 -0.502329 127 0 127
-0.435546 -0.246913 0.150667 127 0 127
-0.031311 0.446134 0.004092 127 0 127
-0.435546 0.045593 -0.023544 127 0 127
-0.394854 -0.068916 -0.085995 127 0 127
-0.240241 0.607335 -0.466999 127 0 127
0.414769 -0.660367 0.043280 127 0 127
-0.435546 0.456419 0.071425 127 0 127
0.327931 -0.660367 -0.256888 127 0 127
-0.435546 0.248637 -0.251411 127 0 127
-0.342196 0.482130 0.420366 127 0 127
0.070963 0.170066 -0.502497 127 0 127
-0.204462 0.446134 0.183566 127 0 127
0.428370 0.259461 -0.287296 127 0 127
-0.289709 0.167946 -0.518147 127 0 127
-0.435546 0.264141 -0.098514 127 0 127
0.195708 0.607335 0.248792 127 0 127
-0.367207 -0.062429 0.775584 153 0 76
0.172442 0.446134 -0.319524 127 0 127
-0.360968 -0.002753 -0.518147 127 0 127
-0.394854 -0.073495 -0.345747 127 0 127
0.313657 -0.571150 -0.518147 127 0 127
-0.370812 -0.027599 0.713164 153 0 76
-0.435546 0.400967 -0.358995 127 0 127
-0.049234 0.555460 -0.518147 127 0 127
-0.399549 0.308244 0.299930 127 0 127
-0.103146 -0.222398 -0.518147 127 0 127
-0.294555 -0.217454 -0.205719 127 0 127
0.366262 -0.217454 0.021687 127 0 127
-0.111066 0.607335 -0.278330 127 0 127
-0.435546 0.564318 -0.268857 127 0 127
-0.435546 0.431445 0.372896 127 0 127
-0.290064 -0.428639 0.413066 127 0 127
0.366345 0.446134 -0.199658 127 0 127
-0.025189 0.408910 -0.098697 255 0 0
0.144260 -0.660367 -0.235840 127 0 127
-0.399549 0.188758 0.057618 127 0 127
0.248403 0.134111 -0.518147 127 0 127
-0.394854 -0.043149 -0.418001 127 0 127
0.262925 -0.613490 0.413066 127 0 127
0.428370 0.286203 -0.478291 127 0 127
-0.394854 -0.030456 -0.180243 127 0 127
-0.234556 0.276786 -0.518147 127 0 127
-0.435546 0.426631 0.300665 127 0 127
-0.394854 -0.211137 0.282583 127 0 127
-0.079465 -0.060481 0.912431 76 0 153
-0.176930 0.562342 -0.518147 127 0 127
-0.435546 0.416117 0.102876 127 0 127
-0.435546 -0.506892 -0.063944 127 0 127
0.104122 0.607335 0.004374 127 0 127
0.428370 0.170236 -0.197045 127 0 127
0.230972 -0.217454 -0.486992 127 0 127
0.464367 -0.497575 -0.489249 127 0 127
0.015526 -0.217454 0.104147 127 0 127
0.197837 0.607335 0.358976 127 0 127
0.086975 -0.309860 -0.518147 127 0 127
0.284534 -0.099984 0.857672 76 0 153
0.134398 -0.461451 0.413066 127 0 127
0.042172 -0.062429 0.788036 153 0 76
-0.429419 0.607335 0.269421 127 0 127
-0.273285 -0.062429 0.510038 153 0 76
-0.435546 -0.464185 -0.501089 127 0 127
0.412926 0.607335 -0.426572 127 0 127
-0.435546 -0.129965 -0.294858 127 0 127
0.168464 0.446134 -0.400582 127 0 127
0.324906 0.446134 0.229511 127 0 127
-0.106016 0.018550 -0.518147 127 0 127
0.155953 -0.062429 0.442509 153 0 76
0.426805 -0.013412 0.247225 127 0 127
-0.199755 0.446134 0.022802 127 0 127
-0.394854 -0.119070 -0.256317 127 0 127
-0.173062 0.446134 -0.296206 127 0 127
-0.435546 0.220528 0.162600 127 0 127
-0.409119 -0.174405 -0.518147 127 0 127
0.042455 -0.217454 0.290013 127 0 127
-0.435546 -0.053186 0.300083 127 0 127
-0.399549 0.250670 0.067024 127 0 127
0.464367 -0.319256 0.217929 127 0 127
-0.191936 -0.553934 0.413066 127 0 127
-0.015902 0.607335 -0.464807 127 0 127
-0.036174 -0.164471 0.413066 127 0 127
0.459672 0.423786 0.405354 127 0 127
0.434885 -0.464565 -0.518147 127 0 127
0.163100 -0.026599 0.677070 153 0 76
0.385490 -0.684551 -0.462612 0 127 127
0.133934 0.607335 -0.362053 127 0 127
-0.149112 -0.185266 0.369244 127 0 127
-0.435546 0.141153 0.213063 127 0 127
0.418635 -0.429515 0.413066 127 0 127
-0.146618 -0.217454 0.007998 127 0 127
0.460137 0.607335 -0.201805 127 0 127
-0.435546 -0.604107 0.375979 127 0 127
-0.170839 -0.166089 0.413066 127 0 127
-0.435546 0.177440 -0.181455 127 0 127
0.087570 0.446134 0.362171 127 0 127
0.464367 0.235045 -0.262184 127 0 127
0.385057 -0.660367 0.311599 127 0 127
0.423675 -0.162761 0.235484 127 0 127
-0.351792 -0.105144 -0.497802 127 0 127
-0.435546 0.329877 -0.136122 127 0 127
-0.307987 -0.660367 0.365447 127 0 127
-0.197292 0.607335 -0.043373 127 0 127
-0.435546 -0.128048 -0.226617 127 0 127
-0.156166 -0.660367 0.186820 127 0 127
0.216784 0.396694 -0.083280 255 0 0
-0.399549 0.050930 -0.058067 127 0 127
-0.435546 -0.082977 -0.502121 127 0 127
0.464367 0.291268 -0.217746 127 0 127
-0.169902 -0.160036 -0.055826 0 255 0
-0.386031 -0.273110 -0.518147 127 0 127
-0.386798 0.607335 0.180004 127 0 127
0.305307 0.297033 -0.518147 127 0 127
0.044915 -0.106431 -0.518147 127 0 127
0.464367 0.143238 0.023438 127 0 127
0.123457 0.607335 0.185720 127 0 127
-0.200168 -0.217454 -0.465055 127 0 127
0.407872 0.607335 -0.112477 127 0 127
-0.435546 0.085761 -0.288758 127 0 127
0.428370 0.021882 -0.038133 127 0 127
0.428370 0.075041 0.147488 127 0 127
-0.229343 0.607335 -0.396204 127 0 127
0.320371 0.080963 -0.502497 127 0 127
0.103750 -0.660367 -0.055258 127 0 127
-0.435546 -0.406922 0.114143 127 0 127
0.428370 0.172656 0.186332 127 0 127
0.464367 -0.358396 0.266240 127 0 127
-0.223947 -0.660367 -0.350221 127 0 127
0.240351 0.446134 -0.177107 127 0 127
-0.435546 -0.127281 0.071043 127 0 127
-0.061437 0.446134 -0.401724 127 0 127
0.464367 0.007690 -0.415313 127 0 127
0.464367 0.228446 0.358777 127 0 127
-0.398790 -0.660367 -0.429641 127 0 127
0.352592 -0.217454 -0.079921 127 0 127
-0.399549 0.221945 0.009263 127 0 127
0.464367 -0.543905 -0.509732 127 0 127
-0.141854 0.197446 -0.518147 127 0 127
0.334286 -0.048779 -0.497802 127 0 127
-0.399549 0.246495 -0.054955 127 0 127
-0.318934 0.607335 -0.045733 127 0 127
0.208540 -0.606767 0.413066 127 0 127
0.428370 0.387086 0.238442 127 0 127
-0.399549 0.398380 0.223882 127 0 127
0.340377 0.446134 -0.328366 127 0 127
0.464367 -0.425669 0.200152 127 0 127
-0.031453 0.446134 0.259862 127 0 127
0.170772 0.607335 -0.187300 127 0 127
0.372278 0.607335 0.188226 127 0 127
0.300774 0.398881 -0.082229 255 0 0
0.464367 -0.549649 -0.165271 127 0 127
0.263113 -0.062429 0.542600 153 0 76
-0.435546 -0.121456 0.231581 127 0 127
0.150703 -0.065487 0.853377 153 0 76
-0.063271 -0.660367 0.308096 127 0 127
0.428370 0.243272 0.271708 127 0 127
-0.080254 -0.133440 0.413066 127 0 127
0.003802 0.389851 -0.502497 127 0 127
0.003306 -0.217454 0.198936 127 0 127
-0.117369 0.446134 -0.102087 127 0 127
0.097759 0.446134 -0.385972 127 0 127
-0.399549 0.174244 -0.420968 127 0 127
0.464367 -0.649693 -0.159332 127 0 127
0.290593 -0.660367 -0.101006 127 0 127
0.332391 -0.217454 -0.188888 127 0 127
-0.311054 -0.660367 -0.408188 127 0 127
0.197787 0.446134 0.150658 127 0 127
-0.435546 -0.174972 0.319730 127 0 127
-0.070662 -0.026599 0.851046 76 0 153
0.415136 -0.029646 0.153238 127 0 127
0.236741 0.446134 -0.468678 127 0 127
0.263435 -0.032679 -0.497802 127 0 127
-0.333976 -0.660367 -0.177228 127 0 127
0.233510 -0.026599 0.409242 153 0 76
-0.078782 0.446134 0.328834 127 0 127
-0.206073 0.446134 -0.063004 127 0 127
-0.294680 -0.566359 -0.518147 127 0 127
0.371970 0.446134 0.146404 127 0 127
0.021249 0.217301 -0.502497 127 0 127
-0.435546 -0.511362 -0.336341 127 0 127
0.418573 0.422669 -0.502497 127 0 127
-0.040796 -0.065023 0.413066 127 0 127
0.304095 0.607335 0.192689 127 0 127
-0.092189 -0.217454 -0.362351 127 0 127
0.086147 -0.030707 -0.518147 127 0 127
0.464367 -0.644267 0.233408 127 0 127
0.038413 -0.217454 0.364663 127 0 127
-0.435546 -0.239282 -0.355735 127 0 127
-0.174364 0.607335 0.409569 127 0 127
-0.121387 -0.515971 0.413066 127 0 127
-0.165316 -0.217454 -0.180487 127 0 127
0.085841 -0.217454 -0.081655 127 0 127
0.247309 -0.217454 -0.078544 127 0 127
-0.275304 0.391578 -0.049172 255 0 0
0.167124 0.446134 -0.123225 127 0 127
0.464367 -0.088801 0.278273 127 0 127
-0.435546 0.040302 -0.141027 127 0 127
0.423675 -0.197973 -0.432575 127 0 127
0.011742 -0.209881 -0.041932 0 255 0
-0.435546 0.326602 0.133269 127 0 127
-0.435546 -0.367158 -0.257729 127 0 127
0.203342 0.607335 -0.272193 127 0 127
-0.113355 -0.660367 -0.268589 127 0 127
0.246173 0.446134 -0.068264 127 0 127
-0.032179 0.446134 0.104015 127 0 127
-0.399549 0.188462 0.250690 127 0 127
0.428370 0.292740 -0.140965 127 0 127
0.260740 0.451104 0.373940 127 0 127
-0.383131 0.581487 -0.518147 127 0 127
0.464367 0.466129 -0.461388 127 0 127
-0.371200 -0.217454 -0.329925 127 0 127
-0.435546 0.378427 0.010475 127 0 127
-0.001066 -0.660367 0.030341 127 0 127
-0.399549 0.134149 -0.460957 127 0 127
0.464367 -0.005283 -0.004498 127 0 127
-0.121616 -0.062429 0.579109 153 0 76
0.464367 0.080673 0.027098 127 0 127
-0.435546 -0.590341 0.002187 127 0 127
-0.398081 0.446134 -0.306585 127 0 127
-0.201756 0.001928 -0.518147 127 0 127
-0.105382 -0.052294 0.373940 127 0 127
-0.326911 0.446134 0.098546 127 0 127
0.464367 -0.070222 -0.154842 127 0 127
0.038042 -0.034130 0.369244 127 0 127
-0.391483 -0.069127 0.861240 76 0 153
0.423675 -0.071496 0.236267 127 0 127
-0.435546 -0.092777 -0.326223 127 0 127
0.427544 -0.660367 -0.058696 127 0 127
-0.382774 0.446134 -0.186232 127 0 127
-0.435546 -0.526621 0.203137 127 0 127
-0.060802 -0.660367 -0.287967 127 0 127
0.428370 0.403862 -0.213963 127 0 127
0.021318 0.446134 -0.480828 127 0 127
-0.183083 -0.268878 0.413066 127 0 127
0.264542 0.446134 0.004450 127 0 127
-0.435546 -0.073273 0.201978 127 0 127
0.114249 -0.075529 -0.497802 127 0 127
-0.399549 0.053370 -0.317895 127 0 127
0.108983 -0.530369 0.413066 127 0 127
0.296869 -0.217454 -0.124489 127 0 127
-0.011584 0.475373 0.373940 127 0 127
-0.435546 -0.049745 0.015854 127 0 127
0.190717 -0.217454 -0.369165 127 0 127
-0.435546 -0.590623 0.221297 127 0 127
-0.276150 -0.456891 -0.518147 127 0 127
-0.246526 -0.464551 0.413066 127 0 127
-0.432411 0.607335 -0.044905 127 0 127
-0.138171 -0.026599 0.484754 153 0 76
0.305201 0.607335 0.008205 127 0 127
0.464367 0.488671 0.092719 127 0 127
0.464367 0.105449 0.124723 127 0 127
0.048357 0.607335 0.251951 127 0 127
0.464367 -0.155257 -0.485132 127 0 127
-0.435546 0.379986 0.069162 127 0 127
0.464367 -0.407319 -0.447751 127 0 127
-0.288373 -0.301273 0.413066 127 0 127
0.233271 -0.443760 -0.518147 127 0 127
0.464367 0.140646 -0.366575 127 0 127
-0.399549 0.135507 0.293223 127 0 127
-0.399549 0.199700 0.123053 127 0 127
0.295737 0.607335 0.359444 127 0 127
0.172024 -0.026599 0.744600 153 0 76
0.428370 0.074095 -0.125768 127 0 127
0.117295 -0.062429 0.406905 153 0 76
-0.435546 0.546268 0.198015 127 0 127
0.018506 -0.026599 0.888500 76 0 153
0.046561 -0.094826 0.369244 127 0 127
-0.316912 0.446134 -0.283731 127 0 127
0.059826 -0.217454 -0.267213 127 0 127
0.298972 0.446134 -0.105361 127 0 127
-0.352825 0.607335 -0.247419 127 0 127
-0.164549 -0.217454 0.156346 127 0 127
-0.435546 -0.608737 -0.471938 127 0 127
-0.435546 0.550892 -0.318028 127 0 127
0.163787 0.004304 -0.502497 127 0 127
-0.435546 0.034616 -0.455017 127 0 127
-0.435546 0.311418 0.000430 127 0 127
0.323222 -0.217454 -0.474821 127 0 127
-0.304892 -0.657499 -0.518147 127 0 127
0.219490 0.607335 0.412799 127 0 127
0.464367 0.166384 0.122858 127 0 127
-0.099725 -0.660367 0.142627 127 0 127
-0.166379 -0.087118 0.369244 127 0 127
0.284090 -0.660367 0.178171 127 0 127
0.151447 -0.217454 0.229799 127 0 127
-0.321886 0.607335 0.309341 127 0 127
-0.435546 -0.312374 0.063133 127 0 127
0.413291 0.557138 -0.518147 127 0 127
-0.277822 0.359944 -0.518147 127 0 127
0.174239 -0.660367 0.011598 127 0 127
0.026995 -0.181009 -0.118780 0 255 0
0.428370 0.069092 0.287057 127 0 127
0.135185 0.482882 0.420892 127 127 0
-0.394854 -0.069949 0.280380 127 0 127
-0.399549 0.313263 -0.190951 127 0 127
-0.228881 -0.660367 0.412544 127 0 127
-0.435546 -0.008974 0.389374 127 0 127
0.046527 -0.411701 -0.518147 127 0 127
-0.257817 -0.217454 0.140174 127 0 127
0.113264 0.607335 -0.467575 127 0 127
-0.435546 -0.422315 -0.184993 127 0 127
0.464367 -0.393400 -0.211887 127 0 127
0.423675 -0.047789 0.023722 127 0 127
0.464367 0.463766 -0.399558 127 0 127
-0.041918 0.446134 -0.488453 127 0 127
-0.333726 0.607335 -0.402154 127 0 127
0.240614 -0.062429 0.627167 153 0 76
0.464367 0.421710 0.017245 127 0 127
0.464367 -0.039394 0.094382 127 0 127
-0.435546 -0.114777 0.407485 127 0 127
-0.435546 -0.496319 -0.436982 127 0 127
-0.297704 -0.060947 0.412868 127 0 127
0.426583 0.491401 0.420892 127 127 0
0.235458 -0.217454 -0.291178 127 0 127
-0.353686 -0.029646 0.015168 127 0 127
-0.169303 -0.062429 0.774751 153 0 76
-0.321606 -0.133818 0.413066 127 0 127
-0.313009 -0.227735 0.413066 127 0 127
-0.399549 0.029484 0.031418 127 0 127
-0.018588 0.607335 -0.355214 127 0 127
-0.435546 -0.270476 -0.270451 127 0 127
-0.011194 -0.062429 0.599646 153 0 76
-0.132321 -0.660367 -0.322455 127 0 127
0.464367 0.400020 -0.449325 127 0 127
-0.433204 -0.266125 -0.518147 127 0 127
-0.300583 -0.030650 0.912188 76 0 153
0.423675 -0.177520 -0.340288 127 0 127
0.170060 0.607335 0.072725 127 0 127
-0.260740 0.439328 -0.518147 127 0 127
0.045463 -0.217454 -0.405488 127 0 127
-0.399549 0.201030 -0.375940 127 0 127
-0.397984 -0.011217 -0.303183 127 0 127
0.226728 -0.217454 0.293877 127 0 127
0.464367 0.232444 -0.008909 127 0 127
0.194909 0.479451 -0.518147 127 0 127
0.464367 -0.531117 0.386821 127 0 127
-0.435546 0.360116 -0.261642 127 0 127
-0.435546 0.109886 0.008992 127 0 127
0.464367 -0.265487 0.146233 127 0 127
0.428370 0.334442 -0.261682 127 0 127
-0.435546 -0.204194 -0.482583 127 0 127
-0.435546 -0.334687 -0.437722 127 0 127
0.327790 -0.637102 -0.518147 127 0 127
0.199474 -0.217454 0.115970 127 0 127
-0.435546 -0.221847 -0.183254 127 0 127
-0.398736 0.607335 -0.473165 127 0 127
0.464367 0.546359 0.288642 127 0 127
-0.435546 0.374582 0.136216 127 0 127
-0.036368 -0.083017 0.904711 76 0 153
0.222214 -0.026599 0.878395 76 0 153
-0.026691 -0.062429 0.665478 153 0 76
-0.435546 -0.460390 0.209353 127 0 127
-0.433157 0.607335 0.087092 127 0 127
-0.127034 -0.601843 -0.518147 127 0 127
0.363419 -0.186291 0.369244 127 0 127
-0.435546 0.257263 0.004023 127 0 127
0.269869 -0.217454 0.189300 127 0 127
0.260440 -0.026599 0.448158 153 0 76
-0.220235 0.446134 -0.227934 127 0 127
0.034947 -0.660367 -0.300903 127 0 127
-0.378662 -0.112857 0.369244 127 0 127
0.090718 -0.192852 0.369244 127 0 127
-0.222979 -0.026599 0.595819 153 0 76
-0.435546 0.363440 0.199730 127 0 127
-0.170106 -0.138959 -0.497802 127 0 127
0.357739 -0.660367 0.120682 127 0 127
0.040272 -0.302642 -0.518147 127 0 127
-0.275297 0.470772 0.373940 127 0 127
-0.399549 0.311773 -0.034019 127 0 127
0.292710 -0.026599 0.667734 153 0 76
0.074581 -0.217454 0.215236 127 0 127
0.060140 -0.660367 -0.194013 127 0 127
0.051822 0.607335 -0.266548 127 0 127
0.464367 0.256861 0.241028 127 0 127
-0.435546 0.348085 0.402261 127 0 127
-0.394854 -0.108512 0.048878 127 0 127
-0.328746 -0.660367 -0.022660 127 0 127
-0.072378 -0.325118 -0.518147 127 0 127
-0.018604 -0.660367 -0.434182 127 0 127
-0.395553 0.507828 0.420892 127 127 0
0.419328 -0.660367 0.098067 127 0 127
-0.347992 -0.660367 -0.249413 127 0 127
0.308771 -0.168978 -0.046793 0 255 0
0.464367 -0.244138 -0.361001 127 0 127
0.156100 -0.203389 -0.518147 127 0 127
0.008097 0.607335 -0.032919 127 0 127
0.013741 0.038754 -0.502497 127 0 127
-0.143526 0.446134 0.064601 127 0 127
-0.435546 -0.188515 0.036314 127 0 127
-0.435546 0.003605 0.116626 127 0 127
0.179928 -0.027599 0.618499 153 0 76
-0.399549 0.170938 0.371958 127 0 127
-0.321140 -0.660367 -0.356331 127 0 127
-0.386315 -0.408575 -0.518147 127 0 127
-0.435546 -0.350334 0.135126 127 0 127
-0.435546 -0.365438 0.410018 127 0 127
0.225224 -0.660367 0.007929 127 0 127
0.351733 -0.401857 -0.518147 127 0 127
-0.435546 0.449753 -0.270270 127 0 127
-0.329801 0.607335 -0.194380 127 0 127
-0.435546 0.469254 -0.326263 127 0 127
-0.342606 -0.197804 0.369244 127 0 127
0.270188 -0.660367 -0.515338 127 0 127
-0.399549 -0.012798 0.187897 127 0 127
-0.003657 -0.217454 0.275251 127 0 127
0.464367 -0.608783 -0.484335 127 0 127
-0.435546 -0.334729 -0.018575 127 0 127
-0.435546 -0.409377 0.005580 127 0 127
0.294125 0.044926 -0.518147 127 0 127
0.146497 -0.062429 0.596352 153 0 76
0.343993 -0.660367 0.184665 127 0 127
0.016821 -0.156352 0.413066 127 0 127
0.426805 0.004850 -0.481578 127 0 127
-0.140274 -0.217454 0.233063 127 0 127
0.328616 -0.062816 0.834408 153 0 76
-0.435546 0.542451 -0.401473 127 0 127
0.327960 -0.074440 0.413066 127 0 127
-0.211480 -0.660367 -0.254377 127 0 127
-0.394854 -0.105478 0.248250 127 0 127
0.423675 -0.113010 -0.029453 127 0 127
0.247313 -0.278991 -0.518147 127 0 127
0.464367 -0.465665 -0.163938 127 0 127
-0.429597 -0.660367 -0.046016 127 0 127
0.464367 -0.613199 0.142592 127 0 127
0.071173 -0.170735 0.413066 127 0 127
-0.358483 0.446134 0.328798 127 0 127
-0.351510 -0.028081 -0.262497 127 0 127
0.353572 -0.217454 -0.335140 127 0 127
-0.427682 0.152890 -0.518147 127 0 127
-0.294940 -0.217454 0.095483 127 0 127
0.373929 -0.660367 -0.180949 127 0 127
-0.391993 -0.660367 0.045355 127 0 127
-0.435546 -0.100628 -0.022870 127 0 127
-0.153161 0.607335 0.100481 127 0 127
-0.362561 -0.208325 -0.497802 127 0 127
-0.099279 -0.660367 -0.488768 127 0 127
0.001411 0.107668 -0.518147 127 0 127
0.411736 -0.096688 0.413066 127 0 127
-0.198267 -0.180627 -0.518147 127 0 127
-0.435546 0.000237 -0.053947 127 0 127
0.464367 -0.540967 -0.262582 127 0 127
-0.381694 -0.660367 0.116772 127 0 127
0.144525 -0.041246 0.913775 76 0 153
-0.435546 -0.333315 -0.334785 127 0 127
-0.042309 -0.217454 0.190054 127 0 127
0.428370 0.216617 -0.194310 127 0 127
0.428370 0.294780 0.350705 127 0 127
0.380104 -0.062429 0.629773 153 0 76
0.321462 -0.217454 0.009425 127 0 127
-0.143352 -0.217454 -0.278264 127 0 127
0.464367 0.029067 -0.088697 127 0 127
0.040718 0.607335 0.097153 127 0 127
0.143491 0.529449 0.423357 255 0 0
0.464367 0.563176 -0.163348 127 0 127
0.464367 0.454433 -0.286593 127 0 127
0.464367 -0.136181 0.380822 127 0 127
0.298414 -0.531039 0.413066 127 0 127
-0.231482 0.490366 -0.518147 127 0 127
-0.435546 0.533309 0.287337 127 0 127
-0.231839 -0.274607 0.413066 127 0 127
0.209614 0.607335 0.105513 127 0 127
-0.094825 -0.062429 0.697859 153 0 76
0.244181 -0.232519 0.413066 127 0 127
0.152170 -0.660367 -0.146596 127 0 127
0.432432 0.403373 0.373940 127 0 127
0.335022 0.486590 -0.518147 127 0 127
-0.435546 0.035689 0.337390 127 0 127
0.243907 0.607335 0.195918 127 0 127
0.151170 -0.367234 0.413066 127 0 127
-0.399549 0.163001 -0.277916 127 0 127
0.423675 -0.076843 0.322183 127 0 127
0.464367 -0.240629 0.222929 127 0 127
0.428370 0.280616 0.027706 127 0 127
0.380518 -0.026694 0.385089 153 0 76
-0.435546 -0.411132 -0.284513 127 0 127
0.060480 -0.619227 0.413066 127 0 127
-0.301213 -0.026599 0.532986 153 0 76
0.149631 0.446134 0.017315 127 0 127
0.306788 -0.095570 0.899525 76 0 153
-0.183772 -0.660367 0.305528 127 0 127
0.464367 -0.092535 -0.268673 127 0 127
0.464367 -0.260343 -0.415719 127 0 127
0.409913 -0.217454 -0.256184 127 0 127
0.137774 -0.660367 -0.388980 127 0 127
0.428370 0.294688 0.162415 127 0 127
-0.153898 0.349618 -0.518147 127 0 127
0.016382 -0.660367 -0.110691 127 0 127
0.054597 0.319203 -0.502497 127 0 127
-0.089372 0.446134 -0.356716 127 0 127
-0.394854 -0.146924 -0.183064 127 0 127
0.333404 0.476684 0.373940 127 0 127
-0.435546 -0.629794 0.050442 127 0 127
0.112079 0.504973 -0.518147 127 0 127
0.144064 -0.561739 -0.518147 127 0 127
-0.270216 -0.660367 -0.487953 127 0 127
0.097919 0.607335 -0.142910 127 0 127
-0.399549 0.008024 0.264814 127 0 127
-0.435546 0.464569 -0.018561 127 0 127
-0.324509 0.446134 -0.135926 127 0 127
-0.435546 0.206799 -0.516182 127 0 127
-0.062807 -0.173519 -0.086894 0 255 0
-0.389748 -0.651500 0.413066 127 0 127
0.423675 -0.040780 -0.476134 127 0 127
-0.435546 0.486564 -0.199567 127 0 127
-0.215304 -0.062429 0.461210 153 0 76
-0.045217 0.210758 -0.502497 127 0 127
0.315754 -0.178393 -0.497802 127 0 127
0.262447 0.446134 -0.413085 127 0 127
-0.299926 0.607335 0.213634 127 0 127
0.428370 0.330198 0.212097 127 0 127
0.109905 -0.660367 0.247268 127 0 127
0.114260 -0.217454 0.132246 127 0 127
-0.435546 0.052323 0.133033 127 0 127
0.266764 0.202990 -0.518147 127 0 127
0.464367 -0.198436 0.337247 127 0 127
-0.399549 0.260117 -0.323504 127 0 127
0.459672 0.173192 0.404055 127 0 127
0.426805 -0.025371 0.499812 153 0 76
0.340240 -0.062429 0.584346 153 0 76
0.053660 -0.513107 0.413066 127 0 127
-0.399549 0.271797 -0.142827 127 0 127
-0.319370 -0.062429 0.773833 153 0 76
0.464367 0.390251 -0.517340 127 0 127
0.464367 0.551908 -0.401544 127 0 127
0.290481 0.607335 -0.237340 127 0 127
0.464367 0.245079 0.169528 127 0 127
0.162435 -0.095182 -0.518147 127 0 127
0.311510 -0.217454 0.098477 127 0 127
0.464367 -0.268161 0.376329 127 0 127
0.417471 -0.658767 -0.518147 127 0 127
-0.197941 -0.035167 0.369244 127 0 127
0.309628 0.607335 0.257981 127 0 127
-0.435546 -0.609766 0.290055 127 0 127
-0.110387 -0.217454 -0.057287 127 0 127
-0.399549 0.098982 -0.206429 127 0 127
-0.386443 0.387834 -0.502497 127 0 127
-0.435546 0.279639 -0.516001 127 0 127
0.464367 -0.107683 0.023311 127 0 127
0.464367 -0.058148 -0.439672 127 0 127
-0.150266 -0.062429 0.708443 153 0 76
-0.106049 -0.026758 0.628187 153 0 76
0.353902 0.607335 -0.192905 127 0 127
0.223007 0.518305 0.421303 0 0 255
0.340886 0.446134 0.055680 127 0 127
-0.360073 -0.028081 0.233035 127 0 127
0.347657 -0.027599 0.529705 153 0 76
-0.399549 0.126273 -0.137427 127 0 127
0.240151 0.468686 -0.518147 127 0 127
0.464367 -0.289304 -0.282156 127 0 127
-0.055204 -0.062429 0.722817 153 0 76
0.406665 0.487061 -0.518147 127 0 127
0.464367 -0.498368 -0.287710 127 0 127
-0.190739 -0.026599 0.429251 153 0 76
0.460522 -0.660367 -0.304872 127 0 127
0.464367 0.081322 -0.466058 127 0 127
-0.435546 0.503773 -0.431184 127 0 127
-0.279745 0.264910 -0.518147 127 0 127
-0.094361 0.446134 -0.477879 127 0 127
0.203673 -0.217454 -0.167504 127 0 127
0.464367 0.018200 -0.354127 127 0 127
0.153926 0.446134 -0.033741 127 0 127
-0.399549 0.275836 -0.263833 127 0 127
0.335988 -0.660367 0.262007 127 0 127
0.464367 -0.029369 -0.133004 127 0 127
0.121409 -0.660367 0.175388 127 0 127
-0.007332 0.607335 0.120378 127 0 127
0.224402 -0.302486 0.413066 127 0 127
0.464367 -0.582318 0.108580 127 0 127
0.407962 -0.058737 0.912812 76 0 153
0.344856 -0.217454 -0.404091 127 0 127
0.010326 -0.458539 -0.518147 127 0 127
0.026122 0.446134 -0.144069 127 0 127
-0.098035 0.446134 -0.002290 127 0 127
-0.125289 0.494021 -0.518147 127 0 127
0.464367 0.209500 -0.057388 127 0 127
0.165151 0.446134 -0.205783 127 0 127
-0.009593 -0.029475 0.374580 153 0 76
0.220658 -0.199254 0.369244 127 0 127
0.279996 0.446134 0.311947 127 0 127
-0.167744 -0.026599 0.855166 76 0 153
0.341175 0.607335 0.048407 127 0 127
-0.218353 -0.217454 0.039893 127 0 127
0.423675 -0.203342 0.211706 127 0 127
0.280854 -0.523251 -0.518147 127 0 127
-0.404131 0.607335 -0.401295 127 0 127
0.263809 0.607335 0.101954 127 0 127
0.321151 -0.660367 0.381010 127 0 127
-0.435546 0.170977 -0.000369 127 0 127
0.464367 0.008261 -0.280475 127 0 127
0.464367 -0.361574 0.364023 127 0 127
-0.135730 -0.660367 0.267562 127 0 127
0.464367 -0.621305 -0.327032 127 0 127
0.464367 -0.102151 -0.075002 127 0 127
0.066519 -0.182873 -0.518147 127 0 127
-0.353789 -0.691669 0.330503 153 0 76
-0.203050 0.446134 0.261252 127 0 127
0.247254 0.607335 0.023514 127 0 127
0.343803 0.576361 -0.518147 127 0 127
0.404914 0.607335 0.377242 127 0 127
0.142698 -0.464227 -0.518147 127 0 127
-0.435546 -0.544550 0.346662 127 0 127
-0.435546 -0.216271 0.230080 127 0 127
-0.435546 -0.422923 -0.054050 127 0 127
-0.006909 -0.130848 0.369244 127 0 127
0.374023 0.564971 0.446997 204 51 127
-0.149667 -0.217454 -0.476240 127 0 127
0.244900 -0.217454 -0.383304 127 0 127
-0.178120 0.446134 -0.016838 127 0 127
0.009505 -0.052916 -0.497802 127 0 127
0.201552 -0.062429 0.479693 153 0 76
0.376834 -0.383384 0.413066 127 0 127
0.071449 -0.660367 -0.412698 127 0 127
-0.435546 0.138108 0.142140 127 0 127
0.366779 0.446134 -0.146149 127 0 127
0.428370 0.034410 -0.259606 127 0 127
-0.262011 0.446134 -0.431868 127 0 127
-0.435546 0.308970 -0.083269 127 0 127
0.464367 0.153048 -0.150684 127 0 127
-0.022244 0.446134 -0.044963 127 0 127
-0.124073 0.252374 -0.502497 127 0 127
0.418210 0.072661 -0.518147 127 0 127
0.016691 -0.540332 0.413066 127 0 127
0.428370 0.233053 -0.324648 127 0 127
0.267656 -0.026599 0.759719 153 0 76
0.464367 0.257409 0.102831 127 0 127
0.428370 0.352899 -0.004459 127 0 127
-0.435546 -0.318228 -0.282302 127 0 127
0.428370 0.137379 0.084048 127 0 127
-0.394854 -0.173007 -0.295166 127 0 127
-0.057755 -0.026599 0.428684 153 0 76
-0.435546 -0.186513 -0.257925 127 0 127
0.162799 -0.217454 -0.026396 127 0 127
-0.394854 -0.062226 -0.285002 127 0 127
0.128580 -0.396399 -0.518147 127 0 127
-0.435546 0.510207 0.237975 127 0 127
-0.292105 -0.062429 0.617422 153 0 76
-0.199823 -0.217454 0.292640 127 0 127
-0.082199 -0.403768 0.413066 127 0 127
0.190083 -0.062429 0.812558 153 0 76
-0.435546 -0.451538 0.275990 127 0 127
-0.399549 0.415400 0.074513 127 0 127
-0.435546 0.502969 0.104699 127 0 127
-0.399549 0.225378 0.201460 127 0 127
-0.029016 -0.373372 -0.518147 127 0 127
0.064692 -0.062429 0.662777 153 0 76
0.464367 0.232889 -0.375144 127 0 127
-0.435546 0.343880 0.289634 127 0 127
0.402580 -0.217454 0.311400 127 0 127
-0.004106 -0.217454 -0.106330 127 0 127
0.100309 0.607335 0.254311 127 0 127
0.464367 0.584037 0.344625 127 0 127
0.428370 0.284107 -0.339743 127 0 127
-0.231684 0.607335 -0.092733 127 0 127
0.067687 -0.660367 -0.471677 127 0 127
-0.270723 0.022517 -0.518147 127 0 127
-0.435546 -0.003458 -0.251209 127 0 127
0.144167 0.280625 -0.502497 127 0 127
-0.250743 0.607335 0.105451 127 0 127
0.464367 0.049543 0.263621 127 0 127
0.428370 0.081027 -0.301319 127 0 127
-0.399549 0.420107 0.272046 127 0 127
-0.114179 -0.610068 0.413066 127 0 127
-0.125435 0.446134 0.363497 127 0 127
0.464367 0.368664 0.138549 127 0 127
-0.399549 -0.020472 0.014172 127 0 127
0.119150 -0.217454 -0.167632 127 0 127
0.326689 -0.219925 0.413066 127 0 127
-0.286013 0.446134 -0.022166 127 0 127
0.093976 0.446134 -0.233473 127 0 127
0.422782 0.607335 -0.032437 127 0 127
-0.435546 0.072156 -0.405606 127 0 127
0.464367 -0.020151 0.322632 127 0 127
-0.116291 -0.217454 0.040538 127 0 127
0.222806 -0.660367 -0.337971 127 0 127
-0.397984 -0.003442 -0.398214 127 0 127
-0.241031 -0.660367 0.146089 127 0 127
0.036754 0.420731 -0.065451 255 0 0
0.464367 0.040220 0.356343 127 0 127
0.464367 -0.211250 0.076859 127 0 127
-0.141308 0.102052 -0.518147 127 0 127
0.306817 0.446134 -0.396055 127 0 127
-0.399549 0.254735 -0.371192 127 0 127
0.422923 0.607335 0.095406 127 0 127
0.140918 -0.660367 0.391850 127 0 127
0.376238 0.607335 -0.463796 127 0 127
0.015959 0.446134 -0.331602 127 0 127
-0.394854 -0.131117 -0.467246 127 0 127
0.176693 -0.341385 -0.518147 127 0 127
0.410396 -0.556224 -0.518147 127 0 127
0.464367 -0.063702 -0.486687 127 0 127
0.464367 0.593641 0.252582 127 0 127
-0.383413 -0.026754 0.383334 153 0 76
0.012865 -0.026599 0.728619 153 0 76
0.399693 0.446134 -0.069380 127 0 127
-0.399549 0.199815 0.318672 127 0 127
-0.046220 0.409382 -0.050478 255 0 0
-0.191951 -0.063787 0.844944 153 0 76
0.128253 0.446134 0.123509 127 0 127
-0.271660 -0.217454 0.047451 127 0 127
-0.435546 -0.237867 -0.305037 127 0 127
0.215312 -0.217454 0.021591 127 0 127
-0.229902 -0.217454 -0.138771 127 0 127
-0.435546 -0.388748 0.212580 127 0 127
-0.066021 0.607335 -0.149194 127 0 127
0.428370 0.387785 0.184901 127 0 127
-0.378658 -0.062429 0.419367 153 0 76
-0.212226 0.240774 -0.502497 127 0 127
0.295617 0.117529 -0.502497 127 0 127
-0.120557 0.446134 0.225936 127 0 127
0.464367 -0.531684 -0.010055 127 0 127
0.289631 -0.217454 0.326772 127 0 127
-0.435546 -0.486770 0.412991 127 0 127
-0.435546 0.525032 -0.353791 127 0 127
-0.393783 -0.217427 0.369244 127 0 127
0.464367 0.147493 0.277312 127 0 127
-0.435546 0.423611 0.227237 127 0 127
0.320997 -0.457084 0.413066 127 0 127
-0.435546 0.231099 0.247691 127 0 127
0.428370 0.085317 -0.034363 127 0 127
0.464367 0.260262 0.057768 127 0 127
0.428370 0.355867 -0.169169 127 0 127
0.464367 0.083927 -0.095305 127 0 127
-0.109802 -0.560038 -0.518147 127 0 127
0.188826 0.607335 -0.086121 127 0 127
-0.334892 -0.217454 -0.262724 127 0 127
-0.396836 -0.298201 0.413066 127 0 127
0.372768 -0.128865 0.369244 127 0 127
-0.393415 -0.027599 0.828821 153 0 76
0.182428 -0.038018 0.369244 127 0 127
-0.259665 0.607335 -0.252560 127 0 127
-0.394854 -0.073344 0.081757 127 0 127
-0.071327 -0.050062 -0.497802 127 0 127
0.231205 -0.056426 -0.518147 127 0 127
0.431772 -0.062429 0.640690 153 0 76
0.090589 -0.660367 0.017779 127 0 127
0.423675 -0.037253 -0.078049 127 0 127
0.464367 -0.040807 -0.247551 127 0 127
-0.142186 -0.257516 -0.518147 127 0 127
0.005005 -0.252756 0.413066 127 0 127
0.022303 -0.026599 0.678722 153 0 76
0.428370 0.392316 -0.143872 127 0 127
-0.289897 -0.062429 0.739656 153 0 76
0.196294 0.250046 -0.502497 127 0 127
0.423675 -0.081619 -0.194583 127 0 127
-0.308337 0.456933 -0.518147 127 0 127
-0.239981 -0.027599 0.705004 153 0 76
0.224242 0.607335 -0.413968 127 0 127
0.464367 0.368884 0.350525 127 0 127
-0.141714 0.446134 -0.155470 127 0 127
0.428370 0.415744 0.148450 127 0 127
0.428370 0.370517 -0.450408 127 0 127
-0.130914 -0.217454 0.282817 127 0 127
-0.399549 0.201256 -0.056198 127 0 127
0.272901 -0.125025 -0.497802 127 0 127
0.452849 -0.062350 0.692286 153 0 76
-0.435546 0.075691 -0.059029 127 0 127
-0.435546 -0.229682 -0.115200 127 0 127
-0.435546 0.138430 -0.274865 127 0 127
0.464367 0.528334 0.199747 127 0 127
-0.399549 0.357079 -0.360376 127 0 127
0.464367 0.575691 -0.113066 127 0 127
-0.309188 -0.153623 -0.518147 127 0 127
0.458516 -0.097956 0.897218 76 0 153
-0.435546 -0.153365 -0.425069 127 0 127
-0.399549 0.403106 0.009670 127 0 127
0.279976 -0.217454 -0.328914 127 0 127
0.156659 -0.660367 -0.053933 127 0 127
-0.435546 -0.152030 -0.345281 127 0 127
0.174041 0.387173 -0.502497 127 0 127
0.231740 -0.062429 0.435650 153 0 76
0.428370 0.443311 -0.106250 127 0 127
0.464367 -0.168550 -0.311622 127 0 127
0.006371 -0.214366 -0.497802 127 0 127
0.464367 0.285214 -0.051660 127 0 127
-0.124593 -0.660367 0.382378 127 0 127
-0.151168 0.607335 0.015108 127 0 127
-0.435546 -0.399905 0.277052 127 0 127
0.464367 0.130988 0.173917 127 0 127
-0.394854 -0.080821 0.139555 127 0 127
0.464367 -0.257783 -0.227087 127 0 127
-0.238124 0.446134 0.043369 127 0 127
0.464367 0.227018 0.304692 127 0 127
0.359181 -0.299520 -0.518147 127 0 127
0.464367 -0.353257 -0.230278 127 0 127
0.464367 -0.593346 -0.082938 127 0 127
-0.057943 -0.217454 -0.325709 127 0 127
-0.394529 -0.660367 -0.097677 127 0 127
0.299302 -0.087944 -0.518147 127 0 127
0.428370 0.378926 -0.263015 127 0 127
-0.435546 0.078732 -0.174713 127 0 127
-0.365639 -0.217454 0.128019 127 0 127
-0.118756 -0.405774 -0.518147 127 0 127
-0.229603 0.607335 0.037144 127 0 127
-0.148510 0.482130 0.413256 127 0 127
-0.435546 -0.435464 -0.407754 127 0 127
-0.044335 0.446134 -0.134738 127 0 127
-0.396737 -0.062429 0.712280 153 0 76
-0.273439 -0.204854 0.413066 127 0 127
0.464367 -0.336915 0.157479 127 0 127
0.129198 -0.660367 -0.335928 127 0 127
-0.435546 -0.617742 -0.366082 127 0 127
0.168702 -0.122281 0.369244 127 0 127
0.428370 0.224513 -0.417878 127 0 127
-0.394854 -0.125955 -0.378902 127 0 127
-0.009977 -0.217454 -0.398875 127 0 127
0.388004 -0.062429 0.739627 153 0 76
0.307890 -0.217454 -0.239050 127 0 127
0.120466 -0.217454 0.002770 127 0 127
-0.435546 0.443836 -0.506323 127 0 127
0.341974 -0.217454 0.178578 127 0 127
-0.194115 0.569288 0.420892 127 127 0
0.373570 0.607335 -0.303266 127 0 127
-0.435546 0.138887 0.257792 127 0 127
0.464367 0.423732 0.119958 127 0 127
-0.435546 0.055951 0.195029 127 0 127
-0.401761 0.607335 0.350510 127 0 127
-0.137616 -0.660367 -0.372738 127 0 127
-0.399549 0.201332 -0.162460 127 0 127
-0.435546 -0.483638 0.046619 127 0 127
-0.343060 0.413158 -0.502497 127 0 127
0.086421 -0.369819 0.413066 127 0 127
0.132617 -0.291392 0.413066 127 0 127
0.428370 0.219595 0.073050 127 0 127
0.005308 -0.335895 0.413066 127 0 127
0.428370 0.059048 0.016968 127 0 127
0.228664 0.607335 -0.476914 127 0 127
-0.394854 -0.070984 -0.230543 127 0 127
-0.358452 0.446134 0.028820 127 0 127
-0.388361 -0.618813 -0.518147 127 0 127
0.279707 0.446134 0.202060 127 0 127
0.018612 -0.660367 -0.065917 127 0 127
0.428370 0.301786 -0.300386 127 0 127
0.428370 0.176033 -0.409937 127 0 127
0.065085 -0.329815 0.413066 127 0 127
-0.399549 0.362084 -0.432685 127 0 127
-0.399549 0.225316 0.273089 127 0 127
-0.394854 -0.176362 -0.035802 127 0 127
-0.148330 -0.315658 0.413066 127 0 127
-0.030738 0.607335 -0.193374 127 0 127
-0.321040 0.446134 0.279356 127 0 127
0.100675 -0.660367 0.089037 127 0 127
-0.186426 -0.099067 -0.497802 127 0 127
-0.093660 -0.217454 0.327542 127 0 127
0.464367 0.304977 0.080934 127 0 127
-0.203668 -0.553047 -0.518147 127 0 127
0.332019 -0.451049 -0.518147 127 0 127
0.116829 0.446134 0.281378 127 0 127
-0.239601 -0.062429 0.764574 153 0 76
-0.062968 -0.660367 0.165026 127 0 127
0.053103 0.399484 -0.100012 255 0 0
-0.173181 0.444342 -0.502497 127 0 127
0.464367 -0.463895 0.042270 127 0 127
-0.435546 0.296249 -0.346303 127 0 127
0.073838 -0.372231 -0.518147 127 0 127
0.069468 0.446134 -0.019188 127 0 127
-0.435546 0.155233 -0.437946 127 0 127
0.114021 -0.217454 -0.317375 127 0 127
0.464367 -0.278387 0.034283 127 0 127
-0.394854 -0.170245 -0.436070 127 0 127
-0.411008 0.607335 -0.166946 127 0 127
0.428370 -0.028470 0.070711 127 0 127
-0.189947 -0.631108 0.413066 127 0 127
0.317490 -0.027599 0.594981 153 0 76
0.464367 -0.347081 -0.274727 127 0 127
-0.026679 0.607335 -0.240656 127 0 127
-0.399549 0.291890 0.214678 127 0 127
-0.335400 0.446134 -0.368255 127 0 127
0.464367 -0.224166 -0.169523 127 0 127
-0.363546 -0.217454 -0.068779 127 0 127
-0.325986 0.607335 0.377779 127 0 127
-0.295135 0.446134 0.127335 127 0 127
0.464367 -0.433250 0.122258 127 0 127
-0.356915 0.446134 0.217226 127 0 127
-0.399549 0.124070 0.184249 127 0 127
0.463807 0.005691 0.413066 127 0 127
-0.096809 0.397333 -0.043299 255 0 0
0.324072 -0.127531 0.413066 127 0 127
0.370819 -0.026600 0.663364 153 0 76
-0.222441 0.342013 -0.502497 127 0 127
0.105281 -0.026599 0.434814 153 0 76
0.048577 -0.455230 0.413066 127 0 127
-0.435546 -0.500130 -0.385442 127 0 127
-0.435546 0.512488 -0.092227 127 0 127
-0.296314 0.568841 0.420892 127 127 0
0.428370 0.136548 -0.389248 127 0 127
-0.435546 -0.007039 -0.011568 127 0 127
-0.113113 0.564866 -0.518147 127 0 127
0.464367 0.381720 -0.336600 127 0 127
-0.435546 -0.055931 -0.086618 127 0 127
-0.079028 0.411777 -0.502497 127 0 127
-0.074214 0.446134 0.285958 127 0 127
-0.435546 0.226944 -0.450136 127 0 127
0.205233 -0.660367 0.377757 127 0 127
-0.435546 -0.565798 0.405519 127 0 127
-0.260977 0.607335 0.389813 127 0 127
0.334225 -0.062429 0.753924 153 0 76
0.027919 -0.026599 0.438181 153 0 76
-0.039759 -0.062429 0.557767 153 0 76
0.464367 0.268846 0.312895 127 0 127
-0.203284 0.140856 -0.502497 127 0 127
-0.435546 0.379047 -0.411981 127 0 127
0.195394 -0.181411 -0.043920 0 255 0
0.464367 -0.161064 -0.438456 127 0 127
-0.435546 0.100122 0.338526 127 0 127
-0.178549 -0.360756 -0.518147 127 0 127
-0.399549 0.074358 0.031124 127 0 127
-0.275631 -0.026946 0.808133 153 0 76
-0.435546 0.278584 0.344844 127 0 127
0.270993 0.607335 -0.405773 127 0 127
0.051039 -0.183648 -0.026655 0 255 0
0.464367 0.217042 0.214834 127 0 127
0.464367 0.453182 -0.026403 127 0 127
-0.435546 0.389626 -0.205233 127 0 127
-0.006220 -0.093932 -0.497802 127 0 127
0.428370 0.027365 0.309540 127 0 127
-0.226073 -0.104560 0.369244 127 0 127
-0.265679 -0.660367 0.322710 127 0 127
-0.070429 0.042248 -0.502497 127 0 127
-0.435546 0.461638 0.172885 127 0 127
-0.399549 0.331789 0.111217 127 0 127
-0.312397 -0.287574 -0.518147 127 0 127
0.428370 0.293088 -0.240306 127 0 127
0.442477 -0.248996 -0.518147 127 0 127
-0.095585 -0.660367 -0.083625 127 0 127
-0.121263 -0.660367 0.015992 127 0 127
0.428370 -0.028310 0.349436 127 0 127
-0.131022 -0.453982 0.413066 127 0 127
0.048349 -0.027204 0.626587 153 0 76
-0.399549 0.074914 0.297941 127 0 127
0.464367 0.029963 -0.476680 127 0 127
-0.399549 0.154930 -0.366212 127 0 127
0.436881 0.607335 -0.240780 127 0 127
0.398517 0.446134 -0.456512 127 0 127
-0.221584 -0.377709 0.413066 127 0 127
-0.095149 0.607335 0.028200 127 0 127
0.428370 0.244622 -0.469780 127 0 127
-0.399549 0.063851 -0.360948 127 0 127
0.023964 0.368669 -0.070354 255 0 0
-0.125350 -0.217454 -0.194732 127 0 127
0.221507 -0.660367 -0.130983 127 0 127
0.365222 -0.533421 -0.518147 127 0 127
-0.399549 0.082918 0.196812 127 0 127
0.143211 -0.217454 0.318115 127 0 127
-0.435546 -0.573550 -0.433179 127 0 127
0.464367 0.171160 -0.076676 127 0 127
-0.435546 0.272663 0.055439 127 0 127
-0.321104 0.607335 -0.103033 127 0 127
-0.399549 0.315847 0.155412 127 0 127
-0.233040 -0.425144 -0.518147 127 0 127
0.121138 0.571521 -0.518147 127 0 127
0.196474 -0.217454 0.334785 127 0 127
-0.435546 0.268161 0.150159 127 0 127
0.163443 -0.660367 0.091675 127 0 127
0.464367 0.218649 0.050246 127 0 127
0.255542 0.579260 0.420892 127 127 0
0.145679 0.607335 -0.012284 127 0 127
-0.399549 0.302383 -0.313331 127 0 127
-0.336950 -0.217454 -0.362054 127 0 127
-0.105309 -0.026599 0.523335 153 0 76
0.118079 -0.660367 -0.480918 127 0 127
0.001233 -0.379910 0.413066 127 0 127
0.428370 0.218791 0.155245 127 0 127
-0.259498 -0.502447 -0.518147 127 0 127
0.464367 -0.505589 -0.181354 127 0 127
0.095992 -0.026599 0.522712 153 0 76
-0.394854 -0.061567 -0.151688 127 0 127
0.311569 -0.580877 0.413066 127 0 127
-0.161578 -0.626085 -0.518147 127 0 127
-0.168968 0.607335 -0.485937 127 0 127
-0.043021 -0.430332 -0.518147 127 0 127
0.397253 -0.620733 -0.518147 127 0 127
-0.399549 0.006166 -0.231471 127 0 127
-0.394854 -0.042631 -0.491630 127 0 127
-0.435546 -0.621443 -0.281033 127 0 127
0.464367 -0.048410 -0.059323 127 0 127
-0.365318 -0.660367 -0.337728 127 0 127
-0.289739 0.446134 -0.106627 127 0 127
0.327360 0.607335 0.388178 127 0 127
-0.101573 -0.217454 -0.476348 127 0 127
-0.272999 0.607335 -0.103111 127 0 127
0.464367 -0.070005 -0.356849 127 0 127
0.464367 -0.089877 0.142854 127 0 127
0.119697 0.607335 -0.051003 127 0 127
0.428370 0.311527 0.060125 127 0 127
0.117758 0.607335 0.097543 127 0 127
-0.350662 -0.027599 0.752470 153 0 76
0.170675 0.446134 0.189962 127 0 127
-0.297635 0.446134 0.182794 127 0 127
-0.191616 -0.217454 0.193506 127 0 127
-0.192716 0.278121 -0.502497 127 0 127
-0.435546 -0.161766 0.361743 127 0 127
-0.435546 0.201136 -0.285652 127 0 127
0.464367 -0.550744 -0.105794 127 0 127
0.366143 -0.311907 0.413066 127 0 127
0.464367 0.557372 0.038415 127 0 127
0.464367 0.439125 -0.153480 127 0 127
-0.412812 0.607335 0.229920 127 0 127
0.428370 0.164490 -0.013000 127 0 127
0.378090 -0.660367 0.012525 127 0 127
0.241208 -0.602964 -0.518147 127 0 127
0.251391 -0.070000 0.862251 76 0 153
0.464367 0.379868 0.020345 127 0 127
-0.298165 -0.166322 0.369244 127 0 127
0.375346 -0.028081 0.166357 127 0 127
0.428370 0.023383 0.267828 127 0 127
0.015803 0.607335 -0.437416 127 0 127
0.203164 -0.660367 0.265651 127 0 127
-0.435546 -0.457940 -0.141007 127 0 127
0.428370 0.005512 -0.336943 127 0 127
-0.435546 -0.014534 -0.150235 127 0 127
0.464367 -0.564527 -0.347743 127 0 127
-0.435546 0.209641 -0.395450 127 0 127
-0.435546 -0.600161 -0.161801 127 0 127
-0.435546 -0.314267 0.399622 127 0 127
0.012278 -0.660367 -0.478248 127 0 127
-0.006395 0.412328 -0.020877 255 0 0
0.464367 -0.379337 -0.049643 127 0 127
0.428370 0.106117 -0.071495 127 0 127
-0.435546 -0.014978 -0.102687 127 0 127
0.249166 -0.660367 -0.203041 127 0 127
-0.435546 -0.113682 -0.473839 127 0 127
-0.207144 0.477435 0.403048 127 0 127
0.053220 0.607335 0.032757 127 0 127
-0.435546 -0.258754 0.247202 127 0 127
-0.435546 -0.111294 0.184497 127 0 127
0.000531 0.607335 0.254176 127 0 127
0.428370 0.124400 -0.142768 127 0 127
0.105013 0.204989 -0.518147 127 0 127
0.162196 -0.660367 -0.198200 127 0 127
0.111664 -0.217454 -0.487629 127 0 127
0.428370 0.288641 -0.436680 127 0 127
-0.435546 0.593875 -0.220514 127 0 127
-0.221636 -0.217454 -0.414693 127 0 127
-0.399549 0.304895 -0.488829 127 0 127
0.464367 -0.507742 0.059218 127 0 127
-0.153339 -0.042198 0.913783 76 0 153
-0.435546 0.515968 0.407111 127 0 127
0.255857 -0.027599 0.564828 153 0 76
-0.435546 0.228411 -0.077240 127 0 127
-0.435546 0.140187 0.359224 127 0 127
-0.349007 -0.217454 0.234385 127 0 127
-0.435546 0.102278 -0.490421 127 0 127
-0.003923 0.446134 -0.398136 127 0 127
-0.435546 -0.391162 0.057968 127 0 127
0.433340 -0.660367 0.384753 127 0 127
-0.042045 -0.262242 -0.518147 127 0 127
-0.082242 -0.062429 0.537443 153 0 76
0.464367 0.252732 -0.131346 127 0 127
0.385592 0.607335 -0.378150 127 0 127
-0.348423 0.607335 0.264972 127 0 127
-0.128145 -0.062017 -0.518147 127 0 127
-0.399549 0.159125 0.016640 127 0 127
-0.402777 -0.660367 0.370306 127 0 127
0.464367 0.276517 -0.178933 127 0 127
-0.435546 0.166529 -0.045204 127 0 127
-0.390498 -0.028081 -0.041734 127 0 127
0.409926 0.446134 -0.401457 127 0 127
-0.382139 -0.406633 0.413066 127 0 127
0.464367 0.365871 0.185813 127 0 127
0.141546 0.446134 0.228869 127 0 127
-0.259581 0.547802 -0.518147 127 0 127
-0.435546 -0.310136 -0.191992 127 0 127
0.423675 -0.126483 -0.346556 127 0 127
0.370755 0.521766 0.424592 204 51 127
-0.017805 -0.217454 -0.339903 127 0 127
0.410658 -0.660367 -0.288114 127 0 127
-0.010556 -0.660367 -0.335539 127 0 127
0.464367 0.314535 0.234199 127 0 127
0.262521 -0.660367 -0.452134 127 0 127
-0.258385 -0.178348 -0.045364 0 255 0
-0.305833 -0.062429 0.571225 153 0 76
0.325720 0.510977 0.420892 127 127 0
-0.229208 0.607335 0.337966 127 0 127
-0.435546 -0.329645 -0.059689 127 0 127
0.383313 -0.528910 0.413066 127 0 127
-0.313079 0.327904 -0.518147 127 0 127
0.054827 0.601549 -0.518147 127 0 127
0.464367 -0.365653 0.023777 127 0 127
-0.345513 -0.028081 0.131298 127 0 127
0.428370 0.434017 0.064577 127 0 127
0.434919 -0.300932 0.413066 127 0 127
-0.422858 -0.233624 0.413066 127 0 127
-0.435546 -0.008338 -0.381515 127 0 127
-0.399549 0.354058 -0.157558 127 0 127
0.464367 0.349525 -0.275444 127 0 127
-0.310444 -0.660367 -0.296362 127 0 127
0.301997 0.607335 -0.154331 127 0 127
0.104481 0.607335 0.346932 127 0 127
-0.435546 -0.564108 -0.332907 127 0 127
0.464367 -0.433074 0.307962 127 0 127
-0.342429 -0.365266 -0.518147 127 0 127
0.428370 0.104970 0.187610 127 0 127
0.464367 0.002982 0.132550 127 0 127
0.428370 0.340448 -0.077617 127 0 127
0.439790 -0.422171 -0.518147 127 0 127
0.428370 0.332586 0.280750 127 0 127
-0.184803 -0.026599 0.510153 153 0 76
-0.399549 0.009384 0.151532 127 0 127
-0.435546 -0.073422 0.336749 127 0 127
-0.435546 0.534158 -0.195212 127 0 127
-0.435546 0.398915 -0.075802 127 0 127
0.464367 -0.301608 0.082666 127 0 127
-0.028371 -0.169876 -0.497802 127 0 127
0.428370 0.029292 -0.431652 127 0 127
-0.435546 0.297212 -0.259755 127 0 127
0.374456 -0.217454 0.341553 127 0 127
0.017019 -0.026599 0.536210 153 0 76
0.170179 -0.217454 0.150072 127 0 127
-0.060510 -0.525296 -0.518147 127 0 127
-0.104762 -0.026599 0.567750 153 0 76
0.428370 0.253460 -0.168756 127 0 127
-0.435546 0.492554 0.361144 127 0 127
-0.401616 0.607335 -0.096319 127 0 127
0.231865 0.477435 0.407149 127 0 127
-0.430898 -0.034645 0.664353 153 0 76
0.371175 0.607335 0.139234 127 0 127
0.201252 -0.062429 0.602554 153 0 76
-0.237748 0.184860 -0.518147 127 0 127
0.464367 0.289190 0.277143 127 0 127
0.085720 -0.217454 0.289134 127 0 127
-0.435546 0.188281 -0.351638 127 0 127
0.423675 -0.115216 0.114160 127 0 127
0.423675 -0.122492 -0.076992 127 0 127
0.370210 0.450809 0.373940 127 0 127
-0.278033 -0.490932 0.413066 127 0 127
0.464367 -0.076372 0.380312 127 0 127
0.266052 -0.026725 0.384191 153 0 76
0.176227 -0.475333 0.413066 127 0 127
0.464367 -0.288787 -0.061238 127 0 127
0.254743 0.607335 -0.510574 127 0 127
0.284072 -0.026599 0.717571 153 0 76
-0.399549 0.420267 0.160648 127 0 127
-0.177378 0.607335 -0.214130 127 0 127
-0.435546 -0.420236 -0.340064 127 0 127
0.001409 -0.660367 -0.396394 127 0 127
-0.399549 0.075721 0.112157 127 0 127
0.464367 0.542565 -0.265220 127 0 127
0.426805 -0.020107 0.819263 153 0 76
0.464367 -0.316883 -0.391066 127 0 127
-0.216113 -0.026599 0.813650 153 0 76
-0.141475 -0.002045 -0.518147 127 0 127
-0.127059 0.446134 0.151051 127 0 127
-0.078498 -0.217454 0.213911 127 0 127
0.464367 0.379088 -0.129392 127 0 127
0.278157 -0.314367 -0.518147 127 0 127
-0.400247 0.252394 0.373940 127 0 127
0.428370 0.284919 0.297269 127 0 127
-0.103550 -0.079041 0.868905 76 0 153
0.106937 -0.170356 -0.042506 0 255 0
-0.119314 0.446134 -0.037305 127 0 127
0.423675 -0.174412 -0.025009 127 0 127
-0.212246 -0.660367 -0.392452 127 0 127
-0.159871 -0.355129 0.413066 127 0 127
-0.399549 0.367396 -0.204397 127 0 127
-0.281264 -0.064634 -0.518147 127 0 127
-0.414583 -0.026600 0.564737 153 0 76
-0.073656 0.607335 -0.390580 127 0 127
-0.399549 0.369619 -0.028733 127 0 127
0.464367 0.404815 0.284915 127 0 127
-0.276205 0.446134 -0.191447 127 0 127
0.296647 -0.062429 0.736965 153 0 76
0.132854 -0.154447 -0.518147 127 0 127
-0.119695 -0.461908 -0.518147 127 0 127
-0.108432 -0.062429 0.647920 153 0 76
-0.067093 -0.660367 0.079363 127 0 127
-0.075991 -0.217454 0.048647 127 0 127
-0.261985 -0.062429 0.450935 153 0 76
-0.435546 -0.542636 -0.251406 127 0 127
-0.250831 -0.562509 0.413066 127 0 127
-0.302573 0.477435 0.405817 127 0 127
-0.068481 -0.660367 -0.189157 127 0 127
0.367625 -0.027599 0.493006 153 0 76
-0.114776 -0.176262 -0.042515 0 255 0
-0.239187 -0.660367 -0.101266 127 0 127
-0.128828 0.607335 0.371091 127 0 127
0.384514 -0.685766 -0.417926 0 127 127
0.464367 -0.450076 0.412091 127 0 127
0.464367 0.467031 0.018543 127 0 127
-0.080980 -0.167813 0.369244 127 0 127
0.103264 -0.617241 0.413066 127 0 127
-0.123897 0.607335 -0.364477 127 0 127
-0.307278 -0.062429 0.486060 153 0 76
-0.435546 0.420954 -0.441328 127 0 127
0.464367 -0.459996 -0.346949 127 0 127
-0.399549 0.246938 0.128635 127 0 127
0.270283 -0.376258 0.413066 127 0 127
0.208275 -0.026599 0.830718 153 0 76
-0.341001 -0.027861 0.908592 76 0 153
0.256630 0.607335 -0.209433 127 0 127
-0.435546 0.327963 -0.452236 127 0 127
-0.399549 0.331783 0.262889 127 0 127
-0.278938 -0.026599 0.478253 153 0 76
-0.435546 0.244612 -0.210990 127 0 127
-0.244806 -0.217454 0.215649 127 0 127
0.000227 -0.660367 0.377220 127 0 127
-0.317685 -0.181457 -0.072781 0 255 0
0.464367 -0.078887 0.082566 127 0 127
-0.229210 -0.027600 0.746558 153 0 76
-0.399549 0.389779 -0.281946 127 0 127
0.428370 0.300331 -0.071445 127 0 127
0.464367 -0.197657 -0.474644 127 0 127
-0.359108 -0.062429 0.501206 153 0 76
0.464367 -0.645984 -0.468306 127 0 127
0.428370 0.327377 0.323958 127 0 127
0.034187 0.577722 0.420892 127 127 0
0.156533 -0.217454 -0.245597 127 0 127
-0.072898 -0.026599 0.486795 153 0 76
0.190291 -0.217454 -0.468110 127 0 127
0.464367 -0.166177 -0.357619 127 0 127
-0.435546 -0.354866 -0.511518 127 0 127
0.295738 -0.194537 0.369244 127 0 127
-0.361685 -0.217454 0.181413 127 0 127
-0.394854 -0.032545 0.254813 127 0 127
0.453767 -0.660367 -0.015915 127 0 127
-0.293693 0.119758 -0.502497 127 0 127
0.464367 -0.624244 0.268502 127 0 127
0.086131 -0.087390 0.413066 127 0 127
-0.187587 0.607335 -0.405692 127 0 127
0.464367 -0.466211 -0.054887 127 0 127
-0.394854 -0.051763 0.178335 127 0 127
-0.362341 0.446134 -0.287771 127 0 127
0.464367 0.569447 0.212149 127 0 127
0.464367 -0.306040 -0.481015 127 0 127
-0.356360 -0.026599 0.579443 153 0 76
0.139644 0.607335 0.302203 127 0 127
0.257133 0.446134 -0.372746 127 0 127
-0.276650 0.067321 -0.502497 127 0 127
-0.399549 0.042931 -0.102759 127 0 127
-0.413914 -0.660367 -0.191566 127 0 127
0.425083 -0.660367 -0.105769 127 0 127
