0.299572 -0.185240 -0.054178 0.600000 0.000000 0.300000
0.165425 -0.207837 0.257106 0.600000 0.000000 0.300000
0.109911 -0.654086 0.203500 0.600000 0.000000 0.300000
-0.104215 0.612939 0.116707 0.300000 0.000000 0.600000
-0.155887 0.349181 -0.055708 0.600000 0.000000 0.300000
-0.047594 0.405523 0.143698 0.600000 0.000000 0.300000
-0.058646 0.669256 0.036664 0.600000 0.300000 0.000000
-0.042981 0.467604 -0.096490 0.300000 0.000000 0.600000
0.068359 0.858962 0.083263 0.600000 0.300000 0.000000
-0.221043 -0.654086 -0.065148 0.600000 0.000000 0.300000
0.007411 0.912691 0.098224 0.600000 0.300000 0.000000
-0.166688 0.174125 -0.161037 0.600000 0.000000 0.300000
0.052718 0.253115 0.205648 0.600000 0.000000 0.300000
0.223430 -0.422814 -0.201125 0.600000 0.000000 0.300000
0.025010 0.664308 -0.148202 0.300000 0.000000 0.600000
-0.031725 -0.164820 0.304090 0.600000 0.000000 0.300000
-0.285116 -0.549460 0.083305 0.600000 0.000000 0.300000
0.028944 -0.181781 -0.296358 0.600000 0.000000 0.300000
-0.136868 0.291504 -0.126277 0.600000 0.000000 0.300000
0.006028 0.813786 -0.069374 0.600000 0.300000 0.000000
-0.031956 0.467604 0.016920 0.300000 0.000000 0.600000
0.004055 0.816341 0.060356 0.600000 0.300000 0.000000
0.240569 -0.325089 -0.184321 0.600000 0.000000 0.300000
0.158641 0.326059 0.094136 0.600000 0.000000 0.300000
0.181138 -0.595943 0.247557 0.600000 0.000000 0.300000
0.030444 0.606380 -0.146789 0.300000 0.000000 0.600000
-0.131777 -0.654086 0.045216 0.600000 0.000000 0.300000
-0.159156 0.364360 0.026742 0.600000 0.000000 0.300000
-0.267961 -0.471476 -0.123230 0.600000 0.000000 0.300000
0.049467 -0.283380 0.303113 0.600000 0.000000 0.300000
-0.217919 -0.449118 -0.197482 0.600000 0.000000 0.300000
0.160883 0.013887 -0.076406 0.600000 0.000000 0.300000
0.027501 0.669256 -0.090252 0.300000 0.000000 0.600000
-0.164387 0.322702 0.068974 0.600000 0.000000 0.300000
0.046507 -0.068433 -0.294197 0.600000 0.000000 0.300000
0.233109 -0.268935 -0.191871 0.600000 0.000000 0.300000
0.277824 -0.370686 0.128853 0.600000 0.000000 0.300000
-0.126166 -0.191855 -0.267541 0.600000 0.000000 0.300000
0.127188 -0.161221 -0.270393 0.600000 0.000000 0.300000
-0.132711 0.380803 -0.073603 0.600000 0.000000 0.300000
0.264174 -0.565952 -0.145479 0.600000 0.000000 0.300000
0.209729 0.013887 0.190430 0.600000 0.000000 0.300000
0.109974 -0.654086 0.140590 0.600000 0.000000 0.300000
-0.248554 0.032752 -0.143415 0.600000 0.000000 0.300000
0.004642 -0.011346 -0.295811 0.600000 0.000000 0.300000
0.084625 -0.654086 0.163566 0.600000 0.000000 0.300000
0.073606 0.812183 -0.024008 0.600000 0.300000 0.000000
0.015044 0.284025 0.198975 0.600000 0.000000 0.300000
-0.183368 -0.406623 0.239744 0.600000 0.000000 0.300000
0.120521 0.269763 -0.160770 0.600000 0.000000 0.300000
-0.132844 0.013887 -0.076519 0.600000 0.000000 0.300000
-0.106990 0.467604 -0.029882 0.300000 0.000000 0.600000
-0.049020 0.166406 0.238915 0.600000 0.000000 0.300000
0.126925 0.429794 -0.044002 0.600000 0.000000 0.300000
-0.296456 -0.478407 -0.026032 0.600000 0.000000 0.300000
0.015392 0.375692 -0.155540 0.600000 0.000000 0.300000
-0.073408 -0.654086 -0.213053 0.600000 0.000000 0.300000
-0.090950 -0.577679 0.289640 0.600000 0.000000 0.300000
-0.035782 0.276383 -0.190405 0.600000 0.000000 0.300000
0.064637 0.694463 -0.057388 0.600000 0.300000 0.000000
0.288615 -0.272225 -0.091676 0.600000 0.000000 0.300000
0.013205 -0.613457 -0.286456 0.600000 0.000000 0.300000
0.279339 0.064473 -0.053395 0.600000 0.000000 0.300000
0.261025 -0.634249 -0.078797 0.600000 0.000000 0.300000
0.169984 -0.439368 0.254335 0.600000 0.000000 0.300000
-0.023881 0.013887 0.159081 0.600000 0.000000 0.300000
0.302126 -0.159582 0.048227 0.600000 0.000000 0.300000
0.185886 0.013887 0.086548 0.600000 0.000000 0.300000
-0.088054 -0.654086 0.138474 0.600000 0.000000 0.300000
-0.072352 0.368951 0.146985 0.600000 0.000000 0.300000
-0.150313 0.616161 0.017294 0.300000 0.000000 0.600000
0.116382 -0.045528 -0.276312 0.600000 0.000000 0.300000
0.233832 -0.490815 0.197932 0.600000 0.000000 0.300000
-0.056355 0.013887 0.023913 0.600000 0.000000 0.300000
0.107634 -0.654086 0.012433 0.600000 0.000000 0.300000
0.079035 0.064589 -0.265997 0.600000 0.000000 0.300000
-0.188594 0.244050 -0.082106 0.600000 0.000000 0.300000
0.008073 -0.654086 0.035932 0.600000 0.000000 0.300000
-0.036310 0.290821 0.192293 0.600000 0.000000 0.300000
0.286218 0.032244 -0.074468 0.600000 0.000000 0.300000
0.068049 0.870973 -0.017655 0.600000 0.300000 0.000000
0.289331 0.051225 0.039509 0.600000 0.000000 0.300000
-0.149305 -0.076969 0.262021 0.600000 0.000000 0.300000
-0.057765 0.711178 0.075217 0.600000 0.300000 0.000000
-0.050079 -0.377140 -0.292408 0.600000 0.000000 0.300000
-0.041928 0.669256 -0.129972 0.300000 0.000000 0.600000
0.007477 0.987501 -0.032514 0.600000 0.300000 0.000000
-0.268665 -0.220406 -0.121944 0.600000 0.000000 0.300000
-0.258414 -0.611215 -0.125401 0.600000 0.000000 0.300000
-0.119608 -0.174965 0.278287 0.600000 0.000000 0.300000
-0.265904 -0.631388 -0.038981 0.600000 0.000000 0.300000
0.118968 -0.533677 0.283058 0.600000 0.000000 0.300000
-0.274486 0.013887 -0.029569 0.600000 0.000000 0.300000
0.077494 0.078859 0.268895 0.600000 0.000000 0.300000
0.304827 -0.239337 0.033995 0.600000 0.000000 0.300000
-0.007521 0.092029 0.274047 0.600000 0.000000 0.300000
0.078629 -0.121516 -0.286360 0.600000 0.000000 0.300000
0.134704 -0.029130 0.275776 0.600000 0.000000 0.300000
0.027523 0.013887 0.216669 0.600000 0.000000 0.300000
-0.041796 0.047404 0.288238 0.600000 0.000000 0.300000
-0.295233 -0.583144 0.028317 0.600000 0.000000 0.300000
0.153155 -0.174388 0.264563 0.600000 0.000000 0.300000
-0.192637 -0.654086 -0.043105 0.600000 0.000000 0.300000
0.140631 0.140269 0.214752 0.600000 0.000000 0.300000
-0.158871 0.361698 -0.022973 0.600000 0.000000 0.300000
0.196568 -0.595162 -0.226804 0.600000 0.000000 0.300000
-0.067896 0.828684 -0.006801 0.600000 0.300000 0.000000
-0.136399 0.473394 0.072331 0.300000 0.000000 0.600000
-0.129952 -0.654086 -0.132853 0.600000 0.000000 0.300000
-0.062868 -0.453160 0.296492 0.600000 0.000000 0.300000
0.015190 -0.249595 0.303884 0.600000 0.000000 0.300000
-0.203948 -0.650287 0.150654 0.600000 0.000000 0.300000
0.027665 0.429794 0.123852 0.600000 0.000000 0.300000
0.022018 -0.544896 0.303731 0.600000 0.000000 0.300000
0.270060 -0.155912 -0.135794 0.600000 0.000000 0.300000
-0.141836 0.624862 -0.046279 0.300000 0.000000 0.600000
-0.063359 -0.195378 0.296372 0.600000 0.000000 0.300000
-0.064004 0.718282 -0.056265 0.600000 0.300000 0.000000
-0.068682 -0.559519 0.295073 0.600000 0.000000 0.300000
-0.155063 0.090511 -0.215166 0.600000 0.000000 0.300000
0.140718 0.529959 0.079929 0.300000 0.000000 0.600000
0.181816 0.078342 0.216127 0.600000 0.000000 0.300000
0.095201 -0.274334 -0.282316 0.600000 0.000000 0.300000
-0.246255 -0.537316 0.169506 0.600000 0.000000 0.300000
-0.051575 0.913774 0.023829 0.600000 0.300000 0.000000
-0.223643 -0.617777 -0.171503 0.600000 0.000000 0.300000
0.018508 0.246387 -0.205828 0.600000 0.000000 0.300000
0.148116 0.638404 -0.054634 0.300000 0.000000 0.600000
0.046457 0.955250 0.029026 0.600000 0.300000 0.000000
-0.188656 -0.654086 0.090021 0.600000 0.000000 0.300000
-0.025266 0.429794 -0.057938 0.600000 0.000000 0.300000
-0.035028 0.195905 -0.223179 0.600000 0.000000 0.300000
-0.107063 -0.050684 0.285158 0.600000 0.000000 0.300000
-0.049306 0.762242 0.099500 0.600000 0.300000 0.000000
0.304243 -0.182904 0.008060 0.600000 0.000000 0.300000
0.211577 0.249139 0.034000 0.600000 0.000000 0.300000
-0.181726 -0.314288 -0.233776 0.600000 0.000000 0.300000
-0.092786 0.518748 -0.115505 0.300000 0.000000 0.600000
0.303128 -0.597663 -0.041525 0.600000 0.000000 0.300000
-0.188271 -0.654086 0.121474 0.600000 0.000000 0.300000
0.210280 -0.289069 -0.213696 0.600000 0.000000 0.300000
-0.042709 0.013887 -0.277871 0.600000 0.000000 0.300000
-0.294743 -0.253356 0.050121 0.600000 0.000000 0.300000
0.021628 0.753484 0.087973 0.600000 0.300000 0.000000
-0.084577 0.418191 0.117017 0.600000 0.000000 0.300000
-0.159966 -0.524406 0.256181 0.600000 0.000000 0.300000
-0.167902 0.174481 0.168266 0.600000 0.000000 0.300000
0.139787 -0.437692 -0.263492 0.600000 0.000000 0.300000
-0.126441 0.645472 -0.076655 0.300000 0.000000 0.600000
0.204233 0.157435 0.147188 0.600000 0.000000 0.300000
0.195138 -0.654086 -0.139908 0.600000 0.000000 0.300000
-0.263684 -0.546659 0.140828 0.600000 0.000000 0.300000
-0.264820 -0.345523 0.138958 0.600000 0.000000 0.300000
-0.288032 -0.530503 -0.063321 0.600000 0.000000 0.300000
-0.265402 -0.615313 0.110200 0.600000 0.000000 0.300000
-0.187807 0.013887 0.006766 0.600000 0.000000 0.300000
0.013056 0.906673 0.021765 0.600000 0.300000 0.000000
-0.244212 -0.026637 -0.166589 0.600000 0.000000 0.300000
0.022136 -0.164756 0.303728 0.600000 0.000000 0.300000
0.304770 -0.122048 0.031478 0.600000 0.000000 0.300000
-0.256109 -0.023543 0.153292 0.600000 0.000000 0.300000
0.118233 0.668913 0.111494 0.300000 0.000000 0.600000
-0.112991 -0.433777 0.281911 0.600000 0.000000 0.300000
-0.091214 -0.285985 -0.280388 0.600000 0.000000 0.300000
0.282102 -0.104311 -0.113967 0.600000 0.000000 0.300000
0.204848 0.267835 -0.026192 0.600000 0.000000 0.300000
-0.062820 0.184886 -0.219515 0.600000 0.000000 0.300000
0.007494 0.013887 -0.267468 0.600000 0.000000 0.300000
0.189728 0.017056 -0.231641 0.600000 0.000000 0.300000
0.217285 -0.514516 0.215241 0.600000 0.000000 0.300000
-0.207240 -0.202180 -0.208653 0.600000 0.000000 0.300000
-0.143233 0.052824 0.248109 0.600000 0.000000 0.300000
0.138979 0.111515 -0.220715 0.600000 0.000000 0.300000
0.125911 -0.055893 0.281029 0.600000 0.000000 0.300000
0.152807 0.654555 0.050972 0.300000 0.000000 0.600000
-0.274019 0.039738 0.085497 0.600000 0.000000 0.300000
0.042105 0.863422 0.059499 0.600000 0.300000 0.000000
0.291602 -0.223286 0.091363 0.600000 0.000000 0.300000
0.049985 -0.654086 -0.175593 0.600000 0.000000 0.300000
-0.015239 -0.120749 0.304569 0.600000 0.000000 0.300000
-0.233435 0.013887 0.042949 0.600000 0.000000 0.300000
-0.275811 -0.272565 -0.108899 0.600000 0.000000 0.300000
-0.250403 -0.643955 0.060602 0.600000 0.000000 0.300000
0.052668 0.445798 -0.140491 0.300000 0.000000 0.600000
0.167548 -0.025257 -0.248287 0.600000 0.000000 0.300000
0.246472 0.078608 0.133782 0.600000 0.000000 0.300000
0.208426 -0.654086 0.137752 0.600000 0.000000 0.300000
-0.215373 -0.373011 0.209147 0.600000 0.000000 0.300000
-0.007247 -0.071150 -0.295543 0.600000 0.000000 0.300000
0.226135 0.126598 0.132125 0.600000 0.000000 0.300000
0.159365 0.601389 0.022067 0.300000 0.000000 0.600000
-0.033372 0.876779 -0.049336 0.600000 0.300000 0.000000
0.257847 0.094586 0.097526 0.600000 0.000000 0.300000
-0.187747 0.043374 -0.212475 0.600000 0.000000 0.300000
0.035080 0.013887 0.036474 0.600000 0.000000 0.300000
0.179999 -0.239522 -0.241466 0.600000 0.000000 0.300000
-0.159875 -0.133969 0.256231 0.600000 0.000000 0.300000
0.101679 0.013887 -0.267735 0.600000 0.000000 0.300000
0.024816 0.482440 0.161084 0.300000 0.000000 0.600000
-0.286944 -0.345989 0.077052 0.600000 0.000000 0.300000
0.167642 -0.174508 -0.248235 0.600000 0.000000 0.300000
0.165919 0.013887 0.188369 0.600000 0.000000 0.300000
-0.277268 -0.559628 0.110163 0.600000 0.000000 0.300000
0.022546 0.429794 0.008012 0.600000 0.000000 0.300000
-0.182387 -0.099887 -0.233374 0.600000 0.000000 0.300000
-0.111846 0.245535 -0.170995 0.600000 0.000000 0.300000
0.099045 0.390366 0.126395 0.600000 0.000000 0.300000
0.055382 0.858851 -0.041427 0.600000 0.300000 0.000000
0.303591 -0.403964 -0.020945 0.600000 0.000000 0.300000
-0.037172 0.072502 -0.272106 0.600000 0.000000 0.300000
0.303873 -0.152434 -0.008397 0.600000 0.000000 0.300000
0.063406 0.792103 0.096965 0.600000 0.300000 0.000000
0.250409 0.013887 -0.116967 0.600000 0.000000 0.300000
0.078102 0.500171 0.142686 0.300000 0.000000 0.600000
-0.091694 -0.654086 0.057719 0.600000 0.000000 0.300000
-0.053307 0.013887 0.118730 0.600000 0.000000 0.300000
0.304426 -0.411242 0.016190 0.600000 0.000000 0.300000
-0.019843 1.009544 0.012448 0.600000 0.300000 0.000000
-0.216239 0.013887 -0.154268 0.600000 0.000000 0.300000
0.034029 0.645647 0.158846 0.300000 0.000000 0.600000
-0.187214 0.260012 0.077635 0.600000 0.000000 0.300000
0.104619 0.013887 0.214518 0.600000 0.000000 0.300000
0.120581 0.326993 -0.131263 0.600000 0.000000 0.300000
-0.099805 0.387949 0.118703 0.600000 0.000000 0.300000
-0.284346 -0.469516 0.085940 0.600000 0.000000 0.300000
0.287264 -0.143224 0.109145 0.600000 0.000000 0.300000
0.006065 -0.470639 0.304090 0.600000 0.000000 0.300000
-0.149768 -0.501881 -0.253198 0.600000 0.000000 0.300000
0.141961 -0.398306 -0.262302 0.600000 0.000000 0.300000
-0.011090 0.669256 0.092608 0.300000 0.000000 0.600000
0.177692 -0.400588 -0.242730 0.600000 0.000000 0.300000
-0.150465 0.529373 -0.003274 0.300000 0.000000 0.600000
-0.052876 0.429794 0.048511 0.600000 0.000000 0.300000
-0.005802 0.932856 0.062157 0.600000 0.300000 0.000000
-0.252588 -0.288698 -0.151297 0.600000 0.000000 0.300000
0.130146 -0.105041 0.278546 0.600000 0.000000 0.300000
0.114417 0.467604 -0.083574 0.300000 0.000000 0.600000
0.282303 -0.621257 -0.051760 0.600000 0.000000 0.300000
-0.282515 -0.484321 -0.085933 0.600000 0.000000 0.300000
-0.189722 0.013887 0.052138 0.600000 0.000000 0.300000
-0.279217 -0.436063 0.103493 0.600000 0.000000 0.300000
-0.208134 -0.581135 0.216068 0.600000 0.000000 0.300000
-0.193002 -0.062911 0.230534 0.600000 0.000000 0.300000
0.156110 0.522903 0.038271 0.300000 0.000000 0.600000
-0.165370 0.128750 0.195252 0.600000 0.000000 0.300000
-0.001286 0.563353 -0.148367 0.300000 0.000000 0.600000
0.252645 -0.637873 0.104721 0.600000 0.000000 0.300000
0.069152 0.734762 -0.049715 0.600000 0.300000 0.000000
0.180071 0.116044 0.196769 0.600000 0.000000 0.300000
0.039242 0.013887 -0.226137 0.600000 0.000000 0.300000
-0.042364 -0.640399 -0.256977 0.600000 0.000000 0.300000
0.194319 0.013887 -0.136270 0.600000 0.000000 0.300000
-0.062217 0.467604 0.072135 0.300000 0.000000 0.600000
0.172328 -0.654086 0.077582 0.600000 0.000000 0.300000
0.260719 -0.643501 0.052399 0.600000 0.000000 0.300000
-0.076842 -0.640780 -0.246510 0.600000 0.000000 0.300000
-0.149270 0.503384 -0.017695 0.300000 0.000000 0.600000
-0.046084 0.015034 0.300128 0.600000 0.000000 0.300000
-0.056735 -0.190275 -0.290463 0.600000 0.000000 0.300000
0.027525 0.726030 0.090625 0.600000 0.300000 0.000000
0.014841 -0.654086 -0.196886 0.600000 0.000000 0.300000
0.220429 -0.612764 -0.191737 0.600000 0.000000 0.300000
-0.146461 0.000488 -0.255208 0.600000 0.000000 0.300000
0.005679 0.013887 0.027650 0.600000 0.000000 0.300000
-0.281247 -0.135412 0.096549 0.600000 0.000000 0.300000
0.022387 0.843729 0.076159 0.600000 0.300000 0.000000
-0.109114 -0.322186 0.284035 0.600000 0.000000 0.300000
-0.123733 0.669256 -0.034612 0.300000 0.000000 0.600000
0.199124 -0.108256 -0.224360 0.600000 0.000000 0.300000
0.017858 0.013887 -0.020491 0.600000 0.000000 0.300000
-0.090671 0.293336 0.170425 0.600000 0.000000 0.300000
0.123271 -0.321764 -0.272539 0.600000 0.000000 0.300000
-0.195523 0.260755 -0.038099 0.600000 0.000000 0.300000
-0.029737 0.939550 0.086453 0.600000 0.300000 0.000000
-0.296280 -0.338786 -0.018223 0.600000 0.000000 0.300000
0.176482 0.108454 -0.195210 0.600000 0.000000 0.300000
0.163134 0.366135 -0.033481 0.600000 0.000000 0.300000
0.131848 0.013887 -0.242472 0.600000 0.000000 0.300000
-0.225471 0.013887 -0.030440 0.600000 0.000000 0.300000
-0.243281 -0.304603 0.174400 0.600000 0.000000 0.300000
0.142248 -0.654086 -0.075042 0.600000 0.000000 0.300000
0.036116 0.013887 -0.183182 0.600000 0.000000 0.300000
0.137972 -0.654086 -0.174350 0.600000 0.000000 0.300000
0.070606 0.013887 0.069804 0.600000 0.000000 0.300000
-0.259136 0.107384 0.018808 0.600000 0.000000 0.300000
0.293619 -0.388709 0.083098 0.600000 0.000000 0.300000
0.260602 -0.509801 -0.151357 0.600000 0.000000 0.300000
-0.097355 0.612628 -0.110869 0.300000 0.000000 0.600000
-0.087388 -0.394086 0.290509 0.600000 0.000000 0.300000
0.107321 -0.196162 0.286461 0.600000 0.000000 0.300000
-0.240375 -0.475904 -0.173593 0.600000 0.000000 0.300000
0.225475 0.198324 0.060277 0.600000 0.000000 0.300000
0.120153 -0.654086 0.089174 0.600000 0.000000 0.300000
-0.295455 -0.486218 0.018461 0.600000 0.000000 0.300000
-0.012406 0.907572 0.001359 0.600000 0.300000 0.000000
-0.051590 -0.334939 0.299243 0.600000 0.000000 0.300000
-0.134596 -0.133708 0.270077 0.600000 0.000000 0.300000
-0.107222 0.013887 -0.255884 0.600000 0.000000 0.300000
0.303141 -0.357270 -0.040924 0.600000 0.000000 0.300000
0.296944 -0.058586 0.069468 0.600000 0.000000 0.300000
-0.294083 -0.181121 -0.038520 0.600000 0.000000 0.300000
0.031931 0.397470 -0.144451 0.600000 0.000000 0.300000
0.230281 0.041103 0.186354 0.600000 0.000000 0.300000
-0.017388 0.837141 0.098782 0.600000 0.300000 0.000000
0.037149 0.013887 -0.084289 0.600000 0.000000 0.300000
-0.129528 -0.654086 0.096928 0.600000 0.000000 0.300000
-0.046360 0.883511 0.010170 0.600000 0.300000 0.000000
0.054686 0.920259 -0.020412 0.600000 0.300000 0.000000
0.222292 0.013887 0.163836 0.600000 0.000000 0.300000
0.174207 0.218927 -0.138044 0.600000 0.000000 0.300000
0.013785 0.467604 0.137803 0.300000 0.000000 0.600000
-0.258136 0.111732 -0.011811 0.600000 0.000000 0.300000
0.286837 -0.034977 0.110894 0.600000 0.000000 0.300000
-0.002262 0.264093 0.207105 0.600000 0.000000 0.300000
-0.130088 0.449915 -0.070554 0.300000 0.000000 0.600000
-0.150441 0.589335 -0.000069 0.300000 0.000000 0.600000
0.148535 0.467604 -0.003809 0.300000 0.000000 0.600000
0.152909 -0.579448 0.264712 0.600000 0.000000 0.300000
0.037702 -0.561715 -0.296345 0.600000 0.000000 0.300000
0.207138 0.188356 0.116892 0.600000 0.000000 0.300000
0.248095 0.034289 -0.156684 0.600000 0.000000 0.300000
0.230889 0.063342 -0.163275 0.600000 0.000000 0.300000
0.085785 0.669256 0.027343 0.300000 0.000000 0.600000
0.000910 0.894857 0.069883 0.600000 0.300000 0.000000
0.080229 -0.017428 0.294377 0.600000 0.000000 0.300000
-0.084653 -0.148827 0.291176 0.600000 0.000000 0.300000
0.287112 -0.154691 -0.096822 0.600000 0.000000 0.300000
-0.011960 0.669256 0.003282 0.300000 0.000000 0.600000
-0.097837 0.429794 0.073472 0.600000 0.000000 0.300000
-0.153717 0.013887 0.084663 0.600000 0.000000 0.300000
-0.272185 0.049160 -0.070491 0.600000 0.000000 0.300000
0.018127 -0.654086 0.222047 0.600000 0.000000 0.300000
0.065686 0.747058 0.076369 0.600000 0.300000 0.000000
-0.029179 -0.271473 -0.295050 0.600000 0.000000 0.300000
-0.293807 -0.311683 -0.039650 0.600000 0.000000 0.300000
-0.105506 0.013887 0.111047 0.600000 0.000000 0.300000
0.036660 0.798666 0.076723 0.600000 0.300000 0.000000
0.163379 -0.654086 -0.029888 0.600000 0.000000 0.300000
-0.026447 0.748810 0.084230 0.600000 0.300000 0.000000
-0.289992 -0.417207 -0.055288 0.600000 0.000000 0.300000
-0.230668 -0.143822 0.194525 0.600000 0.000000 0.300000
-0.031663 -0.654086 0.062918 0.600000 0.000000 0.300000
-0.281155 -0.343761 -0.091508 0.600000 0.000000 0.300000
-0.198757 -0.146426 -0.217527 0.600000 0.000000 0.300000
0.215680 -0.654086 0.088594 0.600000 0.000000 0.300000
-0.261899 -0.510823 -0.134297 0.600000 0.000000 0.300000
-0.062028 0.270482 -0.185122 0.600000 0.000000 0.300000
0.076791 -0.065144 0.295382 0.600000 0.000000 0.300000
-0.124334 0.213090 -0.178147 0.600000 0.000000 0.300000
0.006279 0.970219 0.098250 0.600000 0.300000 0.000000
-0.153300 0.013887 0.230514 0.600000 0.000000 0.300000
-0.161060 0.013887 -0.128951 0.600000 0.000000 0.300000
-0.178996 -0.508616 -0.235435 0.600000 0.000000 0.300000
0.302787 -0.550851 0.045519 0.600000 0.000000 0.300000
0.097911 0.429794 -0.074838 0.600000 0.000000 0.300000
-0.255171 -0.421828 -0.146581 0.600000 0.000000 0.300000
-0.143630 -0.199303 0.265129 0.600000 0.000000 0.300000
0.015483 -0.395519 -0.296055 0.600000 0.000000 0.300000
0.177509 -0.266946 -0.242831 0.600000 0.000000 0.300000
-0.295665 -0.216909 0.009137 0.600000 0.000000 0.300000
0.110046 0.013887 0.066962 0.600000 0.000000 0.300000
0.064155 0.669256 0.112975 0.300000 0.000000 0.600000
0.249048 -0.472528 -0.170369 0.600000 0.000000 0.300000
0.107409 0.467604 0.028525 0.300000 0.000000 0.600000
-0.090312 0.013887 0.030342 0.600000 0.000000 0.300000
-0.000212 0.467604 -0.133264 0.300000 0.000000 0.600000
-0.289038 -0.028543 -0.059199 0.600000 0.000000 0.300000
0.270186 -0.415596 -0.135586 0.600000 0.000000 0.300000
-0.025206 -0.557293 -0.295139 0.600000 0.000000 0.300000
-0.092178 0.467604 -0.006969 0.300000 0.000000 0.600000
-0.165550 0.043484 -0.230159 0.600000 0.000000 0.300000
-0.134543 0.400977 -0.053953 0.600000 0.000000 0.300000
-0.277948 -0.178909 0.107839 0.600000 0.000000 0.300000
0.146117 0.471853 -0.058039 0.300000 0.000000 0.600000
0.088533 -0.654086 0.090866 0.600000 0.000000 0.300000
0.291864 -0.253524 0.090291 0.600000 0.000000 0.300000
0.303456 -0.203868 -0.026947 0.600000 0.000000 0.300000
-0.216329 -0.548747 0.208233 0.600000 0.000000 0.300000
-0.135247 0.013887 0.064688 0.600000 0.000000 0.300000
0.134463 0.013887 -0.180973 0.600000 0.000000 0.300000
0.246251 -0.237827 -0.174971 0.600000 0.000000 0.300000
-0.079473 0.737155 -0.009102 0.600000 0.300000 0.000000
-0.286193 -0.311994 -0.070859 0.600000 0.000000 0.300000
-0.080584 0.472324 0.136177 0.300000 0.000000 0.600000
-0.240522 -0.074424 -0.173324 0.600000 0.000000 0.300000
0.018613 0.429794 0.076131 0.600000 0.000000 0.300000
-0.197039 -0.019937 0.226674 0.600000 0.000000 0.300000
-0.061085 0.669256 0.090804 0.300000 0.000000 0.600000
0.279144 -0.429484 0.126444 0.600000 0.000000 0.300000
-0.176968 -0.634077 0.204463 0.600000 0.000000 0.300000
0.277944 0.080274 -0.014938 0.600000 0.000000 0.300000
-0.159852 -0.255110 0.256243 0.600000 0.000000 0.300000
0.199230 0.013887 -0.028419 0.600000 0.000000 0.300000
0.304757 0.011148 0.030893 0.600000 0.000000 0.300000
0.094495 0.472752 -0.120483 0.300000 0.000000 0.600000
0.303217 -0.468759 -0.037572 0.600000 0.000000 0.300000
-0.283499 -0.143253 -0.081900 0.600000 0.000000 0.300000
-0.163563 -0.338762 0.254211 0.600000 0.000000 0.300000
-0.099553 0.572153 -0.108638 0.300000 0.000000 0.600000
-0.253210 -0.597340 -0.150160 0.600000 0.000000 0.300000
-0.033532 0.694463 0.072413 0.600000 0.300000 0.000000
-0.019042 0.976060 -0.028523 0.600000 0.300000 0.000000
-0.013073 0.951684 0.005385 0.600000 0.300000 0.000000
-0.012131 0.539456 0.161355 0.300000 0.000000 0.600000
0.200726 -0.100083 0.232563 0.600000 0.000000 0.300000
-0.121798 -0.606706 -0.266834 0.600000 0.000000 0.300000
0.304869 -0.020483 0.036987 0.600000 0.000000 0.300000
0.164540 0.347367 -0.054652 0.600000 0.000000 0.300000
0.017360 0.669256 0.068503 0.600000 0.300000 0.000000
0.032341 -0.654086 0.140872 0.600000 0.000000 0.300000
0.045959 0.170563 -0.231714 0.600000 0.000000 0.300000
-0.026306 -0.083046 0.304818 0.600000 0.000000 0.300000
-0.001349 0.883511 -0.033858 0.600000 0.300000 0.000000
0.294699 -0.222126 -0.070856 0.600000 0.000000 0.300000
-0.044239 0.226902 0.215904 0.600000 0.000000 0.300000
0.261317 0.013887 -0.049791 0.600000 0.000000 0.300000
-0.145111 -0.566077 0.264318 0.600000 0.000000 0.300000
-0.182223 0.013887 0.216070 0.600000 0.000000 0.300000
-0.207201 -0.401420 -0.208693 0.600000 0.000000 0.300000
-0.064023 0.086202 0.267308 0.600000 0.000000 0.300000
0.086340 0.420569 -0.112730 0.600000 0.000000 0.300000
-0.027825 -0.654086 -0.034680 0.600000 0.000000 0.300000
-0.243151 -0.373355 0.174614 0.600000 0.000000 0.300000
0.304527 -0.540478 0.020664 0.600000 0.000000 0.300000
-0.049882 0.834765 -0.042144 0.600000 0.300000 0.000000
0.065849 -0.654086 0.048291 0.600000 0.000000 0.300000
-0.090230 -0.394565 -0.280676 0.600000 0.000000 0.300000
-0.000795 -0.654086 -0.023299 0.600000 0.000000 0.300000
-0.012286 0.064414 0.284879 0.600000 0.000000 0.300000
-0.295091 -0.344209 0.034657 0.600000 0.000000 0.300000
0.304819 -0.278847 0.033665 0.600000 0.000000 0.300000
-0.272108 -0.315341 0.126967 0.600000 0.000000 0.300000
0.247741 -0.580084 -0.172518 0.600000 0.000000 0.300000
0.243411 -0.218454 0.187912 0.600000 0.000000 0.300000
0.275030 -0.131092 0.133954 0.600000 0.000000 0.300000
-0.042666 -0.140045 0.301421 0.600000 0.000000 0.300000
0.077512 0.827867 0.014662 0.600000 0.300000 0.000000
-0.105520 0.013887 -0.204709 0.600000 0.000000 0.300000
-0.012932 0.190397 0.235966 0.600000 0.000000 0.300000
-0.128622 -0.063295 -0.266049 0.600000 0.000000 0.300000
-0.214058 -0.162250 0.210404 0.600000 0.000000 0.300000
-0.088595 0.556334 0.131630 0.300000 0.000000 0.600000
-0.140032 0.505298 -0.052709 0.300000 0.000000 0.600000
0.146660 0.013887 0.132972 0.600000 0.000000 0.300000
-0.042290 0.924717 -0.023910 0.600000 0.300000 0.000000
0.101601 0.066545 0.266832 0.600000 0.000000 0.300000
0.137866 -0.605579 -0.262538 0.600000 0.000000 0.300000
-0.119170 0.642892 0.101671 0.300000 0.000000 0.600000
0.112606 0.429794 0.075173 0.600000 0.000000 0.300000
-0.125303 -0.013978 0.275167 0.600000 0.000000 0.300000
0.050271 0.574228 -0.141632 0.300000 0.000000 0.600000
0.216929 -0.054288 -0.207339 0.600000 0.000000 0.300000
0.036757 0.817879 -0.061181 0.600000 0.300000 0.000000
-0.058568 0.013887 0.080706 0.600000 0.000000 0.300000
0.031632 0.819192 0.097680 0.600000 0.300000 0.000000
-0.295635 -0.010614 0.010457 0.600000 0.000000 0.300000
-0.150371 0.643463 0.009404 0.300000 0.000000 0.600000
0.184597 -0.648425 -0.177232 0.600000 0.000000 0.300000
-0.107538 0.013887 -0.125113 0.600000 0.000000 0.300000
-0.010411 -0.654086 -0.244821 0.600000 0.000000 0.300000
-0.271138 -0.505765 0.128563 0.600000 0.000000 0.300000
0.269198 -0.534956 0.144600 0.600000 0.000000 0.300000
0.258860 0.090323 -0.087693 0.600000 0.000000 0.300000
-0.293242 -0.515453 -0.041966 0.600000 0.000000 0.300000
0.084571 0.646310 -0.126116 0.300000 0.000000 0.600000
0.144558 -0.250083 0.269787 0.600000 0.000000 0.300000
-0.229456 -0.609090 0.187079 0.600000 0.000000 0.300000
0.282498 0.013887 0.003610 0.600000 0.000000 0.300000
0.088303 0.750757 0.004106 0.600000 0.300000 0.000000
0.017475 0.225501 0.221649 0.600000 0.000000 0.300000
-0.186018 0.205736 -0.117775 0.600000 0.000000 0.300000
0.090403 0.229261 0.204285 0.600000 0.000000 0.300000
0.087338 0.034664 -0.275931 0.600000 0.000000 0.300000
-0.271295 -0.628175 0.021235 0.600000 0.000000 0.300000
-0.040984 -0.617446 0.287947 0.600000 0.000000 0.300000
-0.070568 0.729674 0.050227 0.600000 0.300000 0.000000
-0.138220 -0.428665 0.268092 0.600000 0.000000 0.300000
0.105355 0.558680 -0.111486 0.300000 0.000000 0.600000
0.091771 -0.429289 -0.283153 0.600000 0.000000 0.300000
0.281580 -0.397602 -0.115752 0.600000 0.000000 0.300000
-0.168416 0.270822 0.105501 0.600000 0.000000 0.300000
-0.020697 0.429794 -0.025784 0.600000 0.000000 0.300000
0.070702 -0.218731 -0.288294 0.600000 0.000000 0.300000
0.048632 0.204551 0.226486 0.600000 0.000000 0.300000
-0.093457 0.013887 0.165202 0.600000 0.000000 0.300000
-0.243173 -0.069237 0.174577 0.600000 0.000000 0.300000
-0.192099 0.204454 0.116148 0.600000 0.000000 0.300000
0.073752 0.429794 0.036056 0.600000 0.000000 0.300000
-0.237677 -0.637536 0.119418 0.600000 0.000000 0.300000
0.052522 -0.113546 0.302474 0.600000 0.000000 0.300000
0.097169 0.711728 0.002589 0.600000 0.300000 0.000000
-0.232871 0.137545 -0.086847 0.600000 0.000000 0.300000
0.138937 -0.527439 -0.263958 0.600000 0.000000 0.300000
0.297847 -0.600779 0.065768 0.600000 0.000000 0.300000
-0.168064 -0.654086 -0.056176 0.600000 0.000000 0.300000
0.021780 0.950347 0.004248 0.600000 0.300000 0.000000
0.051080 -0.065785 0.302895 0.600000 0.000000 0.300000
0.290393 0.041096 -0.047926 0.600000 0.000000 0.300000
-0.059362 0.804794 0.065239 0.600000 0.300000 0.000000
0.177322 0.171629 0.168412 0.600000 0.000000 0.300000
0.027113 0.883511 -0.020182 0.600000 0.300000 0.000000
0.131705 0.190966 0.197143 0.600000 0.000000 0.300000
-0.293778 -0.042880 0.053662 0.600000 0.000000 0.300000
0.085032 0.302735 -0.165612 0.600000 0.000000 0.300000
0.159105 0.542758 -0.013144 0.300000 0.000000 0.600000
-0.202098 0.221267 -0.075836 0.600000 0.000000 0.300000
0.072193 0.359148 -0.147670 0.600000 0.000000 0.300000
-0.056228 -0.299785 0.298112 0.600000 0.000000 0.300000
0.105066 0.095488 0.254112 0.600000 0.000000 0.300000
0.232555 -0.527885 -0.192401 0.600000 0.000000 0.300000
0.089748 0.694483 0.042007 0.600000 0.300000 0.000000
0.081018 0.163854 0.233484 0.600000 0.000000 0.300000
-0.107252 0.097828 -0.240898 0.600000 0.000000 0.300000
0.006570 0.417466 0.147341 0.600000 0.000000 0.300000
-0.124806 0.013887 0.196469 0.600000 0.000000 0.300000
0.264774 0.108686 0.046036 0.600000 0.000000 0.300000
0.150892 -0.654086 -0.100100 0.600000 0.000000 0.300000
0.109078 0.133996 -0.227141 0.600000 0.000000 0.300000
-0.262868 -0.401737 0.142171 0.600000 0.000000 0.300000
-0.141810 -0.365926 0.266126 0.600000 0.000000 0.300000
-0.220311 -0.230105 0.204426 0.600000 0.000000 0.300000
0.271941 0.066158 0.086324 0.600000 0.000000 0.300000
0.240346 -0.624101 0.155508 0.600000 0.000000 0.300000
-0.274882 -0.542699 -0.110595 0.600000 0.000000 0.300000
0.152102 0.471030 0.053679 0.300000 0.000000 0.600000
-0.122255 0.591113 0.096418 0.300000 0.000000 0.600000
-0.233534 -0.654086 0.077924 0.600000 0.000000 0.300000
0.289336 -0.618860 0.007230 0.600000 0.000000 0.300000
0.302198 -0.153875 -0.045191 0.600000 0.000000 0.300000
-0.063601 0.509341 0.145816 0.300000 0.000000 0.600000
-0.102173 0.089601 0.254318 0.600000 0.000000 0.300000
-0.124021 0.669256 -0.065578 0.300000 0.000000 0.600000
0.050723 -0.654086 -0.117130 0.600000 0.000000 0.300000
-0.139505 0.013887 -0.000705 0.600000 0.000000 0.300000
-0.121690 0.429794 0.060213 0.600000 0.000000 0.300000
0.072934 0.589325 -0.132721 0.300000 0.000000 0.600000
0.054234 -0.392576 -0.292312 0.600000 0.000000 0.300000
0.080799 -0.624962 -0.264301 0.600000 0.000000 0.300000
-0.160643 0.302279 -0.086072 0.600000 0.000000 0.300000
0.244222 0.143947 0.072511 0.600000 0.000000 0.300000
0.303616 -0.588140 0.042124 0.600000 0.000000 0.300000
0.237387 -0.607815 0.188469 0.600000 0.000000 0.300000
0.089112 -0.102887 0.291782 0.600000 0.000000 0.300000
-0.273347 -0.124261 0.123584 0.600000 0.000000 0.300000
-0.159516 -0.311786 -0.247274 0.600000 0.000000 0.300000
-0.183978 -0.449299 -0.232407 0.600000 0.000000 0.300000
-0.125231 0.429794 -0.005505 0.600000 0.000000 0.300000
-0.100938 0.647523 0.119937 0.300000 0.000000 0.600000
0.195613 0.293982 0.014702 0.600000 0.000000 0.300000
-0.253206 -0.104055 0.158069 0.600000 0.000000 0.300000
-0.211207 0.216439 -0.046408 0.600000 0.000000 0.300000
0.138337 -0.262470 -0.264286 0.600000 0.000000 0.300000
0.294355 0.001716 -0.072033 0.600000 0.000000 0.300000
-0.040897 0.158787 -0.236478 0.600000 0.000000 0.300000
-0.159439 -0.265949 -0.247321 0.600000 0.000000 0.300000
-0.022911 0.429794 0.026079 0.600000 0.000000 0.300000
0.157455 -0.272024 0.261949 0.600000 0.000000 0.300000
0.058575 -0.654086 -0.049382 0.600000 0.000000 0.300000
0.137749 0.013887 0.055114 0.600000 0.000000 0.300000
0.246646 -0.354356 0.184528 0.600000 0.000000 0.300000
0.007769 0.779896 0.086369 0.600000 0.300000 0.000000
-0.067061 0.814858 0.030352 0.600000 0.300000 0.000000
-0.070853 0.013887 0.260869 0.600000 0.000000 0.300000
-0.006928 0.184861 -0.229150 0.600000 0.000000 0.300000
-0.231974 -0.463444 0.193004 0.600000 0.000000 0.300000
0.234545 0.167595 -0.063938 0.600000 0.000000 0.300000
-0.077051 -0.600820 -0.284526 0.600000 0.000000 0.300000
0.242521 0.172424 0.001304 0.600000 0.000000 0.300000
-0.210580 0.052352 0.193068 0.600000 0.000000 0.300000
0.304124 -0.084932 0.002760 0.600000 0.000000 0.300000
-0.051128 0.429794 -0.084834 0.600000 0.000000 0.300000
0.180796 0.075258 -0.208917 0.600000 0.000000 0.300000
0.045929 0.936555 0.084751 0.600000 0.300000 0.000000
-0.146117 -0.637175 0.226156 0.600000 0.000000 0.300000
0.292664 -0.469928 -0.077820 0.600000 0.000000 0.300000
0.085892 0.013887 -0.150499 0.600000 0.000000 0.300000
-0.117004 -0.511702 -0.272852 0.600000 0.000000 0.300000
-0.241841 -0.201589 -0.170916 0.600000 0.000000 0.300000
-0.083599 -0.003211 0.291434 0.600000 0.000000 0.300000
-0.122471 -0.654086 -0.038538 0.600000 0.000000 0.300000
0.026488 0.030885 -0.289701 0.600000 0.000000 0.300000
0.272500 -0.636390 0.029200 0.600000 0.000000 0.300000
0.054524 0.013887 -0.287800 0.600000 0.000000 0.300000
0.199373 -0.219963 0.233978 0.600000 0.000000 0.300000
-0.204862 0.013887 -0.054765 0.600000 0.000000 0.300000
-0.069189 0.036567 -0.277650 0.600000 0.000000 0.300000
-0.078368 -0.091692 0.292710 0.600000 0.000000 0.300000
-0.191443 -0.609993 0.223555 0.600000 0.000000 0.300000
0.114467 0.013887 -0.016370 0.600000 0.000000 0.300000
0.088226 0.542354 -0.124041 0.300000 0.000000 0.600000
0.027145 0.305307 0.190437 0.600000 0.000000 0.300000
0.196154 -0.159441 0.237345 0.600000 0.000000 0.300000
0.062065 0.913179 0.017281 0.600000 0.300000 0.000000
0.084378 -0.654086 -0.073545 0.600000 0.000000 0.300000
0.234343 0.013887 0.031645 0.600000 0.000000 0.300000
0.284799 0.013887 -0.097709 0.600000 0.000000 0.300000
0.088977 -0.402528 -0.283835 0.600000 0.000000 0.300000
-0.122580 0.346281 0.119312 0.600000 0.000000 0.300000
0.268692 -0.479386 0.145525 0.600000 0.000000 0.300000
0.189167 0.199514 -0.130124 0.600000 0.000000 0.300000
0.018573 0.894335 -0.055797 0.600000 0.300000 0.000000
0.074223 0.013887 -0.124156 0.600000 0.000000 0.300000
0.032612 0.344621 0.174507 0.600000 0.000000 0.300000
0.294577 -0.344370 0.079169 0.600000 0.000000 0.300000
0.226748 -0.448143 -0.197952 0.600000 0.000000 0.300000
0.273610 0.087112 -0.041660 0.600000 0.000000 0.300000
-0.007697 0.690745 -0.067611 0.600000 0.300000 0.000000
-0.289750 -0.142673 0.067447 0.600000 0.000000 0.300000
-0.244770 -0.367843 -0.165569 0.600000 0.000000 0.300000
-0.240013 0.141281 0.061306 0.600000 0.000000 0.300000
0.291276 -0.069078 0.092699 0.600000 0.000000 0.300000
0.170149 0.013887 0.250047 0.600000 0.000000 0.300000
0.017564 -0.064452 -0.296102 0.600000 0.000000 0.300000
0.216402 -0.654086 -0.032962 0.600000 0.000000 0.300000
-0.177028 -0.170566 0.245805 0.600000 0.000000 0.300000
-0.108619 -0.328284 -0.275302 0.600000 0.000000 0.300000
0.016512 0.938493 -0.044341 0.600000 0.300000 0.000000
0.219993 0.013887 0.009931 0.600000 0.000000 0.300000
-0.147274 0.548666 -0.025369 0.300000 0.000000 0.600000
-0.003953 0.013887 -0.221735 0.600000 0.000000 0.300000
0.008669 0.642443 0.161203 0.300000 0.000000 0.600000
0.265522 -0.614319 -0.123242 0.600000 0.000000 0.300000
0.125955 0.669256 -0.032168 0.300000 0.000000 0.600000
-0.229723 0.022885 0.189982 0.600000 0.000000 0.300000
-0.020285 -0.026413 -0.295250 0.600000 0.000000 0.300000
0.249729 -0.107962 0.180144 0.600000 0.000000 0.300000
-0.043854 0.911801 0.080284 0.600000 0.300000 0.000000
0.099617 0.317896 -0.150911 0.600000 0.000000 0.300000
0.219179 0.144100 -0.122167 0.600000 0.000000 0.300000
0.143618 0.276344 0.144831 0.600000 0.000000 0.300000
-0.105472 -0.538450 -0.276222 0.600000 0.000000 0.300000
-0.077257 -0.458212 -0.284466 0.600000 0.000000 0.300000
-0.091490 0.652577 -0.116799 0.300000 0.000000 0.600000
0.088531 0.013887 -0.066996 0.600000 0.000000 0.300000
-0.169179 -0.579048 0.251135 0.600000 0.000000 0.300000
0.302971 -0.530727 -0.042547 0.600000 0.000000 0.300000
-0.219848 -0.161986 -0.195464 0.600000 0.000000 0.300000
-0.114955 0.459462 0.099305 0.300000 0.000000 0.600000
-0.241144 -0.418077 -0.172189 0.600000 0.000000 0.300000
-0.280683 -0.619518 -0.015635 0.600000 0.000000 0.300000
0.042963 0.520727 0.156382 0.300000 0.000000 0.600000
0.164860 -0.504114 0.257449 0.600000 0.000000 0.300000
-0.014670 -0.170125 -0.295376 0.600000 0.000000 0.300000
-0.030455 -0.654086 -0.124440 0.600000 0.000000 0.300000
-0.102098 -0.418058 -0.277208 0.600000 0.000000 0.300000
0.125807 -0.139904 0.281060 0.600000 0.000000 0.300000
-0.208922 -0.318136 0.215314 0.600000 0.000000 0.300000
0.168436 -0.071015 0.255276 0.600000 0.000000 0.300000
-0.242758 0.149345 0.022437 0.600000 0.000000 0.300000
0.151152 0.013887 0.101930 0.600000 0.000000 0.300000
-0.172621 -0.654086 -0.088939 0.600000 0.000000 0.300000
-0.074640 0.013887 0.132767 0.600000 0.000000 0.300000
-0.134515 -0.026393 -0.262467 0.600000 0.000000 0.300000
-0.118753 -0.547595 0.278755 0.600000 0.000000 0.300000
-0.051064 0.098978 -0.257700 0.600000 0.000000 0.300000
0.188278 0.013887 0.207124 0.600000 0.000000 0.300000
-0.101421 -0.223054 0.287085 0.600000 0.000000 0.300000
-0.158449 -0.217122 -0.247922 0.600000 0.000000 0.300000
0.143145 0.404533 -0.048735 0.600000 0.000000 0.300000
0.268937 -0.179479 0.145077 0.600000 0.000000 0.300000
-0.001035 0.467604 -0.020782 0.300000 0.000000 0.600000
-0.245936 -0.237609 -0.163440 0.600000 0.000000 0.300000
-0.159953 -0.552299 -0.247008 0.600000 0.000000 0.300000
-0.011295 0.013887 0.105372 0.600000 0.000000 0.300000
-0.057695 -0.325716 -0.290183 0.600000 0.000000 0.300000
-0.055040 0.264539 0.198227 0.600000 0.000000 0.300000
0.303775 -0.507490 -0.012752 0.600000 0.000000 0.300000
0.164754 -0.211637 -0.249817 0.600000 0.000000 0.300000
0.283902 -0.297652 0.117756 0.600000 0.000000 0.300000
-0.091704 -0.085062 -0.280245 0.600000 0.000000 0.300000
-0.058473 0.838294 0.071253 0.600000 0.300000 0.000000
0.011594 -0.654086 -0.071565 0.600000 0.000000 0.300000
0.025699 -0.508247 -0.296285 0.600000 0.000000 0.300000
-0.030045 -0.566003 0.304500 0.600000 0.000000 0.300000
-0.030827 -0.654086 -0.063620 0.600000 0.000000 0.300000
0.148749 0.669256 0.002224 0.300000 0.000000 0.600000
0.043144 0.601629 0.156332 0.300000 0.000000 0.600000
-0.225471 0.102553 -0.129142 0.600000 0.000000 0.300000
0.072924 0.776237 0.048856 0.600000 0.300000 0.000000
0.251409 -0.149351 0.177078 0.600000 0.000000 0.300000
0.024575 0.979232 0.042628 0.600000 0.300000 0.000000
-0.277759 -0.061039 0.108485 0.600000 0.000000 0.300000
-0.114559 0.526611 -0.093411 0.300000 0.000000 0.600000
-0.262080 -0.193839 -0.133966 0.600000 0.000000 0.300000
0.272870 -0.459998 -0.131171 0.600000 0.000000 0.300000
-0.190367 -0.147292 0.233052 0.600000 0.000000 0.300000
0.149084 0.266000 -0.136777 0.600000 0.000000 0.300000
-0.075033 -0.615243 0.281882 0.600000 0.000000 0.300000
-0.008011 0.800201 0.082536 0.600000 0.300000 0.000000
0.114796 -0.374703 0.284277 0.600000 0.000000 0.300000
0.063546 0.381210 0.150668 0.600000 0.000000 0.300000
-0.163294 0.011375 0.254358 0.600000 0.000000 0.300000
-0.122888 -0.560921 -0.269533 0.600000 0.000000 0.300000
0.074225 0.467604 0.062697 0.300000 0.000000 0.600000
0.157107 0.594237 -0.022298 0.300000 0.000000 0.600000
-0.131440 0.429794 0.022236 0.600000 0.000000 0.300000
-0.025904 -0.654086 0.248508 0.600000 0.000000 0.300000
0.047334 -0.654086 0.030302 0.600000 0.000000 0.300000
-0.192090 0.280405 0.012170 0.600000 0.000000 0.300000
-0.159501 -0.654086 0.127568 0.600000 0.000000 0.300000
-0.114693 0.669256 0.013297 0.300000 0.000000 0.600000
0.099988 0.669256 -0.027274 0.300000 0.000000 0.600000
-0.083879 0.429794 0.035507 0.600000 0.000000 0.300000
0.206582 -0.008587 -0.217231 0.600000 0.000000 0.300000
-0.209575 0.128773 -0.136970 0.600000 0.000000 0.300000
-0.083332 0.179960 0.224636 0.600000 0.000000 0.300000
0.186813 0.267587 0.089962 0.600000 0.000000 0.300000
0.289511 -0.168173 0.099936 0.600000 0.000000 0.300000
-0.056823 0.013887 -0.224461 0.600000 0.000000 0.300000
0.264406 -0.133139 -0.145097 0.600000 0.000000 0.300000
0.130568 0.612417 0.097811 0.300000 0.000000 0.600000
0.042967 -0.440074 -0.295061 0.600000 0.000000 0.300000
0.224997 0.002802 0.207174 0.600000 0.000000 0.300000
0.222162 -0.398547 0.210140 0.600000 0.000000 0.300000
0.109873 0.013887 -0.097326 0.600000 0.000000 0.300000
0.301951 -0.072325 0.048946 0.600000 0.000000 0.300000
0.272329 -0.371234 -0.132060 0.600000 0.000000 0.300000
0.192450 -0.188448 -0.230741 0.600000 0.000000 0.300000
0.205049 -0.631680 -0.180575 0.600000 0.000000 0.300000
0.145784 0.315040 -0.113590 0.600000 0.000000 0.300000
-0.107241 -0.596312 0.285060 0.600000 0.000000 0.300000
-0.182594 -0.423382 -0.233248 0.600000 0.000000 0.300000
-0.030371 0.774813 0.078982 0.600000 0.300000 0.000000
0.114923 -0.137320 -0.277111 0.600000 0.000000 0.300000
-0.003731 -0.048741 0.304310 0.600000 0.000000 0.300000
-0.146858 0.564696 0.040172 0.300000 0.000000 0.600000
0.066804 0.980375 0.096889 0.600000 0.300000 0.000000
0.011536 0.702203 0.060187 0.600000 0.300000 0.000000
-0.084053 0.013887 -0.190897 0.600000 0.000000 0.300000
-0.136672 0.474008 -0.058629 0.300000 0.000000 0.600000
-0.251724 0.013887 0.101172 0.600000 0.000000 0.300000
-0.289119 -0.068063 -0.058864 0.600000 0.000000 0.300000
0.258682 -0.365208 0.163800 0.600000 0.000000 0.300000
-0.072156 0.732408 -0.032953 0.600000 0.300000 0.000000
-0.065392 0.669256 -0.038754 0.300000 0.000000 0.600000
-0.074750 0.694463 -0.004549 0.600000 0.300000 0.000000
0.114377 0.467604 0.085805 0.300000 0.000000 0.600000
-0.142711 -0.344895 -0.257487 0.600000 0.000000 0.300000
0.213906 0.218779 0.074188 0.600000 0.000000 0.300000
-0.014158 -0.638937 0.269808 0.600000 0.000000 0.300000
-0.013986 0.013887 0.072158 0.600000 0.000000 0.300000
-0.020361 0.467604 0.059120 0.300000 0.000000 0.600000
-0.136120 -0.216773 -0.261492 0.600000 0.000000 0.300000
0.155965 -0.654086 0.131266 0.600000 0.000000 0.300000
-0.001361 0.964829 0.051000 0.600000 0.300000 0.000000
-0.209724 -0.525378 0.214547 0.600000 0.000000 0.300000
-0.119065 0.429794 -0.037403 0.600000 0.000000 0.300000
-0.054976 0.669256 0.125488 0.300000 0.000000 0.600000
0.179217 0.013887 0.039890 0.600000 0.000000 0.300000
-0.051005 -0.256989 -0.292137 0.600000 0.000000 0.300000
0.029119 -0.214001 -0.296362 0.600000 0.000000 0.300000
0.196200 -0.499816 -0.227156 0.600000 0.000000 0.300000
0.077062 -0.388765 0.295303 0.600000 0.000000 0.300000
-0.140153 0.048646 -0.243249 0.600000 0.000000 0.300000
0.261214 0.106700 -0.056968 0.600000 0.000000 0.300000
0.231527 -0.084302 -0.193384 0.600000 0.000000 0.300000
0.081973 0.013887 0.169957 0.600000 0.000000 0.300000
0.036171 -0.086491 0.303412 0.600000 0.000000 0.300000
-0.074171 -0.155323 -0.285368 0.600000 0.000000 0.300000
0.138511 -0.303727 -0.264191 0.600000 0.000000 0.300000
-0.115615 0.561982 -0.092339 0.300000 0.000000 0.600000
0.253766 0.031237 0.158751 0.600000 0.000000 0.300000
0.079545 0.694463 -0.008224 0.600000 0.300000 0.000000
0.091289 0.413695 0.120509 0.600000 0.000000 0.300000
-0.194520 0.162907 0.143225 0.600000 0.000000 0.300000
0.098710 -0.354382 -0.281460 0.600000 0.000000 0.300000
0.024350 0.467604 0.072169 0.300000 0.000000 0.600000
-0.108058 -0.654086 -0.168129 0.600000 0.000000 0.300000
0.304828 -0.365451 0.034030 0.600000 0.000000 0.300000
-0.184256 0.071427 0.207988 0.600000 0.000000 0.300000
0.159353 0.245124 0.145913 0.600000 0.000000 0.300000
-0.144870 0.602991 -0.034612 0.300000 0.000000 0.600000
0.013930 -0.122381 -0.296020 0.600000 0.000000 0.300000
0.227073 -0.646768 -0.124756 0.600000 0.000000 0.300000
0.190074 0.134489 0.175942 0.600000 0.000000 0.300000
-0.258314 0.013887 -0.103767 0.600000 0.000000 0.300000
-0.094449 -0.072022 0.288786 0.600000 0.000000 0.300000
-0.223008 0.013887 -0.004642 0.600000 0.000000 0.300000
-0.009405 -0.335249 -0.295495 0.600000 0.000000 0.300000
0.188688 -0.539969 0.242968 0.600000 0.000000 0.300000
0.158013 -0.370436 0.261610 0.600000 0.000000 0.300000
-0.183050 -0.364794 0.240048 0.600000 0.000000 0.300000
-0.257470 0.013887 -0.073508 0.600000 0.000000 0.300000
-0.137884 0.400408 0.052104 0.600000 0.000000 0.300000
-0.143114 0.013887 -0.159054 0.600000 0.000000 0.300000
-0.192610 0.278526 -0.020929 0.600000 0.000000 0.300000
0.011522 0.177105 0.240578 0.600000 0.000000 0.300000
0.016529 -0.139863 0.303854 0.600000 0.000000 0.300000
-0.172028 0.013887 -0.083545 0.600000 0.000000 0.300000
-0.103470 0.013887 0.217761 0.600000 0.000000 0.300000
-0.069418 0.429794 0.101121 0.600000 0.000000 0.300000
-0.286362 -0.297748 0.079042 0.600000 0.000000 0.300000
-0.099785 0.115032 0.244368 0.600000 0.000000 0.300000
-0.254707 -0.460557 -0.147427 0.600000 0.000000 0.300000
0.107099 -0.576426 0.286526 0.600000 0.000000 0.300000
-0.148738 -0.391857 0.262331 0.600000 0.000000 0.300000
-0.205889 0.239605 -0.030257 0.600000 0.000000 0.300000
0.277194 -0.630312 -0.029223 0.600000 0.000000 0.300000
0.150668 0.437728 0.048263 0.300000 0.000000 0.600000
-0.038348 0.920348 0.043762 0.600000 0.300000 0.000000
-0.124584 0.171401 0.205830 0.600000 0.000000 0.300000
0.153281 -0.120565 0.264486 0.600000 0.000000 0.300000
0.018385 0.865922 -0.060980 0.600000 0.300000 0.000000
-0.275889 0.013887 0.004984 0.600000 0.000000 0.300000
-0.073549 -0.373114 -0.285550 0.600000 0.000000 0.300000
-0.002239 -0.654086 0.009614 0.600000 0.000000 0.300000
-0.005812 0.429794 0.072144 0.600000 0.000000 0.300000
-0.121310 -0.654086 -0.109082 0.600000 0.000000 0.300000
0.142018 0.412090 0.052178 0.600000 0.000000 0.300000
-0.067849 0.236254 -0.197267 0.600000 0.000000 0.300000
0.135250 0.582428 -0.076546 0.300000 0.000000 0.600000
0.035194 0.789647 -0.065761 0.600000 0.300000 0.000000
-0.025065 0.649618 -0.146051 0.300000 0.000000 0.600000
0.244659 -0.546288 0.186606 0.600000 0.000000 0.300000
0.167402 0.013887 -0.018852 0.600000 0.000000 0.300000
0.262476 0.059771 -0.113970 0.600000 0.000000 0.300000
-0.117828 0.467604 0.057129 0.300000 0.000000 0.600000
-0.058919 0.429794 -0.110583 0.600000 0.000000 0.300000
-0.010279 0.429794 -0.107104 0.600000 0.000000 0.300000
0.142575 0.570134 0.076657 0.300000 0.000000 0.600000
-0.188835 -0.355709 -0.227906 0.600000 0.000000 0.300000
0.034519 0.886202 0.065024 0.600000 0.300000 0.000000
0.290054 -0.391097 -0.086751 0.600000 0.000000 0.300000
-0.293907 -0.300747 0.053222 0.600000 0.000000 0.300000
0.021557 0.982966 0.002553 0.600000 0.300000 0.000000
-0.042669 0.467604 0.130292 0.300000 0.000000 0.600000
0.251103 -0.054626 0.177637 0.600000 0.000000 0.300000
-0.223590 0.013887 0.093254 0.600000 0.000000 0.300000
-0.236039 -0.552082 0.186315 0.600000 0.000000 0.300000
0.089209 0.013887 -0.023453 0.600000 0.000000 0.300000
-0.024271 0.406963 -0.140949 0.600000 0.000000 0.300000
-0.132254 0.013887 -0.195443 0.600000 0.000000 0.300000
0.065508 -0.654086 -0.194662 0.600000 0.000000 0.300000
-0.268918 -0.622413 0.073150 0.600000 0.000000 0.300000
0.043897 1.006714 0.097262 0.600000 0.300000 0.000000
-0.034968 0.651379 0.156134 0.300000 0.000000 0.600000
0.133678 0.668168 -0.079222 0.300000 0.000000 0.600000
-0.060624 0.880468 -0.010977 0.600000 0.300000 0.000000
0.289748 -0.092777 0.098963 0.600000 0.000000 0.300000
-0.294734 -0.023482 -0.035854 0.600000 0.000000 0.300000
0.210205 -0.050387 0.222647 0.600000 0.000000 0.300000
-0.041848 -0.654086 0.199990 0.600000 0.000000 0.300000
-0.116200 0.365196 -0.106491 0.600000 0.000000 0.300000
-0.129039 -0.092298 0.273121 0.600000 0.000000 0.300000
0.015378 -0.383963 0.303880 0.600000 0.000000 0.300000
0.156930 0.566119 0.035118 0.300000 0.000000 0.600000
-0.072104 0.499106 -0.128182 0.300000 0.000000 0.600000
0.064376 0.693261 0.071938 0.600000 0.300000 0.000000
-0.233061 -0.109277 -0.181643 0.600000 0.000000 0.300000
0.184591 -0.079644 -0.238255 0.600000 0.000000 0.300000
0.015256 -0.543588 -0.296050 0.600000 0.000000 0.300000
-0.063980 -0.514611 -0.288346 0.600000 0.000000 0.300000
0.045912 -0.231700 -0.294342 0.600000 0.000000 0.300000
0.095469 0.013887 0.266046 0.600000 0.000000 0.300000
0.028178 0.013887 -0.042817 0.600000 0.000000 0.300000
-0.012450 0.117042 0.264444 0.600000 0.000000 0.300000
-0.020946 0.235550 -0.209149 0.600000 0.000000 0.300000
0.070401 0.669256 -0.116308 0.300000 0.000000 0.600000
-0.128961 0.013887 -0.112635 0.600000 0.000000 0.300000
0.266877 0.041004 0.126923 0.600000 0.000000 0.300000
-0.108492 0.013887 -0.032085 0.600000 0.000000 0.300000
-0.061087 0.013887 -0.159056 0.600000 0.000000 0.300000
-0.044748 0.490436 -0.140622 0.300000 0.000000 0.600000
0.239038 -0.654086 -0.077672 0.600000 0.000000 0.300000
0.053251 -0.654086 0.181797 0.600000 0.000000 0.300000
