ply
format ascii 1.0
element vertex 1251
property float x
property float y
property float z
property uchar red
property uchar green
property uchar blue
end_header
-0.398053 -0.654081 0.348413 127 127 0
-0.128364 -0.460074 0.526615 127 127 0
-0.451235 0.307398 0.330361 127 127 0
0.465166 0.223582 -0.322700 127 127 0
0.517211 -0.020305 -0.005596 127 127 0
0.344144 -0.774865 0.218111 127 127 0
0.409398 -0.208851 0.298873 127 127 0
-0.190592 -0.781505 -0.313023 127 0 127
-0.523543 -0.424995 -0.253378 127 127 0
-0.095475 0.633031 -0.576548 127 127 0
0.517165 -0.066500 -0.044632 127 127 0
-0.529281 0.540112 -0.124306 127 127 0
0.334527 -0.108563 0.424112 127 127 0
0.561416 -0.713673 -0.228644 127 127 0
-0.366554 -0.600046 -0.469474 127 127 0
-0.452062 0.446236 -0.375603 127 127 0
0.006010 0.026320 0.505314 127 127 0
0.311789 0.446331 0.440998 127 127 0
-0.132284 -0.112124 -0.538003 127 127 0
0.097128 -0.698176 0.573072 127 127 0
0.472322 0.607871 0.261956 127 127 0
0.404719 0.764238 0.272587 0 255 0
0.510941 -0.622543 -0.093921 127 127 0
0.485677 -0.080784 -0.284018 127 127 0
-0.521394 0.445793 0.211532 127 127 0
0.478124 -0.574572 0.176992 127 127 0
-0.125451 -0.276972 0.492186 127 127 0
-0.128032 -0.030474 0.526234 127 127 0
0.439305 -0.775000 0.370564 127 0 127
0.073401 0.855839 -0.159573 0 255 0
0.506597 -0.726139 0.335926 127 0 127
-0.166968 0.086478 -0.531229 127 127 0
0.397788 -0.609140 -0.416307 127 127 0
0.295137 0.109553 0.409343 127 127 0
-0.175404 -0.774466 0.399121 127 127 0
0.272124 0.449452 -0.470089 127 127 0
-0.401412 0.070593 -0.426398 127 127 0
0.493373 -0.345775 -0.187097 127 127 0
-0.053254 -0.338461 -0.549573 127 127 0
-0.230265 -0.781505 -0.466509 127 0 127
-0.568131 -0.006323 0.047585 127 127 0
0.209690 -0.228224 0.494173 127 127 0
-0.182387 0.179674 -0.562554 127 127 0
-0.004806 -0.377512 0.541451 127 127 0
-0.491664 -0.097316 0.269890 127 127 0
0.251603 -0.650714 -0.542976 127 0 127
0.133551 -0.781505 0.224562 127 0 127
-0.386731 -0.320947 0.395034 127 127 0
0.109382 0.462343 -0.537398 127 127 0
0.024815 0.429560 -0.550772 127 127 0
-0.525369 -0.367922 -0.143765 127 127 0
0.112733 -0.781505 -0.389594 127 0 127
0.502589 -0.439709 -0.250831 127 127 0
0.247302 -0.781505 -0.250164 127 0 127
-0.409431 -0.271422 0.323453 127 127 0
-0.505811 -0.544651 -0.288184 127 127 0
0.517460 -0.109570 -0.010804 127 127 0
-0.006214 -0.774204 -0.490538 127 127 0
-0.464648 0.511634 0.314700 127 127 0
-0.055687 -0.078161 -0.584164 127 127 0
0.310551 -0.781505 -0.088968 127 0 127
-0.539162 -0.486714 0.000076 127 127 0
-0.492918 0.463157 0.267426 127 127 0
0.434871 0.071146 -0.307420 127 127 0
0.425143 0.395039 -0.380123 127 127 0
-0.285155 -0.774754 -0.037479 127 127 0
0.459372 0.506099 0.287970 127 127 0
0.139353 0.014476 -0.567373 127 127 0
0.290927 0.476470 0.412017 127 127 0
-0.619692 0.681345 -0.031587 0 255 0
-0.144014 0.289025 -0.570178 127 127 0
-0.550404 -0.366818 0.149407 127 127 0
-0.040841 0.846690 -0.248135 0 255 0
0.189539 0.056823 0.503396 127 127 0
-0.217328 0.835035 0.196811 0 255 0
0.412992 0.769379 -0.267712 0 255 0
0.089077 -0.781359 -0.601043 127 0 127
0.253452 0.179132 -0.518007 127 127 0
0.511697 0.454945 -0.088751 127 127 0
-0.545087 -0.654676 -0.075300 127 127 0
0.512555 -0.408466 0.036654 127 127 0
-0.392423 0.177787 0.340459 127 127 0
0.150369 -0.568607 0.482304 127 127 0
0.163873 -0.220553 0.477919 127 127 0
-0.477238 -0.097333 0.296983 127 127 0
0.282190 0.545115 0.417633 127 127 0
0.101080 0.056318 -0.573452 127 127 0
-0.259465 0.069532 0.441582 127 127 0
0.030122 -0.468779 0.538636 127 127 0
0.105213 0.851619 0.152712 0 255 0
0.300887 0.782118 -0.366565 0 255 0
0.071023 -0.050148 0.532171 127 127 0
0.545277 -0.431573 0.051574 127 127 0
-0.478022 0.105829 0.222500 127 127 0
-0.426857 0.738624 0.328428 0 255 0
-0.508578 -0.184811 -0.282755 127 127 0
0.056823 -0.781504 -0.578535 127 0 127
0.125010 0.356734 -0.534660 127 127 0
0.484810 0.129281 0.238382 127 127 0
0.075932 -0.024973 -0.543034 127 127 0
0.383249 -0.774696 -0.229552 127 127 0
0.324374 -0.591333 -0.479643 127 127 0
-0.347674 -0.628149 -0.491550 127 127 0
-0.377051 0.771627 -0.328108 0 255 0
-0.218095 -0.115306 0.501288 127 127 0
-0.528308 -0.478456 -0.124384 127 127 0
-0.096544 0.848075 0.198694 0 255 0
-0.301274 -0.781505 0.184967 127 0 127
-0.351202 -0.752711 -0.516625 127 127 0
0.597284 0.672291 0.172331 0 255 0
0.403189 -0.635598 -0.423811 127 127 0
0.034611 -0.781505 0.230588 127 0 127
-0.095066 0.723220 -0.560761 0 255 0
-0.344948 0.799795 -0.256001 0 255 0
-0.509130 -0.106147 0.158572 127 127 0
0.223309 0.002372 -0.495584 127 127 0
-0.531539 -0.411411 0.057705 127 127 0
-0.287380 -0.394958 -0.473687 127 127 0
0.046668 -0.774461 0.279762 127 127 0
-0.525010 0.003020 -0.250491 127 127 0
-0.191477 0.248305 0.475553 127 127 0
-0.306813 0.712055 -0.491201 0 255 0
0.078094 0.556898 0.496062 127 127 0
-0.249635 0.023582 0.446591 127 127 0
-0.539954 -0.377169 -0.032909 127 127 0
0.035696 -0.595017 0.537738 127 127 0
-0.200827 -0.781505 -0.453947 127 0 127
-0.532469 0.067996 -0.235819 127 127 0
0.544606 0.447535 0.052010 127 127 0
0.500569 0.592005 -0.158076 127 127 0
-0.090822 0.496171 0.532125 127 127 0
0.530049 -0.587799 -0.193115 127 127 0
0.334595 0.820581 -0.136887 0 255 0
-0.166598 0.116104 -0.566239 127 127 0
0.205063 -0.034209 0.457986 127 127 0
0.376212 0.183897 -0.429376 127 127 0
-0.208627 0.827469 0.244365 0 255 0
-0.340423 0.707862 0.447777 0 255 0
0.185551 0.832160 0.227975 0 255 0
-0.085854 -0.131785 0.533349 127 127 0
-0.301332 -0.774204 0.278555 127 127 0
0.430540 -0.626332 0.344949 127 127 0
0.274438 -0.781505 0.101765 127 0 127
0.165428 -0.336763 -0.560780 127 127 0
0.319743 -0.433740 -0.435749 127 127 0
-0.406249 0.202275 0.375516 127 127 0
-0.250579 -0.049246 -0.530813 127 127 0
0.252069 0.039663 0.434024 127 127 0
0.441153 -0.773625 0.266757 127 127 0
0.162449 0.395918 -0.561910 127 127 0
0.516102 -0.228916 0.011921 127 127 0
0.123134 -0.781505 0.358351 127 0 127
-0.053688 0.864116 -0.009768 0 255 0
-0.505965 0.767677 -0.017491 0 255 0
0.470031 -0.781472 -0.347861 127 0 127
-0.108325 -0.626478 -0.540992 127 127 0
-0.548119 -0.654880 0.050605 127 127 0
0.221390 -0.775248 0.449042 127 127 0
-0.106428 -0.687298 0.583678 127 0 127
-0.387778 -0.781505 -0.366343 127 0 127
-0.011274 0.843458 -0.271948 0 255 0
-0.141125 0.562293 -0.570637 127 127 0
-0.400429 -0.152881 0.332453 127 127 0
-0.014767 -0.689715 0.597652 127 0 127
0.515873 0.615941 -0.222762 127 127 0
-0.078525 -0.574943 -0.581113 127 127 0
-0.387851 -0.477199 0.345031 127 127 0
0.069917 0.587088 0.497357 127 127 0
0.233590 -0.522262 -0.489497 127 127 0
0.457182 0.092255 -0.337743 127 127 0
0.167982 0.210568 -0.559811 127 127 0
-0.245555 -0.551823 0.487301 127 127 0
-0.429444 0.683525 0.420695 0 255 0
0.566154 -0.766667 -0.028145 127 127 0
0.465313 0.765759 -0.192270 0 255 0
-0.547480 -0.459952 -0.203205 127 127 0
0.264281 0.822061 0.216703 0 255 0
-0.066705 0.003227 0.501395 127 127 0
-0.493918 0.328740 -0.237902 127 127 0
0.464328 0.769828 0.130485 0 255 0
-0.472147 -0.523505 0.232364 127 127 0
0.014654 0.716870 0.555202 0 255 0
-0.573520 0.536788 0.013413 127 127 0
0.457146 -0.151606 -0.264195 127 127 0
-0.375578 -0.297873 0.357304 127 127 0
-0.056524 -0.386912 0.537900 127 127 0
0.072927 -0.189798 0.531870 127 127 0
0.278570 -0.272874 -0.465998 127 127 0
0.491750 0.370843 0.146044 127 127 0
0.512122 0.170826 0.039677 127 127 0
0.422876 0.796993 -0.046239 0 255 0
0.512924 0.280194 -0.081019 127 127 0
0.442078 -0.770476 0.297695 127 127 0
0.100395 0.841799 -0.258594 0 255 0
0.008447 0.493201 0.505197 127 127 0
-0.537562 -0.606159 0.185751 127 127 0
0.248450 0.844350 -0.027808 0 255 0
-0.511354 -0.657830 -0.342189 127 127 0
0.240716 -0.781505 -0.458496 127 0 127
0.517268 -0.620886 -0.051534 127 127 0
-0.249878 -0.715566 -0.602262 127 0 127
0.548018 -0.705728 0.254735 127 0 127
0.438164 -0.369649 -0.301451 127 127 0
-0.182093 -0.781505 -0.399058 127 0 127
0.288380 -0.781505 -0.458770 127 0 127
-0.567447 0.262612 0.051898 127 127 0
0.162703 0.704132 0.537975 0 255 0
0.495025 0.060815 0.135950 127 127 0
-0.511524 -0.231481 0.230899 127 127 0
0.020839 0.776982 0.465388 0 255 0
-0.202228 0.595075 -0.516718 127 127 0
0.205017 0.782038 0.405101 0 255 0
0.440295 0.530677 0.316519 127 127 0
-0.519870 0.386351 0.214522 127 127 0
0.453845 -0.294118 -0.270674 127 127 0
0.497846 -0.760139 -0.314355 127 127 0
-0.321467 0.135696 -0.453090 127 127 0
-0.137003 -0.781505 0.483954 127 0 127
0.372549 0.462752 0.338110 127 127 0
0.387825 0.203351 -0.369351 127 127 0
0.261264 0.067978 -0.514027 127 127 0
0.500907 -0.146147 0.110302 127 127 0
-0.523917 0.569206 0.111461 127 127 0
0.536701 -0.544441 0.105671 127 127 0
-0.492424 0.285793 -0.240832 127 127 0
-0.046956 -0.781505 0.420640 127 0 127
0.236211 -0.774856 0.304372 127 127 0
0.037607 0.898021 -0.039918 0 255 0
-0.054807 0.567816 0.537879 127 127 0
-0.039956 -0.774204 -0.506961 127 127 0
0.369541 -0.078655 0.341118 127 127 0
-0.146803 0.502055 -0.535614 127 127 0
-0.078658 0.031607 0.534151 127 127 0
0.180830 -0.774204 0.116591 127 127 0
-0.595454 -0.705013 0.122451 127 127 0
-0.487590 -0.712401 -0.435214 127 0 127
-0.313535 -0.158832 -0.458577 127 127 0
-0.326837 0.116785 0.402183 127 127 0
-0.539882 0.308852 -0.221250 127 127 0
0.428453 0.509782 -0.376691 127 127 0
0.487409 0.023559 0.157435 127 127 0
0.337600 -0.487574 -0.419111 127 127 0
0.019477 -0.171872 0.539966 127 127 0
0.063684 0.746484 -0.542747 0 255 0
0.383216 0.776823 0.260203 0 255 0
-0.393086 -0.285579 -0.434724 127 127 0
0.508767 -0.707292 -0.373354 127 0 127
-0.556881 -0.178783 0.118557 127 127 0
0.225763 -0.194250 0.486063 127 127 0
0.267934 -0.247414 0.464580 127 127 0
-0.200752 0.013873 0.509674 127 127 0
0.337007 -0.781505 0.297816 127 0 127
-0.530189 0.292610 -0.116794 127 127 0
0.497460 0.025329 -0.259934 127 127 0
0.063679 0.812284 0.362352 0 255 0
-0.341604 0.209379 -0.482160 127 127 0
0.194420 -0.781505 -0.261265 127 0 127
-0.415660 -0.106049 -0.363180 127 127 0
-0.071422 -0.100065 0.535620 127 127 0
0.355011 0.819271 0.028144 0 255 0
0.244428 -0.681107 0.530063 127 0 127
-0.555565 0.534807 -0.172887 127 127 0
0.483351 0.294189 0.241033 127 127 0
-0.502346 0.232094 -0.221357 127 127 0
0.555574 0.703179 0.110999 0 255 0
0.131263 0.056146 -0.533679 127 127 0
-0.403403 -0.728001 0.437688 127 127 0
-0.273375 0.458074 0.434494 127 127 0
-0.297986 -0.285888 0.421477 127 127 0
-0.270757 0.658634 -0.568576 0 255 0
0.119766 0.583362 -0.570486 127 127 0
-0.264801 -0.053954 -0.485100 127 127 0
0.320420 0.297910 0.389069 127 127 0
-0.511187 0.731828 -0.239441 0 255 0
0.522073 0.463010 -0.209944 127 127 0
0.212274 0.832263 -0.235276 0 255 0
0.321999 -0.646005 0.456022 127 0 127
-0.611294 -0.700454 -0.214123 127 0 127
-0.260530 0.762950 0.419673 0 255 0
-0.536607 0.049765 0.028058 127 127 0
0.230854 -0.135155 -0.529522 127 127 0
-0.575387 0.553213 -0.035648 127 127 0
0.495083 -0.571021 -0.265982 127 127 0
-0.329709 0.608393 -0.446501 127 127 0
0.146226 0.007203 0.483647 127 127 0
-0.596724 -0.667291 -0.038318 127 127 0
0.443530 -0.672814 -0.397059 127 127 0
0.410446 -0.781505 0.239988 127 0 127
0.438908 -0.761379 0.399025 127 0 127
0.394270 0.804033 -0.084644 0 255 0
-0.211011 0.366984 -0.550936 127 127 0
0.406080 -0.164036 0.302672 127 127 0
0.177951 -0.781505 0.349811 127 0 127
-0.044426 -0.781505 0.208722 127 0 127
0.309218 -0.447947 0.442882 127 127 0
0.193951 0.551986 -0.510823 127 127 0
0.372023 0.735690 0.388664 0 255 0
0.285070 0.448785 0.415470 127 127 0
0.261479 -0.004486 0.467531 127 127 0
-0.505322 0.076004 0.168445 127 127 0
-0.273924 -0.587060 -0.480264 127 127 0
-0.537074 -0.120722 0.020645 127 127 0
0.389896 -0.002849 -0.415693 127 127 0
0.151321 -0.781505 -0.509415 127 0 127
0.420900 -0.215817 -0.329710 127 127 0
-0.285522 0.431372 -0.475348 127 127 0
0.179468 0.614808 0.470992 127 127 0
-0.335964 0.316838 0.394898 127 127 0
-0.161562 0.140950 0.521158 127 127 0
-0.575026 -0.348885 -0.003677 127 127 0
-0.408280 0.591596 0.373486 127 127 0
-0.504977 -0.766267 -0.295781 127 127 0
0.469364 -0.774929 -0.080377 127 127 0
-0.015368 -0.781505 -0.169108 127 0 127
-0.016666 0.105568 0.506029 127 127 0
0.286569 0.400475 -0.461737 127 127 0
0.424662 0.794391 -0.076215 0 255 0
0.151999 0.156509 0.481771 127 127 0
-0.286398 0.812915 -0.274647 0 255 0
0.050946 -0.545942 -0.546348 127 127 0
-0.446337 0.683325 -0.427276 0 255 0
-0.183800 0.420166 -0.525471 127 127 0
-0.089361 -0.254086 0.532793 127 127 0
-0.144038 -0.709509 0.562679 127 127 0
0.283402 -0.774550 0.205981 127 127 0
-0.465468 -0.774239 0.265893 127 127 0
-0.573218 -0.440831 -0.061533 127 127 0
0.488204 0.756776 -0.167778 0 255 0
0.355555 0.624522 0.402371 127 127 0
-0.457835 -0.301604 -0.306219 127 127 0
0.263198 0.718833 0.480456 0 255 0
-0.435087 0.488479 0.294739 127 127 0
0.028631 -0.445182 -0.549548 127 127 0
-0.512213 -0.596142 0.234063 127 127 0
-0.217587 0.153463 -0.509758 127 127 0
-0.568447 -0.568947 0.045893 127 127 0
0.514370 0.527591 0.024001 127 127 0
0.125944 -0.622723 0.532017 127 127 0
-0.226851 -0.516032 -0.504245 127 127 0
0.451695 -0.659168 -0.325532 127 127 0
0.382991 0.681446 0.457041 0 255 0
0.538598 0.044456 0.091287 127 127 0
-0.066390 0.269701 -0.582474 127 127 0
0.472058 0.539422 0.188893 127 127 0
0.527140 -0.158031 0.151888 127 127 0
0.343179 -0.094981 -0.414553 127 127 0
-0.089809 -0.774204 0.040888 127 127 0
-0.571081 0.402031 0.028902 127 127 0
0.509827 -0.111421 0.054479 127 127 0
-0.530904 0.669225 0.321082 0 255 0
0.103725 -0.180713 0.492102 127 127 0
0.552043 0.378403 -0.045851 127 127 0
0.064971 0.697432 -0.589554 0 255 0
-0.202782 -0.774551 -0.004609 127 127 0
0.171927 0.272624 -0.558315 127 127 0
0.588059 -0.739274 0.071375 127 127 0
0.477334 -0.781505 -0.265456 127 0 127
-0.178562 -0.422055 -0.526778 127 127 0
-0.447469 0.290010 -0.324756 127 127 0
0.155108 0.486734 0.517121 127 127 0
-0.201521 -0.506304 0.509448 127 127 0
0.206020 0.079785 0.495081 127 127 0
0.223295 -0.781505 -0.354189 127 0 127
0.241377 -0.386205 0.439475 127 127 0
0.552786 0.208827 -0.006155 127 127 0
0.460099 -0.666148 -0.351680 127 127 0
-0.580105 -0.755292 -0.185627 127 127 0
0.375840 0.055302 0.382758 127 127 0
0.293315 0.377283 0.410717 127 127 0
0.063470 0.304132 0.498378 127 127 0
0.399446 0.039133 -0.356802 127 127 0
0.467174 0.547757 0.272114 127 127 0
-0.585721 -0.735956 -0.212203 127 127 0
-0.404522 0.587266 0.328361 127 127 0
0.437564 0.265475 0.319634 127 127 0
-0.358243 0.543125 0.422465 127 127 0
-0.616150 -0.710543 -0.188278 127 0 127
-0.551394 -0.700033 -0.332959 127 0 127
-0.548189 -0.781505 -0.086237 127 0 127
-0.452188 -0.774204 0.037653 127 127 0
-0.235340 -0.658825 -0.569311 127 127 0
-0.523319 -0.369402 -0.253818 127 127 0
0.534192 -0.113638 0.121482 127 127 0
0.505204 -0.611215 -0.131162 127 127 0
0.530698 0.027698 -0.183896 127 127 0
-0.319897 0.831148 -0.021032 0 255 0
0.224839 0.323336 0.447906 127 127 0
-0.069977 0.844946 0.227758 0 255 0
0.387445 -0.392548 0.323221 127 127 0
-0.028006 -0.100145 0.540693 127 127 0
0.415878 -0.499045 0.290035 127 127 0
0.245535 -0.042335 -0.483741 127 127 0
0.143663 -0.181047 -0.530944 127 127 0
-0.562020 -0.472397 0.086155 127 127 0
-0.452911 0.129276 0.328661 127 127 0
-0.496118 -0.379547 0.185323 127 127 0
-0.441111 -0.370813 0.340631 127 127 0
-0.526814 -0.061522 -0.134233 127 127 0
0.546219 0.006759 0.044340 127 127 0
-0.487225 0.112624 0.278600 127 127 0
-0.402546 -0.608631 -0.436514 127 127 0
0.325595 -0.009829 0.431080 127 127 0
-0.477095 -0.145342 0.297197 127 127 0
0.584107 0.650807 0.024888 0 255 0
0.511767 -0.311847 -0.088310 127 127 0
-0.535224 -0.523555 0.033545 127 127 0
0.323068 -0.253750 -0.479427 127 127 0
-0.015165 0.476356 0.541374 127 127 0
0.394182 -0.774769 0.097445 127 127 0
0.528751 0.054038 -0.191617 127 127 0
-0.032554 -0.781505 0.150411 127 0 127
0.538008 -0.167092 0.096920 127 127 0
-0.528421 -0.144316 0.197740 127 127 0
0.079411 0.132401 -0.542305 127 127 0
0.002051 -0.781505 -0.111007 127 0 127
0.553054 0.249585 -0.030022 127 127 0
0.079529 -0.781505 0.329736 127 0 127
-0.544497 0.199971 -0.211048 127 127 0
0.230398 0.709784 0.512615 0 255 0
0.344999 0.478849 -0.460465 127 127 0
-0.349361 -0.781505 0.085880 127 0 127
0.454713 -0.695395 -0.435527 127 0 127
-0.492003 -0.066940 -0.315255 127 127 0
0.172735 -0.586453 -0.520152 127 127 0
0.589511 -0.775892 0.031078 127 0 127
-0.492326 -0.781505 -0.221305 127 0 127
0.185098 0.563812 0.505658 127 127 0
0.483315 -0.757199 -0.356576 127 127 0
-0.127536 -0.412139 0.526747 127 127 0
-0.195257 0.780186 0.422508 0 255 0
-0.512986 -0.676759 -0.320694 127 127 0
0.190212 0.644434 -0.546820 127 127 0
-0.134751 0.516613 -0.571649 127 127 0
-0.046053 -0.677291 0.571872 127 127 0
0.542374 0.656892 0.261838 0 255 0
0.530875 0.565288 0.135315 127 127 0
0.499768 0.527102 -0.162147 127 127 0
0.514394 -0.258480 0.023831 127 127 0
0.567607 -0.665887 0.009119 127 127 0
-0.302190 -0.713541 0.509015 127 127 0
0.455128 -0.034414 -0.342273 127 127 0
0.546966 0.493521 -0.080852 127 127 0
0.457399 -0.600274 -0.343097 127 127 0
-0.463282 -0.737661 0.372628 127 127 0
-0.298342 -0.641922 -0.473790 127 127 0
0.522204 0.432840 0.165019 127 127 0
-0.004104 -0.535295 0.505798 127 127 0
0.294705 0.566536 -0.496989 127 127 0
-0.533383 0.649973 -0.213207 127 127 0
-0.189385 0.382415 -0.523398 127 127 0
-0.530014 0.307751 0.073724 127 127 0
-0.527634 -0.004705 0.085197 127 127 0
0.446156 0.201550 -0.355125 127 127 0
-0.532660 0.053362 -0.100954 127 127 0
0.467548 0.656341 -0.294026 127 127 0
-0.291224 0.712716 0.475158 0 255 0
0.005759 -0.755284 0.573625 127 127 0
0.484691 0.004998 -0.209262 127 127 0
0.236196 0.799299 -0.356072 0 255 0
0.503594 0.742327 0.183485 0 255 0
0.155067 0.555125 0.480861 127 127 0
0.269775 -0.051843 -0.471170 127 127 0
-0.169313 0.310744 -0.565605 127 127 0
0.527077 0.720781 -0.195067 0 255 0
0.129721 -0.713239 0.564574 127 127 0
0.453103 -0.610222 0.226106 127 127 0
0.539289 0.709713 0.161345 0 255 0
0.174433 0.019018 0.473108 127 127 0
0.321593 -0.729396 -0.533405 127 127 0
0.511889 0.303021 0.041299 127 127 0
-0.269498 -0.589723 0.476225 127 127 0
0.518110 0.628889 -0.017202 127 127 0
0.501706 -0.673352 -0.341200 127 0 127
-0.400082 -0.446676 -0.427728 127 127 0
-0.183211 -0.772234 -0.609601 127 0 127
0.095768 0.528264 0.528064 127 127 0
0.166295 -0.281938 0.476934 127 127 0
0.057941 0.843317 -0.261376 0 255 0
0.201197 -0.422429 0.498571 127 127 0
0.393087 0.344427 0.365160 127 127 0
-0.536222 -0.659624 0.156462 127 127 0
-0.022503 -0.774204 -0.390365 127 127 0
-0.261980 -0.774564 0.046660 127 127 0
0.092508 0.832029 0.280402 0 255 0
-0.570772 -0.166230 0.030869 127 127 0
-0.485214 0.316452 -0.328560 127 127 0
-0.413211 -0.526415 0.319674 127 127 0
-0.574679 0.325108 -0.049019 127 127 0
0.180701 0.299433 0.470161 127 127 0
-0.126011 -0.070132 0.526695 127 127 0
0.110971 -0.774204 0.110589 127 127 0
0.269181 0.379262 -0.471739 127 127 0
0.441367 0.777449 -0.194780 0 255 0
0.104303 0.631582 0.526036 127 127 0
-0.063315 0.330287 0.536242 127 127 0
0.168778 -0.670401 0.540491 127 127 0
0.518106 -0.274631 -0.024307 127 127 0
0.174931 0.002905 0.510175 127 127 0
-0.150496 0.647006 0.519471 127 127 0
-0.571719 0.658915 0.236999 0 255 0
-0.274876 -0.293090 -0.518434 127 127 0
0.381310 -0.051416 0.378233 127 127 0
-0.377643 0.321958 -0.450167 127 127 0
-0.112351 0.208218 0.494187 127 127 0
0.269065 -0.741839 -0.578105 127 0 127
-0.303803 0.264478 -0.465002 127 127 0
-0.442032 -0.769543 0.348251 127 127 0
-0.259756 -0.510154 -0.526137 127 127 0
-0.066841 -0.063008 0.536170 127 127 0
0.419349 0.171439 0.339013 127 127 0
-0.052133 0.198630 -0.584726 127 127 0
-0.283669 -0.781505 0.307328 127 0 127
-0.457613 0.414787 0.262241 127 127 0
0.280308 -0.776467 0.501083 127 0 127
-0.147735 -0.114550 0.523397 127 127 0
-0.088372 0.859574 0.094866 0 255 0
0.393985 0.801452 -0.124713 0 255 0
-0.299844 0.586466 -0.467333 127 127 0
0.236765 0.838676 -0.149476 0 255 0
0.505372 0.451630 0.082925 127 127 0
0.552648 0.067737 -0.007028 127 127 0
0.436321 -0.090805 -0.305006 127 127 0
0.266064 0.018089 0.426894 127 127 0
0.161944 0.472554 0.478548 127 127 0
-0.188174 -0.781505 0.213602 127 0 127
0.543206 -0.338849 0.063891 127 127 0
0.453536 -0.750234 0.352517 127 127 0
0.552411 0.251377 0.002847 127 127 0
-0.371199 -0.334873 0.361683 127 127 0
0.428125 0.453501 0.272642 127 127 0
0.086881 -0.775714 0.573941 127 0 127
-0.181008 -0.315089 -0.562877 127 127 0
0.130888 -0.381789 -0.533579 127 127 0
-0.551584 0.230181 0.144303 127 127 0
0.146786 -0.637219 0.484294 127 127 0
0.507123 0.492659 -0.117635 127 127 0
-0.524508 -0.763849 0.248059 127 127 0
0.167304 0.650901 -0.527677 127 127 0
0.545671 0.191537 0.047694 127 127 0
-0.530654 0.195289 -0.114050 127 127 0
0.035647 -0.686491 0.575775 127 127 0
-0.541514 0.738814 -0.084433 0 255 0
-0.392006 0.711100 -0.435357 0 255 0
0.256572 0.401785 0.431730 127 127 0
0.432841 0.382024 -0.310799 127 127 0
-0.504268 0.585778 -0.216741 127 127 0
0.322530 0.821380 -0.160739 0 255 0
0.501127 0.655669 -0.346553 0 255 0
-0.470297 -0.479808 0.235996 127 127 0
-0.320216 -0.037676 -0.453938 127 127 0
0.307708 -0.746977 -0.557254 127 0 127
0.543133 0.650311 -0.255392 0 255 0
-0.445623 -0.774204 -0.095637 127 127 0
-0.134232 0.445336 0.490845 127 127 0
0.532319 0.283829 -0.177293 127 127 0
-0.316992 0.812661 0.204485 0 255 0
0.328409 -0.772066 -0.476527 127 127 0
0.290447 -0.693873 -0.563994 127 0 127
0.103753 -0.781505 -0.415902 127 0 127
0.489193 0.475733 0.228953 127 127 0
0.260941 -0.256405 -0.514192 127 127 0
0.537046 0.095433 0.099324 127 127 0
-0.301367 -0.781505 0.349888 127 0 127
0.517195 0.206172 -0.044011 127 127 0
0.137497 -0.669142 -0.588507 127 127 0
0.542013 0.133709 0.069179 127 127 0
-0.486552 -0.176611 -0.250145 127 127 0
0.268209 0.380371 -0.510489 127 127 0
0.265678 0.475237 0.465364 127 127 0
0.330849 -0.614913 -0.425992 127 127 0
-0.593159 -0.658390 -0.107025 127 0 127
-0.281327 0.606414 0.430488 127 127 0
-0.115153 -0.446548 -0.539888 127 127 0
0.037054 0.863289 0.041663 0 255 0
-0.336749 0.035352 0.438407 127 127 0
0.375127 0.657449 -0.490568 0 255 0
0.317548 -0.083470 -0.438662 127 127 0
-0.306759 -0.151895 0.455391 127 127 0
0.125250 0.036884 -0.569615 127 127 0
0.439496 0.683330 -0.422912 0 255 0
0.583208 0.657895 -0.177363 0 255 0
-0.257559 -0.303564 0.442553 127 127 0
0.187726 0.515796 -0.513996 127 127 0
0.462773 -0.514573 0.282959 127 127 0
0.490599 0.482885 -0.272135 127 127 0
0.531559 0.276606 0.132325 127 127 0
-0.321763 -0.341507 -0.452461 127 127 0
0.483027 -0.329493 -0.289220 127 127 0
-0.357239 -0.781505 0.393378 127 0 127
-0.634436 -0.752766 -0.041892 127 0 127
0.162407 -0.660514 -0.555668 127 127 0
0.551623 -0.781210 -0.216640 127 0 127
0.462855 -0.254208 0.206950 127 127 0
0.447129 0.541587 0.237815 127 127 0
0.442591 0.401212 -0.359671 127 127 0
-0.311324 0.184138 0.413468 127 127 0
-0.205754 0.227641 0.507193 127 127 0
0.552325 -0.304431 -0.051506 127 127 0
-0.481544 0.775879 0.031844 0 255 0
-0.302387 0.825615 0.145555 0 255 0
-0.317730 -0.101917 -0.496575 127 127 0
0.463298 -0.219277 -0.327652 127 127 0
-0.338107 0.563320 -0.439924 127 127 0
0.480123 -0.105832 -0.294917 127 127 0
-0.346594 -0.657303 0.403656 127 127 0
-0.591147 -0.691223 -0.163441 127 127 0
-0.272421 -0.649218 -0.483228 127 127 0
-0.564090 0.420348 0.073091 127 127 0
0.034427 0.600689 0.537530 127 127 0
-0.420572 0.749243 -0.342235 0 255 0
0.332675 -0.658109 -0.446984 127 127 0
-0.369318 -0.373335 0.363564 127 127 0
0.157668 0.080425 0.479932 127 127 0
0.016836 -0.413819 0.540444 127 127 0
0.349812 0.681519 -0.504505 0 255 0
-0.259744 0.437451 -0.488017 127 127 0
-0.465379 0.306473 0.247859 127 127 0
0.299759 -0.477397 0.405860 127 127 0
0.506118 0.511635 0.078046 127 127 0
0.408639 -0.204956 -0.396949 127 127 0
0.410615 0.792169 -0.180102 0 255 0
-0.217559 0.474638 -0.509206 127 127 0
-0.150166 0.854284 0.089664 0 255 0
0.396769 0.788349 -0.224054 0 255 0
-0.573971 -0.660661 0.011004 127 127 0
-0.182720 0.848447 0.123961 0 255 0
-0.399884 -0.758713 0.423947 127 127 0
0.538842 -0.107879 -0.137804 127 127 0
0.501003 -0.774921 -0.225252 127 127 0
-0.404879 0.770371 -0.290909 0 255 0
0.208513 -0.437444 -0.540906 127 127 0
0.407001 0.022757 0.351930 127 127 0
-0.412858 0.399207 -0.367483 127 127 0
0.248890 0.635317 -0.519123 127 127 0
0.451750 0.763199 0.205876 0 255 0
-0.251246 0.153120 0.445770 127 127 0
-0.192343 -0.781505 -0.245574 127 0 127
0.269522 -0.492650 -0.509821 127 127 0
0.269283 0.349350 -0.471687 127 127 0
-0.521242 -0.781505 -0.092211 127 0 127
-0.313500 -0.389957 0.411965 127 127 0
0.034440 -0.774278 -0.453485 127 127 0
-0.398522 -0.774204 0.258279 127 127 0
0.532798 0.502381 -0.175366 127 127 0
-0.508619 0.762909 0.026516 0 255 0
0.147068 0.080871 -0.565602 127 127 0
-0.337543 -0.035982 0.437898 127 127 0
-0.142200 -0.781505 0.455424 127 0 127
0.284870 0.570604 0.455938 127 127 0
0.591844 -0.696654 -0.185600 127 0 127
0.420025 0.417887 -0.330722 127 127 0
-0.405406 0.251083 0.376359 127 127 0
0.610755 0.675319 0.123843 0 255 0
0.188652 -0.757919 -0.583303 127 127 0
-0.229000 0.165294 -0.541790 127 127 0
0.191128 -0.269484 0.465086 127 127 0
-0.575317 -0.601769 0.007529 127 127 0
-0.312599 0.624513 0.413095 127 127 0
-0.018465 -0.772688 0.588559 127 0 127
0.107157 0.001300 -0.572489 127 127 0
-0.223929 0.777115 0.410615 0 255 0
0.505688 0.406294 -0.126933 127 127 0
-0.225033 0.820713 -0.294804 0 255 0
-0.106192 -0.254129 -0.576173 127 127 0
-0.145844 0.791923 0.408583 0 255 0
-0.057722 0.328488 -0.583843 127 127 0
-0.063970 0.383741 -0.582856 127 127 0
-0.128104 -0.781344 0.553652 127 0 127
-0.338910 0.222804 0.392323 127 127 0
-0.462266 0.137718 -0.363711 127 127 0
-0.143022 -0.357902 0.489287 127 127 0
0.142505 0.192769 0.484852 127 127 0
0.516841 0.239874 0.002119 127 127 0
0.537498 -0.495571 -0.146753 127 127 0
-0.086112 -0.373628 -0.579353 127 127 0
-0.526795 0.248231 -0.137509 127 127 0
0.408090 -0.482552 0.351453 127 127 0
0.468176 0.338783 -0.242550 127 127 0
0.125938 -0.774703 0.450001 127 127 0
-0.553090 0.623257 0.136999 127 127 0
-0.037984 -0.781505 -0.415050 127 0 127
0.469590 0.527708 -0.313787 127 127 0
0.500034 0.148269 0.114739 127 127 0
-0.194287 -0.647830 -0.581275 127 127 0
0.261498 -0.774340 -0.312324 127 127 0
0.110569 0.352217 0.525903 127 127 0
0.500290 -0.193532 0.113437 127 127 0
-0.505372 -0.613320 -0.304308 127 127 0
-0.559740 -0.781505 0.008732 127 0 127
0.435487 -0.503977 -0.369326 127 127 0
-0.052804 0.823703 -0.354021 0 255 0
0.504406 0.371177 0.199785 127 127 0
0.155246 0.514637 0.480719 127 127 0
0.032557 0.063545 -0.549659 127 127 0
-0.165738 -0.672719 0.560892 127 0 127
0.079840 0.617292 0.530358 127 127 0
-0.546326 0.683678 -0.274631 0 255 0
0.421753 -0.047918 -0.383656 127 127 0
-0.347573 -0.781505 0.241466 127 0 127
0.009441 0.313642 0.505150 127 127 0
-0.338281 0.043038 0.392872 127 127 0
0.534479 -0.541868 -0.165693 127 127 0
-0.501762 -0.641334 0.286178 127 127 0
-0.457732 -0.151421 -0.306389 127 127 0
0.115572 -0.027534 0.525066 127 127 0
-0.377669 0.386049 0.404096 127 127 0
-0.137980 -0.774478 -0.287098 127 127 0
0.542109 -0.540803 -0.117648 127 127 0
0.283328 -0.401339 -0.463236 127 127 0
0.535004 0.446558 0.111885 127 127 0
0.541672 0.472146 -0.116215 127 127 0
-0.481690 0.480068 0.289458 127 127 0
0.485062 0.085955 -0.283752 127 127 0
-0.397085 -0.418362 0.335797 127 127 0
0.379852 0.250352 0.330808 127 127 0
-0.096435 0.262283 0.496683 127 127 0
0.148524 0.741430 -0.530720 0 255 0
-0.352974 0.808468 -0.198391 0 255 0
-0.473516 0.107142 -0.276916 127 127 0
-0.367607 -0.682605 0.478464 127 0 127
-0.477110 0.511283 -0.270882 127 127 0
-0.455236 0.555752 -0.372393 127 127 0
-0.288880 0.509723 -0.511298 127 127 0
0.239269 -0.688886 -0.566543 127 127 0
-0.432308 -0.273935 -0.395502 127 127 0
0.268750 0.203772 0.463689 127 127 0
-0.529733 -0.072255 0.069109 127 127 0
0.195104 -0.774351 -0.230174 127 127 0
-0.103672 0.590408 0.529907 127 127 0
0.225701 0.546293 -0.532148 127 127 0
-0.117927 -0.526284 -0.574314 127 127 0
-0.524208 -0.552783 0.105093 127 127 0
-0.244163 -0.102545 -0.495423 127 127 0
-0.196034 -0.781505 -0.504571 127 0 127
0.009496 0.561818 0.505147 127 127 0
0.434849 -0.663814 0.340665 127 127 0
0.404026 0.335853 -0.401562 127 127 0
0.270006 -0.750665 0.502935 127 127 0
-0.125539 0.579267 -0.539041 127 127 0
-0.534595 -0.652896 -0.199423 127 127 0
-0.496639 -0.462650 0.184301 127 127 0
0.545507 -0.664417 -0.122083 127 127 0
-0.573491 0.420056 -0.059806 127 127 0
0.549204 0.581264 -0.067622 127 127 0
0.074832 0.676355 -0.639586 0 255 0
0.146037 0.680892 0.577858 0 255 0
0.320355 -0.781505 0.382121 127 0 127
-0.408275 -0.781496 -0.409243 127 0 127
0.483620 -0.767446 0.239410 127 127 0
-0.535921 -0.662971 -0.224093 127 127 0
0.545990 0.532207 0.043341 127 127 0
0.281097 -0.781406 0.465566 127 0 127
-0.543302 -0.722756 0.310852 127 0 127
0.433768 0.659698 0.429025 0 255 0
-0.156909 -0.763107 -0.624010 127 0 127
0.131623 -0.654184 -0.549713 127 127 0
-0.462555 -0.553134 -0.297245 127 127 0
0.050366 -0.562124 0.535443 127 127 0
-0.334511 -0.073714 -0.442594 127 127 0
-0.310991 0.221156 0.452840 127 127 0
-0.013548 0.699824 -0.599424 0 255 0
-0.305437 -0.755431 -0.533296 127 127 0
-0.072349 -0.659411 0.520239 127 127 0
0.494461 0.731167 0.225316 0 255 0
0.388453 0.384932 -0.368253 127 127 0
0.354054 -0.228965 -0.402870 127 127 0
0.252758 -0.024591 -0.518361 127 127 0
0.249441 0.061882 -0.482002 127 127 0
0.485857 0.570545 0.160733 127 127 0
-0.305507 -0.591068 -0.505700 127 127 0
-0.164213 -0.781505 0.236395 127 0 127
-0.603063 0.658914 0.107242 0 255 0
0.499508 0.063144 -0.163469 127 127 0
0.506848 0.440046 -0.119375 127 127 0
0.075857 0.589817 -0.542906 127 127 0
-0.516543 -0.442111 0.221051 127 127 0
-0.188731 0.847009 -0.161134 0 255 0
0.246232 0.652181 -0.488732 127 127 0
0.482625 0.580920 -0.287783 127 127 0
-0.239565 0.425511 0.490354 127 127 0
-0.401119 0.332745 0.331763 127 127 0
0.166119 -0.781505 0.381698 127 0 127
-0.295480 -0.774204 -0.407799 127 127 0
0.432316 0.623558 0.325884 127 127 0
-0.526794 -0.284115 0.088344 127 127 0
-0.256782 -0.173119 -0.527654 127 127 0
0.265522 0.820572 -0.251067 0 255 0
0.508690 -0.333062 0.192835 127 127 0
-0.077649 -0.448842 -0.580694 127 127 0
0.517832 -0.601806 -0.032710 127 127 0
0.592745 -0.710976 0.061583 127 127 0
0.353604 -0.781445 0.415144 127 0 127
-0.185251 -0.731178 0.555486 127 127 0
-0.520081 -0.216834 0.126077 127 127 0
-0.574693 0.693590 -0.135777 0 255 0
-0.083887 0.404376 -0.579706 127 127 0
0.148587 0.650927 0.551776 0 255 0
-0.437727 0.708952 -0.388129 0 255 0
0.335810 0.336942 -0.469118 127 127 0
0.470151 -0.625841 0.287969 127 127 0
0.329283 -0.672959 -0.523284 127 0 127
0.466124 -0.566603 -0.246578 127 127 0
-0.565578 -0.157498 -0.109790 127 127 0
-0.484514 -0.040641 0.283918 127 127 0
-0.481524 0.621209 -0.335386 127 127 0
0.162789 -0.774291 -0.386267 127 127 0
0.244977 -0.781505 0.228293 127 0 127
-0.441250 0.080314 0.340490 127 127 0
-0.112369 -0.774311 -0.349337 127 127 0
0.478534 0.378151 0.249774 127 127 0
-0.134007 -0.300419 0.525722 127 127 0
-0.503240 -0.452665 -0.217110 127 127 0
0.412221 -0.642163 0.300640 127 127 0
-0.231572 0.678263 0.575443 0 255 0
0.525543 -0.669567 0.240393 127 0 127
0.530770 -0.659044 0.094087 127 127 0
-0.385413 -0.126944 0.396352 127 127 0
0.501277 0.232617 -0.251745 127 127 0
0.503664 -0.217842 0.094103 127 127 0
0.147915 0.854677 0.072875 0 255 0
0.590657 -0.751489 -0.018542 127 127 0
0.348970 0.104203 -0.456548 127 127 0
-0.427523 -0.326953 -0.349598 127 127 0
0.545456 0.643297 0.011049 127 127 0
-0.567156 -0.779002 0.209848 127 0 127
0.039001 -0.781505 0.175434 127 0 127
-0.107464 -0.475384 0.494937 127 127 0
-0.353536 -0.206755 0.426166 127 127 0
-0.352793 -0.537730 0.427322 127 127 0
-0.551669 -0.043363 -0.189886 127 127 0
0.168059 0.744598 0.498083 0 255 0
-0.350898 -0.156404 0.428227 127 127 0
-0.353930 -0.289246 -0.424996 127 127 0
-0.196033 -0.655935 -0.539313 127 127 0
-0.534976 -0.218128 -0.082100 127 127 0
-0.351941 0.801008 0.213443 0 255 0
0.214686 0.289181 0.453081 127 127 0
-0.084640 0.862891 -0.012565 0 255 0
-0.567243 -0.127483 -0.099280 127 127 0
-0.291180 0.622158 -0.472201 127 127 0
0.194794 0.817045 -0.321391 0 255 0
-0.276093 0.644061 -0.511579 127 127 0
0.168435 0.644580 0.508659 127 127 0
0.157249 -0.051482 0.480072 127 127 0
0.509703 -0.677094 0.289024 127 0 127
0.369697 -0.774569 0.260211 127 127 0
0.370833 -0.733538 -0.522673 127 0 127
0.440182 0.786402 -0.110449 0 255 0
-0.073426 0.057917 0.500328 127 127 0
-0.167848 0.512907 0.519504 127 127 0
-0.151226 0.821997 -0.337945 0 255 0
-0.528870 -0.174020 0.196859 127 127 0
-0.516327 -0.455457 0.138929 127 127 0
-0.570221 -0.582401 -0.085174 127 127 0
-0.508628 0.189269 -0.207539 127 127 0
-0.087182 -0.385280 -0.544194 127 127 0
0.064329 -0.774204 -0.192664 127 127 0
0.497811 -0.772205 0.318587 127 0 127
0.018492 -0.365988 0.540297 127 127 0
0.435478 0.239049 -0.368741 127 127 0
-0.604092 0.659948 -0.134352 0 255 0
-0.232000 0.781811 -0.419822 0 255 0
0.449062 0.739287 -0.305216 0 255 0
-0.540810 0.549492 -0.013768 127 127 0
0.138377 -0.103210 0.485815 127 127 0
-0.140005 0.161822 0.524585 127 127 0
0.504792 -0.561836 0.086722 127 127 0
-0.460605 0.388837 0.257234 127 127 0
0.249709 0.547445 -0.481658 127 127 0
0.352883 0.701029 0.440682 0 255 0
-0.521853 -0.501972 -0.163066 127 127 0
0.145924 0.806702 0.362616 0 255 0
-0.395642 -0.774204 -0.021933 127 127 0
-0.458680 0.776889 0.136614 0 255 0
0.475498 -0.773999 0.174784 127 127 0
-0.498160 -0.749931 -0.372615 127 127 0
0.193044 -0.774553 -0.137021 127 127 0
0.519379 0.477641 0.171723 127 127 0
0.310035 -0.615881 0.398236 127 127 0
0.195223 0.845636 0.129753 0 255 0
-0.605113 0.676511 0.196206 0 255 0
-0.194374 -0.781505 0.444714 127 0 127
-0.434959 0.432459 0.294937 127 127 0
-0.415565 -0.659336 -0.457270 127 127 0
-0.233608 -0.781505 -0.507952 127 0 127
0.518049 0.043847 -0.026311 127 127 0
0.507901 -0.272297 -0.112723 127 127 0
-0.591954 -0.763293 -0.053713 127 127 0
-0.541066 -0.630552 0.194809 127 127 0
-0.576120 0.684091 -0.184127 0 255 0
-0.575439 0.499017 -0.034653 127 127 0
0.316311 -0.774609 0.254981 127 127 0
-0.344487 -0.774204 0.323096 127 127 0
0.098817 -0.774496 0.269371 127 127 0
-0.487479 0.475345 -0.324119 127 127 0
-0.206151 -0.774204 0.351642 127 127 0
-0.463051 -0.774204 0.171228 127 127 0
0.508409 0.065373 -0.237244 127 127 0
0.195985 -0.039064 0.500137 127 127 0
0.520991 -0.775062 -0.039922 127 127 0
-0.246575 0.281034 -0.532856 127 127 0
-0.483026 -0.634391 -0.257824 127 127 0
-0.262629 -0.694540 -0.568064 127 127 0
-0.502109 0.312338 -0.295450 127 127 0
-0.174813 -0.007686 0.517781 127 127 0
-0.529837 0.402969 -0.240996 127 127 0
0.512475 -0.249266 0.185399 127 127 0
0.404497 -0.390837 0.355046 127 127 0
-0.187541 -0.148857 -0.523808 127 127 0
-0.370280 0.486142 0.362602 127 127 0
-0.492623 0.554273 -0.314042 127 127 0
0.536044 0.024839 -0.154395 127 127 0
0.153575 -0.251332 0.481260 127 127 0
-0.036531 0.902477 -0.050667 0 255 0
-0.494900 0.167357 0.189305 127 127 0
-0.557232 -0.090877 0.116345 127 127 0
0.176924 -0.108634 0.471937 127 127 0
0.098800 -0.774204 0.010172 127 127 0
-0.560015 0.615923 0.097775 127 127 0
-0.138711 0.828706 -0.310116 0 255 0
-0.221016 -0.722607 0.548330 127 127 0
-0.244783 0.120882 0.449064 127 127 0
-0.124087 -0.668749 0.563854 127 0 127
0.547659 -0.614941 -0.118625 127 127 0
-0.549492 0.515894 -0.197913 127 127 0
0.026449 0.797537 -0.439388 0 255 0
-0.301497 -0.729436 0.529591 127 0 127
-0.440321 0.793603 -0.058229 0 255 0
-0.308319 -0.774359 -0.200703 127 127 0
0.476049 0.728200 0.257896 0 255 0
0.026270 -0.754575 -0.619935 127 127 0
0.152955 -0.781505 0.267976 127 0 127
-0.496466 -0.440434 -0.306513 127 127 0
-0.454045 0.012544 -0.373597 127 127 0
0.510229 -0.415199 -0.235833 127 127 0
0.338690 0.776153 0.329213 0 255 0
-0.564099 -0.209803 -0.119129 127 127 0
-0.266831 -0.662352 0.460729 127 127 0
-0.607444 -0.754633 0.021489 127 127 0
0.128518 -0.102275 0.522855 127 127 0
0.312357 -0.315122 0.440788 127 127 0
-0.360440 -0.490354 0.372452 127 127 0
-0.193676 0.803325 -0.376841 0 255 0
-0.156599 0.002162 -0.568179 127 127 0
-0.201219 0.851389 0.028493 0 255 0
0.328201 -0.774449 -0.378806 127 127 0
0.085374 0.291790 -0.575942 127 127 0
0.481874 0.304479 -0.215239 127 127 0
0.134483 -0.594510 0.486594 127 127 0
0.218081 0.179044 0.489147 127 127 0
-0.593122 -0.747174 0.108968 127 127 0
-0.177347 0.798881 -0.403364 0 255 0
0.469068 0.032662 -0.315329 127 127 0
-0.564504 0.650927 0.165735 0 255 0
-0.626085 -0.719770 -0.136402 127 0 127
-0.429879 0.535152 0.351885 127 127 0
-0.335262 -0.774225 0.413041 127 127 0
-0.585272 0.706385 -0.004839 0 255 0
0.231179 0.834124 -0.194579 0 255 0
-0.301379 0.467068 -0.504917 127 127 0
-0.119553 -0.515590 -0.539267 127 127 0
-0.010966 0.854629 0.003219 0 255 0
0.140267 0.677009 -0.623422 0 255 0
0.030444 -0.125059 0.538362 127 127 0
0.232866 0.762233 0.433350 0 255 0
-0.355979 -0.248963 -0.470794 127 127 0
0.089583 0.421011 0.529228 127 127 0
0.470183 0.433485 0.266195 127 127 0
-0.089825 0.849643 -0.213989 0 255 0
-0.321540 -0.661442 0.447711 127 127 0
0.506939 -0.061645 -0.242293 127 127 0
0.061464 0.854104 -0.182360 0 255 0
-0.453427 0.504483 -0.315326 127 127 0
0.285007 0.426850 -0.501937 127 127 0
0.549956 -0.596417 -0.074188 127 127 0
0.048529 -0.781505 -0.088383 127 0 127
-0.544460 -0.317306 0.165149 127 127 0
0.032497 -0.774317 -0.032385 127 127 0
-0.457220 -0.639221 -0.314492 127 127 0
-0.019717 0.266228 -0.552182 127 127 0
-0.497855 0.601029 0.257729 127 127 0
0.322143 0.801452 0.241137 0 255 0
-0.554425 -0.771761 -0.141853 127 127 0
0.424911 -0.065363 0.278013 127 127 0
0.332632 -0.418743 -0.471689 127 127 0
-0.575906 0.095445 -0.025837 127 127 0
-0.539410 -0.774222 -0.042527 127 127 0
-0.279438 0.823537 -0.222384 0 255 0
0.141637 -0.774204 0.146265 127 127 0
0.399898 -0.353388 0.309747 127 127 0
0.509183 0.746407 0.135703 0 255 0
0.031878 0.872394 0.002978 0 255 0
0.461739 0.546494 -0.329530 127 127 0
-0.445311 0.436976 -0.328442 127 127 0
-0.340174 0.039722 -0.483111 127 127 0
0.017157 0.786517 -0.472706 0 255 0
-0.081901 0.819430 -0.365093 0 255 0
-0.187009 -0.774397 0.100257 127 127 0
-0.364023 0.080255 0.417268 127 127 0
-0.234416 0.171181 0.492482 127 127 0
0.480690 -0.296314 0.247754 127 127 0
-0.102083 -0.025178 0.530579 127 127 0
-0.367687 -0.662547 -0.461235 127 127 0
-0.164787 0.233677 -0.531937 127 127 0
-0.031948 0.304415 0.540168 127 127 0
0.083009 -0.099413 0.530275 127 127 0
0.281678 0.461478 -0.503632 127 127 0
0.586374 0.651000 -0.028462 0 255 0
-0.276088 -0.142488 0.433112 127 127 0
-0.334222 -0.027420 0.396420 127 127 0
0.492551 -0.109815 0.224477 127 127 0
0.004837 -0.714557 0.607361 127 0 127
-0.167322 -0.774717 0.478456 127 127 0
-0.170146 -0.614085 -0.529516 127 127 0
0.107633 0.566081 -0.537682 127 127 0
0.182154 0.823361 0.277705 0 255 0
-0.048800 0.887015 0.002504 0 255 0
0.069564 -0.781505 0.370146 127 0 127
-0.485111 -0.774204 -0.158931 127 127 0
0.550612 -0.194576 0.016371 127 127 0
-0.408923 0.116685 -0.371343 127 127 0
0.504399 -0.314894 -0.135348 127 127 0
-0.368327 -0.774314 -0.042884 127 127 0
0.427396 0.548656 -0.319771 127 127 0
0.508408 -0.318949 0.063438 127 127 0
-0.483294 -0.539252 -0.256538 127 127 0
0.367983 -0.774798 0.143986 127 127 0
-0.036555 0.799196 -0.434373 0 255 0
0.497311 0.108648 0.128579 127 127 0
0.032742 0.672401 -0.644500 0 255 0
0.455234 0.658256 -0.421007 0 255 0
0.121324 -0.774204 0.199351 127 127 0
-0.458371 0.655812 0.399715 0 255 0
-0.504008 -0.781505 -0.011471 127 0 127
-0.292997 -0.350287 0.424473 127 127 0
0.351934 0.240932 0.406219 127 127 0
0.327421 0.732161 -0.448171 0 255 0
-0.105527 -0.218694 0.495244 127 127 0
0.161873 -0.781505 -0.104086 127 0 127
-0.307180 -0.769607 0.460130 127 127 0
0.096977 -0.188425 -0.539200 127 127 0
-0.313333 -0.337071 0.452667 127 127 0
0.520579 0.154126 -0.213697 127 127 0
-0.562309 -0.044138 0.084329 127 127 0
-0.574714 -0.277019 -0.048354 127 127 0
0.382949 -0.152467 0.327712 127 127 0
0.459473 -0.772088 -0.418290 127 0 127
-0.574152 -0.190242 0.009394 127 127 0
0.351335 -0.050755 0.408171 127 127 0
-0.284276 -0.347666 -0.475213 127 127 0
-0.271954 -0.488641 0.473850 127 127 0
0.081197 -0.774605 0.305135 127 127 0
0.492893 0.448440 -0.188573 127 127 0
-0.231475 0.836363 -0.190630 0 255 0
-0.519751 -0.781505 -0.154281 127 0 127
-0.129833 0.654485 -0.604488 0 255 0
-0.488780 0.133834 -0.321572 127 127 0
-0.347275 -0.717814 -0.553423 127 0 127
-0.308946 0.658790 0.517579 0 255 0
0.410576 0.612652 0.297683 127 127 0
-0.148714 -0.221556 -0.534905 127 127 0
-0.480309 0.013379 -0.263649 127 127 0
0.517865 -0.488017 -0.019261 127 127 0
0.027588 0.334840 -0.585080 127 127 0
0.387221 0.149579 -0.370032 127 127 0
-0.234012 -0.440554 -0.500596 127 127 0
0.392219 -0.210547 0.318443 127 127 0
0.085329 -0.599966 -0.540962 127 127 0
-0.382468 0.512052 0.399297 127 127 0
-0.425722 -0.344120 0.356042 127 127 0
-0.180864 0.682432 0.565452 0 255 0
0.469713 0.177932 -0.239535 127 127 0
0.081367 0.861981 0.038896 0 255 0
-0.344462 -0.502199 -0.433683 127 127 0
-0.396080 -0.691879 0.463880 127 0 127
0.109290 -0.774204 0.169940 127 127 0
-0.461566 -0.380262 -0.299185 127 127 0
-0.535386 -0.427026 -0.079516 127 127 0
-0.261349 -0.774204 0.348887 127 127 0
-0.434396 -0.353393 -0.341295 127 127 0
0.552052 -0.062514 0.008630 127 127 0
0.604364 0.682993 -0.005923 0 255 0
0.486085 -0.724709 0.364168 127 0 127
0.314901 -0.659437 -0.472462 127 127 0
-0.381017 0.807292 -0.151409 0 255 0
-0.258859 0.679948 -0.580710 0 255 0
-0.379167 0.629584 -0.447366 127 127 0
0.340213 0.583436 0.418127 127 127 0
-0.540501 0.235424 -0.014269 127 127 0
-0.535902 -0.370220 0.028818 127 127 0
-0.168304 -0.117755 0.483705 127 127 0
0.537068 -0.704956 0.278119 127 0 127
0.489297 -0.480699 0.153423 127 127 0
-0.291196 0.310278 -0.510115 127 127 0
0.022438 0.809436 -0.404750 0 255 0
-0.193797 0.840103 -0.211840 0 255 0
-0.567917 0.206028 -0.095023 127 127 0
0.313062 -0.718955 0.513996 127 0 127
0.039165 -0.781505 -0.167761 127 0 127
0.547333 0.445857 -0.078679 127 127 0
0.444819 0.010732 -0.288390 127 127 0
-0.539457 0.151337 0.007730 127 127 0
0.072929 -0.757156 0.562904 127 127 0
-0.219164 0.315084 0.500369 127 127 0
-0.510050 0.116710 -0.204412 127 127 0
-0.029181 0.868210 -0.039414 0 255 0
0.466480 -0.158709 0.275688 127 127 0
0.340712 0.008916 0.418063 127 127 0
0.347755 0.083109 0.362905 127 127 0
-0.202725 -0.289690 0.508990 127 127 0
0.192812 -0.084384 -0.511350 127 127 0
0.046146 -0.260911 0.536062 127 127 0
-0.097353 0.835589 -0.290809 0 255 0
-0.167628 0.553432 -0.565998 127 127 0
-0.577888 0.676544 0.262346 0 255 0
-0.227080 -0.709599 -0.611931 127 0 127
0.511977 -0.775022 -0.072497 127 127 0
0.522796 -0.702797 0.304625 127 0 127
-0.273740 -0.510656 0.434308 127 127 0
0.106443 -0.657707 0.515903 127 127 0
0.112583 -0.273628 -0.536843 127 127 0
0.214387 0.075229 0.453233 127 127 0
-0.349878 0.181690 0.429028 127 127 0
0.050530 -0.774378 -0.382352 127 127 0
0.211174 0.849527 -0.030628 0 255 0
-0.429408 0.290146 0.352356 127 127 0
-0.469758 -0.380801 -0.354245 127 127 0
-0.462124 -0.454872 -0.363888 127 127 0
0.548454 0.060881 -0.074591 127 127 0
-0.575858 -0.781353 -0.181903 127 0 127
0.322275 0.803788 -0.254368 0 255 0
0.553699 -0.376780 -0.020809 127 127 0
-0.005680 0.809883 0.382976 0 255 0
-0.535809 0.486317 0.036492 127 127 0
0.165937 -0.774298 0.183998 127 127 0
0.508110 0.107078 -0.111406 127 127 0
0.319875 -0.370116 -0.481823 127 127 0
-0.468631 -0.772941 0.295810 127 127 0
0.227439 0.846733 -0.062049 0 255 0
-0.412023 -0.774204 0.295019 127 127 0
-0.571743 0.477280 -0.070851 127 127 0
0.372903 -0.660114 -0.473537 127 0 127
-0.324003 -0.425982 -0.450772 127 127 0
0.418598 -0.613299 0.287063 127 127 0
-0.472146 0.472827 -0.350662 127 127 0
0.461532 -0.538495 -0.331402 127 127 0
-0.565764 -0.613632 0.099455 127 127 0
0.304491 0.087939 -0.449561 127 127 0
-0.436752 0.313612 0.292850 127 127 0
-0.420896 0.392554 0.360869 127 127 0
0.004678 -0.648320 -0.605072 127 127 0
0.458796 -0.663518 0.307461 127 127 0
0.021163 -0.235460 -0.550957 127 127 0
0.061732 0.782018 -0.472865 0 255 0
-0.166642 0.267922 0.484245 127 127 0
0.191035 0.257133 0.465135 127 127 0
-0.462578 -0.584575 0.251150 127 127 0
0.441221 0.594536 0.315117 127 127 0
0.290055 -0.382046 0.412924 127 127 0
-0.554928 0.387349 0.129838 127 127 0
0.097340 0.650777 0.563623 0 255 0
-0.561138 0.001895 -0.137820 127 127 0
0.163270 -0.774245 -0.298798 127 127 0
-0.334831 -0.135381 -0.486675 127 127 0
-0.118806 0.028482 -0.540045 127 127 0
-0.403074 -0.534807 0.378691 127 127 0
0.510181 -0.529786 -0.098324 127 127 0
0.355926 -0.414243 -0.449663 127 127 0
0.340186 0.789934 0.274696 0 255 0
0.094197 -0.385611 0.493559 127 127 0
0.380305 0.357266 0.330355 127 127 0
-0.468213 -0.029713 -0.286515 127 127 0
-0.118209 0.834845 0.264352 0 255 0
-0.037483 0.089897 -0.586568 127 127 0
0.596754 0.675946 0.198215 0 255 0
0.377794 -0.781505 -0.037555 127 0 127
-0.617843 -0.697122 -0.036218 127 127 0
-0.431573 -0.700919 -0.451361 127 127 0
-0.421416 0.451997 -0.406395 127 127 0
-0.412254 0.315441 -0.368087 127 127 0
0.424684 0.797459 0.004449 0 255 0
0.407211 -0.366210 -0.398377 127 127 0
-0.539892 -0.618583 -0.035418 127 127 0
-0.509864 -0.680309 -0.380767 127 0 127
-0.086775 0.813317 0.356618 0 255 0
0.233410 0.108298 -0.528220 127 127 0
-0.218262 -0.059041 -0.547249 127 127 0
-0.415631 0.726457 -0.391548 0 255 0
0.517889 0.584957 -0.019765 127 127 0
0.390564 -0.362474 0.368979 127 127 0
0.178997 -0.006604 -0.555633 127 127 0
0.317766 -0.480707 -0.437305 127 127 0
-0.142556 0.808672 -0.385068 0 255 0
0.216838 0.498497 -0.536664 127 127 0
-0.029292 0.541957 0.505419 127 127 0
-0.226513 -0.781505 -0.187845 127 0 127
0.430391 -0.781466 -0.408918 127 0 127
0.005587 0.243338 -0.587078 127 127 0
-0.480221 -0.781505 0.147453 127 0 127
-0.385597 -0.781505 0.348423 127 0 127
0.543030 0.123555 -0.108863 127 127 0
0.552525 -0.781413 -0.161428 127 0 127
0.552126 0.164625 0.003372 127 127 0
0.396791 -0.781505 -0.294689 127 0 127
-0.539615 -0.127247 -0.009382 127 127 0
0.183170 -0.750077 0.542878 127 127 0
-0.358229 0.486905 0.422477 127 127 0
0.467074 0.765810 0.157193 0 255 0
0.521987 0.578560 0.164859 127 127 0
-0.521867 -0.058713 0.117048 127 127 0
-0.363724 -0.774224 -0.082229 127 127 0
0.268399 -0.363141 0.464343 127 127 0
-0.327491 -0.016753 -0.491569 127 127 0
0.374704 0.806417 0.121598 0 255 0
-0.027290 -0.294890 0.540731 127 127 0
0.338601 -0.781505 0.114977 127 0 127
-0.258865 -0.774544 -0.174818 127 127 0
-0.377932 -0.495349 -0.400995 127 127 0
-0.126098 0.847377 0.185581 0 255 0
0.056996 0.408770 -0.546101 127 127 0
-0.522725 -0.387616 0.112633 127 127 0
-0.203452 -0.636109 -0.516680 127 127 0
-0.560829 -0.639170 -0.215387 127 0 127
-0.433137 0.250205 0.348628 127 127 0
0.264177 -0.227509 -0.512543 127 127 0
0.339275 0.633998 -0.465644 127 127 0
0.355683 0.606835 -0.449866 127 127 0
0.552178 -0.512406 0.007818 127 127 0
0.357228 0.755784 -0.391225 0 255 0
-0.163482 -0.469667 -0.531665 127 127 0
-0.343579 -0.244895 -0.434474 127 127 0
-0.364545 -0.600648 -0.414489 127 127 0
0.018972 -0.774321 -0.361865 127 127 0
0.262980 -0.316364 0.467102 127 127 0
-0.228928 0.831076 -0.237055 0 255 0
-0.415110 -0.013354 -0.364015 127 127 0
-0.456883 0.396277 -0.370365 127 127 0
0.155614 0.460103 -0.563622 127 127 0
-0.575684 -0.719748 -0.293989 127 0 127
-0.190905 0.580007 -0.559536 127 127 0
-0.489561 -0.036436 -0.320041 127 127 0
-0.115893 -0.642674 0.544663 127 127 0
-0.412155 0.778304 0.226215 0 255 0
-0.015373 -0.014328 -0.552525 127 127 0
0.338280 -0.182395 0.421047 127 127 0
-0.317397 0.428652 0.409297 127 127 0
0.441778 -0.140395 -0.294357 127 127 0
-0.077627 0.464957 0.534429 127 127 0
0.294073 0.552058 -0.456660 127 127 0
-0.409979 -0.458444 0.322905 127 127 0
0.360764 0.423052 0.349897 127 127 0
