ply
format ascii 1.0
element vertex 1268
property float x
property float y
property float z
property uchar red
property uchar green
property uchar blue
end_header
-0.046570 0.648516 -0.053045 204 51 127
-0.174459 0.159968 -0.041636 153 0 76
0.023588 0.867830 -0.064239 0 0 255
-0.120983 0.050643 -0.139273 153 0 76
0.023328 0.192483 0.193355 153 0 76
-0.053580 -0.389467 -0.167193 153 0 76
0.050962 0.659158 0.064858 204 51 127
0.145782 -0.003411 -0.120622 153 0 76
-0.023224 0.375984 -0.156852 153 0 76
-0.170684 -0.008586 0.062708 153 0 76
-0.170981 -0.314253 0.061989 153 0 76
0.105231 -0.535563 0.159430 153 0 76
-0.183754 0.223921 0.031154 153 0 76
0.067570 -0.421238 0.175030 153 0 76
-0.036072 -0.029560 -0.174445 153 0 76
0.187961 -0.273937 0.030751 153 0 76
-0.156810 -0.643310 0.096203 153 0 76
0.159169 -0.047363 -0.088305 153 0 76
-0.000237 -0.167256 0.201246 153 0 76
0.191338 -0.664622 0.022598 153 0 76
-0.025455 0.762174 -0.061792 204 51 127
-0.017012 0.636408 -0.065289 204 51 127
0.051746 -0.477251 0.181584 153 0 76
0.116770 -0.395624 -0.142692 153 0 76
-0.082091 -0.593675 -0.155383 153 0 76
-0.023230 -0.624063 0.191722 153 0 76
-0.141253 0.224462 -0.121803 153 0 76
-0.025544 -0.499271 -0.178805 153 0 76
-0.124463 -0.009749 0.149790 153 0 76
0.027706 0.996186 0.019629 0 0 255
0.000079 -0.130794 0.201377 153 0 76
0.170133 0.201377 0.073792 153 0 76
0.105686 -0.018745 0.159241 153 0 76
0.097287 -0.142202 -0.150762 153 0 76
0.141257 -0.055989 -0.131547 153 0 76
-0.036469 0.114025 -0.174280 153 0 76
0.085812 0.921603 -0.004230 0 0 255
-0.048163 -0.065489 -0.169436 153 0 76
0.099089 0.329459 0.154500 153 0 76
0.001272 0.789914 0.084820 204 51 127
0.174813 -0.582985 0.062494 153 0 76
-0.147341 -0.623744 -0.107105 153 0 76
-0.071844 -0.665676 -0.159628 153 0 76
-0.186406 -0.024157 -0.012794 153 0 76
0.000116 0.873234 0.033806 0 0 255
-0.013951 0.875047 0.086886 0 0 255
0.064872 -0.714991 0.167478 153 0 76
-0.180078 -0.629502 -0.028071 153 0 76
0.023313 -0.654792 0.193361 153 0 76
-0.149316 0.051420 -0.102336 153 0 76
-0.124883 -0.714904 -0.112492 153 0 76
0.087752 0.458780 0.054834 204 51 127
-0.152951 -0.093842 -0.093561 153 0 76
0.061330 -0.614653 0.177614 153 0 76
-0.012106 -0.219924 -0.184372 153 0 76
0.080743 0.547767 0.007015 204 51 127
0.144180 -0.714991 0.028080 153 0 76
0.147992 -0.548371 0.127247 153 0 76
0.050257 0.049238 0.182201 153 0 76
-0.013104 0.996186 -0.015362 0 0 255
0.088980 -0.354493 -0.154203 153 0 76
0.174698 -0.463001 -0.050814 153 0 76
0.171853 0.295855 -0.057683 153 0 76
0.189292 -0.271282 -0.015581 153 0 76
-0.050307 0.010923 -0.168549 153 0 76
-0.110925 0.398300 -0.106474 153 0 76
-0.123942 -0.307121 0.150005 153 0 76
-0.089600 0.083116 0.164230 153 0 76
0.172026 0.256958 0.069222 153 0 76
-0.036640 -0.127080 0.186167 153 0 76
-0.046196 0.958614 -0.060360 0 0 255
-0.009688 -0.714991 -0.001914 153 0 76
-0.001616 -0.714991 -0.040096 153 0 76
-0.185259 -0.103389 0.027519 153 0 76
-0.140110 -0.658641 -0.124561 153 0 76
0.054559 0.996186 0.031319 0 0 255
-0.193208 0.227396 0.003629 153 0 76
0.166232 -0.624668 0.083210 153 0 76
-0.014857 0.996186 0.076503 0 0 255
-0.145636 -0.135353 -0.111220 153 0 76
0.142836 -0.432568 0.139693 153 0 76
0.152021 -0.130159 0.117518 153 0 76
0.069079 0.698066 -0.023216 204 51 127
-0.179620 -0.664343 -0.029176 153 0 76
0.115246 0.172250 0.155281 153 0 76
-0.073803 -0.227385 0.170774 153 0 76
0.061888 0.070471 -0.165425 153 0 76
-0.102462 0.374652 0.136430 153 0 76
0.042065 0.758400 0.068543 204 51 127
-0.162616 0.357363 0.041783 153 0 76
-0.018983 0.190735 -0.181523 153 0 76
0.077920 0.787605 0.013830 204 51 127
-0.137144 0.196395 -0.131721 153 0 76
-0.000845 0.644350 0.083943 204 51 127
-0.085860 -0.434877 -0.153822 153 0 76
-0.063643 0.161337 -0.163025 153 0 76
-0.193212 0.279087 0.008320 153 0 76
-0.168218 -0.287946 -0.056703 153 0 76
-0.116674 -0.469643 0.153016 153 0 76
0.174628 -0.319242 0.062941 153 0 76
0.010032 -0.432847 -0.186905 153 0 76
-0.148922 0.078225 -0.103288 153 0 76
0.192888 -0.308700 -0.006900 153 0 76
-0.102968 -0.380755 0.158693 153 0 76
0.129002 -0.714991 -0.017835 153 0 76
0.072398 0.827571 0.027160 204 51 127
0.160947 -0.341283 0.095970 153 0 76
0.117255 0.270870 0.154449 153 0 76
0.077169 -0.379631 0.171053 153 0 76
0.033883 -0.376990 0.188983 153 0 76
-0.055673 0.740905 0.057782 204 51 127
-0.065015 -0.473613 -0.162456 153 0 76
0.184829 -0.683089 -0.026356 153 0 76
0.002351 -0.255729 0.202044 153 0 76
-0.084912 -0.335596 0.166172 153 0 76
-0.173754 -0.517123 0.055295 153 0 76
0.097691 -0.650745 0.162553 153 0 76
0.018835 -0.511968 -0.183258 153 0 76
-0.111403 -0.449261 -0.143241 153 0 76
0.020387 0.343767 0.182351 153 0 76
0.150919 0.283450 0.120180 153 0 76
0.016429 0.247197 0.196213 153 0 76
0.047758 0.657109 -0.054227 204 51 127
-0.007071 0.873234 -0.014761 0 0 255
0.173751 -0.022641 0.065058 153 0 76
-0.118751 -0.522083 -0.140198 153 0 76
0.011839 0.960134 0.088687 0 0 255
0.084145 0.881800 -0.012607 0 0 255
-0.076074 -0.714991 0.024061 153 0 76
0.147444 -0.089683 0.128568 153 0 76
-0.171392 -0.364068 0.060997 153 0 76
-0.188560 -0.027370 0.019552 153 0 76
-0.147063 -0.154386 0.119734 153 0 76
-0.122236 -0.183087 0.150712 153 0 76
-0.186282 0.087520 0.025049 153 0 76
0.140635 0.338494 0.119723 153 0 76
-0.190327 -0.202944 0.015286 153 0 76
-0.144069 0.184800 0.126961 153 0 76
0.072462 0.213154 -0.161045 153 0 76
-0.103839 -0.647156 0.158332 153 0 76
-0.076386 0.571315 0.007778 204 51 127
-0.140545 -0.285164 -0.123512 153 0 76
0.140507 0.058299 0.144818 153 0 76
-0.001553 0.505706 -0.083359 204 51 127
-0.001857 -0.690820 0.199805 153 0 76
-0.158139 -0.593672 0.092994 153 0 76
0.065435 0.381590 -0.139180 153 0 76
0.176010 -0.501955 -0.047647 153 0 76
0.010451 0.996186 0.064592 0 0 255
0.028431 -0.616888 0.191241 153 0 76
0.091646 0.066994 0.165057 153 0 76
0.147614 -0.250465 -0.116201 153 0 76
0.160762 0.343864 -0.054872 153 0 76
-0.168156 0.378528 0.011450 153 0 76
-0.144762 -0.449747 -0.113331 153 0 76
-0.090601 0.232828 -0.151858 153 0 76
-0.160341 0.032457 -0.075719 153 0 76
-0.183999 -0.282073 -0.018605 153 0 76
-0.032741 0.080423 0.187782 153 0 76
-0.029511 0.873234 -0.035675 0 0 255
0.191655 -0.024833 0.021833 153 0 76
-0.165169 -0.505576 -0.064064 153 0 76
0.174588 -0.068604 -0.051079 153 0 76
0.070565 -0.712461 -0.155333 153 0 76
0.184259 0.333517 0.018395 153 0 76
-0.172912 -0.056074 -0.045370 153 0 76
-0.184459 0.118210 -0.017494 153 0 76
0.037351 -0.279514 -0.175589 153 0 76
0.135813 -0.649175 -0.134805 153 0 76
0.144438 -0.172383 0.135827 153 0 76
-0.061900 0.783932 0.042748 204 51 127
-0.015578 0.160733 -0.182934 153 0 76
0.156045 -0.605578 0.107804 153 0 76
0.029441 0.721214 0.052471 204 51 127
0.042993 -0.006695 0.185210 153 0 76
0.116962 -0.263462 0.154571 153 0 76
0.126382 -0.573110 0.150669 153 0 76
-0.088263 -0.714889 0.151732 153 0 76
-0.191197 0.068176 -0.001228 153 0 76
-0.105062 0.172525 0.157826 153 0 76
-0.180461 -0.262156 0.039103 153 0 76
-0.187057 -0.162357 -0.011223 153 0 76
-0.013869 0.827412 0.078549 204 51 127
-0.143474 0.348713 -0.082970 153 0 76
-0.088815 -0.091940 -0.152598 153 0 76
0.184571 -0.549659 -0.026978 153 0 76
-0.037789 0.392355 -0.142802 153 0 76
-0.079243 0.478462 -0.038323 204 51 127
0.151048 -0.283607 0.119869 153 0 76
0.022104 -0.683439 -0.181904 153 0 76
0.113003 0.089194 0.156210 153 0 76
0.187810 -0.423132 -0.019159 153 0 76
-0.031456 0.253953 0.188314 153 0 76
0.058192 0.444764 -0.085368 204 51 127
-0.026622 0.623368 0.073266 204 51 127
0.071551 0.937752 -0.041079 0 0 255
0.129720 0.160567 -0.137328 153 0 76
0.178642 -0.646324 0.053251 153 0 76
-0.094620 0.432475 0.078045 153 0 76
-0.149386 0.273144 -0.102168 153 0 76
-0.055078 -0.353201 0.178530 153 0 76
0.152307 0.393031 0.040576 153 0 76
-0.008902 0.109218 -0.185699 153 0 76
0.052431 0.996186 -0.024207 0 0 255
-0.048214 -0.581313 0.181373 153 0 76
0.190917 -0.305113 0.023617 153 0 76
-0.116022 -0.253911 0.153286 153 0 76
-0.003870 0.072104 -0.187783 153 0 76
-0.067042 0.505833 -0.046446 204 51 127
-0.189959 -0.454215 -0.004214 153 0 76
0.156144 0.168036 0.107565 153 0 76
-0.172094 0.216853 -0.047346 153 0 76
-0.001235 -0.066749 -0.188875 153 0 76
0.035181 -0.067737 -0.176488 153 0 76
-0.036160 -0.714991 0.100908 153 0 76
0.179615 -0.140127 0.050900 153 0 76
-0.152775 -0.132946 0.105944 153 0 76
0.108983 0.405735 0.114012 153 0 76
0.095209 -0.555481 -0.151623 153 0 76
0.175134 0.088683 -0.049761 153 0 76
0.056955 0.873234 0.042822 0 0 255
0.021671 -0.042079 0.194041 153 0 76
-0.170527 -0.327074 -0.051130 153 0 76
-0.085691 0.438343 -0.073952 153 0 76
0.032014 0.021578 -0.177799 153 0 76
-0.187578 0.325022 0.007433 153 0 76
-0.161082 0.318702 0.076463 153 0 76
-0.038534 0.460168 -0.082743 204 51 127
-0.049747 0.572994 0.063687 204 51 127
-0.169808 -0.263848 0.064823 153 0 76
0.010692 0.996186 -0.051133 0 0 255
0.102860 -0.714991 0.029934 153 0 76
0.161167 0.066181 0.095438 153 0 76
0.095595 -0.509935 0.163421 153 0 76
-0.014655 0.721214 0.025313 204 51 127
0.100303 0.379329 0.137446 153 0 76
0.078553 -0.714991 0.010275 153 0 76
0.006754 0.683846 -0.071212 204 51 127
-0.168230 -0.413885 0.068631 153 0 76
-0.034281 -0.513303 0.187144 153 0 76
-0.189294 0.302404 -0.005821 153 0 76
-0.136591 -0.491932 -0.132808 153 0 76
0.188400 -0.197593 -0.017734 153 0 76
-0.081860 0.142752 -0.155479 153 0 76
0.093084 0.220599 0.164461 153 0 76
-0.191151 -0.369024 -0.001339 153 0 76
-0.100618 -0.274516 0.159667 153 0 76
-0.141284 -0.203134 0.133685 153 0 76
0.102534 -0.339305 0.160547 153 0 76
-0.139108 -0.714831 -0.091309 153 0 76
-0.060135 0.605898 0.047011 204 51 127
-0.068954 -0.478193 0.172782 153 0 76
-0.111597 0.323036 0.149777 153 0 76
-0.032914 0.865241 0.070660 204 51 127
0.134805 -0.356368 -0.135222 153 0 76
0.090580 -0.219481 0.165498 153 0 76
-0.182432 -0.226141 0.034345 153 0 76
-0.053003 0.546694 0.062339 204 51 127
0.110929 -0.579493 -0.145112 153 0 76
-0.162059 -0.651435 -0.071571 153 0 76
-0.063126 -0.641925 0.175196 153 0 76
-0.010607 -0.409814 -0.184993 153 0 76
0.162571 -0.176622 -0.080091 153 0 76
-0.000753 -0.027755 0.201032 153 0 76
0.009456 -0.380295 -0.187143 153 0 76
-0.074926 0.756056 0.000657 204 51 127
-0.164014 0.083312 0.078810 153 0 76
0.015247 0.721214 -0.000916 204 51 127
-0.194100 0.179362 0.005783 153 0 76
0.165462 -0.380287 -0.073111 153 0 76
0.065990 -0.138393 -0.163726 153 0 76
0.049070 0.502490 -0.066389 204 51 127
0.167969 -0.534398 0.079018 153 0 76
-0.016707 0.873234 0.013434 0 0 255
0.158517 0.135490 -0.089879 153 0 76
-0.188038 0.025852 -0.008852 153 0 76
-0.021352 0.008581 0.192500 153 0 76
0.042695 -0.668855 0.185333 153 0 76
-0.090637 -0.489406 -0.151843 153 0 76
0.059095 0.721214 0.017021 204 51 127
-0.166204 -0.495871 0.073524 153 0 76
-0.008789 0.235603 0.197704 153 0 76
0.047087 -0.249906 0.183514 153 0 76
-0.155603 -0.687656 0.099116 153 0 76
-0.127096 -0.387814 0.148699 153 0 76
-0.055235 -0.013690 -0.166507 153 0 76
-0.166305 0.079240 -0.061322 153 0 76
0.004819 -0.714991 0.054053 153 0 76
0.031966 0.904205 -0.072725 0 0 255
-0.031477 0.341761 -0.164791 153 0 76
0.175399 -0.093372 0.061078 153 0 76
0.098359 -0.036768 -0.150318 153 0 76
-0.182386 -0.175780 0.034457 153 0 76
-0.073460 0.355880 0.154673 153 0 76
-0.115315 -0.316467 -0.141621 153 0 76
-0.141417 -0.337333 -0.121407 153 0 76
0.150407 0.193822 0.121416 153 0 76
0.130599 -0.302146 0.148922 153 0 76
-0.022924 0.421633 -0.120660 153 0 76
0.026539 0.448129 0.107184 204 51 127
0.123384 -0.714991 -0.090155 153 0 76
0.053524 -0.519110 0.180847 153 0 76
0.082986 0.912667 0.030393 0 0 255
-0.070703 0.817681 -0.009539 204 51 127
-0.089147 -0.242202 -0.152460 153 0 76
0.148145 -0.462487 0.126877 153 0 76
0.003349 0.940386 -0.078370 0 0 255
-0.050434 -0.406217 0.180454 153 0 76
-0.046298 0.470900 0.088020 204 51 127
-0.150022 -0.391488 -0.100631 153 0 76
-0.153252 0.220019 -0.092834 153 0 76
-0.076294 0.049257 -0.157784 153 0 76
-0.170251 -0.004994 -0.051796 153 0 76
0.147591 -0.372474 0.128215 153 0 76
0.125120 -0.714991 0.072251 153 0 76
0.040153 0.299296 0.186386 153 0 76
-0.167878 -0.691162 0.067962 153 0 76
0.101204 -0.584490 0.161098 153 0 76
0.134169 -0.120726 -0.135486 153 0 76
0.156731 -0.418329 0.106149 153 0 76
0.198142 0.283151 0.005786 153 0 76
0.144009 0.413208 -0.001569 153 0 76
0.055939 0.924892 0.070444 0 0 255
0.171912 -0.370063 0.069498 153 0 76
0.178432 -0.415638 -0.041799 153 0 76
0.100189 0.136247 -0.149560 153 0 76
-0.050481 0.069057 -0.168476 153 0 76
0.054615 0.866023 -0.051387 204 51 127
-0.027912 0.679321 -0.060774 204 51 127
-0.008095 -0.621468 -0.186033 153 0 76
0.144939 -0.147537 0.134615 153 0 76
-0.106642 0.033598 0.157172 153 0 76
0.188029 -0.613562 0.030587 153 0 76
0.050539 -0.351125 -0.170126 153 0 76
0.043089 0.974971 -0.067072 0 0 255
0.165238 -0.713986 -0.055520 153 0 76
-0.094073 0.089234 -0.150420 153 0 76
0.185687 0.186327 -0.024284 153 0 76
-0.043983 -0.084145 0.183126 153 0 76
0.002158 -0.445192 0.202124 153 0 76
0.167066 -0.521266 -0.069240 153 0 76
0.197600 -0.527180 0.007481 153 0 76
-0.078533 0.461443 0.065259 204 51 127
-0.031679 0.339740 0.177336 153 0 76
-0.161934 -0.176072 -0.071873 153 0 76
-0.185587 -0.662573 0.026728 153 0 76
-0.143318 -0.099785 0.128774 153 0 76
0.183684 0.310277 0.038404 153 0 76
-0.166291 0.326650 -0.045561 153 0 76
0.083760 0.282104 0.168323 153 0 76
0.191547 0.252676 0.022095 153 0 76
0.177402 -0.596813 -0.044285 153 0 76
-0.038415 0.239592 -0.173474 153 0 76
0.072480 0.996186 -0.009737 0 0 255
0.172769 0.144182 -0.055472 153 0 76
0.140905 -0.063560 0.144356 153 0 76
-0.063939 0.996186 0.017753 0 0 255
-0.054406 0.759385 -0.048884 204 51 127
-0.186502 -0.345615 0.024519 153 0 76
0.052745 -0.018804 -0.169212 153 0 76
0.113224 0.420743 0.070264 153 0 76
-0.018288 -0.307259 -0.181811 153 0 76
0.197745 -0.259511 0.004827 153 0 76
0.038800 0.996186 0.074380 0 0 255
-0.058089 0.841899 -0.039991 204 51 127
0.137628 0.253953 0.146011 153 0 76
-0.032158 0.053735 0.188024 153 0 76
0.084577 0.963212 0.022396 0 0 255
-0.060566 0.734355 -0.034012 204 51 127
-0.088997 0.494504 0.014230 204 51 127
0.088307 -0.674921 -0.154482 153 0 76
0.002883 -0.480742 0.201824 153 0 76
0.017920 -0.396355 0.195595 153 0 76
0.163826 -0.117701 0.089020 153 0 76
0.185299 0.257201 -0.025222 153 0 76
-0.042314 -0.698015 -0.169342 153 0 76
-0.047539 -0.309732 -0.169695 153 0 76
0.065154 0.359016 0.158747 153 0 76
0.141084 -0.559871 -0.131965 153 0 76
0.036402 -0.418821 -0.175982 153 0 76
-0.180168 0.181999 0.039811 153 0 76
0.170393 0.346786 -0.029281 153 0 76
-0.148089 0.364129 0.071432 153 0 76
-0.166640 -0.218646 0.072470 153 0 76
-0.000808 -0.346257 0.201009 153 0 76
0.054758 -0.714991 0.026527 153 0 76
-0.008961 0.097791 0.197632 153 0 76
0.010286 -0.538100 -0.186799 153 0 76
0.162365 -0.053928 0.092546 153 0 76
-0.074705 0.176792 0.170400 153 0 76
0.013495 0.656941 -0.068419 204 51 127
-0.165992 -0.149454 0.074034 153 0 76
-0.193108 -0.432538 0.008572 153 0 76
0.182600 0.160681 0.043695 153 0 76
0.166763 -0.263616 -0.069971 153 0 76
0.185591 -0.698006 0.030403 153 0 76
0.004139 0.476015 0.105505 204 51 127
0.072910 0.044916 -0.160859 153 0 76
0.153064 -0.195191 -0.103044 153 0 76
-0.132001 -0.714991 0.077385 153 0 76
0.154167 0.035652 -0.100380 153 0 76
-0.146841 0.401799 0.023557 153 0 76
0.003023 -0.714991 -0.167632 153 0 76
-0.075183 0.402840 -0.117179 153 0 76
-0.123438 -0.403017 -0.138256 153 0 76
0.082884 -0.209364 -0.156728 153 0 76
-0.181675 -0.392480 0.036174 153 0 76
0.181195 -0.644389 -0.035130 153 0 76
0.190085 -0.219130 0.025625 153 0 76
0.040842 0.632128 0.069050 204 51 127
-0.028430 -0.042024 0.189568 153 0 76
-0.154081 -0.536111 0.102790 153 0 76
0.172748 -0.193794 0.067480 153 0 76
-0.028304 -0.714991 0.040811 153 0 76
0.171297 -0.208172 -0.059024 153 0 76
0.191901 -0.061509 -0.009282 153 0 76
-0.152285 0.073097 0.107125 153 0 76
0.058223 0.740746 -0.049424 204 51 127
-0.166397 -0.037720 0.073057 153 0 76
0.074352 -0.714991 -0.073934 153 0 76
0.142155 0.239809 -0.129379 153 0 76
0.015545 0.597284 -0.067570 204 51 127
-0.021437 0.721214 0.056567 204 51 127
0.182543 0.127253 -0.031875 153 0 76
-0.110655 0.400915 0.112981 153 0 76
0.192240 -0.413464 0.020422 153 0 76
-0.061447 0.658389 -0.031884 204 51 127
0.064685 0.612162 0.045781 204 51 127
-0.066787 -0.714991 0.062966 153 0 76
0.138405 0.380138 0.091742 153 0 76
-0.072222 -0.111195 -0.159471 153 0 76
-0.162518 -0.390352 0.082421 153 0 76
-0.059115 0.283585 -0.164900 153 0 76
0.137853 0.354717 -0.101484 153 0 76
-0.088924 -0.203946 -0.152553 153 0 76
0.159487 -0.619146 -0.087536 153 0 76
0.062061 -0.174452 0.177311 153 0 76
-0.149629 -0.316983 0.113539 153 0 76
-0.131078 -0.115474 0.147050 153 0 76
0.089222 0.497561 0.021058 204 51 127
0.189086 0.201461 0.028035 153 0 76
0.002488 0.483585 -0.091787 204 51 127
-0.180332 -0.234902 -0.027458 153 0 76
0.082094 0.091435 -0.157055 153 0 76
-0.037749 -0.437451 0.185708 153 0 76
0.100235 0.305110 -0.149541 153 0 76
-0.031892 0.176925 0.188134 153 0 76
-0.022942 0.671319 0.074790 204 51 127
0.192281 -0.567363 0.020322 153 0 76
-0.137964 -0.348160 0.141701 153 0 76
-0.138809 0.285576 0.139661 153 0 76
-0.164083 -0.449157 -0.066686 153 0 76
-0.003227 0.552846 -0.070999 204 51 127
0.078912 0.701436 0.000523 204 51 127
0.067863 0.778052 0.038108 204 51 127
-0.083422 -0.714991 -0.025604 153 0 76
-0.085076 -0.689903 0.165822 153 0 76
-0.111992 0.426820 0.049302 153 0 76
0.044042 0.709111 0.067724 204 51 127
-0.182521 -0.359840 -0.022171 153 0 76
0.196726 0.077528 0.009592 153 0 76
0.093683 0.442115 -0.055612 204 51 127
-0.095329 0.293750 0.161858 153 0 76
0.073336 0.961792 -0.038408 0 0 255
-0.163173 0.153883 0.080839 153 0 76
-0.017924 0.458936 0.103635 153 0 76
-0.055162 0.120307 0.178495 153 0 76
-0.172594 0.108562 0.058095 153 0 76
0.159300 0.217497 -0.087987 153 0 76
0.131535 -0.686909 -0.136576 153 0 76
-0.115168 0.377910 -0.118128 153 0 76
0.033142 0.873234 -0.005968 0 0 255
0.145166 0.204469 -0.122111 153 0 76
0.042320 -0.469404 -0.173530 153 0 76
-0.044210 0.996186 -0.054777 0 0 255
0.025965 0.721214 -0.053079 204 51 127
0.008947 0.996186 0.034326 0 0 255
-0.151630 -0.180278 0.108707 153 0 76
0.172649 -0.228866 0.067719 153 0 76
-0.131621 0.359119 0.115206 153 0 76
-0.183158 0.282943 0.032591 153 0 76
-0.070935 -0.066134 -0.160004 153 0 76
-0.110271 0.209284 0.155668 153 0 76
0.124327 -0.230230 -0.139562 153 0 76
0.143113 -0.308683 -0.127067 153 0 76
-0.006407 0.912164 0.088387 0 0 255
0.014740 0.523697 -0.073763 204 51 127
0.046156 -0.714991 -0.107868 153 0 76
-0.178574 -0.454581 0.043658 153 0 76
0.016562 0.843309 -0.067149 204 51 127
-0.062909 -0.301027 0.175286 153 0 76
-0.076765 0.934944 0.026780 0 0 255
0.173614 -0.419303 0.065388 153 0 76
0.063218 0.702423 0.049322 204 51 127
0.058537 0.576216 -0.048667 204 51 127
-0.136061 -0.714991 0.008869 153 0 76
-0.078185 -0.021349 -0.157001 153 0 76
-0.052626 -0.714991 -0.003914 153 0 76
0.079692 -0.254995 0.170008 153 0 76
0.004540 -0.574726 -0.189179 153 0 76
0.159820 -0.405556 -0.086732 153 0 76
0.025468 -0.585176 -0.180511 153 0 76
0.068343 0.900842 -0.045880 0 0 255
0.010064 0.758980 -0.069840 204 51 127
0.172359 -0.300457 -0.056460 153 0 76
0.049943 -0.101792 -0.170373 153 0 76
0.089241 0.410687 -0.105445 153 0 76
0.037205 0.952217 -0.071004 0 0 255
-0.030560 0.530600 -0.063308 204 51 127
0.070364 0.162094 -0.161914 153 0 76
0.002039 0.146879 -0.190215 153 0 76
0.067481 -0.180890 -0.163108 153 0 76
0.150597 -0.260022 0.120957 153 0 76
0.155965 0.086096 0.107997 153 0 76
0.119423 -0.445256 0.153551 153 0 76
0.161406 -0.699473 -0.075855 153 0 76
0.122220 -0.180773 0.152393 153 0 76
-0.035667 -0.673964 0.186570 153 0 76
-0.049854 -0.714991 -0.060451 153 0 76
-0.183219 -0.519070 -0.020487 153 0 76
0.155500 -0.512909 0.109119 153 0 76
-0.178420 -0.414061 -0.032074 153 0 76
0.086069 0.875405 0.014894 0 0 255
-0.177873 0.150894 0.045351 153 0 76
0.043356 0.167428 0.185059 153 0 76
0.194123 -0.406446 -0.003917 153 0 76
-0.014529 0.298065 -0.183368 153 0 76
0.166296 -0.002045 -0.071097 153 0 76
-0.154213 -0.048324 -0.090513 153 0 76
-0.138119 0.400147 0.048469 153 0 76
-0.087578 -0.058536 0.165068 153 0 76
0.030752 -0.031129 -0.178322 153 0 76
-0.170962 -0.485150 -0.050079 153 0 76
-0.029082 0.411891 0.139484 153 0 76
-0.042204 0.788554 0.066812 204 51 127
-0.122938 -0.714991 0.098975 153 0 76
-0.169139 0.344448 -0.024425 153 0 76
0.031435 -0.714991 -0.142682 153 0 76
-0.051089 0.873234 -0.024203 0 0 255
0.178497 -0.559455 0.053600 153 0 76
-0.070036 0.498501 0.056890 204 51 127
0.121062 -0.132931 0.152872 153 0 76
-0.070088 0.024895 -0.160355 153 0 76
-0.151233 -0.000971 -0.097709 153 0 76
-0.188636 -0.411157 -0.007410 153 0 76
-0.057361 0.373782 0.155400 153 0 76
-0.016930 0.237749 -0.182374 153 0 76
-0.132839 0.329493 0.136003 153 0 76
0.119594 0.103962 -0.141522 153 0 76
0.147848 0.125110 -0.115634 153 0 76
0.033519 -0.149172 -0.177176 153 0 76
-0.167050 0.037431 0.071482 153 0 76
0.157129 0.388626 -0.027258 153 0 76
-0.067728 0.858241 0.028679 204 51 127
-0.178714 0.252363 -0.031364 153 0 76
-0.007741 0.738259 0.081087 204 51 127
-0.062193 0.760078 0.042041 204 51 127
0.042354 0.271989 0.185474 153 0 76
-0.188623 -0.635312 0.019400 153 0 76
-0.173356 -0.705459 0.041782 153 0 76
-0.100298 -0.516467 0.159799 153 0 76
-0.047314 0.714490 -0.052737 204 51 127
0.165296 0.172742 0.085470 153 0 76
-0.062859 0.529849 0.049785 204 51 127
0.179843 0.272542 0.050351 153 0 76
0.143801 -0.469054 -0.125407 153 0 76
-0.032092 0.535204 0.073144 204 51 127
-0.188424 0.207893 -0.007922 153 0 76
0.172697 0.266980 -0.055646 153 0 76
0.106747 -0.660622 -0.146844 153 0 76
0.074322 -0.352533 0.172232 153 0 76
-0.058999 0.783376 -0.037794 204 51 127
0.192888 -0.379336 -0.006899 153 0 76
0.046875 -0.688009 -0.171644 153 0 76
0.146373 0.019678 -0.119198 153 0 76
0.023795 0.672735 0.076111 204 51 127
0.165730 0.182257 -0.072466 153 0 76
-0.152799 -0.539996 -0.093927 153 0 76
0.119626 0.280737 -0.141509 153 0 76
0.129694 0.408731 -0.046576 153 0 76
0.191087 -0.144714 -0.011246 153 0 76
-0.170006 -0.106896 0.064343 153 0 76
-0.135653 -0.714991 0.034743 153 0 76
-0.193511 -0.588674 0.004360 153 0 76
0.141951 -0.203110 -0.129872 153 0 76
0.076659 0.675451 0.016872 204 51 127
0.001477 -0.237702 -0.189998 153 0 76
-0.163409 -0.127463 -0.068312 153 0 76
0.158426 0.244625 0.102055 153 0 76
-0.027437 -0.457684 -0.178022 153 0 76
-0.022157 0.128804 0.192166 153 0 76
-0.180253 0.036667 0.039607 153 0 76
0.081778 -0.126028 0.169144 153 0 76
-0.054790 -0.270725 0.178649 153 0 76
0.037285 -0.133109 0.187574 153 0 76
0.090263 -0.697564 -0.151279 153 0 76
-0.009885 0.719179 -0.068241 204 51 127
0.162182 -0.670825 0.092989 153 0 76
-0.007194 0.973114 -0.076272 0 0 255
0.070459 0.120588 -0.161875 153 0 76
0.182029 -0.149452 -0.033116 153 0 76
0.123337 0.402690 -0.076019 153 0 76
0.156830 -0.277789 -0.093950 153 0 76
-0.004072 0.311849 0.198028 153 0 76
-0.160575 -0.368389 -0.075154 153 0 76
-0.050177 0.721214 -0.015442 204 51 127
0.086504 -0.714991 -0.054553 153 0 76
-0.156544 -0.451324 0.096844 153 0 76
0.183478 -0.026511 -0.029617 153 0 76
-0.172480 -0.054131 0.058370 153 0 76
-0.011625 0.996186 0.024484 0 0 255
-0.078930 0.058008 0.168650 153 0 76
0.030524 -0.712323 0.177134 153 0 76
0.117043 -0.704247 -0.133618 153 0 76
-0.028208 -0.714991 -0.082607 153 0 76
-0.043954 -0.714991 -0.106546 153 0 76
-0.116424 -0.473669 -0.141162 153 0 76
-0.102512 -0.227413 0.158882 153 0 76
0.102567 0.453455 -0.011260 204 51 127
-0.022353 -0.537892 -0.180128 153 0 76
0.041278 -0.218363 -0.173962 153 0 76
0.098483 -0.608482 0.162225 153 0 76
-0.043414 0.206569 0.183361 153 0 76
-0.147426 0.290406 0.118857 153 0 76
0.139755 -0.280448 -0.133172 153 0 76
-0.187704 -0.074537 -0.009659 153 0 76
-0.046178 -0.006751 0.182217 153 0 76
0.148721 -0.211762 0.125485 153 0 76
-0.141693 -0.539116 -0.120740 153 0 76
0.059155 -0.529026 -0.166557 153 0 76
0.181924 -0.236407 0.045326 153 0 76
0.177580 -0.388151 -0.043857 153 0 76
0.137764 -0.248705 0.145954 153 0 76
0.018815 0.127066 0.195224 153 0 76
-0.101790 -0.673971 0.159181 153 0 76
-0.051591 0.091103 0.179974 153 0 76
-0.024991 -0.079023 -0.179035 153 0 76
-0.144051 -0.628569 0.127006 153 0 76
0.115034 -0.271670 -0.143411 153 0 76
-0.184014 0.085063 -0.018567 153 0 76
-0.030285 -0.714991 -0.134348 153 0 76
-0.056112 -0.714991 0.111616 153 0 76
0.171260 0.225175 -0.059113 153 0 76
-0.070467 0.892407 0.044273 0 0 255
-0.072500 -0.559189 -0.159356 153 0 76
0.051409 0.765440 -0.052715 204 51 127
-0.139607 -0.576806 -0.125775 153 0 76
-0.189658 0.111705 0.016900 153 0 76
0.010655 0.832220 0.081554 204 51 127
0.124917 -0.714991 0.016239 153 0 76
-0.162125 0.177043 0.083370 153 0 76
0.071854 0.996186 0.013269 0 0 255
-0.017257 0.367410 0.174127 153 0 76
-0.071020 -0.254143 0.171927 153 0 76
-0.066799 0.937634 0.049762 0 0 255
-0.097106 0.354587 0.145308 153 0 76
-0.175488 0.281241 -0.039152 153 0 76
-0.077750 0.895430 -0.009873 0 0 255
-0.124053 0.020016 0.149960 153 0 76
0.022170 0.996186 -0.006055 0 0 255
0.024020 0.906929 0.086264 0 0 255
0.073938 0.423641 0.111221 153 0 76
-0.049116 0.552625 -0.051991 204 51 127
0.169184 -0.705775 0.064844 153 0 76
0.120338 -0.060955 0.153172 153 0 76
0.152664 -0.133323 -0.104008 153 0 76
0.015518 -0.576608 0.196590 153 0 76
0.187250 -0.503098 -0.020511 153 0 76
-0.128425 0.359973 -0.110278 153 0 76
-0.041020 -0.714991 0.065687 153 0 76
0.067920 -0.571408 -0.162927 153 0 76
-0.149788 0.340488 0.086274 153 0 76
0.019672 0.161976 -0.182912 153 0 76
0.148604 0.013549 0.125768 153 0 76
0.070559 -0.391855 -0.161834 153 0 76
0.094497 0.186815 -0.151918 153 0 76
-0.005969 -0.041437 -0.186914 153 0 76
-0.189116 -0.191787 -0.006252 153 0 76
0.006948 -0.669691 0.200140 153 0 76
-0.193671 0.046651 0.004745 153 0 76
-0.022536 -0.270305 -0.180052 153 0 76
-0.129630 -0.689204 0.147560 153 0 76
0.167972 -0.158663 -0.067053 153 0 76
-0.118689 0.415986 -0.046459 153 0 76
-0.158018 0.386812 -0.017330 153 0 76
-0.130577 -0.554593 0.147257 153 0 76
0.030959 -0.714991 -0.002512 153 0 76
0.061558 -0.714991 0.053688 153 0 76
-0.116937 -0.639520 -0.140950 153 0 76
-0.148395 0.321687 -0.092744 153 0 76
-0.094295 -0.002427 -0.150328 153 0 76
-0.192853 -0.391623 0.002770 153 0 76
-0.130784 -0.492348 0.147172 153 0 76
-0.087352 -0.430833 0.165162 153 0 76
0.171910 0.089164 0.069502 153 0 76
-0.061053 0.264843 0.176055 153 0 76
0.154157 -0.320858 0.112361 153 0 76
0.123277 -0.106649 0.151955 153 0 76
-0.112071 0.407451 -0.082353 153 0 76
0.194719 0.131188 0.014437 153 0 76
-0.130360 -0.714991 -0.069764 153 0 76
0.164685 -0.311804 -0.074988 153 0 76
-0.141112 -0.275207 0.134101 153 0 76
0.016171 -0.714991 0.154445 153 0 76
0.149729 -0.650514 0.123052 153 0 76
0.100634 -0.714991 0.089448 153 0 76
0.032105 -0.205009 0.189719 153 0 76
-0.073700 0.677361 0.014261 204 51 127
-0.151997 -0.242032 0.107822 153 0 76
-0.126708 0.335811 -0.127320 153 0 76
0.082117 -0.415863 -0.157046 153 0 76
-0.178445 0.031584 -0.032013 153 0 76
-0.010246 -0.714991 0.125654 153 0 76
0.171929 0.316309 0.061950 153 0 76
0.082162 0.003512 0.168985 153 0 76
-0.148793 0.116803 -0.103600 153 0 76
-0.102636 -0.591777 -0.146873 153 0 76
-0.103744 -0.297212 0.158372 153 0 76
0.058115 -0.651629 -0.166988 153 0 76
0.037198 0.085362 -0.175652 153 0 76
0.069509 0.664653 -0.022177 204 51 127
0.180233 -0.365144 0.049409 153 0 76
-0.073705 0.778991 -0.002293 204 51 127
0.124281 -0.319409 -0.139581 153 0 76
-0.142014 -0.238687 -0.119964 153 0 76
0.193493 -0.099429 0.017397 153 0 76
0.014592 0.408780 0.150166 153 0 76
-0.120637 -0.513179 0.151375 153 0 76
0.147444 -0.643786 -0.116611 153 0 76
-0.135656 -0.706799 0.120153 153 0 76
0.143537 0.281730 -0.126043 153 0 76
0.021488 -0.477258 -0.182159 153 0 76
-0.179281 0.204980 -0.029995 153 0 76
-0.092393 -0.145159 0.163074 153 0 76
0.037345 0.512455 0.079987 204 51 127
0.055043 0.230094 -0.168260 153 0 76
-0.157141 -0.142713 -0.083446 153 0 76
-0.006693 0.500877 0.094747 204 51 127
0.042940 0.377168 0.161924 153 0 76
-0.072894 -0.267578 -0.159192 153 0 76
-0.101828 0.135147 0.159166 153 0 76
0.119110 -0.356103 0.153681 153 0 76
0.071071 -0.714991 -0.121122 153 0 76
0.161776 0.122372 0.093967 153 0 76
-0.012363 -0.428440 0.196223 153 0 76
0.031316 -0.545904 0.190046 153 0 76
0.082502 0.304211 0.168844 153 0 76
0.061217 0.816195 0.054153 204 51 127
-0.178053 0.342806 -0.004220 153 0 76
0.016466 0.626891 0.079147 204 51 127
-0.149867 -0.675403 -0.101006 153 0 76
-0.025351 0.314753 0.188250 153 0 76
-0.057255 0.164760 0.177628 153 0 76
0.187807 -0.131191 0.031124 153 0 76
-0.084359 -0.714991 0.076387 153 0 76
-0.029485 0.856405 -0.060122 204 51 127
-0.138499 -0.656611 0.140409 153 0 76
0.037416 -0.714991 -0.064584 153 0 76
-0.006601 -0.166335 -0.186652 153 0 76
0.172051 -0.431047 -0.057204 153 0 76
0.103135 0.026397 -0.148340 153 0 76
-0.154865 -0.294118 0.100897 153 0 76
-0.003894 0.161408 0.199731 153 0 76
-0.186487 -0.081564 0.024555 153 0 76
-0.179558 0.243062 0.041283 153 0 76
0.156057 -0.094227 -0.095816 153 0 76
0.036589 0.107997 0.187862 153 0 76
-0.097979 0.440323 -0.039667 153 0 76
-0.170816 0.240424 -0.050431 153 0 76
0.139745 -0.022262 -0.133176 153 0 76
0.050503 -0.298318 0.182099 153 0 76
-0.018073 -0.478203 -0.181900 153 0 76
-0.167857 -0.652953 0.069533 153 0 76
0.186050 0.114312 0.035366 153 0 76
-0.163383 -0.575829 0.080333 153 0 76
0.001761 0.282695 0.202073 153 0 76
0.180858 0.048575 0.047900 153 0 76
-0.014129 0.836448 -0.066483 204 51 127
0.189620 -0.436734 0.026747 153 0 76
-0.175875 -0.440531 -0.038218 153 0 76
0.149797 0.170639 -0.110930 153 0 76
0.160282 -0.009572 0.097575 153 0 76
0.156435 0.281693 -0.094905 153 0 76
-0.179311 -0.581315 -0.029921 153 0 76
0.056541 0.301087 -0.167640 153 0 76
-0.038218 -0.714991 -0.039944 153 0 76
0.063875 0.900165 0.064524 0 0 255
0.005853 0.800487 -0.071585 204 51 127
-0.021063 -0.714991 0.084934 153 0 76
0.148925 0.063502 -0.113036 153 0 76
-0.020322 -0.701088 -0.175688 153 0 76
0.156053 -0.299622 -0.095828 153 0 76
0.005424 0.996186 -0.028578 0 0 255
0.006790 0.124671 -0.188247 153 0 76
0.131845 -0.619847 0.148406 153 0 76
0.164760 -0.660823 -0.074806 153 0 76
0.169240 -0.588351 -0.063990 153 0 76
-0.124224 -0.608029 -0.137931 153 0 76
-0.012039 -0.210315 0.196357 153 0 76
0.011726 -0.714991 0.008402 153 0 76
-0.193484 -0.149684 0.007662 153 0 76
-0.116885 -0.129226 -0.140971 153 0 76
0.016291 0.734806 -0.067261 204 51 127
0.072645 0.334554 -0.151804 153 0 76
0.165647 0.062687 -0.072665 153 0 76
0.050285 -0.555814 -0.170231 153 0 76
-0.155108 -0.079556 0.100312 153 0 76
-0.110586 -0.048746 -0.143580 153 0 76
-0.108858 0.276197 -0.144296 153 0 76
0.113723 -0.248843 -0.143954 153 0 76
0.046706 0.721214 -0.037975 204 51 127
-0.163750 -0.018749 -0.067490 153 0 76
-0.152560 -0.572748 -0.094504 153 0 76
0.015394 -0.714991 0.101725 153 0 76
-0.124727 -0.714991 -0.029255 153 0 76
-0.030960 -0.236873 0.188520 153 0 76
-0.067603 0.077814 0.173342 153 0 76
0.174739 -0.499229 0.062672 153 0 76
0.193992 -0.011065 -0.004234 153 0 76
0.163137 0.339438 0.064643 153 0 76
0.002290 -0.641242 -0.190111 153 0 76
0.138959 -0.592399 0.145459 153 0 76
0.017490 0.754360 0.078723 204 51 127
0.163848 0.388813 0.022557 153 0 76
-0.166371 0.172556 -0.061161 153 0 76
0.186471 0.091699 0.034350 153 0 76
0.159551 -0.294291 0.099339 153 0 76
0.141475 0.311142 -0.127653 153 0 76
0.045079 0.364867 -0.153162 153 0 76
0.084488 -0.706585 0.163143 153 0 76
0.035960 -0.449323 0.188122 153 0 76
0.080323 0.143181 -0.157789 153 0 76
0.186800 0.050024 -0.021597 153 0 76
-0.088571 -0.291494 -0.152699 153 0 76
-0.152222 -0.465873 -0.095321 153 0 76
0.124833 -0.714991 -0.057420 153 0 76
0.011123 0.326579 0.191892 153 0 76
0.014504 0.873234 -0.017287 0 0 255
-0.030861 -0.123610 -0.176603 153 0 76
-0.162701 0.001271 0.081979 153 0 76
0.149923 0.334493 0.100506 153 0 76
-0.072416 0.612158 0.017361 204 51 127
0.158585 -0.084434 0.101673 153 0 76
-0.094666 0.366699 -0.130341 153 0 76
-0.048653 -0.503338 -0.169233 153 0 76
0.070755 0.644806 0.031128 204 51 127
-0.042603 -0.179695 -0.171740 153 0 76
-0.083276 0.306646 -0.154892 153 0 76
-0.018091 -0.645008 0.193851 153 0 76
0.040081 -0.641436 -0.174458 153 0 76
0.047243 -0.714991 -0.157501 153 0 76
-0.045012 0.425322 -0.107945 153 0 76
0.058869 -0.714991 0.100378 153 0 76
0.079662 0.293230 -0.158063 153 0 76
0.121833 -0.691620 0.151797 153 0 76
0.116428 -0.094944 -0.142834 153 0 76
-0.090314 0.462489 0.036003 204 51 127
0.004232 0.721214 -0.021687 204 51 127
-0.077855 0.996186 -0.002722 0 0 255
0.032761 0.996186 -0.051297 0 0 255
-0.072700 0.460911 -0.067797 204 51 127
0.173196 -0.277242 -0.054441 153 0 76
0.019347 -0.330258 -0.183046 153 0 76
0.144218 -0.329257 0.136356 153 0 76
0.106179 -0.504944 -0.147079 153 0 76
-0.045283 0.484883 -0.071968 204 51 127
-0.051175 -0.677025 -0.168189 153 0 76
0.181502 0.319395 -0.024407 153 0 76
0.075978 0.979784 0.046412 0 0 255
-0.181383 -0.414075 0.036879 153 0 76
-0.083193 -0.412131 -0.154927 153 0 76
0.073248 -0.000540 -0.160720 153 0 76
-0.084885 0.253523 -0.154226 153 0 76
-0.106359 0.168414 -0.145331 153 0 76
-0.040680 0.810263 -0.055485 204 51 127
0.179343 -0.273382 0.051558 153 0 76
-0.154756 0.153408 -0.089203 153 0 76
0.163008 -0.462762 -0.079036 153 0 76
-0.109073 -0.714991 -0.063090 153 0 76
-0.063071 0.980878 0.055342 0 0 255
-0.058032 0.292093 0.177306 153 0 76
0.067980 0.202944 0.174859 153 0 76
0.121905 0.392005 -0.104410 153 0 76
-0.146692 0.317567 0.112113 153 0 76
0.172703 0.040786 -0.055631 153 0 76
-0.167614 0.252607 0.070120 153 0 76
-0.165943 0.132482 -0.062195 153 0 76
0.182227 -0.239091 -0.032637 153 0 76
0.175674 -0.669534 -0.048458 153 0 76
0.193510 0.092632 -0.005398 153 0 76
0.057750 0.308826 0.178470 153 0 76
0.032517 0.472581 -0.082901 204 51 127
-0.174620 -0.100177 -0.041246 153 0 76
-0.133295 0.386709 -0.077101 153 0 76
-0.172822 -0.708359 -0.020462 153 0 76
0.192453 -0.479988 -0.007949 153 0 76
-0.086013 0.010970 0.165716 153 0 76
-0.048504 0.873234 0.037419 0 0 255
-0.179263 -0.358019 0.041996 153 0 76
-0.063342 -0.539651 0.175107 153 0 76
-0.148608 -0.671899 0.116004 153 0 76
0.010369 -0.229641 0.198723 153 0 76
0.018612 0.438393 -0.107920 153 0 76
-0.103650 0.456167 0.003224 153 0 76
0.116172 0.314808 0.152286 153 0 76
-0.062627 0.394816 0.142094 153 0 76
0.192033 0.010760 -0.008963 153 0 76
0.113252 0.066146 -0.144150 153 0 76
0.165308 -0.065177 -0.073483 153 0 76
-0.152958 -0.242806 -0.093544 153 0 76
0.077953 -0.273053 -0.158771 153 0 76
-0.130197 -0.101717 -0.135457 153 0 76
0.154043 -0.172132 -0.100680 153 0 76
0.081110 0.527921 0.016981 204 51 127
0.062820 -0.320001 0.176997 153 0 76
-0.113383 -0.104517 0.154379 153 0 76
-0.190724 -0.241161 -0.002368 153 0 76
0.015006 0.341481 -0.173380 153 0 76
0.010237 0.083142 0.198777 153 0 76
-0.098563 -0.353951 0.160518 153 0 76
0.075385 0.474905 -0.060166 204 51 127
-0.068688 -0.445970 -0.160935 153 0 76
0.197412 -0.363220 0.007936 153 0 76
0.079518 0.380957 0.145515 153 0 76
-0.132752 0.238011 0.146356 153 0 76
0.148755 -0.324260 -0.113446 153 0 76
0.078518 0.266164 -0.158537 153 0 76
0.134436 -0.492573 -0.135375 153 0 76
-0.095557 -0.714991 0.007841 153 0 76
-0.014631 -0.714991 0.169022 153 0 76
0.021076 0.045059 -0.182330 153 0 76
0.039681 0.560185 -0.057573 204 51 127
0.012091 0.024647 -0.186052 153 0 76
0.039693 -0.714991 0.077213 153 0 76
-0.115116 0.029182 -0.141704 153 0 76
0.094027 -0.637324 -0.152113 153 0 76
-0.086004 -0.042138 -0.153762 153 0 76
0.191881 0.164197 -0.009332 153 0 76
0.018397 -0.175679 0.195397 153 0 76
-0.056102 -0.714991 0.142961 153 0 76
-0.151146 -0.021018 0.109877 153 0 76
-0.179814 0.299477 -0.028706 153 0 76
0.152379 -0.661227 -0.104697 153 0 76
-0.111180 -0.201534 -0.143334 153 0 76
-0.014375 -0.600865 -0.183432 153 0 76
-0.076136 -0.156805 -0.157850 153 0 76
-0.075489 -0.614350 0.170076 153 0 76
-0.034621 0.704259 0.069953 204 51 127
0.079815 -0.045733 0.169957 153 0 76
0.172430 0.354198 0.030381 153 0 76
-0.152701 -0.694852 -0.090191 153 0 76
-0.192894 0.158365 0.002871 153 0 76
0.140771 -0.348783 0.144678 153 0 76
-0.162060 -0.612222 0.083528 153 0 76
-0.010714 0.884670 -0.075572 0 0 255
0.057994 0.843635 -0.049978 204 51 127
0.120114 -0.340311 -0.141307 153 0 76
0.002501 0.694709 0.084931 204 51 127
-0.186059 0.141099 0.025589 153 0 76
-0.141298 0.270077 -0.121694 153 0 76
-0.072852 -0.393077 -0.159210 153 0 76
-0.092900 -0.714991 0.130728 153 0 76
-0.137896 0.130570 0.141865 153 0 76
0.030647 -0.091994 0.190323 153 0 76
0.054745 -0.714991 -0.031986 153 0 76
0.060989 0.698607 -0.042745 204 51 127
0.068940 0.859032 -0.023550 204 51 127
0.166862 -0.260742 0.081689 153 0 76
-0.057683 0.695154 0.052930 204 51 127
0.083938 0.163475 0.168250 153 0 76
-0.137920 0.300869 -0.129849 153 0 76
0.074972 -0.441178 0.171963 153 0 76
0.015274 -0.062489 0.196691 153 0 76
0.149442 -0.513157 -0.111787 153 0 76
-0.019845 0.611597 -0.064116 204 51 127
-0.095599 -0.666674 -0.149788 153 0 76
0.028254 0.557042 0.074264 204 51 127
-0.121812 -0.411218 0.150888 153 0 76
0.141820 0.142802 -0.130190 153 0 76
-0.073604 0.935867 -0.027620 0 0 255
-0.076474 0.976813 -0.016289 0 0 255
0.128047 0.422880 -0.017533 153 0 76
-0.173649 -0.143456 -0.043592 153 0 76
-0.146085 -0.156677 -0.110136 153 0 76
0.083481 0.972497 -0.015947 0 0 255
0.170512 -0.347075 -0.060920 153 0 76
0.019111 -0.180667 -0.183144 153 0 76
0.040401 0.148384 -0.174325 153 0 76
0.188141 -0.219862 -0.018359 153 0 76
0.161868 0.325968 -0.066541 153 0 76
0.053835 0.253522 -0.168761 153 0 76
0.165746 -0.386431 0.084384 153 0 76
0.058578 0.120936 0.178754 153 0 76
-0.104867 -0.714991 -0.105975 153 0 76
-0.046621 -0.705447 0.177468 153 0 76
0.132525 -0.176110 -0.136166 153 0 76
-0.070123 0.623830 -0.010939 204 51 127
0.017205 0.242698 -0.183934 153 0 76
0.065824 0.532807 0.050075 204 51 127
0.133916 0.029885 -0.135590 153 0 76
0.152337 -0.542769 -0.104799 153 0 76
0.177984 -0.469310 0.054837 153 0 76
0.152756 -0.014850 -0.103786 153 0 76
0.130604 -0.532301 -0.136962 153 0 76
-0.038820 -0.158577 0.185264 153 0 76
0.129302 -0.714991 0.120984 153 0 76
0.097421 0.045645 0.162665 153 0 76
-0.148807 0.022022 0.115522 153 0 76
0.182694 0.081641 -0.031511 153 0 76
0.072465 0.590021 -0.015040 204 51 127
0.103616 -0.301420 -0.148141 153 0 76
0.185406 -0.595485 -0.024962 153 0 76
-0.134194 -0.030439 0.145759 153 0 76
-0.024712 0.996186 0.002083 0 0 255
0.004901 0.721214 0.017814 204 51 127
0.088858 -0.424865 0.166212 153 0 76
-0.066454 0.801411 0.031754 204 51 127
0.073881 0.829538 -0.011622 204 51 127
-0.185415 -0.279109 0.027143 153 0 76
-0.153758 -0.611208 -0.091611 153 0 76
-0.177699 0.067496 -0.033814 153 0 76
-0.148440 -0.390057 0.116410 153 0 76
-0.156982 0.368481 -0.034520 153 0 76
-0.051446 0.096404 -0.168077 153 0 76
0.176328 -0.439646 0.058837 153 0 76
-0.149870 0.146766 0.112957 153 0 76
-0.052281 -0.631945 -0.167731 153 0 76
0.102011 -0.141793 0.160763 153 0 76
-0.165936 0.279270 -0.062213 153 0 76
0.092945 -0.374944 -0.152561 153 0 76
0.158989 -0.651024 0.100697 153 0 76
-0.163127 -0.411918 -0.068995 153 0 76
-0.168351 -0.294526 0.068340 153 0 76
0.089177 0.230766 -0.154121 153 0 76
0.027908 0.697039 -0.062449 204 51 127
0.014431 0.915299 -0.076213 0 0 255
0.063885 -0.059544 -0.164598 153 0 76
-0.161728 -0.259257 0.084328 153 0 76
0.113342 -0.556159 0.156070 153 0 76
0.120042 -0.139554 -0.141337 153 0 76
0.014700 0.595907 0.079878 204 51 127
0.049129 0.078543 0.182668 153 0 76
0.046257 0.536407 0.068563 204 51 127
-0.136155 0.008651 -0.132989 153 0 76
-0.076911 0.593730 0.006509 204 51 127
0.008474 -0.301995 0.199508 153 0 76
-0.001357 -0.404173 0.200782 153 0 76
-0.002762 0.204330 0.200200 153 0 76
-0.015496 0.873234 -0.054797 0 0 255
-0.062477 0.954994 -0.044273 0 0 255
-0.137219 -0.072934 0.143500 153 0 76
-0.036629 0.818089 0.069121 204 51 127
0.147401 -0.691846 -0.114740 153 0 76
-0.142049 0.179938 -0.119881 153 0 76
0.180757 -0.191870 -0.036186 153 0 76
0.089426 -0.311725 0.165976 153 0 76
0.130764 -0.609005 -0.136896 153 0 76
-0.178038 -0.268344 -0.032996 153 0 76
0.020562 0.873234 0.030208 0 0 255
0.187039 -0.382953 0.032977 153 0 76
0.093520 0.044357 -0.152323 153 0 76
0.046000 -0.510662 -0.172006 153 0 76
-0.113472 -0.622284 0.154342 153 0 76
0.129123 -0.426587 -0.137576 153 0 76
-0.088264 -0.510590 -0.152826 153 0 76
0.164378 -0.638437 -0.075729 153 0 76
0.188710 0.013443 0.028945 153 0 76
0.193263 -0.591798 0.017952 153 0 76
0.156301 -0.220428 0.107187 153 0 76
0.073235 -0.714991 0.120568 153 0 76
-0.069781 -0.243076 -0.160482 153 0 76
-0.007727 -0.008390 0.198143 153 0 76
-0.075849 -0.106672 0.169926 153 0 76
-0.114220 0.276055 0.154033 153 0 76
-0.054674 -0.280993 -0.166739 153 0 76
-0.156827 -0.498122 -0.084204 153 0 76
0.020816 0.272199 -0.182438 153 0 76
-0.192015 -0.324200 0.011211 153 0 76
-0.104938 -0.547992 -0.145920 153 0 76
-0.022949 0.721214 -0.049065 204 51 127
0.192622 -0.486170 0.019498 153 0 76
0.034606 0.883440 -0.072200 0 0 255
0.183408 0.232449 -0.029787 153 0 76
-0.157791 0.080066 -0.081875 153 0 76
0.087361 0.955120 0.003558 0 0 255
-0.009620 -0.595999 0.197359 153 0 76
-0.060083 0.721214 0.043564 204 51 127
-0.067070 0.909720 -0.037400 0 0 255
-0.153601 -0.186975 -0.091992 153 0 76
-0.076347 0.977384 0.028883 0 0 255
0.055644 0.419612 -0.110734 153 0 76
-0.070732 -0.315608 -0.160088 153 0 76
0.147350 -0.433982 -0.116838 153 0 76
0.196661 0.024577 0.009747 153 0 76
0.156915 0.298812 0.105705 153 0 76
0.122863 0.238765 -0.140168 153 0 76
-0.117646 -0.705299 0.141448 153 0 76
0.002204 0.640325 -0.073096 204 51 127
-0.138535 -0.176585 -0.128364 153 0 76
0.068028 -0.398117 0.174840 153 0 76
-0.088963 0.105684 0.164494 153 0 76
-0.037124 0.572661 -0.056958 204 51 127
0.146057 0.100780 0.131917 153 0 76
-0.143924 -0.112117 -0.115353 153 0 76
0.065776 0.621436 -0.031190 204 51 127
0.042396 0.126753 -0.173499 153 0 76
-0.018991 -0.170610 0.193478 153 0 76
-0.158425 -0.710019 0.078240 153 0 76
-0.095483 0.344317 -0.137430 153 0 76
0.171715 0.045694 0.069973 153 0 76
-0.079715 -0.714991 -0.122417 153 0 76
0.052564 0.610128 0.064194 204 51 127
0.124635 0.011794 0.151392 153 0 76
0.061412 0.873234 0.017391 0 0 255
-0.009829 0.272200 -0.185315 153 0 76
-0.070207 0.712871 -0.010737 204 51 127
-0.108205 -0.249964 -0.144566 153 0 76
-0.029655 0.657821 -0.060052 204 51 127
-0.012912 -0.671863 -0.184038 153 0 76
0.130626 0.197523 -0.136953 153 0 76
0.178525 0.004309 -0.041575 153 0 76
0.131334 0.370302 0.116693 153 0 76
-0.010269 0.443351 -0.104909 204 51 127
-0.070195 0.558732 0.022723 204 51 127
-0.167954 -0.071952 -0.057339 153 0 76
-0.140399 -0.000864 0.135821 153 0 76
0.020874 0.303670 -0.182414 153 0 76
-0.099873 -0.370524 -0.148018 153 0 76
0.179736 0.302863 -0.038651 153 0 76
0.011979 -0.139331 -0.186098 153 0 76
0.027503 0.005063 0.191626 153 0 76
0.122901 -0.650303 0.152110 153 0 76
0.078868 -0.083945 -0.158392 153 0 76
0.179157 -0.600147 0.052006 153 0 76
0.088981 0.023651 0.166161 153 0 76
-0.005536 0.051648 0.199051 153 0 76
-0.158850 0.218919 0.091277 153 0 76
0.069591 -0.039505 -0.162234 153 0 76
0.150897 0.320624 -0.097310 153 0 76
0.019672 -0.714991 0.040007 153 0 76
0.047424 0.721214 0.041006 204 51 127
-0.094870 -0.480669 0.162047 153 0 76
-0.139596 0.389920 -0.056813 153 0 76
0.197118 -0.661287 0.003313 153 0 76
-0.004719 -0.262207 -0.187431 153 0 76
0.074712 0.558865 -0.009615 204 51 127
-0.172438 -0.612488 0.058473 153 0 76
0.159740 -0.562064 -0.086926 153 0 76
0.077254 0.657553 -0.003480 204 51 127
0.180422 -0.269648 -0.036995 153 0 76
0.062007 0.030426 0.177334 153 0 76
0.098192 0.479686 0.013334 204 51 127
-0.184239 -0.434011 0.029983 153 0 76
-0.075883 0.711196 0.008991 204 51 127
-0.077828 -0.613486 -0.157149 153 0 76
-0.165735 -0.592918 -0.062697 153 0 76
0.040620 -0.279153 0.186193 153 0 76
-0.039651 -0.471922 0.184920 153 0 76
0.079451 0.623193 0.010133 204 51 127
0.167482 -0.714991 -0.035339 153 0 76
-0.143633 0.209293 0.128015 153 0 76
0.189117 -0.633045 -0.016004 153 0 76
-0.052444 -0.106457 -0.167663 153 0 76
0.183168 -0.346344 0.042324 153 0 76
0.127868 0.104957 0.150053 153 0 76
0.191789 -0.172098 0.021511 153 0 76
0.179027 -0.310857 -0.040362 153 0 76
-0.096334 0.223085 0.161441 153 0 76
-0.150654 0.351057 -0.063758 153 0 76
-0.155947 0.281321 0.098285 153 0 76
-0.164110 0.305658 -0.066620 153 0 76
0.044392 0.857029 0.067579 204 51 127
-0.172965 -0.241225 -0.045243 153 0 76
-0.101394 -0.714991 0.106537 153 0 76
-0.095105 -0.039784 0.161950 153 0 76
0.134628 -0.526912 0.147253 153 0 76
0.169259 0.281396 0.075903 153 0 76
0.126533 0.391281 0.106885 153 0 76
-0.129797 -0.270827 -0.135622 153 0 76
-0.069450 0.148363 0.172577 153 0 76
0.156572 0.160848 -0.094573 153 0 76
-0.137237 -0.076084 -0.131499 153 0 76
0.190858 -0.694151 -0.008293 153 0 76
-0.005763 0.205904 -0.186999 153 0 76
-0.097951 -0.180045 0.160771 153 0 76
-0.055898 0.695465 -0.045281 204 51 127
0.162745 0.107755 -0.079672 153 0 76
0.011050 0.360721 -0.168633 153 0 76
0.046568 0.830728 0.066678 204 51 127
-0.191301 -0.266786 -0.000976 153 0 76
-0.056104 0.453298 0.089641 153 0 76
-0.182248 -0.455269 -0.022833 153 0 76
-0.161820 -0.181017 0.084106 153 0 76
-0.177839 0.107776 -0.033477 153 0 76
0.067908 0.398993 0.137542 153 0 76
0.118843 -0.286459 0.153791 153 0 76
-0.141658 0.042593 0.132782 153 0 76
-0.047638 -0.312534 0.181612 153 0 76
0.079138 0.891680 -0.029723 0 0 255
-0.000729 -0.614793 0.201042 153 0 76
0.085129 -0.469682 -0.155798 153 0 76
0.068303 0.721214 -0.010708 204 51 127
-0.024361 0.273270 0.191254 153 0 76
-0.170014 0.070236 0.064324 153 0 76
-0.153689 0.116818 0.103738 153 0 76
0.056896 -0.714991 0.146502 153 0 76
0.164064 -0.488355 0.088446 153 0 76
-0.000277 0.721214 0.068607 204 51 127
0.174939 -0.226570 -0.050233 153 0 76
-0.164776 0.205663 -0.065013 153 0 76
0.138798 -0.714991 0.090134 153 0 76
-0.078263 0.957629 0.019250 0 0 255
0.087496 -0.333862 -0.154818 153 0 76
-0.060241 0.579034 0.046754 204 51 127
0.025320 0.823658 -0.063521 204 51 127
0.023060 -0.316839 0.193466 153 0 76
0.024495 -0.653243 -0.180914 153 0 76
0.143819 -0.025297 0.137321 153 0 76
0.190461 0.207575 -0.012758 153 0 76
-0.133760 0.402252 -0.042124 153 0 76
0.152097 -0.624511 -0.105377 153 0 76
-0.010469 0.696404 -0.067999 204 51 127
0.000513 0.398013 -0.153198 153 0 76
0.031867 0.045341 0.189818 153 0 76
0.054219 -0.714991 -0.075471 153 0 76
-0.188212 -0.695116 0.010072 153 0 76
-0.050170 0.208682 -0.168605 153 0 76
0.052840 0.970311 0.072515 0 0 255
0.074037 0.734860 0.023204 204 51 127
-0.018963 -0.288994 0.193489 153 0 76
0.029989 0.739613 0.073545 204 51 127
-0.036543 -0.103716 0.186208 153 0 76
-0.022212 0.848926 0.075093 204 51 127
-0.009900 0.438877 0.121345 153 0 76
0.172835 0.176240 0.067269 153 0 76
0.154241 -0.714991 -0.019022 153 0 76
-0.020686 -0.183018 -0.180818 153 0 76
-0.018945 -0.022068 -0.181539 153 0 76
-0.036918 -0.247296 -0.174094 153 0 76
0.018636 -0.076620 -0.183341 153 0 76
0.187281 -0.469642 0.032393 153 0 76
0.183155 -0.347950 -0.030398 153 0 76
0.161068 -0.448487 0.095677 153 0 76
-0.034701 0.233574 0.186970 153 0 76
0.154112 -0.362063 0.112471 153 0 76
0.168310 -0.100828 0.078193 153 0 76
0.168248 -0.334530 0.078344 153 0 76
0.190323 0.274941 -0.013092 153 0 76
0.060493 -0.012999 0.177961 153 0 76
-0.182581 -0.533884 0.033985 153 0 76
0.042069 0.395740 0.151389 153 0 76
-0.005415 -0.714991 -0.124024 153 0 76
0.054418 -0.340280 0.180477 153 0 76
-0.137094 -0.535767 0.143800 153 0 76
-0.181939 -0.491396 0.035534 153 0 76
-0.064548 -0.017491 0.174608 153 0 76
0.193220 -0.182158 -0.006097 153 0 76
-0.188817 -0.571082 0.018931 153 0 76
-0.184867 -0.045133 0.028466 153 0 76
-0.190312 -0.524545 0.015320 153 0 76
0.096219 0.455216 0.037171 204 51 127
0.056841 -0.232873 -0.167516 153 0 76
-0.078306 0.515742 -0.011529 204 51 127
0.049499 -0.228267 0.182514 153 0 76
0.053516 0.233945 0.180851 153 0 76
-0.164069 -0.216924 -0.066718 153 0 76
0.006681 -0.344656 -0.188293 153 0 76
0.026715 0.370110 0.170987 153 0 76
