ply
format ascii 1.0
element vertex 620
property float x
property float y
property float z
property float nx
property float ny
property float nz
property uchar red
property uchar green
property uchar blue
property float opacity
end_header
-0.085041 0.563284 0.529597 -0.464413 -0.741300 -0.484556 61 102 61 1.000000
-0.005905 -0.327953 0.032652 0.974303 0.000000 -0.225240 255 255 255 1.000000
0.331749 -0.137882 -0.356617 0.112620 -0.866025 0.487152 255 255 255 1.000000
-0.149301 -0.310715 -0.102269 0.000000 1.000000 0.000000 255 255 255 1.000000
-0.121096 0.077200 -0.251950 0.685401 0.000000 0.728166 255 255 255 1.000000
0.085294 -0.239336 -0.102170 -0.904236 0.000000 -0.427034 255 255 255 1.000000
0.076614 0.543430 0.657584 0.957383 -0.195120 -0.212948 61 102 61 1.000000
0.094546 -0.309338 -0.182604 0.981423 0.000000 -0.191858 61 102 61 1.000000
0.298335 -0.152128 -0.374217 -0.112620 0.866025 -0.487152 35 47 66 1.000000
-0.210887 -0.439228 -0.194469 -0.292088 0.000000 0.956392 255 255 255 1.000000
0.397508 0.057987 0.036109 0.974303 0.000000 -0.225240 255 255 255 1.000000
-0.012551 -0.183066 -0.269861 -0.200287 -0.457490 -0.866365 61 102 61 1.000000
-0.146551 0.726108 0.335789 0.999978 0.005235 -0.004009 121 153 121 1.000000
-0.184250 -0.424525 -0.057721 0.469734 0.000000 0.882808 255 255 255 1.000000
0.405133 0.001788 -0.052359 -0.974303 0.000000 0.225240 255 255 255 1.000000
0.060737 -0.482333 -0.225020 -0.810933 0.000000 0.585139 255 255 255 1.000000
-0.000146 -0.310715 -0.101684 0.000000 1.000000 0.000000 255 255 255 1.000000
-0.091695 -0.160840 -0.272752 0.458029 0.000000 0.888937 255 255 255 1.000000
0.284581 -0.568742 -0.085480 0.974970 0.000000 0.222335 35 35 35 1.000000
0.087975 0.041414 -0.206768 0.926287 0.000000 -0.376820 61 102 61 1.000000
-0.089624 0.390007 0.754902 0.580945 -0.464344 -0.668497 121 153 121 1.000000
-0.061195 -0.159965 -0.283872 0.222233 0.000000 0.974994 255 255 255 1.000000
-0.088248 0.658636 -0.082926 0.494785 -0.619970 0.608954 121 153 121 1.000000
0.133103 -0.452308 -0.213526 0.225240 0.000000 0.974303 255 255 255 1.000000
0.245788 0.002146 -0.236001 0.000000 -1.000000 0.000000 255 255 255 1.000000
-0.142809 0.682769 0.204647 0.968222 0.241498 -0.065008 121 153 121 1.000000
0.047514 0.378357 0.713668 -0.702568 0.427135 0.569169 121 153 121 1.000000
-0.126027 -0.584270 -0.257834 0.000000 -1.000000 0.000000 35 47 66 1.000000
0.128702 -0.158433 -0.312390 -0.218166 -0.248666 -0.943700 61 102 61 1.000000
-0.161900 -0.366290 -0.302295 0.682215 0.000000 0.731151 255 255 255 1.000000
0.079053 0.563509 -0.002315 -0.976066 0.155302 -0.152236 121 153 121 1.000000
-0.190502 -0.487393 -0.270899 -0.848206 0.000000 -0.529667 10 51 10 1.000000
-0.091022 -0.584270 -0.154423 0.000000 -1.000000 0.000000 35 47 66 1.000000
-0.178683 -0.380087 -0.269165 -0.529667 0.000000 0.848206 255 255 255 1.000000
0.138915 -0.144936 -0.353763 -0.974303 0.000000 0.225240 35 47 66 1.000000
0.003811 -0.310797 0.032929 -0.225240 0.000000 -0.974303 255 255 255 1.000000
0.080519 -0.445490 -0.239902 0.682215 0.000000 0.731151 255 255 255 1.000000
0.013888 0.585939 0.477651 -0.411744 0.827132 0.382517 121 153 121 1.000000
-0.009764 -0.335476 -0.321054 -0.999401 0.000000 -0.034603 255 255 255 1.000000
0.245645 -0.238017 -0.442080 -0.195064 -0.500000 -0.843771 35 47 66 1.000000
0.040290 0.786903 0.146108 -0.638372 -0.731197 0.240482 121 153 121 1.000000
-0.055134 0.425736 -0.237049 0.202383 -0.293846 0.934182 121 153 121 1.000000
0.020337 -0.584270 -0.027982 0.000000 -1.000000 0.000000 35 47 66 1.000000
0.235818 0.002146 -0.164075 0.000000 -1.000000 0.000000 255 255 255 1.000000
0.157357 -0.584270 -0.151656 0.000000 1.000000 0.000000 255 255 255 1.000000
0.134758 -0.529559 0.011339 0.000000 1.000000 0.000000 35 35 35 1.000000
-0.111257 0.523018 -0.165324 -0.696135 0.349815 -0.626918 61 102 61 1.000000
-0.093782 -0.529559 0.154614 0.000000 1.000000 0.000000 35 35 35 1.000000
0.061675 -0.398242 -0.276368 0.848206 0.000000 0.529667 255 255 255 1.000000
-0.053438 -0.379249 -0.324139 -0.974303 0.000000 0.225240 255 255 255 1.000000
-0.005524 -0.488022 0.034302 0.974303 0.000000 -0.225240 255 255 255 1.000000
-0.109783 -0.499044 -0.001797 -0.848206 0.000000 -0.529667 255 255 255 1.000000
-0.204290 -0.529559 0.030982 0.000000 1.000000 0.000000 35 35 35 1.000000
0.196340 -0.584270 0.000000 0.000000 1.000000 0.000000 255 255 255 1.000000
0.286449 0.002146 -0.156520 0.000000 1.000000 0.000000 35 47 66 1.000000
0.077157 -0.384967 -0.015347 0.731151 0.000000 -0.682215 255 255 255 1.000000
0.096748 0.153478 -0.151881 0.998960 0.000000 0.045593 61 102 61 1.000000
0.002658 -0.529559 -0.458839 0.000000 -1.000000 0.000000 255 255 255 1.000000
0.095316 -0.310715 -0.059005 0.000000 -1.000000 0.000000 255 255 255 1.000000
-0.231848 -0.584270 0.027558 0.000000 1.000000 0.000000 255 255 255 1.000000
-0.141808 0.370818 -0.171875 -0.960099 0.062164 -0.272663 61 102 61 1.000000
-0.096511 -0.431545 -0.023051 -0.848206 0.000000 -0.529667 255 255 255 1.000000
-0.161884 -0.163297 -0.157063 -0.999985 0.000000 0.005524 61 102 61 1.000000
-0.074773 0.624094 0.771812 0.371766 -0.619639 -0.691258 121 153 121 1.000000
-0.145431 0.638841 0.077073 -0.988483 -0.128395 0.080098 61 102 61 1.000000
0.097252 -0.108707 -0.166440 0.997777 0.000000 -0.066641 61 102 61 1.000000
0.030141 0.479044 0.858805 0.550263 0.494370 0.672911 61 102 61 1.000000
0.067917 0.672500 0.317795 -0.880889 0.473291 -0.005555 121 153 121 1.000000
0.161011 -0.311112 -0.139702 0.999401 0.000000 0.034603 10 51 10 1.000000
0.201418 -0.138715 -0.384122 -0.112620 0.866025 -0.487152 35 47 66 1.000000
0.035831 -0.431482 0.006802 -0.882808 0.000000 0.469734 255 255 255 1.000000
-0.109944 -0.544430 -0.073709 0.677756 0.000000 -0.735287 255 255 255 1.000000
-0.180579 -0.584270 -0.083845 0.000000 1.000000 0.000000 255 255 255 1.000000
0.053775 -0.239204 -0.221087 0.081339 0.932518 0.351843 255 255 255 1.000000
-0.087404 0.758494 0.054078 0.488006 -0.773791 0.403852 121 153 121 1.000000
0.073108 -0.410742 -0.019687 -0.731151 0.000000 0.682215 255 255 255 1.000000
-0.107699 -0.584270 -0.256948 0.000000 -1.000000 0.000000 35 47 66 1.000000
-0.027194 0.468584 0.888682 -0.046325 -0.581202 -0.812440 121 153 121 1.000000
0.045081 0.651135 -0.067746 0.683498 0.518900 -0.513393 61 102 61 1.000000
0.225363 -0.132598 -0.063700 -0.195064 0.500000 -0.843771 255 255 255 1.000000
0.027908 -0.050406 -0.080629 -0.168305 -0.664571 -0.728024 255 255 255 1.000000
-0.035471 -0.310715 -0.334782 0.000000 1.000000 0.000000 10 51 10 1.000000
-0.068070 0.397952 0.667166 0.314453 0.585181 0.747450 121 153 121 1.000000
0.067221 0.472175 -0.032574 -0.877017 0.268175 -0.398653 121 153 121 1.000000
-0.102985 -0.372274 -0.326580 0.882808 0.000000 -0.469734 255 255 255 1.000000
0.232842 -0.584270 -0.289627 0.000000 -1.000000 0.000000 35 47 66 1.000000
-0.188654 -0.529559 -0.310775 0.000000 1.000000 0.000000 35 35 35 1.000000
-0.046741 -0.241335 -0.028867 0.110161 0.000000 -0.993914 255 255 255 1.000000
-0.065915 -0.429038 0.010077 0.956392 0.000000 0.292088 255 255 255 1.000000
-0.147503 -0.432820 -0.005683 0.848206 0.000000 0.529667 255 255 255 1.000000
0.387862 -0.033691 -0.005617 -0.974303 0.000000 0.225240 102 102 40 1.000000
-0.093224 0.352345 -0.244584 0.535256 -0.158354 0.829714 121 153 121 1.000000
0.106022 -0.088632 -0.074771 -0.211837 -0.339819 -0.916323 255 255 255 1.000000
0.007475 -0.310715 -0.279543 0.000000 -1.000000 0.000000 255 255 255 1.000000
-0.046741 0.250929 -0.267244 -0.125541 0.110287 -0.985939 61 102 61 1.000000
-0.122454 -0.431246 -0.329613 -0.469734 0.000000 -0.882808 10 51 10 1.000000
-0.120427 -0.529559 -0.423950 0.000000 -1.000000 0.000000 255 255 255 1.000000
0.078207 -0.310715 -0.054096 0.000000 -1.000000 0.000000 255 255 255 1.000000
-0.157373 -0.584270 -0.355298 0.000000 1.000000 0.000000 255 255 255 1.000000
-0.111605 0.605557 0.754798 -0.697469 0.475747 0.535911 61 102 61 1.000000
0.063121 0.116773 -0.070072 -0.736788 0.000000 -0.676124 255 255 255 1.000000
0.139926 -0.460533 -0.070207 0.529667 0.000000 -0.848206 255 255 255 1.000000
0.052550 0.570374 0.771856 -0.748280 -0.427626 -0.507162 121 153 121 1.000000
-0.036466 -0.533241 -0.271995 -0.035106 0.000000 -0.999384 255 255 255 1.000000
0.086844 -0.310715 -0.132902 0.000000 -1.000000 0.000000 255 255 255 1.000000
-0.006717 -0.502203 -0.302618 0.000000 1.000000 0.000000 255 255 255 1.000000
0.148716 -0.584270 -0.129811 0.000000 -1.000000 0.000000 35 47 66 1.000000
-0.022172 0.112580 -0.286827 -0.079422 0.000000 0.996841 255 255 255 1.000000
-0.066169 0.649398 0.756732 -0.297608 0.649540 0.699662 61 102 61 1.000000
0.054128 0.500883 0.818066 0.760570 0.395013 0.515265 61 102 61 1.000000
-0.010580 0.415062 -0.003659 0.193540 -0.447163 0.873263 61 102 61 1.000000
-0.173128 -0.361232 -0.107781 0.225240 0.000000 0.974303 255 255 255 1.000000
-0.231166 -0.577340 -0.415947 0.609944 0.000000 0.792445 255 255 255 1.000000
0.120905 -0.464375 -0.277585 -0.682215 0.000000 -0.731151 255 255 255 1.000000
0.119700 -0.584270 -0.340212 0.000000 1.000000 0.000000 255 255 255 1.000000
-0.030220 -0.350345 -0.351790 -0.034603 0.000000 0.999401 255 255 255 1.000000
0.065852 0.586004 0.076356 -0.865459 0.409214 -0.289008 121 153 121 1.000000
0.144432 -0.426721 -0.181194 0.225240 0.000000 0.974303 255 255 255 1.000000
0.180547 -0.584270 -0.227862 0.000000 1.000000 0.000000 255 255 255 1.000000
-0.060147 0.473263 -0.219451 0.246750 -0.370201 0.895581 121 153 121 1.000000
0.145528 -0.129063 -0.325157 0.974303 0.000000 -0.225240 255 255 255 1.000000
0.186119 -0.155956 -0.088930 0.219369 -0.226824 0.948909 61 102 61 1.000000
0.026630 0.412789 0.804425 -0.000000 -0.821306 0.570487 121 153 121 1.000000
-0.111987 0.453334 0.660904 -0.699644 -0.462423 -0.544668 61 102 61 1.000000
-0.356458 -0.550914 -0.172686 -0.998943 0.000000 -0.045966 35 35 35 1.000000
-0.017507 -0.584270 -0.276591 0.000000 -1.000000 0.000000 35 47 66 1.000000
-0.109925 0.566536 0.783812 0.682608 -0.468287 -0.561029 121 153 121 1.000000
-0.127837 -0.529559 0.058922 0.000000 1.000000 0.000000 35 35 35 1.000000
0.060151 -0.371933 -0.273928 -0.848206 0.000000 -0.529667 255 255 255 1.000000
-0.228943 -0.529559 -0.030704 0.000000 1.000000 0.000000 35 35 35 1.000000
-0.080887 -0.310715 -0.184389 0.000000 -1.000000 0.000000 255 255 255 1.000000
0.220789 -0.529559 -0.302195 0.000000 1.000000 0.000000 35 35 35 1.000000
0.026506 -0.512429 0.047786 0.275702 0.000000 0.961243 0 0 0 1.000000
-0.005041 0.153976 -0.031376 0.211941 0.000000 0.977283 61 102 61 1.000000
0.143529 -0.462820 -0.239983 0.882808 0.000000 -0.469734 10 51 10 1.000000
-0.042841 -0.324819 0.035953 -0.034603 0.000000 0.999401 10 51 10 1.000000
-0.143237 0.695737 0.362459 -0.972349 -0.233396 -0.007946 61 102 61 1.000000
-0.119414 -0.529559 0.139808 0.000000 1.000000 0.000000 35 35 35 1.000000
-0.085062 0.461844 0.852669 0.580945 -0.464344 -0.668497 121 153 121 1.000000
0.109630 -0.396669 -0.030460 -0.731151 0.000000 0.682215 255 255 255 1.000000
-0.197890 -0.343295 -0.102056 -0.225240 0.000000 -0.974303 255 255 255 1.000000
0.395740 -0.045054 -0.092990 -0.974303 0.000000 0.225240 255 255 255 1.000000
0.096462 0.096074 -0.143631 -0.994033 0.000000 -0.109079 255 255 255 1.000000
-0.014659 -0.392351 -0.005213 0.974303 0.000000 -0.225240 255 255 255 1.000000
-0.134688 0.513808 -0.134132 -0.895717 0.222120 -0.385167 61 102 61 1.000000
-0.138544 -0.238450 -0.232053 0.819186 0.000000 0.573529 255 255 255 1.000000
-0.192124 -0.488132 -0.092105 -0.469734 0.000000 -0.882808 255 255 255 1.000000
-0.112348 0.539548 -0.152602 0.706456 -0.365721 0.605944 121 153 121 1.000000
-0.066697 -0.349907 0.012637 -0.956392 0.000000 -0.292088 255 255 255 1.000000
-0.126730 0.490036 0.655315 0.823537 0.373148 0.427257 121 153 121 1.000000
-0.070366 0.401613 0.740383 0.000000 0.821306 -0.570487 255 255 255 1.000000
-0.154491 -0.234623 -0.200958 -0.942728 0.000000 -0.333563 61 102 61 1.000000
-0.120725 0.097242 -0.252297 -0.682538 0.000000 -0.730850 61 102 61 1.000000
-0.021667 0.822816 0.176958 0.095627 0.964573 -0.245874 61 102 61 1.000000
0.192423 -0.285019 -0.401924 -0.195064 -0.500000 -0.843771 35 47 66 1.000000
-0.009233 -0.468878 -0.336398 -0.999401 0.000000 -0.034603 255 255 255 1.000000
-0.041166 -0.372651 -0.272157 0.075952 0.000000 0.997111 255 255 255 1.000000
-0.122388 -0.529559 -0.397187 0.000000 -1.000000 0.000000 255 255 255 1.000000
-0.021743 -0.419966 0.024937 -0.999401 0.000000 -0.034603 255 255 255 1.000000
-0.094529 0.715888 0.655267 0.548711 -0.683036 -0.482056 121 153 121 1.000000
0.001166 0.016206 -0.048533 0.469734 0.000000 0.882808 61 102 61 1.000000
-0.058396 0.373411 0.746748 0.910084 -0.236423 -0.340368 255 255 255 1.000000
-0.127096 0.655412 -0.030541 0.834146 -0.408742 0.370311 121 153 121 1.000000
0.035740 0.724892 0.637575 0.601197 0.668079 0.438442 61 102 61 1.000000
0.039214 0.444564 -0.207174 0.631462 0.270728 -0.726610 61 102 61 1.000000
-0.064238 -0.134184 -0.032260 0.245479 0.000000 -0.969402 255 255 255 1.000000
0.034259 -0.546304 0.159680 0.205653 0.000000 0.978625 35 35 35 1.000000
0.022368 0.490168 -0.202590 0.484978 0.369253 -0.792747 61 102 61 1.000000
-0.052387 -0.405700 -0.270186 -0.174602 0.000000 -0.984639 255 255 255 1.000000
-0.299762 -0.584270 -0.149914 0.000000 1.000000 0.000000 255 255 255 1.000000
0.416010 -0.023052 -0.005312 -0.974303 0.000000 0.225240 255 255 255 1.000000
-0.027099 -0.364840 -0.043514 -0.046805 0.000000 -0.998904 255 255 255 1.000000
0.346686 -0.127669 -0.143441 0.112620 -0.866025 0.487152 35 47 66 1.000000
0.295758 0.002146 -0.215432 0.000000 1.000000 0.000000 35 47 66 1.000000
-0.175261 -0.406085 -0.226881 -0.529667 0.000000 0.848206 255 255 255 1.000000
-0.055099 -0.485023 0.004209 -0.999401 0.000000 -0.034603 255 255 255 1.000000
0.081228 0.654784 0.552341 0.995125 -0.087261 -0.045965 61 102 61 1.000000
-0.301765 -0.584270 -0.072213 0.000000 1.000000 0.000000 255 255 255 1.000000
-0.126226 0.525164 0.629762 0.818372 0.388948 0.423067 121 153 121 1.000000
-0.067654 0.358362 0.694510 0.309847 0.563791 0.765594 121 153 121 1.000000
-0.176375 -0.491181 -0.100485 -0.469734 0.000000 -0.882808 255 255 255 1.000000
0.016616 0.173574 -0.054517 -0.430150 0.053836 -0.901151 121 153 121 1.000000
0.000511 -0.113802 -0.102295 -0.974303 0.000000 0.225240 255 255 255 1.000000
0.124501 -0.529559 -0.316040 0.000000 1.000000 0.000000 35 35 35 1.000000
-0.003118 -0.349364 -0.312123 -0.956392 0.000000 -0.292088 255 255 255 1.000000
0.038951 0.614681 0.197318 -0.629945 0.737440 -0.243621 121 153 121 1.000000
-0.200761 -0.457192 -0.101392 0.225240 0.000000 0.974303 255 255 255 1.000000
-0.119293 0.581143 0.551214 -0.765434 -0.533634 -0.359646 61 102 61 1.000000
-0.060039 0.404820 0.766151 0.731151 0.389195 0.560308 255 255 255 1.000000
0.143846 -0.584270 -0.260310 0.000000 -1.000000 0.000000 35 47 66 1.000000
0.421130 -0.011872 0.016836 0.974303 0.000000 -0.225240 102 102 40 1.000000
-0.055449 -0.013434 -0.285200 -0.177599 0.000000 -0.984103 61 102 61 1.000000
-0.146280 0.530937 0.689887 0.992858 0.079153 0.089267 121 153 121 1.000000
-0.229454 -0.584270 -0.188439 0.000000 1.000000 0.000000 255 255 255 1.000000
0.144704 -0.385878 -0.181257 0.225240 0.000000 0.974303 255 255 255 1.000000
-0.143372 -0.574587 -0.184922 -0.971335 0.000000 -0.237715 255 255 255 1.000000
-0.076841 0.466313 0.833529 -0.000000 -0.821306 0.570487 255 255 255 1.000000
-0.043473 -0.327695 -0.331561 0.999401 0.000000 0.034603 255 255 255 1.000000
-0.184172 -0.481654 -0.057763 0.469734 0.000000 0.882808 255 255 255 1.000000
-0.094715 0.614887 -0.118085 0.550009 -0.531064 0.644563 121 153 121 1.000000
-0.025406 0.600195 0.231699 -0.062284 0.965772 -0.251805 121 153 121 1.000000
-0.059433 -0.571523 -0.046809 0.236247 0.000000 -0.971693 255 255 255 1.000000
-0.215781 -0.361512 -0.195964 0.292088 0.000000 -0.956392 255 255 255 1.000000
0.255524 0.002146 -0.157490 0.000000 1.000000 0.000000 35 47 66 1.000000
-0.112141 -0.310715 -0.334378 0.000000 1.000000 0.000000 10 51 10 1.000000
0.067996 -0.411677 -0.211706 0.881056 0.000000 -0.473013 255 255 255 1.000000
0.309440 -0.245206 -0.223390 -0.974303 0.000000 0.225240 255 255 255 1.000000
-0.097290 -0.584270 -0.269920 0.000000 1.000000 0.000000 255 255 255 1.000000
-0.037904 -0.380368 -0.352057 0.034603 0.000000 -0.999401 10 51 10 1.000000
-0.121272 0.706842 0.629901 0.776810 -0.523952 -0.349344 121 153 121 1.000000
0.065782 -0.331707 -0.272725 0.682215 0.000000 0.731151 255 255 255 1.000000
-0.154863 -0.486648 -0.111931 0.469734 0.000000 0.882808 255 255 255 1.000000
0.235119 -0.584270 -0.227998 0.000000 1.000000 0.000000 255 255 255 1.000000
-0.120095 -0.577640 0.154571 0.270156 0.000000 -0.962817 255 255 255 1.000000
0.364119 -0.083248 -0.108321 0.974303 0.000000 -0.225240 255 255 255 1.000000
0.004346 -0.413352 -0.336564 0.956392 0.000000 0.292088 255 255 255 1.000000
0.091595 -0.292677 -0.195366 0.957028 0.000000 -0.289995 61 102 61 1.000000
0.077569 0.591566 0.607757 -0.965743 0.208755 0.154148 121 153 121 1.000000
-0.347236 -0.529559 -0.137402 0.000000 -1.000000 0.000000 255 255 255 1.000000
-0.137548 -0.276474 -0.233649 -0.810788 0.000000 -0.585339 61 102 61 1.000000
0.043867 0.597683 0.500102 0.675870 -0.661832 -0.324312 61 102 61 1.000000
0.395062 0.002001 -0.095923 0.974303 0.000000 -0.225240 102 102 40 1.000000
-0.094600 0.333868 -0.049357 -0.550264 -0.191957 0.812627 61 102 61 1.000000
0.075443 0.677586 0.034568 0.940758 0.281295 -0.189332 61 102 61 1.000000
0.039415 0.451716 0.870736 -0.626583 -0.452227 -0.634732 121 153 121 1.000000
0.002379 -0.529559 0.056464 0.000000 -1.000000 0.000000 255 255 255 1.000000
-0.011598 -0.051018 -0.286461 -0.159978 0.000000 0.987121 255 255 255 1.000000
0.091297 0.067066 -0.196659 -0.954020 0.000000 0.299744 255 255 255 1.000000
0.061946 0.659546 -0.028052 -0.827347 -0.426133 0.365934 121 153 121 1.000000
0.112828 -0.439348 -0.087129 0.529667 0.000000 -0.848206 255 255 255 1.000000
-0.109026 -0.018565 -0.053122 0.590485 0.000000 -0.807048 255 255 255 1.000000
0.029221 -0.357850 -0.288687 -0.848206 0.000000 -0.529667 255 255 255 1.000000
0.043666 0.404631 0.691047 -0.669694 0.458922 0.583867 121 153 121 1.000000
-0.105383 -0.345735 0.022768 -0.292088 0.000000 0.956392 10 51 10 1.000000
0.044510 -0.408033 -0.050335 -0.731151 0.000000 0.682215 255 255 255 1.000000
-0.134487 -0.485981 -0.313290 0.882808 0.000000 -0.469734 255 255 255 1.000000
-0.136431 0.267507 -0.201230 -0.906647 0.053824 -0.418443 61 102 61 1.000000
-0.188391 -0.310715 -0.245668 0.000000 1.000000 0.000000 10 51 10 1.000000
-0.068974 0.361244 0.726915 -0.910084 0.236423 0.340368 121 153 121 1.000000
0.090983 -0.455693 -0.050444 -0.731151 0.000000 0.682215 255 255 255 1.000000
0.264856 -0.174855 -0.416243 -0.974303 0.000000 0.225240 255 255 255 1.000000
-0.009386 -0.029489 -0.030371 0.178156 0.000000 0.984002 61 102 61 1.000000
0.076178 0.241974 -0.119165 0.953427 -0.042011 0.298685 61 102 61 1.000000
0.167292 -0.502203 -0.135338 0.000000 1.000000 0.000000 0 0 0 1.000000
-0.146291 -0.345944 -0.144024 0.992781 0.000000 -0.119940 255 255 255 1.000000
0.133344 -0.011061 -0.208062 -0.022951 0.994795 -0.099276 61 102 61 1.000000
-0.063994 -0.310715 -0.262540 0.000000 1.000000 0.000000 255 255 255 1.000000
-0.117106 -0.078442 -0.058932 0.650475 0.000000 -0.759527 255 255 255 1.000000
0.068072 0.501917 -0.145139 0.884041 0.220353 -0.412210 61 102 61 1.000000
-0.022419 0.065689 -0.286835 -0.077517 0.000000 0.996991 255 255 255 1.000000
0.035450 -0.333393 0.006085 -0.882808 0.000000 0.469734 255 255 255 1.000000
-0.340376 -0.566397 -0.259911 0.949151 0.000000 0.314820 255 255 255 1.000000
0.007254 0.132072 -0.034218 0.305950 0.000000 0.952048 61 102 61 1.000000
-0.103028 -0.412045 -0.067435 0.615611 0.000000 -0.788050 255 255 255 1.000000
0.075805 0.517647 -0.114850 -0.945578 -0.167581 0.278926 121 153 121 1.000000
-0.164794 -0.584270 -0.061414 0.000000 -1.000000 0.000000 35 47 66 1.000000
0.379224 -0.070523 -0.049372 0.112620 -0.866025 0.487152 102 102 40 1.000000
-0.109258 -0.040057 -0.053266 0.592178 0.000000 -0.805807 255 255 255 1.000000
-0.004258 -0.584270 0.038180 0.000000 -1.000000 0.000000 35 47 66 1.000000
-0.090842 0.421034 -0.016567 -0.515642 -0.389701 0.763051 61 102 61 1.000000
0.215156 -0.260082 -0.240724 0.000000 -1.000000 0.000000 35 47 66 1.000000
-0.031764 0.609810 0.299492 -0.006154 0.997757 -0.066659 121 153 121 1.000000
-0.085463 -0.310715 -0.016561 0.000000 -1.000000 0.000000 255 255 255 1.000000
0.076789 0.751200 0.403656 -0.957181 -0.284467 -0.053698 121 153 121 1.000000
-0.161513 -0.365363 -0.179282 0.034603 0.000000 -0.999401 255 255 255 1.000000
0.070081 -0.039592 -0.260410 -0.147375 0.756233 -0.637489 61 102 61 1.000000
0.081818 -0.440068 -0.169653 -0.994643 0.000000 0.103369 255 255 255 1.000000
-0.093397 0.332842 0.726971 0.534726 0.484416 0.692394 121 153 121 1.000000
-0.140640 0.681008 0.603184 -0.949805 0.261828 0.171221 61 102 61 1.000000
0.209659 -0.302479 -0.395562 0.195064 0.500000 0.843771 255 255 255 1.000000
0.318406 -0.267683 -0.427507 -0.974303 0.000000 0.225240 255 255 255 1.000000
-0.033111 0.556751 -0.180487 0.005870 -0.523215 0.852180 121 153 121 1.000000
-0.056058 0.590178 0.197942 0.209593 0.917609 -0.337735 121 153 121 1.000000
0.041745 -0.310715 -0.169131 0.000000 1.000000 0.000000 255 255 255 1.000000
-0.136374 -0.516109 -0.110372 -0.909809 0.000000 0.415027 255 255 255 1.000000
-0.140482 -0.584270 -0.156627 0.000000 -1.000000 0.000000 35 47 66 1.000000
-0.072291 0.614563 0.282353 0.354521 0.928695 -0.108810 121 153 121 1.000000
0.304832 -0.180477 -0.110444 -0.195064 0.500000 -0.843771 255 255 255 1.000000
0.119027 -0.502203 -0.130589 0.000000 -1.000000 0.000000 255 255 255 1.000000
0.050225 0.467172 -0.007854 -0.730355 0.385249 -0.564061 121 153 121 1.000000
0.205204 -0.584270 -0.311354 0.000000 -1.000000 0.000000 35 47 66 1.000000
0.017141 -0.322926 -0.018840 -0.974303 0.000000 0.225240 255 255 255 1.000000
0.000484 -0.509397 -0.048375 -0.288285 0.000000 -0.957545 255 255 255 1.000000
-0.042688 0.605377 0.264742 -0.091300 -0.982565 0.161959 61 102 61 1.000000
0.149124 -0.233012 -0.141379 0.107409 -0.878976 0.464612 61 102 61 1.000000
-0.269050 -0.529559 -0.189707 0.000000 1.000000 0.000000 35 35 35 1.000000
0.016077 -0.138984 -0.289955 0.224437 0.084383 0.970828 255 255 255 1.000000
0.129956 -0.332739 -0.051641 -0.848206 0.000000 -0.529667 255 255 255 1.000000
0.078970 0.450958 -0.135730 -0.977976 -0.078343 0.193458 121 153 121 1.000000
-0.057262 0.106367 -0.284781 0.191716 0.000000 0.981450 255 255 255 1.000000
0.013224 -0.167391 -0.035598 0.350183 0.000000 0.936681 61 102 61 1.000000
-0.064640 -0.511971 -0.267353 -0.281832 0.000000 -0.959464 255 255 255 1.000000
0.132686 -0.584270 0.001344 0.000000 1.000000 0.000000 255 255 255 1.000000
0.412251 0.030585 -0.021571 -0.974303 0.000000 0.225240 255 255 255 1.000000
0.062814 0.543594 -0.128220 -0.836076 -0.297480 0.460958 121 153 121 1.000000
0.322814 -0.249072 -0.353743 -0.112620 0.866025 -0.487152 255 255 255 1.000000
0.046661 -0.440067 -0.048030 0.731151 0.000000 -0.682215 255 255 255 1.000000
0.213291 -0.037676 -0.315441 0.195064 -0.500000 0.843771 255 255 255 1.000000
0.075945 0.342448 -0.185522 -0.946565 -0.060852 0.316720 121 153 121 1.000000
-0.031204 0.570564 0.158471 -0.011144 0.890133 -0.455565 121 153 121 1.000000
-0.176308 -0.584270 -0.200569 0.000000 -1.000000 0.000000 35 47 66 1.000000
-0.118793 0.346156 -0.223462 0.756412 -0.120940 0.642818 121 153 121 1.000000
-0.013846 -0.541091 -0.271211 -0.161872 0.000000 0.986812 255 255 255 1.000000
-0.138741 0.610872 -0.051031 -0.930478 0.251506 -0.266374 61 102 61 1.000000
-0.074757 -0.584270 0.016321 0.000000 1.000000 0.000000 255 255 255 1.000000
0.081796 0.614389 0.635157 0.999061 0.027382 0.033589 61 102 61 1.000000
0.031145 0.775523 0.105910 0.564565 0.765057 -0.309764 61 102 61 1.000000
-0.057110 -0.210294 -0.030083 -0.189586 0.000000 0.981864 61 102 61 1.000000
-0.153894 -0.389941 -0.212669 -0.292088 0.000000 0.956392 255 255 255 1.000000
0.017116 -0.108459 -0.037657 -0.381461 0.000000 -0.924385 255 255 255 1.000000
0.081748 0.631604 0.035189 -0.999526 -0.020600 0.022873 121 153 121 1.000000
-0.021625 -0.314074 0.021513 0.999401 0.000000 0.034603 255 255 255 1.000000
0.099594 -0.572046 0.139341 0.406124 0.000000 0.913818 35 35 35 1.000000
0.331696 -0.210932 -0.370019 0.974303 0.000000 -0.225240 35 47 66 1.000000
-0.020284 -0.106156 -0.279913 -0.221055 0.191870 -0.956201 61 102 61 1.000000
0.047035 0.473364 0.846437 0.697543 0.423116 0.578279 61 102 61 1.000000
0.002619 0.390896 0.724955 0.000000 0.821306 -0.570487 255 255 255 1.000000
0.097886 -0.481531 -0.256106 -0.682215 0.000000 -0.731151 255 255 255 1.000000
-0.142750 -0.134635 -0.225317 -0.852811 0.000000 -0.522220 61 102 61 1.000000
-0.279737 -0.559808 -0.370628 -0.757902 0.000000 -0.652368 35 35 35 1.000000
-0.146490 0.713163 0.205184 -0.999937 0.009814 -0.005464 61 102 61 1.000000
0.035095 0.623055 0.406570 -0.594079 0.785123 0.175080 121 153 121 1.000000
-0.108390 0.675781 -0.039449 -0.672655 0.558248 -0.485689 61 102 61 1.000000
0.021727 -0.448897 -0.019706 -0.882808 0.000000 0.469734 255 255 255 1.000000
0.134034 -0.487103 -0.227077 -0.469734 0.000000 -0.882808 255 255 255 1.000000
-0.190726 -0.584270 -0.385889 0.000000 1.000000 0.000000 255 255 255 1.000000
-0.155982 -0.300795 -0.196074 -0.955152 0.000000 -0.296116 61 102 61 1.000000
-0.145323 0.578052 0.643295 -0.988050 -0.118931 -0.098044 61 102 61 1.000000
0.074705 0.762362 0.379141 -0.935250 -0.351797 -0.039312 121 153 121 1.000000
-0.106690 0.365960 -0.231084 -0.654705 0.156321 -0.739543 61 102 61 1.000000
0.054765 -0.085536 -0.290370 0.209493 -0.367332 0.906190 255 255 255 1.000000
0.071257 0.540318 -0.111177 -0.911035 -0.224174 0.346065 121 153 121 1.000000
0.113552 -0.584270 -0.177911 0.000000 -1.000000 0.000000 35 47 66 1.000000
-0.026345 0.378731 0.735408 0.995368 0.054847 0.078961 121 153 121 1.000000
-0.083413 0.561755 0.809517 -0.449286 0.571111 0.687004 61 102 61 1.000000
0.290333 -0.241499 -0.306041 0.974303 0.000000 -0.225240 35 47 66 1.000000
0.056080 0.610209 0.147294 0.775837 -0.567641 0.275430 61 102 61 1.000000
0.018503 -0.189465 -0.038395 -0.392567 0.000000 -0.919723 255 255 255 1.000000
0.020887 0.329549 -0.250174 -0.469762 -0.152852 0.869460 121 153 121 1.000000
0.175911 -0.518244 -0.204620 0.975649 0.000000 -0.219338 0 0 0 1.000000
0.054221 0.654225 0.695774 0.764946 0.471921 0.438347 61 102 61 1.000000
0.157953 -0.239629 -0.271413 0.974303 0.000000 -0.225240 255 255 255 1.000000
-0.115924 0.381005 -0.052100 -0.738285 -0.239318 0.630605 61 102 61 1.000000
-0.196370 -0.327530 -0.180489 0.034603 0.000000 -0.999401 255 255 255 1.000000
0.098468 -0.448109 -0.256649 -0.682215 0.000000 -0.731151 255 255 255 1.000000
-0.102143 0.785088 0.137185 -0.614455 0.745042 -0.259533 61 102 61 1.000000
0.005955 0.304821 -0.041995 0.337622 -0.168885 0.926007 61 102 61 1.000000
0.373083 -0.021934 -0.069544 -0.974303 0.000000 0.225240 102 102 40 1.000000
0.070124 -0.460463 -0.072800 -0.731151 0.000000 0.682215 255 255 255 1.000000
0.051698 0.452650 0.666816 0.738636 -0.432338 -0.517205 61 102 61 1.000000
-0.030598 0.318896 -0.034909 0.016428 -0.195552 0.980556 61 102 61 1.000000
-0.004180 0.466677 0.864355 0.292088 0.545609 0.785490 255 255 255 1.000000
0.172660 -0.584270 -0.407848 0.000000 -1.000000 0.000000 35 47 66 1.000000
-0.140582 0.579826 0.608855 -0.944170 -0.251352 -0.212992 61 102 61 1.000000
-0.161139 -0.047078 -0.178583 -0.987181 0.000000 -0.159605 61 102 61 1.000000
-0.129001 0.409851 0.810129 -0.999401 0.019740 0.028419 255 255 255 1.000000
-0.145999 0.534156 -0.076005 -0.991261 0.073958 -0.109237 61 102 61 1.000000
0.097365 0.117369 -0.170410 0.995299 0.000000 -0.096849 61 102 61 1.000000
0.198993 -0.230687 -0.435639 0.195064 0.500000 0.843771 255 255 255 1.000000
-0.018862 -0.091085 -0.286712 0.104833 0.000000 -0.994490 61 102 61 1.000000
0.161193 -0.142189 -0.081520 0.223827 -0.111826 0.968192 61 102 61 1.000000
0.095560 -0.584270 -0.424735 0.000000 -1.000000 0.000000 35 47 66 1.000000
-0.004582 -0.310715 0.003175 0.000000 1.000000 0.000000 10 51 10 1.000000
0.141687 -0.209815 -0.341775 0.974303 0.000000 -0.225240 255 255 255 1.000000
0.083249 -0.502649 0.022569 -0.539982 0.000000 -0.841677 255 255 255 1.000000
0.022883 0.455500 0.009502 0.492070 -0.474280 0.730018 61 102 61 1.000000
-0.123946 0.657972 0.328280 0.801265 0.598274 0.006556 121 153 121 1.000000
0.068508 -0.173349 -0.239144 -0.778615 0.000000 0.627503 255 255 255 1.000000
0.279487 -0.236148 -0.137574 -0.195064 0.500000 -0.843771 255 255 255 1.000000
0.089686 -0.093631 -0.114934 -0.943630 0.000000 -0.331003 255 255 255 1.000000
0.110824 -0.529559 -0.390612 0.000000 1.000000 0.000000 35 35 35 1.000000
-0.141939 -0.389468 -0.189615 -0.960224 0.000000 -0.279229 255 255 255 1.000000
0.091585 -0.534407 -0.459009 -0.380755 0.000000 0.924676 255 255 255 1.000000
0.093089 -0.028372 -0.126076 0.969565 0.000000 0.244834 61 102 61 1.000000
0.110604 -0.242884 -0.155306 -0.064768 0.957766 -0.280160 255 255 255 1.000000
-0.162082 -0.034524 -0.151344 0.998771 0.000000 -0.049565 255 255 255 1.000000
-0.201472 -0.573150 -0.435224 0.520257 0.000000 0.854010 255 255 255 1.000000
-0.185807 -0.584270 -0.024664 0.000000 -1.000000 0.000000 35 47 66 1.000000
-0.047359 0.376426 -0.255937 0.131703 -0.214374 0.967832 121 153 121 1.000000
0.265493 -0.584270 -0.218502 0.000000 1.000000 0.000000 255 255 255 1.000000
-0.146522 0.383735 -0.119807 -0.994033 -0.034497 0.103483 61 102 61 1.000000
0.053690 0.713203 0.624970 0.759167 0.545156 0.355625 61 102 61 1.000000
-0.016041 0.803310 0.122453 -0.145479 -0.930347 0.336585 121 153 121 1.000000
0.153623 -0.241210 -0.238443 0.070705 0.949452 0.305845 255 255 255 1.000000
-0.157688 -0.030189 -0.125315 0.968009 0.000000 -0.250917 255 255 255 1.000000
0.070838 0.449976 -0.055047 0.902920 -0.207343 0.376489 61 102 61 1.000000
-0.307437 -0.529559 -0.039852 0.000000 -1.000000 0.000000 255 255 255 1.000000
0.067768 -0.584270 -0.270749 0.000000 -1.000000 0.000000 35 47 66 1.000000
0.177715 -0.273085 -0.405596 -0.195064 -0.500000 -0.843771 35 47 66 1.000000
-0.045361 -0.081751 -0.287532 -0.098988 0.000000 -0.995089 61 102 61 1.000000
-0.173988 -0.310715 -0.265696 0.000000 -1.000000 0.000000 255 255 255 1.000000
0.004929 0.765882 0.051292 -0.332495 -0.836224 0.436091 121 153 121 1.000000
0.029627 -0.496264 -0.061665 0.542578 0.000000 0.840006 255 255 255 1.000000
-0.185660 -0.383391 -0.222370 -0.292088 0.000000 0.956392 255 255 255 1.000000
-0.105991 0.100176 -0.265145 -0.565079 0.000000 -0.825037 61 102 61 1.000000
-0.090597 -0.313757 -0.333690 0.974303 0.000000 -0.225240 255 255 255 1.000000
-0.021840 0.523860 0.850061 -0.093719 -0.609161 -0.787489 121 153 121 1.000000
0.211483 -0.529559 -0.068391 0.000000 -1.000000 0.000000 255 255 255 1.000000
0.247696 -0.306897 -0.401738 0.195064 0.500000 0.843771 255 255 255 1.000000
0.252148 -0.553379 -0.313350 0.877460 0.000000 -0.479650 35 35 35 1.000000
-0.010873 -0.421214 -0.289013 -0.999401 0.000000 -0.034603 255 255 255 1.000000
-0.097048 0.486761 -0.198047 -0.568697 0.341181 -0.748451 61 102 61 1.000000
-0.088814 -0.480612 -0.325978 -0.974303 0.000000 0.225240 255 255 255 1.000000
0.061868 0.282011 -0.087288 0.828917 -0.091761 0.551794 61 102 61 1.000000
0.354980 -0.030191 -0.170540 -0.112620 0.866025 -0.487152 35 47 66 1.000000
0.090009 -0.042288 -0.115990 0.946420 0.000000 0.322940 61 102 61 1.000000
-0.201634 -0.452749 -0.253072 -0.848206 0.000000 -0.529667 10 51 10 1.000000
-0.146208 0.420801 0.766014 -0.992482 -0.075325 -0.096465 61 102 61 1.000000
0.043829 0.805171 0.256123 -0.673262 -0.733682 0.091811 121 153 121 1.000000
-0.016385 -0.333265 -0.044475 -0.140418 0.000000 -0.990092 255 255 255 1.000000
0.004905 -0.584270 0.156117 0.000000 1.000000 0.000000 255 255 255 1.000000
-0.018899 0.331336 -0.030897 -0.119799 0.227198 -0.966452 121 153 121 1.000000
0.005963 0.447313 0.633116 -0.337299 0.609839 0.717165 121 153 121 1.000000
-0.006121 -0.584270 0.135031 0.000000 -1.000000 0.000000 35 47 66 1.000000
-0.003083 0.452854 -0.226084 0.261857 0.341427 -0.902695 61 102 61 1.000000
-0.211979 -0.456910 -0.133750 0.225240 0.000000 0.974303 255 255 255 1.000000
0.075608 -0.297565 -0.086659 -0.835327 0.000000 -0.549753 255 255 255 1.000000
-0.146697 0.302689 -0.145652 -0.999136 -0.012583 0.039599 61 102 61 1.000000
-0.135375 0.340064 -0.198825 -0.899622 0.079477 -0.429375 61 102 61 1.000000
-0.177432 -0.323408 -0.061350 0.469734 0.000000 0.882808 255 255 255 1.000000
0.148629 -0.010068 -0.203012 0.007034 -0.999512 0.030424 255 255 255 1.000000
-0.173253 -0.310715 -0.171118 0.000000 -1.000000 0.000000 255 255 255 1.000000
-0.122131 -0.326207 -0.290068 0.882808 0.000000 -0.469734 255 255 255 1.000000
-0.151568 -0.529559 0.097902 0.000000 -1.000000 0.000000 255 255 255 1.000000
-0.204841 -0.529559 0.067431 0.000000 1.000000 0.000000 35 35 35 1.000000
-0.090919 0.522636 -0.184623 -0.516923 0.406868 -0.753160 61 102 61 1.000000
-0.134316 -0.584270 -0.342641 0.000000 -1.000000 0.000000 35 47 66 1.000000
-0.105475 0.484927 0.845553 -0.640973 0.456439 0.617103 61 102 61 1.000000
-0.132692 -0.300652 -0.075636 0.773469 0.000000 -0.633834 255 255 255 1.000000
-0.203383 -0.420210 -0.066073 -0.882808 0.000000 0.469734 10 51 10 1.000000
0.036643 0.702861 -0.016267 0.610373 0.635860 -0.472364 61 102 61 1.000000
-0.146718 -0.526384 -0.152404 0.998896 0.000000 -0.046974 255 255 255 1.000000
-0.108338 -0.310715 -0.051623 0.000000 -1.000000 0.000000 255 255 255 1.000000
0.011387 -0.038591 -0.035174 -0.336701 0.000000 -0.941612 255 255 255 1.000000
0.112743 -0.584270 -0.229177 0.000000 1.000000 0.000000 255 255 255 1.000000
0.003610 -0.248962 -0.033376 0.278434 0.000000 0.960455 61 102 61 1.000000
0.025057 0.825318 0.305810 0.508989 0.860432 -0.024236 61 102 61 1.000000
-0.206282 -0.322511 -0.100116 0.225240 0.000000 0.974303 255 255 255 1.000000
0.086316 -0.381757 -0.291885 -0.682215 0.000000 -0.731151 255 255 255 1.000000
0.071928 -0.189323 -0.080765 -0.804690 0.000000 -0.593696 255 255 255 1.000000
-0.234196 -0.584270 -0.152262 0.000000 -1.000000 0.000000 35 47 66 1.000000
0.186198 -0.584270 -0.342940 0.000000 -1.000000 0.000000 35 47 66 1.000000
0.275270 -0.258823 -0.436600 0.195064 0.500000 0.843771 255 255 255 1.000000
-0.140346 0.651730 0.489513 -0.941171 -0.313112 -0.127111 61 102 61 1.000000
-0.127592 -0.584270 -0.370073 0.000000 -1.000000 0.000000 35 47 66 1.000000
0.078466 -0.467485 -0.130635 -0.971340 0.000000 -0.237694 255 255 255 1.000000
0.198182 -0.584270 -0.271872 0.000000 -1.000000 0.000000 35 47 66 1.000000
0.045898 0.426445 0.824085 0.000000 0.821306 -0.570487 255 255 255 1.000000
0.054898 -0.502203 0.025367 0.000000 1.000000 0.000000 0 0 0 1.000000
0.133485 -0.584270 -0.087960 0.000000 1.000000 0.000000 255 255 255 1.000000
0.043540 -0.459669 -0.051204 -0.882808 0.000000 0.469734 255 255 255 1.000000
-0.279840 -0.529559 -0.017510 0.000000 -1.000000 0.000000 255 255 255 1.000000
-0.086288 0.622834 0.350663 0.477293 0.876238 0.066324 121 153 121 1.000000
0.014887 -0.231443 -0.278544 0.364963 0.000000 -0.931022 61 102 61 1.000000
-0.051494 -0.584270 -0.308675 0.000000 1.000000 0.000000 255 255 255 1.000000
0.075815 -0.432631 -0.121956 -0.949386 0.000000 -0.314111 255 255 255 1.000000
-0.159143 -0.270671 -0.185725 -0.976521 0.000000 -0.215422 61 102 61 1.000000
0.035560 -0.584270 0.015600 0.000000 -1.000000 0.000000 35 47 66 1.000000
0.071681 0.759585 0.440603 0.913643 0.395690 0.093199 61 102 61 1.000000
-0.025568 0.044974 -0.028134 -0.053038 0.000000 -0.998592 255 255 255 1.000000
0.095879 -0.058833 -0.176835 -0.989152 0.000000 0.146894 255 255 255 1.000000
0.058718 0.151574 -0.249636 0.704448 0.000000 -0.709756 61 102 61 1.000000
0.126743 -0.316305 -0.078440 -0.529667 0.000000 0.848206 255 255 255 1.000000
-0.122160 -0.132864 -0.250957 -0.693554 0.000000 -0.720405 61 102 61 1.000000
-0.216915 -0.422923 -0.217887 -0.956392 0.000000 -0.292088 10 51 10 1.000000
-0.248766 -0.584270 -0.030087 0.000000 1.000000 0.000000 255 255 255 1.000000
-0.005529 -0.284501 -0.031263 0.208152 0.000000 0.978096 61 102 61 1.000000
0.006371 0.082702 -0.281145 0.300192 0.000000 -0.953879 61 102 61 1.000000
-0.066435 -0.529559 -0.447668 0.000000 -1.000000 0.000000 255 255 255 1.000000
0.001947 -0.584270 -0.208761 0.000000 -1.000000 0.000000 35 47 66 1.000000
0.001312 -0.036491 -0.098832 -0.974303 0.000000 0.225240 255 255 255 1.000000
0.081889 0.550854 0.702136 0.997827 0.043229 0.049720 61 102 61 1.000000
-0.069993 -0.500016 0.023432 -0.956392 0.000000 -0.292088 255 255 255 1.000000
-0.141278 -0.310715 -0.297862 0.000000 -1.000000 0.000000 255 255 255 1.000000
0.412946 -0.007975 0.054025 -0.112620 0.866025 -0.487152 255 255 255 1.000000
-0.049169 0.610070 0.350223 0.148138 0.986300 0.072582 121 153 121 1.000000
0.002110 0.813983 0.158910 0.305951 0.914270 -0.265525 61 102 61 1.000000
0.006729 0.509064 0.852462 -0.344887 -0.568140 -0.747174 121 153 121 1.000000
-0.145183 0.659886 0.124181 -0.987194 -0.148286 0.058809 61 102 61 1.000000
0.335490 -0.236962 -0.335146 -0.112620 0.866025 -0.487152 255 255 255 1.000000
-0.062177 -0.175453 -0.031630 -0.229345 0.000000 0.973345 61 102 61 1.000000
-0.037849 0.327067 0.728965 -0.000000 -0.821306 0.570487 121 153 121 1.000000
0.075840 -0.535120 -0.195512 -0.944315 0.000000 0.329044 255 255 255 1.000000
0.081202 0.704072 0.409728 -0.994480 0.103972 0.014122 121 153 121 1.000000
-0.145889 -0.413029 -0.176351 -0.986859 0.000000 -0.161586 255 255 255 1.000000
-0.128715 -0.515789 -0.348469 0.450639 0.000000 0.892706 255 255 255 1.000000
-0.140995 0.293965 -0.114195 0.948289 0.054162 -0.312752 121 153 121 1.000000
0.292986 -0.540761 -0.189961 -0.995146 0.000000 0.098414 255 255 255 1.000000
0.109117 -0.584270 -0.394712 0.000000 -1.000000 0.000000 35 47 66 1.000000
0.176131 -0.584270 0.017824 0.000000 -1.000000 0.000000 35 47 66 1.000000
-0.032866 -0.541660 0.166729 0.001272 0.000000 -0.999999 255 255 255 1.000000
0.056802 0.763754 0.136955 0.785873 0.579044 -0.217054 61 102 61 1.000000
-0.144878 0.745169 0.364003 -0.981702 0.189300 0.020642 61 102 61 1.000000
0.000588 0.056365 -0.048399 -0.350485 0.000000 -0.936568 121 153 121 1.000000
0.245707 -0.260082 -0.149283 0.000000 -1.000000 0.000000 35 47 66 1.000000
0.252973 -0.529559 -0.046817 0.000000 1.000000 0.000000 35 35 35 1.000000
-0.075166 0.609675 0.406529 0.378079 0.902239 0.207417 121 153 121 1.000000
-0.116671 -0.446629 -0.055058 0.848206 0.000000 0.529667 255 255 255 1.000000
0.023593 -0.338086 -0.016199 0.882808 0.000000 -0.469734 255 255 255 1.000000
0.041981 0.783890 0.503872 -0.654266 -0.716713 -0.241368 121 153 121 1.000000
0.036641 0.676872 -0.047864 -0.610742 -0.600879 0.515692 121 153 121 1.000000
0.405375 0.026029 -0.051314 -0.974303 0.000000 0.225240 255 255 255 1.000000
-0.142544 -0.084219 -0.225648 0.851236 0.000000 0.524783 255 255 255 1.000000
0.308071 -0.197912 -0.229310 -0.974303 0.000000 0.225240 255 255 255 1.000000
0.087823 -0.270337 -0.108833 -0.926246 0.000000 -0.376919 255 255 255 1.000000
0.029366 0.741994 0.620571 -0.546235 -0.718456 -0.430637 121 153 121 1.000000
0.037249 0.484768 0.019110 -0.615000 0.489258 -0.618387 121 153 121 1.000000
-0.119428 0.599611 0.124555 -0.766637 -0.561835 0.310821 61 102 61 1.000000
0.326236 -0.176693 -0.393640 0.974303 0.000000 -0.225240 35 47 66 1.000000
0.076691 0.320741 -0.183516 0.955370 0.049866 -0.291172 61 102 61 1.000000
0.029166 0.563753 0.800706 0.543702 0.533448 0.647936 61 102 61 1.000000
-0.097341 0.373739 0.727368 -0.731151 -0.389195 -0.560308 255 255 255 1.000000
0.002612 0.410314 0.800068 0.974303 0.128497 0.184991 121 153 121 1.000000
-0.081901 0.763482 0.589036 -0.439344 0.800074 0.408482 61 102 61 1.000000
-0.077214 -0.529559 -0.379383 0.000000 1.000000 0.000000 35 35 35 1.000000
-0.125199 -0.502172 0.012994 -0.529667 0.000000 0.848206 10 51 10 1.000000
-0.162734 -0.584270 -0.138550 0.000000 -1.000000 0.000000 35 47 66 1.000000
-0.123148 -0.566657 -0.087860 -0.791982 0.000000 0.610545 255 255 255 1.000000
-0.008446 -0.407863 0.021663 0.974303 0.000000 -0.225240 255 255 255 1.000000
-0.092278 -0.027644 -0.272442 -0.462561 0.000000 -0.886588 61 102 61 1.000000
-0.007829 -0.099647 -0.138372 -0.974303 0.000000 0.225240 255 255 255 1.000000
0.077598 0.499981 -0.044488 -0.965980 0.157894 -0.204824 121 153 121 1.000000
0.070011 -0.584270 -0.189199 0.000000 -1.000000 0.000000 35 47 66 1.000000
0.001480 0.159237 -0.282639 -0.262258 0.000000 0.964998 255 255 255 1.000000
0.062260 0.711853 0.036467 -0.828265 -0.476585 0.294692 121 153 121 1.000000
0.032182 -0.529559 0.143925 0.000000 1.000000 0.000000 35 35 35 1.000000
-0.035588 0.356036 0.722720 -0.000000 -0.821306 0.570487 121 153 121 1.000000
0.127822 -0.547437 0.124321 0.493992 0.000000 0.869466 35 35 35 1.000000
-0.180190 -0.502203 -0.273345 0.000000 1.000000 0.000000 255 255 255 1.000000
0.070534 -0.412335 -0.073393 0.529667 0.000000 -0.848206 255 255 255 1.000000
0.089120 -0.584270 -0.136120 0.000000 1.000000 0.000000 255 255 255 1.000000
-0.174197 -0.423731 -0.284730 -0.731151 0.000000 0.682215 255 255 255 1.000000
-0.068646 0.587763 0.464350 0.322691 0.872225 0.367552 121 153 121 1.000000
0.036198 0.312944 -0.057824 0.602183 -0.147230 0.784665 61 102 61 1.000000
-0.155688 0.096853 -0.116664 -0.948602 0.000000 0.316471 61 102 61 1.000000
-0.034479 -0.525557 -0.043769 -0.017762 0.000000 0.999842 255 255 255 1.000000
0.000232 -0.177780 -0.103501 0.974303 0.000000 -0.225240 255 255 255 1.000000
-0.146140 0.688524 0.115106 0.995168 -0.083765 0.051218 121 153 121 1.000000
-0.132943 -0.329071 -0.040726 0.682215 0.000000 0.731151 255 255 255 1.000000
0.075068 -0.529559 0.133469 0.000000 1.000000 0.000000 35 35 35 1.000000
-0.026709 -0.174384 -0.270787 -0.207982 -0.383892 -0.899650 61 102 61 1.000000
-0.146097 0.057030 -0.219959 -0.877265 0.000000 -0.480006 61 102 61 1.000000
-0.090154 0.804271 0.485017 0.509475 -0.826534 -0.239326 121 153 121 1.000000
0.076136 -0.105201 -0.229018 0.836121 0.000000 -0.548544 61 102 61 1.000000
-0.237997 -0.584270 -0.322664 0.000000 -1.000000 0.000000 35 47 66 1.000000
0.062678 0.768964 0.167620 -0.832964 -0.530032 0.158864 121 153 121 1.000000
-0.109795 -0.584270 0.093372 0.000000 -1.000000 0.000000 35 47 66 1.000000
0.140123 -0.497010 -0.246386 -0.882808 0.000000 0.469734 255 255 255 1.000000
-0.044490 0.602564 0.243985 -0.106933 -0.970155 0.217636 61 102 61 1.000000
-0.029928 -0.061679 -0.233960 0.974303 0.000000 -0.225240 255 255 255 1.000000
-0.120655 -0.584270 -0.073879 0.000000 1.000000 0.000000 255 255 255 1.000000
-0.268797 -0.584270 0.029111 0.000000 -1.000000 0.000000 35 47 66 1.000000
0.038674 0.365170 -0.234881 -0.624425 -0.162593 0.763974 121 153 121 1.000000
0.154974 -0.521851 -0.054724 -0.876278 0.000000 -0.481806 255 255 255 1.000000
0.028651 0.578066 0.515189 0.539197 -0.728272 -0.422951 61 102 61 1.000000
-0.085710 -0.204405 -0.038818 -0.408609 0.000000 0.912710 61 102 61 1.000000
-0.045390 0.557286 0.517910 -0.114318 -0.841619 -0.527834 61 102 61 1.000000
0.142498 -0.242009 -0.159448 0.070664 -0.949513 0.305666 61 102 61 1.000000
0.061478 0.590889 0.553881 -0.826373 0.471413 0.308022 121 153 121 1.000000
-0.103291 0.563176 0.099536 0.624089 0.635370 -0.454773 121 153 121 1.000000
-0.012960 -0.113261 -0.160565 -0.974303 0.000000 0.225240 255 255 255 1.000000
0.155425 -0.529559 0.072752 0.000000 -1.000000 0.000000 255 255 255 1.000000
-0.037150 0.606290 0.374476 0.041971 0.989119 0.141003 121 153 121 1.000000
0.148535 -0.584270 -0.030223 0.000000 -1.000000 0.000000 35 47 66 1.000000
-0.030361 0.362848 0.684462 -0.017974 0.598480 0.800936 121 153 121 1.000000
-0.053383 -0.519252 -0.372132 0.097178 0.000000 0.995267 255 255 255 1.000000
0.053534 0.382079 -0.213154 0.758498 0.155424 -0.632870 61 102 61 1.000000
-0.196437 -0.368058 -0.225662 -0.292088 0.000000 0.956392 255 255 255 1.000000
0.216897 -0.232871 -0.438484 0.195064 0.500000 0.843771 255 255 255 1.000000
0.005356 -0.123676 -0.081336 -0.974303 0.000000 0.225240 255 255 255 1.000000
-0.141254 -0.399080 -0.015691 -0.848206 0.000000 -0.529667 255 255 255 1.000000
-0.078322 0.714118 -0.023791 0.407022 -0.735102 0.542179 121 153 121 1.000000
0.216848 -0.529559 -0.151004 0.000000 1.000000 0.000000 35 35 35 1.000000
-0.280532 -0.529559 0.040974 0.000000 1.000000 0.000000 35 35 35 1.000000
-0.009777 -0.467566 -0.320666 0.999401 0.000000 0.034603 255 255 255 1.000000
-0.146112 0.608104 0.654102 0.994424 -0.070063 -0.078817 121 153 121 1.000000
-0.070264 -0.123161 -0.281775 -0.291668 0.000000 -0.956520 61 102 61 1.000000
-0.027166 0.816126 0.496464 -0.046921 -0.955746 -0.290427 121 153 121 1.000000
0.097339 0.155334 -0.168955 -0.996312 0.000000 0.085803 255 255 255 1.000000
-0.111442 0.756380 0.553911 -0.699348 0.647541 0.302662 61 102 61 1.000000
0.183357 -0.529559 -0.046877 0.000000 1.000000 0.000000 35 35 35 1.000000
0.067734 0.727797 0.549848 -0.882143 -0.420580 -0.211981 121 153 121 1.000000
-0.198239 -0.355795 -0.190607 0.292088 0.000000 -0.956392 255 255 255 1.000000
-0.098240 0.405687 0.680054 0.578614 0.501409 0.643268 121 153 121 1.000000
0.065345 -0.584270 -0.028188 0.000000 1.000000 0.000000 255 255 255 1.000000
0.138910 -0.361497 -0.229671 -0.469734 0.000000 -0.882808 255 255 255 1.000000
-0.145326 0.705926 0.292431 0.987958 0.154590 -0.006358 121 153 121 1.000000
0.222151 -0.283052 -0.409963 -0.195064 -0.500000 -0.843771 35 47 66 1.000000
-0.014599 -0.020370 -0.209477 -0.089107 0.918419 -0.385444 61 102 61 1.000000
-0.100670 0.806915 0.218298 0.601285 -0.785408 0.146936 121 153 121 1.000000
-0.007104 0.610707 0.362694 -0.226255 0.968022 0.108360 121 153 121 1.000000
-0.021623 -0.471076 0.021455 0.999401 0.000000 0.034603 255 255 255 1.000000
0.205483 -0.583643 -0.378175 -0.733628 0.000000 0.679552 255 255 255 1.000000
0.063539 0.656309 0.674476 0.843323 0.404277 0.354071 61 102 61 1.000000
0.034996 0.064447 -0.268131 -0.521514 0.000000 0.853243 255 255 255 1.000000
-0.130672 0.657102 0.232932 0.864201 0.492332 -0.103754 121 153 121 1.000000
0.130090 -0.529559 -0.343776 0.000000 1.000000 0.000000 35 35 35 1.000000
-0.154285 -0.131286 -0.201632 -0.940899 0.000000 -0.338687 61 102 61 1.000000
0.408799 -0.032893 -0.036503 0.974303 0.000000 -0.225240 102 102 40 1.000000
0.035518 0.628448 0.370520 0.599351 -0.794307 -0.099272 61 102 61 1.000000
0.149477 -0.403386 -0.182361 0.225240 0.000000 0.974303 255 255 255 1.000000
-0.107072 0.488308 0.630197 0.653839 0.503246 0.565012 121 153 121 1.000000
0.029676 -0.210201 -0.044340 0.480370 0.000000 0.877066 61 102 61 1.000000
-0.008520 -0.450536 0.021342 -0.974303 0.000000 0.225240 255 255 255 1.000000
0.000350 -0.039215 -0.243831 0.146532 -0.759456 0.633842 255 255 255 1.000000
-0.142474 0.375919 -0.103979 -0.965434 -0.083907 0.246772 61 102 61 1.000000
0.020622 0.464388 0.851861 -0.529667 -0.483890 -0.696637 121 153 121 1.000000
-0.195136 -0.435093 -0.137644 0.225240 0.000000 0.974303 255 255 255 1.000000
-0.129177 -0.450398 -0.035030 -0.848206 0.000000 -0.529667 255 255 255 1.000000
-0.118433 -0.310715 -0.094927 0.000000 -1.000000 0.000000 255 255 255 1.000000
-0.005674 -0.124219 -0.129047 -0.974303 0.000000 0.225240 255 255 255 1.000000
-0.138052 -0.456785 -0.020818 0.848206 0.000000 0.529667 255 255 255 1.000000
-0.112279 0.724594 0.025605 -0.703630 0.602341 -0.376947 61 102 61 1.000000
0.081520 -0.354332 -0.308149 -0.848206 0.000000 -0.529667 255 255 255 1.000000
-0.060005 0.762637 0.610432 -0.244898 0.847700 0.470563 61 102 61 1.000000
0.070360 -0.390172 -0.107175 0.897217 0.000000 0.441591 255 255 255 1.000000
-0.113396 0.634091 0.418256 -0.714498 -0.680328 -0.163238 61 102 61 1.000000
0.315791 -0.230245 -0.195919 0.974303 0.000000 -0.225240 35 47 66 1.000000
0.047844 -0.150026 -0.055818 -0.618714 0.000000 -0.785617 255 255 255 1.000000
0.102736 -0.057387 -0.285245 -0.179318 0.605139 -0.775662 61 102 61 1.000000
