ply
format ascii 1.0
element vertex 1254
property float x
property float y
property float z
property uchar red
property uchar green
property uchar blue
end_header
0.377864 -0.482150 -0.064925 0 127 127
-0.536430 -0.479380 0.005048 127 127 0
0.019328 -0.437988 -0.161320 0 255 0
0.015624 0.467106 -0.110414 153 0 76
0.682019 -0.151106 -0.095290 76 153 0
0.042847 -0.453407 -0.005182 0 255 0
0.459805 -0.232490 -0.074038 76 153 0
0.032674 0.103821 -0.060378 153 0 76
-0.503351 -0.485139 0.054937 127 127 0
-0.483300 -0.235477 -0.044149 127 0 127
-0.018433 -0.293662 -0.024031 0 255 0
-0.036017 0.434665 0.522543 0 0 255
0.006559 0.859021 0.356252 153 0 76
-0.530884 -0.479237 -0.165562 127 127 0
-0.029658 0.339503 -0.082006 153 0 76
0.436471 -0.479750 -0.001416 0 127 127
-0.001575 -0.191771 -0.032561 0 255 0
-0.495883 -0.434405 0.004375 127 0 127
0.015103 0.883799 0.431698 153 0 76
0.397220 -0.154218 -0.117015 76 153 0
0.464970 -0.339808 -0.018911 76 153 0
0.507099 -0.468735 -0.162168 76 153 0
0.528329 -0.457267 -0.157311 76 153 0
0.036599 0.211971 -0.071444 153 0 76
0.034452 -0.152440 -0.063491 153 0 76
0.381151 -0.482214 -0.045875 0 127 127
-0.061582 -0.370781 -0.057525 0 255 0
-0.539961 -0.482155 0.029032 127 127 0
0.037464 0.378981 -0.074626 153 0 76
0.377935 -0.154010 -0.088258 76 153 0
-0.565550 -0.166590 -0.074941 0 127 127
0.601745 -0.480618 -0.093861 0 127 127
-0.027976 0.652832 0.505510 153 0 76
-0.378580 -0.124939 -0.117410 0 127 127
-0.469480 -0.117448 -0.092704 0 127 127
0.694015 -0.106870 -0.085623 76 153 0
-0.016105 -0.284999 -0.024146 0 255 0
0.460049 -0.148822 -0.085126 76 153 0
-0.779004 -0.125485 -0.050631 0 127 127
-0.006829 0.566407 0.488740 204 51 127
0.386484 -0.483457 -0.148232 0 127 127
0.498935 -0.469196 0.005464 76 153 0
-0.539288 -0.483622 0.042709 127 127 0
0.037570 0.677356 -0.075319 153 0 76
0.719776 -0.151554 -0.069629 76 153 0
0.038892 -0.385564 -0.017534 0 255 0
-0.508096 -0.149392 -0.075740 0 127 127
0.024722 0.068664 -0.105694 153 0 76
0.511833 -0.345550 -0.146591 76 153 0
-0.662310 -0.157670 -0.082303 0 127 127
0.003891 0.227111 -0.113505 153 0 76
-0.019962 0.944361 0.141542 153 0 76
0.454858 -0.209933 -0.067789 76 153 0
0.074500 -0.396067 -0.070446 0 255 0
0.510713 -0.235152 -0.109904 76 153 0
0.005204 -0.007696 -0.113304 153 0 76
0.035297 0.460922 0.557858 0 0 255
-0.401191 -0.120698 -0.041732 0 127 127
0.061679 -0.477861 -0.201879 255 0 0
0.035165 -0.239027 -0.121355 0 255 0
-0.745986 -0.140306 -0.095845 0 127 127
-0.027887 0.923224 0.118943 153 0 76
0.034037 0.614449 0.535223 153 0 76
0.612534 -0.486175 -0.159353 0 127 127
-0.042381 -0.332681 -0.124211 0 255 0
-0.369721 -0.123489 -0.096288 0 127 127
0.024977 0.653960 0.488115 153 0 76
0.579265 -0.438448 -0.087896 76 153 0
-0.025396 0.566307 0.557072 204 51 127
0.049594 -0.314363 -0.121906 0 255 0
-0.000887 0.964163 0.231682 153 0 76
0.461769 -0.470797 -0.157655 76 153 0
0.643814 -0.149611 -0.056166 76 153 0
0.086901 -0.434251 -0.087159 0 255 0
0.028021 -0.276425 -0.131520 0 255 0
0.034527 0.713008 -0.080278 153 0 76
-0.464886 -0.185499 -0.074142 127 0 127
0.101761 -0.475613 -0.159957 255 0 0
0.642801 -0.135577 -0.049856 76 153 0
0.066290 -0.338822 -0.096019 0 255 0
0.026171 0.489817 -0.104197 153 0 76
-0.053481 -0.350687 -0.046103 0 255 0
-0.093502 -0.467433 -0.104026 255 0 0
-0.028728 -0.051234 -0.085438 153 0 76
-0.061981 -0.378219 -0.103104 0 255 0
-0.022098 0.450416 0.499966 0 0 255
-0.012598 0.827032 0.406718 153 0 76
-0.012737 0.960990 0.260933 153 0 76
-0.492501 -0.180402 -0.061552 127 0 127
0.401515 -0.174632 -0.083469 76 153 0
-0.016807 0.606332 -0.052801 153 0 76
0.033591 -0.290713 -0.130029 0 255 0
0.029036 -0.011677 -0.101391 153 0 76
0.363874 -0.483959 -0.065673 0 127 127
0.045483 0.526891 0.546612 204 51 127
-0.003016 0.696165 -0.100740 153 0 76
0.496873 -0.230766 -0.041813 76 153 0
-0.464076 -0.449622 -0.159785 127 0 127
0.023313 0.306706 -0.051055 153 0 76
-0.024318 0.498525 -0.097864 153 0 76
0.477297 -0.456270 -0.160796 76 153 0
0.498462 -0.325939 -0.142031 76 153 0
0.715694 -0.143499 -0.097969 76 153 0
0.014085 0.877165 0.441233 153 0 76
0.012142 0.594269 0.487322 153 0 76
0.038620 0.637407 -0.078137 153 0 76
-0.027136 0.511221 -0.091280 153 0 76
-0.818000 -0.113235 -0.071447 0 127 127
-0.017737 0.884499 0.110315 153 0 76
-0.490374 -0.451886 0.005519 127 0 127
-0.365598 -0.482529 -0.066505 127 127 0
0.484372 -0.162733 -0.100858 76 153 0
-0.560264 -0.481354 -0.163681 127 127 0
-0.027585 0.471247 -0.068502 153 0 76
-0.125128 -0.477931 -0.120207 255 0 0
-0.520708 -0.365305 -0.148647 127 0 127
-0.581528 -0.155694 -0.103697 0 127 127
0.006123 0.550957 0.569949 204 51 127
-0.028583 0.925209 0.134023 153 0 76
-0.061477 -0.367557 -0.098954 0 255 0
-0.425575 -0.322201 -0.077527 127 0 127
0.012925 0.719282 -0.031696 153 0 76
-0.023176 0.906126 0.053135 153 0 76
-0.027930 0.275930 -0.088359 153 0 76
-0.053105 -0.286603 -0.067786 0 255 0
0.031103 0.896635 0.395256 153 0 76
-0.001562 -0.281988 -0.136722 0 255 0
0.068241 -0.476543 -0.190496 255 0 0
-0.452707 -0.365577 -0.147804 127 0 127
0.034819 0.842612 0.023170 153 0 76
0.453617 -0.396340 -0.006320 76 153 0
0.640072 -0.123150 -0.107814 76 153 0
-0.030351 0.473903 -0.079454 153 0 76
0.569540 -0.107039 -0.051311 76 153 0
-0.028233 0.574836 0.529763 153 0 76
0.022826 -0.268823 -0.132458 0 255 0
0.063520 -0.491683 0.044865 255 0 0
-0.837153 -0.121301 -0.062723 0 127 127
0.560154 -0.103400 -0.067605 76 153 0
0.065844 -0.485031 -0.201845 255 0 0
-0.038859 0.513805 0.511866 204 51 127
-0.466700 -0.484732 -0.210950 127 127 0
0.520907 -0.254849 -0.051046 76 153 0
0.036526 0.036759 -0.086987 153 0 76
-0.014660 0.884152 0.315394 153 0 76
-0.059843 -0.340341 -0.090145 0 255 0
0.038056 0.849453 0.005047 153 0 76
0.506468 -0.264836 -0.118552 76 153 0
0.437097 -0.396635 -0.017941 76 153 0
-0.019113 -0.097333 -0.055020 153 0 76
0.467463 -0.221514 -0.043042 76 153 0
-0.125664 -0.484486 -0.032076 255 0 0
0.133798 -0.475449 -0.074057 255 0 0
0.029632 0.460887 -0.100751 153 0 76
-0.746271 -0.149307 -0.084772 0 127 127
0.034773 0.902414 0.303400 153 0 76
0.025382 0.684492 0.535117 153 0 76
0.035014 0.638203 0.529518 153 0 76
-0.008338 0.792588 0.003566 153 0 76
-0.055960 -0.316035 -0.063617 0 255 0
0.476970 -0.113573 -0.087060 76 153 0
-0.369721 -0.144090 -0.078209 0 127 127
-0.018755 0.359989 -0.103428 153 0 76
0.575516 -0.467457 -0.105375 76 153 0
-0.065745 -0.389913 -0.091602 0 255 0
0.050365 -0.384133 -0.132594 0 255 0
0.000541 0.898096 0.252110 153 0 76
-0.519409 -0.488493 -0.219008 127 127 0
0.538771 -0.338694 -0.027191 76 153 0
0.043374 -0.272464 -0.038153 0 255 0
0.556730 -0.345249 -0.045739 76 153 0
-0.367225 -0.483488 -0.040547 127 127 0
0.412193 -0.386696 -0.086342 76 153 0
-0.481588 -0.478826 -0.172541 127 127 0
-0.026233 0.910337 0.368681 153 0 76
-0.447203 -0.137714 -0.096835 0 127 127
-0.481567 -0.205390 -0.041501 127 0 127
-0.459759 -0.106531 -0.084051 0 127 127
0.008058 0.964443 0.181403 153 0 76
-0.013532 0.756261 0.522154 153 0 76
0.464895 -0.275286 -0.111862 76 153 0
-0.026093 -0.318403 -0.024373 0 255 0
0.017720 0.561505 0.566177 204 51 127
0.386302 -0.492085 -0.171372 0 127 127
-0.010925 -0.137759 -0.109552 153 0 76
0.575458 -0.403602 -0.054350 76 153 0
0.063855 -0.420200 -0.124002 0 255 0
-0.783758 -0.117640 -0.098418 0 127 127
0.393707 -0.153728 -0.040659 76 153 0
-0.514046 -0.249199 -0.055793 127 0 127
-0.010656 -0.240409 -0.028268 0 255 0
-0.026998 0.418586 -0.066343 153 0 76
-0.021238 0.730173 -0.083897 153 0 76
-0.564828 -0.408964 -0.044260 127 0 127
-0.019605 0.308569 -0.055563 153 0 76
-0.473412 -0.396876 0.003654 127 0 127
0.013267 0.769711 -0.009859 153 0 76
-0.479036 -0.144859 -0.043709 0 127 127
-0.529131 -0.210665 -0.068851 127 0 127
0.028918 0.776111 -0.069143 153 0 76
-0.023715 0.520017 0.562309 204 51 127
-0.428027 -0.326639 -0.056809 127 0 127
0.450620 -0.276396 -0.082678 76 153 0
-0.557937 -0.483159 0.020951 127 127 0
0.036046 0.851635 0.406922 153 0 76
0.577510 -0.434621 -0.060789 76 153 0
0.676854 -0.156202 -0.086697 76 153 0
0.031238 -0.185774 -0.059518 0 255 0
0.530935 -0.484652 -0.213243 0 127 127
0.034083 0.853514 -0.013827 153 0 76
0.036799 -0.078910 -0.085977 153 0 76
-0.670092 -0.125782 -0.053248 0 127 127
-0.410177 -0.120175 -0.110019 0 127 127
-0.516407 -0.312220 -0.129005 127 0 127
-0.014949 0.344936 -0.050918 153 0 76
-0.006797 0.320282 -0.047533 153 0 76
0.504497 -0.116333 -0.066809 76 153 0
-0.037853 -0.458775 -0.006137 0 255 0
0.465803 -0.482714 -0.198417 0 127 127
-0.369824 -0.124612 -0.108588 0 127 127
-0.023119 0.438123 0.501666 0 0 255
-0.006914 0.516755 0.482419 204 51 127
0.036879 0.725587 -0.069336 153 0 76
-0.027692 -0.226981 -0.119085 0 255 0
0.834030 -0.138475 -0.061452 76 153 0
0.005204 0.433111 0.576051 0 0 255
0.036286 0.940029 0.241232 153 0 76
0.461977 -0.141277 -0.062803 76 153 0
-0.845934 -0.123651 -0.078100 0 127 127
0.006215 0.458839 0.485664 204 51 127
-0.527257 -0.125306 -0.097102 0 127 127
0.429981 -0.335952 -0.087201 76 153 0
0.008528 0.964317 0.193518 153 0 76
0.063999 -0.314611 -0.065012 0 255 0
0.138146 -0.482462 -0.054291 255 0 0
0.007383 -0.476503 -0.212580 255 0 0
-0.019572 0.896736 0.144042 153 0 76
-0.099152 -0.486414 0.012041 255 0 0
-0.022152 0.249199 -0.100051 153 0 76
-0.011899 -0.271369 -0.133356 0 255 0
-0.474334 -0.161464 -0.056875 0 127 127
-0.495349 -0.367916 -0.156301 127 0 127
-0.533891 -0.356932 -0.136337 127 0 127
-0.483665 -0.262200 -0.118985 127 0 127
0.055665 -0.243472 -0.089374 0 255 0
-0.015235 0.590748 0.548168 153 0 76
0.475675 -0.465273 0.002470 76 153 0
0.429789 -0.386267 -0.027658 76 153 0
0.075270 -0.464047 -0.132896 255 0 0
0.017907 0.881135 0.117492 153 0 76
0.455674 -0.310042 -0.037879 76 153 0
-0.080523 -0.485601 0.028141 255 0 0
0.036464 -0.041354 -0.070929 153 0 76
0.528103 -0.466958 -0.001076 76 153 0
-0.407648 -0.098681 -0.065571 0 127 127
-0.354559 -0.483744 -0.084930 127 127 0
0.096909 -0.472989 -0.003363 255 0 0
0.562525 -0.129475 -0.041659 76 153 0
0.034426 0.847452 0.451134 153 0 76
0.028787 0.654871 -0.098033 153 0 76
0.014490 0.220340 -0.110754 153 0 76
0.557332 -0.464456 -0.021088 76 153 0
0.553204 -0.320228 -0.058473 76 153 0
0.462002 -0.239627 -0.082687 76 153 0
-0.007336 0.628706 -0.047722 153 0 76
0.518884 -0.457364 -0.159825 76 153 0
0.060185 -0.426781 -0.131966 0 255 0
0.389785 -0.140222 -0.038293 76 153 0
-0.413578 -0.112288 -0.102952 0 127 127
-0.425775 -0.324102 -0.085239 127 0 127
-0.026847 0.917418 0.176803 153 0 76
0.519939 -0.241128 -0.054951 76 153 0
-0.026190 0.639578 0.531659 153 0 76
0.003171 0.897392 0.188292 153 0 76
-0.034267 0.455855 0.549205 0 0 255
0.480450 -0.400574 0.003422 76 153 0
-0.128343 -0.487508 -0.045499 255 0 0
-0.024110 0.520602 0.490168 204 51 127
-0.449810 -0.339487 -0.023220 127 0 127
0.456882 -0.331441 -0.130586 76 153 0
-0.030362 0.771756 -0.045408 153 0 76
0.034854 0.540602 -0.093113 153 0 76
0.449753 -0.460734 -0.008902 76 153 0
-0.569763 -0.427233 -0.094876 127 0 127
0.477084 -0.337832 -0.014812 76 153 0
0.534110 -0.478246 0.004681 0 127 127
-0.465047 -0.490454 0.063062 127 127 0
-0.012587 -0.320353 -0.019336 0 255 0
0.037232 0.936574 0.224518 153 0 76
-0.020745 0.035957 -0.056671 153 0 76
0.427128 -0.341795 -0.074570 76 153 0
0.479956 -0.269419 -0.118969 76 153 0
-0.555337 -0.369764 -0.040163 127 0 127
0.496425 -0.358089 -0.153705 76 153 0
-0.045550 -0.228857 -0.066067 0 255 0
-0.029795 0.626605 0.514541 153 0 76
0.458236 -0.265031 -0.061804 76 153 0
-0.394456 -0.479121 -0.058443 127 127 0
-0.491119 -0.293818 -0.130347 127 0 127
-0.450624 -0.369969 -0.009713 127 0 127
0.447561 -0.116750 -0.066186 76 153 0
0.030084 0.138404 -0.100327 153 0 76
-0.029555 0.744732 -0.056045 153 0 76
-0.419045 -0.478641 -0.016482 127 127 0
0.029329 -0.113992 -0.057016 153 0 76
-0.021899 0.891944 0.403355 153 0 76
0.547241 -0.339833 -0.034810 76 153 0
0.408573 -0.153186 -0.046920 76 153 0
-0.026694 0.740509 -0.073986 153 0 76
0.026207 0.360819 -0.053946 153 0 76
0.530236 -0.149656 -0.079092 76 153 0
0.034055 0.359455 -0.096065 153 0 76
0.035651 0.890988 0.350444 153 0 76
0.528427 -0.278509 -0.047074 76 153 0
-0.013849 0.877013 0.098980 153 0 76
0.517262 -0.132628 -0.110440 76 153 0
0.024661 0.957749 0.212619 153 0 76
0.010068 0.698021 -0.100696 153 0 76
0.668326 -0.116248 -0.101919 76 153 0
0.018552 0.771423 0.445355 153 0 76
-0.374728 -0.492600 -0.168948 127 127 0
0.546500 -0.481275 -0.179903 0 127 127
0.504130 -0.477384 0.008828 0 127 127
0.032614 0.070952 -0.097812 153 0 76
-0.043687 -0.242294 -0.055384 0 255 0
-0.029162 0.775165 -0.038113 153 0 76
0.583128 -0.480625 -0.017317 0 127 127
0.033627 -0.198914 -0.116470 0 255 0
0.605897 -0.482814 -0.020372 0 127 127
0.480033 -0.482607 -0.199620 0 127 127
0.085451 -0.465843 -0.029823 255 0 0
-0.040303 -0.282188 -0.041492 0 255 0
0.424243 -0.354442 -0.066084 76 153 0
0.074452 -0.410254 -0.056080 0 255 0
-0.485708 -0.124253 -0.061108 0 127 127
0.426273 -0.484431 -0.197169 0 127 127
-0.369078 -0.483473 -0.023999 127 127 0
-0.591745 -0.163779 -0.073154 0 127 127
-0.501937 -0.482544 0.038046 127 127 0
-0.024800 0.690218 0.525988 153 0 76
0.004560 -0.362183 -0.011125 0 255 0
-0.550438 -0.412242 -0.135605 127 0 127
0.024569 0.957840 0.260246 153 0 76
-0.811063 -0.127110 -0.060540 0 127 127
0.465065 -0.150629 -0.063936 76 153 0
0.446334 -0.355670 -0.024872 76 153 0
-0.030252 0.187065 -0.078310 153 0 76
0.094162 -0.465517 -0.049633 255 0 0
-0.030118 0.862760 0.029183 153 0 76
-0.038380 0.523220 0.509203 204 51 127
-0.043393 -0.251050 -0.052996 0 255 0
-0.522658 -0.218893 -0.048827 127 0 127
0.511138 -0.479743 0.015833 0 127 127
-0.019866 0.679191 0.533576 153 0 76
0.043239 0.515790 0.551801 204 51 127
-0.628626 -0.102177 -0.069025 0 127 127
-0.801301 -0.116972 -0.065853 0 127 127
0.700137 -0.108576 -0.068692 76 153 0
-0.042280 -0.292323 -0.115774 0 255 0
0.031123 0.832261 0.415852 153 0 76
0.012410 0.765819 0.521981 153 0 76
0.437857 -0.331824 -0.108704 76 153 0
0.024040 0.832732 0.031523 153 0 76
-0.026551 0.183970 -0.064675 153 0 76
-0.028758 0.696972 -0.061551 153 0 76
-0.528075 -0.271111 -0.063324 127 0 127
-0.028210 0.559643 0.490868 204 51 127
-0.018079 0.423720 0.497999 0 0 255
0.050092 0.534998 0.523552 204 51 127
-0.496887 -0.114135 -0.070099 0 127 127
-0.012242 0.678108 -0.101471 153 0 76
-0.518512 -0.478503 0.007676 127 127 0
-0.120357 -0.474401 -0.091578 255 0 0
0.041052 0.455334 0.513481 0 0 255
-0.457958 -0.404723 0.000325 127 0 127
-0.463767 -0.220787 -0.040218 127 0 127
0.618983 -0.482923 -0.070609 0 127 127
-0.028296 0.581254 -0.071119 153 0 76
-0.033877 0.454687 0.510701 204 51 127
0.026627 0.082430 -0.103788 153 0 76
0.008339 -0.220963 -0.129373 0 255 0
0.037210 0.820321 0.456327 153 0 76
-0.430204 -0.404599 -0.016788 127 0 127
0.036689 -0.038007 -0.086384 153 0 76
0.356769 -0.488920 -0.117924 0 127 127
0.392116 -0.480385 -0.095861 0 127 127
-0.006762 0.632649 -0.110566 153 0 76
-0.062038 -0.378088 -0.055309 0 255 0
-0.030253 0.793145 0.466349 153 0 76
-0.021930 0.439877 -0.057891 153 0 76
0.038660 0.924982 0.278494 153 0 76
0.513702 -0.228950 -0.043914 76 153 0
0.009489 -0.378990 -0.009465 0 255 0
0.031401 0.443514 0.501255 0 0 255
0.370740 -0.484110 -0.024806 0 127 127
0.525730 -0.139096 -0.096133 76 153 0
0.027010 0.861747 0.066442 153 0 76
0.026144 -0.297445 -0.135234 0 255 0
-0.776020 -0.102756 -0.054586 0 127 127
-0.537763 -0.390019 -0.146135 127 0 127
0.035201 0.656015 0.527269 153 0 76
-0.022084 0.631213 -0.100073 153 0 76
0.018071 0.193286 -0.109792 153 0 76
0.019443 -0.009697 -0.109450 153 0 76
-0.422373 -0.136135 -0.055257 0 127 127
-0.570241 -0.418097 -0.092469 127 0 127
0.472063 -0.163043 -0.073755 76 153 0
0.067354 -0.363441 -0.104937 0 255 0
-0.003050 0.955481 0.288868 153 0 76
0.737016 -0.150683 -0.071912 76 153 0
0.397440 -0.140867 -0.035525 76 153 0
-0.004043 0.438025 -0.111331 153 0 76
-0.465728 -0.247372 -0.105947 127 0 127
-0.805704 -0.141563 -0.063516 0 127 127
-0.369721 -0.105342 -0.092580 0 127 127
0.829616 -0.130949 -0.098181 76 153 0
-0.554605 -0.389679 -0.129241 127 0 127
-0.011178 -0.360405 -0.144609 0 255 0
-0.479919 -0.451425 -0.162926 127 0 127
-0.055950 -0.344590 -0.051299 0 255 0
-0.543008 -0.470274 -0.015064 127 0 127
-0.014587 0.623741 0.488567 153 0 76
0.017268 -0.475399 -0.204357 255 0 0
-0.486553 -0.332607 -0.144531 127 0 127
0.504958 -0.194484 -0.053324 76 153 0
0.401878 -0.151605 -0.040462 76 153 0
0.014219 0.233996 -0.047299 153 0 76
0.005276 -0.424228 -0.155259 0 255 0
-0.706347 -0.124793 -0.101158 0 127 127
-0.022128 0.787338 -0.060405 153 0 76
0.013428 -0.168849 -0.047029 153 0 76
-0.461285 -0.203457 -0.104021 127 0 127
-0.457885 -0.269738 -0.048542 127 0 127
0.533289 -0.400913 -0.003342 76 153 0
0.447400 -0.147781 -0.070458 76 153 0
0.047045 -0.201744 -0.057253 0 255 0
0.004161 0.757087 -0.091635 153 0 76
0.621815 -0.482971 -0.087906 0 127 127
0.524042 -0.157750 -0.086356 76 153 0
-0.341724 -0.489153 -0.079588 127 127 0
0.015478 0.283671 -0.047647 153 0 76
0.035325 0.905400 0.134373 153 0 76
0.027723 0.178747 -0.102679 153 0 76
-0.402284 -0.479994 -0.022856 127 127 0
-0.003247 0.711279 0.535583 153 0 76
0.426208 -0.422124 -0.125871 76 153 0
0.019064 -0.429254 -0.154747 0 255 0
0.015548 -0.023996 -0.047624 153 0 76
-0.021820 0.879257 0.085455 153 0 76
0.032697 -0.479294 0.053439 255 0 0
0.514461 -0.266203 -0.041842 76 153 0
-0.029201 0.071986 -0.074445 153 0 76
-0.009454 0.421286 0.574181 0 0 255
-0.519223 -0.432325 -0.000520 127 0 127
-0.055875 -0.366911 -0.111891 0 255 0
-0.012656 0.901630 0.249500 153 0 76
0.002603 0.560431 0.569225 204 51 127
0.000029 0.424366 -0.112432 153 0 76
-0.440302 -0.473850 -0.149644 127 0 127
-0.678765 -0.105878 -0.083950 0 127 127
0.022985 0.959407 0.231785 153 0 76
-0.027840 0.042861 -0.069421 153 0 76
0.531384 -0.273681 -0.053170 76 153 0
0.359157 -0.484133 -0.080255 0 127 127
-0.030920 0.490110 0.558198 204 51 127
0.841064 -0.117116 -0.092363 76 153 0
0.055140 -0.356952 -0.034911 0 255 0
-0.554746 -0.346655 -0.059274 127 0 127
-0.007203 0.855834 0.070261 153 0 76
0.001374 -0.244345 -0.025759 0 255 0
0.624778 -0.140444 -0.049134 76 153 0
-0.493870 -0.132644 -0.116618 0 127 127
0.011849 0.562005 -0.111419 153 0 76
-0.022784 0.911160 0.220824 153 0 76
-0.580346 -0.165758 -0.080270 0 127 127
-0.026437 0.917033 0.354011 153 0 76
0.032919 0.472397 -0.060654 153 0 76
0.424182 -0.368962 -0.111878 76 153 0
-0.012782 0.465474 -0.108965 153 0 76
0.654394 -0.111792 -0.057519 76 153 0
-0.583404 -0.482949 -0.000044 127 127 0
0.035656 0.172015 -0.067965 153 0 76
0.033590 0.913723 0.197316 153 0 76
0.522406 -0.372334 -0.154142 76 153 0
0.085647 -0.431788 -0.068644 0 255 0
-0.016252 0.296034 -0.105930 153 0 76
-0.008723 0.900577 0.216082 153 0 76
-0.533366 -0.303352 -0.049592 127 0 127
-0.584255 -0.130973 -0.044221 0 127 127
-0.511339 -0.233462 -0.052345 127 0 127
0.016802 -0.294814 -0.021596 0 255 0
0.521751 -0.115035 -0.068753 76 153 0
-0.477521 -0.172598 -0.065880 127 0 127
0.542542 -0.284857 -0.089383 76 153 0
0.100057 -0.470670 -0.026113 255 0 0
-0.460070 -0.199781 -0.063081 127 0 127
-0.030073 0.061244 -0.080480 153 0 76
0.005346 0.010842 -0.044868 153 0 76
-0.402593 -0.458021 -0.081435 127 0 127
-0.047500 -0.386555 -0.029595 0 255 0
0.520817 -0.449745 0.001427 76 153 0
-0.491018 -0.212934 -0.124053 127 0 127
0.786112 -0.097598 -0.077368 76 153 0
0.027463 0.026937 -0.055161 153 0 76
-0.026197 0.776071 -0.024831 153 0 76
-0.452943 -0.248564 -0.084292 127 0 127
0.026619 0.950093 0.279995 153 0 76
0.062047 -0.375194 -0.116777 0 255 0
-0.069283 -0.420953 -0.064670 0 255 0
-0.023259 0.878835 0.352462 153 0 76
-0.521668 -0.259923 -0.059676 127 0 127
-0.478303 -0.166874 -0.096385 0 127 127
0.538703 -0.295668 -0.050325 76 153 0
0.042946 -0.240997 -0.042899 0 255 0
0.023985 0.821160 -0.046435 153 0 76
-0.556527 -0.484733 -0.197809 127 127 0
-0.474116 -0.438143 0.003300 127 0 127
-0.505371 -0.220578 -0.121515 127 0 127
-0.418009 -0.355623 -0.101638 127 0 127
-0.548331 -0.327866 -0.096867 127 0 127
-0.525861 -0.330742 -0.027554 127 0 127
0.400335 -0.482342 -0.008121 0 127 127
0.416052 -0.161969 -0.064263 76 153 0
0.462074 -0.221536 -0.110501 76 153 0
0.598883 -0.480154 -0.086359 0 127 127
0.065917 -0.320958 -0.088620 0 255 0
0.475398 -0.152036 -0.052638 76 153 0
-0.563807 -0.424000 -0.042470 127 0 127
-0.490292 -0.266106 -0.120443 127 0 127
0.468388 -0.135274 -0.106092 76 153 0
-0.505756 -0.114799 -0.107365 0 127 127
0.363646 -0.485196 -0.039844 0 127 127
-0.028478 0.580818 0.513667 153 0 76
0.027275 0.853585 0.380101 153 0 76
-0.024604 0.831348 0.014979 153 0 76
-0.097483 -0.472723 -0.017533 255 0 0
0.037267 -0.104938 -0.073890 153 0 76
0.521073 -0.128456 -0.097729 76 153 0
-0.003858 0.935328 0.353491 153 0 76
0.026186 -0.001577 -0.104240 153 0 76
-0.766065 -0.117733 -0.103069 0 127 127
-0.764719 -0.155735 -0.086972 0 127 127
-0.059650 -0.390016 -0.046655 0 255 0
-0.420116 -0.338131 -0.082390 127 0 127
0.402792 -0.479486 -0.044272 0 127 127
0.478799 -0.479065 -0.172300 0 127 127
-0.073883 -0.464882 -0.036293 255 0 0
0.556204 -0.155255 -0.076988 76 153 0
-0.010195 0.917551 0.384014 153 0 76
0.560571 -0.434747 -0.132735 76 153 0
-0.025862 0.880337 0.022863 153 0 76
-0.045723 -0.344795 -0.122204 0 255 0
-0.058641 -0.346451 -0.099997 0 255 0
0.036384 0.307676 -0.087503 153 0 76
0.069031 -0.366342 -0.056466 0 255 0
-0.114436 -0.493412 -0.011611 255 0 0
0.519929 -0.120323 -0.063376 76 153 0
0.011151 -0.475698 0.051147 255 0 0
-0.442578 -0.132935 -0.060215 0 127 127
0.702836 -0.106913 -0.081681 76 153 0
-0.004376 0.164444 -0.111284 153 0 76
0.581085 -0.124113 -0.113536 76 153 0
0.538576 -0.375474 -0.011417 76 153 0
0.033468 0.382722 -0.061196 153 0 76
-0.013503 0.307241 -0.108666 153 0 76
0.029649 0.848324 0.457627 153 0 76
0.009271 0.521282 0.480450 204 51 127
0.533084 -0.367224 -0.146309 76 153 0
-0.421067 -0.340386 -0.069212 127 0 127
0.530985 -0.480543 -0.180313 0 127 127
0.412743 -0.161519 -0.098408 76 153 0
-0.074594 -0.471001 -0.160511 255 0 0
-0.026639 0.945263 0.195738 153 0 76
0.010619 0.122911 -0.046309 153 0 76
-0.028819 0.877536 0.397683 153 0 76
-0.062038 -0.472433 0.016800 255 0 0
0.042436 -0.420283 -0.143225 0 255 0
0.389320 -0.089888 -0.073177 76 153 0
0.422126 -0.364315 -0.099149 76 153 0
-0.711426 -0.118293 -0.060390 0 127 127
-0.453296 -0.261711 -0.058811 127 0 127
0.606762 -0.144468 -0.048632 76 153 0
0.017150 0.426046 -0.048120 153 0 76
0.032139 -0.471051 -0.188672 255 0 0
-0.793571 -0.136389 -0.060455 0 127 127
0.618518 -0.107387 -0.101036 76 153 0
0.038454 0.882403 0.055371 153 0 76
-0.063484 -0.413493 -0.047212 0 255 0
-0.499672 -0.343692 -0.146709 127 0 127
0.676009 -0.130246 -0.052144 76 153 0
-0.029549 0.730894 0.494455 153 0 76
-0.046870 -0.288574 -0.049916 0 255 0
0.678026 -0.114767 -0.058144 76 153 0
-0.009227 -0.091531 -0.048129 153 0 76
-0.042086 -0.189423 -0.083745 0 255 0
0.037471 0.889678 0.071412 153 0 76
0.050402 -0.433249 -0.148478 0 255 0
-0.031260 -0.327522 -0.131524 0 255 0
0.528104 -0.253012 -0.061814 76 153 0
0.035467 0.496716 -0.090862 153 0 76
0.061374 -0.471477 -0.177994 255 0 0
0.421480 -0.152221 -0.056690 76 153 0
0.788021 -0.104893 -0.088762 76 153 0
-0.552061 -0.100759 -0.079452 0 127 127
-0.436013 -0.344319 -0.031824 127 0 127
-0.042167 -0.421637 -0.019893 0 255 0
0.843056 -0.147397 -0.069883 76 153 0
0.569954 -0.491595 0.044077 0 127 127
-0.567012 -0.384851 -0.104814 127 0 127
0.030504 0.629356 0.495804 153 0 76
0.383367 -0.095739 -0.073687 76 153 0
0.599139 -0.480681 -0.108929 0 127 127
0.415417 -0.447726 -0.053045 76 153 0
-0.417691 -0.390681 -0.124723 127 0 127
-0.421774 -0.481192 -0.169161 127 127 0
-0.014717 0.721457 0.529024 153 0 76
-0.064100 -0.400110 -0.052540 0 255 0
-0.035878 -0.185989 -0.062245 0 255 0
-0.004739 -0.286176 -0.021831 0 255 0
0.002347 0.965030 0.242399 153 0 76
-0.015063 0.274089 -0.107117 153 0 76
-0.026978 0.722885 -0.050423 153 0 76
-0.543863 -0.485161 -0.210523 127 127 0
0.513982 -0.423102 0.002769 76 153 0
-0.028939 0.847651 -0.002976 153 0 76
0.018932 0.441093 0.572101 0 0 255
-0.367345 -0.482426 -0.096192 127 127 0
-0.029119 0.895529 0.371150 153 0 76
0.494781 -0.312639 -0.021148 76 153 0
0.432489 -0.416551 -0.135263 76 153 0
0.088995 -0.464365 -0.112589 255 0 0
-0.607401 -0.484358 -0.144796 127 127 0
-0.019062 0.737958 -0.084664 153 0 76
-0.402731 -0.394119 -0.081238 127 0 127
0.065807 -0.328692 -0.065427 0 255 0
0.506923 -0.208649 -0.118675 76 153 0
-0.027080 0.665216 -0.086026 153 0 76
-0.057928 -0.484499 0.043486 255 0 0
-0.489099 -0.315629 -0.019909 127 0 127
0.104703 -0.478610 -0.172351 255 0 0
-0.504779 -0.144472 -0.092494 0 127 127
-0.042781 -0.474302 -0.194962 255 0 0
-0.453873 -0.402740 -0.156933 127 0 127
0.492956 -0.463155 0.005525 76 153 0
0.530493 -0.123570 -0.091794 76 153 0
0.032963 -0.208511 -0.039676 0 255 0
0.018127 0.627564 0.486045 153 0 76
0.003971 0.567992 0.507057 204 51 127
-0.411353 -0.443386 -0.042086 127 0 127
-0.024938 0.923124 0.089303 153 0 76
-0.550301 -0.387560 -0.135291 127 0 127
0.005762 0.286012 -0.113106 153 0 76
-0.044884 -0.244424 -0.101227 0 255 0
-0.494818 -0.144862 -0.043529 0 127 127
0.084337 -0.469082 -0.150283 255 0 0
-0.014645 0.625436 -0.107484 153 0 76
-0.571229 -0.141756 -0.112856 0 127 127
0.623530 -0.484448 -0.108761 0 127 127
0.027920 -0.071158 -0.102516 153 0 76
-0.040370 0.468675 0.540136 204 51 127
0.428876 -0.431533 -0.129861 76 153 0
-0.012400 0.795837 0.430575 153 0 76
0.680760 -0.106076 -0.087877 76 153 0
0.460534 -0.254658 -0.066006 76 153 0
-0.488412 -0.275435 -0.123939 127 0 127
-0.377938 -0.141318 -0.042144 0 127 127
0.001993 0.471201 0.484215 204 51 127
-0.529425 -0.276708 -0.096553 127 0 127
-0.572459 -0.480264 -0.139176 127 127 0
-0.031461 -0.412900 -0.143974 0 255 0
-0.018507 0.537981 0.484024 204 51 127
0.468177 -0.456736 -0.158954 76 153 0
-0.388741 -0.173498 -0.093132 0 127 127
-0.500443 -0.485974 -0.221681 127 127 0
-0.024402 0.065525 -0.097815 153 0 76
0.524996 -0.314684 -0.028608 76 153 0
-0.412956 -0.369724 -0.099665 127 0 127
-0.019344 0.370798 -0.055309 153 0 76
-0.506122 -0.134686 -0.045876 0 127 127
0.432159 -0.404693 -0.134773 76 153 0
0.008852 -0.484700 -0.217155 255 0 0
-0.793086 -0.145483 -0.092001 0 127 127
0.018228 0.818374 -0.052067 153 0 76
-0.560179 -0.387079 -0.037675 127 0 127
0.032257 0.380041 -0.098142 153 0 76
0.839792 -0.111648 -0.078941 76 153 0
-0.369721 -0.117297 -0.100651 0 127 127
0.793101 -0.151867 -0.070205 76 153 0
-0.009822 0.533054 -0.109756 153 0 76
-0.405735 -0.442389 -0.060306 127 0 127
0.016720 0.642940 0.484323 153 0 76
0.501106 -0.427423 0.005229 76 153 0
-0.029669 -0.255232 -0.121928 0 255 0
0.036405 0.164553 -0.087432 153 0 76
-0.521884 -0.406947 -0.002092 127 0 127
0.407462 -0.484701 -0.187045 0 127 127
0.041152 0.485098 0.555836 204 51 127
0.437539 -0.403709 -0.140902 76 153 0
-0.015551 0.893817 0.023552 153 0 76
-0.405554 -0.477832 -0.117346 127 127 0
-0.013347 0.935325 0.090062 153 0 76
0.038315 0.683241 0.507526 153 0 76
-0.068664 -0.476766 -0.189882 255 0 0
-0.020909 0.579740 0.498749 153 0 76
0.476940 -0.240480 -0.051705 76 153 0
-0.473078 -0.304508 -0.026827 127 0 127
0.024478 -0.418271 -0.150851 0 255 0
-0.439144 -0.304783 -0.105703 127 0 127
-0.023613 0.904068 0.383884 153 0 76
0.038097 -0.064794 -0.076955 153 0 76
-0.022042 0.549909 -0.058011 153 0 76
0.026289 -0.200274 -0.036434 0 255 0
-0.003861 -0.294658 -0.137856 0 255 0
-0.023662 0.522242 -0.098516 153 0 76
0.020183 0.104745 -0.048897 153 0 76
0.508281 -0.445997 -0.161943 76 153 0
-0.048021 -0.313666 -0.111901 0 255 0
-0.062673 -0.355938 -0.072290 0 255 0
-0.018417 0.832329 0.471230 153 0 76
0.010737 0.779664 -0.002773 153 0 76
-0.440972 -0.362007 -0.019551 127 0 127
0.463298 -0.273318 -0.049272 76 153 0
0.459150 -0.127552 -0.088865 76 153 0
-0.511081 -0.342046 -0.014321 127 0 127
0.017623 0.433105 0.494271 0 0 255
0.015223 0.845779 0.056508 153 0 76
-0.490253 -0.324643 -0.141579 127 0 127
0.499976 -0.446225 0.004553 76 153 0
0.035801 0.565860 0.554683 204 51 127
-0.460553 -0.205278 -0.052904 127 0 127
-0.467217 -0.404491 0.002423 127 0 127
-0.050647 -0.475517 0.036139 255 0 0
0.533659 -0.385043 -0.004347 76 153 0
0.526841 -0.283547 -0.115319 76 153 0
-0.055311 -0.289695 -0.078799 0 255 0
-0.410477 -0.483164 -0.180249 127 127 0
-0.042146 0.491336 0.529319 204 51 127
0.033293 0.913594 0.368382 153 0 76
-0.422076 -0.484066 -0.189187 127 127 0
0.034528 0.849760 0.034790 153 0 76
-0.418573 -0.440111 -0.031271 127 0 127
-0.008666 0.820014 -0.051455 153 0 76
0.553346 -0.436906 -0.017250 76 153 0
0.561698 -0.478769 -0.144915 0 127 127
-0.025899 0.743799 0.512012 153 0 76
-0.005145 0.874677 -0.010045 153 0 76
0.028285 0.219508 -0.055999 153 0 76
0.030821 0.905633 0.272119 153 0 76
-0.544940 -0.342179 -0.042174 127 0 127
0.028263 0.765910 0.511258 153 0 76
-0.066228 -0.465790 -0.013488 255 0 0
0.034488 0.936639 0.142538 153 0 76
-0.022774 0.831191 -0.031970 153 0 76
-0.481637 -0.466984 -0.163265 127 0 127
-0.407133 -0.376993 -0.087999 127 0 127
-0.566786 -0.431037 -0.049100 127 0 127
0.532836 -0.483330 -0.202387 0 127 127
0.490717 -0.429319 0.004865 76 153 0
0.571320 -0.129521 -0.115527 76 153 0
0.042625 -0.279848 -0.122392 0 255 0
-0.019969 -0.075825 -0.102259 153 0 76
0.070240 -0.477101 0.037664 255 0 0
0.427156 -0.105332 -0.070769 76 153 0
-0.020999 0.399662 -0.056959 153 0 76
0.034180 0.824076 0.428429 153 0 76
-0.436858 -0.449311 -0.145974 127 0 127
-0.023894 -0.274866 -0.030215 0 255 0
-0.023772 0.780398 -0.017835 153 0 76
0.036864 0.936676 0.172142 153 0 76
0.554261 -0.129060 -0.101520 76 153 0
-0.065572 -0.396767 -0.096769 0 255 0
0.001550 0.743205 -0.093469 153 0 76
0.041851 -0.219919 -0.045883 0 255 0
0.469016 -0.456991 0.000317 76 153 0
-0.039857 -0.296048 -0.037826 0 255 0
-0.419831 -0.482167 0.014306 127 127 0
0.041757 0.550319 0.497051 204 51 127
0.051850 -0.333949 -0.035221 0 255 0
-0.027931 -0.303322 -0.028535 0 255 0
0.572311 -0.393974 -0.114382 76 153 0
0.407729 -0.137286 -0.039851 76 153 0
-0.490856 -0.104258 -0.104628 0 127 127
0.070857 -0.450374 -0.129772 0 255 0
0.567406 -0.357488 -0.066037 76 153 0
0.417537 -0.416347 -0.045939 76 153 0
0.477898 -0.146550 -0.089386 76 153 0
-0.014729 0.551220 0.565560 204 51 127
0.378919 -0.162322 -0.080127 76 153 0
-0.038683 0.523833 0.541672 204 51 127
-0.528867 -0.266041 -0.082062 127 0 127
0.415467 -0.479969 -0.015723 0 127 127
0.527196 -0.233559 -0.095548 76 153 0
-0.557687 -0.478924 -0.015713 127 127 0
-0.063322 -0.398690 -0.106930 0 255 0
0.009403 0.918448 0.048053 153 0 76
0.037225 0.715977 -0.069761 153 0 76
-0.432289 -0.376733 -0.138498 127 0 127
0.056094 -0.267956 -0.101739 0 255 0
0.609078 -0.482210 -0.120493 0 127 127
0.656742 -0.158785 -0.074807 76 153 0
0.019452 0.606785 -0.109362 153 0 76
-0.490490 -0.436695 -0.163822 127 0 127
0.429443 -0.345329 -0.056477 76 153 0
0.016564 0.803117 0.424700 153 0 76
-0.642480 -0.147237 -0.055340 0 127 127
0.422512 -0.407805 -0.037658 76 153 0
0.003477 0.869813 0.455503 153 0 76
0.568332 -0.373207 -0.045175 76 153 0
0.028607 0.657958 -0.051716 153 0 76
0.015917 0.962338 0.247646 153 0 76
-0.027099 -0.283223 -0.127770 0 255 0
0.030516 0.570481 0.559060 204 51 127
0.531824 -0.342509 -0.020921 76 153 0
-0.396111 -0.486020 0.031882 127 127 0
0.097985 -0.465372 -0.076014 255 0 0
0.721557 -0.112719 -0.091962 76 153 0
-0.469164 -0.206318 -0.044600 127 0 127
0.017556 0.508751 0.483766 204 51 127
-0.522640 -0.485751 0.059188 127 127 0
-0.017495 0.650708 0.489132 153 0 76
0.009653 -0.105125 -0.112115 153 0 76
-0.049648 -0.248166 -0.074634 0 255 0
0.004257 0.875639 0.322915 153 0 76
-0.425904 -0.122193 -0.099625 0 127 127
0.080300 -0.456987 -0.042409 0 255 0
0.038317 0.744274 0.493471 153 0 76
-0.106111 -0.492990 0.001424 255 0 0
0.534177 -0.257743 -0.076694 76 153 0
-0.791853 -0.112167 -0.086232 0 127 127
0.428461 -0.357269 -0.110772 76 153 0
0.575520 -0.433599 -0.050887 76 153 0
0.600922 -0.481477 -0.033185 0 127 127
-0.428811 -0.354949 -0.122184 127 0 127
0.003561 0.218248 -0.044716 153 0 76
-0.019172 -0.029836 -0.055089 153 0 76
-0.450984 -0.143602 -0.074376 0 127 127
-0.480749 -0.152548 -0.111333 0 127 127
0.018178 0.307366 -0.109747 153 0 76
-0.790790 -0.150961 -0.080367 0 127 127
-0.001600 0.191353 -0.112029 153 0 76
0.056410 -0.347763 -0.119160 0 255 0
0.411527 -0.434097 -0.085382 76 153 0
-0.625728 -0.124274 -0.108612 0 127 127
-0.030147 0.502528 -0.077924 153 0 76
-0.516637 -0.110507 -0.067328 0 127 127
-0.027991 0.769522 -0.057794 153 0 76
0.412866 -0.432144 -0.065756 76 153 0
0.014837 0.954337 0.289341 153 0 76
-0.002579 0.875709 0.106268 153 0 76
-0.069462 -0.412488 -0.070882 0 255 0
-0.021611 -0.390722 -0.011798 0 255 0
0.034173 -0.256896 -0.033352 0 255 0
-0.564838 -0.367925 -0.071483 127 0 127
0.521945 -0.104696 -0.078611 76 153 0
-0.099358 -0.471886 -0.131848 255 0 0
-0.029846 0.755604 0.493551 153 0 76
0.592066 -0.479457 -0.061865 0 127 127
-0.551054 -0.382821 -0.025555 127 0 127
0.520385 -0.284429 -0.120025 76 153 0
-0.521042 -0.289372 -0.116168 127 0 127
0.440646 -0.438609 -0.015982 76 153 0
-0.007604 0.962365 0.180574 153 0 76
0.013669 -0.321136 -0.017526 0 255 0
0.024741 0.300922 -0.105643 153 0 76
-0.502664 -0.480207 0.023730 127 127 0
0.037921 -0.461927 0.001460 0 255 0
0.827849 -0.112918 -0.072554 76 153 0
-0.469099 -0.108426 -0.102314 0 127 127
-0.039099 0.492689 0.542849 204 51 127
-0.006148 -0.439076 -0.162310 0 255 0
0.044274 -0.198098 -0.104295 0 255 0
0.038147 -0.092748 -0.081002 153 0 76
0.562182 -0.138990 -0.043337 76 153 0
-0.029748 0.867462 0.405756 153 0 76
0.520210 -0.225540 -0.044226 76 153 0
0.008878 -0.185774 -0.085255 0 255 0
0.555680 -0.327141 -0.058091 76 153 0
0.112020 -0.472332 -0.128792 255 0 0
0.817846 -0.123261 -0.061413 76 153 0
-0.028752 0.551231 -0.072796 153 0 76
0.036988 0.445417 -0.072876 153 0 76
0.027927 0.526585 -0.055683 153 0 76
-0.026299 0.629113 0.501372 153 0 76
0.029291 0.367484 -0.057020 153 0 76
-0.460728 -0.475919 0.004304 127 127 0
0.457630 -0.481202 -0.178190 0 127 127
-0.004590 0.707432 -0.033724 153 0 76
0.004185 -0.014968 -0.113581 153 0 76
-0.403137 -0.434986 -0.084462 127 0 127
0.074828 -0.472022 -0.171712 255 0 0
0.399311 -0.165755 -0.107017 76 153 0
0.511271 -0.381110 0.001510 76 153 0
-0.418742 -0.158013 -0.079540 0 127 127
0.007639 0.663896 -0.039795 153 0 76
0.736884 -0.150917 -0.084975 76 153 0
0.016444 -0.301595 -0.137860 0 255 0
-0.545780 -0.418212 -0.140747 127 0 127
-0.452213 -0.485321 0.053202 127 127 0
0.570859 -0.370804 -0.055274 76 153 0
-0.614127 -0.484670 -0.018997 127 127 0
0.816363 -0.142113 -0.094117 76 153 0
-0.501947 -0.112479 -0.083240 0 127 127
0.693390 -0.154520 -0.070641 76 153 0
-0.480755 -0.127795 -0.041915 0 127 127
-0.009920 0.548773 -0.048408 153 0 76
-0.515834 -0.453401 -0.158746 127 0 127
0.033849 0.860788 0.439774 153 0 76
-0.125467 -0.476132 -0.096547 255 0 0
-0.552370 -0.104078 -0.063754 0 127 127
-0.037979 0.433158 0.530077 0 0 255
0.457809 -0.137107 -0.075271 76 153 0
0.467671 -0.484841 -0.216067 0 127 127
-0.411927 -0.128207 -0.047582 0 127 127
-0.025763 0.152169 -0.061763 153 0 76
-0.007144 0.574754 0.489897 153 0 76
0.575285 -0.456325 -0.049885 76 153 0
0.033998 0.664951 0.530699 153 0 76
0.579044 -0.458408 -0.069568 76 153 0
0.548368 -0.442330 -0.013409 76 153 0
-0.025435 0.652781 0.532492 153 0 76
-0.018259 0.378281 -0.103919 153 0 76
-0.108928 -0.471314 -0.089832 255 0 0
0.513206 -0.196778 -0.055852 76 153 0
-0.027299 0.197542 -0.067439 153 0 76
-0.535328 -0.294425 -0.098982 127 0 127
-0.057817 -0.391095 -0.114325 0 255 0
-0.010655 0.821008 0.414118 153 0 76
-0.446336 -0.396625 -0.005690 127 0 127
-0.018944 0.614276 0.542378 153 0 76
-0.753175 -0.123189 -0.060676 0 127 127
-0.464828 -0.323331 -0.137005 127 0 127
-0.015650 0.220334 -0.106540 153 0 76
0.055864 -0.466171 0.002129 255 0 0
0.606235 -0.485172 0.010106 0 127 127
0.572267 -0.411517 -0.042917 76 153 0
-0.047733 -0.472839 -0.183588 255 0 0
-0.571336 -0.419472 -0.071159 127 0 127
0.456797 -0.117792 -0.065067 76 153 0
0.558250 -0.340237 -0.105610 76 153 0
-0.462275 -0.378951 -0.156834 127 0 127
-0.545659 -0.444862 -0.018325 127 0 127
0.423736 -0.483308 -0.184842 0 127 127
-0.016816 0.957384 0.208175 153 0 76
0.517651 -0.330076 -0.018412 76 153 0
0.005458 -0.214068 -0.128870 0 255 0
0.011589 0.569975 0.524026 204 51 127
0.048322 -0.270113 -0.112499 0 255 0
0.005285 -0.322598 -0.142453 0 255 0
-0.560904 -0.365813 -0.102462 127 0 127
-0.569047 -0.413951 -0.098476 127 0 127
0.479552 -0.270092 -0.039130 76 153 0
0.400197 -0.141788 -0.122293 76 153 0
0.037602 0.809888 -0.026316 153 0 76
-0.004129 -0.349220 -0.144622 0 255 0
-0.037060 0.419987 0.527717 0 0 255
0.473618 -0.101482 -0.084715 76 153 0
0.511762 -0.479020 -0.170152 0 127 127
-0.518988 -0.137424 -0.057974 0 127 127
0.034924 0.418736 -0.065283 153 0 76
0.396358 -0.479736 -0.070181 0 127 127
-0.449490 -0.302399 -0.040002 127 0 127
-0.026273 0.692089 -0.053177 153 0 76
-0.003949 -0.225334 -0.028814 0 255 0
-0.004323 0.946932 0.315432 153 0 76
0.428131 -0.122295 -0.054222 76 153 0
0.038385 0.930277 0.202559 153 0 76
0.001201 -0.379540 -0.149450 0 255 0
0.508488 -0.224744 -0.037124 76 153 0
0.645870 -0.156323 -0.064534 76 153 0
0.019674 0.525054 0.567989 204 51 127
0.031942 0.562137 -0.059688 153 0 76
-0.606388 -0.493172 -0.158267 127 127 0
0.545619 -0.415699 -0.011578 76 153 0
0.039075 -0.196533 -0.046408 0 255 0
0.075746 -0.396275 -0.086610 0 255 0
-0.509267 -0.186118 -0.085001 127 0 127
-0.027344 0.663875 0.501584 153 0 76
-0.039089 -0.214927 -0.054518 0 255 0
-0.553906 -0.128661 -0.042375 0 127 127
-0.445255 -0.327821 -0.031467 127 0 127
-0.353964 -0.485042 -0.030500 127 127 0
-0.029108 0.926396 0.254597 153 0 76
-0.093501 -0.475371 -0.000483 255 0 0
-0.018474 0.845039 -0.028223 153 0 76
0.479721 -0.376013 -0.157606 76 153 0
-0.077178 -0.452420 -0.099432 0 255 0
-0.018735 0.814620 0.009639 153 0 76
-0.002217 0.670194 -0.039493 153 0 76
-0.118546 -0.480939 -0.017289 255 0 0
-0.384783 -0.164912 -0.108279 0 127 127
-0.002923 0.963618 0.211456 153 0 76
-0.402735 -0.485178 0.034927 127 127 0
-0.470510 -0.196576 -0.055572 127 0 127
-0.002043 0.949219 0.124817 153 0 76
0.025788 -0.453372 0.002032 0 255 0
-0.703866 -0.136456 -0.056526 0 127 127
-0.026405 -0.178845 -0.094025 153 0 76
0.491159 -0.116829 -0.066067 76 153 0
0.430944 -0.338454 -0.096569 76 153 0
0.092264 -0.476267 -0.177623 255 0 0
0.692559 -0.126077 -0.103476 76 153 0
-0.488680 -0.476521 0.009863 127 127 0
-0.039893 -0.277380 -0.116056 0 255 0
0.557310 -0.120893 -0.102933 76 153 0
-0.585130 -0.483912 -0.164985 127 127 0
-0.021916 -0.151602 -0.100319 153 0 76
0.055758 -0.466816 -0.162630 255 0 0
-0.600204 -0.483414 -0.142337 127 127 0
-0.011750 0.735119 -0.030874 153 0 76
0.388715 -0.105696 -0.111157 76 153 0
-0.517163 -0.481060 0.027466 127 127 0
0.061989 -0.280688 -0.075228 0 255 0
0.014269 0.899863 0.197573 153 0 76
-0.558379 -0.451778 -0.034285 127 0 127
-0.515853 -0.118240 -0.100015 0 127 127
0.474798 -0.188485 -0.066825 76 153 0
-0.565582 -0.454143 -0.045862 127 0 127
0.785666 -0.124869 -0.044960 76 153 0
0.466381 -0.432188 -0.158484 76 153 0
-0.400187 -0.154522 -0.047675 0 127 127
0.439172 -0.365969 -0.026152 76 153 0
0.035437 0.564969 -0.067171 153 0 76
0.572334 -0.097264 -0.064472 76 153 0
-0.031165 0.555252 0.552254 204 51 127
0.625463 -0.146875 -0.105692 76 153 0
-0.021198 0.854466 0.052444 153 0 76
0.009317 -0.170258 -0.112216 153 0 76
-0.607514 -0.485052 -0.005370 127 127 0
-0.124786 -0.492928 -0.030028 255 0 0
-0.667067 -0.116162 -0.101092 0 127 127
-0.545051 -0.318736 -0.096792 127 0 127
-0.115495 -0.485385 -0.145586 255 0 0
0.492060 -0.112627 -0.074021 76 153 0
0.507000 -0.384949 -0.161396 76 153 0
-0.763271 -0.116929 -0.058765 0 127 127
-0.619077 -0.159496 -0.091794 0 127 127
-0.008304 0.630729 0.547936 153 0 76
0.573909 -0.485213 0.038988 0 127 127
-0.029346 0.569597 -0.083153 153 0 76
-0.585631 -0.100419 -0.063310 0 127 127
0.028945 0.879038 0.011939 153 0 76
0.500689 -0.164440 -0.057229 76 153 0
0.024613 0.866156 -0.012900 153 0 76
-0.564412 -0.401751 -0.043531 127 0 127
0.018096 0.577477 -0.048400 153 0 76
-0.027023 0.085925 -0.066411 153 0 76
-0.412400 -0.447260 -0.117495 127 0 127
-0.529367 -0.210524 -0.088030 127 0 127
-0.526036 -0.350488 -0.138841 127 0 127
0.401243 -0.482811 0.001858 0 127 127
-0.025670 0.604755 -0.096503 153 0 76
-0.032850 -0.203779 -0.110355 0 255 0
-0.463757 -0.479622 0.017391 127 127 0
0.110029 -0.468738 -0.085359 255 0 0
-0.001806 -0.155687 -0.046109 153 0 76
-0.437573 -0.329554 -0.039168 127 0 127
-0.021775 0.797505 -0.054396 153 0 76
0.567051 -0.483903 0.032980 0 127 127
-0.026177 0.817296 0.001297 153 0 76
0.395635 -0.096219 -0.050540 76 153 0
0.030557 0.756110 -0.078113 153 0 76
-0.020555 0.667875 -0.095753 153 0 76
0.724811 -0.109103 -0.082337 76 153 0
0.484029 -0.171181 -0.066988 76 153 0
0.488827 -0.362494 -0.154536 76 153 0
0.002487 0.057821 -0.044981 153 0 76
0.026644 -0.162776 -0.054326 153 0 76
-0.466417 -0.354967 -0.008995 127 0 127
-0.498651 -0.411863 -0.162216 127 0 127
-0.409499 -0.416660 -0.045501 127 0 127
-0.028358 0.132067 -0.071342 153 0 76
0.015651 0.573152 0.557274 204 51 127
0.507053 -0.258106 -0.115939 76 153 0
-0.062621 -0.364549 -0.091397 0 255 0
0.008956 -0.271386 -0.022509 0 255 0
0.069208 -0.433424 -0.131657 0 255 0
0.037277 0.571995 0.544167 204 51 127
0.013595 -0.447808 0.004136 0 255 0
-0.543101 -0.307190 -0.072310 127 0 127
-0.795748 -0.146932 -0.069188 0 127 127
-0.420742 -0.409482 -0.029101 127 0 127
0.541572 -0.219382 -0.074820 76 153 0
0.700141 -0.127065 -0.055040 76 153 0
0.018784 -0.435042 0.003347 0 255 0
0.053562 -0.213106 -0.075065 0 255 0
-0.506963 -0.401748 -0.160576 127 0 127
0.519962 -0.280388 -0.039589 76 153 0
-0.022751 -0.074986 -0.058662 153 0 76
0.805460 -0.139794 -0.095667 76 153 0
0.032917 0.904293 0.283547 153 0 76
-0.541786 -0.327079 -0.047199 127 0 127
0.020815 0.489155 -0.109010 153 0 76
-0.604409 -0.154219 -0.055883 0 127 127
-0.556961 -0.416392 -0.125842 127 0 127
-0.037311 0.480212 0.509080 204 51 127
0.035400 0.943264 0.254053 153 0 76
-0.496648 -0.309197 -0.134871 127 0 127
-0.582831 -0.479308 -0.084569 127 127 0
0.005411 0.666031 -0.107757 153 0 76
-0.429651 -0.484769 0.049918 127 127 0
-0.008416 0.642470 0.484340 153 0 76
0.461739 -0.150649 -0.076622 76 153 0
-0.382873 -0.480156 -0.081011 127 127 0
-0.425689 -0.391904 -0.137269 127 0 127
-0.000133 0.788141 0.509169 153 0 76
-0.036835 0.478985 0.551907 204 51 127
-0.037126 -0.456908 -0.152110 0 255 0
-0.066559 -0.486445 -0.195878 255 0 0
0.486581 -0.095328 -0.076439 76 153 0
0.033447 0.148838 -0.096976 153 0 76
0.125144 -0.481314 -0.143295 255 0 0
-0.496713 -0.478901 -0.172415 127 127 0
-0.027090 0.732659 -0.073933 153 0 76
0.486687 -0.483156 0.048546 0 127 127
0.008293 0.444419 -0.045734 153 0 76
0.467990 -0.135360 -0.060697 76 153 0
-0.375823 -0.481345 -0.095315 127 127 0
0.504733 -0.400068 0.004627 76 153 0
-0.027551 0.861142 0.427951 153 0 76
-0.130127 -0.476812 -0.081096 255 0 0
0.511758 -0.171548 -0.072443 76 153 0
0.027959 0.277627 -0.055680 153 0 76
-0.387642 -0.481882 -0.023063 127 127 0
0.031974 -0.083399 -0.098463 153 0 76
0.008202 0.349648 -0.112435 153 0 76
-0.476811 -0.291942 -0.030198 127 0 127
0.404934 -0.090174 -0.087447 76 153 0
-0.079123 -0.472556 0.007279 255 0 0
0.035003 0.865330 0.381680 153 0 76
0.045303 0.570035 0.524888 204 51 127
-0.509465 -0.196324 -0.098366 127 0 127
-0.003693 -0.055950 -0.111499 153 0 76
0.006707 0.956854 0.288560 153 0 76
0.459801 -0.445897 -0.155713 76 153 0
0.615639 -0.484717 -0.149779 0 127 127
-0.027267 0.256042 -0.090810 153 0 76
-0.025529 0.902880 0.290934 153 0 76
-0.029620 -0.298069 -0.128272 0 255 0
0.007909 0.074476 -0.112558 153 0 76
0.590040 -0.126100 -0.044910 76 153 0
0.509683 -0.193094 -0.101318 76 153 0
0.022903 0.614981 -0.107442 153 0 76
0.038429 0.802136 0.460506 153 0 76
0.560371 -0.478716 -0.011209 0 127 127
0.019959 -0.221731 -0.127162 0 255 0
-0.101773 -0.471323 -0.121633 255 0 0
0.007130 0.475646 -0.045425 153 0 76
-0.557113 -0.106135 -0.106551 0 127 127
-0.026625 -0.102173 -0.093207 153 0 76
-0.028335 0.385317 -0.086870 153 0 76
-0.013507 0.659262 0.484088 153 0 76
-0.417776 -0.359178 -0.050609 127 0 127
-0.005071 -0.483645 0.058225 255 0 0
-0.025860 -0.182283 -0.062093 153 0 76
-0.010970 -0.438346 0.003345 0 255 0
0.059168 -0.464241 -0.147885 255 0 0
-0.052176 -0.441057 -0.015938 0 255 0
0.025686 0.097421 -0.104727 153 0 76
-0.016850 0.871911 0.351233 153 0 76
0.415727 -0.461962 -0.051489 76 153 0
-0.035174 -0.374794 -0.022127 0 255 0
-0.477869 -0.204880 -0.115068 127 0 127
-0.017034 -0.086400 -0.052943 153 0 76
0.026510 0.696351 -0.042932 153 0 76
0.455028 -0.380406 -0.150162 76 153 0
0.052528 -0.342605 -0.034189 0 255 0
-0.493418 -0.150014 -0.079135 0 127 127
0.011435 0.403314 -0.046575 153 0 76
0.027447 0.913527 0.378243 153 0 76
0.555843 -0.446972 -0.019406 76 153 0
-0.456014 -0.139825 -0.058381 0 127 127
-0.428610 -0.473307 -0.141607 127 0 127
-0.005653 0.252011 -0.110926 153 0 76
0.025830 0.835484 0.470168 153 0 76
-0.046630 -0.222819 -0.075634 0 255 0
-0.369721 -0.138298 -0.050586 0 127 127
-0.625767 -0.105526 -0.062309 0 127 127
0.045303 0.477463 0.551453 204 51 127
0.464522 -0.447744 -0.000742 76 153 0
0.006094 0.938193 0.085293 153 0 76
0.093195 -0.469363 -0.022565 255 0 0
-0.533703 -0.142497 -0.093861 0 127 127
0.106274 -0.480333 0.013589 255 0 0
0.623457 -0.484850 -0.139399 0 127 127
0.805042 -0.145863 -0.067587 76 153 0
0.790047 -0.148594 -0.097643 76 153 0
0.685961 -0.104800 -0.078985 76 153 0
-0.714013 -0.141826 -0.098365 0 127 127
-0.026928 0.697687 0.518807 153 0 76
0.373570 -0.485136 -0.150116 0 127 127
0.627329 -0.485280 -0.023336 0 127 127
0.012499 0.743274 0.461243 153 0 76
0.037518 0.322463 -0.083322 153 0 76
-0.023321 0.847845 0.039791 153 0 76
-0.530664 -0.405969 -0.150930 127 0 127
0.027370 0.840697 -0.030173 153 0 76
0.047348 -0.286762 -0.039254 0 255 0
0.035384 0.574374 -0.066976 153 0 76
0.037711 0.784477 -0.041899 153 0 76
0.046891 -0.243850 -0.109657 0 255 0
0.063239 -0.292771 -0.073615 0 255 0
-0.750638 -0.115909 -0.090565 0 127 127
-0.528636 -0.388146 -0.005966 127 0 127
0.448749 -0.281365 -0.076429 76 153 0
-0.049853 -0.433975 -0.143381 0 255 0
0.514316 -0.152787 -0.106195 76 153 0
0.028703 0.907691 0.176636 153 0 76
-0.551046 -0.431055 -0.023362 127 0 127
-0.017227 0.750056 0.519832 153 0 76
0.703249 -0.147901 -0.096405 76 153 0
0.535571 -0.268083 -0.092026 76 153 0
-0.481394 -0.347021 -0.008881 127 0 127
0.040107 0.473893 0.502067 204 51 127
-0.061057 -0.351161 -0.067204 0 255 0
-0.075321 -0.468787 -0.149450 255 0 0
-0.062177 -0.475012 0.024972 255 0 0
0.482331 -0.216523 -0.122937 76 153 0
0.034676 0.039740 -0.093808 153 0 76
-0.077873 -0.435945 -0.095697 0 255 0
0.037526 0.659075 0.509915 153 0 76
0.434081 -0.330312 -0.060548 76 153 0
-0.005592 0.797319 -0.066745 153 0 76
0.422873 -0.354354 -0.073192 76 153 0
0.399506 -0.479471 -0.087246 0 127 127
-0.539823 -0.134766 -0.059455 0 127 127
0.799909 -0.139794 -0.061213 76 153 0
0.403904 -0.492721 0.032366 0 127 127
-0.491877 -0.231534 -0.115831 127 0 127
0.028587 0.445294 -0.101793 153 0 76
-0.404263 -0.408476 -0.068498 127 0 127
0.423378 -0.480021 -0.005068 0 127 127
0.034635 0.689245 0.492292 153 0 76
-0.547100 -0.349261 -0.117097 127 0 127
-0.028313 0.688860 -0.061350 153 0 76
0.030989 -0.293830 -0.025895 0 255 0
-0.002360 0.530102 0.480026 204 51 127
0.469216 -0.160614 -0.083573 76 153 0
0.496090 -0.113312 -0.046211 76 153 0
0.085773 -0.440129 -0.062134 0 255 0
-0.840781 -0.149200 -0.074774 0 127 127
-0.025301 -0.444377 0.000402 0 255 0
-0.473652 -0.103088 -0.058927 0 127 127
0.586954 -0.135928 -0.113311 76 153 0
-0.054298 -0.473145 0.023613 255 0 0
0.034147 0.427452 -0.095724 153 0 76
0.564351 -0.450187 -0.126652 76 153 0
0.014417 0.102011 -0.110791 153 0 76
-0.662229 -0.153246 -0.094005 0 127 127
0.476036 -0.162791 -0.064519 76 153 0
-0.406441 -0.458145 -0.098062 127 0 127
0.510767 -0.178207 -0.085810 76 153 0
-0.567111 -0.465194 -0.107740 127 0 127
-0.501906 -0.439585 -0.161581 127 0 127
0.590900 -0.096380 -0.081485 76 153 0
