ply
format ascii 1.0
element vertex 620
property float x
property float y
property float z
property float nx
property float ny
property float nz
property uchar red
property uchar green
property uchar blue
property float opacity
end_header
-0.367301 -0.348698 0.149916 -1.000000 0.000000 0.000000 225 225 225 1.000000
-0.225840 0.224626 0.267359 0.000000 0.000000 1.000000 225 225 225 1.000000
-0.101822 -0.460185 -0.441568 0.000000 0.000000 -1.000000 202 208 218 1.000000
-0.367301 0.242655 -0.244669 -1.000000 0.000000 0.000000 225 225 225 1.000000
0.186375 -0.638830 -0.441568 0.000000 0.000000 -1.000000 197 203 213 1.000000
0.341625 -0.447374 0.081771 1.000000 0.000000 0.000000 225 225 225 1.000000
-0.166858 -0.774064 -0.032708 0.000000 1.000000 0.000000 206 212 222 1.000000
0.154626 -0.774064 0.036139 0.000000 1.000000 0.000000 204 210 220 1.000000
-0.367301 -0.718390 -0.267417 1.000000 0.000000 0.000000 225 225 225 1.000000
0.341625 -0.534543 -0.153673 -1.000000 0.000000 0.000000 225 225 225 1.000000
-0.367301 0.455256 0.114562 -1.000000 0.000000 0.000000 225 225 225 1.000000
0.341625 0.079656 -0.372446 1.000000 0.000000 0.000000 225 225 225 1.000000
-0.267587 0.261113 0.329592 0.084440 0.000000 -0.996429 225 225 225 1.000000
0.341625 -0.411820 0.029843 -1.000000 0.000000 0.000000 225 225 225 1.000000
-0.122841 0.830349 -0.041006 0.000000 -1.000000 0.000000 225 225 225 1.000000
0.185474 -0.715480 0.282284 0.000000 0.000000 1.000000 255 255 255 1.000000
-0.367301 -0.510417 -0.384673 -1.000000 0.000000 0.000000 225 225 225 1.000000
0.206785 -0.587130 0.282284 0.000000 0.000000 -1.000000 164 177 186 1.000000
-0.367301 -0.522863 0.041588 1.000000 0.000000 0.000000 225 225 225 1.000000
-0.346549 -0.193920 0.267359 0.000000 0.000000 1.000000 255 255 255 1.000000
0.341625 0.048309 -0.005540 1.000000 0.000000 0.000000 225 225 225 1.000000
-0.250511 -0.654640 0.267359 0.000000 0.000000 -1.000000 164 177 186 1.000000
0.105755 0.515759 0.267359 0.000000 0.000000 1.000000 255 255 255 1.000000
-0.366765 0.102203 -0.441568 0.000000 0.000000 -1.000000 199 205 215 1.000000
-0.272093 -0.216599 0.282284 0.000000 0.000000 1.000000 255 255 255 1.000000
0.331029 -0.519521 0.282284 0.000000 0.000000 1.000000 225 225 225 1.000000
0.007548 -0.277751 0.267359 0.000000 0.000000 1.000000 255 255 255 1.000000
0.321963 0.560233 -0.441568 0.000000 0.000000 -1.000000 202 208 218 1.000000
0.198081 0.507712 0.282284 0.000000 0.000000 1.000000 164 177 186 1.000000
-0.367301 0.111856 0.193077 -1.000000 0.000000 0.000000 225 225 225 1.000000
0.341625 0.582255 -0.420726 -1.000000 0.000000 0.000000 225 225 225 1.000000
0.323325 0.693600 0.267359 0.000000 0.000000 1.000000 255 255 255 1.000000
0.341625 0.558486 -0.020233 -1.000000 0.000000 0.000000 225 225 225 1.000000
0.114593 0.492012 0.282284 0.000000 0.000000 -1.000000 255 255 255 1.000000
-0.117481 0.631541 0.267359 0.000000 0.000000 -1.000000 164 177 186 1.000000
0.341625 0.320502 -0.148906 1.000000 0.000000 0.000000 225 225 225 1.000000
0.206580 0.830349 -0.257308 0.000000 -1.000000 0.000000 225 225 225 1.000000
0.341625 0.689254 0.224122 -1.000000 0.000000 0.000000 225 225 225 1.000000
-0.343304 0.177034 0.267359 0.000000 0.000000 -1.000000 164 177 186 1.000000
0.341625 -0.755256 -0.136606 -1.000000 0.000000 0.000000 225 225 225 1.000000
0.341625 -0.725663 -0.262618 1.000000 0.000000 0.000000 225 225 225 1.000000
-0.150906 0.312048 0.282284 0.000000 0.000000 -1.000000 255 255 255 1.000000
-0.099409 -0.114751 0.339104 0.028695 0.000000 -0.999588 225 225 225 1.000000
0.123303 -0.640096 0.282284 0.000000 0.000000 -1.000000 164 177 186 1.000000
0.341625 0.271961 -0.389570 1.000000 0.000000 0.000000 225 225 225 1.000000
0.260591 0.503969 -0.441568 0.000000 0.000000 1.000000 209 215 225 1.000000
0.186393 -0.272451 0.267359 0.000000 0.000000 -1.000000 164 177 186 1.000000
-0.174448 0.797871 -0.441568 0.000000 0.000000 1.000000 195 200 216 1.000000
-0.367301 -0.082481 0.240961 1.000000 0.000000 0.000000 225 225 225 1.000000
0.032215 0.818108 0.340048 -0.014933 0.000000 -0.999888 225 225 225 1.000000
0.284516 -0.774064 0.004777 0.000000 1.000000 0.000000 206 212 222 1.000000
-0.367301 0.777609 0.213492 1.000000 0.000000 0.000000 225 225 225 1.000000
0.249349 0.274440 0.267359 0.000000 0.000000 -1.000000 164 177 186 1.000000
0.341625 -0.424793 -0.186958 -1.000000 0.000000 0.000000 225 225 225 1.000000
-0.033107 -0.196809 0.282284 0.000000 0.000000 1.000000 255 255 255 1.000000
-0.115178 -0.774064 0.003019 0.000000 -1.000000 0.000000 202 208 218 1.000000
0.270261 -0.774064 -0.181971 0.000000 -1.000000 0.000000 196 202 212 1.000000
0.341625 -0.666034 -0.011782 -1.000000 0.000000 0.000000 225 225 225 1.000000
-0.367301 -0.409215 -0.226065 -1.000000 0.000000 0.000000 225 225 225 1.000000
0.266548 -0.217380 0.267359 0.000000 0.000000 1.000000 255 255 255 1.000000
0.341625 0.118272 0.083383 -1.000000 0.000000 0.000000 225 225 225 1.000000
-0.211934 0.613009 0.333779 0.065993 0.000000 -0.997820 225 225 225 1.000000
0.341625 -0.170726 0.298706 1.000000 0.000000 0.000000 225 225 225 1.000000
-0.367301 -0.754942 -0.114669 1.000000 0.000000 0.000000 225 225 225 1.000000
-0.229872 0.480071 -0.441568 0.000000 0.000000 1.000000 206 212 222 1.000000
-0.012053 0.346046 0.282284 0.000000 0.000000 -1.000000 255 255 255 1.000000
-0.367301 -0.450229 -0.383574 1.000000 0.000000 0.000000 225 225 225 1.000000
-0.367301 0.329505 0.101504 -1.000000 0.000000 0.000000 225 225 225 1.000000
-0.113008 -0.301420 0.282284 0.000000 0.000000 -1.000000 164 177 186 1.000000
0.341625 -0.072149 -0.338859 -1.000000 0.000000 0.000000 225 225 225 1.000000
0.048305 -0.711574 0.282284 0.000000 0.000000 -1.000000 164 177 186 1.000000
0.031750 0.499170 0.282284 0.000000 0.000000 -1.000000 255 255 255 1.000000
-0.333147 -0.287590 -0.441568 0.000000 0.000000 -1.000000 198 204 214 1.000000
-0.109586 0.028774 -0.441568 0.000000 0.000000 1.000000 205 211 221 1.000000
-0.019570 -0.074924 -0.441568 0.000000 0.000000 -1.000000 204 210 220 1.000000
-0.023598 -0.246290 0.267359 0.000000 0.000000 1.000000 255 255 255 1.000000
-0.076046 0.771532 0.267359 0.000000 0.000000 -1.000000 164 177 186 1.000000
-0.006259 0.259872 0.282284 0.000000 0.000000 -1.000000 255 255 255 1.000000
0.341625 -0.321475 0.308331 -1.000000 0.000000 0.000000 225 225 225 1.000000
0.172495 0.830349 -0.160687 0.000000 1.000000 0.000000 225 225 225 1.000000
-0.228196 -0.137028 0.282284 0.000000 0.000000 1.000000 255 255 255 1.000000
-0.367301 0.228219 -0.061052 -1.000000 0.000000 0.000000 225 225 225 1.000000
-0.367301 -0.075925 -0.092096 -1.000000 0.000000 0.000000 225 225 225 1.000000
-0.221540 0.731833 0.282284 0.000000 0.000000 1.000000 164 177 186 1.000000
-0.267163 0.805338 0.267359 0.000000 0.000000 1.000000 255 255 255 1.000000
0.270104 -0.362283 0.282284 0.000000 0.000000 -1.000000 164 177 186 1.000000
-0.175492 -0.116997 -0.441568 0.000000 0.000000 -1.000000 198 204 214 1.000000
-0.217339 0.830349 0.196541 0.000000 1.000000 0.000000 225 225 225 1.000000
-0.281955 -0.737657 0.282284 0.000000 0.000000 -1.000000 164 177 186 1.000000
0.046291 -0.774064 0.125418 0.000000 -1.000000 0.000000 198 204 214 1.000000
0.141098 0.830349 -0.337490 0.000000 1.000000 0.000000 225 225 225 1.000000
0.060637 0.691537 0.267359 0.000000 0.000000 -1.000000 164 177 186 1.000000
-0.315794 -0.774064 0.158332 0.000000 -1.000000 0.000000 202 208 218 1.000000
-0.041259 -0.573388 0.282284 0.000000 0.000000 1.000000 255 255 255 1.000000
0.341625 -0.625805 -0.016195 1.000000 0.000000 0.000000 225 225 225 1.000000
0.139588 0.377721 0.267359 0.000000 0.000000 1.000000 255 255 255 1.000000
-0.355628 0.708222 0.320861 0.105801 0.000000 -0.994387 225 225 225 1.000000
-0.367301 0.151051 0.171715 -1.000000 0.000000 0.000000 225 225 225 1.000000
-0.367301 -0.560654 0.108849 1.000000 0.000000 0.000000 225 225 225 1.000000
0.068311 -0.627356 0.282284 0.000000 0.000000 1.000000 255 255 255 1.000000
0.014311 -0.774064 -0.014211 0.000000 1.000000 0.000000 195 201 211 1.000000
-0.341425 -0.153793 0.267359 0.000000 0.000000 -1.000000 164 177 186 1.000000
0.289325 -0.234538 0.325263 -0.099064 -0.000000 -0.995081 225 225 225 1.000000
-0.194698 -0.766743 0.282284 0.000000 0.000000 1.000000 225 225 225 1.000000
0.237011 -0.774064 0.210951 0.000000 -1.000000 0.000000 204 210 220 1.000000
0.167419 0.668593 0.335075 0.059746 0.000000 0.998214 225 225 225 1.000000
-0.345899 -0.078795 0.321915 0.104188 0.000000 -0.994558 225 225 225 1.000000
0.341625 -0.555240 -0.314408 -1.000000 0.000000 0.000000 225 225 225 1.000000
0.221675 0.615152 0.282284 0.000000 0.000000 -1.000000 255 255 255 1.000000
-0.066274 -0.766339 0.339966 -0.017712 0.000000 0.999843 225 225 225 1.000000
0.329626 0.103708 0.267359 0.000000 0.000000 1.000000 225 225 225 1.000000
0.224726 0.328589 0.331113 -0.078741 0.000000 -0.996895 225 225 225 1.000000
0.066037 0.830349 0.027432 0.000000 -1.000000 0.000000 225 225 225 1.000000
0.065221 0.687841 -0.441568 0.000000 0.000000 1.000000 205 211 221 1.000000
-0.215185 -0.025321 0.333555 -0.067071 0.000000 0.997748 225 225 225 1.000000
0.341625 0.797767 -0.186078 -1.000000 0.000000 0.000000 225 225 225 1.000000
0.284990 -0.774064 0.130249 0.000000 1.000000 0.000000 206 212 222 1.000000
0.178215 -0.660890 0.334332 0.063327 0.000000 0.997993 225 225 225 1.000000
-0.183281 0.830349 -0.227447 0.000000 1.000000 0.000000 225 225 225 1.000000
-0.367301 0.600626 -0.326215 1.000000 0.000000 0.000000 225 225 225 1.000000
0.149698 -0.330548 -0.441568 0.000000 0.000000 -1.000000 205 211 221 1.000000
-0.169408 -0.158172 0.282284 0.000000 0.000000 1.000000 255 255 255 1.000000
0.286778 0.774746 0.325539 -0.098642 0.000000 -0.995123 225 225 225 1.000000
-0.367301 -0.657573 -0.007955 -1.000000 0.000000 0.000000 225 225 225 1.000000
0.215918 -0.774064 -0.290523 0.000000 1.000000 0.000000 191 197 207 1.000000
-0.055515 0.546827 0.267359 0.000000 0.000000 1.000000 255 255 255 1.000000
0.315366 -0.084527 0.282284 0.000000 0.000000 -1.000000 164 177 186 1.000000
-0.367301 0.405187 -0.407414 1.000000 0.000000 0.000000 225 225 225 1.000000
0.211263 -0.707152 0.282284 0.000000 0.000000 1.000000 255 255 255 1.000000
-0.029180 0.224385 0.267359 0.000000 0.000000 1.000000 225 225 225 1.000000
0.168500 0.240821 0.321317 0.000000 1.000000 0.000000 225 225 225 1.000000
-0.367301 0.808083 -0.113244 1.000000 0.000000 0.000000 225 225 225 1.000000
-0.182817 0.791862 0.282284 0.000000 0.000000 -1.000000 255 255 255 1.000000
-0.278218 -0.592705 0.328650 -0.087964 0.000000 0.996124 225 225 225 1.000000
-0.118381 -0.172530 -0.441568 0.000000 0.000000 -1.000000 196 202 212 1.000000
-0.367301 0.795587 0.062975 -1.000000 0.000000 0.000000 225 225 225 1.000000
0.130790 0.344542 0.267359 0.000000 0.000000 -1.000000 164 177 186 1.000000
-0.367301 0.391537 -0.308236 -1.000000 0.000000 0.000000 225 225 225 1.000000
-0.255188 0.240821 0.283186 0.000000 -1.000000 0.000000 225 225 225 1.000000
0.180055 -0.292318 0.282284 0.000000 0.000000 -1.000000 164 177 186 1.000000
0.014476 0.080739 -0.441568 0.000000 0.000000 -1.000000 202 208 218 1.000000
-0.367301 0.813897 -0.171118 1.000000 0.000000 0.000000 225 225 225 1.000000
0.058324 -0.468222 0.339557 0.023587 0.000000 0.999722 225 225 225 1.000000
0.188876 0.782250 0.282284 0.000000 0.000000 -1.000000 255 255 255 1.000000
-0.350863 -0.774064 0.290574 -0.000000 1.000000 -0.000000 188 194 204 1.000000
0.254092 0.300613 0.267359 0.000000 0.000000 -1.000000 164 177 186 1.000000
0.336841 0.141971 0.282284 0.000000 0.000000 -1.000000 225 225 225 1.000000
0.341625 0.445437 0.100193 -1.000000 0.000000 0.000000 225 225 225 1.000000
-0.053418 0.064011 0.340092 0.013451 0.000000 -0.999910 225 225 225 1.000000
-0.014226 0.830349 -0.208701 0.000000 -1.000000 0.000000 225 225 225 1.000000
0.011937 -0.246250 0.267359 0.000000 0.000000 -1.000000 164 177 186 1.000000
-0.367301 -0.524120 -0.417471 1.000000 0.000000 0.000000 225 225 225 1.000000
0.337909 -0.769475 0.267359 0.000000 0.000000 -1.000000 225 225 225 1.000000
-0.367301 0.062894 -0.273821 1.000000 0.000000 0.000000 225 225 225 1.000000
0.248887 0.227562 0.267359 0.000000 0.000000 -1.000000 225 225 225 1.000000
0.325015 0.306356 0.321396 0.104983 -0.000000 0.994474 225 225 225 1.000000
0.293467 -0.459437 0.324814 -0.099751 -0.000000 -0.995012 225 225 225 1.000000
0.341625 0.573004 -0.073195 1.000000 0.000000 0.000000 225 225 225 1.000000
0.326700 0.366348 0.281335 -1.000000 0.000000 0.000000 225 225 225 1.000000
-0.205628 -0.582091 0.334213 0.063902 0.000000 -0.997956 225 225 225 1.000000
-0.345684 -0.437283 0.282284 0.000000 0.000000 -1.000000 164 177 186 1.000000
0.123108 -0.774064 0.068441 0.000000 1.000000 0.000000 197 203 213 1.000000
-0.157979 0.411227 0.336853 0.048109 0.000000 -0.998842 225 225 225 1.000000
-0.096399 0.724011 -0.441568 0.000000 0.000000 -1.000000 195 201 211 1.000000
-0.161922 -0.162132 -0.441568 0.000000 0.000000 -1.000000 199 205 215 1.000000
0.116506 -0.537627 0.267359 0.000000 0.000000 -1.000000 164 177 186 1.000000
0.248262 -0.072943 -0.441568 0.000000 0.000000 -1.000000 208 214 224 1.000000
-0.135913 0.167300 0.337937 0.040793 0.000000 -0.999168 225 225 225 1.000000
-0.220385 -0.531369 0.267359 0.000000 0.000000 -1.000000 164 177 186 1.000000
-0.020825 0.687683 0.267359 0.000000 0.000000 1.000000 255 255 255 1.000000
-0.079990 0.830349 -0.290752 0.000000 1.000000 0.000000 225 225 225 1.000000
-0.191861 -0.774064 0.144408 0.000000 -1.000000 0.000000 204 210 220 1.000000
-0.007632 -0.774064 -0.168483 0.000000 -1.000000 0.000000 202 208 218 1.000000
-0.367301 -0.049112 -0.175882 -1.000000 0.000000 0.000000 225 225 225 1.000000
0.341625 0.037600 -0.311640 -1.000000 0.000000 0.000000 225 225 225 1.000000
0.094300 -0.774064 0.101414 0.000000 1.000000 0.000000 211 217 227 1.000000
0.341625 0.732387 -0.199677 1.000000 0.000000 0.000000 225 225 225 1.000000
-0.309325 0.714127 -0.441568 0.000000 0.000000 1.000000 206 212 222 1.000000
0.019863 -0.678650 -0.441568 0.000000 0.000000 1.000000 203 209 219 1.000000
-0.367301 0.791988 -0.441321 -1.000000 0.000000 0.000000 225 225 225 1.000000
0.215910 -0.381298 0.282284 0.000000 0.000000 -1.000000 164 177 186 1.000000
-0.238475 -0.714831 0.267359 0.000000 0.000000 1.000000 255 255 255 1.000000
0.314683 -0.510573 0.322515 0.103270 0.000000 0.994653 225 225 225 1.000000
-0.235340 0.400242 0.267359 0.000000 0.000000 1.000000 255 255 255 1.000000
-0.367301 -0.126364 0.298997 -1.000000 -0.000000 0.000000 225 225 225 1.000000
-0.050833 0.324541 0.267359 0.000000 0.000000 -1.000000 164 177 186 1.000000
0.223304 -0.204872 -0.441568 0.000000 0.000000 1.000000 206 212 222 1.000000
0.099234 0.824263 0.267359 0.000000 0.000000 1.000000 225 225 225 1.000000
-0.014852 0.830349 -0.036166 0.000000 -1.000000 0.000000 225 225 225 1.000000
0.193890 -0.774064 -0.077266 0.000000 1.000000 0.000000 196 202 212 1.000000
0.341625 0.517424 -0.187853 1.000000 0.000000 0.000000 225 225 225 1.000000
0.260187 0.071926 0.267359 0.000000 0.000000 1.000000 255 255 255 1.000000
0.341625 -0.442710 0.049803 -1.000000 0.000000 0.000000 225 225 225 1.000000
-0.037907 -0.637455 0.267359 0.000000 0.000000 -1.000000 164 177 186 1.000000
0.330350 0.631785 -0.441568 0.000000 0.000000 1.000000 202 208 218 1.000000
0.341625 -0.345720 0.266253 -1.000000 0.000000 0.000000 225 225 225 1.000000
-0.105761 0.276775 0.267359 0.000000 0.000000 1.000000 255 255 255 1.000000
0.338789 -0.447576 -0.441568 0.000000 0.000000 -1.000000 205 211 221 1.000000
0.164110 -0.774064 -0.191578 0.000000 -1.000000 0.000000 198 204 214 1.000000
0.341625 0.568801 -0.190746 1.000000 0.000000 0.000000 225 225 225 1.000000
0.341625 0.409454 0.260999 1.000000 0.000000 0.000000 225 225 225 1.000000
-0.150343 0.748239 0.337228 -0.045578 0.000000 0.998961 225 225 225 1.000000
0.341625 0.614603 0.214058 1.000000 0.000000 0.000000 225 225 225 1.000000
-0.197541 0.805561 0.334769 -0.061221 0.000000 0.998124 225 225 225 1.000000
-0.003445 0.203307 0.291901 0.000000 1.000000 0.000000 225 225 225 1.000000
-0.054304 -0.774064 0.013679 0.000000 1.000000 0.000000 203 209 219 1.000000
0.306776 0.796267 0.267359 0.000000 0.000000 1.000000 255 255 255 1.000000
0.341625 0.356590 0.211936 -1.000000 0.000000 0.000000 225 225 225 1.000000
0.098057 -0.640706 0.282284 0.000000 0.000000 -1.000000 164 177 186 1.000000
0.235095 -0.653865 0.282284 0.000000 0.000000 -1.000000 164 177 186 1.000000
-0.355487 0.293832 0.267359 0.000000 0.000000 1.000000 225 225 225 1.000000
0.079109 0.145496 0.282284 0.000000 0.000000 1.000000 255 255 255 1.000000
-0.278172 0.567540 0.282284 0.000000 0.000000 1.000000 164 177 186 1.000000
0.341625 -0.408435 -0.271925 1.000000 0.000000 0.000000 225 225 225 1.000000
0.226737 -0.632895 0.267359 0.000000 0.000000 -1.000000 164 177 186 1.000000
0.341625 0.414630 0.128607 -1.000000 0.000000 0.000000 225 225 225 1.000000
0.021538 0.041485 0.340153 -0.011394 0.000000 -0.999935 225 225 225 1.000000
0.317054 -0.774064 0.016792 0.000000 -1.000000 0.000000 207 213 223 1.000000
-0.110828 -0.431064 0.267359 0.000000 0.000000 1.000000 255 255 255 1.000000
0.331510 -0.119149 -0.441568 0.000000 0.000000 -1.000000 206 212 222 1.000000
0.251041 -0.433142 -0.441568 0.000000 0.000000 -1.000000 202 208 218 1.000000
-0.367301 0.186448 0.198786 -1.000000 0.000000 0.000000 225 225 225 1.000000
0.197513 -0.643609 0.267359 0.000000 0.000000 -1.000000 164 177 186 1.000000
-0.367301 0.224886 -0.294879 1.000000 0.000000 0.000000 225 225 225 1.000000
0.074095 -0.076405 -0.441568 0.000000 0.000000 1.000000 207 213 223 1.000000
-0.078792 -0.753048 0.282284 0.000000 0.000000 -1.000000 164 177 186 1.000000
-0.340228 -0.361881 0.322529 0.103248 0.000000 -0.994656 225 225 225 1.000000
0.059237 -0.774064 -0.335593 0.000000 -1.000000 0.000000 200 206 216 1.000000
0.341625 0.003129 0.218283 -1.000000 0.000000 0.000000 225 225 225 1.000000
0.280745 0.526966 0.267359 0.000000 0.000000 1.000000 255 255 255 1.000000
0.324627 -0.631431 0.282284 0.000000 0.000000 -1.000000 164 177 186 1.000000
-0.096639 -0.774064 0.200558 0.000000 1.000000 0.000000 198 204 214 1.000000
-0.068200 0.740373 0.339947 -0.018350 0.000000 0.999832 225 225 225 1.000000
-0.209217 -0.774064 -0.186728 0.000000 -1.000000 0.000000 199 205 215 1.000000
0.231998 0.166932 0.282284 0.000000 0.000000 -1.000000 164 177 186 1.000000
0.341625 0.131476 -0.331952 -1.000000 0.000000 0.000000 225 225 225 1.000000
-0.320265 -0.077633 0.267359 0.000000 0.000000 1.000000 255 255 255 1.000000
-0.367301 -0.566497 -0.323441 -1.000000 0.000000 0.000000 225 225 225 1.000000
-0.080248 -0.345883 0.339668 -0.022343 0.000000 0.999750 225 225 225 1.000000
-0.367301 -0.548709 0.308396 1.000000 0.000000 -0.000000 225 225 225 1.000000
-0.145429 0.187775 0.337470 -0.043948 0.000000 0.999034 225 225 225 1.000000
-0.345181 0.579540 0.282284 0.000000 0.000000 -1.000000 255 255 255 1.000000
0.341625 -0.136547 0.137303 -1.000000 0.000000 0.000000 225 225 225 1.000000
-0.242252 0.043214 0.267359 0.000000 0.000000 -1.000000 164 177 186 1.000000
-0.048825 -0.271553 0.267359 0.000000 0.000000 -1.000000 164 177 186 1.000000
0.109672 -0.759139 0.268823 0.000000 -1.000000 0.000000 196 202 212 1.000000
0.091547 0.324178 -0.441568 0.000000 0.000000 1.000000 208 214 224 1.000000
0.173970 -0.774064 0.092725 0.000000 -1.000000 0.000000 204 210 220 1.000000
0.341625 0.137379 -0.382081 1.000000 0.000000 0.000000 225 225 225 1.000000
0.002519 0.154457 0.282284 0.000000 0.000000 1.000000 255 255 255 1.000000
-0.367301 -0.620041 -0.232173 -1.000000 0.000000 0.000000 225 225 225 1.000000
0.326935 -0.600844 -0.441568 0.000000 0.000000 -1.000000 198 204 214 1.000000
-0.030736 0.390615 0.340315 -0.005932 0.000000 0.999982 225 225 225 1.000000
-0.367301 0.598267 0.119898 1.000000 0.000000 0.000000 225 225 225 1.000000
-0.367301 -0.374390 -0.162747 1.000000 0.000000 0.000000 225 225 225 1.000000
0.165885 -0.774064 -0.352767 0.000000 1.000000 0.000000 197 203 213 1.000000
0.157564 0.518068 0.267359 0.000000 0.000000 -1.000000 164 177 186 1.000000
-0.174771 -0.620095 0.336029 0.053675 0.000000 -0.998558 225 225 225 1.000000
-0.166417 0.269719 0.267359 0.000000 0.000000 1.000000 255 255 255 1.000000
0.341625 0.649366 -0.058110 1.000000 0.000000 0.000000 225 225 225 1.000000
-0.101951 0.569021 0.282284 0.000000 0.000000 1.000000 164 177 186 1.000000
-0.078040 -0.651510 0.339733 0.021611 0.000000 -0.999766 225 225 225 1.000000
0.094995 0.491037 -0.441568 0.000000 0.000000 1.000000 208 214 224 1.000000
-0.065727 0.213255 0.267359 0.000000 0.000000 1.000000 225 225 225 1.000000
0.146444 -0.132397 0.267359 0.000000 0.000000 1.000000 255 255 255 1.000000
0.341625 0.559068 0.302707 1.000000 0.000000 0.000000 225 225 225 1.000000
0.234607 -0.129442 -0.441568 0.000000 0.000000 1.000000 206 212 222 1.000000
0.341625 -0.573083 -0.143204 1.000000 0.000000 0.000000 225 225 225 1.000000
-0.221291 -0.774064 0.089668 0.000000 -1.000000 0.000000 201 207 217 1.000000
-0.311070 0.381474 0.267359 0.000000 0.000000 1.000000 255 255 255 1.000000
0.263406 -0.405859 0.267359 0.000000 0.000000 1.000000 255 255 255 1.000000
-0.075235 0.101619 0.282284 0.000000 0.000000 1.000000 255 255 255 1.000000
0.092791 -0.774064 -0.310437 0.000000 1.000000 0.000000 204 210 220 1.000000
0.132706 -0.347531 0.336833 -0.048243 0.000000 -0.998836 225 225 225 1.000000
0.211684 -0.668701 0.332030 0.074420 0.000000 0.997227 225 225 225 1.000000
0.302097 0.563704 0.282284 0.000000 0.000000 -1.000000 255 255 255 1.000000
-0.129599 -0.750991 0.282284 0.000000 0.000000 -1.000000 164 177 186 1.000000
-0.043619 -0.565111 -0.441568 0.000000 0.000000 1.000000 202 208 218 1.000000
-0.346416 0.400699 -0.441568 0.000000 0.000000 1.000000 204 210 220 1.000000
-0.186281 0.686426 0.335463 0.057488 0.000000 -0.998346 225 225 225 1.000000
0.341625 -0.110892 0.319415 -1.000000 0.000000 0.000000 225 225 225 1.000000
-0.367301 -0.334272 -0.295657 -1.000000 0.000000 0.000000 225 225 225 1.000000
0.341625 0.104221 0.155994 1.000000 0.000000 0.000000 225 225 225 1.000000
-0.367301 0.685932 0.219924 1.000000 0.000000 0.000000 225 225 225 1.000000
0.219184 -0.347463 0.331514 0.076904 0.000000 0.997038 225 225 225 1.000000
0.341625 0.078655 -0.427503 -1.000000 0.000000 0.000000 225 225 225 1.000000
0.341625 -0.720337 -0.032110 -1.000000 0.000000 0.000000 225 225 225 1.000000
0.341625 -0.300823 -0.138739 -1.000000 0.000000 0.000000 225 225 225 1.000000
0.179683 -0.774064 -0.246193 0.000000 -1.000000 0.000000 200 206 216 1.000000
0.341625 -0.739639 -0.235895 -1.000000 0.000000 0.000000 225 225 225 1.000000
-0.367301 0.158415 0.004005 -1.000000 0.000000 0.000000 225 225 225 1.000000
-0.272071 0.614613 -0.441568 0.000000 0.000000 -1.000000 204 210 220 1.000000
-0.367301 -0.755981 -0.157454 -1.000000 0.000000 0.000000 225 225 225 1.000000
-0.367301 0.208234 0.253368 -1.000000 0.000000 0.000000 225 225 225 1.000000
-0.367301 -0.243492 0.062950 1.000000 0.000000 0.000000 225 225 225 1.000000
0.201993 -0.098778 -0.441568 0.000000 0.000000 1.000000 206 212 222 1.000000
0.319815 0.818582 0.282284 0.000000 0.000000 -1.000000 225 225 225 1.000000
0.277800 0.399303 0.282284 0.000000 0.000000 1.000000 164 177 186 1.000000
-0.367301 -0.078936 0.040351 -1.000000 0.000000 0.000000 225 225 225 1.000000
-0.162251 0.830349 -0.131389 0.000000 1.000000 0.000000 225 225 225 1.000000
-0.307598 0.544886 0.267359 0.000000 0.000000 1.000000 255 255 255 1.000000
-0.142758 0.713496 0.282284 0.000000 0.000000 -1.000000 255 255 255 1.000000
0.017395 -0.666823 0.282284 0.000000 0.000000 1.000000 255 255 255 1.000000
0.239824 0.716241 0.267359 0.000000 0.000000 -1.000000 164 177 186 1.000000
-0.182021 0.119117 0.282284 0.000000 0.000000 -1.000000 164 177 186 1.000000
-0.180258 0.739251 0.267359 0.000000 0.000000 1.000000 255 255 255 1.000000
-0.253998 -0.124563 -0.441568 0.000000 0.000000 -1.000000 198 204 214 1.000000
0.287105 0.632784 -0.441568 0.000000 0.000000 -1.000000 202 208 218 1.000000
-0.329643 -0.774064 -0.174630 0.000000 -1.000000 0.000000 202 208 218 1.000000
0.341625 -0.068977 -0.029385 1.000000 0.000000 0.000000 225 225 225 1.000000
0.022392 0.338214 -0.441568 0.000000 0.000000 -1.000000 210 216 226 1.000000
-0.333981 0.417397 0.267359 0.000000 0.000000 -1.000000 164 177 186 1.000000
-0.037510 -0.545992 0.267359 0.000000 0.000000 1.000000 255 255 255 1.000000
0.147556 0.088940 -0.441568 0.000000 0.000000 1.000000 210 216 226 1.000000
0.288536 0.244484 0.267359 0.000000 0.000000 -1.000000 225 225 225 1.000000
0.341625 -0.616822 0.186589 1.000000 0.000000 0.000000 225 225 225 1.000000
-0.367301 -0.252432 -0.149137 1.000000 0.000000 0.000000 225 225 225 1.000000
0.151598 0.334060 0.335906 -0.054504 0.000000 -0.998514 225 225 225 1.000000
0.341625 0.665041 0.029551 -1.000000 0.000000 0.000000 225 225 225 1.000000
-0.367301 -0.187647 -0.304649 -1.000000 0.000000 0.000000 225 225 225 1.000000
0.284138 -0.115344 -0.441568 0.000000 0.000000 -1.000000 210 216 226 1.000000
0.341625 -0.600076 0.303847 -1.000000 0.000000 0.000000 225 225 225 1.000000
-0.367301 -0.323559 -0.330132 1.000000 0.000000 0.000000 225 225 225 1.000000
0.003801 0.581248 0.282284 0.000000 0.000000 1.000000 164 177 186 1.000000
0.341625 -0.657590 -0.193418 -1.000000 0.000000 0.000000 225 225 225 1.000000
0.019827 -0.039014 0.282284 0.000000 0.000000 1.000000 255 255 255 1.000000
0.284977 -0.593165 -0.441568 0.000000 0.000000 -1.000000 198 204 214 1.000000
-0.367044 0.108776 0.267359 0.000000 0.000000 1.000000 225 225 225 1.000000
0.258315 0.501029 0.267359 0.000000 0.000000 -1.000000 164 177 186 1.000000
0.341625 -0.719335 -0.356519 -1.000000 0.000000 0.000000 225 225 225 1.000000
0.164613 -0.748031 0.335267 -0.058816 0.000000 -0.998269 225 225 225 1.000000
-0.302908 0.561797 -0.441568 0.000000 0.000000 -1.000000 207 213 223 1.000000
-0.215374 0.324492 -0.441568 0.000000 0.000000 1.000000 204 210 220 1.000000
0.015850 0.830349 -0.233671 0.000000 -1.000000 0.000000 225 225 225 1.000000
-0.000426 -0.408071 0.282284 0.000000 0.000000 1.000000 255 255 255 1.000000
-0.156280 -0.053418 0.267359 0.000000 0.000000 -1.000000 164 177 186 1.000000
-0.367301 -0.352506 -0.006306 1.000000 0.000000 0.000000 225 225 225 1.000000
-0.367301 0.046622 -0.234687 1.000000 0.000000 0.000000 225 225 225 1.000000
-0.147328 0.634441 -0.441568 0.000000 0.000000 -1.000000 202 208 218 1.000000
0.301427 0.345748 0.267359 0.000000 0.000000 -1.000000 164 177 186 1.000000
-0.171382 -0.361530 0.282284 0.000000 0.000000 -1.000000 164 177 186 1.000000
-0.055446 -0.774064 0.222061 0.000000 -1.000000 0.000000 193 199 209 1.000000
0.096980 -0.394929 0.282284 0.000000 0.000000 -1.000000 164 177 186 1.000000
-0.311681 -0.140751 0.267359 0.000000 0.000000 1.000000 255 255 255 1.000000
0.341625 -0.170384 0.098110 -1.000000 0.000000 0.000000 225 225 225 1.000000
-0.367301 0.645571 -0.210491 1.000000 0.000000 0.000000 225 225 225 1.000000
-0.367301 -0.098918 -0.312378 1.000000 0.000000 0.000000 225 225 225 1.000000
0.244962 0.193990 -0.441568 0.000000 0.000000 -1.000000 200 206 216 1.000000
0.206879 -0.445370 -0.441568 0.000000 0.000000 -1.000000 201 207 217 1.000000
-0.087278 0.815275 0.267359 0.000000 0.000000 -1.000000 164 177 186 1.000000
-0.328484 -0.119077 0.323802 -0.101300 0.000000 0.994856 225 225 225 1.000000
-0.309494 -0.830778 -0.371130 0.000000 -1.000000 0.000000 0 0 0 1.000000
-0.367301 -0.262460 -0.036591 1.000000 0.000000 0.000000 225 225 225 1.000000
0.341625 0.318429 -0.248462 1.000000 0.000000 0.000000 225 225 225 1.000000
-0.005191 -0.086301 0.282284 0.000000 0.000000 1.000000 255 255 255 1.000000
0.245528 -0.596021 0.267359 0.000000 0.000000 1.000000 255 255 255 1.000000
-0.159787 -0.272609 0.336764 0.048708 0.000000 -0.998813 225 225 225 1.000000
-0.367301 0.561290 0.222150 1.000000 0.000000 0.000000 225 225 225 1.000000
0.341625 0.090764 0.007356 -1.000000 0.000000 0.000000 225 225 225 1.000000
0.287665 -0.714549 -0.441568 0.000000 0.000000 -1.000000 205 211 221 1.000000
0.093271 0.764985 0.267359 0.000000 0.000000 -1.000000 164 177 186 1.000000
-0.137675 -0.464888 0.282284 0.000000 0.000000 1.000000 255 255 255 1.000000
0.220502 -0.569262 0.331423 0.077341 0.000000 0.997005 225 225 225 1.000000
-0.089316 0.830349 -0.365484 0.000000 -1.000000 0.000000 225 225 225 1.000000
0.250145 -0.830778 0.179262 0.000000 -1.000000 0.000000 0 0 0 1.000000
0.139942 -0.470500 0.336478 -0.050641 0.000000 -0.998717 225 225 225 1.000000
-0.164363 -0.203846 -0.441568 0.000000 0.000000 -1.000000 196 202 212 1.000000
0.341625 -0.398374 0.254748 -1.000000 0.000000 0.000000 225 225 225 1.000000
-0.367301 -0.237712 0.221119 1.000000 0.000000 0.000000 225 225 225 1.000000
0.341625 0.400401 -0.030479 -1.000000 0.000000 0.000000 225 225 225 1.000000
0.062364 -0.585406 0.282284 0.000000 0.000000 -1.000000 164 177 186 1.000000
-0.367301 -0.653958 0.115871 1.000000 0.000000 0.000000 225 225 225 1.000000
-0.163575 -0.774064 0.182242 0.000000 -1.000000 0.000000 196 202 212 1.000000
-0.222890 -0.426060 0.282284 0.000000 0.000000 1.000000 255 255 255 1.000000
0.292163 0.157031 0.267359 0.000000 0.000000 1.000000 255 255 255 1.000000
-0.367301 0.642523 0.024280 -1.000000 0.000000 0.000000 225 225 225 1.000000
0.071248 0.513599 0.339177 0.027872 0.000000 0.999611 225 225 225 1.000000
-0.292002 0.253839 -0.441568 0.000000 0.000000 -1.000000 202 208 218 1.000000
0.341625 0.474290 -0.412093 -1.000000 0.000000 0.000000 225 225 225 1.000000
-0.336007 0.471461 -0.441568 0.000000 0.000000 -1.000000 206 212 222 1.000000
-0.118335 0.630152 0.338546 0.034968 0.000000 -0.999388 225 225 225 1.000000
-0.367301 -0.589422 -0.174365 1.000000 0.000000 0.000000 225 225 225 1.000000
-0.032117 0.598461 0.340301 0.006390 0.000000 -0.999980 225 225 225 1.000000
0.167056 0.576014 0.335100 -0.059626 0.000000 -0.998221 225 225 225 1.000000
-0.044517 -0.239961 0.267359 0.000000 0.000000 -1.000000 164 177 186 1.000000
-0.367301 0.383011 -0.349013 1.000000 0.000000 0.000000 225 225 225 1.000000
-0.367301 0.263761 -0.313186 1.000000 0.000000 0.000000 225 225 225 1.000000
-0.367301 0.083136 -0.206141 -1.000000 0.000000 0.000000 225 225 225 1.000000
0.341625 0.614906 0.246283 1.000000 0.000000 0.000000 225 225 225 1.000000
-0.084995 0.225969 0.267359 0.000000 0.000000 -1.000000 225 225 225 1.000000
0.297347 -0.573388 0.282284 0.000000 0.000000 -1.000000 164 177 186 1.000000
-0.276050 -0.248434 0.267359 0.000000 0.000000 1.000000 255 255 255 1.000000
0.341625 0.616910 0.135025 1.000000 0.000000 0.000000 225 225 225 1.000000
0.274857 0.069624 0.326674 -0.095358 -0.000000 -0.995443 225 225 225 1.000000
-0.367301 0.284336 -0.076899 1.000000 0.000000 0.000000 225 225 225 1.000000
-0.215930 0.353546 -0.441568 0.000000 0.000000 -1.000000 206 212 222 1.000000
-0.274346 0.563632 -0.441568 0.000000 0.000000 -1.000000 205 211 221 1.000000
-0.357946 0.830349 0.154464 0.000000 1.000000 0.000000 225 225 225 1.000000
-0.118645 0.791921 0.267359 0.000000 0.000000 -1.000000 164 177 186 1.000000
0.341625 -0.300870 -0.252383 -1.000000 0.000000 0.000000 225 225 225 1.000000
0.341625 0.285603 -0.289769 1.000000 0.000000 0.000000 225 225 225 1.000000
-0.367301 0.601158 0.252697 -1.000000 0.000000 0.000000 225 225 225 1.000000
-0.040125 0.830349 0.137654 0.000000 -1.000000 0.000000 225 225 225 1.000000
-0.367301 0.484060 -0.358342 -1.000000 0.000000 0.000000 225 225 225 1.000000
-0.367301 0.823153 -0.200154 1.000000 0.000000 0.000000 225 225 225 1.000000
0.180702 0.705222 0.267359 0.000000 0.000000 -1.000000 164 177 186 1.000000
-0.145134 0.830349 -0.251245 0.000000 1.000000 0.000000 225 225 225 1.000000
-0.091789 -0.339432 0.267359 0.000000 0.000000 1.000000 255 255 255 1.000000
0.029600 -0.502603 0.282284 0.000000 0.000000 1.000000 255 255 255 1.000000
-0.283964 0.806664 -0.441568 0.000000 0.000000 -1.000000 204 210 220 1.000000
-0.310697 -0.239937 0.325730 -0.098350 0.000000 0.995152 225 225 225 1.000000
0.295717 0.594490 0.267359 0.000000 0.000000 1.000000 255 255 255 1.000000
-0.367301 -0.722510 -0.038593 -1.000000 0.000000 0.000000 225 225 225 1.000000
0.219599 -0.247537 0.267359 0.000000 0.000000 1.000000 255 255 255 1.000000
-0.149154 -0.008923 0.267359 0.000000 0.000000 1.000000 255 255 255 1.000000
0.341625 0.201492 0.293799 -1.000000 0.000000 0.000000 225 225 225 1.000000
-0.257034 0.830349 -0.430167 0.000000 -1.000000 0.000000 225 225 225 1.000000
-0.367301 -0.089123 -0.220054 1.000000 0.000000 0.000000 225 225 225 1.000000
0.030908 0.016479 0.267359 0.000000 0.000000 1.000000 255 255 255 1.000000
0.341625 0.484754 0.237827 -1.000000 0.000000 0.000000 225 225 225 1.000000
-0.003369 -0.161865 0.267359 0.000000 0.000000 -1.000000 164 177 186 1.000000
0.160487 0.733803 -0.441568 0.000000 0.000000 1.000000 201 206 222 1.000000
-0.039463 0.143061 0.267359 0.000000 0.000000 -1.000000 164 177 186 1.000000
-0.367301 0.518841 0.026053 1.000000 0.000000 0.000000 225 225 225 1.000000
-0.367301 0.773976 -0.309167 -1.000000 0.000000 0.000000 225 225 225 1.000000
-0.349248 -0.774064 -0.019819 0.000000 1.000000 0.000000 203 209 219 1.000000
-0.077658 0.696647 0.339744 -0.021485 0.000000 0.999769 225 225 225 1.000000
-0.111098 0.830349 -0.241540 0.000000 -1.000000 0.000000 225 225 225 1.000000
-0.367301 -0.103940 -0.099250 1.000000 0.000000 0.000000 225 225 225 1.000000
0.030482 -0.734872 -0.441568 0.000000 0.000000 -1.000000 203 209 219 1.000000
0.185381 -0.567195 0.333839 -0.065702 0.000000 -0.997839 225 225 225 1.000000
-0.056466 -0.092462 0.267359 0.000000 0.000000 1.000000 255 255 255 1.000000
0.199421 0.442341 -0.441568 0.000000 0.000000 -1.000000 192 198 208 1.000000
0.208494 0.699418 0.282284 0.000000 0.000000 -1.000000 255 255 255 1.000000
0.207230 -0.657085 0.282284 0.000000 0.000000 1.000000 255 255 255 1.000000
0.341625 -0.570599 0.063893 1.000000 0.000000 0.000000 225 225 225 1.000000
-0.019669 -0.644575 -0.441568 0.000000 0.000000 1.000000 206 212 222 1.000000
0.317494 0.588038 0.282284 0.000000 0.000000 1.000000 164 177 186 1.000000
-0.343767 0.830349 -0.272232 0.000000 1.000000 0.000000 225 225 225 1.000000
0.146026 0.830349 0.282799 0.000000 1.000000 0.000000 225 225 225 1.000000
-0.135645 0.240821 0.309979 0.000000 1.000000 0.000000 225 225 225 1.000000
-0.187268 -0.236285 0.267359 0.000000 0.000000 1.000000 255 255 255 1.000000
0.039805 -0.438247 0.339974 0.017449 0.000000 0.999848 225 225 225 1.000000
-0.367301 0.088400 0.041643 1.000000 0.000000 0.000000 225 225 225 1.000000
-0.367301 -0.266307 0.145233 1.000000 0.000000 0.000000 225 225 225 1.000000
0.341625 -0.221572 -0.338637 -1.000000 0.000000 0.000000 225 225 225 1.000000
0.281406 0.408841 0.326095 0.097527 -0.000000 0.995233 225 225 225 1.000000
-0.367301 0.224893 0.171911 1.000000 0.000000 0.000000 225 225 225 1.000000
-0.367301 0.271528 -0.045187 -1.000000 0.000000 0.000000 225 225 225 1.000000
-0.285099 0.329182 0.282284 0.000000 0.000000 -1.000000 255 255 255 1.000000
-0.171237 0.830349 0.292502 0.000000 -1.000000 0.000000 225 225 225 1.000000
-0.185881 0.808211 0.267359 0.000000 0.000000 -1.000000 164 177 186 1.000000
0.278500 0.459623 -0.441568 0.000000 0.000000 -1.000000 201 207 217 1.000000
-0.367301 -0.211672 0.212501 -1.000000 0.000000 0.000000 225 225 225 1.000000
-0.341080 -0.631072 0.282284 0.000000 0.000000 -1.000000 164 177 186 1.000000
0.341625 -0.722230 -0.060637 1.000000 0.000000 0.000000 225 225 225 1.000000
0.128932 -0.464341 0.282284 0.000000 0.000000 -1.000000 164 177 186 1.000000
-0.294751 0.693424 0.267359 0.000000 0.000000 -1.000000 164 177 186 1.000000
0.341625 -0.260240 0.292853 1.000000 0.000000 0.000000 225 225 225 1.000000
-0.279423 0.132288 -0.441568 0.000000 0.000000 -1.000000 197 203 213 1.000000
-0.019425 0.573614 0.282284 0.000000 0.000000 1.000000 164 177 186 1.000000
0.033063 0.468299 -0.441568 0.000000 0.000000 1.000000 215 221 231 1.000000
-0.329303 -0.774064 -0.296684 0.000000 -1.000000 0.000000 210 216 226 1.000000
-0.055173 0.735820 0.267359 0.000000 0.000000 1.000000 255 255 255 1.000000
-0.350204 0.557599 0.321448 0.104902 0.000000 -0.994483 225 225 225 1.000000
-0.367301 0.789197 -0.083534 1.000000 0.000000 0.000000 225 225 225 1.000000
-0.061944 -0.774064 -0.405446 0.000000 1.000000 0.000000 202 208 218 1.000000
-0.245529 0.318251 -0.441568 0.000000 0.000000 -1.000000 204 210 220 1.000000
-0.367301 0.657249 -0.011741 1.000000 0.000000 0.000000 225 225 225 1.000000
-0.293535 -0.008085 0.267359 0.000000 0.000000 1.000000 255 255 255 1.000000
0.341625 0.019382 -0.143707 -1.000000 0.000000 0.000000 225 225 225 1.000000
0.341625 0.710765 0.189209 -1.000000 0.000000 0.000000 225 225 225 1.000000
0.309209 0.285745 -0.441568 0.000000 0.000000 1.000000 200 206 216 1.000000
-0.314076 0.433840 0.325364 0.098911 0.000000 -0.995096 225 225 225 1.000000
-0.367301 -0.445696 -0.082112 -1.000000 0.000000 0.000000 225 225 225 1.000000
0.340975 0.442066 -0.441568 0.000000 0.000000 1.000000 203 209 219 1.000000
0.341625 0.683043 -0.304702 1.000000 0.000000 0.000000 225 225 225 1.000000
-0.276945 -0.774064 0.224774 0.000000 -1.000000 0.000000 202 208 218 1.000000
0.146290 0.426175 0.282284 0.000000 0.000000 1.000000 164 177 186 1.000000
0.341625 0.205353 -0.383847 -1.000000 0.000000 0.000000 225 225 225 1.000000
-0.367301 -0.281609 0.015387 -1.000000 0.000000 0.000000 225 225 225 1.000000
-0.367301 -0.233597 -0.206096 1.000000 0.000000 0.000000 225 225 225 1.000000
-0.022532 0.122857 0.282284 0.000000 0.000000 -1.000000 164 177 186 1.000000
0.341625 0.101648 -0.047840 -1.000000 0.000000 0.000000 225 225 225 1.000000
0.341625 -0.212625 -0.065143 -1.000000 0.000000 0.000000 225 225 225 1.000000
0.111936 0.830349 0.000683 0.000000 1.000000 0.000000 225 225 225 1.000000
-0.049941 0.830349 -0.372672 0.000000 -1.000000 0.000000 225 225 225 1.000000
0.192155 0.240821 0.312180 0.000000 -1.000000 0.000000 225 225 225 1.000000
-0.086764 -0.744024 0.339476 -0.024503 0.000000 0.999700 225 225 225 1.000000
-0.366610 -0.340189 0.319671 -0.107621 0.000000 0.994192 225 225 225 1.000000
0.279693 -0.457356 0.282284 0.000000 0.000000 -1.000000 164 177 186 1.000000
0.341625 0.577423 0.163443 1.000000 0.000000 0.000000 225 225 225 1.000000
0.087976 0.763108 -0.441568 0.000000 0.000000 -1.000000 199 205 215 1.000000
0.083498 -0.544097 0.338816 -0.031932 0.000000 -0.999490 225 225 225 1.000000
-0.367301 0.366396 0.104339 1.000000 0.000000 0.000000 225 225 225 1.000000
-0.367301 -0.332283 -0.030377 1.000000 0.000000 0.000000 225 225 225 1.000000
-0.254046 -0.443426 0.282284 0.000000 0.000000 1.000000 255 255 255 1.000000
0.080222 -0.045499 0.267359 0.000000 0.000000 1.000000 255 255 255 1.000000
-0.179395 -0.413264 0.267359 0.000000 0.000000 1.000000 255 255 255 1.000000
0.341625 -0.573255 -0.247188 1.000000 0.000000 0.000000 225 225 225 1.000000
0.204175 -0.774064 0.241321 0.000000 1.000000 0.000000 201 207 217 1.000000
-0.367301 0.798514 -0.274187 -1.000000 0.000000 0.000000 225 225 225 1.000000
0.341625 -0.713288 0.180319 -1.000000 0.000000 0.000000 225 225 225 1.000000
0.235496 -0.156565 0.330160 0.082313 0.000000 0.996607 225 225 225 1.000000
0.085169 -0.589690 0.267359 0.000000 0.000000 1.000000 255 255 255 1.000000
-0.205106 -0.291595 -0.441568 0.000000 0.000000 -1.000000 201 207 217 1.000000
0.061803 -0.188783 0.282284 0.000000 0.000000 -1.000000 164 177 186 1.000000
-0.202456 0.830349 0.075314 0.000000 1.000000 0.000000 225 225 225 1.000000
0.060030 0.579341 0.282284 0.000000 0.000000 1.000000 164 177 186 1.000000
0.341625 -0.660121 0.070978 1.000000 0.000000 0.000000 225 225 225 1.000000
-0.367301 0.240581 0.040152 1.000000 0.000000 0.000000 225 225 225 1.000000
-0.276296 0.776153 0.328821 -0.087327 0.000000 0.996180 225 225 225 1.000000
0.282470 0.810759 0.326000 0.097880 -0.000000 0.995198 225 225 225 1.000000
0.125155 0.390202 -0.441568 0.000000 0.000000 1.000000 208 214 224 1.000000
0.147624 -0.346368 0.282284 0.000000 0.000000 1.000000 255 255 255 1.000000
-0.322095 0.793066 0.267359 0.000000 0.000000 1.000000 255 255 255 1.000000
0.167867 -0.266195 0.335045 -0.059895 0.000000 -0.998205 225 225 225 1.000000
0.328667 -0.549947 0.267359 0.000000 0.000000 -1.000000 225 225 225 1.000000
0.163592 -0.169640 -0.441568 0.000000 0.000000 1.000000 206 212 222 1.000000
-0.367301 0.748366 -0.059656 -1.000000 0.000000 0.000000 225 225 225 1.000000
0.046027 0.346349 0.267359 0.000000 0.000000 -1.000000 164 177 186 1.000000
-0.304968 0.533755 0.326282 0.096827 0.000000 -0.995301 225 225 225 1.000000
-0.032016 0.336331 -0.441568 0.000000 0.000000 1.000000 208 214 224 1.000000
0.159142 0.007743 0.335535 0.057003 0.000000 0.998374 225 225 225 1.000000
0.241650 0.830349 -0.169615 0.000000 1.000000 0.000000 225 225 225 1.000000
-0.367301 -0.282266 0.233941 -1.000000 0.000000 0.000000 225 225 225 1.000000
-0.309508 -0.279794 -0.441568 0.000000 0.000000 -1.000000 200 206 216 1.000000
-0.000611 -0.735377 0.267359 0.000000 0.000000 -1.000000 164 177 186 1.000000
0.341625 -0.511079 0.147282 1.000000 0.000000 0.000000 225 225 225 1.000000
0.341625 -0.116674 -0.249216 -1.000000 0.000000 0.000000 225 225 225 1.000000
-0.120083 -0.269457 -0.441568 0.000000 0.000000 -1.000000 198 204 214 1.000000
0.341625 0.801915 -0.283983 1.000000 0.000000 0.000000 225 225 225 1.000000
-0.367301 -0.382823 0.123410 -1.000000 0.000000 0.000000 225 225 225 1.000000
0.341625 -0.113910 -0.323550 -1.000000 0.000000 0.000000 225 225 225 1.000000
0.134094 -0.774064 0.211594 0.000000 1.000000 0.000000 200 206 216 1.000000
0.341625 -0.416367 -0.047522 -1.000000 0.000000 0.000000 225 225 225 1.000000
-0.367301 -0.629865 -0.321389 1.000000 0.000000 0.000000 225 225 225 1.000000
-0.367301 0.262561 -0.117707 -1.000000 0.000000 0.000000 225 225 225 1.000000
-0.193652 0.659931 0.335037 -0.059931 0.000000 0.998203 225 225 225 1.000000
0.341625 -0.709483 -0.333749 -1.000000 0.000000 0.000000 225 225 225 1.000000
0.341625 0.729112 -0.383306 1.000000 0.000000 0.000000 225 225 225 1.000000
0.078393 0.466145 -0.441568 0.000000 0.000000 1.000000 215 221 231 1.000000
0.329250 -0.172770 0.267359 0.000000 0.000000 1.000000 225 225 225 1.000000
-0.136840 0.340040 0.337891 -0.041101 0.000000 0.999155 225 225 225 1.000000
0.178018 -0.606934 0.267359 0.000000 0.000000 -1.000000 164 177 186 1.000000
-0.104614 -0.729314 0.282284 0.000000 0.000000 1.000000 255 255 255 1.000000
-0.367301 -0.249291 -0.423861 1.000000 0.000000 0.000000 225 225 225 1.000000
0.321466 -0.622356 -0.441568 0.000000 0.000000 1.000000 198 204 214 1.000000
-0.006233 -0.161936 -0.441568 0.000000 0.000000 -1.000000 202 208 218 1.000000
0.100816 -0.774064 0.286506 0.000000 -1.000000 0.000000 196 202 212 1.000000
0.337550 -0.774064 -0.251260 0.000000 -1.000000 0.000000 196 202 212 1.000000
-0.110223 0.828587 0.282284 0.000000 0.000000 -1.000000 225 225 225 1.000000
-0.345942 -0.398818 0.321910 -0.104195 0.000000 0.994557 225 225 225 1.000000
-0.247211 -0.194788 -0.441568 0.000000 0.000000 -1.000000 199 205 215 1.000000
-0.367301 0.494736 -0.163446 1.000000 0.000000 0.000000 225 225 225 1.000000
0.341625 0.183018 0.079907 -1.000000 0.000000 0.000000 225 225 225 1.000000
0.046500 0.471291 0.339905 -0.019668 0.000000 -0.999807 225 225 225 1.000000
0.163970 0.417195 -0.441568 0.000000 0.000000 -1.000000 206 212 222 1.000000
-0.160634 0.456223 -0.441568 0.000000 0.000000 -1.000000 206 212 222 1.000000
-0.367301 -0.013056 -0.075095 -1.000000 0.000000 0.000000 225 225 225 1.000000
0.341625 -0.171699 -0.045943 1.000000 0.000000 0.000000 225 225 225 1.000000
0.129248 0.751756 0.337003 0.047096 0.000000 0.998890 225 225 225 1.000000
-0.003648 -0.092571 0.340400 -0.003046 0.000000 -0.999995 225 225 225 1.000000
0.341625 0.047418 -0.036370 -1.000000 0.000000 0.000000 225 225 225 1.000000
-0.363126 0.236422 -0.441568 0.000000 0.000000 -1.000000 201 207 217 1.000000
-0.323798 -0.506347 -0.441568 0.000000 0.000000 -1.000000 202 208 218 1.000000
-0.151108 -0.774064 -0.198292 0.000000 -1.000000 0.000000 203 209 219 1.000000
0.341625 0.453916 -0.422358 1.000000 0.000000 0.000000 225 225 225 1.000000
0.341625 0.731563 -0.423437 -1.000000 0.000000 0.000000 225 225 225 1.000000
-0.367301 0.425589 -0.118909 -1.000000 0.000000 0.000000 225 225 225 1.000000
-0.208799 0.830349 -0.111188 0.000000 -1.000000 0.000000 225 225 225 1.000000
-0.195748 -0.341963 -0.441568 0.000000 0.000000 -1.000000 207 213 223 1.000000
0.090122 -0.616983 0.338621 0.034127 0.000000 0.999417 225 225 225 1.000000
-0.144689 0.030396 -0.441568 0.000000 0.000000 -1.000000 203 209 219 1.000000
0.179039 -0.033307 0.282284 0.000000 0.000000 -1.000000 164 177 186 1.000000
-0.345422 -0.665436 0.267359 0.000000 0.000000 1.000000 255 255 255 1.000000
0.143034 0.830349 -0.129776 0.000000 -1.000000 0.000000 225 225 225 1.000000
0.115317 0.250368 0.282284 0.000000 0.000000 1.000000 225 225 225 1.000000
-0.367301 0.561904 -0.355825 1.000000 0.000000 0.000000 225 225 225 1.000000
-0.069373 0.830349 0.239867 0.000000 -1.000000 0.000000 225 225 225 1.000000
0.341625 -0.374874 -0.188264 -1.000000 0.000000 0.000000 225 225 225 1.000000
-0.367301 0.364931 -0.019642 -1.000000 0.000000 0.000000 225 225 225 1.000000
0.341625 -0.372152 0.108753 -1.000000 0.000000 0.000000 225 225 225 1.000000
0.341625 -0.238441 -0.304032 -1.000000 0.000000 0.000000 225 225 225 1.000000
-0.073801 -0.574396 0.339858 0.020206 0.000000 -0.999796 225 225 225 1.000000
-0.307098 -0.382960 0.326093 -0.097533 0.000000 0.995232 225 225 225 1.000000
-0.367301 -0.612365 0.248156 1.000000 0.000000 0.000000 225 225 225 1.000000
0.079827 0.118143 -0.441568 0.000000 0.000000 1.000000 207 213 223 1.000000
-0.035983 -0.774064 -0.023651 0.000000 -1.000000 0.000000 199 205 215 1.000000
0.289529 0.702763 0.282284 0.000000 0.000000 1.000000 164 177 186 1.000000
0.341625 -0.082392 -0.143499 -1.000000 0.000000 0.000000 225 225 225 1.000000
-0.367301 -0.403565 -0.060322 -1.000000 0.000000 0.000000 225 225 225 1.000000
-0.073190 -0.774064 -0.076760 0.000000 1.000000 0.000000 204 210 220 1.000000
-0.367301 0.264835 0.114098 1.000000 0.000000 0.000000 225 225 225 1.000000
0.060446 -0.269817 -0.441568 0.000000 0.000000 -1.000000 199 205 215 1.000000
0.022511 0.743663 -0.441568 0.000000 0.000000 -1.000000 204 210 220 1.000000
0.341625 -0.278162 -0.215628 -1.000000 0.000000 0.000000 225 225 225 1.000000
0.239947 -0.774064 -0.150177 0.000000 1.000000 0.000000 198 204 214 1.000000
0.050047 -0.153408 0.339801 -0.020844 0.000000 -0.999783 225 225 225 1.000000
0.062151 -0.356499 0.267359 0.000000 0.000000 -1.000000 164 177 186 1.000000
0.174278 0.459626 -0.441568 0.000000 0.000000 -1.000000 206 212 222 1.000000
0.341625 -0.178860 0.136544 -1.000000 0.000000 0.000000 225 225 225 1.000000
0.240837 -0.757152 0.282284 0.000000 0.000000 -1.000000 164 177 186 1.000000
-0.367301 -0.506662 -0.181829 1.000000 0.000000 0.000000 225 225 225 1.000000
-0.300165 -0.756602 0.282284 0.000000 0.000000 -1.000000 164 177 186 1.000000
-0.306246 -0.268017 0.282284 0.000000 0.000000 1.000000 255 255 255 1.000000
-0.367301 0.716428 0.039593 -1.000000 0.000000 0.000000 225 225 225 1.000000
-0.013992 0.648711 0.267359 0.000000 0.000000 1.000000 255 255 255 1.000000
0.231421 0.382825 0.330521 -0.080961 0.000000 -0.996717 225 225 225 1.000000
0.072137 -0.774064 -0.304140 0.000000 1.000000 0.000000 202 208 218 1.000000
-0.107158 0.171081 0.338875 -0.031264 0.000000 0.999511 225 225 225 1.000000
0.341625 0.594540 0.071119 1.000000 0.000000 0.000000 225 225 225 1.000000
0.341625 0.003925 -0.298189 1.000000 0.000000 0.000000 225 225 225 1.000000
0.311096 0.830349 -0.226969 0.000000 -1.000000 0.000000 225 225 225 1.000000
-0.103378 -0.658892 0.267359 0.000000 0.000000 -1.000000 164 177 186 1.000000
-0.126797 0.525959 -0.441568 0.000000 0.000000 1.000000 199 205 215 1.000000
-0.136446 0.531992 0.267359 0.000000 0.000000 1.000000 255 255 255 1.000000
0.025589 -0.774064 -0.105921 0.000000 1.000000 0.000000 194 200 210 1.000000
-0.024442 0.830349 -0.079657 0.000000 1.000000 0.000000 225 225 225 1.000000
0.280242 -0.028003 0.282284 0.000000 0.000000 -1.000000 164 177 186 1.000000
