ply
format ascii 1.0
element vertex 1273
property float x
property float y
property float z
property uchar red
property uchar green
property uchar blue
end_header
-0.777194 -0.436790 -0.186363 153 0 76
0.245254 0.043218 -0.186363 153 0 76
0.530071 -0.438756 0.209053 76 0 153
0.410002 -0.231567 -0.045841 0 255 0
-0.279037 -0.468650 0.066745 76 153 0
-0.774133 0.477944 0.076406 153 0 76
0.856778 0.171285 0.041071 76 0 153
0.410002 -0.367094 0.102950 0 255 0
0.737752 0.205008 0.164530 76 0 153
-0.857468 -0.468650 -0.065350 153 76 0
0.233768 0.494265 0.000506 153 0 76
-0.268123 0.295719 0.164530 76 0 153
-0.375372 0.494265 0.041203 153 0 76
-0.769211 0.494265 -0.095427 153 0 76
-0.343382 -0.031539 0.194019 76 0 153
0.048896 0.452220 -0.186363 153 0 76
0.199494 -0.468650 0.100875 76 153 0
0.374742 0.494265 -0.079109 153 0 76
0.712141 -0.158168 -0.174122 153 0 76
0.386544 -0.444170 0.205059 76 0 153
0.020795 0.106205 0.164530 76 0 153
0.786178 -0.452330 0.075311 76 153 0
-0.168058 -0.468650 -0.120753 76 153 0
-0.353615 -0.173079 -0.174122 153 0 76
0.400695 0.025542 0.209053 76 0 153
-0.044988 -0.230660 -0.186363 153 0 76
0.715352 0.321802 -0.174122 153 0 76
-0.178448 -0.452330 0.111207 76 153 0
0.467516 0.070572 -0.186363 153 0 76
-0.823015 -0.189270 0.209053 76 0 153
-0.152547 -0.196129 -0.174122 153 0 76
-0.648177 0.494265 0.084263 153 0 76
0.785187 0.456137 0.189011 76 0 153
-0.856884 -0.171033 -0.098329 153 76 0
0.434483 0.420819 -0.015000 0 255 0
-0.074647 -0.452330 0.027621 76 153 0
-0.468986 -0.468650 -0.125897 76 153 0
0.358944 -0.362574 -0.174122 153 0 76
0.687290 -0.134402 0.190163 76 0 153
-0.476866 -0.038463 0.194019 76 0 153
0.356490 -0.059942 -0.186363 153 0 76
-0.020454 0.266704 -0.076819 127 127 0
-0.856884 -0.015495 0.086311 153 76 0
0.410002 -0.436935 0.016612 0 255 0
-0.062898 0.262875 0.189011 76 0 153
-0.020454 -0.241729 0.107010 127 127 0
-0.801126 0.301821 0.164530 76 0 153
-0.020454 0.465980 -0.065784 153 0 76
-0.653297 -0.222422 -0.186363 153 0 76
0.793917 0.494265 -0.128242 153 0 76
-0.078569 0.126598 -0.186363 153 0 76
-0.310700 0.277547 -0.202683 153 76 0
-0.390146 -0.234654 0.194019 76 0 153
0.128567 0.048753 -0.174122 153 0 76
-0.856403 -0.378578 0.208645 76 0 153
-0.532774 -0.468650 0.147838 76 153 0
0.499707 0.494265 -0.097195 153 0 76
-0.276043 0.078137 -0.186363 153 0 76
-0.020454 0.073749 0.009329 127 127 0
-0.220577 -0.365084 -0.174122 153 0 76
-0.426429 0.032848 -0.137045 127 0 127
-0.882790 0.496160 0.189011 76 0 153
0.031117 -0.468650 0.133542 76 153 0
-0.557100 -0.160114 -0.174122 153 0 76
-0.614703 0.406917 -0.174122 153 0 76
0.571736 -0.278594 0.194019 76 0 153
-0.454215 0.494265 -0.146825 153 0 76
0.434483 -0.162538 0.103779 0 255 0
0.323641 -0.274600 0.190163 76 0 153
-0.805788 0.335338 -0.202683 76 0 153
0.434483 0.269594 0.109585 0 255 0
-0.636821 0.274893 -0.174122 153 0 76
0.479752 -0.088237 -0.186363 153 0 76
0.512248 0.382470 -0.186363 153 0 76
0.856778 0.188185 -0.177738 76 0 153
-0.450910 0.117975 0.135391 127 0 127
0.233923 0.074406 0.164530 76 0 153
0.619397 0.049088 0.209053 76 0 153
-0.856884 -0.068083 -0.113543 153 76 0
-0.020454 -0.096838 0.009775 127 127 0
-0.641185 -0.452330 -0.011388 76 153 0
0.337945 -0.126502 0.194019 76 0 153
0.251866 -0.471583 0.189011 76 0 153
0.480090 -0.131295 0.190163 76 0 153
-0.634131 -0.015358 -0.186363 153 0 76
-0.426429 0.209227 -0.045166 127 0 127
-0.478454 0.293386 0.189011 76 0 153
-0.273088 -0.376976 0.209053 76 0 153
0.840458 -0.353703 0.004696 76 0 153
0.856778 -0.207819 -0.104403 76 0 153
0.347603 0.395825 -0.174122 153 0 76
0.856778 0.002696 -0.122826 76 0 153
-0.646963 0.477944 -0.101926 153 0 76
0.410002 0.095871 -0.106931 0 255 0
-0.873205 -0.229232 0.096752 153 76 0
0.434483 0.312494 -0.083191 0 255 0
0.206878 -0.277887 0.194019 76 0 153
-0.794993 0.051891 0.189008 76 0 153
0.095462 0.034733 0.189008 76 0 153
0.278091 0.477944 0.099961 153 0 76
0.046302 -0.468650 -0.140497 76 153 0
0.834840 0.069727 0.209053 76 0 153
0.873099 -0.455220 -0.106218 76 153 0
-0.128039 0.305411 -0.186363 153 0 76
0.626107 0.424530 -0.174122 153 0 76
-0.151263 0.224563 0.164530 76 0 153
-0.311957 0.398794 -0.174122 153 0 76
0.408082 0.206414 -0.174122 0 255 0
0.629573 -0.052090 -0.186363 153 0 76
-0.426429 -0.065510 -0.123146 127 0 127
-0.325306 -0.398618 -0.202683 153 76 0
0.463073 0.477944 -0.188266 153 0 76
-0.280497 -0.452330 -0.050180 76 153 0
0.840458 0.254573 0.143607 76 0 153
-0.181753 -0.278513 0.194019 76 0 153
-0.450910 0.392727 -0.100089 127 0 127
-0.537515 -0.297381 0.190163 76 0 153
0.366249 -0.258741 -0.174122 153 0 76
0.410002 -0.017713 0.052543 0 255 0
0.097260 -0.143971 -0.186363 153 0 76
-0.020454 0.380814 0.060142 127 127 0
0.455062 -0.401299 -0.186363 153 0 76
-0.889526 0.107216 0.185919 76 0 153
-0.889526 0.489828 -0.152157 153 0 76
-0.507874 0.416113 -0.174122 153 0 76
0.016337 -0.226520 0.194019 76 0 153
0.221968 -0.468650 -0.119968 76 153 0
0.252244 0.491708 -0.202683 153 0 76
0.821204 0.408377 -0.186363 153 0 76
0.705884 -0.252771 -0.186363 153 0 76
0.615906 -0.476811 0.187280 76 0 153
-0.082416 -0.173393 0.194019 76 0 153
0.840458 -0.096346 0.125321 76 0 153
0.036958 0.494265 0.126139 153 0 76
0.557240 0.097111 -0.174122 153 0 76
0.618689 -0.404550 -0.174122 153 0 76
0.058204 -0.071201 0.194019 76 0 153
-0.450910 0.091499 -0.029896 127 0 127
0.004027 -0.226465 -0.093240 127 127 0
-0.263281 -0.053330 -0.202683 153 76 0
0.677103 0.494265 -0.137470 153 0 76
-0.873205 0.184978 0.025316 153 76 0
0.004027 -0.387098 -0.012387 127 127 0
-0.852267 -0.378557 -0.202683 76 0 153
-0.398084 -0.468517 -0.202683 76 153 0
-0.639720 0.079162 -0.186363 153 0 76
-0.873205 0.174368 0.119777 153 76 0
-0.537592 0.119649 -0.174122 153 0 76
0.568188 -0.452330 -0.009715 76 153 0
-0.672906 -0.051255 0.194019 76 0 153
0.873099 -0.466800 0.105948 76 153 0
-0.070661 -0.380761 -0.174122 153 0 76
0.386084 -0.343464 0.194019 76 0 153
0.781319 -0.003800 0.189008 76 0 153
-0.766298 0.123439 -0.174122 153 0 76
-0.663612 -0.452330 -0.103598 76 153 0
-0.533570 -0.071106 -0.186363 153 0 76
-0.596974 0.138730 0.189011 76 0 153
0.856778 0.009163 0.033808 76 0 153
-0.807938 0.477944 -0.009687 153 0 76
-0.873205 -0.388763 -0.112498 153 76 0
-0.450589 0.379379 0.164530 127 0 127
0.248185 -0.092060 0.190163 76 0 153
-0.087382 -0.416402 0.209053 76 0 153
-0.529421 0.456360 0.189011 76 0 153
-0.845190 -0.099337 0.209053 76 0 153
-0.374796 0.091179 -0.186363 153 0 76
0.840458 -0.328955 0.206189 76 0 153
0.148951 0.216685 0.189011 76 0 153
-0.873205 0.107386 -0.030618 153 76 0
0.856778 -0.153786 -0.029274 76 0 153
0.803963 0.494265 0.016163 153 0 76
-0.793540 -0.296779 -0.202683 76 0 153
-0.102641 -0.452330 -0.059033 76 153 0
0.536604 0.123704 0.164530 76 0 153
-0.214306 -0.263521 -0.174122 153 0 76
-0.873205 0.273717 -0.012102 153 76 0
0.534264 -0.341755 -0.174122 153 0 76
0.018151 0.281704 -0.186363 153 0 76
0.416475 0.349636 0.164530 0 255 0
-0.806742 -0.452330 0.007201 76 153 0
0.824799 0.284988 -0.186363 153 0 76
0.554438 0.214236 0.164530 76 0 153
0.761168 -0.468650 -0.009347 76 153 0
0.744842 0.133574 -0.174122 153 0 76
-0.756757 0.223856 0.164530 76 0 153
0.840458 0.330138 -0.036555 76 0 153
-0.463998 0.494265 0.050560 153 0 76
-0.373944 0.477944 0.128767 153 0 76
0.441599 0.453463 0.179991 76 0 153
0.856778 0.126553 -0.108239 76 0 153
-0.450910 -0.226902 0.045033 127 0 127
0.796884 -0.135406 -0.186363 153 0 76
-0.450910 0.389896 -0.008787 127 0 127
-0.703444 -0.468650 0.153233 76 153 0
-0.450910 -0.311066 -0.109643 127 0 127
0.489222 -0.224213 0.190163 76 0 153
-0.230698 0.477944 -0.028032 153 0 76
-0.856884 0.196952 -0.157838 153 76 0
0.549044 0.251750 -0.186363 153 0 76
0.494884 -0.452330 0.039303 76 153 0
-0.423663 0.185610 -0.186363 153 0 76
0.868593 -0.155095 0.189011 76 0 153
-0.450910 -0.361803 0.143277 127 0 127
0.486897 -0.037130 0.194019 76 0 153
-0.594143 0.012899 0.209053 76 0 153
-0.171031 0.127508 0.164530 76 0 153
0.422322 0.116440 0.189011 76 0 153
0.856778 -0.268021 0.144940 76 0 153
0.599993 0.453463 0.178317 76 0 153
-0.076049 0.062362 0.189008 76 0 153
-0.319603 0.147647 0.189011 76 0 153
0.013060 -0.468650 0.027714 76 153 0
0.699179 -0.428922 0.209053 76 0 153
0.734351 0.044758 -0.186363 153 0 76
0.840458 0.347603 0.103609 76 0 153
0.840458 -0.043052 -0.049759 76 0 153
0.410002 -0.040539 -0.031286 0 255 0
-0.754506 0.424543 -0.174122 153 0 76
-0.020454 0.067711 -0.120818 127 127 0
0.094946 -0.390124 0.189008 76 0 153
0.004027 0.218400 -0.008995 127 127 0
-0.855752 -0.229697 -0.202683 76 0 153
-0.347344 -0.444170 0.193896 76 0 153
0.543027 0.477944 0.107517 153 0 76
-0.450910 -0.094618 0.117417 127 0 127
-0.856884 0.271257 -0.113838 153 76 0
0.004027 0.176463 -0.153070 127 127 0
0.688682 -0.468650 -0.099611 76 153 0
0.840458 0.427846 -0.099104 76 0 153
0.856778 -0.303130 -0.182968 76 0 153
-0.646188 -0.388155 -0.174122 153 0 76
-0.856884 0.024896 0.008006 153 76 0
0.398961 0.494265 0.102656 153 0 76
-0.873205 0.122837 -0.117521 153 76 0
0.575668 -0.234952 -0.186363 153 0 76
-0.020454 -0.051805 0.149379 127 127 0
0.104629 0.494265 0.005637 153 0 76
-0.810198 -0.452330 0.149950 76 153 0
0.776952 -0.431824 -0.186363 153 0 76
0.315670 -0.468650 -0.145780 76 153 0
0.010471 -0.150937 -0.186363 127 127 0
-0.050446 0.477944 0.103295 153 0 76
0.424526 -0.468650 -0.124911 76 153 0
0.410002 0.132567 -0.011737 0 255 0
-0.426429 -0.196107 0.124033 127 0 127
-0.856884 -0.273042 -0.073296 153 76 0
0.004027 -0.396429 -0.105106 127 127 0
-0.458472 -0.468650 -0.036237 127 0 127
0.816972 -0.037428 -0.186363 153 0 76
-0.873205 0.420547 -0.100459 153 76 0
0.004027 -0.302652 -0.160605 127 127 0
-0.020454 0.225971 0.120822 127 127 0
-0.505099 -0.467821 -0.202683 76 153 0
-0.450910 -0.059414 0.025227 127 0 127
-0.020454 -0.398182 0.128655 127 127 0
-0.811963 0.046675 -0.174122 153 0 76
0.390451 0.197440 0.164530 76 0 153
-0.378606 0.477944 -0.112660 153 0 76
-0.719290 0.106990 0.164530 76 0 153
-0.356204 -0.087910 -0.186363 153 0 76
-0.232194 0.477944 0.138406 153 0 76
-0.626457 0.253806 0.189011 76 0 153
-0.239218 0.153187 -0.202683 153 76 0
-0.101915 0.453463 0.179900 76 0 153
0.182672 0.477944 -0.070406 153 0 76
-0.461058 0.343690 -0.186363 153 0 76
-0.477068 -0.239682 0.190163 76 0 153
-0.020454 0.074580 0.092801 127 127 0
-0.856884 0.424867 0.119705 153 76 0
0.434483 -0.267453 0.144776 0 255 0
-0.426429 0.072066 0.067566 127 0 127
0.004027 -0.320393 0.156799 127 127 0
-0.339974 0.254503 0.164530 76 0 153
0.175642 0.034299 0.209053 76 0 153
-0.711211 0.477944 0.143710 76 0 153
0.101283 0.135069 -0.174122 153 0 76
-0.007742 -0.463088 -0.202683 76 153 0
-0.426429 0.196419 0.107549 127 0 127
0.306893 -0.452330 0.020890 76 153 0
-0.133826 0.494265 -0.155158 153 0 76
0.434483 -0.239039 -0.123782 0 255 0
0.434483 0.238883 -0.006277 0 255 0
-0.020454 -0.272136 0.028677 127 127 0
-0.158853 -0.476811 0.186778 76 0 153
-0.873205 0.330902 0.124054 153 76 0
-0.374721 -0.322780 -0.174122 153 0 76
0.164555 0.502425 0.167338 76 0 153
0.858600 0.417867 0.189011 76 0 153
-0.020454 -0.156684 0.074090 127 127 0
-0.014313 -0.067068 -0.174122 153 0 76
-0.232989 0.494265 -0.120435 153 0 76
-0.691908 -0.256100 0.190163 76 0 153
-0.706349 -0.354802 0.190163 76 0 153
0.596997 0.494265 0.000115 153 0 76
0.396697 0.124298 -0.186363 153 0 76
0.840458 -0.289139 0.057408 76 0 153
-0.154556 -0.421694 -0.186363 153 0 76
-0.458737 -0.027111 -0.186363 153 0 76
-0.504509 -0.331207 -0.186363 153 0 76
0.025215 0.020520 -0.174122 153 0 76
-0.358089 -0.452330 0.070290 76 153 0
-0.447060 -0.444170 0.203987 76 0 153
0.294354 0.256220 0.164530 76 0 153
-0.286479 -0.217288 -0.174122 153 0 76
0.621638 0.027890 -0.186363 153 0 76
0.131781 0.420374 -0.174122 153 0 76
-0.456004 0.098260 -0.186363 153 0 76
-0.048478 -0.452330 -0.131984 76 153 0
-0.514183 0.477944 -0.090837 153 0 76
0.434483 -0.354761 0.027667 0 255 0
0.749784 -0.184445 0.190163 76 0 153
-0.228068 0.420943 -0.174122 153 76 0
0.873099 -0.406073 0.166802 76 0 153
0.151052 -0.036108 -0.174122 153 0 76
-0.364810 0.335150 -0.186363 153 0 76
0.398514 -0.185695 -0.186363 153 0 76
-0.856884 -0.288289 0.040239 153 76 0
-0.450910 0.221436 -0.120931 127 0 127
0.226446 -0.340603 -0.186363 76 0 153
-0.710058 -0.038483 -0.186363 153 0 76
-0.498912 -0.213918 -0.186363 153 0 76
-0.450910 -0.217753 -0.104123 127 0 127
-0.889526 -0.191908 0.164744 76 0 153
0.299861 0.477944 -0.039601 153 0 76
-0.248953 -0.452330 -0.122606 76 153 0
-0.691570 0.148963 -0.174122 153 0 76
-0.618668 -0.144888 0.194019 76 0 153
-0.506358 0.145078 0.189011 76 0 153
0.004027 0.429860 0.161129 127 127 0
0.424615 0.494265 0.020823 153 0 76
-0.624429 -0.312022 -0.186363 153 0 76
-0.450910 0.459928 0.119823 127 0 127
0.168175 -0.468650 0.022491 76 153 0
0.856778 -0.393814 -0.179902 76 0 153
-0.310350 0.477944 -0.001323 153 0 76
-0.715993 -0.452330 0.018039 76 153 0
0.286266 -0.023111 -0.186363 76 0 153
0.444752 0.265349 0.189011 76 0 153
-0.260124 -0.192060 0.194019 76 0 153
-0.450910 -0.303149 0.026286 127 0 127
-0.078900 0.494265 -0.016648 153 0 76
-0.524227 -0.135133 0.190163 76 0 153
0.873099 0.478231 0.052457 153 0 76
-0.791261 -0.468650 -0.116926 76 153 0
0.257660 -0.206666 -0.174122 153 0 76
-0.155234 0.141606 -0.186363 153 0 76
-0.587452 0.501535 0.164530 153 0 76
0.265033 0.117833 -0.174122 153 0 76
0.840458 -0.001625 0.117597 76 0 153
0.410002 -0.196710 0.027133 0 255 0
0.710050 -0.452330 0.058224 76 153 0
-0.401107 0.491824 -0.202683 153 0 76
0.030988 0.494265 -0.124420 153 0 76
-0.020792 -0.454767 0.189011 76 0 153
0.454872 -0.412987 0.189008 76 0 153
0.297643 0.076745 0.209053 76 0 153
-0.873205 -0.409610 0.140465 153 76 0
0.822887 -0.401015 0.225432 153 76 0
-0.580637 -0.468650 -0.156643 76 153 0
0.202505 -0.268941 -0.174122 153 0 76
-0.061130 -0.346462 0.194019 76 0 153
0.777891 0.491393 -0.202683 153 0 76
-0.873205 0.417632 -0.021922 153 76 0
0.840458 0.148007 -0.029583 76 0 153
-0.580347 -0.381589 0.209053 76 0 153
0.555941 -0.081767 -0.174122 153 0 76
0.414758 0.361834 -0.186363 153 0 76
0.388752 -0.468650 0.082159 76 153 0
0.856778 -0.182556 -0.183956 76 0 153
-0.856884 0.344659 -0.145077 153 76 0
0.873099 0.492724 -0.120695 153 0 76
0.192847 0.329218 -0.174122 153 0 76
0.434483 -0.377454 -0.113589 0 255 0
-0.387983 -0.094377 0.190163 76 0 153
0.410002 0.345326 0.087015 0 255 0
0.736841 -0.292983 0.194019 76 0 153
0.758465 -0.442301 0.164530 76 0 153
-0.230843 0.018888 0.209053 76 0 153
0.502272 -0.468650 -0.136813 76 153 0
-0.436184 -0.308403 0.194019 76 0 153
-0.450910 -0.081466 -0.052405 127 0 127
-0.482834 0.034852 0.209053 76 0 153
0.687599 0.260793 0.164530 76 0 153
0.065581 -0.468650 -0.025747 76 153 0
-0.355137 -0.246903 -0.186363 153 0 76
-0.856884 -0.050328 0.152515 153 76 0
0.283982 -0.452330 -0.072379 76 153 0
-0.580619 -0.468650 0.029230 76 153 0
-0.775993 -0.134353 0.190163 76 0 153
0.038217 0.285047 0.164530 76 0 153
0.188941 -0.406768 -0.174122 153 0 76
-0.856884 -0.152553 0.020539 153 76 0
0.351013 -0.053237 0.190163 76 0 153
0.004027 0.409892 -0.112750 127 127 0
-0.426864 -0.452330 0.041733 76 153 0
0.840458 0.159356 0.115296 76 0 153
-0.719710 -0.148941 -0.174122 153 0 76
0.670749 0.079112 0.164530 76 0 153
0.671144 0.477944 0.017772 153 0 76
0.285865 -0.097903 -0.174122 153 0 76
-0.426429 0.318823 0.027880 127 0 127
0.168377 -0.118491 -0.174122 153 0 76
-0.621179 0.067947 0.164530 76 0 153
0.281189 0.230894 -0.174122 76 0 153
-0.186815 0.494265 0.029835 153 0 76
-0.586783 0.477944 0.040360 153 0 76
-0.138967 0.477944 0.121014 153 0 76
-0.166466 -0.124816 -0.186363 153 0 76
0.473642 0.494265 0.126112 153 0 76
0.004027 -0.084376 0.088078 127 127 0
-0.226440 0.023870 -0.186363 153 0 76
-0.815517 0.262961 -0.186363 153 0 76
-0.710261 0.277634 -0.174122 153 0 76
0.324961 -0.476811 0.182028 76 0 153
-0.236702 0.269198 -0.188337 153 76 0
0.410002 0.131404 0.115012 0 255 0
0.692040 -0.390659 -0.186363 153 0 76
0.682502 0.255211 -0.174122 153 0 76
-0.450910 0.318135 -0.117076 127 0 127
0.096274 -0.397430 -0.174122 153 0 76
0.302000 0.453463 0.187530 76 0 153
0.181421 -0.437046 0.164530 76 0 153
-0.856884 0.051929 0.135575 153 76 0
-0.020454 -0.023515 -0.001802 127 127 0
0.803469 0.320494 0.164530 76 0 153
-0.781783 -0.018467 -0.186363 153 0 76
0.153600 0.210805 -0.186363 153 0 76
-0.377968 0.477944 -0.039891 153 0 76
0.647550 -0.208166 -0.174122 153 0 76
-0.162256 -0.018745 0.194019 76 0 153
0.121774 -0.452330 0.117309 76 153 0
0.840458 -0.304200 -0.058167 76 0 153
-0.873205 -0.384160 0.032479 153 76 0
-0.020454 -0.409563 0.056889 127 127 0
0.326359 0.494265 -0.133261 153 0 76
-0.426429 0.258332 0.152530 76 0 153
0.056951 0.379798 -0.186363 153 0 76
0.784451 0.345021 -0.186363 153 0 76
-0.212371 0.254037 0.189011 76 0 153
0.077078 0.151222 0.164530 76 0 153
0.856778 0.273798 -0.110560 76 0 153
0.543808 -0.356798 0.190163 76 0 153
-0.083234 0.494265 -0.098148 153 0 76
0.049275 -0.444170 0.202210 76 0 153
-0.840564 -0.321308 0.167867 76 0 153
-0.426429 0.011814 0.024132 127 0 127
0.470385 -0.008552 -0.186363 153 0 76
-0.762027 -0.223305 0.190163 76 0 153
-0.222182 -0.430383 0.209053 76 0 153
-0.450910 -0.189048 -0.015918 127 0 127
0.410002 0.257969 -0.124321 0 255 0
0.647738 0.486533 -0.202683 153 0 76
-0.355326 0.082268 0.164530 76 0 153
-0.174610 -0.109502 0.190163 76 0 153
0.410002 -0.135232 -0.050793 0 255 0
0.840458 -0.159225 0.042190 76 0 153
0.797913 0.494265 -0.055092 153 0 76
0.434483 0.101850 0.048888 0 255 0
0.856778 -0.398013 0.060416 76 0 153
0.840458 -0.407587 -0.054177 76 0 153
-0.740652 0.494265 -0.167026 153 0 76
0.511514 -0.267890 -0.174122 153 0 76
0.073549 -0.306124 -0.186363 153 0 76
0.312566 0.322899 0.188152 76 0 153
-0.474804 -0.468650 0.105883 76 153 0
0.410002 -0.305220 -0.114364 0 255 0
0.218950 -0.468650 -0.196378 76 153 0
-0.020454 0.337022 -0.093084 127 127 0
0.784503 0.256420 0.189011 76 0 153
-0.028439 0.431214 -0.186363 153 0 76
-0.426429 0.039873 0.143779 127 0 127
0.232241 -0.146763 -0.202683 76 0 153
0.423766 0.494265 -0.131466 153 0 76
0.442394 0.477944 -0.056291 153 0 76
-0.563247 0.254601 -0.186363 153 0 76
0.331700 -0.204169 0.190163 76 0 153
-0.411525 -0.452330 -0.087778 76 153 0
0.840458 0.418811 0.115640 76 0 153
0.840458 0.232172 -0.010573 76 0 153
0.410002 -0.423773 -0.055242 0 255 0
-0.321461 -0.468650 0.132958 76 153 0
-0.020450 0.170593 0.164530 76 0 153
0.635952 -0.082608 0.194019 76 0 153
-0.816844 0.494265 0.130095 153 0 76
-0.450910 0.232768 0.018698 127 0 127
-0.508602 0.487151 -0.202683 153 0 76
-0.727710 -0.468650 -0.147395 76 153 0
0.296492 0.444306 -0.174122 153 0 76
0.038459 0.494265 -0.039617 153 0 76
-0.856884 -0.093719 0.061073 153 76 0
-0.250414 -0.122385 0.194019 76 0 153
-0.272715 0.208048 -0.174122 153 0 76
-0.889526 0.051298 -0.191413 76 0 153
0.732237 -0.079978 0.194019 76 0 153
-0.882347 0.477944 0.013046 153 0 76
0.263133 0.329561 -0.174122 76 0 153
-0.042266 -0.101834 0.194019 76 0 153
0.107343 0.494265 -0.149551 153 0 76
-0.782692 -0.360014 -0.174122 153 0 76
0.783352 0.147322 0.164530 76 0 153
0.064331 -0.141556 0.194019 76 0 153
0.675130 -0.329591 0.190163 76 0 153
-0.020454 0.427445 0.007780 127 127 0
-0.489225 0.279484 -0.186363 153 0 76
-0.839428 -0.081303 -0.186363 153 0 76
-0.803757 -0.152340 -0.174122 153 0 76
0.209226 0.477944 0.116387 153 0 76
0.434483 -0.287810 -0.003759 0 255 0
-0.363760 0.222234 -0.174122 153 0 76
-0.823282 0.421594 -0.186363 153 0 76
0.004027 -0.068201 -0.052601 127 127 0
-0.329431 -0.468650 -0.189689 76 153 0
-0.061344 -0.312170 -0.186363 153 0 76
-0.826338 -0.468650 0.072234 76 153 0
0.079081 0.477944 0.072915 153 0 76
-0.235960 0.120610 0.189011 76 0 153
-0.811426 0.169034 -0.202683 76 0 153
-0.145833 -0.468650 0.044402 76 153 0
0.434483 -0.004401 0.154279 0 255 0
0.525238 -0.468650 0.129963 76 153 0
-0.299044 0.477944 0.114753 153 0 76
0.208601 0.141124 0.164530 76 0 153
0.004027 0.065221 -0.055042 127 127 0
-0.413978 -0.009222 0.194019 76 0 153
-0.472331 0.210862 0.189011 76 0 153
-0.518665 0.477944 0.010679 153 0 76
0.434483 0.156695 -0.133711 0 255 0
0.153968 -0.233224 0.194019 76 0 153
0.434483 -0.081220 -0.094938 0 255 0
-0.634487 -0.217057 0.190163 76 0 153
0.612642 -0.468650 -0.199515 76 153 0
0.004027 0.023348 0.132237 127 127 0
0.684071 0.494265 0.116137 153 0 76
0.199856 0.260696 0.164530 76 0 153
-0.867835 0.308249 0.189011 76 0 153
0.406642 -0.131627 0.190163 76 0 153
-0.349807 -0.296375 0.194019 76 0 153
-0.610588 0.477944 -0.198894 153 0 76
-0.718650 -0.402537 -0.174122 153 0 76
0.407866 -0.105866 -0.186363 153 0 76
0.410002 0.359138 -0.037255 0 255 0
-0.735046 0.009327 0.208735 76 0 153
-0.676608 0.218885 -0.186363 153 0 76
-0.426429 0.334104 0.118706 127 0 127
-0.824198 -0.011590 0.209053 76 0 153
0.660978 -0.112326 -0.174122 153 0 76
0.410002 0.027704 -0.079858 0 255 0
0.195511 0.494265 -0.146239 153 0 76
-0.856884 -0.031780 -0.049655 153 76 0
0.004027 0.138538 -0.003129 127 127 0
0.307687 0.185101 0.189011 76 0 153
0.128929 -0.264321 -0.186363 153 0 76
0.639386 -0.468650 0.057902 76 153 0
0.577530 0.161227 -0.186363 153 0 76
0.806476 0.494265 0.115055 153 0 76
-0.069933 -0.016253 0.190163 76 0 153
0.221363 0.192879 -0.202683 76 0 153
0.700827 0.184202 -0.186363 153 0 76
0.709305 0.038306 0.209053 76 0 153
-0.873205 -0.228796 -0.136816 153 76 0
-0.718980 -0.259644 -0.174122 153 0 76
-0.596844 -0.476811 0.173022 76 0 153
0.856778 0.412757 -0.034807 76 0 153
-0.232897 -0.323341 0.194019 76 0 153
-0.823772 0.453797 0.189011 76 0 153
-0.058333 0.300315 -0.186363 153 0 76
0.462793 -0.466770 -0.202683 76 153 0
0.662570 0.322899 0.175527 76 0 153
0.240726 -0.336396 0.190163 76 0 153
0.434483 -0.082059 0.072991 0 255 0
-0.873205 0.001760 -0.138805 153 76 0
-0.699627 0.250485 0.189011 76 0 153
0.557871 0.430835 -0.174122 153 0 76
0.004027 0.292715 -0.019482 127 127 0
0.151868 -0.452330 -0.134878 76 153 0
-0.105545 -0.066609 -0.174122 153 0 76
0.684682 0.380706 -0.186363 153 0 76
0.123426 0.271616 -0.186363 153 0 76
-0.601099 -0.074312 -0.186363 153 0 76
0.856778 0.104010 0.037324 76 0 153
-0.133362 -0.228977 0.194019 76 0 153
0.403099 -0.005334 -0.186363 153 0 76
-0.131152 0.002599 -0.186363 153 0 76
0.529662 0.315016 -0.174122 153 0 76
0.822310 -0.055915 0.209053 76 0 153
-0.819185 0.226086 0.189011 76 0 153
-0.782832 -0.359294 0.190163 76 0 153
0.831278 -0.207643 0.164530 76 0 153
-0.024890 -0.468650 0.088358 76 153 0
-0.119589 0.200573 -0.174122 153 0 76
-0.827464 -0.258314 0.209053 76 0 153
-0.020454 -0.263049 -0.038181 127 127 0
-0.886573 -0.468650 0.108384 76 153 0
0.717852 0.453971 0.164530 76 0 153
0.535908 -0.147366 -0.174122 153 0 76
0.684510 0.001918 -0.174122 153 0 76
0.558068 0.494265 -0.133065 153 0 76
-0.692030 -0.452330 0.082050 76 153 0
0.293016 -0.344794 -0.186363 153 0 76
-0.355800 0.453469 0.189011 76 0 153
-0.833731 0.477944 -0.092340 153 0 76
-0.873205 -0.114488 -0.066695 153 76 0
0.569680 0.061769 0.166570 76 0 153
0.212365 -0.022769 0.190163 76 0 153
0.190888 -0.126023 0.190163 76 0 153
-0.711491 0.477944 0.053824 153 0 76
0.250500 -0.452330 0.056000 76 153 0
-0.856884 0.316376 0.035991 153 76 0
-0.212779 -0.452330 0.050326 76 153 0
0.663776 0.494265 -0.059365 153 0 76
-0.418107 -0.187344 -0.174122 153 0 76
-0.212576 -0.468650 -0.068310 76 153 0
0.840458 0.218180 0.085505 76 0 153
0.739502 0.477944 -0.093730 153 0 76
0.035180 0.059788 0.209053 76 0 153
-0.873205 -0.412968 -0.031466 153 76 0
0.566803 0.317012 0.164530 76 0 153
-0.344843 0.032530 0.209053 76 0 153
-0.210476 0.063661 0.164530 76 0 153
-0.413310 0.124172 0.189011 76 0 153
-0.539060 -0.468650 -0.021956 76 153 0
-0.081325 0.322899 0.169953 76 0 153
0.187626 -0.452330 -0.060393 76 153 0
-0.020454 0.303970 0.119940 127 127 0
-0.635879 0.346070 -0.186363 153 0 76
0.871027 0.101457 0.164530 76 0 153
0.337177 0.477944 0.128301 153 0 76
-0.327602 -0.215527 0.190163 76 0 153
0.434483 0.376712 0.033395 0 255 0
0.545742 -0.109898 0.194019 76 0 153
0.548282 0.477944 -0.040353 153 0 76
-0.383236 -0.159617 0.194019 76 0 153
-0.546748 -0.452330 0.086200 76 153 0
0.055804 0.501110 0.189011 76 0 153
-0.547518 0.272710 0.189011 76 0 153
0.764304 -0.285763 -0.174122 153 0 76
0.366073 0.061769 0.167368 76 0 153
0.832730 0.502425 0.176095 76 0 153
-0.678286 0.421573 -0.186363 153 0 76
-0.299650 -0.079918 0.190163 76 0 153
0.238265 -0.401686 0.209053 76 0 153
-0.108854 -0.245341 -0.174122 153 0 76
-0.096557 0.057714 -0.186363 153 0 76
-0.739676 0.163719 0.189011 76 0 153
0.060982 -0.330267 0.194019 76 0 153
0.482950 -0.476811 0.185657 76 0 153
-0.020454 -0.151792 -0.032164 127 127 0
-0.123531 -0.328602 0.194019 76 0 153
0.856778 -0.224701 0.052769 76 0 153
-0.535784 -0.443733 0.208611 76 0 153
0.703783 0.155495 0.189011 76 0 153
0.611921 -0.223482 0.194019 76 0 153
0.735590 -0.468650 -0.152776 76 153 0
0.272560 0.126310 0.164530 76 0 153
-0.535870 -0.012205 0.190163 76 0 153
0.071480 -0.452330 -0.198737 76 153 0
0.840458 -0.278550 -0.117427 76 0 153
0.697201 -0.317044 -0.174122 153 0 76
0.165825 0.477944 0.017995 153 0 76
0.203618 0.444435 -0.186363 153 0 76
0.873099 -0.090820 0.188664 76 0 153
-0.299397 0.494265 -0.142484 153 0 76
-0.718510 -0.105386 0.190163 76 0 153
-0.450910 -0.406895 -0.124645 127 0 127
-0.298481 -0.116683 -0.202683 153 76 0
0.004027 0.431192 0.091617 127 127 0
0.371126 -0.452330 0.143602 76 153 0
-0.873205 -0.121626 -0.144304 153 76 0
0.004027 0.237662 -0.134808 127 127 0
0.004027 -0.046103 -0.116671 127 127 0
-0.426429 0.436480 0.027951 127 0 127
-0.048967 0.477944 0.039567 153 0 76
-0.592417 0.037979 -0.174122 153 0 76
0.840458 0.063174 -0.111620 76 0 153
0.463850 0.063073 0.164530 76 0 153
0.469150 0.229805 -0.174122 153 0 76
-0.020454 -0.328555 -0.016012 127 127 0
-0.084360 0.356961 -0.174122 153 0 76
-0.263391 0.468765 -0.202683 153 0 76
0.856778 -0.049056 0.077883 76 0 153
-0.020454 -0.190948 -0.139769 127 127 0
-0.864443 0.173329 0.189011 76 0 153
-0.282352 -0.350788 -0.174122 153 0 76
0.652194 -0.427849 0.166661 76 0 153
-0.442453 -0.314706 -0.186363 153 0 76
-0.433307 -0.374807 0.208013 76 0 153
-0.705343 0.494265 -0.072288 153 0 76
0.454221 -0.147090 -0.174122 153 0 76
0.434483 -0.425003 0.081618 0 255 0
-0.879166 0.331237 -0.202683 76 0 153
-0.020454 -0.195248 0.150024 127 127 0
-0.028845 0.053383 -0.186363 153 0 76
0.184878 0.075978 -0.186363 153 0 76
-0.450910 0.072618 -0.094581 127 0 127
0.514028 0.263131 0.164530 76 0 153
-0.873205 -0.284619 0.128220 153 76 0
-0.450910 -0.319950 -0.043910 127 0 127
0.150727 -0.317513 0.190163 76 0 153
-0.296106 0.338921 -0.202683 153 76 0
0.624541 -0.011855 0.190163 76 0 153
0.397201 -0.279560 0.194019 76 0 153
0.402492 0.428335 -0.174122 153 0 76
0.318199 -0.227069 -0.199493 76 0 153
0.395401 0.273613 -0.186363 153 0 76
0.820307 -0.468650 -0.044602 76 153 0
-0.288965 -0.000212 0.194019 76 0 153
-0.226312 -0.203117 -0.186363 76 153 0
-0.426429 0.267289 -0.084790 127 0 127
0.211368 -0.008160 -0.174122 153 0 76
0.812991 0.144110 -0.186363 153 0 76
-0.003391 0.488861 -0.202683 153 0 76
-0.450910 -0.406139 0.000008 127 0 127
-0.313939 -0.468650 0.014575 76 153 0
-0.658264 0.121087 0.164530 76 0 153
-0.426429 -0.039114 0.139814 127 0 127
-0.856884 0.263388 0.139937 153 76 0
-0.499856 0.494265 0.145096 153 0 76
0.730582 0.494265 0.030443 153 0 76
-0.635825 0.494265 -0.005881 153 0 76
0.086175 0.235424 0.164530 76 0 153
0.856778 -0.118628 -0.181484 76 0 153
0.410002 0.318544 -0.141751 0 255 0
-0.829036 -0.443614 0.208701 76 0 153
-0.138757 0.477944 -0.011274 153 0 76
-0.477551 0.156911 -0.174122 153 0 76
-0.078859 0.207897 0.164530 76 0 153
0.434483 0.192442 0.118416 0 255 0
-0.856254 0.059859 0.208758 76 0 153
0.260528 -0.246669 0.190163 76 0 153
0.410002 0.229285 0.066001 0 255 0
-0.240755 -0.452330 0.112871 76 153 0
0.306765 0.078869 -0.202683 76 0 153
0.410002 0.047045 -0.145296 0 255 0
0.516149 -0.400999 -0.174122 153 0 76
0.712628 0.490117 -0.202683 153 0 76
-0.213645 0.322899 0.177124 76 0 153
-0.278869 0.229545 0.189011 76 0 153
0.318199 -0.444548 -0.202523 76 153 0
-0.207207 0.108101 -0.174122 153 0 76
-0.450910 0.151831 -0.042626 127 0 127
-0.834595 -0.452330 -0.202611 76 153 0
-0.359555 0.452933 -0.174122 153 0 76
-0.343820 -0.452330 -0.059046 76 153 0
0.434483 -0.188567 -0.082387 0 255 0
-0.856884 -0.332948 -0.090119 153 76 0
-0.700204 -0.443021 0.209053 76 0 153
0.666552 0.208522 0.189011 76 0 153
-0.450910 -0.412269 0.101314 127 0 127
-0.244217 -0.468650 0.000178 76 153 0
0.440746 -0.230257 -0.186363 153 0 76
-0.097420 0.479937 -0.202683 153 0 76
-0.873205 -0.036477 0.030415 153 76 0
-0.262671 -0.409691 -0.174122 76 153 0
0.551478 0.008727 0.198451 76 0 153
-0.646251 -0.375038 0.189604 76 0 153
0.470170 0.494265 0.061657 153 0 76
0.712919 -0.452330 -0.045898 76 153 0
-0.584880 -0.214585 -0.174122 153 0 76
-0.171091 0.449716 -0.174122 153 0 76
0.267920 0.502425 0.174336 76 0 153
0.569447 -0.452330 -0.151866 76 153 0
-0.848170 -0.452330 -0.136091 76 153 0
0.382012 0.477944 -0.019703 153 0 76
-0.856884 0.441140 0.057437 153 76 0
0.232840 0.494265 0.061477 153 0 76
-0.286242 0.020280 -0.202683 153 76 0
0.048344 -0.011164 0.190163 76 0 153
0.349568 0.223437 -0.174122 153 0 76
0.313265 0.353063 -0.202683 76 0 153
-0.403500 -0.001432 -0.186363 153 0 76
-0.265781 0.453463 0.182848 76 0 153
0.095518 -0.216419 0.194019 76 0 153
-0.416430 -0.079474 -0.186363 153 0 76
-0.189534 -0.468650 -0.202655 76 153 0
0.624227 0.267599 -0.186363 153 0 76
0.456693 0.133817 -0.186363 153 0 76
-0.873205 0.062168 -0.133287 153 76 0
-0.125741 -0.430671 0.164530 76 0 153
-0.484571 -0.415491 -0.174122 153 0 76
0.582864 -0.427849 0.174820 76 0 153
0.410002 0.042178 0.038299 0 255 0
-0.090805 -0.187801 -0.174122 153 0 76
-0.574223 0.477944 -0.096303 153 0 76
0.004027 0.224016 0.051015 127 127 0
0.632246 -0.468650 0.127192 76 153 0
0.102591 0.090632 0.164530 76 0 153
-0.108013 -0.468650 -0.121503 76 153 0
-0.426429 -0.134962 -0.134471 127 0 127
0.856778 0.031452 -0.185789 76 0 153
-0.753476 0.477944 -0.034928 153 0 76
0.287994 0.477944 0.020408 153 0 76
-0.178695 0.275132 -0.174122 153 0 76
0.410002 -0.226604 0.108312 0 255 0
-0.653108 0.494265 0.145072 153 0 76
0.450207 -0.468650 -0.019344 76 153 0
-0.426429 0.449695 -0.090270 127 0 127
-0.856884 -0.175971 -0.038382 153 76 0
0.856778 -0.244168 -0.172605 76 0 153
0.650153 -0.452330 -0.142397 76 153 0
-0.748777 0.284610 0.189011 76 0 153
0.120735 -0.105416 0.190163 76 0 153
0.117192 -0.206941 -0.174122 153 0 76
0.840458 -0.101327 -0.063172 76 0 153
-0.020454 0.336021 0.020623 127 127 0
0.542882 -0.468650 -0.092060 76 153 0
0.755239 0.501538 0.164530 76 0 153
-0.873205 -0.168160 0.075738 153 76 0
0.410002 -0.315270 0.070704 0 255 0
-0.889526 0.436555 0.172677 76 0 153
0.840458 -0.411504 0.117226 76 0 153
-0.877623 0.460581 -0.202683 76 0 153
0.410002 0.261338 -0.055724 0 255 0
0.632491 -0.452330 -0.053548 76 153 0
-0.039457 0.109300 0.189011 76 0 153
0.098317 0.477944 0.134334 153 0 76
-0.622608 0.191596 0.164530 76 0 153
0.004027 0.121058 -0.131382 127 127 0
-0.426429 -0.122029 -0.010795 127 0 127
-0.174377 0.374699 -0.174122 153 0 76
0.164532 0.322899 0.181753 76 0 153
0.416641 -0.355400 -0.186363 153 0 76
0.049148 -0.452330 -0.080454 76 153 0
0.856778 0.042547 0.153809 76 0 153
0.609328 0.494265 0.134282 153 0 76
0.004027 0.211342 -0.077007 127 127 0
-0.508691 -0.452330 -0.070266 76 153 0
0.824507 -0.452330 -0.152271 76 153 0
-0.020454 0.131857 0.119630 127 127 0
-0.826295 0.494265 0.053413 153 0 76
0.824429 0.466289 -0.174122 153 0 76
0.870407 0.278140 0.189011 76 0 153
0.462334 0.418702 -0.186363 153 0 76
-0.638333 0.322899 0.186393 76 0 153
0.840458 -0.151113 -0.098543 76 0 153
-0.120386 -0.452330 0.099469 76 153 0
-0.594569 -0.260809 0.190163 76 0 153
0.591822 0.112172 0.189011 76 0 153
-0.490139 -0.427849 0.166840 76 0 153
0.410002 -0.408113 0.148953 0 255 0
0.840458 0.342236 0.039571 76 0 153
0.813809 -0.172912 0.209053 76 0 153
0.410002 0.142525 -0.070652 0 255 0
-0.450910 0.427449 -0.147897 127 0 127
0.783982 0.061769 0.165977 76 0 153
0.811974 -0.452330 0.019291 76 153 0
0.611839 0.477944 -0.153392 153 0 76
0.659781 -0.186641 0.190163 76 0 153
0.824137 -0.370702 0.167845 76 0 153
-0.450910 -0.007116 -0.101299 127 0 127
0.472271 0.137384 0.164530 76 0 153
-0.523164 -0.075987 0.190163 76 0 153
-0.020454 0.002602 -0.141635 127 127 0
-0.020454 -0.346304 -0.129710 127 127 0
-0.116948 0.019059 0.189008 76 0 153
0.856778 0.337584 -0.181321 76 0 153
0.650525 0.152014 -0.174122 153 0 76
-0.228669 -0.243342 0.190163 76 0 153
0.824137 0.370324 0.188486 76 0 153
0.124810 -0.452330 -0.016627 76 153 0
-0.807303 -0.246504 -0.174122 76 0 153
-0.458088 0.034560 -0.186363 153 0 76
-0.561764 -0.331021 -0.174122 153 0 76
-0.796624 0.477944 -0.144519 153 0 76
-0.561478 0.382544 -0.174122 153 0 76
0.524694 0.050042 -0.186363 153 0 76
-0.317431 0.322899 0.180452 76 0 153
-0.195089 0.494265 0.096217 153 0 76
0.747595 -0.204834 -0.174122 153 0 76
0.297313 -0.432916 0.209053 76 0 153
0.339921 0.118052 -0.174122 153 0 76
0.840458 0.220352 -0.130293 76 0 153
-0.889320 -0.104924 0.164530 76 0 153
0.183665 0.389834 -0.174122 153 0 76
-0.557109 0.444876 -0.186363 153 0 76
-0.399612 -0.452330 -0.146686 76 153 0
-0.132237 0.084029 0.164530 76 0 153
0.425594 -0.476811 0.175608 76 0 153
-0.526483 -0.468650 -0.134838 76 153 0
0.164109 0.075727 0.164530 76 0 153
0.082409 0.010186 -0.174122 153 0 76
0.840458 -0.408214 -0.117985 76 0 153
-0.617347 -0.160692 -0.186363 153 0 76
-0.856884 -0.418097 0.076687 153 76 0
-0.884464 0.172484 -0.202683 76 0 153
0.443932 -0.081920 0.190163 76 0 153
-0.856884 0.118747 0.122514 153 76 0
-0.333997 0.053237 -0.202683 153 76 0
-0.889526 -0.352391 0.166203 76 0 153
-0.199205 0.453463 0.180523 76 0 153
0.340849 -0.003525 -0.186363 153 0 76
-0.697796 0.091319 -0.174122 153 0 76
0.400129 -0.421281 -0.174122 153 0 76
0.262867 -0.452330 0.128961 76 153 0
-0.375725 -0.399255 -0.174122 153 0 76
0.241457 0.038092 0.209053 76 0 153
-0.748556 -0.475081 0.189011 76 0 153
-0.783156 0.103045 0.164530 76 0 153
-0.020454 0.298790 -0.136575 127 127 0
0.805253 0.201427 0.164530 76 0 153
-0.594535 0.115293 -0.186363 153 0 76
-0.753524 0.314042 -0.186363 153 0 76
-0.522045 0.322899 0.165040 76 0 153
-0.013126 -0.276291 0.194019 76 0 153
-0.183563 -0.429318 0.164530 76 0 153
0.746359 -0.110079 -0.174122 153 0 76
-0.495669 -0.271635 -0.186363 153 0 76
0.360166 -0.392878 0.209053 76 0 153
0.186698 -0.183486 0.194019 76 0 153
0.586553 0.380749 -0.174122 153 0 76
-0.020454 0.460057 -0.129777 153 0 76
0.071790 0.302939 -0.186363 153 0 76
0.840458 0.272461 -0.051853 76 0 153
0.791500 0.026250 -0.186363 153 0 76
-0.483269 0.075392 0.164530 76 0 153
0.037372 -0.452330 0.077324 76 153 0
0.554516 -0.220725 0.190163 76 0 153
-0.024279 -0.414858 -0.174122 153 0 76
0.856778 0.014975 -0.024155 76 0 153
0.807615 -0.339970 -0.174122 153 0 76
0.353577 -0.124713 -0.174122 153 0 76
0.674288 -0.476811 0.186970 76 0 153
0.352722 -0.452330 -0.016839 76 153 0
0.410002 0.440867 0.051526 0 255 0
0.345968 0.008727 0.205479 76 0 153
0.004027 -0.208034 0.066714 127 127 0
0.871194 0.219571 0.189011 76 0 153
0.410002 0.423819 -0.066763 0 255 0
-0.691643 0.477944 -0.137823 153 0 76
0.081248 0.080959 -0.174122 153 0 76
0.434483 -0.331571 0.158187 0 255 0
-0.596831 0.477944 0.113290 153 0 76
-0.156103 -0.355174 -0.174122 153 0 76
0.046488 0.153631 -0.186363 153 0 76
-0.020454 0.411085 -0.046979 127 127 0
0.564571 0.477944 0.049138 153 0 76
-0.322648 0.199181 0.164530 76 0 153
0.026762 0.223717 -0.186363 153 0 76
-0.120912 -0.468650 -0.006960 76 153 0
-0.648420 0.001821 0.194019 76 0 153
-0.016994 0.494265 -0.005358 153 0 76
0.737134 0.477944 -0.152611 153 0 76
-0.294100 -0.324538 0.190163 76 0 153
0.047553 -0.107671 -0.186363 153 0 76
0.610273 -0.320321 0.190163 76 0 153
-0.889526 -0.275485 -0.200799 76 0 153
-0.090465 -0.469554 0.189011 76 0 153
0.435081 -0.055272 -0.174122 0 255 0
-0.414398 0.477944 0.080210 153 0 76
-0.556962 0.173030 -0.174122 153 0 76
-0.020454 -0.259405 -0.133176 127 127 0
-0.742418 0.453463 0.184312 76 0 153
-0.763819 0.368559 -0.174122 153 0 76
-0.473259 -0.080591 -0.174122 153 0 76
-0.241151 -0.313649 -0.186363 76 153 0
-0.292644 -0.426311 0.189008 76 0 153
-0.214906 -0.095376 -0.186363 153 0 76
0.460269 0.018500 0.209053 76 0 153
0.334544 -0.306351 -0.186363 153 0 76
0.111062 -0.083506 -0.174122 153 0 76
-0.324152 0.120362 -0.174122 153 76 0
0.804344 -0.452330 0.133030 76 153 0
-0.856884 0.358470 -0.010844 153 76 0
-0.426429 -0.355335 -0.001693 127 0 127
0.434483 -0.294707 -0.059747 0 255 0
0.570205 -0.289748 -0.174122 153 0 76
-0.873205 -0.218709 -0.071385 153 76 0
-0.172658 0.178497 0.189011 76 0 153
-0.084966 0.494265 0.144914 153 0 76
-0.805374 -0.452330 -0.051399 76 153 0
0.434483 0.183278 0.002666 0 255 0
-0.856884 0.040263 0.078512 153 76 0
0.511568 -0.275886 0.190163 76 0 153
0.405372 -0.031645 0.194019 76 0 153
0.370774 -0.452330 -0.128408 76 153 0
-0.020454 0.392595 0.124392 127 127 0
-0.392910 -0.415006 0.209053 76 0 153
-0.450910 -0.147090 0.096240 127 0 127
0.434483 -0.034184 0.106705 0 255 0
-0.862267 -0.468650 -0.009443 76 153 0
0.004027 -0.292111 0.103786 127 127 0
-0.426429 -0.329447 0.104527 127 0 127
0.371267 0.326432 -0.186363 153 0 76
0.137027 -0.421236 0.209053 76 0 153
0.765023 0.278731 -0.186363 153 0 76
-0.488522 -0.179271 0.190163 76 0 153
-0.116076 0.279362 0.164530 76 0 153
-0.178178 0.477944 -0.125283 153 0 76
0.731470 -0.237254 0.190163 76 0 153
-0.426429 0.261556 -0.025618 127 0 127
0.004027 0.028659 -0.012812 127 127 0
-0.426429 0.361996 -0.146555 127 0 127
0.410002 -0.147988 0.054413 0 255 0
-0.511448 -0.123667 -0.186363 153 0 76
-0.707613 -0.092868 -0.174122 153 0 76
0.603868 0.205899 0.189011 76 0 153
0.434483 -0.170642 0.161631 0 255 0
-0.451953 0.233663 -0.186363 153 0 76
0.516936 0.477944 -0.166831 153 0 76
0.093414 0.485284 -0.202683 153 0 76
-0.664705 0.029509 -0.174122 153 0 76
0.343892 0.227315 0.189011 76 0 153
-0.856884 -0.295850 -0.015033 153 76 0
-0.651364 -0.452330 0.043270 76 153 0
-0.619932 -0.442021 -0.186363 153 0 76
0.840458 -0.205111 -0.042831 76 0 153
-0.426429 -0.354411 -0.138220 127 0 127
-0.572005 -0.013661 -0.174122 153 0 76
-0.731742 -0.464189 -0.202683 76 153 0
-0.870462 0.477944 0.138101 153 76 0
0.004027 0.043457 0.048741 127 127 0
-0.320876 0.494265 0.051179 153 0 76
0.743202 -0.468650 0.106151 76 153 0
-0.040088 0.178897 -0.186363 153 0 76
0.851865 -0.468650 0.054920 76 153 0
-0.808678 0.099167 -0.202683 76 0 153
-0.118323 -0.131362 0.194019 76 0 153
-0.229632 0.499994 0.189011 76 0 153
-0.015238 0.308265 0.189011 76 0 153
0.009038 -0.242100 -0.186363 127 127 0
-0.655694 -0.104099 0.190163 76 0 153
-0.856884 -0.180524 -0.158000 153 0 76
0.741358 0.377157 -0.174122 153 0 76
0.410002 0.402960 0.152153 0 255 0
-0.011026 0.061769 0.171688 76 0 153
0.856778 -0.121780 0.079256 76 0 153
0.790582 -0.303933 0.189008 76 0 153
0.434483 -0.052951 0.018101 0 255 0
-0.739424 0.064171 0.209053 76 0 153
0.138958 0.494265 -0.037326 153 0 76
0.856778 0.114456 -0.171358 76 0 153
0.131888 0.074772 0.209053 76 0 153
-0.301029 -0.172669 -0.202683 153 76 0
0.441453 -0.468650 0.048569 76 153 0
-0.374616 0.160117 -0.174122 153 0 76
0.624048 -0.138647 0.190163 76 0 153
0.856778 0.295375 0.110862 76 0 153
-0.379620 0.502425 0.182843 76 0 153
0.660431 0.306843 -0.174122 153 0 76
0.240730 0.494265 -0.058757 153 0 76
-0.438376 -0.201170 0.194019 76 0 153
0.470500 0.349361 -0.174122 153 0 76
0.410002 0.089769 -0.045744 0 255 0
-0.856884 0.208578 0.080416 153 76 0
-0.840564 -0.156672 0.168864 76 0 153
0.046524 -0.272052 0.194019 76 0 153
-0.162894 -0.249706 -0.186363 153 0 76
0.004027 0.345528 0.094305 127 127 0
0.522793 -0.166755 0.194019 76 0 153
-0.689301 0.502425 0.187310 76 0 153
0.434483 0.271371 0.041352 0 255 0
0.873099 -0.238179 0.187611 76 0 153
0.298494 -0.070934 0.190163 76 0 153
0.586527 -0.351474 -0.186363 153 0 76
-0.442162 0.163438 0.164530 76 0 153
-0.333300 -0.344678 -0.202683 153 76 0
-0.856884 0.151556 0.073103 153 76 0
-0.054823 -0.452330 -0.023091 76 153 0
0.471936 0.494265 -0.008640 153 0 76
0.434483 -0.175454 -0.016571 0 255 0
0.856778 -0.253692 -0.071881 76 0 153
0.647602 -0.359295 -0.186363 153 0 76
0.479051 -0.352734 -0.174122 153 0 76
0.608951 0.079320 -0.174122 153 0 76
-0.473369 0.453463 0.176941 76 0 153
-0.853551 -0.239663 0.164530 76 0 153
-0.300661 -0.468650 -0.097913 76 153 0
-0.020454 0.117310 0.044370 127 127 0
0.505127 -0.468650 -0.011497 76 153 0
-0.020454 -0.407678 -0.056267 127 127 0
-0.426429 0.362667 -0.048871 127 0 127
-0.307934 -0.066324 -0.174122 153 0 76
-0.570966 0.061974 0.209053 76 0 153
0.004027 -0.111421 -0.148789 127 127 0
0.872232 -0.343063 0.164530 76 0 153
-0.856884 0.236683 0.025926 153 76 0
-0.426429 0.048202 -0.051473 127 0 127
0.554310 -0.476811 0.174924 76 0 153
-0.450910 0.065278 0.019742 127 0 127
0.457747 -0.271797 0.194019 76 0 153
-0.454392 -0.088418 0.190163 76 0 153
-0.552788 0.158045 0.164530 76 0 153
-0.848847 -0.324600 -0.202683 76 0 153
0.410002 0.362012 -0.109607 0 255 0
0.840458 0.057268 0.015384 76 0 153
-0.027851 0.112297 -0.174122 153 0 76
0.028025 0.333395 -0.174122 153 0 76
-0.030092 -0.159991 0.194019 76 0 153
0.608301 -0.100489 -0.174122 153 0 76
0.279951 -0.137237 0.190163 76 0 153
-0.502167 0.070313 -0.186363 153 0 76
-0.666570 -0.430570 0.164530 76 0 153
-0.566882 -0.430323 0.164530 76 0 153
-0.506345 0.494265 -0.039240 153 0 76
0.856778 -0.055480 -0.154829 76 0 153
-0.856884 0.158034 -0.018400 153 76 0
-0.020454 -0.202188 -0.051152 127 127 0
0.500028 -0.429076 0.164530 76 0 153
0.391445 -0.309460 -0.174122 153 0 76
0.840458 0.463312 -0.009234 153 0 76
0.096962 -0.452330 -0.148294 76 153 0
-0.426429 -0.081607 0.071350 127 0 127
-0.428483 -0.262086 0.164530 127 0 127
-0.044533 0.455684 0.164530 76 0 153
-0.840564 0.348777 0.166672 76 0 153
0.463665 0.502425 0.179078 76 0 153
-0.873205 0.287345 -0.064049 153 76 0
0.384836 0.455388 0.164530 76 0 153
0.312426 -0.398267 -0.174122 153 0 76
0.836505 0.016087 0.209053 76 0 153
-0.428652 -0.412802 0.164530 127 0 127
-0.706419 -0.200863 -0.174122 153 0 76
0.525448 0.170033 0.189011 76 0 153
-0.889526 -0.415783 -0.192992 76 0 153
-0.873205 0.438338 -0.154234 153 76 0
0.856778 -0.302956 -0.007264 76 0 153
0.410002 0.245161 0.150440 0 255 0
0.012366 -0.102869 0.194019 76 0 153
-0.624805 -0.452330 -0.062229 76 153 0
0.299037 -0.321783 0.194019 76 0 153
-0.000641 -0.452330 -0.107246 127 127 0
0.873099 -0.468940 0.165981 76 0 153
-0.688797 -0.468650 -0.046584 76 153 0
0.363985 -0.468650 0.032581 76 153 0
-0.208831 -0.476811 0.168411 76 0 153
-0.856884 0.290471 -0.163486 153 0 76
0.826087 0.118711 0.189011 76 0 153
-0.478710 -0.344391 0.190163 76 0 153
-0.677160 -0.292541 -0.174122 153 0 76
0.434483 0.209281 -0.125653 0 255 0
0.840458 -0.053428 0.156735 76 0 153
-0.889526 -0.092091 -0.200509 76 0 153
0.434483 -0.383503 -0.020369 0 255 0
-0.621057 0.477944 -0.055229 153 0 76
0.164490 0.453463 0.187932 76 0 153
-0.751092 0.494265 0.015543 153 0 76
0.514509 0.126035 -0.186363 153 0 76
0.840458 -0.149528 0.144458 76 0 153
0.840458 -0.044156 -0.104248 76 0 153
0.581170 0.502425 0.185737 76 0 153
0.310741 0.494265 -0.197315 153 0 76
0.560965 0.262643 0.189011 76 0 153
-0.019985 0.219847 0.189011 76 0 153
-0.387652 0.243208 0.189011 76 0 153
0.410002 -0.118357 0.119559 0 255 0
-0.426429 -0.262874 -0.091331 127 0 127
-0.038493 -0.170968 -0.186363 153 0 76
-0.613034 0.494265 -0.148632 153 0 76
0.074132 -0.471706 0.164530 76 0 153
-0.456010 0.492554 -0.202683 153 0 76
-0.426429 0.088236 -0.143734 127 0 127
-0.223230 -0.034208 -0.174122 153 0 76
0.004027 -0.359330 -0.057260 127 127 0
0.054607 -0.177110 -0.174122 153 0 76
0.856778 -0.031914 0.000015 76 0 153
0.680527 -0.382026 0.189008 76 0 153
-0.388539 -0.133620 -0.174122 153 0 76
0.651164 0.453463 0.165777 76 0 153
0.840458 0.380658 -0.073261 76 0 153
-0.840564 0.089862 0.168479 76 0 153
0.265686 -0.452330 -0.145513 76 153 0
0.434483 0.098212 -0.154687 0 255 0
-0.450910 0.352872 0.059737 127 0 127
-0.183321 -0.308865 -0.186363 153 0 76
0.820172 0.477944 0.063422 153 0 76
-0.751790 -0.452330 0.140672 76 153 0
0.840458 -0.341434 0.062445 76 0 153
0.373968 0.477944 -0.148319 153 0 76
0.499448 -0.393754 0.209053 76 0 153
0.810608 0.235923 -0.174122 153 0 76
0.626318 -0.256189 -0.174122 153 0 76
0.153574 -0.468650 0.075481 76 153 0
-0.267205 0.400922 -0.202683 153 76 0
0.148003 0.494265 -0.116473 153 0 76
0.856778 0.428875 -0.148890 76 0 153
0.107085 -0.020746 0.194019 76 0 153
-0.856884 -0.212318 0.049978 153 76 0
0.271626 0.286538 -0.202683 76 0 153
-0.472027 -0.476811 0.170179 76 0 153
-0.133707 -0.468650 -0.167042 76 153 0
-0.857004 0.223821 -0.202683 76 0 153
-0.856884 0.119785 0.020613 153 76 0
-0.450910 0.193374 0.055956 127 0 127
0.591453 -0.468650 0.034076 76 153 0
0.750289 -0.416363 0.209053 76 0 153
-0.159454 -0.452330 -0.055170 76 153 0
0.840458 0.012847 -0.073629 76 0 153
-0.626199 0.223866 -0.174122 153 0 76
-0.450910 0.138157 0.083763 127 0 127
0.280435 0.381609 -0.174122 153 0 76
-0.315042 0.225696 -0.202683 153 76 0
0.410816 0.297919 0.164530 0 255 0
-0.450910 0.180745 0.005070 127 0 127
-0.156777 -0.428389 0.209053 76 0 153
-0.213643 -0.421785 -0.186363 153 0 76
0.673450 0.444454 -0.186363 153 0 76
0.172398 0.169431 0.189011 76 0 153
-0.415406 0.494265 0.008214 153 0 76
-0.127303 0.172652 0.164530 76 0 153
-0.444884 -0.468650 -0.180366 76 153 0
-0.426429 0.422744 -0.040551 127 0 127
-0.614466 -0.256763 -0.186363 153 0 76
0.293184 0.025593 -0.202683 153 0 76
0.070020 0.322899 0.187267 76 0 153
0.513944 0.076293 0.164530 76 0 153
-0.578923 -0.468650 0.123358 76 153 0
0.856778 0.378796 0.144142 76 0 153
-0.426429 -0.236587 0.089592 127 0 127
0.442937 -0.468650 -0.074874 76 153 0
-0.254128 -0.245805 -0.202683 153 76 0
0.017032 -0.429380 0.164530 127 127 0
-0.761329 0.477944 0.126484 153 0 76
0.009490 0.494265 0.082357 153 0 76
-0.671653 -0.164633 -0.186363 153 0 76
-0.510097 0.477944 -0.142325 153 0 76
-0.387057 -0.476811 0.189002 76 0 153
-0.462778 0.494265 -0.084826 153 0 76
0.217175 0.502425 0.165058 76 0 153
-0.115376 0.502406 0.189011 76 0 153
-0.607925 -0.452330 -0.116041 76 153 0
-0.333506 -0.390673 0.209053 76 0 153
0.147288 0.273952 0.189011 76 0 153
-0.554234 -0.452330 -0.201178 76 153 0
0.113084 0.179692 0.189011 76 0 153
-0.580818 0.453463 0.186953 76 0 153
0.840458 0.476855 -0.083264 153 0 76
0.514120 -0.049882 -0.186363 153 0 76
-0.075580 -0.468650 0.079391 76 153 0
0.579791 0.155773 0.164530 76 0 153
0.009103 0.473481 0.189011 76 0 153
-0.426429 0.420626 0.145572 127 0 127
0.744962 -0.130540 0.194019 76 0 153
0.318045 0.494265 0.072065 153 0 76
0.434483 -0.187952 -0.149759 0 255 0
0.434483 0.296693 -0.027635 0 255 0
0.738943 0.262198 0.164530 76 0 153
-0.856884 0.369296 0.094114 153 76 0
-0.593781 0.306015 -0.186363 153 0 76
0.495694 0.453463 0.171588 76 0 153
0.417230 0.494265 0.156084 76 0 153
-0.426429 -0.046197 -0.021085 127 0 127
0.870246 -0.468650 -0.056821 76 153 0
0.372563 0.153569 0.189011 76 0 153
0.022535 0.157129 0.189011 76 0 153
-0.130287 0.254205 -0.186363 153 0 76
-0.574532 -0.332825 0.190163 76 0 153
-0.059118 -0.429615 0.164530 76 0 153
0.243893 0.251675 0.189011 76 0 153
0.461080 0.316126 0.164530 76 0 153
-0.873205 -0.062132 0.099562 153 76 0
-0.856884 0.058944 -0.032331 153 76 0
-0.426429 0.136479 -0.169624 127 0 127
0.332558 -0.427849 0.169369 76 0 153
-0.020454 -0.087526 -0.096294 127 127 0
0.004027 0.176694 0.110003 127 127 0
0.004027 -0.258834 0.148462 127 127 0
0.665205 0.022087 0.189008 76 0 153
0.426793 0.069700 0.209053 76 0 153
-0.736328 0.171678 -0.186363 153 0 76
0.434483 0.003667 0.009091 0 255 0
-0.252044 0.065233 0.209053 76 0 153
-0.020454 -0.145680 0.024209 127 127 0
0.856778 -0.400923 -0.005032 76 0 153
-0.405653 0.050702 -0.186363 153 0 76
-0.427790 0.307763 0.164530 76 0 153
0.022685 -0.176193 0.190163 76 0 153
0.856778 0.290505 -0.007177 76 0 153
-0.207879 0.477944 -0.073485 153 0 76
0.741931 -0.397086 -0.174122 153 0 76
0.351477 0.446232 -0.186363 153 0 76
-0.767176 0.070111 -0.186363 153 0 76
-0.656646 -0.468650 0.126767 76 153 0
0.565339 -0.399146 -0.186363 153 0 76
