ply
format ascii 1.0
element vertex 1251
property float x
property float y
property float z
property uchar red
property uchar green
property uchar blue
end_header
0.486884 0.106034 -0.444995 0 127 127
0.273919 -0.017043 0.465806 153 0 76
-0.218355 -0.389446 -0.516069 0 127 127
-0.057216 0.725973 0.401306 0 127 127
0.155614 -0.538351 -0.288277 127 0 127
0.009106 0.588084 0.563899 153 0 76
0.339682 0.709911 0.551968 153 0 76
0.054650 0.224422 0.563494 153 0 76
-0.177447 -0.302359 -0.516069 0 127 127
0.508703 -0.267918 0.312740 0 127 127
-0.181785 -0.538351 0.227039 127 0 127
-0.396357 -0.412470 0.465773 153 0 76
-0.538633 0.012629 0.140165 0 127 127
0.028473 -0.505442 0.067398 127 0 127
-0.252137 -0.665861 -0.033336 127 0 127
-0.137199 -0.517614 -0.300412 127 0 127
-0.538633 -0.299605 -0.002494 0 127 127
0.306877 -0.538351 0.189570 127 0 127
0.233298 0.769852 0.407977 0 127 127
0.508703 -0.161870 -0.128250 0 127 127
0.508703 -0.608357 -0.359898 127 0 127
-0.375157 -0.331480 -0.516069 0 127 127
-0.538633 0.640313 -0.359311 0 127 127
0.486884 0.263853 -0.460663 0 127 127
-0.428559 0.620038 -0.516069 0 127 127
-0.320455 -0.538351 -0.233158 127 0 127
0.082999 0.628896 0.563049 76 0 153
-0.286807 -0.512799 0.029530 127 0 127
-0.433153 0.769852 -0.338755 0 127 127
0.166489 -0.527360 0.440367 153 0 76
0.478349 0.111795 0.465805 153 0 76
-0.100268 0.427693 0.465806 153 0 76
-0.252436 -0.040669 0.558570 153 0 76
-0.538633 -0.240119 -0.101127 0 127 127
-0.399476 -0.538351 -0.343098 0 127 127
0.184229 0.036362 0.560165 153 0 76
0.325266 -0.159491 -0.516069 0 127 127
0.308456 0.170160 -0.516069 0 127 127
0.088526 -0.509861 0.465792 153 0 76
0.475012 -0.537269 0.224628 0 127 127
0.486884 0.686594 -0.349672 0 127 127
0.351349 0.769852 0.298098 0 127 127
0.278426 -0.530956 0.245012 127 0 127
-0.352878 -0.505442 -0.303543 0 127 127
-0.538633 0.157675 0.256177 0 127 127
-0.025462 -0.713876 -0.455618 127 0 127
0.112394 -0.448698 0.465795 153 0 76
-0.142052 -0.517448 -0.054883 127 0 127
0.193043 -0.538351 -0.112950 127 0 127
-0.538633 -0.016026 -0.208099 0 127 127
-0.508717 0.725973 -0.015565 0 127 127
0.486884 -0.136343 -0.490936 0 127 127
-0.136341 -0.505442 0.253131 127 0 127
-0.435682 -0.538351 -0.243605 0 127 127
-0.538633 0.637462 0.176174 0 127 127
-0.255783 -0.608328 -0.516069 127 0 127
-0.536451 0.354910 0.519897 153 0 76
-0.538633 -0.432534 0.429098 0 127 127
-0.538633 0.110262 0.425856 0 127 127
-0.134127 0.636753 0.588443 76 0 153
-0.336655 0.769852 -0.130913 0 127 127
0.105399 0.097297 0.465806 153 0 76
0.358819 -0.235399 0.465806 153 0 76
-0.310269 -0.675604 0.256437 127 0 127
-0.538633 -0.613183 -0.424990 127 0 127
0.190490 -0.505442 0.392602 0 127 127
0.508703 -0.360903 -0.372965 0 127 127
-0.470542 0.260815 0.465793 153 0 76
0.508703 -0.194857 0.048224 0 127 127
0.486884 -0.118214 0.170606 0 127 127
-0.097390 -0.505442 -0.340974 0 127 127
0.396089 -0.713876 0.202230 127 0 127
0.506522 0.190541 0.511330 153 0 76
0.508703 -0.009771 -0.437801 0 127 127
-0.145319 -0.713876 0.011885 127 0 127
0.141130 -0.505442 0.030641 127 0 127
-0.475997 -0.430442 -0.516069 0 127 127
0.397703 -0.713876 -0.233325 127 0 127
-0.458422 -0.713876 0.090181 127 0 127
-0.326089 -0.678255 -0.396641 127 0 127
0.252177 -0.433832 0.557164 153 0 76
-0.538633 0.315969 -0.442226 0 127 127
0.488334 -0.690067 -0.516069 127 0 127
0.440850 -0.224750 0.465806 153 0 76
0.486884 -0.259644 0.066399 0 127 127
0.122358 0.769852 0.229879 0 127 127
0.350641 0.608269 0.551195 153 0 76
-0.390449 0.251169 0.465796 153 0 76
-0.289035 -0.505442 -0.233379 127 0 127
0.486884 0.210872 -0.228349 0 127 127
0.508703 0.294874 0.431579 0 127 127
-0.538633 0.361912 -0.204224 0 127 127
-0.222323 -0.670194 0.339073 127 0 127
0.419429 0.512318 0.465806 153 0 76
0.486884 0.100867 -0.383356 0 127 127
0.012135 0.725973 -0.354309 0 127 127
0.086690 -0.505442 0.397058 0 127 127
-0.538633 0.154925 0.047340 0 127 127
0.508703 -0.499663 0.062238 0 127 127
0.294501 0.250439 0.554837 153 0 76
0.508703 0.235351 -0.341607 0 127 127
0.486884 0.452550 0.415504 0 127 127
-0.159973 -0.538351 0.400981 0 127 127
-0.538633 -0.190652 -0.066330 0 127 127
-0.014965 0.734719 0.296521 0 127 127
-0.538633 0.383179 -0.508867 0 127 127
0.508703 -0.147202 0.213053 0 127 127
0.486884 -0.075962 -0.018905 0 127 127
-0.305584 -0.505442 -0.206931 127 0 127
-0.098161 0.725973 -0.006810 0 127 127
0.183123 0.527141 0.560206 153 0 76
0.489663 -0.114394 0.465768 153 0 76
0.372280 0.543698 0.549668 153 0 76
-0.538633 0.595613 -0.412569 0 127 127
0.329790 -0.538351 -0.382153 0 127 127
0.486884 -0.427304 0.404234 0 127 127
0.022389 0.641490 0.465806 153 0 76
-0.258869 0.769852 0.228425 0 127 127
0.486884 0.118779 0.332227 0 127 127
-0.166293 -0.516666 0.034372 127 0 127
-0.014965 0.741641 -0.441261 0 127 127
0.486884 0.414966 -0.324175 0 127 127
0.383018 -0.505442 0.095088 0 127 127
0.124138 -0.314523 -0.516069 0 127 127
0.126651 -0.505442 0.254937 127 0 127
-0.067458 0.769852 0.116024 0 127 127
0.016312 0.569444 0.465807 153 0 76
-0.050201 0.241709 0.563853 153 0 76
0.508703 0.078934 -0.430478 0 127 127
-0.388920 -0.537137 0.515011 153 0 76
-0.504606 -0.538351 0.359023 0 127 127
0.508703 0.162517 -0.143467 0 127 127
-0.538633 -0.282198 -0.107394 0 127 127
-0.464887 -0.304048 0.465774 153 0 76
0.508703 0.003062 0.047978 0 127 127
0.508703 0.137685 0.413545 0 127 127
-0.536687 -0.216713 -0.516069 0 127 127
-0.361771 0.734415 0.552514 153 0 76
0.486884 0.553511 -0.317617 0 127 127
0.332644 -0.505442 -0.495167 0 127 127
0.242170 -0.529787 -0.231763 127 0 127
-0.093434 -0.403074 0.465787 153 0 76
0.439495 0.725973 -0.290488 0 127 127
0.508703 0.639172 -0.308349 0 127 127
-0.538633 -0.605488 0.322840 127 0 127
0.301776 -0.713876 0.157444 127 0 127
-0.222262 -0.538351 0.313992 0 127 127
0.508703 0.024430 0.265103 0 127 127
0.019650 0.769852 0.381826 0 127 127
0.486884 0.225019 0.123169 0 127 127
-0.084775 0.755298 0.563492 153 0 76
-0.325787 0.342406 0.554753 153 0 76
-0.325221 0.587707 -0.516069 0 127 127
-0.014965 0.745460 0.345742 0 127 127
0.508703 -0.402341 -0.298945 0 127 127
-0.407416 0.112817 0.549289 153 0 76
0.508703 0.743087 -0.444068 0 127 127
0.371223 0.397677 0.465806 153 0 76
0.508703 0.113751 -0.291812 0 127 127
0.013896 0.725973 0.102360 0 127 127
-0.506910 -0.713876 0.122197 127 0 127
-0.538633 0.160182 0.139079 0 127 127
0.508703 0.627621 -0.153630 0 127 127
0.400218 0.769852 0.310641 0 127 127
0.486884 -0.311707 -0.401781 0 127 127
0.508703 0.167273 -0.203960 0 127 127
0.480785 -0.514322 0.465809 153 0 76
0.508703 -0.306642 -0.106376 0 127 127
0.327928 0.446968 -0.516069 0 127 127
0.486884 0.568107 0.025622 0 127 127
0.389334 0.769852 -0.174616 0 127 127
0.432380 -0.551142 -0.430415 0 127 127
-0.050053 0.223288 0.465807 153 0 76
0.508703 0.278779 -0.057512 0 127 127
0.006754 -0.505442 0.303684 0 127 127
0.508703 -0.305022 -0.016436 0 127 127
0.432016 -0.713876 -0.305386 127 0 127
0.093707 -0.713876 -0.276762 127 0 127
0.486884 0.001705 -0.301717 0 127 127
0.508703 0.603182 -0.192751 0 127 127
0.486884 -0.489177 -0.195487 0 127 127
-0.538633 0.130633 -0.358395 0 127 127
-0.187371 -0.713876 -0.204556 127 0 127
-0.147041 -0.713876 -0.042724 127 0 127
0.347316 -0.505442 -0.292980 0 127 127
-0.033908 0.053378 0.465805 153 0 76
0.392811 -0.435201 0.548081 153 0 76
-0.538633 0.417024 -0.454362 0 127 127
0.206001 0.725973 -0.092346 0 127 127
0.439972 0.651908 -0.516069 0 127 127
0.508703 -0.027062 -0.259217 0 127 127
-0.538633 -0.526090 -0.459427 0 127 127
0.016968 0.179209 0.465807 153 0 76
-0.512734 0.725973 0.133420 0 127 127
-0.311932 -0.538351 0.146209 127 0 127
0.067743 -0.713876 0.090569 127 0 127
-0.462807 -0.538351 0.179249 0 127 127
0.508703 -0.321241 -0.226135 0 127 127
-0.538633 -0.381072 0.015807 0 127 127
-0.271266 0.769852 0.115689 0 127 127
0.112737 0.725973 0.247723 0 127 127
-0.042586 -0.224730 0.563884 153 0 76
-0.487475 0.544050 0.542665 153 0 76
0.036147 -0.538351 0.000619 127 0 127
0.444818 0.357631 0.465806 153 0 76
0.508703 -0.265678 0.206791 0 127 127
-0.538633 0.248066 -0.069457 0 127 127
0.273878 0.164723 0.465806 153 0 76
-0.204869 -0.465995 0.560512 153 0 76
-0.513085 0.316154 0.465793 153 0 76
0.258100 -0.580350 -0.192972 127 0 127
-0.065991 -0.578291 -0.516069 127 0 127
-0.538633 -0.230696 -0.335874 0 127 127
-0.445895 0.725973 0.362263 0 127 127
0.486884 0.246122 0.333564 0 127 127
0.046696 -0.122071 0.465803 153 0 76
0.508703 -0.230206 0.065598 0 127 127
-0.331351 -0.641165 -0.516069 127 0 127
0.176099 0.230785 0.465806 153 0 76
0.376877 0.444659 0.549337 153 0 76
0.508703 0.088197 0.039417 0 127 127
-0.444490 0.725973 -0.416227 0 127 127
0.259726 -0.505442 0.370618 0 127 127
-0.077677 -0.505442 0.268312 0 127 127
0.508703 0.424161 -0.176412 0 127 127
0.079802 -0.713876 0.155533 127 0 127
-0.343396 0.769852 -0.008643 0 127 127
0.209551 0.290009 -0.516069 0 127 127
0.383313 -0.713876 -0.056501 127 0 127
0.508703 -0.034383 -0.051722 0 127 127
-0.510179 0.769852 -0.086403 0 127 127
-0.538633 -0.559120 -0.465514 127 0 127
0.393754 -0.509107 -0.516069 0 127 127
0.508703 0.114968 -0.246436 0 127 127
0.508703 0.316100 -0.272162 0 127 127
0.140961 -0.599981 0.242838 127 0 127
-0.245045 0.199831 0.465801 153 0 76
-0.407898 0.769852 -0.028760 0 127 127
0.284941 -0.538351 -0.172415 127 0 127
0.248410 -0.581974 0.055601 127 0 127
0.102659 0.144708 -0.516069 0 127 127
0.151919 -0.153099 -0.516069 0 127 127
0.508703 0.253602 -0.150920 0 127 127
0.486884 -0.261167 -0.022176 0 127 127
0.126671 0.603550 -0.516069 0 127 127
-0.538633 -0.575225 0.254292 127 0 127
-0.538633 0.298769 0.440560 153 0 76
0.508703 -0.654751 0.004659 127 0 127
0.486884 -0.457408 0.230439 0 127 127
-0.538633 -0.094522 -0.144232 0 127 127
0.486884 0.076200 0.112974 0 127 127
0.114766 -0.525701 -0.319900 127 0 127
-0.287176 0.346381 -0.516069 0 127 127
0.432120 -0.713876 -0.266302 127 0 127
-0.417750 -0.070982 -0.516069 0 127 127
0.139857 -0.020034 0.465807 153 0 76
-0.018016 -0.433589 -0.516069 0 127 127
0.178012 -0.527735 -0.429998 0 127 127
-0.041864 -0.520663 0.387162 0 127 127
-0.538633 -0.344894 -0.170541 0 127 127
0.480378 -0.543098 -0.429462 0 127 127
0.127679 -0.602207 -0.199641 127 0 127
-0.071709 0.769852 0.228226 0 127 127
0.134860 -0.205528 0.561809 153 0 76
0.471862 -0.713876 0.193278 127 0 127
0.348024 -0.565279 0.190516 127 0 127
0.333276 -0.505442 0.066425 0 127 127
-0.168343 -0.516611 -0.210558 127 0 127
-0.463685 -0.713876 0.331250 127 0 127
-0.538633 -0.606876 -0.340515 127 0 127
-0.448762 -0.538351 -0.023182 0 127 127
-0.046420 0.501502 0.563868 153 0 76
0.433446 0.682242 -0.516069 0 127 127
0.054648 -0.538351 -0.278231 127 0 127
-0.110153 0.725973 -0.456766 0 127 127
-0.314744 -0.505442 -0.171701 127 0 127
0.486055 -0.505442 -0.408043 0 127 127
0.477542 -0.212142 0.540802 153 0 76
0.254159 0.380619 0.465806 153 0 76
0.197150 -0.057955 0.465807 153 0 76
-0.106300 -0.518592 0.352783 0 127 127
-0.128674 0.532356 -0.516069 0 127 127
-0.481477 -0.506546 0.178861 0 127 127
0.508703 0.242501 -0.192455 0 127 127
-0.481352 0.081423 0.465786 153 0 76
-0.002813 -0.195435 0.465798 153 0 76
-0.538633 -0.271117 -0.178170 0 127 127
0.169278 0.385962 0.465806 153 0 76
0.092900 -0.713876 -0.477385 127 0 127
-0.263038 0.725973 -0.361441 0 127 127
-0.538633 -0.167768 -0.211555 0 127 127
0.506234 0.769852 -0.240292 0 127 127
-0.009600 -0.505442 -0.269949 127 0 127
0.335567 0.769852 -0.432992 0 127 127
0.508703 -0.410948 0.203814 0 127 127
0.482226 -0.505442 -0.143391 0 127 127
-0.189789 -0.354358 -0.516069 0 127 127
0.154158 -0.538351 -0.162243 127 0 127
0.071742 0.725973 -0.365683 0 127 127
-0.332511 -0.498752 -0.516069 0 127 127
-0.363209 0.069152 0.465791 153 0 76
-0.538633 -0.291973 -0.434937 0 127 127
0.508703 0.366325 -0.033786 0 127 127
0.233486 -0.713876 -0.406578 127 0 127
-0.392695 -0.472566 0.465771 153 0 76
0.191937 0.769852 0.280610 0 127 127
-0.096909 -0.538351 0.410325 0 127 127
0.211300 -0.538351 0.410941 0 127 127
-0.538633 0.176431 -0.262897 0 127 127
-0.538633 -0.017991 0.280267 0 127 127
0.058854 0.062515 0.465807 153 0 76
0.105171 -0.538351 -0.095349 127 0 127
-0.510447 -0.713876 -0.185092 127 0 127
-0.122505 -0.253656 0.562850 153 0 76
-0.409581 -0.692247 0.312887 127 0 127
-0.387401 -0.257521 -0.516069 0 127 127
-0.117487 0.769852 -0.268295 0 127 127
-0.451903 -0.700495 -0.516069 127 0 127
0.408477 0.584018 -0.516069 0 127 127
0.439560 -0.530496 0.544231 153 0 76
0.486884 -0.028960 0.397486 0 127 127
-0.538633 -0.156238 -0.333242 0 127 127
-0.333242 -0.538351 0.440142 153 0 76
-0.367467 -0.713876 -0.265702 127 0 127
0.508703 0.457853 0.287079 0 127 127
0.272275 -0.505442 -0.144140 127 0 127
0.174053 -0.411969 0.465799 153 0 76
0.222375 -0.538351 0.182432 127 0 127
-0.370235 0.735071 0.465807 153 0 76
0.356753 0.509669 0.550763 153 0 76
0.486884 -0.186138 0.103100 0 127 127
-0.416555 0.699234 0.465807 153 0 76
-0.419855 0.692103 0.574982 76 0 153
0.486884 0.150390 0.246177 0 127 127
0.123650 -0.602882 -0.489680 127 0 127
0.486884 -0.440166 -0.008188 0 127 127
-0.256355 -0.538351 -0.460804 0 127 127
0.295297 -0.713876 -0.451016 127 0 127
0.399695 -0.050714 0.547539 153 0 76
-0.538633 -0.003692 -0.268150 0 127 127
0.051566 -0.713876 -0.162554 127 0 127
-0.538633 0.247462 -0.356276 0 127 127
-0.538633 -0.235164 -0.268347 0 127 127
-0.538633 0.561696 0.271844 0 127 127
0.483461 -0.505442 -0.294329 0 127 127
-0.047801 -0.520677 -0.516069 0 127 127
0.201509 -0.046512 0.559520 153 0 76
0.072648 0.460818 -0.516069 0 127 127
0.279024 0.545024 -0.516069 0 127 127
-0.277705 0.660806 0.600287 76 0 153
0.356742 0.769852 -0.125009 0 127 127
0.486884 0.644738 -0.289071 0 127 127
-0.345184 -0.699131 -0.516069 127 0 127
0.215685 0.725973 0.131347 0 127 127
-0.538633 -0.407636 0.256368 0 127 127
0.419129 0.264189 0.546007 153 0 76
0.428957 -0.600338 0.337806 127 0 127
-0.003292 -0.624157 -0.069860 127 0 127
0.508703 0.245482 0.417857 0 127 127
0.508703 -0.657100 0.210959 127 0 127
-0.183709 0.046271 0.561260 153 0 76
-0.242985 0.623051 0.465807 153 0 76
0.498939 0.082066 -0.516069 0 127 127
0.115009 -0.713876 -0.225451 127 0 127
0.486884 -0.478018 0.150809 0 127 127
-0.110270 -0.642085 -0.094976 127 0 127
0.325358 -0.713876 -0.145670 127 0 127
-0.538633 0.648858 -0.247401 0 127 127
0.208520 0.697077 0.465806 153 0 76
0.325734 0.466867 0.552894 153 0 76
0.399663 0.725973 -0.445411 0 127 127
0.009983 0.769852 0.202837 0 127 127
0.440579 -0.713876 -0.106807 127 0 127
-0.287143 0.769852 -0.207506 0 127 127
0.376261 -0.123744 0.549386 153 0 76
-0.287822 0.203606 0.465799 153 0 76
-0.419631 -0.084745 0.465783 153 0 76
0.486884 0.138762 -0.355946 0 127 127
0.508703 0.546113 0.416496 0 127 127
-0.366325 -0.387319 0.552200 153 0 76
-0.387108 -0.538351 0.383534 0 127 127
0.508703 0.354426 0.277686 0 127 127
0.379256 -0.713876 -0.384671 127 0 127
-0.068952 -0.505442 -0.270098 127 0 127
0.248561 0.725973 0.400479 0 127 127
0.035287 -0.537137 0.527208 153 0 76
-0.038596 0.769852 0.239236 0 127 127
0.508703 0.664942 -0.104857 0 127 127
-0.016822 -0.505442 0.263610 0 127 127
0.508703 0.041317 -0.131272 0 127 127
0.508703 -0.014923 -0.100952 0 127 127
0.233285 -0.713876 0.153027 127 0 127
0.187773 -0.713876 -0.065759 127 0 127
0.476816 -0.433191 0.540872 153 0 76
0.370816 0.769852 0.081565 0 127 127
-0.248632 0.602684 0.558743 153 0 76
-0.014965 0.735175 -0.063862 0 127 127
0.486884 0.160790 -0.458779 0 127 127
-0.146301 0.769852 -0.157409 0 127 127
-0.288274 0.725973 0.299027 0 127 127
0.508703 -0.268412 0.351622 0 127 127
0.506522 -0.484170 0.510908 153 0 76
-0.090514 0.204293 0.465808 153 0 76
0.323233 0.769852 -0.356883 0 127 127
-0.365176 0.769852 0.237859 0 127 127
-0.536451 0.085382 0.477727 153 0 76
-0.462825 0.286773 0.544812 153 0 76
-0.538633 -0.162949 -0.377627 0 127 127
0.437244 0.725973 -0.466180 0 127 127
-0.340481 -0.680667 -0.220358 127 0 127
-0.280069 -0.713876 -0.331676 127 0 127
-0.515003 -0.709915 -0.323631 127 0 127
-0.358585 0.769852 -0.048887 0 127 127
0.203795 -0.505442 0.071072 127 0 127
0.277239 0.769852 -0.297344 0 127 127
0.404528 0.769852 -0.273397 0 127 127
0.168126 0.509401 0.465807 153 0 76
-0.377589 0.124888 0.465792 153 0 76
0.486884 0.025669 -0.324637 0 127 127
-0.538633 0.465350 -0.032674 0 127 127
-0.338324 -0.680305 0.310167 127 0 127
-0.324486 -0.014365 -0.516069 0 127 127
0.508703 0.413112 0.244963 0 127 127
0.486884 0.626323 -0.244991 0 127 127
0.390626 -0.533023 0.548093 153 0 76
-0.508536 0.516127 -0.516069 0 127 127
0.299806 -0.538351 -0.084496 127 0 127
-0.207621 0.295994 -0.516069 0 127 127
0.426771 -0.535720 -0.156002 0 127 127
-0.390336 0.725973 -0.348884 0 127 127
0.179069 -0.527763 0.311683 0 127 127
-0.086961 -0.519213 0.011383 127 0 127
-0.254607 -0.666275 0.309034 127 0 127
0.486884 0.164983 -0.093607 0 127 127
-0.508329 -0.633677 0.337806 127 0 127
0.214881 -0.598628 0.337806 127 0 127
0.379017 -0.560085 0.308941 127 0 127
-0.538633 -0.481086 0.216778 0 127 127
-0.423336 0.769852 -0.433348 0 127 127
-0.388214 0.377278 0.465800 153 0 76
0.508703 -0.083681 -0.441736 0 127 127
0.155706 0.766738 0.488459 153 0 76
0.486884 -0.230020 0.436010 0 127 127
0.508703 0.371542 0.024226 0 127 127
0.486884 0.717206 0.096529 0 127 127
-0.388599 0.598068 -0.516069 0 127 127
0.486884 -0.023175 0.100547 0 127 127
-0.538633 0.258600 -0.018670 0 127 127
0.358914 -0.481374 0.550611 153 0 76
0.238071 -0.713876 -0.465372 127 0 127
0.473352 0.769852 -0.046105 0 127 127
-0.513853 -0.505442 -0.380088 0 127 127
0.255018 -0.487389 0.465800 153 0 76
-0.538084 0.228874 -0.516069 0 127 127
-0.538633 -0.040948 -0.314866 0 127 127
0.508703 -0.347466 0.081655 0 127 127
0.084572 -0.524726 0.248220 127 0 127
0.189063 -0.107385 -0.516069 0 127 127
-0.538633 0.636831 -0.277283 0 127 127
0.309092 0.769852 -0.203989 0 127 127
0.508703 -0.306673 0.433323 0 127 127
0.019757 -0.538351 -0.245198 127 0 127
-0.384539 -0.688051 0.267049 127 0 127
0.340408 0.536788 0.465806 153 0 76
-0.522013 -0.538351 -0.267916 0 127 127
-0.195140 -0.656309 -0.166614 127 0 127
-0.536451 0.559655 0.482893 153 0 76
0.288530 -0.575250 0.014274 127 0 127
0.508703 0.158351 -0.282045 0 127 127
-0.538633 -0.324883 -0.317510 0 127 127
0.129909 -0.526181 0.010383 127 0 127
-0.538633 -0.102697 -0.305068 0 127 127
0.094037 0.275872 0.562819 153 0 76
0.187267 -0.713876 0.262698 127 0 127
0.368884 -0.533864 0.383715 0 127 127
-0.280408 0.636753 0.579350 76 0 153
-0.538633 0.649132 0.081917 0 127 127
0.342071 0.484834 0.465807 153 0 76
-0.229761 -0.538351 -0.071368 127 0 127
-0.324989 -0.505442 0.396534 0 127 127
0.037422 0.725973 0.194241 0 127 127
0.508703 -0.208873 -0.290654 0 127 127
0.003445 0.016085 0.563922 153 0 76
0.139483 0.485888 -0.516069 0 127 127
0.051355 0.497956 0.563535 153 0 76
-0.222804 -0.455205 -0.516069 0 127 127
0.382014 0.291677 -0.516069 0 127 127
0.497064 -0.520796 0.105989 0 127 127
0.346590 -0.360418 0.465808 153 0 76
-0.362193 -0.151634 0.552488 153 0 76
0.074167 -0.611175 0.183162 127 0 127
-0.479617 0.015450 -0.516069 0 127 127
-0.528947 0.736641 0.538753 153 0 76
-0.002927 0.710790 0.563948 153 0 76
-0.118861 -0.538351 0.144806 127 0 127
0.508703 -0.150263 -0.220048 0 127 127
0.399538 0.214898 0.547551 153 0 76
0.508703 -0.394271 0.421406 0 127 127
-0.120851 -0.454797 -0.516069 0 127 127
0.504622 -0.713876 -0.338690 127 0 127
0.057795 -0.317974 -0.516069 0 127 127
-0.538633 -0.037570 -0.268833 0 127 127
-0.536451 0.646099 0.528987 153 0 76
-0.437999 -0.538351 -0.393668 0 127 127
0.508703 -0.342745 0.190582 0 127 127
0.508703 -0.137367 0.379374 0 127 127
-0.138883 -0.299333 0.465789 153 0 76
-0.112500 0.725973 0.020851 0 127 127
-0.426990 0.083156 0.547746 153 0 76
-0.538633 0.388872 0.435272 0 127 127
-0.267903 -0.513422 -0.344649 0 127 127
-0.231264 -0.536208 0.557873 153 0 76
0.331082 -0.505442 0.442880 153 0 76
0.486884 -0.013027 0.198526 0 127 127
-0.415477 0.769852 0.445528 0 127 127
0.508703 0.739526 -0.491683 0 127 127
0.418330 -0.553496 -0.046320 0 127 127
-0.233720 0.769852 -0.240787 0 127 127
0.326220 -0.532491 0.081254 127 0 127
0.508703 0.570916 -0.065363 0 127 127
0.508703 0.357096 0.320740 0 127 127
0.486884 0.040448 0.439759 0 127 127
0.486884 -0.202103 -0.404784 0 127 127
-0.085422 0.725973 0.215790 0 127 127
0.157766 0.058709 -0.516069 0 127 127
-0.439260 0.210018 0.465792 153 0 76
-0.073427 0.769852 0.323974 0 127 127
0.486884 -0.005414 -0.017027 0 127 127
0.482147 0.725973 0.173413 0 127 127
-0.100494 0.499628 0.563296 153 0 76
-0.538633 -0.066457 -0.512324 0 127 127
0.375773 0.603645 -0.516069 0 127 127
0.047681 0.274309 -0.516069 0 127 127
-0.381711 -0.687577 -0.503510 127 0 127
0.508703 0.238987 0.227935 0 127 127
0.149047 0.725973 0.425072 0 127 127
-0.519891 0.585591 -0.516069 0 127 127
-0.538633 -0.290795 -0.044913 0 127 127
-0.228628 -0.538351 -0.321133 127 0 127
-0.536431 0.769852 0.383366 0 127 127
0.508703 0.479811 0.079358 0 127 127
-0.538633 -0.686333 -0.169037 127 0 127
0.508703 -0.039493 -0.222298 0 127 127
-0.396320 -0.315744 0.550083 153 0 76
0.138018 -0.713876 -0.489788 127 0 127
0.486884 -0.455335 -0.293451 0 127 127
0.486884 0.470609 -0.409982 0 127 127
0.154959 0.699374 -0.516069 0 127 127
-0.395848 -0.689946 -0.210000 127 0 127
0.264240 -0.538351 -0.484646 0 127 127
-0.085362 0.125435 0.563484 153 0 76
0.352868 0.259878 0.551038 153 0 76
-0.477683 -0.511149 0.543518 153 0 76
0.203736 -0.505442 -0.226975 127 0 127
0.486884 0.228980 -0.446510 0 127 127
0.508703 0.484610 0.036571 0 127 127
-0.416517 -0.538351 0.280141 127 0 127
0.258223 -0.580329 -0.031946 127 0 127
0.486884 0.414480 0.330707 0 127 127
-0.194318 0.769852 -0.051685 0 127 127
-0.232391 -0.325704 0.465783 153 0 76
-0.014965 0.762291 -0.516025 0 127 127
0.282800 -0.713876 -0.307751 127 0 127
0.508703 0.392409 0.445045 153 0 76
-0.289736 0.725973 -0.109220 0 127 127
0.486884 0.061404 -0.225908 0 127 127
-0.130045 -0.645399 0.078214 127 0 127
-0.538633 0.305393 -0.202285 0 127 127
-0.127406 0.725973 -0.033120 0 127 127
-0.053402 0.061792 -0.516069 0 127 127
-0.538633 -0.664905 -0.357900 127 0 127
-0.037244 0.271566 0.465806 153 0 76
0.486884 -0.297198 0.345895 0 127 127
-0.538633 0.122571 -0.047022 0 127 127
0.280253 -0.531013 0.043532 127 0 127
0.370622 -0.533914 -0.394968 0 127 127
0.130398 0.725973 0.068892 0 127 127
-0.334546 0.037801 0.554208 153 0 76
-0.250097 -0.513973 0.130752 127 0 127
0.508703 0.564468 -0.185847 0 127 127
0.062053 -0.538351 -0.401544 0 127 127
0.271588 0.018051 -0.516069 0 127 127
0.486884 0.381833 0.261831 0 127 127
0.486884 0.631016 0.066100 0 127 127
0.486884 -0.362759 -0.252376 0 127 127
-0.470750 0.725973 -0.209834 0 127 127
0.508703 0.332676 0.229351 0 127 127
-0.538633 0.051434 -0.211123 0 127 127
-0.067089 -0.505442 0.389665 0 127 127
-0.481145 -0.505442 0.272617 0 127 127
0.486884 0.653347 0.284335 0 127 127
0.506522 0.687410 0.513033 153 0 76
-0.414211 -0.505442 -0.182125 0 127 127
-0.204145 0.769852 0.433006 0 127 127
0.312563 -0.538351 -0.257182 127 0 127
0.442369 -0.538351 -0.072294 0 127 127
0.219752 0.769852 -0.027561 0 127 127
0.477248 -0.505442 -0.056887 0 127 127
-0.336814 0.725973 0.262005 0 127 127
-0.248696 -0.665284 0.069410 127 0 127
-0.350641 -0.538351 -0.067428 127 0 127
-0.506252 -0.538351 -0.098849 0 127 127
0.508703 0.690580 -0.194957 0 127 127
0.191707 -0.591477 -0.213387 127 0 127
0.424253 0.560943 0.465806 153 0 76
0.286928 0.407984 0.555289 153 0 76
-0.209911 -0.016647 -0.516069 0 127 127
0.480853 0.769852 0.064042 0 127 127
0.215124 0.769852 -0.241403 0 127 127
0.508703 -0.642213 0.144761 127 0 127
0.009112 0.680946 0.583291 76 0 153
-0.309038 -0.159204 0.555711 153 0 76
-0.487811 0.725973 0.271099 0 127 127
0.508703 -0.651884 -0.353564 127 0 127
0.115823 -0.713876 0.043345 127 0 127
-0.538633 0.402978 0.332122 0 127 127
-0.530305 -0.520811 0.538623 153 0 76
-0.538633 0.714134 -0.333097 0 127 127
-0.154608 0.725973 0.072212 0 127 127
0.148487 -0.015078 0.561413 153 0 76
0.373068 -0.505442 -0.244310 0 127 127
0.153923 -0.648221 -0.516069 127 0 127
-0.018301 0.698449 0.465806 153 0 76
-0.538633 -0.280895 0.323934 0 127 127
0.065155 0.750073 0.465789 153 0 76
0.508703 0.737887 -0.086897 0 127 127
-0.053123 0.695590 0.563841 76 0 153
0.458353 0.582699 -0.516069 0 127 127
-0.018274 -0.070668 0.563983 153 0 76
0.508703 -0.173853 0.322783 0 127 127
0.486884 0.697145 -0.489932 0 127 127
0.486884 0.527648 0.379888 0 127 127
-0.538633 -0.297344 0.160416 0 127 127
-0.536451 -0.047814 0.528984 153 0 76
0.319530 0.388261 -0.516069 0 127 127
0.000108 -0.538351 -0.169726 127 0 127
-0.130960 -0.505442 -0.359759 0 127 127
0.450108 -0.505442 -0.411809 0 127 127
0.501524 0.769852 0.370178 0 127 127
0.300273 -0.573282 -0.504713 127 0 127
-0.532096 0.041348 0.465796 153 0 76
-0.387966 0.725973 0.044041 0 127 127
0.508703 0.421184 -0.490379 0 127 127
-0.538633 -0.319895 -0.142170 0 127 127
-0.538633 0.200097 -0.325244 0 127 127
-0.538633 0.669599 0.361695 0 127 127
0.508703 -0.415485 0.004189 0 127 127
0.486884 0.299003 -0.185177 0 127 127
0.508703 -0.355580 -0.403225 0 127 127
0.508703 0.607199 0.080120 0 127 127
0.486884 -0.113621 -0.035714 0 127 127
0.312907 -0.505442 0.011555 0 127 127
0.508703 0.346513 0.052174 0 127 127
0.110229 0.636753 0.589011 76 0 153
0.508703 0.675299 0.049609 0 127 127
0.016090 -0.713876 -0.404214 127 0 127
0.414390 0.725973 -0.349564 0 127 127
0.046659 -0.713876 0.052700 127 0 127
-0.538633 -0.149696 0.208656 0 127 127
0.104824 0.725973 -0.020068 0 127 127
-0.235799 -0.514438 -0.025461 127 0 127
-0.287910 0.725973 -0.212886 0 127 127
-0.085911 0.048256 0.465803 153 0 76
0.508703 0.516230 -0.008544 0 127 127
0.508703 -0.482369 -0.096007 0 127 127
-0.315483 -0.538351 -0.445056 0 127 127
-0.115360 0.578785 -0.516069 0 127 127
0.259431 0.725973 0.252774 0 127 127
0.508703 0.556248 0.209287 0 127 127
-0.538633 -0.488077 0.357020 0 127 127
-0.041963 -0.505442 -0.094324 127 0 127
-0.116372 0.592782 0.562977 153 0 76
0.149113 -0.505442 -0.393650 0 127 127
-0.204798 -0.178154 0.560515 153 0 76
0.508703 -0.214846 -0.359560 0 127 127
-0.374305 -0.538351 -0.230583 0 127 127
0.486884 0.656521 0.090042 0 127 127
-0.538633 0.733585 0.396013 0 127 127
0.021273 -0.522700 -0.303773 127 0 127
-0.538633 -0.501141 -0.149428 0 127 127
0.198085 -0.590408 0.144761 127 0 127
0.508703 -0.470921 -0.190577 0 127 127
0.486884 -0.398847 0.263028 0 127 127
-0.233835 0.587981 -0.516069 0 127 127
-0.538633 -0.623057 0.214218 127 0 127
-0.120294 0.423593 -0.516069 0 127 127
0.066084 -0.524130 0.081323 127 0 127
-0.001880 0.636830 0.583321 76 0 153
0.337722 -0.713876 0.036470 127 0 127
0.086835 0.684717 0.582545 76 0 153
0.486884 -0.479968 0.015099 0 127 127
0.508703 0.656151 0.379237 0 127 127
-0.425783 0.392463 0.465799 153 0 76
-0.306415 0.648027 0.465807 153 0 76
0.486884 0.588695 0.347240 0 127 127
0.486884 0.261331 -0.206653 0 127 127
0.203820 -0.505442 0.309572 0 127 127
0.306228 -0.538351 0.231309 127 0 127
-0.538633 -0.081736 -0.446104 0 127 127
-0.077769 -0.538351 -0.354348 0 127 127
0.334650 -0.532762 0.140372 0 127 127
-0.303089 -0.505442 0.136560 127 0 127
-0.108766 -0.518512 0.303421 0 127 127
-0.284060 0.554364 0.557058 153 0 76
0.479619 -0.308014 0.465806 153 0 76
0.508703 -0.674635 0.268012 127 0 127
0.486884 0.070718 -0.367795 0 127 127
-0.165185 0.769852 0.151754 0 127 127
0.311551 -0.505442 0.168808 127 0 127
-0.519999 -0.207187 0.539607 153 0 76
0.256202 -0.530239 -0.043527 127 0 127
0.481388 0.725973 0.305551 0 127 127
-0.538633 0.302542 -0.054391 0 127 127
0.106220 -0.605804 0.266320 127 0 127
-0.013996 -0.505442 0.400040 153 0 76
-0.508941 0.725973 -0.443688 0 127 127
0.508703 0.388707 0.099814 0 127 127
-0.487509 0.725973 0.100920 0 127 127
0.371453 -0.505442 -0.019334 0 127 127
0.441813 -0.536204 0.096043 0 127 127
-0.034603 0.290448 -0.516069 0 127 127
0.353534 -0.082256 0.465806 153 0 76
-0.404909 -0.691464 -0.161245 127 0 127
-0.538633 0.263932 0.069503 0 127 127
0.486884 0.265013 0.465698 153 0 76
-0.151445 0.725973 0.282700 0 127 127
0.147634 -0.598863 0.296726 127 0 127
0.269508 0.725973 0.100617 0 127 127
0.486884 -0.298074 -0.190027 0 127 127
-0.460142 -0.476845 -0.516069 0 127 127
-0.188251 0.747864 -0.516069 0 127 127
0.269354 -0.691949 0.337806 127 0 127
0.508703 0.533378 -0.186755 0 127 127
0.050722 0.725973 0.351227 0 127 127
0.508703 -0.635946 -0.026493 127 0 127
0.486884 0.154217 0.404415 0 127 127
0.046019 0.650638 0.583054 76 0 153
0.100210 -0.029890 0.465808 153 0 76
-0.538633 0.535417 -0.371098 0 127 127
0.486884 -0.362959 -0.490992 0 127 127
0.508703 -0.311736 0.172354 0 127 127
0.136822 0.769852 -0.089187 0 127 127
-0.222251 -0.511118 -0.516069 0 127 127
-0.538633 -0.676974 -0.202153 127 0 127
0.508703 0.058570 -0.038171 0 127 127
-0.177331 -0.505442 -0.142232 127 0 127
0.486884 0.613786 -0.382461 0 127 127
-0.064534 -0.306601 0.465792 153 0 76
0.234694 0.769852 0.170143 0 127 127
-0.095148 -0.538351 0.453125 153 0 76
-0.538633 -0.347851 -0.495850 0 127 127
0.420897 0.725973 -0.204468 0 127 127
0.010413 -0.505442 -0.364835 0 127 127
-0.538633 -0.015392 -0.110169 0 127 127
-0.027592 -0.538351 -0.376403 0 127 127
0.508703 -0.483656 -0.251196 0 127 127
0.051570 0.769852 0.248614 0 127 127
0.508703 0.692169 0.423099 0 127 127
0.508703 0.410546 -0.279597 0 127 127
0.325644 0.667259 0.465806 153 0 76
-0.150883 0.769852 0.336541 0 127 127
0.506522 0.234297 0.503213 153 0 76
-0.159840 0.107106 -0.516069 0 127 127
-0.139971 0.243408 0.465807 153 0 76
-0.227962 0.260447 0.559650 153 0 76
0.486884 0.274802 -0.242976 0 127 127
0.232661 -0.538351 0.297013 127 0 127
-0.538633 -0.513117 -0.005282 0 127 127
0.413498 -0.032331 0.465806 153 0 76
0.508703 0.462438 0.464675 153 0 76
0.486884 0.398759 0.037593 0 127 127
0.356368 -0.043434 0.465806 153 0 76
-0.227613 0.645877 0.579898 76 0 153
-0.186857 -0.654921 -0.056834 127 0 127
-0.265172 -0.505442 -0.251840 127 0 127
0.483099 0.514774 0.540272 153 0 76
0.237246 -0.400346 -0.516069 0 127 127
0.469699 -0.651474 0.337806 127 0 127
-0.424964 0.754472 -0.516069 0 127 127
0.255378 -0.713876 0.001697 127 0 127
-0.479220 0.629981 0.543384 76 0 153
0.317031 0.725973 -0.094127 0 127 127
0.336691 0.725973 0.420288 0 127 127
0.506522 -0.207178 0.494402 153 0 76
-0.060493 0.769852 -0.204692 0 127 127
-0.440743 -0.538351 0.362914 0 127 127
-0.492331 0.572094 0.542242 153 0 76
0.225725 0.725973 0.212106 0 127 127
0.508703 -0.372856 -0.459202 0 127 127
-0.003390 0.769852 -0.278626 0 127 127
-0.109362 -0.641933 -0.331049 127 0 127
0.486884 -0.128372 0.083497 0 127 127
-0.069389 -0.635234 0.172996 127 0 127
0.436260 0.725973 -0.147324 0 127 127
0.038676 -0.028726 -0.516069 0 127 127
-0.493727 0.468125 0.465798 153 0 76
0.220587 -0.586636 -0.481227 127 0 127
0.411149 -0.505442 -0.458831 0 127 127
0.392115 -0.227818 0.548136 153 0 76
0.220723 0.769852 -0.381588 0 127 127
0.233287 -0.529509 -0.423959 0 127 127
0.447092 0.342939 -0.516069 0 127 127
0.486884 -0.171976 -0.317618 0 127 127
0.508703 0.629534 0.233011 0 127 127
-0.188618 0.199344 -0.516069 0 127 127
-0.127263 -0.538351 -0.215002 127 0 127
0.285191 -0.713876 0.181633 127 0 127
-0.538633 0.484728 -0.142179 0 127 127
-0.044607 -0.538351 -0.181040 127 0 127
0.508703 -0.473990 0.450652 153 0 76
0.486884 -0.378258 0.319208 0 127 127
-0.237358 0.240940 0.465802 153 0 76
0.442356 -0.538351 -0.479854 0 127 127
0.447638 0.769852 -0.248072 0 127 127
-0.538633 -0.260478 -0.467174 0 127 127
0.486884 0.454955 0.002585 0 127 127
-0.538633 -0.029607 0.165350 0 127 127
0.057383 0.590101 -0.516069 0 127 127
0.486884 0.302747 -0.449167 0 127 127
-0.362855 -0.708508 0.339073 127 0 127
-0.190996 -0.505442 0.163491 127 0 127
0.486884 -0.373847 0.382821 0 127 127
0.436217 -0.536022 -0.395968 0 127 127
0.350219 -0.538351 0.457726 153 0 76
-0.053265 -0.538351 -0.436392 0 127 127
-0.254300 -0.538351 0.341256 0 127 127
0.446925 0.624078 0.543586 153 0 76
-0.142197 0.769852 0.407757 0 127 127
-0.538633 0.178421 -0.157934 0 127 127
0.053451 -0.713876 0.178045 127 0 127
-0.260966 0.766719 0.554100 153 0 76
-0.412601 -0.211874 0.465779 153 0 76
0.508703 -0.503114 -0.500140 0 127 127
0.159696 -0.301801 -0.516069 0 127 127
-0.538633 -0.528465 0.052577 0 127 127
0.117348 0.769852 -0.404864 0 127 127
0.506522 0.426541 0.512472 153 0 76
0.499811 -0.008654 -0.516069 0 127 127
-0.538633 -0.584841 0.215340 127 0 127
-0.468600 0.219378 0.544309 153 0 76
0.508703 0.058795 -0.292459 0 127 127
0.057451 0.276781 0.465806 153 0 76
-0.285323 -0.505442 0.056886 127 0 127
-0.394424 0.138747 0.550217 153 0 76
0.505372 -0.022978 0.465799 153 0 76
-0.514345 -0.538351 -0.300173 0 127 127
0.219985 0.636753 0.585266 76 0 153
-0.282829 -0.505442 0.441065 153 0 76
-0.031242 -0.470890 0.563930 153 0 76
-0.477887 0.506431 -0.516069 0 127 127
-0.169462 -0.713876 -0.480454 127 0 127
-0.538633 0.766071 0.290656 0 127 127
0.508703 0.743055 -0.289671 0 127 127
0.486884 0.226443 -0.002859 0 127 127
0.239524 -0.166719 0.557794 153 0 76
0.486884 0.508271 0.033533 0 127 127
0.292096 0.479912 0.554987 153 0 76
0.322135 -0.505442 0.110633 0 127 127
-0.125046 -0.644562 -0.462256 127 0 127
0.367745 -0.505442 0.257652 0 127 127
-0.318949 -0.385787 0.555176 153 0 76
-0.307000 -0.470794 -0.516069 0 127 127
-0.249169 -0.538351 -0.386739 0 127 127
-0.538633 0.230550 0.102792 0 127 127
0.213652 -0.587799 -0.359756 127 0 127
0.361177 -0.533613 -0.047957 0 127 127
-0.538633 0.354924 0.022063 0 127 127
0.447721 0.725973 -0.088676 0 127 127
0.458618 -0.547765 0.339073 127 0 127
-0.538633 0.003089 0.458680 153 0 76
0.508703 0.000956 0.356517 0 127 127
-0.205047 -0.505442 -0.276720 127 0 127
-0.170146 -0.321125 0.561654 153 0 76
-0.516683 0.711993 0.465769 153 0 76
-0.538633 0.117060 -0.272165 0 127 127
0.010216 0.432705 -0.516069 0 127 127
0.508703 0.070599 0.299945 0 127 127
-0.484952 -0.538351 -0.448732 0 127 127
0.292551 -0.574576 -0.190033 127 0 127
0.045031 0.389916 0.465806 153 0 76
-0.501597 -0.707668 0.091097 127 0 127
-0.064002 0.725973 -0.251282 0 127 127
-0.086242 -0.713876 0.114832 127 0 127
0.292117 -0.335387 0.554985 153 0 76
-0.423305 0.045814 -0.516069 0 127 127
0.486884 0.078811 0.412895 0 127 127
0.460747 -0.713876 -0.329345 127 0 127
-0.193588 -0.713876 -0.149052 127 0 127
0.188374 -0.528062 0.248442 127 0 127
0.089440 -0.626400 0.337806 127 0 127
0.210749 -0.537137 0.484313 153 0 76
0.045453 0.769852 -0.352986 0 127 127
0.508703 0.111727 -0.489970 0 127 127
-0.356658 -0.510545 0.361695 0 127 127
-0.074239 -0.519626 -0.107566 127 0 127
-0.258216 0.725973 -0.206373 0 127 127
-0.538633 0.404986 -0.073973 0 127 127
-0.096212 -0.505442 -0.414997 0 127 127
-0.518921 -0.713876 0.035654 127 0 127
-0.538633 0.200704 -0.437885 0 127 127
-0.481889 0.622391 -0.516069 0 127 127
0.508703 0.742261 0.060119 0 127 127
0.508703 -0.118900 0.351382 0 127 127
0.063175 -0.505442 0.137270 127 0 127
0.486884 0.107409 0.044395 0 127 127
0.369359 -0.561704 -0.182721 127 0 127
-0.506403 -0.041014 -0.516069 0 127 127
0.486884 0.355489 0.227778 0 127 127
0.205781 0.725973 0.295121 0 127 127
0.432217 0.558549 0.544870 153 0 76
-0.423409 -0.682225 0.339073 127 0 127
0.072306 -0.505442 -0.338029 0 127 127
-0.538633 -0.284675 -0.336826 0 127 127
-0.285619 -0.438203 -0.516069 0 127 127
0.256775 -0.530259 0.156996 127 0 127
0.508703 0.425604 0.282442 0 127 127
-0.538633 -0.249539 -0.385605 0 127 127
0.486884 0.523671 0.219239 0 127 127
-0.060229 -0.713876 0.319273 127 0 127
0.508703 0.393265 -0.127701 0 127 127
0.408167 -0.471090 0.465807 153 0 76
0.464380 -0.430506 0.465807 153 0 76
0.114637 -0.538351 0.203761 127 0 127
0.486884 0.644676 -0.127217 0 127 127
0.271344 0.699564 -0.516069 0 127 127
-0.538633 -0.145070 0.011622 0 127 127
-0.538633 -0.145623 -0.152216 0 127 127
-0.352029 -0.200602 0.553120 153 0 76
-0.000462 0.725973 0.010523 0 127 127
0.508703 -0.431412 -0.144059 0 127 127
0.508703 -0.537290 0.313713 0 127 127
0.242213 -0.526335 0.557671 153 0 76
0.486884 0.032652 0.365124 0 127 127
-0.106179 0.736895 0.563189 153 0 76
-0.100267 0.399363 -0.516069 0 127 127
0.414347 0.043708 0.546384 153 0 76
0.425997 0.725973 0.069404 0 127 127
0.336537 -0.537137 0.482438 153 0 76
0.468307 -0.713876 -0.164339 127 0 127
0.486884 0.183492 -0.060911 0 127 127
0.486884 0.718135 0.020559 0 127 127
-0.404933 -0.376592 -0.516069 0 127 127
0.508703 0.610507 -0.406507 0 127 127
-0.400262 -0.509144 0.391911 0 127 127
-0.538633 -0.321976 -0.376610 0 127 127
-0.189079 -0.095774 -0.516069 0 127 127
-0.036726 -0.505442 -0.345977 0 127 127
-0.317536 0.725973 0.199846 0 127 127
-0.004609 -0.521862 -0.135062 127 0 127
0.508703 0.308984 -0.232827 0 127 127
-0.538633 -0.683867 0.097300 127 0 127
0.226928 -0.437111 0.465800 153 0 76
0.241177 0.769852 0.320909 0 127 127
0.172022 -0.527536 0.180702 127 0 127
0.432454 0.063990 -0.516069 0 127 127
0.120767 -0.713876 -0.012179 127 0 127
-0.538633 -0.113930 -0.082428 0 127 127
0.056836 0.725973 -0.044371 0 127 127
0.427162 -0.249405 0.465806 153 0 76
0.486884 -0.191250 0.290170 0 127 127
0.486884 0.458252 0.237063 0 127 127
0.163725 0.769852 -0.508014 0 127 127
0.508703 -0.038674 -0.179330 0 127 127
0.365104 -0.367442 0.550174 153 0 76
0.508703 0.204295 -0.363537 0 127 127
0.508703 0.651793 -0.074939 0 127 127
0.465757 -0.713876 -0.027558 127 0 127
-0.160228 0.342686 0.465807 153 0 76
0.137050 -0.533620 -0.516069 0 127 127
0.486884 -0.427352 -0.044494 0 127 127
0.301876 -0.505442 -0.418379 0 127 127
-0.305086 -0.674735 -0.019134 127 0 127
0.508703 0.435174 -0.082641 0 127 127
0.486884 0.016208 0.140419 0 127 127
-0.538633 -0.117972 0.055352 0 127 127
-0.538633 -0.521436 -0.335840 0 127 127
0.508703 0.294454 0.369198 0 127 127
0.271462 0.767204 0.526108 153 0 76
0.381322 -0.538351 -0.443654 0 127 127
-0.298235 0.486585 0.556294 153 0 76
-0.304212 0.088160 0.465794 153 0 76
0.392994 0.684155 -0.516069 0 127 127
0.508703 0.401852 -0.158327 0 127 127
-0.008507 -0.505442 -0.205885 127 0 127
0.211532 0.531877 0.559070 153 0 76
-0.499834 0.766738 0.474056 153 0 76
0.508703 0.197370 0.321683 0 127 127
0.486884 0.032801 -0.086788 0 127 127
0.265837 0.265121 0.556427 153 0 76
0.191682 -0.505442 -0.401957 0 127 127
-0.538633 0.161743 0.420119 0 127 127
-0.088181 0.267803 0.465807 153 0 76
0.508703 0.037865 0.221686 0 127 127
0.486884 0.153231 0.010792 0 127 127
0.029715 -0.713876 -0.100650 127 0 127
0.508703 0.083958 -0.063823 0 127 127
0.150703 0.267980 0.465806 153 0 76
0.252608 -0.255417 -0.516069 0 127 127
0.487122 -0.505801 0.359001 0 127 127
0.508703 0.698715 0.452082 153 0 76
-0.346128 0.725973 0.071147 0 127 127
0.195478 -0.244458 0.559745 153 0 76
0.079337 0.769852 0.333459 0 127 127
0.311111 0.769852 0.104607 0 127 127
-0.505979 -0.298409 0.540945 153 0 76
-0.388445 0.727051 -0.516069 0 127 127
0.345223 0.725973 -0.193596 0 127 127
0.486884 -0.141856 0.053010 0 127 127
0.486884 0.338903 0.123360 0 127 127
-0.204907 -0.713876 -0.269781 127 0 127
0.321702 -0.104565 0.553145 153 0 76
0.508703 0.456101 -0.359925 0 127 127
0.173021 0.312035 -0.516069 0 127 127
0.508703 -0.608826 0.107953 127 0 127
0.508703 -0.347997 0.119338 0 127 127
0.169627 -0.595177 -0.331222 127 0 127
0.508703 0.590587 0.161862 0 127 127
-0.116300 -0.570019 0.339073 127 0 127
0.508703 -0.462094 0.105998 0 127 127
-0.538633 -0.241134 0.445996 153 0 76
-0.538633 0.290923 0.029426 0 127 127
-0.537756 -0.573993 0.337806 127 0 127
0.047505 0.130675 0.465807 153 0 76
-0.080890 -0.713876 -0.029000 127 0 127
0.028290 0.769852 -0.112684 0 127 127
-0.126541 -0.007760 0.562766 153 0 76
0.103208 0.769852 0.131331 0 127 127
-0.538633 0.478788 0.162933 0 127 127
-0.422127 0.096316 0.465789 153 0 76
0.062666 -0.613103 -0.444881 127 0 127
0.486884 0.620365 -0.090139 0 127 127
-0.414547 0.034424 0.465787 153 0 76
0.019677 0.440302 0.465806 153 0 76
0.486884 -0.086079 0.226649 0 127 127
-0.460702 0.769852 0.413455 0 127 127
0.012796 -0.666196 -0.516069 127 0 127
0.282731 0.725973 -0.209166 0 127 127
0.508703 -0.213228 -0.009294 0 127 127
-0.330150 0.505316 -0.516069 0 127 127
-0.364220 -0.684645 -0.350802 127 0 127
-0.514547 -0.505501 -0.205428 0 127 127
-0.538633 0.376137 0.059987 0 127 127
0.085792 0.651925 0.465806 153 0 76
0.160848 0.769852 -0.369389 0 127 127
-0.538633 0.705687 0.083859 0 127 127
-0.099167 -0.538351 0.242399 127 0 127
0.193993 0.668306 0.602613 76 0 153
-0.003744 -0.505442 0.158215 127 0 127
0.508703 0.101197 -0.331899 0 127 127
0.382813 0.038837 0.465806 153 0 76
-0.538633 0.183122 -0.046362 0 127 127
-0.536451 -0.300028 0.528183 153 0 76
-0.119922 -0.505442 0.115641 127 0 127
-0.367817 -0.459596 0.465773 153 0 76
-0.467842 0.725973 0.195824 0 127 127
0.508703 -0.102852 -0.340558 0 127 127
-0.259080 -0.508994 0.558267 153 0 76
-0.059072 -0.713876 -0.319403 127 0 127
-0.154155 -0.713876 -0.404978 127 0 127
-0.253763 -0.477799 0.558509 153 0 76
0.151939 -0.598141 0.208231 127 0 127
-0.391116 -0.538351 0.049188 0 127 127
0.508703 -0.035650 -0.485332 0 127 127
-0.233519 -0.269147 0.465785 153 0 76
0.289459 -0.538351 -0.137654 127 0 127
0.486884 -0.248803 0.310101 0 127 127
-0.515830 -0.505442 0.370321 0 127 127
0.486884 0.262295 0.097682 0 127 127
-0.327522 -0.511513 -0.436837 0 127 127
0.056108 0.769852 0.432434 0 127 127
0.023905 0.127837 -0.516069 0 127 127
-0.213267 -0.659347 0.015318 127 0 127
0.508703 0.490879 -0.477700 0 127 127
0.508703 -0.229192 -0.395665 0 127 127
0.508703 0.759890 0.298623 0 127 127
-0.105676 -0.349263 -0.516069 0 127 127
0.508703 0.676995 -0.449361 0 127 127
-0.002350 -0.381748 0.563945 153 0 76
-0.066945 0.725973 -0.162266 0 127 127
-0.188084 -0.574830 0.339073 127 0 127
0.186289 -0.713876 0.018822 127 0 127
0.486884 0.103455 0.439915 0 127 127
0.389286 0.248815 -0.516069 0 127 127
0.245465 0.670324 0.578030 76 0 153
0.053627 0.553851 -0.516069 0 127 127
-0.353133 -0.336685 0.553051 153 0 76
-0.104653 -0.641144 0.133759 127 0 127
0.382800 -0.559451 -0.496738 0 127 127
0.223138 -0.505442 -0.448275 0 127 127
0.474900 -0.538351 0.116116 0 127 127
0.277418 -0.065671 -0.516069 0 127 127
0.508703 0.335207 0.189823 0 127 127
-0.153531 -0.713876 0.245196 127 0 127
-0.196078 -0.415287 0.465782 153 0 76
-0.107148 0.097032 0.465803 153 0 76
-0.022629 -0.505442 0.362233 0 127 127
0.344576 -0.505442 -0.360399 0 127 127
0.438627 0.725973 0.336741 0 127 127
0.111455 0.238679 -0.516069 0 127 127
-0.114309 -0.518339 -0.068205 127 0 127
0.339655 0.048867 0.465806 153 0 76
0.007616 0.343642 -0.516069 0 127 127
-0.134241 0.725973 -0.265025 0 127 127
0.316717 -0.505442 0.325825 0 127 127
-0.424114 0.725973 0.310540 0 127 127
0.003277 0.278362 0.465806 153 0 76
0.508703 0.456778 0.096948 0 127 127
-0.536451 0.310324 0.506543 153 0 76
0.508703 0.504691 -0.037403 0 127 127
-0.184237 -0.538351 0.099285 127 0 127
-0.538633 0.251883 0.176868 0 127 127
0.154832 0.725973 -0.078263 0 127 127
0.508703 -0.044211 0.126040 0 127 127
-0.120383 0.725973 -0.148761 0 127 127
0.052295 0.530538 0.465807 153 0 76
0.508703 -0.358275 0.446359 153 0 76
0.473217 0.280894 0.541215 153 0 76
-0.342421 -0.220513 -0.516069 0 127 127
-0.163402 -0.152506 -0.516069 0 127 127
-0.001287 -0.209872 -0.516069 0 127 127
-0.194052 -0.515771 0.238060 127 0 127
0.486884 0.254481 -0.382469 0 127 127
0.147101 -0.164773 0.561454 153 0 76
0.118090 0.769852 -0.168811 0 127 127
-0.538633 0.712375 0.306636 0 127 127
-0.402319 -0.347617 0.465775 153 0 76
0.011660 0.479050 0.563888 153 0 76
0.479835 0.522866 -0.516069 0 127 127
0.105882 0.330572 0.562573 153 0 76
-0.124597 -0.538351 -0.163883 127 0 127
0.486884 0.356858 0.191691 0 127 127
-0.101909 -0.263051 0.465791 153 0 76
0.409490 0.769852 -0.101838 0 127 127
-0.354922 0.769852 -0.496954 0 127 127
0.508703 -0.695649 0.093075 127 0 127
0.508703 -0.629898 0.286515 127 0 127
0.252063 0.725973 0.190296 0 127 127
0.480450 0.725973 -0.075039 0 127 127
0.154567 -0.597701 -0.437182 127 0 127
-0.171675 -0.516507 -0.281611 127 0 127
-0.538633 0.476473 0.426288 0 127 127
-0.381518 0.769852 0.142979 0 127 127
0.317074 0.725973 -0.486690 0 127 127
0.254186 0.463595 0.465807 153 0 76
0.508703 0.598317 0.306866 0 127 127
0.375006 0.446351 -0.516069 0 127 127
-0.177478 0.583794 -0.516069 0 127 127
0.115389 -0.195225 -0.516069 0 127 127
0.195973 -0.713876 -0.386997 127 0 127
0.062039 -0.613208 -0.054071 127 0 127
-0.466151 -0.538351 0.465101 153 0 76
-0.077047 0.091754 0.465804 153 0 76
-0.072305 -0.538351 -0.020411 127 0 127
0.344942 -0.713876 -0.323874 127 0 127
-0.071520 -0.002688 0.465802 153 0 76
0.508703 0.674339 -0.311326 0 127 127
-0.302448 -0.652321 0.337806 127 0 127
-0.157344 -0.382579 -0.516069 0 127 127
-0.209725 -0.658753 -0.361376 127 0 127
0.508703 0.210216 0.423775 0 127 127
-0.246208 -0.505442 0.168751 127 0 127
0.058902 -0.713876 0.335339 127 0 127
-0.171085 0.725973 0.425226 0 127 127
-0.422661 0.769852 -0.387625 0 127 127
-0.052733 -0.505442 -0.411952 0 127 127
-0.434639 -0.301278 0.547143 153 0 76
0.424661 -0.297758 -0.516069 0 127 127
-0.000199 0.077335 -0.516069 0 127 127
0.138994 0.725973 -0.385997 0 127 127
0.478423 0.360671 0.540718 153 0 76
0.095533 -0.538351 -0.374153 0 127 127
-0.261629 -0.713876 0.227490 127 0 127
0.486884 0.632573 -0.493803 0 127 127
0.200674 -0.505442 0.438320 153 0 76
0.506522 0.158685 0.507444 153 0 76
0.508703 0.129048 0.084817 0 127 127
0.391919 -0.713876 0.153016 127 0 127
0.508703 0.174064 0.078574 0 127 127
-0.454975 0.725973 0.055242 0 127 127
0.037825 -0.505442 -0.488428 0 127 127
0.494796 0.165780 0.465805 153 0 76
-0.538633 0.089790 -0.318591 0 127 127
0.130209 0.017602 -0.516069 0 127 127
0.053768 -0.538351 0.303465 127 0 127
-0.436113 0.725973 -0.083926 0 127 127
-0.538633 0.276040 0.405193 0 127 127
-0.280435 0.283004 0.557254 153 0 76
-0.478539 -0.506665 -0.382040 0 127 127
-0.225157 0.725973 0.025501 0 127 127
-0.452561 0.769852 0.306081 0 127 127
0.135162 -0.713876 -0.112307 127 0 127
0.486884 0.153045 -0.213873 0 127 127
0.011675 0.234163 0.465806 153 0 76
-0.538633 0.005174 -0.227921 0 127 127
-0.184277 -0.654488 0.119933 127 0 127
0.508703 -0.555750 0.199891 0 127 127
0.462605 0.251305 0.542220 153 0 76
0.197978 -0.713876 -0.142108 127 0 127
-0.275748 -0.331333 -0.516069 0 127 127
0.416979 -0.505442 0.049612 0 127 127
-0.194204 -0.538351 -0.486152 0 127 127
-0.449499 0.563106 0.545972 153 0 76
-0.538633 -0.036146 -0.014521 0 127 127
-0.176513 0.258001 0.465806 153 0 76
0.116331 -0.144604 0.562348 153 0 76
-0.375362 -0.109870 -0.516069 0 127 127
-0.336837 -0.505442 0.234392 127 0 127
0.508703 0.218588 0.042223 0 127 127
-0.538633 -0.134167 0.370313 0 127 127
-0.538633 0.627124 -0.515275 0 127 127
-0.402348 -0.496898 0.549658 153 0 76
0.070606 0.725973 -0.489818 0 127 127
-0.022086 -0.394564 -0.516069 0 127 127
0.143606 -0.510065 0.465769 153 0 76
0.141210 -0.505442 0.396299 0 127 127
0.219665 -0.496854 0.558699 153 0 76
0.069810 -0.611906 0.239314 127 0 127
0.486884 -0.381422 0.169453 0 127 127
-0.538633 -0.504720 -0.290124 0 127 127
0.508703 -0.682304 -0.123983 127 0 127
0.508703 0.107417 -0.012191 0 127 127
-0.534010 -0.347635 0.465804 153 0 76
0.486884 0.619529 0.175674 0 127 127
0.050537 -0.538351 -0.458661 0 127 127
-0.421159 0.769852 -0.154993 0 127 127
-0.062969 -0.538351 -0.327984 127 0 127
-0.538633 -0.108540 0.261896 0 127 127
0.508703 0.641450 -0.370149 0 127 127
-0.069086 0.022918 -0.516069 0 127 127
0.508703 0.507653 -0.331901 0 127 127
-0.538633 0.050966 -0.370626 0 127 127
-0.411438 -0.505442 -0.372867 0 127 127
0.027511 0.725973 -0.049981 0 127 127
-0.283638 -0.538351 -0.488758 0 127 127
0.449571 -0.438132 0.543359 153 0 76
0.508703 -0.166783 -0.464243 0 127 127
0.261230 0.399068 -0.516069 0 127 127
-0.538633 0.018560 0.241519 0 127 127
0.128763 -0.713876 -0.364702 127 0 127
0.462188 -0.168603 0.465806 153 0 76
-0.051090 0.725973 -0.217730 0 127 127
0.508703 -0.038467 -0.313427 0 127 127
-0.014965 0.728449 0.155233 0 127 127
-0.538633 0.634963 0.396404 0 127 127
0.159305 -0.337587 0.561095 153 0 76
-0.538633 0.647011 -0.411385 0 127 127
0.486884 0.512137 -0.188265 0 127 127
0.074334 0.016439 0.563229 153 0 76
0.069545 -0.505442 0.360435 0 127 127
0.241940 0.769852 -0.322980 0 127 127
0.508703 0.731317 0.459032 153 0 76
