ply
format ascii 1.0
element vertex 1260
property float x
property float y
property float z
property uchar red
property uchar green
property uchar blue
end_header
-0.066922 -0.246738 -0.269867 153 76 0
0.452813 -0.164507 -0.179094 153 0 76
-0.066806 0.309309 0.127200 76 0 153
-0.082639 0.234948 0.943560 153 0 76
-0.069237 0.389380 0.336463 76 0 153
-0.564548 -0.304356 -0.200017 0 127 127
-0.029966 0.379342 -0.308994 153 76 0
0.026392 0.384589 0.058497 76 0 153
0.118694 -0.426433 -0.258037 76 0 153
0.015341 0.299210 0.241222 76 0 153
-0.116451 -0.463534 -0.129816 76 0 153
-0.596221 -0.059619 -0.215643 0 255 0
-0.582714 -0.463412 -0.130258 127 0 127
0.051908 -0.452870 -0.074900 76 0 153
-0.092090 0.313160 -0.154025 153 76 0
0.033108 0.191465 0.845678 76 0 153
0.028757 -0.463534 -0.167293 76 0 153
-0.041350 0.388303 0.005402 76 0 153
0.492907 -0.463412 -0.178350 76 153 0
0.000702 0.278557 0.090884 76 0 153
-0.448288 -0.030136 -0.212747 0 255 0
-0.458092 -0.463412 -0.234342 127 0 127
0.081319 0.355957 -0.247803 153 76 0
-0.083115 0.250004 0.867276 153 0 76
-0.073263 0.514737 0.716116 76 0 153
0.078634 0.302321 -0.187217 153 76 0
0.034674 0.271419 0.933568 76 0 153
-0.507043 -0.190347 -0.258187 0 127 127
0.045378 0.456389 0.475946 76 0 153
-0.409535 -0.099398 -0.230129 0 255 0
0.484951 -0.463412 -0.257047 76 153 0
0.047382 0.527254 0.656792 76 0 153
0.476961 -0.106977 -0.318803 127 127 0
-0.041894 0.192322 0.964367 153 0 76
0.004277 0.395932 -0.020597 76 0 153
0.062019 0.322708 -0.095465 153 76 0
0.374917 -0.463412 -0.237547 76 153 0
-0.661835 -0.092308 -0.244527 0 255 0
0.114035 -0.463533 -0.194831 76 0 153
-0.079237 -0.183461 -0.179523 153 76 0
-0.611641 -0.109356 -0.207605 0 255 0
-0.030765 0.242711 0.815513 153 0 76
-0.018975 -0.112817 -0.147787 153 76 0
0.400196 -0.066831 -0.236137 127 127 0
-0.102249 -0.355467 -0.256686 153 76 0
0.504894 -0.078927 -0.060419 127 127 0
-0.504251 -0.298467 -0.282969 0 127 127
-0.045771 0.016477 -0.162031 153 76 0
0.346792 -0.426646 -0.209931 153 0 76
0.463885 -0.226639 -0.165192 153 0 76
0.589632 -0.422111 -0.197583 153 0 76
-0.067684 -0.429539 -0.085394 76 0 153
-0.459295 -0.463412 -0.193908 127 0 127
0.071160 0.291960 -0.248465 153 76 0
0.456355 -0.066815 -0.298876 127 127 0
0.021231 -0.463534 -0.310747 76 0 153
-0.090621 -0.325822 -0.160031 153 76 0
-0.620167 -0.462949 -0.275818 127 0 127
0.017111 0.262259 -0.118421 153 76 0
-0.507222 -0.370789 -0.306689 0 127 127
0.441727 -0.463412 -0.186297 76 153 0
-0.523332 -0.085298 -0.141218 0 255 0
0.040184 0.540705 0.543058 76 0 153
0.030869 -0.295535 -0.136442 153 76 0
-0.050223 -0.307187 -0.131072 153 76 0
-0.086827 0.398583 -0.250633 153 76 0
-0.589285 -0.376270 -0.194630 0 127 127
-0.082505 0.158397 -0.193200 153 76 0
-0.008247 0.578387 0.632760 76 0 153
0.058089 -0.160834 -0.229268 153 76 0
0.559946 -0.360976 -0.221456 153 0 76
-0.167145 -0.456581 -0.194545 76 0 153
-0.577204 -0.396704 -0.279037 0 127 127
-0.081743 -0.146417 -0.235085 153 76 0
0.021730 -0.427404 -0.079994 76 0 153
-0.030422 0.246948 -0.289071 153 76 0
-0.519427 -0.074222 -0.312719 0 255 0
-0.446167 -0.430470 -0.333604 0 127 127
-0.451052 -0.066942 -0.264724 0 255 0
-0.050150 0.350143 0.342927 76 0 153
0.024439 -0.074108 -0.267488 153 76 0
0.031471 -0.001122 -0.259498 153 76 0
-0.527578 -0.159716 -0.242516 0 127 127
0.057509 0.362799 -0.136493 153 76 0
0.007104 0.352625 0.810019 76 0 153
0.481476 -0.457079 -0.070195 76 153 0
0.614177 -0.086909 -0.249289 127 127 0
-0.024247 0.578002 0.569528 76 0 153
0.044580 0.357395 -0.001616 76 0 153
-0.047367 0.490304 -0.220617 153 76 0
0.001806 0.308425 0.277403 76 0 153
-0.020468 -0.208555 -0.291009 153 76 0
-0.580365 -0.088152 -0.237602 0 255 0
0.443812 -0.062509 -0.367319 127 127 0
-0.099272 0.330268 -0.268785 153 76 0
0.504774 -0.161514 -0.190562 153 0 76
0.584489 -0.463380 -0.157281 76 153 0
-0.067584 0.538382 0.629796 76 0 153
-0.405388 -0.463412 -0.260043 127 0 127
-0.064102 0.490008 0.568482 76 0 153
0.044908 0.419628 0.810688 76 0 153
-0.531949 -0.024914 -0.236599 0 255 0
-0.530006 -0.463412 -0.117106 127 0 127
-0.067143 0.319349 -0.048921 76 0 153
-0.468528 -0.377711 -0.304859 0 127 127
0.476156 -0.111691 -0.049308 127 127 0
-0.036924 0.300425 0.834328 76 0 153
0.075761 -0.330159 -0.181083 153 76 0
0.370527 -0.104430 -0.205379 127 127 0
0.020545 0.548522 -0.226544 153 76 0
-0.059891 0.552950 0.582306 76 0 153
0.511630 -0.291974 -0.160839 153 0 76
0.345710 -0.460734 -0.284431 76 153 0
0.005585 0.574632 0.596187 76 0 153
-0.066835 0.527325 0.508374 76 0 153
-0.036231 0.053519 -0.156702 153 76 0
-0.029233 0.379921 0.921025 76 0 153
0.033980 0.340367 -0.307821 153 76 0
-0.032031 0.274984 0.953190 76 0 153
0.036584 0.399375 -0.118656 153 76 0
-0.522382 -0.225675 -0.259226 0 127 127
0.469113 -0.308150 -0.146262 153 0 76
-0.093530 0.334808 -0.109216 153 76 0
-0.062627 0.316779 0.913867 76 0 153
0.000579 0.357577 0.930711 76 0 153
-0.461023 -0.323570 -0.152318 0 127 127
-0.020969 0.424342 0.904690 76 0 153
0.043105 0.528785 0.616956 76 0 153
-0.546382 -0.463412 -0.312683 127 0 127
0.026945 0.280933 0.851310 76 0 153
0.563272 -0.103628 -0.206799 127 127 0
0.310237 -0.053408 -0.203157 127 127 0
-0.009903 0.540588 0.474150 76 0 153
-0.021224 0.182268 -0.140958 153 76 0
-0.044792 -0.463534 -0.136011 76 0 153
-0.002415 0.001905 -0.277065 153 76 0
-0.600698 -0.463412 -0.225997 127 0 127
0.062402 -0.463534 -0.308644 76 0 153
0.538875 -0.431710 -0.103546 76 153 0
-0.474011 -0.090744 -0.321423 0 255 0
-0.065488 0.440984 0.475100 76 0 153
0.041302 0.226713 -0.161926 153 76 0
-0.074267 -0.380231 -0.296945 153 76 0
-0.013962 0.413275 0.235586 76 0 153
-0.055011 0.382426 -0.066293 76 0 153
0.058159 0.175565 -0.194732 153 76 0
0.458309 -0.105761 -0.141375 127 127 0
-0.058857 0.274750 -0.097179 153 76 0
-0.498226 -0.106046 -0.117888 0 255 0
-0.377474 -0.463412 -0.205768 127 0 127
0.038934 0.467106 0.524399 76 0 153
-0.488518 -0.062098 -0.388740 0 255 0
-0.048671 0.447012 0.735031 76 0 153
-0.027545 0.458735 0.664900 76 0 153
-0.047033 -0.167153 -0.280382 153 76 0
-0.064326 -0.097461 -0.257719 153 76 0
-0.010834 -0.463534 -0.112786 76 0 153
0.526605 -0.066047 -0.176684 127 127 0
-0.026111 -0.133090 -0.283959 153 76 0
-0.086435 -0.276868 -0.258227 153 76 0
0.034692 0.169298 0.945812 153 0 76
-0.039284 0.435351 0.292457 76 0 153
0.037094 0.554390 0.585724 76 0 153
0.357424 -0.056228 -0.211651 127 127 0
0.032124 0.540572 0.740006 76 0 153
-0.049824 0.497973 0.815884 76 0 153
-0.449469 -0.323835 -0.270860 0 127 127
-0.020193 0.517180 0.423501 76 0 153
0.035403 0.300680 0.168537 76 0 153
0.633305 -0.100939 -0.190093 127 127 0
0.489732 -0.389521 -0.118698 153 0 76
-0.516697 -0.287376 -0.151106 0 127 127
0.026029 -0.432584 -0.353125 76 0 153
0.048565 0.127760 -0.247673 153 76 0
0.046058 0.316467 0.869656 76 0 153
-0.029405 -0.387221 -0.114087 153 76 0
0.061419 -0.393801 -0.290072 76 0 153
-0.507450 -0.378548 -0.121496 0 127 127
-0.073876 0.369303 0.259456 76 0 153
-0.577663 -0.428185 -0.313677 127 0 127
-0.487164 -0.463412 -0.258154 127 0 127
-0.057107 0.309224 0.233054 76 0 153
-0.025316 0.546446 -0.180756 153 76 0
0.432764 -0.463412 -0.112450 76 153 0
0.540595 -0.340055 -0.256354 153 0 76
0.385352 -0.426433 -0.125141 153 0 76
-0.470709 -0.183755 -0.248386 0 127 127
0.107063 -0.463534 -0.236337 76 0 153
0.444172 -0.065086 -0.056282 127 127 0
0.510111 -0.363106 -0.134934 153 0 76
-0.023866 0.390157 0.441492 76 0 153
0.418642 -0.463412 -0.304603 76 153 0
-0.065763 0.186962 0.845350 153 0 76
-0.114681 0.343870 -0.213226 153 76 0
-0.532540 -0.083405 -0.276082 0 255 0
0.060808 -0.226886 -0.233596 153 76 0
-0.043557 -0.427233 -0.350933 76 0 153
-0.137197 -0.424254 -0.158335 76 0 153
-0.034311 -0.198176 -0.142246 153 76 0
-0.009446 0.215341 0.975096 153 0 76
0.066259 0.396965 -0.190118 153 76 0
0.033246 0.303691 0.094781 76 0 153
-0.378053 -0.421664 -0.212798 0 127 127
-0.066133 0.408742 0.286451 76 0 153
-0.401257 -0.433910 -0.306267 0 127 127
-0.458557 -0.138230 -0.243161 0 255 0
-0.029878 -0.034641 -0.276194 153 76 0
0.501407 -0.277826 -0.272406 153 0 76
0.406085 -0.109626 -0.198506 127 127 0
0.528992 -0.125345 -0.208286 127 127 0
0.031445 -0.181315 -0.275578 153 76 0
-0.073388 0.332505 0.191713 76 0 153
-0.003727 0.397597 -0.057613 76 0 153
0.010551 -0.323024 -0.123710 153 76 0
-0.073373 -0.066017 -0.193551 153 76 0
0.011251 0.568801 0.701193 76 0 153
-0.021065 0.414790 -0.126327 153 76 0
-0.572794 -0.379906 -0.157551 0 127 127
0.048046 0.249508 0.871085 76 0 153
-0.049604 0.283343 -0.293293 153 76 0
-0.455976 -0.432190 -0.090913 0 127 127
-0.047580 0.437559 0.883740 76 0 153
-0.008663 0.433161 0.267275 76 0 153
0.070833 0.330881 -0.272207 153 76 0
-0.072771 -0.463534 -0.319189 76 0 153
0.618355 -0.059865 -0.188894 127 127 0
0.495958 -0.074475 -0.321905 127 127 0
0.052706 0.109992 -0.198828 153 76 0
-0.453155 -0.116743 -0.172136 0 255 0
-0.654412 -0.093420 -0.183582 0 255 0
0.029482 0.136225 0.894952 153 0 76
-0.502291 -0.022957 -0.179712 0 255 0
-0.078243 0.176326 0.905228 76 0 153
-0.022241 0.424752 -0.268302 153 76 0
-0.073060 0.525950 0.557339 76 0 153
0.034836 0.373786 0.905049 76 0 153
0.501464 -0.068380 -0.372803 127 127 0
-0.006490 0.340940 0.342647 76 0 153
0.440277 -0.248046 -0.261597 153 0 76
-0.446426 -0.265481 -0.183037 0 127 127
0.433828 -0.245159 -0.174837 153 0 76
-0.038034 0.492788 0.388074 76 0 153
0.457288 -0.105557 -0.105424 127 127 0
-0.458244 -0.158431 -0.211935 0 127 127
0.427324 -0.140143 -0.202087 127 127 0
-0.084987 -0.222399 -0.240397 153 76 0
-0.021536 0.159897 0.958784 76 0 153
0.524533 -0.239513 -0.205255 153 0 76
-0.035595 -0.441697 -0.068669 76 0 153
0.109987 -0.462554 -0.126750 76 0 153
-0.062155 0.278611 -0.139020 153 76 0
0.459284 -0.431433 -0.085808 153 0 76
0.449017 -0.027964 -0.254879 127 127 0
0.054784 0.260243 -0.250099 153 76 0
-0.069947 0.269297 0.896102 76 0 153
-0.000305 0.173946 -0.288176 153 76 0
0.062272 -0.193202 -0.214787 153 76 0
-0.451821 -0.463412 -0.121148 127 0 127
0.002892 0.066986 -0.277229 153 76 0
-0.566876 -0.460940 -0.089432 127 0 127
-0.439896 -0.292934 -0.249717 0 127 127
-0.555150 -0.125233 -0.223633 0 255 0
-0.115192 -0.463038 -0.320584 76 0 153
0.496921 -0.073344 -0.103472 127 127 0
0.044689 -0.096142 -0.247624 153 76 0
-0.011768 0.236689 -0.139146 153 76 0
0.048544 -0.051965 -0.199711 153 76 0
0.487861 -0.101650 -0.386759 127 127 0
-0.579096 -0.344189 -0.226486 0 127 127
0.005459 -0.250753 -0.289815 153 76 0
-0.512087 -0.148300 -0.176298 0 127 127
0.050469 0.398655 -0.266725 153 76 0
-0.101428 0.296250 -0.187546 153 76 0
-0.062955 -0.024334 -0.254189 153 76 0
0.043777 0.367271 0.206920 76 0 153
0.425136 -0.390611 -0.128507 153 0 76
-0.141418 -0.416035 -0.228858 76 0 153
0.045363 0.389398 0.347030 76 0 153
-0.574489 -0.410769 -0.136675 0 127 127
0.045395 0.355328 -0.067852 76 0 153
0.505820 -0.023470 -0.230285 127 127 0
0.028122 0.204485 -0.279448 153 76 0
0.073268 -0.424669 -0.108355 76 0 153
-0.046269 0.364545 -0.347419 153 76 0
-0.381146 -0.055643 -0.207984 0 255 0
0.384741 -0.356371 -0.213787 153 0 76
-0.065266 0.454812 0.765100 76 0 153
0.007331 -0.390928 -0.113725 76 0 153
-0.033517 0.283939 0.065599 76 0 153
-0.080694 -0.463534 -0.113120 76 0 153
-0.048527 0.148854 0.895275 76 0 153
-0.026872 0.370966 0.404751 76 0 153
0.075855 -0.294997 -0.201987 153 76 0
0.031786 0.048306 -0.171415 153 76 0
-0.604369 -0.460828 -0.311990 127 0 127
-0.496717 -0.463412 -0.335618 127 0 127
-0.059821 0.488211 0.621185 76 0 153
0.021542 -0.378106 -0.310052 153 76 0
0.311405 -0.099965 -0.242981 127 127 0
-0.416298 -0.358881 -0.246977 0 127 127
0.010825 0.434640 0.893267 76 0 153
-0.041702 0.306819 0.942429 76 0 153
0.016572 0.298076 -0.305030 153 76 0
0.010117 0.137693 -0.282056 153 76 0
0.556139 -0.463412 -0.283387 76 153 0
-0.066372 0.460320 0.506971 76 0 153
-0.429538 -0.463412 -0.304074 127 0 127
-0.011209 0.395127 0.057859 76 0 153
0.012777 0.148094 0.925332 76 0 153
0.022793 0.443939 0.321238 76 0 153
0.380334 -0.381882 -0.244793 153 0 76
-0.474206 -0.077336 -0.112154 0 255 0
0.046011 0.290170 -0.133576 153 76 0
0.015899 0.283994 -0.026968 76 0 153
-0.447739 -0.228707 -0.206847 0 127 127
0.045199 -0.127604 -0.177790 153 76 0
0.070078 -0.433764 -0.333606 76 0 153
0.031641 0.373858 0.091129 76 0 153
-0.072106 0.473133 0.434891 76 0 153
-0.023039 0.491591 -0.181156 153 76 0
0.025026 0.371972 0.380927 76 0 153
0.465191 -0.155463 -0.254232 153 0 76
-0.008495 0.449917 0.556665 76 0 153
-0.036779 0.311092 0.286876 76 0 153
-0.159751 -0.459435 -0.268946 76 0 153
-0.546734 -0.425387 -0.328419 0 127 127
-0.007237 0.296420 -0.336432 153 76 0
-0.100843 -0.290943 -0.230410 153 76 0
0.420906 -0.227556 -0.212914 153 0 76
0.376742 -0.462435 -0.319068 76 153 0
0.411272 -0.406197 -0.304417 153 0 76
-0.058254 0.506556 0.454726 76 0 153
0.428744 -0.182036 -0.215248 153 0 76
-0.062989 0.314007 -0.300631 153 76 0
-0.470387 -0.185893 -0.182032 0 127 127
-0.005655 -0.463534 -0.333644 76 0 153
-0.044131 -0.050671 -0.159718 153 76 0
-0.510944 -0.114552 -0.368884 0 255 0
-0.550179 -0.287311 -0.257014 0 127 127
0.042261 0.421369 -0.235083 153 76 0
-0.059965 0.077094 -0.169838 153 76 0
0.015212 0.417680 0.761532 76 0 153
-0.039668 0.213913 -0.286573 153 76 0
-0.456291 -0.214327 -0.238936 0 127 127
0.032155 0.206682 0.947415 76 0 153
0.573579 -0.436934 -0.305597 76 153 0
-0.068165 0.154348 0.936718 153 0 76
0.087533 -0.376447 -0.213187 153 76 0
-0.017434 0.404918 0.765864 76 0 153
-0.465996 -0.070653 -0.060870 0 255 0
0.510730 -0.407218 -0.315572 153 0 76
0.032071 0.520823 0.481719 76 0 153
-0.004964 0.140101 0.861023 153 0 76
-0.105232 0.379669 -0.205348 153 76 0
-0.134266 -0.463534 -0.220796 76 0 153
-0.086573 0.223730 -0.235254 153 76 0
-0.006413 0.326146 0.940666 76 0 153
-0.067066 0.366029 0.056621 76 0 153
0.402149 -0.326452 -0.187986 153 0 76
0.012729 0.550715 -0.193272 153 76 0
0.032612 0.477887 0.664708 76 0 153
0.023014 0.288491 0.019300 76 0 153
0.016883 -0.147572 -0.280165 153 76 0
0.612939 -0.440994 -0.213181 76 153 0
0.034989 0.066711 -0.257909 153 76 0
0.568687 -0.395730 -0.242852 153 0 76
-0.050374 -0.267595 -0.143035 153 76 0
0.091405 -0.463534 -0.165344 76 0 153
0.497173 -0.021828 -0.193473 127 127 0
-0.068455 0.011508 -0.186136 153 76 0
-0.023232 0.205445 0.828389 76 0 153
0.040274 0.492770 0.461274 76 0 153
0.406711 -0.283344 -0.227206 153 0 76
-0.354040 -0.110978 -0.194367 0 255 0
0.537820 -0.391844 -0.289344 153 0 76
-0.074236 0.311279 -0.084356 153 76 0
-0.020349 0.332203 -0.386968 153 76 0
0.075948 -0.303179 -0.235390 153 76 0
0.047041 0.385665 0.865958 76 0 153
-0.036820 0.342981 -0.080790 153 76 0
-0.424363 -0.327600 -0.202223 0 127 127
-0.092937 -0.360779 -0.156979 153 76 0
0.430684 -0.437789 -0.347109 76 153 0
0.058712 -0.275715 -0.259595 153 76 0
-0.381222 -0.110514 -0.216141 0 255 0
-0.418663 -0.463412 -0.119899 127 0 127
-0.017650 0.380292 -0.341603 153 76 0
-0.025385 0.142514 0.924165 153 0 76
0.483020 -0.463412 -0.338401 76 153 0
0.538352 -0.288566 -0.217103 153 0 76
0.039130 0.488115 0.587056 76 0 153
0.063672 -0.260432 -0.196514 153 76 0
-0.556282 -0.349844 -0.154851 0 127 127
0.014973 -0.463534 -0.209523 76 0 153
0.411769 -0.318816 -0.255337 153 0 76
0.051375 0.166701 0.904124 76 0 153
-0.483449 -0.058627 -0.333253 0 255 0
-0.073568 0.413247 0.835390 76 0 153
-0.463699 -0.252898 -0.261166 0 127 127
-0.619992 -0.428856 -0.251582 0 127 127
0.512952 -0.209356 -0.193866 153 0 76
-0.067716 0.485474 0.692218 76 0 153
0.004093 0.508416 -0.255473 153 76 0
0.011565 0.370428 -0.358575 153 76 0
-0.057169 0.362624 0.821542 76 0 153
-0.009492 -0.065395 -0.278933 153 76 0
-0.125950 -0.463534 -0.164425 76 0 153
0.040230 0.352559 0.841910 76 0 153
-0.492671 -0.050251 -0.059065 0 255 0
-0.502767 -0.220680 -0.166678 0 127 127
0.341294 -0.463411 -0.222769 76 153 0
-0.037596 -0.094828 -0.276369 153 76 0
0.352464 -0.463412 -0.164678 76 153 0
0.047815 -0.463534 -0.269501 76 0 153
0.305640 -0.089733 -0.186529 127 127 0
-0.062944 -0.460668 -0.068815 76 0 153
-0.005707 0.307956 0.828667 76 0 153
-0.551170 -0.238179 -0.214870 0 127 127
-0.398335 -0.394489 -0.205263 0 127 127
0.008349 0.244397 0.828992 76 0 153
0.055666 0.255351 -0.180843 153 76 0
-0.549209 -0.125173 -0.187911 0 255 0
-0.492724 -0.433285 -0.347302 0 127 127
-0.079750 -0.253430 -0.175914 153 76 0
0.029772 0.294134 -0.065762 76 0 153
0.032305 0.371668 -0.299387 153 76 0
0.003670 0.524004 0.808732 76 0 153
0.503991 -0.185074 -0.243313 153 0 76
-0.097319 0.286535 -0.241194 153 76 0
-0.598259 -0.432168 -0.131408 0 127 127
-0.548814 -0.463412 -0.273825 127 0 127
0.061398 0.235298 -0.230578 153 76 0
0.045384 0.320707 0.028978 76 0 153
-0.079489 0.207996 0.912346 76 0 153
-0.009555 0.402237 -0.294702 153 76 0
-0.431676 -0.285226 -0.218771 0 127 127
-0.070943 0.457799 0.399541 76 0 153
-0.038190 -0.353638 -0.120526 153 76 0
-0.059868 0.424080 -0.243884 153 76 0
-0.393912 -0.427590 -0.143216 0 127 127
-0.017561 0.450021 0.700508 76 0 153
-0.074265 0.266358 -0.264661 153 76 0
-0.418175 -0.098648 -0.199150 0 255 0
-0.075969 0.378248 -0.090880 153 76 0
0.084296 0.366294 -0.215543 153 76 0
-0.478636 -0.108692 -0.054492 0 255 0
-0.050501 0.462119 0.539751 76 0 153
-0.420419 -0.391851 -0.277759 0 127 127
-0.014780 0.277183 0.126064 76 0 153
-0.027935 0.423301 0.492621 76 0 153
0.044401 0.430603 0.400972 76 0 153
0.010003 0.490129 -0.189635 153 76 0
0.080790 -0.355075 -0.243646 153 76 0
0.003257 0.172923 0.828076 153 0 76
0.043884 -0.318363 -0.290274 153 76 0
-0.539882 -0.189065 -0.203288 0 127 127
0.597287 -0.109401 -0.229776 127 127 0
-0.021244 0.277585 0.035959 76 0 153
-0.014077 -0.144800 -0.144417 153 76 0
-0.355673 -0.079611 -0.181212 0 255 0
0.061747 0.295987 -0.160664 153 76 0
-0.528410 -0.022197 -0.199698 0 255 0
0.485430 -0.060088 -0.143895 127 127 0
0.511728 -0.042207 -0.258895 127 127 0
-0.016951 0.459850 0.597313 76 0 153
0.009877 0.509178 0.417048 76 0 153
0.506307 -0.463412 -0.149536 76 153 0
-0.108174 -0.338519 -0.229992 153 76 0
0.005152 -0.463534 -0.239722 76 0 153
-0.462218 -0.463324 -0.091017 127 0 127
-0.076272 0.170651 -0.253617 153 76 0
0.460040 -0.220335 -0.262848 153 0 76
-0.054354 0.029451 -0.261703 153 76 0
-0.034217 0.213780 -0.141922 153 76 0
-0.076549 -0.171796 -0.253357 153 76 0
0.001582 0.467076 0.633812 76 0 153
0.065857 -0.349332 -0.157330 153 76 0
-0.475285 -0.107733 -0.351981 0 255 0
0.035880 0.133006 0.855445 153 0 76
0.044160 0.521325 0.513411 76 0 153
-0.029199 -0.399353 -0.323730 153 76 0
0.035191 0.299909 0.919969 76 0 153
0.047702 0.338968 -0.027051 76 0 153
-0.544394 -0.410860 -0.116061 0 127 127
-0.070842 0.511169 0.752615 76 0 153
0.029367 0.417718 -0.167710 153 76 0
-0.038938 0.285889 0.006587 76 0 153
-0.066435 0.394080 -0.131221 153 76 0
0.646379 -0.090757 -0.234622 127 127 0
-0.374255 -0.463382 -0.255453 127 0 127
-0.089728 -0.418762 -0.107328 76 0 153
0.013658 -0.463534 -0.135216 76 0 153
-0.073807 0.220988 0.859591 76 0 153
-0.011395 0.407871 0.467658 76 0 153
0.531008 -0.297507 -0.248325 153 0 76
0.004955 0.544833 0.763745 76 0 153
-0.062023 0.344715 0.308040 76 0 153
0.552591 -0.398321 -0.152139 153 0 76
0.042471 0.346960 0.287271 76 0 153
0.046435 0.431018 0.842001 76 0 153
-0.094125 -0.397841 -0.143958 153 76 0
-0.069505 0.414641 0.866361 76 0 153
-0.028337 0.397759 0.166398 76 0 153
-0.042840 -0.014542 -0.159851 153 76 0
0.603665 -0.439636 -0.262727 76 153 0
-0.037873 -0.322971 -0.306380 153 76 0
-0.027173 0.279009 -0.077411 76 0 153
-0.512194 -0.463412 -0.142687 127 0 127
-0.614852 -0.429932 -0.162638 0 127 127
-0.090260 0.342503 -0.141148 153 76 0
-0.492195 -0.315404 -0.145225 0 127 127
0.008277 0.172926 -0.144379 153 76 0
0.024540 -0.358609 -0.124135 153 76 0
0.439761 -0.184593 -0.244631 153 0 76
0.090483 -0.463534 -0.295317 76 0 153
0.598454 -0.434987 -0.170784 76 153 0
0.419999 -0.247399 -0.236695 153 0 76
-0.002445 -0.259133 -0.137452 153 76 0
0.366541 -0.075104 -0.238754 127 127 0
0.421212 -0.089383 -0.263092 127 127 0
-0.648776 -0.056109 -0.193135 0 255 0
0.054354 -0.130189 -0.231270 153 76 0
-0.074985 0.039906 -0.210527 153 76 0
0.454685 -0.373283 -0.306353 153 0 76
0.563234 -0.463412 -0.180521 76 153 0
-0.008724 0.286600 0.218464 76 0 153
-0.496668 -0.113185 -0.087884 0 255 0
-0.027749 0.530516 0.451056 76 0 153
0.449842 -0.019872 -0.197010 127 127 0
0.546541 -0.461598 -0.095521 76 153 0
0.040458 0.400060 0.271890 76 0 153
-0.007874 0.483599 0.859385 76 0 153
-0.015727 0.395129 0.120694 76 0 153
-0.057691 -0.463534 -0.288925 76 0 153
0.414513 -0.449601 -0.081246 76 153 0
-0.475171 -0.095989 -0.286959 0 255 0
0.421758 -0.463412 -0.218422 76 153 0
0.018834 0.227010 0.971681 153 0 76
0.066220 -0.404037 -0.133429 76 0 153
-0.518999 -0.400998 -0.316779 0 127 127
-0.013594 -0.463534 -0.290686 76 0 153
-0.589034 -0.079181 -0.193015 0 255 0
-0.079109 -0.463534 -0.197864 76 0 153
-0.067269 -0.134605 -0.170594 153 76 0
-0.378219 -0.426425 -0.178870 0 127 127
-0.499698 -0.117859 -0.152569 0 255 0
-0.046147 0.473987 0.597693 76 0 153
-0.488652 -0.267930 -0.276078 0 127 127
-0.408050 -0.069727 -0.197839 0 255 0
-0.024459 0.551113 0.753555 76 0 153
-0.058272 0.373071 -0.299041 153 76 0
-0.069401 0.436709 0.351073 76 0 153
-0.079188 0.101950 -0.227623 153 76 0
-0.526037 -0.085408 -0.047863 0 255 0
0.009429 0.311083 -0.370147 153 76 0
0.030437 0.397049 0.417831 76 0 153
0.051031 0.141254 -0.185029 153 76 0
-0.108391 -0.362613 -0.188037 153 76 0
0.044639 0.343929 0.177507 76 0 153
0.024561 0.381038 0.001576 76 0 153
0.038072 0.355220 0.318944 76 0 153
-0.068881 0.511246 0.645780 76 0 153
-0.090518 -0.405374 -0.302176 76 0 153
-0.066375 0.316192 0.020160 76 0 153
0.352518 -0.433448 -0.272920 76 153 0
0.366303 -0.456803 -0.115035 76 153 0
-0.067440 0.504852 0.487958 76 0 153
0.561833 -0.428523 -0.125934 153 0 76
0.528555 -0.463374 -0.333934 76 153 0
0.036461 0.451471 0.354541 76 0 153
-0.044363 0.549950 0.500646 76 0 153
-0.058969 0.372093 0.908987 76 0 153
0.511592 -0.108318 -0.267019 127 127 0
0.042901 0.503877 0.676364 76 0 153
0.017644 0.270872 -0.089396 153 76 0
-0.479423 -0.121928 -0.271941 0 255 0
-0.066795 0.466096 0.830066 76 0 153
0.439897 -0.463412 -0.326724 76 153 0
-0.019827 0.569511 0.716831 76 0 153
-0.592899 -0.450848 -0.104756 127 0 127
0.041418 0.354810 0.069849 76 0 153
-0.512257 -0.065404 -0.118469 0 255 0
0.501118 -0.213561 -0.252781 153 0 76
0.406970 -0.366461 -0.152011 153 0 76
0.033332 0.431517 0.461623 76 0 153
-0.531567 -0.075938 -0.358859 0 255 0
-0.063467 0.372157 0.017839 76 0 153
0.463140 -0.027661 -0.170579 127 127 0
0.005185 -0.334452 -0.309287 153 76 0
-0.063434 -0.373525 -0.128790 153 76 0
0.418147 -0.463412 -0.142844 76 153 0
0.046450 0.403240 0.314468 76 0 153
-0.023544 -0.317689 -0.122263 153 76 0
0.445999 -0.086036 -0.385786 127 127 0
0.455202 -0.097707 -0.298207 127 127 0
-0.046250 0.290349 0.146688 76 0 153
-0.055371 0.069039 -0.264216 153 76 0
0.024346 0.404310 0.896925 76 0 153
0.418653 -0.037054 -0.196733 127 127 0
0.046060 0.331182 0.896062 76 0 153
0.089379 -0.402793 -0.169116 76 0 153
-0.040211 0.555755 -0.209015 153 76 0
-0.067357 0.417205 -0.180799 153 76 0
0.027431 0.081025 -0.163635 153 76 0
0.029121 0.445246 0.498272 76 0 153
0.303483 -0.070077 -0.239274 127 127 0
0.017851 0.561136 0.530759 76 0 153
-0.063377 0.372295 0.116088 76 0 153
-0.676522 -0.095962 -0.211953 0 255 0
0.134627 -0.442141 -0.196186 76 0 153
-0.017679 -0.272699 -0.298246 153 76 0
0.047330 0.427042 0.368431 76 0 153
0.133351 -0.462727 -0.252999 76 0 153
0.577958 -0.463412 -0.258907 76 153 0
0.506826 -0.463412 -0.277104 76 153 0
-0.616352 -0.463412 -0.169082 127 0 127
0.009805 0.285230 0.165265 76 0 153
0.523649 -0.429317 -0.331931 153 0 76
0.467152 -0.437494 -0.352542 76 153 0
-0.050835 0.220934 0.953624 76 0 153
-0.552664 -0.449555 -0.350178 127 0 127
-0.538166 -0.359457 -0.293290 0 127 127
0.454428 -0.051005 -0.153401 127 127 0
0.446679 -0.370057 -0.127241 153 0 76
-0.018750 0.478576 0.358023 76 0 153
0.043685 0.018649 -0.241261 153 76 0
-0.386019 -0.416963 -0.240847 0 127 127
-0.082353 0.186866 -0.185362 153 76 0
0.006910 -0.096021 -0.152185 153 76 0
-0.320136 -0.068501 -0.208043 0 255 0
0.053032 0.156680 -0.244090 153 76 0
0.080129 0.329743 -0.176338 153 76 0
-0.417754 -0.384685 -0.160662 0 127 127
0.481231 -0.055829 -0.285654 127 127 0
0.513819 -0.178446 -0.212852 153 0 76
-0.524959 -0.346792 -0.136752 0 127 127
-0.073993 0.208091 -0.261407 153 76 0
-0.085118 -0.338335 -0.279185 153 76 0
0.593489 -0.463412 -0.210992 76 153 0
0.465956 -0.463412 -0.105664 76 153 0
0.050528 -0.252565 -0.171511 153 76 0
-0.073126 0.488641 0.772735 76 0 153
-0.542546 -0.093150 -0.162828 0 255 0
0.012125 -0.059096 -0.156281 153 76 0
0.039263 -0.027802 -0.250263 153 76 0
-0.040362 -0.085752 -0.155796 153 76 0
-0.110930 0.323566 -0.192468 153 76 0
0.043385 -0.158427 -0.260458 153 76 0
-0.027427 0.184811 -0.288820 153 76 0
-0.078499 -0.112211 -0.198322 153 76 0
0.048908 0.188056 0.870203 76 0 153
0.554949 -0.463412 -0.150699 76 153 0
-0.069710 -0.068064 -0.245751 153 76 0
0.458921 -0.111567 -0.344539 127 127 0
-0.058813 -0.189020 -0.155030 153 76 0
0.038693 0.320632 0.234815 76 0 153
-0.002754 -0.463534 -0.185950 76 0 153
-0.065705 0.388623 0.878759 76 0 153
0.024782 0.490563 0.400427 76 0 153
0.032100 0.162499 0.843807 153 0 76
-0.554388 -0.320467 -0.170341 0 127 127
0.058520 0.221578 0.934423 153 0 76
-0.072066 0.321989 0.048018 76 0 153
-0.082662 0.379021 -0.153357 153 76 0
-0.067374 0.539421 0.701556 76 0 153
0.430629 -0.131561 -0.250656 127 127 0
-0.068265 0.164078 -0.166748 153 76 0
-0.006334 0.034807 -0.276940 153 76 0
0.059019 -0.463534 -0.116472 76 0 153
-0.046473 -0.379920 -0.311095 153 76 0
-0.046634 -0.120056 -0.155226 153 76 0
-0.050762 0.157477 0.847735 76 0 153
-0.002639 0.402048 0.183029 76 0 153
-0.400905 -0.463411 -0.307777 127 0 127
-0.041406 0.284186 0.177183 76 0 153
-0.476989 -0.017729 -0.202579 0 255 0
0.045831 0.472555 0.751062 76 0 153
0.016488 0.452776 0.704585 76 0 153
-0.079978 0.253959 0.922040 153 0 76
-0.080552 0.334755 -0.291175 153 76 0
0.009441 0.492735 0.838289 76 0 153
-0.024889 0.405986 -0.084795 153 76 0
-0.069137 0.216247 -0.163568 153 76 0
-0.065078 0.389924 0.817226 76 0 153
-0.120812 -0.400333 -0.192389 153 76 0
-0.134749 -0.441376 -0.129123 76 0 153
0.048123 -0.021632 -0.200257 153 76 0
-0.064108 0.004241 -0.251800 153 76 0
-0.405526 -0.440450 -0.108805 127 0 127
-0.044728 -0.463534 -0.228067 76 0 153
-0.630156 -0.112155 -0.229286 0 255 0
0.049197 -0.080578 -0.198620 153 76 0
0.038698 0.313810 0.126000 76 0 153
0.112419 -0.435467 -0.288074 76 0 153
0.022261 0.377099 0.804655 76 0 153
-0.043531 0.288482 -0.055965 76 0 153
-0.456972 -0.071926 -0.160215 0 255 0
0.545861 -0.343459 -0.181056 153 0 76
0.630730 -0.064733 -0.242270 127 127 0
-0.556357 -0.095708 -0.251010 0 255 0
-0.479058 -0.371356 -0.125322 0 127 127
0.469259 -0.052575 -0.051104 127 127 0
-0.013635 0.573301 0.543496 76 0 153
0.017370 -0.463479 -0.076140 76 0 153
-0.052685 0.405233 0.785172 76 0 153
-0.369918 -0.439393 -0.270010 0 127 127
-0.136152 -0.433278 -0.289128 76 0 153
0.014697 0.454408 -0.215712 153 76 0
0.037079 -0.154167 -0.163279 153 76 0
-0.357847 -0.052657 -0.231361 0 255 0
0.024675 0.289814 0.070265 76 0 153
0.017993 0.247955 -0.142876 153 76 0
-0.046480 -0.412804 -0.093979 76 0 153
-0.003938 0.113124 -0.283149 153 76 0
-0.015093 0.277160 -0.033775 76 0 153
0.009387 0.411062 -0.133504 153 76 0
0.414302 -0.463412 -0.179479 76 153 0
-0.358614 -0.097078 -0.246599 0 255 0
-0.056440 0.381177 -0.023967 76 0 153
0.051772 -0.201753 -0.175588 153 76 0
0.032512 0.318528 -0.080561 153 76 0
0.027870 0.414532 0.787360 76 0 153
0.014570 -0.117382 -0.277966 153 76 0
-0.516413 -0.056373 -0.375004 0 255 0
-0.029617 0.552578 -0.242851 153 76 0
0.034495 -0.219502 -0.155666 153 76 0
-0.090327 0.267279 -0.199078 153 76 0
-0.509501 -0.134841 -0.264427 0 255 0
-0.502009 -0.463411 -0.083953 127 0 127
-0.016617 0.369597 0.799822 76 0 153
0.127596 -0.429525 -0.223347 76 0 153
-0.062973 0.398875 0.392227 76 0 153
0.008725 0.056823 -0.156052 153 76 0
-0.442787 -0.386894 -0.295957 0 127 127
-0.032218 0.462480 -0.197373 153 76 0
0.019603 0.143962 -0.151783 153 76 0
-0.478804 -0.260965 -0.159067 0 127 127
-0.437953 -0.322592 -0.173308 0 127 127
-0.075089 -0.020774 -0.203030 153 76 0
-0.609418 -0.416261 -0.193626 0 127 127
-0.084357 -0.420645 -0.328796 76 0 153
-0.073722 0.325944 0.879070 76 0 153
-0.055114 0.414394 0.441821 76 0 153
0.422697 -0.321769 -0.161389 153 0 76
-0.506467 -0.340373 -0.295366 0 127 127
-0.073951 0.341551 0.068184 76 0 153
0.067602 0.376337 -0.166541 153 76 0
-0.100070 -0.463534 -0.228503 76 0 153
-0.432239 -0.055890 -0.198665 0 255 0
0.330418 -0.080224 -0.249112 127 127 0
0.044880 0.461574 0.796408 76 0 153
-0.443234 -0.463412 -0.328314 127 0 127
-0.527897 -0.463412 -0.172911 127 0 127
0.364118 -0.082180 -0.189968 127 127 0
-0.110319 0.330954 -0.243275 153 76 0
-0.020276 0.144931 0.827638 153 0 76
-0.480992 -0.463412 -0.285250 127 0 127
0.443599 -0.463412 -0.273814 76 153 0
0.023128 0.525229 -0.241475 153 76 0
-0.652635 -0.066108 -0.245034 0 255 0
-0.082352 0.287759 -0.159578 153 76 0
0.407731 -0.463412 -0.246199 76 153 0
0.453274 -0.060645 -0.095420 127 127 0
-0.549063 -0.321560 -0.266545 0 127 127
-0.569017 -0.463412 -0.211042 127 0 127
0.576904 -0.060270 -0.226576 127 127 0
-0.436574 -0.088890 -0.248907 0 255 0
-0.038593 -0.293369 -0.300972 153 76 0
-0.094249 0.399051 -0.221849 153 76 0
-0.564344 -0.292289 -0.226228 0 127 127
-0.639242 -0.441565 -0.215893 127 0 127
0.549935 -0.098004 -0.232927 127 127 0
0.048103 0.217350 0.842575 153 0 76
-0.015155 -0.463534 -0.084219 76 0 153
0.477818 -0.317210 -0.285941 153 0 76
0.514985 -0.132663 -0.185628 127 127 0
0.344124 -0.437096 -0.165312 76 153 0
-0.597851 -0.394113 -0.215110 0 127 127
0.469184 -0.267147 -0.276194 153 0 76
-0.523362 -0.463412 -0.328493 127 0 127
-0.482806 -0.315748 -0.284206 0 127 127
-0.539067 -0.250154 -0.253891 0 127 127
0.034242 0.303504 0.196738 76 0 153
-0.388165 -0.463412 -0.231680 127 0 127
0.069382 -0.463534 -0.233218 76 0 153
0.356067 -0.463412 -0.199537 76 153 0
-0.446826 -0.406216 -0.121512 0 127 127
-0.325024 -0.103574 -0.227020 0 255 0
0.040593 0.266524 -0.272821 153 76 0
0.080638 0.319129 -0.249350 153 76 0
0.054984 0.413514 -0.212011 153 76 0
0.398082 -0.426537 -0.317372 153 0 76
-0.467542 -0.463412 -0.145050 127 0 127
-0.584380 -0.463412 -0.161451 127 0 127
-0.450430 -0.296694 -0.166209 0 127 127
0.435937 -0.305645 -0.274257 153 0 76
0.352769 -0.463409 -0.255970 76 153 0
0.590486 -0.441733 -0.137437 76 153 0
0.028445 0.340303 -0.344404 153 76 0
0.052367 0.195355 -0.176743 153 76 0
-0.067868 0.396858 0.363337 76 0 153
-0.018678 0.476364 -0.242892 153 76 0
-0.426911 -0.463412 -0.178783 127 0 127
0.479096 -0.463412 -0.147066 76 153 0
-0.011980 0.437347 -0.180923 153 76 0
0.480652 -0.157117 -0.176600 153 0 76
-0.049714 -0.225723 -0.282259 153 76 0
-0.043283 0.260771 -0.125559 153 76 0
0.450920 -0.091926 -0.041665 127 127 0
-0.073039 0.326526 0.105267 76 0 153
-0.067291 -0.463534 -0.263413 76 0 153
0.478681 -0.050600 -0.371857 127 127 0
-0.416454 -0.343067 -0.223203 0 127 127
-0.001284 0.301704 -0.080718 153 76 0
-0.048766 0.161868 0.954243 153 0 76
0.049597 -0.227183 -0.258375 153 76 0
0.088602 -0.392354 -0.235213 153 76 0
-0.073336 0.296794 0.897798 76 0 153
0.045842 0.047300 -0.194663 153 76 0
-0.075382 0.392391 -0.274480 153 76 0
0.498006 -0.266050 -0.160487 153 0 76
-0.021166 0.397814 0.024329 76 0 153
0.114442 -0.436921 -0.145536 76 0 153
-0.115978 -0.397127 -0.247651 153 76 0
-0.032534 -0.350135 -0.310952 153 76 0
-0.073456 -0.463210 -0.348027 76 0 153
0.500719 -0.110914 -0.157615 127 127 0
0.019952 -0.463380 -0.354323 76 0 153
0.514908 -0.041195 -0.175657 127 127 0
0.409185 -0.411795 -0.123425 153 0 76
0.444834 -0.284995 -0.154412 153 0 76
0.590720 -0.059120 -0.198814 127 127 0
-0.028638 0.424455 -0.163171 153 76 0
-0.027587 0.520605 0.813856 76 0 153
-0.003607 0.315682 0.304265 76 0 153
-0.074347 -0.310036 -0.145524 153 76 0
0.036514 0.302203 -0.033575 76 0 153
0.541716 -0.085159 -0.188105 127 127 0
-0.046963 0.456298 0.862694 76 0 153
-0.028231 0.142842 0.875214 153 0 76
0.458924 -0.059096 -0.327475 127 127 0
-0.029980 0.579729 0.648510 76 0 153
-0.607270 -0.463412 -0.252269 127 0 127
0.449618 -0.327626 -0.143579 153 0 76
-0.061670 0.255892 0.945344 76 0 153
-0.014746 0.441470 -0.246311 153 76 0
0.459444 -0.189823 -0.173211 153 0 76
-0.623438 -0.054824 -0.203447 0 255 0
-0.057445 0.564540 0.632223 76 0 153
0.495992 -0.463412 -0.232626 76 153 0
0.052019 0.135504 0.880466 153 0 76
-0.040393 0.403419 0.224933 76 0 153
-0.059072 0.466716 0.720156 76 0 153
0.546530 -0.065863 -0.232984 127 127 0
-0.067113 0.365998 -0.047373 76 0 153
0.011307 0.354176 -0.080559 153 76 0
0.047555 0.467604 0.444620 76 0 153
0.016969 0.148871 0.873529 76 0 153
-0.357134 -0.440951 -0.208351 127 0 127
0.475725 -0.058803 -0.110738 127 127 0
-0.453952 -0.348009 -0.144189 0 127 127
-0.560238 -0.272993 -0.206058 0 127 127
0.066529 0.339426 -0.115781 153 76 0
0.075305 -0.461060 -0.342644 76 0 153
0.093459 -0.398724 -0.195170 76 0 153
0.030901 0.136676 0.946563 153 0 76
0.531228 -0.263060 -0.219922 153 0 76
0.377582 -0.099465 -0.230566 127 127 0
0.057677 -0.317261 -0.153876 153 76 0
-0.073837 0.341423 -0.001090 76 0 153
-0.047605 0.155740 -0.279010 153 76 0
-0.482986 -0.019649 -0.238468 0 255 0
-0.014759 -0.429867 -0.356967 76 0 153
-0.368274 -0.444193 -0.153802 127 0 127
-0.543651 -0.036912 -0.183518 0 255 0
0.016460 0.476144 0.370886 76 0 153
-0.159631 -0.437684 -0.222570 76 0 153
-0.021498 0.394685 -0.012231 76 0 153
-0.073682 0.346610 0.169272 76 0 153
-0.030424 -0.463534 -0.343066 76 0 153
-0.550929 -0.436830 -0.089911 0 127 127
-0.039962 0.558382 0.731478 76 0 153
-0.020092 0.252495 0.837671 76 0 153
-0.066196 -0.315084 -0.292460 153 76 0
-0.527353 -0.168288 -0.186264 0 127 127
-0.120907 -0.461185 -0.103856 76 0 153
-0.029598 0.450656 0.311713 76 0 153
-0.054670 0.453026 0.336423 76 0 153
-0.072702 0.405709 0.315995 76 0 153
0.480796 -0.110123 -0.284344 127 127 0
0.003109 0.458958 0.580217 76 0 153
0.067369 -0.412800 -0.312639 76 0 153
0.011181 -0.005132 -0.157000 153 76 0
-0.531537 -0.089639 -0.073259 0 255 0
0.001072 0.366876 0.396492 76 0 153
-0.092585 0.224146 0.877744 153 0 76
0.628395 -0.049681 -0.215115 127 127 0
0.070478 0.378471 -0.255985 153 76 0
0.460034 -0.397344 -0.316318 153 0 76
0.421065 -0.462251 -0.346578 76 153 0
-0.050953 0.510112 -0.237493 153 76 0
0.414133 -0.353541 -0.279058 153 0 76
-0.477933 -0.209437 -0.173187 0 127 127
0.511066 -0.410410 -0.112965 153 0 76
0.403877 -0.299098 -0.206400 153 0 76
0.007064 0.418296 -0.274636 153 76 0
0.035632 0.444636 0.861655 76 0 153
-0.106057 -0.311928 -0.214530 153 76 0
0.016357 0.428596 0.273712 76 0 153
0.491144 -0.157818 -0.251219 153 0 76
-0.089129 0.236257 -0.212351 153 76 0
0.022748 0.520779 -0.187775 153 76 0
0.052687 0.253329 0.925997 76 0 153
-0.054594 0.533592 -0.205467 153 76 0
-0.397009 -0.064650 -0.230100 0 255 0
0.004618 0.578778 0.659710 76 0 153
0.025428 0.253232 0.852644 76 0 153
-0.073968 0.485229 0.504003 76 0 153
-0.072913 0.424036 0.403446 76 0 153
0.469203 -0.463412 -0.189350 76 153 0
-0.031625 0.392432 0.076299 76 0 153
0.043327 0.513860 0.715366 76 0 153
-0.019819 0.132806 0.955606 153 0 76
0.047737 0.349907 0.226497 76 0 153
0.041496 0.548217 0.642434 76 0 153
0.018707 -0.313056 -0.303004 153 76 0
-0.068994 0.366683 0.323661 76 0 153
0.029187 -0.114220 -0.162193 153 76 0
-0.081048 0.147318 0.889572 153 0 76
0.512763 -0.384757 -0.302546 153 0 76
-0.432480 -0.111706 -0.230027 0 255 0
-0.020352 0.322575 -0.080755 153 76 0
-0.080670 0.116640 -0.202211 153 76 0
-0.062436 0.344793 0.914392 76 0 153
-0.501955 -0.453186 -0.361278 127 0 127
0.328806 -0.114388 -0.230114 127 127 0
-0.082344 -0.298048 -0.273956 153 76 0
0.438316 -0.092910 -0.361932 127 127 0
0.024437 0.436697 0.746422 76 0 153
0.103342 -0.463534 -0.272435 76 0 153
0.588492 -0.107377 -0.201581 127 127 0
-0.573434 -0.062559 -0.227756 0 255 0
-0.068324 0.330460 0.248305 76 0 153
-0.138886 -0.463534 -0.195251 76 0 153
-0.154728 -0.438720 -0.175972 76 0 153
0.482615 -0.463412 -0.310592 76 153 0
0.442956 -0.085275 -0.148052 127 127 0
0.480414 -0.334196 -0.138175 153 0 76
-0.474006 -0.044974 -0.270544 0 255 0
-0.056596 0.381065 0.074906 76 0 153
0.341834 -0.105317 -0.192999 127 127 0
0.573988 -0.398584 -0.217706 153 0 76
0.510813 -0.130162 -0.253244 127 127 0
-0.010023 0.282485 0.183719 76 0 153
-0.093081 -0.463534 -0.253364 76 0 153
-0.479165 -0.129491 -0.163017 0 255 0
-0.433907 -0.463412 -0.256156 127 0 127
0.487790 -0.287543 -0.150503 153 0 76
0.463189 -0.116260 -0.074684 127 127 0
0.460638 -0.131406 -0.162707 127 127 0
-0.092646 -0.369180 -0.276295 153 76 0
0.484337 -0.103682 -0.113118 127 127 0
0.055155 0.117814 -0.224843 153 76 0
-0.058341 0.373643 0.159355 76 0 153
-0.519243 -0.062212 -0.282190 0 255 0
-0.555740 -0.463412 -0.118006 127 0 127
-0.072777 0.325331 0.154787 76 0 153
0.048619 0.021920 -0.212384 153 76 0
-0.493076 -0.086895 -0.396570 0 255 0
0.048980 -0.032626 -0.226948 153 76 0
-0.525757 -0.101520 -0.352415 0 255 0
-0.034066 0.078948 -0.153680 153 76 0
-0.004203 0.461000 0.328402 76 0 153
-0.030820 0.530059 -0.255156 153 76 0
0.061826 0.208865 -0.228224 153 76 0
0.501126 -0.069889 -0.347188 127 127 0
0.507558 -0.070192 -0.273644 127 127 0
-0.016334 0.429081 0.514740 76 0 153
0.045428 -0.463534 -0.209653 76 0 153
0.054912 0.215197 0.891190 76 0 153
-0.064357 0.310453 0.201087 76 0 153
-0.060222 0.481024 0.400620 76 0 153
-0.417162 -0.363259 -0.177754 0 127 127
0.012160 0.158067 0.959199 153 0 76
-0.464094 -0.402905 -0.314766 0 127 127
0.047293 0.330332 0.005371 76 0 153
-0.505471 -0.463412 -0.185174 127 0 127
0.523364 -0.337728 -0.275082 153 0 76
0.441171 -0.082261 -0.087560 127 127 0
-0.508255 -0.020891 -0.245245 0 255 0
-0.081021 0.243803 -0.250000 153 76 0
0.012461 0.389561 0.123825 76 0 153
-0.082017 -0.126383 -0.219293 153 76 0
-0.002245 0.104689 -0.148279 153 76 0
-0.000324 0.360304 -0.380277 153 76 0
-0.069934 -0.161376 -0.169772 153 76 0
-0.019410 0.581726 0.596410 76 0 153
0.037166 -0.380476 -0.127430 153 76 0
0.397116 -0.439700 -0.096987 76 153 0
-0.059826 0.555725 0.608454 76 0 153
-0.089194 -0.210526 -0.212493 153 76 0
0.023769 0.555686 0.721321 76 0 153
-0.533367 -0.068277 -0.157238 0 255 0
-0.084783 0.157772 -0.226137 153 76 0
0.597788 -0.068946 -0.241855 127 127 0
-0.060849 0.299436 0.104542 76 0 153
0.041225 0.186345 -0.267388 153 76 0
-0.441029 -0.043786 -0.233057 0 255 0
-0.029785 -0.168764 -0.143815 153 76 0
-0.067589 0.365850 0.211709 76 0 153
0.534764 -0.463412 -0.309323 76 153 0
-0.563611 -0.463412 -0.185980 127 0 127
0.031782 0.415504 -0.263425 153 76 0
-0.597035 -0.401100 -0.246773 0 127 127
0.045728 0.506976 0.604273 76 0 153
0.451445 -0.018288 -0.231575 127 127 0
0.368517 -0.463365 -0.295160 76 153 0
0.489997 -0.092513 -0.040370 127 127 0
-0.068111 0.244561 0.835196 153 0 76
-0.527803 -0.305458 -0.277132 0 127 127
0.043846 0.286211 0.869480 76 0 153
-0.085534 -0.171277 -0.200902 153 76 0
0.504313 -0.244664 -0.259596 153 0 76
-0.058551 0.395433 0.251008 76 0 153
-0.050744 -0.266959 -0.287348 153 76 0
-0.063250 0.266604 0.867504 76 0 153
-0.562056 -0.410324 -0.305177 0 127 127
-0.599888 -0.436075 -0.304689 127 0 127
-0.538816 -0.169261 -0.221339 0 127 127
-0.062298 0.546496 0.677835 76 0 153
0.039460 0.368251 0.148855 76 0 153
-0.029408 0.428521 0.746043 76 0 153
-0.455470 -0.137162 -0.191886 0 255 0
0.051386 0.073271 -0.215117 153 76 0
0.441690 -0.076784 -0.281081 127 127 0
-0.005149 0.406604 0.213036 76 0 153
0.099866 -0.440809 -0.119331 76 0 153
0.075861 0.288814 -0.213402 153 76 0
0.046319 0.454866 0.408487 76 0 153
0.038725 0.420937 0.423427 76 0 153
0.061801 0.242745 -0.201652 153 76 0
-0.047124 0.130723 -0.276724 153 76 0
-0.469896 -0.078931 -0.382433 0 255 0
-0.540441 -0.135975 -0.240846 0 255 0
-0.013140 0.223845 0.814417 153 0 76
0.019413 0.385207 -0.053921 76 0 153
-0.060952 0.134273 0.850105 153 0 76
-0.069656 0.366956 0.866868 76 0 153
0.038439 -0.204978 -0.271470 153 76 0
0.521567 -0.235467 -0.231844 153 0 76
0.051522 -0.088558 -0.224795 153 76 0
0.047644 -0.292592 -0.281192 153 76 0
-0.047694 0.389784 0.191560 76 0 153
-0.076854 0.174407 0.867930 153 0 76
0.410990 -0.063120 -0.183841 127 127 0
0.043779 0.319917 -0.297391 153 76 0
-0.470798 -0.422595 -0.332122 0 127 127
0.012947 0.228515 -0.286702 153 76 0
-0.495778 -0.244802 -0.270164 0 127 127
-0.037221 0.357117 0.363048 76 0 153
0.012727 0.451743 0.874272 76 0 153
-0.579680 -0.358973 -0.247580 0 127 127
-0.487938 -0.050141 -0.356191 0 255 0
-0.071759 0.074851 -0.243375 153 76 0
-0.619562 -0.463412 -0.209797 127 0 127
-0.024673 0.443066 0.539072 76 0 153
0.040061 0.093114 -0.255781 153 76 0
-0.041912 0.570169 0.684448 76 0 153
-0.514883 -0.098620 -0.311439 0 255 0
-0.053060 0.325311 -0.334447 153 76 0
0.012947 -0.409871 -0.095256 76 0 153
-0.016545 0.004987 -0.152941 153 76 0
-0.334502 -0.052542 -0.222941 0 255 0
0.042826 0.506577 0.769860 76 0 153
-0.538737 -0.292024 -0.161508 0 127 127
-0.346574 -0.074304 -0.248692 0 255 0
-0.574146 -0.332041 -0.205355 0 127 127
0.416158 -0.049561 -0.243892 127 127 0
0.045696 0.354269 0.126587 76 0 153
0.062680 -0.239428 -0.209919 153 76 0
0.003266 -0.286908 -0.301946 153 76 0
0.018060 0.392078 0.173828 76 0 153
-0.430755 -0.342638 -0.261377 0 127 127
0.074513 -0.375834 -0.264469 153 76 0
0.480442 -0.017282 -0.236388 127 127 0
0.087600 0.343385 -0.206935 153 76 0
-0.451810 -0.239908 -0.243470 0 127 127
0.048515 -0.274421 -0.157611 153 76 0
0.031033 0.479078 0.838152 76 0 153
0.031245 0.394551 0.224595 76 0 153
-0.067505 0.444759 0.790792 76 0 153
0.050104 -0.360928 -0.291583 153 76 0
0.071896 0.352535 -0.161705 153 76 0
-0.494497 -0.040859 -0.157067 0 255 0
-0.046451 0.325080 0.828860 76 0 153
-0.056915 0.295111 0.060470 76 0 153
0.493520 -0.055896 -0.065762 127 127 0
-0.034187 0.394990 -0.059958 76 0 153
0.036631 0.484955 0.557144 76 0 153
0.401122 -0.463405 -0.324322 76 153 0
-0.002138 -0.429740 -0.074548 76 0 153
-0.636441 -0.110993 -0.195857 0 255 0
-0.071862 0.026822 -0.235375 153 76 0
-0.483425 -0.463412 -0.233856 127 0 127
0.005291 0.329466 0.824200 76 0 153
0.517878 -0.463412 -0.109589 76 153 0
0.060404 0.308980 -0.115775 153 76 0
-0.071116 0.240650 -0.165483 153 76 0
0.031463 -0.005342 -0.170839 153 76 0
0.372191 -0.423070 -0.145583 153 0 76
0.057313 -0.433960 -0.089566 76 0 153
0.013900 0.312733 0.937638 76 0 153
-0.028102 0.471031 0.868014 76 0 153
-0.396008 -0.463404 -0.149748 127 0 127
-0.063676 0.132084 0.877739 153 0 76
0.023323 0.248191 0.949158 76 0 153
0.375362 -0.463412 -0.176287 76 153 0
0.445293 -0.463412 -0.211688 76 153 0
-0.447038 -0.269553 -0.250941 0 127 127
0.061948 -0.463534 -0.169095 76 0 153
-0.438296 -0.449454 -0.347773 127 0 127
-0.531763 -0.242305 -0.172553 0 127 127
0.034082 0.129889 -0.267248 153 76 0
0.036855 0.396233 0.808868 76 0 153
0.489096 -0.219914 -0.169688 153 0 76
-0.073563 0.121164 -0.249089 153 76 0
-0.002512 0.383034 -0.308054 153 76 0
0.024423 0.318254 0.282175 76 0 153
0.452446 -0.134012 -0.263077 127 127 0
-0.485697 -0.427427 -0.090085 0 127 127
-0.495817 -0.463412 -0.308556 127 0 127
-0.001236 0.394756 0.449380 76 0 153
0.081828 -0.463533 -0.125142 76 0 153
-0.054715 0.126944 -0.158976 153 76 0
-0.021120 -0.047538 -0.152326 153 76 0
-0.051308 0.135383 0.915376 153 0 76
0.034979 0.375327 0.036570 76 0 153
0.025717 0.361043 0.823229 76 0 153
-0.618719 -0.448930 -0.295644 127 0 127
-0.065564 0.437462 0.451037 76 0 153
-0.407198 -0.370486 -0.225799 0 127 127
0.047113 0.403761 0.835786 76 0 153
0.060275 0.173183 -0.218798 153 76 0
0.539519 -0.060104 -0.196329 127 127 0
0.430469 -0.271101 -0.168123 153 0 76
0.001490 0.396125 -0.081229 76 0 153
-0.056843 0.257765 -0.279142 153 76 0
-0.043123 0.407900 -0.133610 153 76 0
-0.160876 -0.461831 -0.171511 76 0 153
-0.079353 -0.207562 -0.177152 153 76 0
0.032654 0.555351 0.690992 76 0 153
-0.023700 0.514096 -0.172299 153 76 0
-0.009677 0.281183 0.068659 76 0 153
0.327942 -0.443860 -0.217795 76 153 0
0.047154 0.351918 0.262585 76 0 153
0.405704 -0.378599 -0.282944 153 0 76
0.550108 -0.440607 -0.332231 76 153 0
-0.566097 -0.057610 -0.198030 0 255 0
0.419077 -0.105486 -0.174898 127 127 0
-0.057904 0.307891 0.843725 76 0 153
-0.024807 0.019009 -0.276470 153 76 0
0.029907 0.226459 0.825986 153 0 76
0.037820 -0.463534 -0.135258 76 0 153
-0.020169 -0.463534 -0.240653 76 0 153
0.553555 -0.367088 -0.176707 153 0 76
0.088440 -0.463534 -0.202108 76 0 153
-0.069050 0.356008 0.278979 76 0 153
-0.037254 0.542206 0.771929 76 0 153
-0.428323 -0.400142 -0.139004 0 127 127
0.554385 -0.463412 -0.236985 76 153 0
0.561493 -0.443940 -0.102175 76 153 0
-0.511199 -0.061298 -0.044672 0 255 0
-0.107389 -0.439953 -0.101283 76 0 153
-0.463878 -0.163351 -0.237610 0 127 127
-0.111826 -0.360748 -0.218522 153 76 0
-0.040331 0.342236 -0.378081 153 76 0
0.440261 -0.355995 -0.296430 153 0 76
0.019014 -0.410049 -0.333382 76 0 153
-0.005092 -0.392194 -0.320007 153 76 0
0.336532 -0.053439 -0.200199 127 127 0
-0.008369 0.263740 -0.089758 153 76 0
0.032204 0.296706 0.039865 76 0 153
0.018837 0.343028 0.328648 76 0 153
0.047568 0.332681 0.077127 76 0 153
-0.028593 0.298129 -0.347172 153 76 0
0.045559 0.469908 0.497629 76 0 153
0.577264 -0.462464 -0.311027 76 153 0
-0.608290 -0.065746 -0.235412 0 255 0
0.528364 -0.319675 -0.259343 153 0 76
0.580585 -0.417803 -0.175604 153 0 76
0.530305 -0.339602 -0.160736 153 0 76
0.044151 -0.423364 -0.338266 76 0 153
-0.012516 -0.209839 -0.139025 153 76 0
-0.013045 0.037368 -0.153178 153 76 0
-0.024551 -0.462053 -0.366208 76 0 153
0.034009 0.502518 0.792971 76 0 153
-0.088853 -0.248227 -0.202068 153 76 0
0.435738 -0.173706 -0.193969 153 0 76
0.451142 -0.426857 -0.338345 153 0 76
-0.421003 -0.436033 -0.327086 0 127 127
-0.410188 -0.413936 -0.286149 0 127 127
0.376151 -0.417929 -0.282402 153 0 76
-0.535924 -0.463412 -0.223736 127 0 127
0.012567 0.275879 -0.292810 153 76 0
-0.035726 0.360871 0.811102 76 0 153
0.108801 -0.411460 -0.240146 76 0 153
-0.020733 0.401953 0.917734 76 0 153
-0.067212 0.443481 0.373822 76 0 153
-0.020290 0.182563 0.966765 153 0 76
0.382529 -0.463412 -0.131168 76 153 0
0.042484 0.189337 0.934123 76 0 153
0.048056 0.414938 -0.188375 153 76 0
0.027266 0.505217 0.442764 76 0 153
0.137503 -0.460539 -0.181410 76 0 153
-0.042087 0.517440 0.437327 76 0 153
0.483505 -0.293331 -0.281771 153 0 76
-0.634872 -0.448388 -0.165270 127 0 127
0.514453 -0.430053 -0.093544 76 153 0
-0.488801 -0.172570 -0.174815 0 127 127
-0.013312 0.238342 0.979220 153 0 76
-0.558594 -0.378135 -0.287616 0 127 127
-0.070778 0.390198 0.272483 76 0 153
-0.032909 0.398339 -0.295183 153 76 0
0.033575 0.241070 -0.275666 153 76 0
0.083461 -0.358404 -0.195395 153 76 0
-0.062630 0.531239 0.729308 76 0 153
-0.081294 -0.249727 -0.251323 153 76 0
-0.409380 -0.463412 -0.195641 127 0 127
-0.039639 -0.463534 -0.162821 76 0 153
-0.544790 -0.212507 -0.212255 0 127 127
0.031600 -0.047773 -0.260327 153 76 0
0.022746 0.570632 0.646085 76 0 153
-0.004480 0.271710 0.956648 76 0 153
0.390479 -0.346788 -0.234573 153 0 76
-0.105329 -0.463534 -0.150625 76 0 153
-0.000102 0.549894 0.493467 76 0 153
0.476026 -0.116901 -0.359844 127 127 0
-0.029262 0.218845 0.962849 76 0 153
0.047422 0.513413 0.635480 76 0 153
-0.523790 -0.107453 -0.276570 0 255 0
-0.026086 -0.269310 -0.134207 153 76 0
-0.045277 0.571359 0.582899 76 0 153
0.013625 0.429780 -0.180329 153 76 0
0.001445 0.282770 0.143438 76 0 153
0.648277 -0.100446 -0.213296 127 127 0
0.031403 0.401421 -0.141475 153 76 0
-0.101769 -0.343629 -0.175920 153 76 0
-0.585607 -0.463412 -0.261298 127 0 127
0.448458 -0.049585 -0.273252 127 127 0
0.024558 0.473724 0.630367 76 0 153
0.496472 -0.364799 -0.301524 153 0 76
0.305504 -0.111675 -0.221548 127 127 0
0.055714 -0.247794 -0.249105 153 76 0
-0.059094 0.302833 -0.065948 76 0 153
0.560919 -0.400415 -0.266903 153 0 76
-0.036128 -0.463534 -0.202861 76 0 153
-0.034999 0.494202 0.835672 76 0 153
0.478677 -0.060035 -0.315007 127 127 0
0.063491 0.277223 -0.183422 153 76 0
-0.405218 -0.402739 -0.263754 0 127 127
