-0.111619 -0.031080 0.254743 0.600000 0.000000 0.300000
-0.333185 -0.023520 -0.206713 1.000000 0.000000 0.000000
-0.543113 -0.037838 -0.014339 0.000000 1.000000 0.000000
0.847577 0.042811 -0.319753 0.300000 0.600000 0.000000
-0.814227 0.030270 -0.303788 0.300000 0.000000 0.600000
0.789418 0.062530 -0.084883 0.300000 0.600000 0.000000
-0.782263 0.062530 0.174239 0.300000 0.600000 0.000000
-0.459615 -0.043088 -0.277497 0.500000 0.000000 0.500000
-0.625414 0.042811 0.178146 0.300000 0.600000 0.000000
0.958812 0.050907 0.272298 0.300000 0.000000 0.600000
0.748325 0.042811 -0.121283 0.300000 0.600000 0.000000
-0.858843 0.042811 0.229615 0.300000 0.000000 0.600000
0.497147 0.041034 -0.277497 0.500000 0.000000 0.500000
-0.378097 0.062530 0.229815 0.300000 0.600000 0.000000
0.338533 0.062530 -0.121172 0.300000 0.600000 0.000000
0.054574 0.042811 -0.221770 0.300000 0.600000 0.000000
-0.584198 0.027527 -0.032081 0.000000 1.000000 0.000000
-0.238295 -0.022369 0.206492 1.000000 0.000000 0.000000
0.242084 0.042811 0.167117 0.300000 0.600000 0.000000
0.595490 0.062530 0.269018 0.300000 0.600000 0.000000
-0.857725 0.042811 -0.276044 0.300000 0.000000 0.600000
0.426268 0.006100 -0.089214 0.600000 0.000000 0.300000
-0.268303 0.062530 0.142951 0.300000 0.600000 0.000000
-0.824650 -0.032755 -0.163652 0.600000 0.000000 0.300000
0.368297 -0.052653 -0.014339 0.000000 1.000000 0.000000
0.029889 0.062530 -0.107958 0.300000 0.600000 0.000000
0.703799 0.019157 0.255871 0.600000 0.000000 0.300000
0.720596 -0.019083 0.069807 1.000000 0.000000 0.000000
0.751719 -0.022369 0.079002 1.000000 0.000000 0.000000
0.430816 0.042811 -0.153177 0.300000 0.600000 0.000000
-0.062289 0.062530 0.130757 0.300000 0.600000 0.000000
0.405316 0.042811 -0.091387 0.300000 0.600000 0.000000
-0.673669 0.042938 -0.021885 0.000000 1.000000 0.000000
0.937466 0.042811 -0.035944 0.300000 0.000000 0.600000
0.068027 -0.019083 0.014145 0.300000 0.000000 0.600000
0.067427 0.018711 -0.200656 0.300000 0.000000 0.600000
-0.113289 -0.003493 -0.278592 0.300000 0.000000 0.600000
0.894238 -0.431065 0.235354 0.300000 0.000000 0.600000
0.010391 -0.011147 -0.125798 0.300000 0.000000 0.600000
-0.781898 -0.095435 0.250550 0.600000 0.000000 0.300000
0.853499 0.062530 0.143241 0.300000 0.600000 0.000000
0.584402 0.042811 -0.249159 0.300000 0.600000 0.000000
0.951910 0.062530 0.109650 0.300000 0.000000 0.600000
0.870457 0.042811 -0.259565 0.600000 0.300000 0.000000
0.884787 0.062530 -0.155504 0.300000 0.000000 0.600000
0.503442 -0.040072 0.230676 0.500000 0.500000 0.000000
0.633342 -0.019083 0.219213 1.000000 0.000000 0.000000
0.899554 -0.276743 -0.286784 0.600000 0.300000 0.000000
-0.712912 0.006610 -0.135732 0.800000 0.200000 0.500000
-0.806710 -0.112789 0.189600 0.600000 0.000000 0.300000
0.658250 0.005617 -0.278592 0.300000 0.000000 0.600000
-0.839271 0.062530 -0.213268 0.300000 0.000000 0.600000
0.379702 -0.019083 0.212591 0.600000 0.300000 0.000000
0.904587 -0.016289 -0.006027 0.300000 0.600000 0.000000
0.368804 -0.019083 -0.103206 0.600000 0.000000 0.300000
0.443322 -0.053590 -0.024851 0.000000 1.000000 0.000000
0.444315 -0.019083 -0.103463 0.300000 0.600000 0.000000
0.537090 0.062530 0.045308 0.300000 0.600000 0.000000
-0.598468 0.062530 -0.172710 0.300000 0.600000 0.000000
-0.666948 0.062530 -0.242240 0.300000 0.600000 0.000000
0.623424 -0.008343 0.242726 0.300000 0.000000 0.600000
-0.471163 0.062530 -0.079785 0.300000 0.600000 0.000000
0.890239 -0.265839 -0.251451 0.600000 0.300000 0.000000
0.496024 0.042811 0.134911 0.300000 0.600000 0.000000
-0.524763 0.042811 -0.115644 0.300000 0.600000 0.000000
-0.464544 0.062530 -0.134413 0.300000 0.600000 0.000000
-0.051426 0.042811 0.241140 0.300000 0.600000 0.000000
0.161661 0.042811 -0.177837 0.300000 0.600000 0.000000
0.870557 0.062530 -0.193518 0.300000 0.600000 0.000000
0.867572 -0.438934 0.239162 0.300000 0.000000 0.600000
-0.464347 0.062530 -0.260970 0.300000 0.600000 0.000000
-0.690308 -0.004456 -0.193196 0.300000 0.000000 0.600000
0.642584 0.042811 0.064799 0.300000 0.600000 0.000000
-0.365299 -0.000871 0.122693 0.300000 0.600000 0.000000
0.617646 0.042811 0.102690 0.300000 0.600000 0.000000
0.833553 0.062530 0.292694 0.300000 0.600000 0.000000
0.687747 0.062530 0.250460 0.300000 0.600000 0.000000
0.887059 -0.010036 -0.113900 0.300000 0.600000 0.000000
-0.297129 -0.019083 0.152203 1.000000 0.000000 0.000000
-0.254541 0.020246 0.230676 0.500000 0.500000 0.000000
0.688752 0.024440 -0.014339 0.000000 1.000000 0.000000
-0.350222 0.062530 0.005954 0.300000 0.600000 0.000000
-0.770074 0.042811 -0.251539 0.300000 0.600000 0.000000
0.880321 -0.080009 -0.271306 0.600000 0.300000 0.000000
0.877451 -0.080009 0.251861 0.300000 0.000000 0.600000
-0.266266 -0.014014 -0.278592 0.300000 0.000000 0.600000
0.391292 0.062530 0.115170 0.300000 0.600000 0.000000
0.392786 0.017615 0.152143 0.300000 0.000000 0.600000
-0.314233 0.042811 -0.251402 0.300000 0.600000 0.000000
-0.712912 0.022416 -0.239264 0.300000 0.000000 0.600000
0.289851 0.042811 -0.231273 0.300000 0.600000 0.000000
0.471468 0.042811 -0.170489 0.300000 0.600000 0.000000
-0.168892 0.062530 -0.170937 0.300000 0.600000 0.000000
-0.570541 0.029215 0.230676 0.500000 0.500000 0.000000
-0.803738 -0.080009 -0.294143 0.300000 0.000000 0.600000
-0.350060 0.062530 -0.288574 0.300000 0.600000 0.000000
-0.791144 -0.068400 -0.242703 0.300000 0.000000 0.600000
-0.021971 0.062530 -0.156629 0.300000 0.600000 0.000000
-0.483683 0.022466 0.230676 0.500000 0.500000 0.000000
-0.782667 0.062530 -0.050994 0.300000 0.600000 0.000000
0.895985 -0.047017 0.198853 0.300000 0.000000 0.600000
0.537254 0.042811 -0.221388 0.300000 0.600000 0.000000
0.269562 0.042448 -0.032081 0.000000 1.000000 0.000000
0.068945 0.018711 0.094971 0.300000 0.000000 0.600000
-0.641022 0.010565 -0.014339 0.000000 1.000000 0.000000
0.715142 0.062530 -0.215276 0.300000 0.600000 0.000000
-0.316599 0.062530 0.280400 0.300000 0.600000 0.000000
-0.210493 0.040689 0.230676 0.500000 0.500000 0.000000
-0.127640 0.035639 0.230676 0.500000 0.500000 0.000000
0.553069 0.062530 -0.116944 0.300000 0.600000 0.000000
0.637876 0.042811 -0.335722 0.300000 0.600000 0.000000
0.034013 -0.029256 -0.032081 0.000000 1.000000 0.000000
0.014672 0.042811 -0.209926 0.300000 0.600000 0.000000
0.651117 0.062530 -0.158232 0.300000 0.600000 0.000000
-0.360317 0.002035 -0.038684 0.300000 0.000000 0.600000
0.897411 0.042811 -0.336813 0.300000 0.000000 0.600000
-0.014791 -0.022369 0.138569 1.000000 0.000000 0.000000
-0.801618 -0.432251 0.210580 0.600000 0.000000 0.300000
0.769042 -0.036063 -0.118541 0.000000 0.500000 0.500000
-0.350440 0.042811 0.088417 0.300000 0.600000 0.000000
-0.814938 -0.383398 -0.284664 0.300000 0.000000 0.600000
0.887059 0.020077 -0.209137 0.300000 0.600000 0.000000
-0.310582 -0.011027 -0.090233 0.300000 0.000000 0.600000
0.948110 0.062530 -0.290698 0.300000 0.000000 0.600000
0.618745 0.042811 -0.196817 0.300000 0.600000 0.000000
-0.365787 0.017615 -0.213322 0.300000 0.000000 0.600000
-0.083030 0.042811 -0.315875 0.300000 0.600000 0.000000
0.297306 0.062530 0.034371 0.300000 0.600000 0.000000
0.437917 -0.017913 -0.241046 0.300000 0.000000 0.600000
-0.359554 0.036037 -0.014339 0.000000 1.000000 0.000000
0.195657 0.042811 0.077205 0.300000 0.600000 0.000000
0.656144 0.042811 -0.179263 0.300000 0.600000 0.000000
0.426268 -0.041805 -0.139611 0.600000 0.000000 0.300000
0.113448 0.062530 -0.229702 0.300000 0.600000 0.000000
-0.598496 -0.005669 0.386232 0.000000 0.500000 0.500000
-0.824650 -0.004618 0.093102 0.600000 0.000000 0.300000
-0.042100 0.062530 -0.213616 0.300000 0.600000 0.000000
0.764169 0.062530 -0.236629 0.300000 0.600000 0.000000
-0.269412 -0.022369 0.082372 1.000000 0.000000 0.000000
-0.714639 0.042811 -0.226981 0.800000 0.200000 0.500000
-0.161555 0.042811 0.013950 0.300000 0.600000 0.000000
0.434371 0.042811 -0.316244 0.300000 0.600000 0.000000
0.784690 -0.023847 0.230676 0.500000 0.500000 0.000000
-0.703230 0.021009 -0.295024 0.000000 0.500000 0.500000
0.458487 0.042811 0.272752 0.300000 0.600000 0.000000
0.297532 0.062530 0.215192 0.300000 0.600000 0.000000
-0.643674 0.017615 0.368846 0.000000 0.500000 0.500000
-0.169627 -0.009474 -0.032081 0.000000 1.000000 0.000000
0.161989 -0.019083 0.132646 0.600000 0.300000 0.000000
-0.742766 0.042811 0.188739 0.300000 0.600000 0.000000
0.792849 -0.052028 0.118692 0.800000 0.200000 0.500000
-0.188972 -0.046870 0.248203 0.500000 0.500000 0.000000
-0.826918 -0.193799 0.232045 0.600000 0.000000 0.300000
0.634158 -0.012662 -0.302692 0.500000 0.500000 0.000000
0.791028 0.012138 -0.148232 0.300000 0.000000 0.600000
0.139665 -0.019083 -0.137167 0.600000 0.000000 0.300000
-0.795938 0.042811 0.294041 0.300000 0.600000 0.000000
0.583884 -0.005579 -0.302692 0.500000 0.500000 0.000000
0.206207 0.001810 -0.032081 0.000000 1.000000 0.000000
-0.794931 -0.433320 -0.287919 0.300000 0.000000 0.600000
0.066464 -0.019083 -0.241901 0.600000 0.000000 0.300000
-0.484967 0.040217 -0.014339 0.000000 1.000000 0.000000
-0.634343 0.062530 -0.096739 0.300000 0.600000 0.000000
-0.263428 0.042811 -0.049993 0.300000 0.600000 0.000000
0.071847 0.042811 0.083498 0.300000 0.600000 0.000000
0.768756 0.042811 0.267831 0.300000 0.600000 0.000000
-0.586650 0.042811 0.099833 0.300000 0.600000 0.000000
0.850816 -0.051461 0.248203 0.500000 0.500000 0.000000
0.730274 0.062530 0.154746 0.300000 0.600000 0.000000
-0.222858 -0.019083 -0.225611 0.500000 0.500000 0.000000
-0.527284 0.042811 -0.177980 0.300000 0.600000 0.000000
0.012260 -0.032199 -0.032081 0.000000 1.000000 0.000000
-0.382616 -0.022369 0.140632 0.600000 0.300000 0.000000
-0.797764 -0.044666 0.256967 0.600000 0.000000 0.300000
0.887059 -0.012871 0.103863 0.300000 0.600000 0.000000
-0.535227 0.062530 0.194120 0.300000 0.600000 0.000000
-0.605747 -0.019083 -0.067273 0.300000 0.000000 0.600000
0.687438 -0.022369 -0.190624 0.300000 0.600000 0.000000
0.346652 0.018711 0.238985 0.500000 0.500000 0.000000
0.464684 -0.019083 0.062847 1.000000 0.000000 0.000000
0.082977 0.062530 0.052894 0.300000 0.600000 0.000000
-0.775242 0.042811 0.079599 0.300000 0.600000 0.000000
0.728480 0.018739 -0.295024 0.500000 0.500000 0.000000
0.750155 0.062530 -0.257508 0.300000 0.600000 0.000000
-0.102172 -0.022369 -0.143542 0.500000 0.500000 0.000000
0.233776 0.062530 0.280754 0.300000 0.600000 0.000000
0.320283 0.002049 -0.289547 0.300000 0.000000 0.600000
-0.369336 -0.003166 0.292011 0.300000 0.600000 0.000000
0.589635 0.062530 -0.158893 0.300000 0.600000 0.000000
0.567276 -0.004502 -0.032081 0.000000 1.000000 0.000000
-0.139402 0.062530 0.278286 0.300000 0.600000 0.000000
0.410892 0.012138 0.086085 0.300000 0.000000 0.600000
0.448871 0.003308 0.148376 0.300000 0.000000 0.600000
0.435911 0.062530 -0.091445 0.300000 0.600000 0.000000
-0.325127 0.042811 -0.177993 0.300000 0.600000 0.000000
-0.193663 0.042811 0.256687 0.300000 0.600000 0.000000
0.285638 -0.004907 -0.047448 0.000000 1.000000 0.000000
0.727218 -0.019083 -0.194842 0.300000 0.600000 0.000000
-0.848540 0.042811 -0.077116 0.300000 0.000000 0.600000
-0.701405 0.062530 0.045071 0.300000 0.600000 0.000000
0.327751 0.013185 0.000627 0.300000 0.000000 0.600000
0.887059 0.026169 0.028025 0.300000 0.600000 0.000000
0.460412 0.012574 -0.047448 0.300000 0.000000 0.600000
-0.246081 0.062530 0.021897 0.300000 0.600000 0.000000
-0.494693 -0.039903 0.230676 0.500000 0.500000 0.000000
-0.041291 -0.019083 -0.115249 0.500000 0.500000 0.000000
0.037042 -0.053590 0.147111 0.300000 0.000000 0.600000
-0.452962 0.025474 -0.277497 0.500000 0.000000 0.500000
-0.682522 0.042811 -0.094852 0.300000 0.600000 0.000000
0.006039 0.042811 -0.004607 0.300000 0.600000 0.000000
0.413122 -0.051453 0.052315 0.600000 0.000000 0.300000
0.161090 0.040653 -0.014339 0.000000 1.000000 0.000000
0.363303 0.042811 -0.120846 0.300000 0.600000 0.000000
0.403321 0.042811 -0.120504 0.300000 0.600000 0.000000
-0.358381 -0.021337 0.165010 0.300000 0.600000 0.000000
-0.863837 0.062530 -0.276694 0.300000 0.000000 0.600000
0.589624 0.042811 0.243832 0.300000 0.600000 0.000000
0.558685 -0.022369 0.135305 1.000000 0.000000 0.000000
0.015686 0.042811 -0.093284 0.300000 0.600000 0.000000
-0.792579 0.062530 -0.331835 0.300000 0.600000 0.000000
0.948053 0.042811 -0.231430 0.300000 0.000000 0.600000
-0.333185 -0.029797 -0.044770 0.600000 0.300000 0.000000
0.706868 -0.040801 0.230676 0.500000 0.500000 0.000000
-0.820246 0.042811 0.180369 0.300000 0.000000 0.600000
-0.814779 -0.045859 0.217530 0.600000 0.000000 0.300000
-0.868927 0.062530 -0.197578 0.300000 0.000000 0.600000
-0.640261 0.062530 0.102080 0.300000 0.600000 0.000000
-0.494927 0.062530 0.198873 0.300000 0.600000 0.000000
0.814577 0.042811 -0.033816 0.300000 0.600000 0.000000
0.437504 0.042811 -0.056967 0.300000 0.600000 0.000000
-0.361685 0.062530 0.076552 0.300000 0.600000 0.000000
-0.709609 0.042811 0.213640 0.300000 0.600000 0.000000
0.630415 0.042811 -0.049103 0.300000 0.600000 0.000000
-0.826802 0.062530 0.270605 0.300000 0.000000 0.600000
0.046541 -0.039589 0.088310 0.300000 0.000000 0.600000
0.674628 -0.019083 0.151847 1.000000 0.000000 0.000000
0.789416 0.062530 -0.176900 0.300000 0.600000 0.000000
-0.712912 0.013084 -0.257885 0.800000 0.200000 0.500000
-0.500761 -0.019083 0.317197 0.600000 0.300000 0.000000
0.379848 -0.034345 -0.299459 0.300000 0.000000 0.600000
-0.310582 0.007876 -0.248410 0.300000 0.000000 0.600000
-0.348536 0.062530 0.121232 0.300000 0.600000 0.000000
-0.158038 0.042811 0.121950 0.300000 0.600000 0.000000
0.887059 -0.014846 0.049311 0.300000 0.600000 0.000000
0.426268 0.027757 0.152967 0.600000 0.000000 0.300000
0.396101 0.042811 -0.241652 0.300000 0.600000 0.000000
-0.259125 -0.053590 -0.016481 0.000000 1.000000 0.000000
-0.680541 0.042811 -0.276568 0.300000 0.600000 0.000000
-0.435930 0.042811 -0.340663 0.300000 0.600000 0.000000
0.837224 -0.001497 -0.277497 0.500000 0.000000 0.500000
0.387918 -0.047872 0.248203 0.500000 0.500000 0.000000
0.390117 -0.004228 0.157145 0.300000 0.000000 0.600000
-0.216761 -0.000406 -0.032081 0.000000 1.000000 0.000000
-0.622769 0.062530 0.193353 0.300000 0.600000 0.000000
0.789729 0.012138 -0.214286 0.300000 0.000000 0.600000
0.232298 0.042811 0.121027 0.300000 0.600000 0.000000
-0.722025 -0.037283 -0.277966 0.800000 0.200000 0.500000
-0.200613 0.042811 -0.263704 0.300000 0.600000 0.000000
-0.324016 0.042811 -0.132885 0.300000 0.600000 0.000000
-0.109051 0.020729 -0.295024 0.000000 0.000000 1.000000
0.887059 0.037664 0.183175 0.300000 0.600000 0.000000
-0.727298 -0.034459 0.248203 0.500000 0.500000 0.000000
0.569555 0.062530 0.075580 0.300000 0.600000 0.000000
0.602572 0.062530 -0.043804 0.300000 0.600000 0.000000
0.786297 0.062530 0.143105 0.300000 0.600000 0.000000
-0.449412 0.062530 0.095236 0.300000 0.600000 0.000000
0.779289 -0.053590 -0.292072 0.500000 0.000000 0.500000
-0.544376 -0.022369 -0.283231 0.300000 0.000000 0.600000
-0.126314 0.062530 -0.208220 0.300000 0.600000 0.000000
0.768215 -0.019083 0.119317 1.000000 0.000000 0.000000
0.941266 0.062530 -0.249896 0.300000 0.000000 0.600000
0.904587 0.003214 -0.172796 0.300000 0.600000 0.000000
-0.485106 0.042811 0.175797 0.300000 0.600000 0.000000
-0.304508 0.062530 -0.221770 0.300000 0.600000 0.000000
-0.204361 0.062530 -0.218973 0.300000 0.600000 0.000000
0.086883 -0.022369 0.217979 0.600000 0.300000 0.000000
0.780799 -0.015659 0.148762 0.300000 0.000000 0.600000
-0.651555 -0.009119 0.362132 0.000000 0.500000 0.500000
0.233513 0.042811 -0.196067 0.300000 0.600000 0.000000
-0.757481 0.042811 0.158788 0.300000 0.600000 0.000000
-0.130866 -0.019083 -0.150007 0.500000 0.500000 0.000000
0.578913 0.062530 0.118080 0.300000 0.600000 0.000000
0.720483 0.062530 0.118797 0.300000 0.600000 0.000000
0.364744 0.062530 -0.197211 0.300000 0.600000 0.000000
0.139365 0.062530 -0.185207 0.300000 0.600000 0.000000
0.109305 -0.003382 -0.032081 0.000000 1.000000 0.000000
-0.377635 -0.019083 -0.141877 0.300000 0.000000 0.600000
-0.309148 -0.049229 -0.277497 0.500000 0.000000 0.500000
0.958812 0.055939 0.050297 0.300000 0.000000 0.600000
0.378392 0.062530 -0.304095 0.300000 0.600000 0.000000
0.433267 0.025284 -0.090839 0.300000 0.000000 0.600000
-0.300331 0.062530 -0.200913 0.300000 0.600000 0.000000
-0.288393 0.034511 -0.014339 0.000000 1.000000 0.000000
-0.062811 0.042811 -0.327795 0.300000 0.600000 0.000000
-0.050039 -0.022369 -0.160489 0.500000 0.500000 0.000000
-0.788856 0.062530 0.041362 0.300000 0.600000 0.000000
0.805994 -0.025069 0.204520 0.800000 0.200000 0.500000
0.526916 0.062530 -0.012694 0.300000 0.600000 0.000000
0.266399 0.062530 0.189983 0.300000 0.600000 0.000000
-0.039608 0.042811 -0.227911 0.300000 0.600000 0.000000
-0.245172 0.001696 -0.008137 0.300000 0.000000 0.600000
0.803927 -0.014056 -0.295024 0.500000 0.000000 0.500000
-0.459895 0.042811 0.142192 0.300000 0.600000 0.000000
-0.794798 -0.233403 0.203086 0.600000 0.000000 0.300000
0.609450 0.062530 0.225831 0.300000 0.600000 0.000000
-0.645794 -0.019016 0.122224 0.300000 0.000000 0.600000
0.798837 0.011660 -0.032081 0.000000 1.000000 0.000000
-0.677617 0.042811 0.298186 0.300000 0.600000 0.000000
0.194568 0.062530 -0.339257 0.300000 0.600000 0.000000
0.753959 0.042811 0.126748 0.300000 0.600000 0.000000
0.413122 -0.034807 0.119412 0.600000 0.000000 0.300000
0.313685 0.042811 -0.345599 0.300000 0.600000 0.000000
-0.807122 -0.046543 -0.118801 0.600000 0.000000 0.300000
-0.097184 -0.036664 0.230676 0.500000 0.500000 0.000000
0.269404 0.062530 0.163042 0.300000 0.600000 0.000000
0.894890 0.062530 0.287321 0.300000 0.000000 0.600000
0.492014 -0.002834 0.231771 0.300000 0.000000 0.600000
-0.790396 -0.314382 -0.257075 0.300000 0.000000 0.600000
0.604977 -0.019083 -0.150312 0.300000 0.600000 0.000000
0.452427 -0.021773 0.237248 1.000000 0.000000 0.000000
0.784593 0.062530 -0.218439 0.300000 0.600000 0.000000
-0.267963 0.022776 -0.014339 0.000000 1.000000 0.000000
-0.501950 0.042811 -0.184438 0.300000 0.600000 0.000000
-0.398016 0.042811 -0.122552 0.300000 0.600000 0.000000
-0.828160 0.042811 -0.187760 0.300000 0.000000 0.600000
-0.603812 -0.019083 -0.170270 0.300000 0.000000 0.600000
0.069145 -0.012983 -0.149479 0.300000 0.000000 0.600000
0.066759 0.062530 -0.109262 0.300000 0.600000 0.000000
-0.782731 0.062530 -0.284176 0.300000 0.600000 0.000000
0.311437 0.042811 -0.243937 0.300000 0.600000 0.000000
-0.130478 0.062530 -0.290354 0.300000 0.600000 0.000000
-0.566608 0.043097 -0.346797 0.300000 0.600000 0.000000
-0.288443 -0.022369 -0.205034 0.500000 0.500000 0.000000
0.551847 0.009018 -0.038684 0.300000 0.000000 0.600000
-0.788443 -0.361079 0.215910 0.600000 0.000000 0.300000
0.847690 -0.035744 -0.032081 0.000000 1.000000 0.000000
-0.242905 0.062530 -0.320843 0.300000 0.600000 0.000000
-0.055635 0.014135 0.242726 0.300000 0.000000 0.600000
-0.381979 0.062530 -0.283524 0.300000 0.600000 0.000000
-0.015513 -0.019083 -0.218653 0.500000 0.500000 0.000000
-0.870189 0.062530 -0.021867 0.300000 0.000000 0.600000
0.887059 0.004900 0.117293 0.300000 0.600000 0.000000
0.583093 0.042811 0.044274 0.300000 0.600000 0.000000
0.593591 -0.013866 0.231771 0.300000 0.000000 0.600000
0.726665 -0.019083 0.196222 1.000000 0.000000 0.000000
-0.030366 0.062530 -0.089225 0.300000 0.600000 0.000000
0.147038 -0.022369 0.048809 0.600000 0.300000 0.000000
0.855626 0.062530 0.294234 0.300000 0.600000 0.000000
-0.588903 -0.022369 0.312394 0.600000 0.300000 0.000000
-0.583671 0.062530 -0.019706 0.300000 0.600000 0.000000
-0.442670 0.008444 -0.014339 0.000000 1.000000 0.000000
-0.133933 0.042811 -0.071102 0.300000 0.600000 0.000000
-0.701263 -0.016626 -0.179093 0.300000 0.000000 0.600000
0.904587 -0.033090 0.064589 0.300000 0.600000 0.000000
0.641780 0.062530 0.070419 0.300000 0.600000 0.000000
-0.591551 -0.052559 0.230676 0.500000 0.500000 0.000000
-0.592931 0.062530 -0.287748 0.300000 0.600000 0.000000
-0.700376 0.062530 -0.299705 0.300000 0.600000 0.000000
0.860105 -0.084434 -0.289718 0.600000 0.300000 0.000000
0.655737 0.062530 0.275985 0.300000 0.600000 0.000000
0.805994 -0.009720 0.101824 0.800000 0.200000 0.500000
-0.701263 -0.003611 0.140984 0.600000 0.000000 0.300000
0.782079 0.062530 0.253118 0.300000 0.600000 0.000000
-0.759924 -0.053227 0.248203 0.500000 0.500000 0.000000
0.677919 0.042811 -0.262442 0.300000 0.600000 0.000000
-0.531267 0.062530 0.112133 0.300000 0.600000 0.000000
-0.005363 0.007191 -0.038684 0.300000 0.000000 0.600000
-0.238350 0.028221 -0.295024 0.500000 0.000000 0.500000
0.468044 -0.027063 -0.014339 0.000000 1.000000 0.000000
-0.516215 0.042811 0.129959 0.300000 0.600000 0.000000
0.493873 0.062530 -0.329768 0.300000 0.600000 0.000000
-0.301597 0.062530 0.113669 0.300000 0.600000 0.000000
0.567873 0.018711 0.231890 0.500000 0.500000 0.000000
-0.364689 -0.028394 0.360133 0.300000 0.600000 0.000000
-0.032324 0.062530 -0.064512 0.300000 0.600000 0.000000
-0.439215 -0.047420 -0.014339 0.000000 1.000000 0.000000
0.515529 0.042811 0.008221 0.300000 0.600000 0.000000
-0.560230 0.042811 -0.117545 0.300000 0.600000 0.000000
-0.824650 0.005442 -0.139554 0.600000 0.000000 0.300000
0.755349 0.062530 0.241805 0.300000 0.600000 0.000000
0.185668 0.062530 -0.135363 0.300000 0.600000 0.000000
-0.530739 -0.029490 0.244701 0.500000 0.500000 0.000000
-0.427162 0.062530 -0.187929 0.300000 0.600000 0.000000
0.576953 -0.019083 -0.233339 0.300000 0.600000 0.000000
-0.712912 0.014838 0.104081 0.800000 0.200000 0.500000
-0.863344 0.062530 -0.049027 0.300000 0.000000 0.600000
0.448871 0.001770 -0.066163 0.300000 0.000000 0.600000
0.425933 0.062530 -0.010475 0.300000 0.600000 0.000000
0.318997 0.062530 -0.322376 0.300000 0.600000 0.000000
-0.503438 0.042811 0.024651 0.300000 0.600000 0.000000
-0.016041 0.042811 0.037380 0.300000 0.600000 0.000000
0.776033 -0.036063 -0.238700 0.000000 0.500000 0.500000
0.455336 0.042811 -0.271739 0.300000 0.600000 0.000000
0.448871 0.001174 0.126386 0.300000 0.000000 0.600000
0.052042 0.042811 0.027840 0.300000 0.600000 0.000000
0.925052 0.042811 0.207420 0.300000 0.000000 0.600000
0.079044 0.062530 -0.176263 0.300000 0.600000 0.000000
-0.807122 -0.008449 -0.189299 0.600000 0.000000 0.300000
0.513193 0.062530 0.116285 0.300000 0.600000 0.000000
-0.542636 0.062530 -0.155813 0.300000 0.600000 0.000000
-0.771156 0.042811 0.014804 0.300000 0.600000 0.000000
0.832720 -0.032942 -0.277497 0.500000 0.000000 0.500000
0.591438 0.042811 0.025482 0.300000 0.600000 0.000000
0.654187 0.062530 -0.269982 0.300000 0.600000 0.000000
-0.036071 0.062530 -0.338939 0.300000 0.600000 0.000000
-0.791397 0.062530 0.216014 0.300000 0.600000 0.000000
0.647588 0.042811 -0.118382 0.300000 0.600000 0.000000
0.034960 0.025736 -0.295024 0.500000 0.000000 0.500000
-0.418337 -0.019083 0.356357 0.600000 0.300000 0.000000
-0.137089 0.062530 0.066926 0.300000 0.600000 0.000000
-0.824650 0.010677 -0.100460 0.600000 0.000000 0.300000
0.354425 0.042811 0.225799 0.300000 0.600000 0.000000
-0.726057 0.034965 0.041852 0.800000 0.200000 0.500000
0.673538 -0.019083 -0.144272 0.300000 0.600000 0.000000
0.852075 0.042811 0.080731 0.300000 0.600000 0.000000
0.904850 -0.225387 0.218372 0.300000 0.000000 0.600000
0.250927 0.042811 -0.061887 0.300000 0.600000 0.000000
0.018612 -0.046821 0.248203 0.500000 0.500000 0.000000
-0.048425 0.042811 0.005182 0.300000 0.600000 0.000000
-0.184834 0.062530 0.182560 0.300000 0.600000 0.000000
0.639384 -0.019083 0.023973 1.000000 0.000000 0.000000
0.788041 0.025284 -0.189322 0.300000 0.000000 0.600000
-0.819720 -0.249390 -0.257628 0.300000 0.000000 0.600000
-0.013406 0.042811 0.162478 0.300000 0.600000 0.000000
0.476633 -0.022369 -0.238758 0.300000 0.600000 0.000000
-0.234185 -0.019083 0.112670 1.000000 0.000000 0.000000
0.416937 0.006962 -0.014339 0.000000 1.000000 0.000000
0.040342 0.006380 -0.014339 0.000000 1.000000 0.000000
0.116363 -0.022369 -0.274120 0.600000 0.000000 0.300000
0.167421 -0.019083 0.170580 0.600000 0.300000 0.000000
-0.057880 0.021146 -0.014339 0.000000 1.000000 0.000000
0.499927 -0.019083 -0.259511 0.300000 0.600000 0.000000
-0.375974 0.003153 -0.302692 0.000000 0.500000 0.500000
0.010926 0.025284 -0.068799 0.300000 0.000000 0.600000
0.490314 0.012558 -0.289547 0.500000 0.500000 0.000000
-0.428589 0.062530 -0.105257 0.300000 0.600000 0.000000
0.688857 0.062530 0.197314 0.300000 0.600000 0.000000
-0.264840 0.062530 0.085034 0.300000 0.600000 0.000000
0.775045 0.042811 -0.116761 0.300000 0.600000 0.000000
-0.486353 0.062530 0.138898 0.300000 0.600000 0.000000
0.644972 0.042811 -0.292717 0.500000 0.000000 0.500000
-0.368476 0.042811 -0.133512 0.300000 0.600000 0.000000
0.602834 0.062530 -0.185151 0.300000 0.600000 0.000000
-0.695786 -0.019222 -0.053237 0.300000 0.000000 0.600000
-0.371225 0.062530 0.153346 0.300000 0.600000 0.000000
-0.139075 0.042811 -0.235309 0.300000 0.600000 0.000000
-0.603819 0.042811 0.280442 0.300000 0.600000 0.000000
-0.082277 -0.002320 -0.014339 0.000000 1.000000 0.000000
-0.721466 0.062530 -0.339137 0.300000 0.600000 0.000000
0.721999 0.016245 -0.047448 0.300000 0.000000 0.600000
0.317790 0.062530 -0.087949 0.300000 0.600000 0.000000
0.276354 0.042811 -0.171608 0.300000 0.600000 0.000000
0.426268 -0.040112 -0.047228 0.600000 0.000000 0.300000
0.553531 0.042811 -0.016638 0.300000 0.600000 0.000000
0.797515 0.025515 0.242340 0.500000 0.500000 0.000000
0.199787 0.062530 0.198452 0.300000 0.600000 0.000000
0.424850 0.062530 -0.110976 0.300000 0.600000 0.000000
-0.710118 -0.019577 -0.277497 0.500000 0.000000 0.500000
-0.146477 0.036793 -0.277497 0.500000 0.000000 0.500000
0.343487 -0.000559 -0.032081 0.000000 1.000000 0.000000
-0.397052 -0.022369 -0.202578 0.300000 0.000000 0.600000
0.046541 -0.049826 0.037150 0.300000 0.000000 0.600000
-0.427594 -0.002352 -0.047448 0.300000 0.000000 0.600000
0.887059 0.029987 0.005299 0.300000 0.600000 0.000000
0.446620 -0.029490 -0.082308 0.500000 0.000000 0.500000
-0.071219 -0.019083 0.072415 1.000000 0.000000 0.000000
-0.824650 0.018269 0.105754 0.600000 0.000000 0.300000
0.588459 0.006466 -0.014339 0.000000 1.000000 0.000000
0.722368 -0.023893 -0.014339 0.000000 1.000000 0.000000
-0.166156 -0.019083 -0.182729 0.500000 0.500000 0.000000
-0.221466 0.062530 0.262962 0.300000 0.600000 0.000000
-0.665606 0.042811 0.210215 0.300000 0.600000 0.000000
0.236798 0.042811 -0.307741 0.300000 0.600000 0.000000
0.033396 0.027046 0.155681 0.300000 0.000000 0.600000
-0.120836 0.042811 0.067416 0.300000 0.600000 0.000000
-0.824650 -0.046868 0.025898 0.600000 0.000000 0.300000
0.185985 -0.019083 0.011186 0.600000 0.300000 0.000000
-0.026657 -0.044145 0.248203 0.500000 0.500000 0.000000
0.746953 0.042811 -0.067594 0.300000 0.600000 0.000000
-0.603501 -0.039920 0.248203 0.500000 0.500000 0.000000
0.071536 0.062530 0.100668 0.300000 0.600000 0.000000
-0.807536 -0.003009 -0.018828 0.600000 0.000000 0.300000
-0.058653 -0.019083 0.196330 1.000000 0.000000 0.000000
0.820804 0.042811 0.052903 0.300000 0.600000 0.000000
0.907739 0.042811 -0.064800 0.300000 0.000000 0.600000
-0.416107 0.062530 0.299156 0.300000 0.600000 0.000000
-0.800530 0.052034 -0.307468 0.300000 0.600000 0.000000
0.287473 0.062530 -0.106341 0.300000 0.600000 0.000000
0.955866 0.042811 0.109935 0.300000 0.000000 0.600000
0.204529 0.062530 -0.254370 0.300000 0.600000 0.000000
0.027212 0.042811 -0.071292 0.300000 0.600000 0.000000
0.870738 -0.415197 -0.282737 0.600000 0.300000 0.000000
0.505676 0.042811 -0.259380 0.300000 0.600000 0.000000
0.413122 0.004436 -0.210002 0.600000 0.000000 0.300000
-0.824650 -0.032683 -0.139825 0.600000 0.000000 0.300000
0.000694 -0.019083 0.057304 1.000000 0.000000 0.000000
0.010391 0.007373 0.185386 0.300000 0.000000 0.600000
-0.305887 0.042811 0.076676 0.300000 0.600000 0.000000
0.902330 -0.307002 -0.274110 0.600000 0.300000 0.000000
-0.080051 -0.000335 0.255871 0.600000 0.000000 0.300000
-0.547003 -0.046700 0.230676 0.500000 0.500000 0.000000
0.867858 0.062530 0.007851 0.300000 0.600000 0.000000
-0.726057 0.004807 -0.243336 0.800000 0.200000 0.500000
0.189145 0.012870 -0.047448 0.000000 1.000000 0.000000
0.304564 0.062530 0.075536 0.300000 0.600000 0.000000
0.111276 0.005847 0.231771 0.300000 0.000000 0.600000
-0.854897 0.042811 0.036496 0.300000 0.000000 0.600000
0.768748 -0.030307 -0.258234 0.000000 0.500000 0.500000
0.855619 -0.071388 -0.247316 0.600000 0.300000 0.000000
-0.497710 -0.022369 -0.053167 0.300000 0.000000 0.600000
-0.349976 0.042811 0.213988 0.300000 0.600000 0.000000
-0.064120 -0.022369 -0.059211 0.500000 0.500000 0.000000
0.046541 0.021287 0.088013 0.300000 0.000000 0.600000
0.128813 0.042811 -0.276201 0.300000 0.600000 0.000000
-0.238269 -0.048031 -0.014339 0.000000 1.000000 0.000000
-0.690206 0.062530 -0.217927 0.300000 0.600000 0.000000
0.022801 0.042811 0.036479 0.300000 0.600000 0.000000
-0.457365 0.042811 -0.302636 0.300000 0.600000 0.000000
0.887059 0.037723 -0.222149 0.300000 0.600000 0.000000
0.462628 0.062530 -0.150891 0.300000 0.600000 0.000000
0.517740 -0.019083 -0.070716 0.300000 0.600000 0.000000
0.805994 -0.048386 -0.135554 0.800000 0.200000 0.500000
-0.333185 -0.011574 0.063235 0.600000 0.300000 0.000000
-0.068408 0.062530 0.073157 0.300000 0.600000 0.000000
0.895229 -0.468331 -0.277570 0.600000 0.300000 0.000000
-0.779443 0.062530 0.107953 0.300000 0.600000 0.000000
0.441935 -0.029490 -0.141833 0.500000 0.000000 0.500000
0.904509 0.062530 -0.264665 0.300000 0.000000 0.600000
0.401288 0.062530 -0.117532 0.300000 0.600000 0.000000
0.107903 0.062530 -0.173745 0.300000 0.600000 0.000000
-0.232749 0.042811 -0.339122 0.300000 0.600000 0.000000
-0.689008 0.025284 0.172582 0.000000 0.000000 1.000000
-0.233222 -0.014010 -0.289547 0.300000 0.000000 0.600000
-0.696406 0.025284 -0.189960 0.300000 0.000000 0.600000
-0.110089 -0.052066 0.230676 0.500000 0.500000 0.000000
0.819344 0.062530 -0.255543 0.300000 0.600000 0.000000
-0.071033 -0.019083 -0.176365 0.500000 0.500000 0.000000
-0.670451 -0.022369 0.147548 0.600000 0.300000 0.000000
0.454792 0.042811 -0.014012 0.300000 0.600000 0.000000
0.674529 0.062530 -0.047467 0.300000 0.600000 0.000000
-0.616992 0.042811 -0.104058 0.300000 0.600000 0.000000
-0.045524 0.003416 -0.289547 0.000000 0.000000 1.000000
-0.543695 -0.022369 -0.236815 0.300000 0.000000 0.600000
0.119104 0.062530 0.023288 0.300000 0.600000 0.000000
-0.334113 -0.053590 0.120407 0.600000 0.300000 0.000000
0.856359 -0.131679 0.215316 0.300000 0.000000 0.600000
0.580535 0.042811 -0.056816 0.300000 0.600000 0.000000
-0.290472 0.042811 -0.303733 0.300000 0.600000 0.000000
-0.024198 -0.022369 -0.143052 0.500000 0.500000 0.000000
0.635736 0.062530 -0.308157 0.300000 0.600000 0.000000
0.766761 0.042811 0.015842 0.300000 0.600000 0.000000
-0.271645 0.001668 -0.008137 0.300000 0.000000 0.600000
0.390358 0.025284 -0.072565 0.300000 0.000000 0.600000
-0.789006 -0.425149 0.230877 0.600000 0.000000 0.300000
0.894190 -0.126916 0.195261 0.300000 0.000000 0.600000
-0.772067 -0.009870 -0.290356 0.300000 0.000000 0.600000
-0.197901 -0.019083 -0.194832 0.500000 0.500000 0.000000
0.667126 -0.019083 0.170381 1.000000 0.000000 0.000000
-0.346331 -0.026861 -0.185595 0.600000 0.000000 0.300000
0.108545 0.033848 0.248203 0.500000 0.500000 0.000000
-0.391037 -0.020206 -0.032081 0.000000 1.000000 0.000000
0.114218 -0.023058 -0.302692 0.300000 0.000000 0.600000
0.303831 0.062530 0.195147 0.300000 0.600000 0.000000
-0.224647 0.062530 -0.004223 0.300000 0.600000 0.000000
-0.743951 0.042811 0.259207 0.300000 0.600000 0.000000
-0.333185 -0.009831 0.162675 0.600000 0.300000 0.000000
0.693448 0.062530 0.156857 0.300000 0.600000 0.000000
0.498236 -0.019083 -0.204879 0.300000 0.600000 0.000000
0.379377 -0.022369 -0.240205 0.600000 0.000000 0.300000
0.200659 0.042811 0.183108 0.300000 0.600000 0.000000
-0.712912 -0.018237 0.061334 0.800000 0.200000 0.500000
-0.346331 -0.024482 -0.116458 0.600000 0.300000 0.000000
-0.694887 -0.019083 0.205005 0.600000 0.300000 0.000000
-0.164490 -0.030132 0.248203 0.500000 0.500000 0.000000
-0.789889 0.062530 0.129338 0.300000 0.600000 0.000000
0.244421 -0.022369 0.186916 0.600000 0.300000 0.000000
0.175390 0.042811 0.146196 0.300000 0.600000 0.000000
-0.198906 -0.009299 -0.278592 0.300000 0.000000 0.600000
-0.252158 -0.019083 0.040098 1.000000 0.000000 0.000000
-0.171473 0.062530 0.292882 0.300000 0.600000 0.000000
0.614479 0.042811 -0.302773 0.300000 0.600000 0.000000
0.907137 -0.193550 -0.277822 0.600000 0.300000 0.000000
0.795493 0.062530 0.080501 0.300000 0.600000 0.000000
-0.501817 0.042811 0.092569 0.300000 0.600000 0.000000
-0.081557 0.042811 -0.339799 0.300000 0.600000 0.000000
0.426268 -0.003469 0.169589 0.600000 0.000000 0.300000
0.086402 -0.004096 -0.008137 0.300000 0.000000 0.600000
0.117528 0.062530 -0.199849 0.300000 0.600000 0.000000
-0.094354 0.014653 0.255871 0.600000 0.000000 0.300000
0.404198 0.025284 -0.052168 0.300000 0.000000 0.600000
0.420337 0.062530 -0.076196 0.300000 0.600000 0.000000
0.885035 -0.442718 0.204718 0.300000 0.000000 0.600000
-0.167124 0.062530 0.012749 0.300000 0.600000 0.000000
0.232623 0.015272 -0.047448 0.000000 1.000000 0.000000
0.822896 0.062530 0.015145 0.300000 0.600000 0.000000
0.717811 0.062530 -0.019715 0.300000 0.600000 0.000000
-0.829375 0.042811 -0.325382 0.300000 0.000000 0.600000
-0.391838 0.062530 -0.152356 0.300000 0.600000 0.000000
0.884343 -0.125758 -0.306854 0.600000 0.300000 0.000000
-0.644078 -0.022369 0.250734 0.600000 0.300000 0.000000
-0.620735 0.062530 -0.329775 0.300000 0.600000 0.000000
-0.073570 -0.022369 0.114024 1.000000 0.000000 0.000000
0.913215 -0.123469 -0.284948 0.600000 0.300000 0.000000
-0.637125 0.042811 0.143153 0.300000 0.600000 0.000000
-0.309085 0.021392 -0.156465 0.300000 0.000000 0.600000
0.159261 0.025580 0.248203 0.500000 0.500000 0.000000
0.024215 0.062530 -0.223430 0.300000 0.600000 0.000000
0.679121 -0.038633 -0.032081 0.000000 1.000000 0.000000
0.134389 -0.018514 0.255871 0.300000 0.600000 0.000000
-0.853773 0.042811 0.276551 0.300000 0.000000 0.600000
0.103999 0.016758 -0.008137 0.300000 0.000000 0.600000
0.001309 0.062530 -0.152150 0.300000 0.600000 0.000000
0.159132 0.062530 0.240345 0.300000 0.600000 0.000000
0.090608 0.062530 -0.052373 0.300000 0.600000 0.000000
0.046541 -0.026933 -0.138065 0.600000 0.300000 0.000000
-0.762771 -0.049897 -0.014339 0.000000 1.000000 0.000000
-0.172946 0.062530 0.136774 0.300000 0.600000 0.000000
0.468077 -0.019083 0.191323 1.000000 0.000000 0.000000
0.792849 0.022080 0.159829 0.800000 0.200000 0.500000
0.716920 -0.038762 -0.032081 0.000000 1.000000 0.000000
0.010265 0.025284 0.145871 0.300000 0.000000 0.600000
-0.191125 0.062530 0.061902 0.300000 0.600000 0.000000
0.730992 -0.019083 -0.110517 0.300000 0.600000 0.000000
-0.103446 0.062530 0.249922 0.300000 0.600000 0.000000
-0.046465 0.015098 -0.038684 0.300000 0.000000 0.600000
0.904587 0.022013 -0.105697 0.300000 0.600000 0.000000
0.887059 0.007880 -0.162674 0.300000 0.600000 0.000000
-0.327226 0.062530 0.206379 0.300000 0.600000 0.000000
0.332850 0.062530 -0.165242 0.300000 0.600000 0.000000
0.614232 0.062530 -0.244006 0.300000 0.600000 0.000000
0.450698 0.017485 -0.295024 0.500000 0.500000 0.000000
-0.686635 0.062530 -0.239745 0.300000 0.600000 0.000000
0.075028 0.062530 0.072219 0.300000 0.600000 0.000000
-0.796473 -0.154442 -0.245529 0.300000 0.000000 0.600000
0.913350 -0.008405 0.217171 0.300000 0.000000 0.600000
0.771097 0.042811 0.114176 0.300000 0.600000 0.000000
0.276473 0.062530 0.052944 0.300000 0.600000 0.000000
0.109557 -0.034967 0.248640 0.300000 0.600000 0.000000
-0.743018 0.011337 -0.014339 0.000000 1.000000 0.000000
0.047472 -0.022917 0.125170 0.300000 0.000000 0.600000
0.247168 -0.039550 -0.014339 0.000000 1.000000 0.000000
-0.426210 0.062530 -0.253910 0.300000 0.600000 0.000000
0.592940 0.042811 -0.271288 0.300000 0.600000 0.000000
-0.806330 0.050211 -0.271766 0.300000 0.600000 0.000000
0.568819 0.062530 0.025985 0.300000 0.600000 0.000000
-0.843806 0.042811 0.200732 0.300000 0.000000 0.600000
-0.358381 -0.023225 -0.060291 0.300000 0.000000 0.600000
0.510346 0.062530 0.212301 0.300000 0.600000 0.000000
-0.635600 0.008272 0.386232 0.000000 0.500000 0.500000
0.515159 -0.019083 -0.140608 0.300000 0.600000 0.000000
-0.570169 0.042811 -0.037151 0.300000 0.600000 0.000000
0.871884 0.042811 -0.170942 0.300000 0.600000 0.000000
0.524534 0.062530 -0.187367 0.300000 0.600000 0.000000
-0.222218 -0.012481 0.242726 0.600000 0.000000 0.300000
0.390117 -0.003004 -0.215940 0.300000 0.000000 0.600000
0.816500 0.062530 0.129848 0.300000 0.600000 0.000000
0.413653 0.042811 -0.065122 0.600000 0.000000 0.300000
-0.771920 -0.021974 -0.032081 0.000000 1.000000 0.000000
0.398429 0.023170 0.253191 0.300000 0.600000 0.000000
0.059445 -0.001750 -0.281454 0.300000 0.000000 0.600000
0.323007 -0.019083 -0.282194 0.300000 0.000000 0.600000
0.514300 -0.011301 0.000627 0.300000 0.000000 0.600000
0.299818 -0.042594 -0.014339 0.000000 1.000000 0.000000
0.380375 0.042811 0.238384 0.500000 0.500000 0.000000
0.039362 0.062530 0.016857 0.300000 0.600000 0.000000
0.497290 0.039469 -0.032081 0.000000 1.000000 0.000000
0.443394 -0.019801 0.017617 0.300000 0.000000 0.600000
0.050881 0.025284 -0.055400 0.300000 0.000000 0.600000
0.228561 0.040364 -0.277497 0.500000 0.000000 0.500000
0.158744 0.042811 0.174372 0.300000 0.600000 0.000000
-0.346331 0.003565 -0.157953 0.600000 0.300000 0.000000
0.875913 0.024064 0.195620 0.300000 0.000000 0.600000
-0.871092 0.042811 -0.339757 0.300000 0.000000 0.600000
0.593147 0.042811 -0.345009 0.300000 0.600000 0.000000
0.237171 -0.022369 0.005713 0.600000 0.300000 0.000000
-0.055408 0.042811 -0.055563 0.300000 0.600000 0.000000
0.435721 0.042811 -0.279772 0.500000 0.000000 0.500000
0.887059 -0.033243 0.024358 0.300000 0.600000 0.000000
-0.377949 -0.022369 0.287243 0.600000 0.300000 0.000000
0.426268 -0.032855 0.009092 0.000000 0.000000 1.000000
-0.782674 0.042811 -0.049462 0.300000 0.600000 0.000000
0.602981 0.042811 0.073708 0.300000 0.600000 0.000000
-0.627440 -0.032401 0.378564 0.000000 0.500000 0.500000
-0.797113 -0.229240 -0.297177 0.300000 0.000000 0.600000
-0.832194 0.042811 -0.257855 0.300000 0.000000 0.600000
0.377135 0.042811 -0.136863 0.300000 0.600000 0.000000
0.057866 0.025284 -0.112930 0.300000 0.000000 0.600000
0.046541 -0.032302 0.223389 0.300000 0.000000 0.600000
-0.430879 0.008402 0.386232 0.000000 0.500000 0.500000
-0.816041 -0.430836 -0.267289 0.300000 0.000000 0.600000
0.371825 0.062530 0.151870 0.300000 0.600000 0.000000
0.896120 0.042811 0.099105 0.300000 0.600000 0.000000
0.445818 0.025284 -0.248890 0.300000 0.000000 0.600000
0.831702 0.029985 -0.277497 0.500000 0.000000 0.500000
-0.392756 0.062530 -0.102301 0.300000 0.600000 0.000000
0.010391 0.005589 0.018733 0.300000 0.000000 0.600000
-0.712912 -0.029206 0.002819 0.000000 0.000000 1.000000
-0.358381 0.003370 0.357382 0.300000 0.600000 0.000000
0.935757 0.042811 0.120596 0.300000 0.000000 0.600000
0.294497 0.020132 -0.014339 0.000000 1.000000 0.000000
0.816331 0.062530 -0.146837 0.300000 0.600000 0.000000
0.546907 0.042811 -0.313169 0.300000 0.600000 0.000000
-0.749829 0.062530 0.231327 0.300000 0.600000 0.000000
-0.197963 -0.053590 -0.292518 0.500000 0.000000 0.500000
-0.653472 0.062530 0.282941 0.300000 0.600000 0.000000
-0.653367 0.002159 -0.038684 0.300000 0.000000 0.600000
-0.705671 -0.036063 -0.098845 0.300000 0.600000 0.000000
-0.653426 0.042811 0.263293 0.300000 0.600000 0.000000
-0.006138 0.042811 0.255255 0.300000 0.600000 0.000000
0.630781 -0.019083 -0.082263 0.300000 0.600000 0.000000
-0.553898 0.042811 -0.331357 0.300000 0.600000 0.000000
-0.493005 0.042811 -0.238976 0.300000 0.600000 0.000000
0.866589 -0.373777 0.221618 0.300000 0.000000 0.600000
-0.368532 -0.023916 -0.279207 0.300000 0.000000 0.600000
0.670071 0.062530 0.063072 0.300000 0.600000 0.000000
-0.442623 0.024755 -0.032081 0.000000 1.000000 0.000000
-0.287848 0.042811 0.188230 0.300000 0.600000 0.000000
0.325267 0.062530 0.088483 0.300000 0.600000 0.000000
0.681227 -0.029490 -0.287719 0.500000 0.000000 0.500000
-0.310582 0.000522 0.186365 0.300000 0.000000 0.600000
0.426268 -0.033922 -0.191922 0.500000 0.000000 0.500000
-0.008888 -0.044350 -0.014339 0.000000 1.000000 0.000000
0.350470 0.042811 0.138767 0.300000 0.600000 0.000000
0.907753 0.062530 0.069609 0.300000 0.000000 0.600000
0.526483 -0.053590 0.246239 0.500000 0.500000 0.000000
0.281789 0.042811 0.082282 0.300000 0.600000 0.000000
-0.346331 0.009356 -0.246022 0.600000 0.300000 0.000000
-0.478633 -0.022369 0.129910 0.600000 0.300000 0.000000
0.523036 -0.022369 0.043181 1.000000 0.000000 0.000000
-0.757583 0.022823 -0.295024 0.500000 0.000000 0.500000
-0.198686 0.062530 -0.311947 0.300000 0.600000 0.000000
-0.787042 -0.305487 -0.286158 0.300000 0.000000 0.600000
-0.137226 -0.022369 -0.209263 0.500000 0.500000 0.000000
-0.423724 -0.016358 -0.014339 0.000000 1.000000 0.000000
-0.254313 -0.036996 -0.277497 0.500000 0.000000 0.500000
-0.329708 -0.002828 -0.014339 0.000000 1.000000 0.000000
0.167979 0.012707 -0.008137 0.300000 0.000000 0.600000
0.228964 -0.019083 -0.116861 0.600000 0.000000 0.300000
-0.008444 0.042811 0.295626 0.300000 0.600000 0.000000
-0.822818 -0.125736 0.252446 0.600000 0.000000 0.300000
0.151477 0.042811 0.097207 0.300000 0.600000 0.000000
0.603441 -0.019083 -0.194394 0.300000 0.600000 0.000000
-0.104908 0.029152 -0.014339 0.000000 1.000000 0.000000
0.789205 0.062530 0.024679 0.300000 0.600000 0.000000
0.876149 -0.350497 -0.290868 0.600000 0.300000 0.000000
0.547594 0.040070 0.248203 0.500000 0.500000 0.000000
0.394623 -0.036063 -0.267759 0.300000 0.000000 0.600000
0.085515 -0.022369 -0.055367 0.600000 0.000000 0.300000
-0.420798 0.062530 0.181919 0.300000 0.600000 0.000000
-0.196389 -0.019083 -0.119923 0.500000 0.500000 0.000000
0.033396 0.018450 -0.186606 0.300000 0.000000 0.600000
-0.544914 0.062530 -0.298171 0.300000 0.600000 0.000000
-0.726057 0.026797 -0.098191 0.800000 0.200000 0.500000
0.120239 -0.022369 0.002252 0.600000 0.300000 0.000000
-0.189497 -0.019083 -0.050375 0.500000 0.500000 0.000000
0.642881 -0.022369 -0.246914 0.300000 0.600000 0.000000
0.182466 -0.019083 -0.162683 0.600000 0.000000 0.300000
0.865758 0.042811 -0.299834 0.600000 0.300000 0.000000
0.737194 -0.053590 -0.286672 0.500000 0.000000 0.500000
0.744942 0.062530 -0.218556 0.300000 0.600000 0.000000
-0.156400 -0.007307 0.242726 0.300000 0.000000 0.600000
-0.136862 -0.001217 -0.032081 0.000000 1.000000 0.000000
-0.041059 0.062530 -0.140094 0.300000 0.600000 0.000000
0.243276 0.062530 -0.037147 0.300000 0.600000 0.000000
0.258764 -0.029802 0.230676 0.500000 0.500000 0.000000
0.773671 0.062530 -0.046772 0.300000 0.600000 0.000000
-0.353806 0.012138 0.088215 1.000000 0.000000 0.000000
0.694542 -0.031460 0.254678 0.600000 0.000000 0.300000
-0.456372 -0.019083 0.289874 0.600000 0.300000 0.000000
-0.670694 -0.022369 0.342947 0.600000 0.300000 0.000000
0.690865 0.042811 0.100724 0.300000 0.600000 0.000000
0.389022 0.023337 0.133465 0.300000 0.000000 0.600000
0.433623 -0.044769 -0.295024 0.500000 0.000000 0.500000
0.646377 0.062530 -0.066515 0.300000 0.600000 0.000000
-0.677259 -0.019083 -0.245308 0.300000 0.000000 0.600000
0.448871 0.001566 0.217217 0.300000 0.000000 0.600000
0.531885 -0.022369 0.019187 1.000000 0.000000 0.000000
0.401072 -0.015236 0.135235 0.300000 0.000000 0.600000
-0.527241 0.056992 -0.347607 0.300000 0.600000 0.000000
0.540024 0.040584 -0.295024 0.500000 0.000000 0.500000
0.487299 0.062530 -0.291692 0.300000 0.600000 0.000000
0.384011 0.007045 -0.032081 0.000000 1.000000 0.000000
0.299337 -0.022369 -0.257002 0.600000 0.000000 0.300000
0.413122 0.038353 0.119013 0.600000 0.000000 0.300000
0.128434 0.006944 0.000627 0.300000 0.000000 0.600000
-0.165523 -0.030194 -0.302692 0.000000 0.000000 1.000000
0.316142 0.018711 0.233477 0.500000 0.500000 0.000000
-0.367674 -0.028394 -0.236469 0.300000 0.000000 0.600000
0.467554 0.036426 -0.032081 0.000000 1.000000 0.000000
0.084377 0.015272 0.242726 0.300000 0.000000 0.600000
-0.016020 0.042811 0.216756 0.300000 0.600000 0.000000
-0.237054 0.062530 0.108980 0.300000 0.600000 0.000000
0.046541 -0.049191 -0.110183 0.300000 0.000000 0.600000
-0.136269 0.062530 -0.041662 0.300000 0.600000 0.000000
-0.690308 0.010413 0.294261 0.600000 0.000000 0.300000
0.143596 -0.019083 0.097057 0.600000 0.300000 0.000000
-0.511942 0.030670 0.248203 0.500000 0.500000 0.000000
-0.358381 -0.011296 0.326800 0.300000 0.600000 0.000000
0.475879 0.042811 0.290770 0.300000 0.600000 0.000000
0.058190 -0.008680 0.156057 0.300000 0.000000 0.600000
0.426268 -0.015391 -0.199275 0.600000 0.000000 0.300000
0.537996 -0.000784 0.231771 0.300000 0.000000 0.600000
0.083029 0.001733 -0.047448 0.000000 1.000000 0.000000
-0.165479 -0.022369 -0.047503 0.500000 0.500000 0.000000
-0.740895 0.042811 -0.178773 0.300000 0.600000 0.000000
-0.682322 -0.053147 0.230676 0.500000 0.500000 0.000000
0.390117 -0.007959 -0.170792 0.300000 0.000000 0.600000
-0.054135 0.042811 0.033272 0.300000 0.600000 0.000000
-0.874619 0.062530 0.292090 0.300000 0.000000 0.600000
-0.150996 -0.011560 -0.008137 0.300000 0.000000 0.600000
0.225923 0.042811 0.156265 0.300000 0.600000 0.000000
-0.311741 0.025284 0.107213 0.300000 0.000000 0.600000
-0.719515 0.042811 -0.308651 0.300000 0.600000 0.000000
0.010815 0.062530 0.141711 0.300000 0.600000 0.000000
-0.596509 0.042811 0.162373 0.300000 0.600000 0.000000
0.805994 -0.034582 0.028224 0.800000 0.200000 0.500000
0.706765 0.062530 -0.316186 0.300000 0.600000 0.000000
0.805994 -0.015488 -0.229280 0.800000 0.200000 0.500000
0.021346 0.004615 -0.069401 0.300000 0.000000 0.600000
0.053801 0.062530 0.267256 0.300000 0.600000 0.000000
-0.835132 0.062530 0.056012 0.300000 0.000000 0.600000
-0.819004 0.062530 0.075431 0.300000 0.000000 0.600000
-0.415845 0.062530 -0.206820 0.300000 0.600000 0.000000
-0.634038 -0.022369 -0.142782 0.300000 0.000000 0.600000
0.714041 0.042811 -0.281771 0.500000 0.000000 0.500000
0.691549 0.042811 0.271160 0.300000 0.600000 0.000000
-0.824650 -0.030642 -0.197464 0.600000 0.000000 0.300000
0.791450 0.062530 -0.128531 0.300000 0.600000 0.000000
0.890181 0.062530 -0.326595 0.300000 0.000000 0.600000
-0.703250 0.025284 -0.088505 0.300000 0.000000 0.600000
0.187958 0.062530 0.025498 0.300000 0.600000 0.000000
0.437917 -0.000098 0.084468 0.300000 0.000000 0.600000
-0.553617 0.041943 -0.014339 0.000000 1.000000 0.000000
0.314430 -0.004493 -0.008137 0.300000 0.000000 0.600000
-0.834075 -0.096790 -0.277246 0.300000 0.000000 0.600000
-0.416675 -0.028631 -0.032081 0.000000 1.000000 0.000000
0.481643 0.007910 -0.047448 0.300000 0.000000 0.600000
-0.866208 0.042811 -0.256946 0.300000 0.000000 0.600000
0.061134 0.062530 0.058657 0.300000 0.600000 0.000000
-0.237047 0.042811 0.216653 0.300000 0.600000 0.000000
0.869036 -0.130780 0.253432 0.300000 0.000000 0.600000
0.331487 0.042811 -0.282631 0.300000 0.600000 0.000000
0.349500 -0.022369 -0.139959 0.600000 0.000000 0.300000
0.805994 -0.023916 0.159167 0.800000 0.200000 0.500000
-0.712912 -0.053094 -0.209106 0.800000 0.200000 0.500000
0.257672 0.042811 0.002713 0.300000 0.600000 0.000000
-0.712912 -0.001352 0.088905 0.800000 0.200000 0.500000
0.131231 -0.042233 -0.277497 0.500000 0.000000 0.500000
-0.334971 0.062530 -0.260776 0.300000 0.600000 0.000000
-0.052955 -0.022369 0.230021 1.000000 0.000000 0.000000
0.545480 -0.049769 -0.032081 0.000000 1.000000 0.000000
0.203233 -0.019083 0.023003 0.600000 0.300000 0.000000
0.898370 0.062530 0.258781 0.300000 0.000000 0.600000
-0.814045 0.042811 0.083696 0.600000 0.000000 0.300000
0.887059 -0.032344 -0.029479 0.300000 0.600000 0.000000
-0.176486 0.062530 0.250114 0.300000 0.600000 0.000000
0.814519 0.062530 -0.091731 0.300000 0.600000 0.000000
0.904587 -0.014206 0.128229 0.300000 0.600000 0.000000
-0.788215 -0.446870 0.211073 0.600000 0.000000 0.300000
0.190610 0.042811 -0.294140 0.500000 0.000000 0.500000
0.864241 0.042811 0.231094 0.300000 0.000000 0.600000
-0.679853 0.062530 0.023795 0.300000 0.600000 0.000000
0.443394 -0.019173 0.104953 0.300000 0.000000 0.600000
-0.701105 -0.028394 0.266026 0.600000 0.000000 0.300000
-0.710345 0.042811 -0.176280 0.300000 0.600000 0.000000
0.339069 -0.010091 0.231771 0.300000 0.000000 0.600000
