ply
format ascii 1.0
element vertex 1303
property float x
property float y
property float z
property uchar red
property uchar green
property uchar blue
end_header
0.068839 -0.262156 0.162415 153 0 76
-0.775196 -0.169118 -0.412607 0 255 0
0.123930 -0.133534 -0.544123 0 255 0
0.300768 0.360552 0.455129 0 255 0
-0.611345 -0.164998 -0.208890 0 255 0
-0.133851 -0.262156 -0.029268 0 255 0
0.449121 -0.230798 0.342023 0 255 0
-0.433273 0.276934 0.364862 0 255 0
0.042621 -0.363925 0.132964 0 255 0
0.375226 -0.339453 0.516344 0 255 0
-0.249047 -0.244361 -0.153998 153 0 76
0.449121 0.147845 -0.104874 0 255 0
0.068846 0.276934 -0.127291 0 255 0
0.426589 -0.262156 0.196781 0 255 0
-0.742623 0.360552 0.341626 0 255 0
0.351600 0.276934 -0.307092 0 255 0
-0.775196 -0.284615 -0.425747 0 255 0
0.160787 0.276934 0.186138 0 255 0
0.674338 0.076415 -0.544123 0 255 0
0.089001 -0.262156 0.489593 0 255 0
-0.588751 0.360552 -0.513044 0 255 0
-0.660362 0.360552 -0.236741 0 255 0
-0.611345 0.020289 0.080122 0 255 0
-0.363379 -0.363925 -0.209281 0 255 0
-0.611345 -0.043111 0.492483 0 255 0
0.130020 -0.363925 0.112031 0 255 0
0.260062 0.276934 0.258540 0 255 0
0.287112 -0.262156 0.277832 0 255 0
-0.142627 -0.244361 -0.218039 153 0 76
-0.356253 0.360552 0.267311 0 255 0
-0.298913 -0.323971 -0.544123 0 255 0
0.449121 -0.237398 -0.251339 0 255 0
0.366078 -0.169409 -0.380272 0 255 0
0.403303 0.360552 -0.052651 0 255 0
-0.611345 0.086910 0.401538 0 255 0
-0.363676 0.084469 -0.544123 0 255 0
-0.578985 0.242480 -0.380272 0 255 0
0.121293 -0.244361 -0.066540 153 0 76
-0.498321 0.276934 -0.288212 0 255 0
-0.092429 -0.363925 0.365040 0 255 0
-0.611345 0.250386 0.385834 0 255 0
0.246122 -0.363925 -0.270903 0 255 0
0.574078 0.360552 0.270803 0 255 0
-0.611345 -0.261786 -0.051859 0 255 0
0.310036 -0.262156 0.083260 0 255 0
-0.354914 0.276934 0.196375 0 255 0
0.449121 0.004624 -0.197743 0 255 0
0.299185 0.276934 0.216765 0 255 0
0.328915 -0.363925 -0.021828 0 255 0
-0.695907 -0.363925 0.488231 0 255 0
-0.768168 0.191106 0.516344 0 255 0
0.256798 0.276934 0.469901 0 255 0
0.021540 -0.262156 0.090682 0 255 0
0.109304 -0.244817 -0.380272 0 255 0
-0.185250 0.360552 -0.495031 0 255 0
0.203130 -0.262156 0.400484 0 255 0
-0.439042 0.360552 0.292704 0 255 0
-0.471145 -0.262156 -0.326451 0 255 0
-0.369406 -0.363925 0.430556 0 255 0
0.433575 0.276934 -0.185208 0 255 0
0.181369 -0.244361 0.103404 153 0 76
-0.637325 -0.230666 -0.544123 0 255 0
-0.612071 -0.363925 0.474160 0 255 0
0.242849 0.276934 -0.315042 0 255 0
0.300110 0.276934 0.127355 0 255 0
-0.611345 -0.200157 0.147178 0 255 0
-0.631989 -0.363925 0.218018 0 255 0
0.074356 0.289704 0.516344 0 255 0
0.555683 0.360552 0.144681 0 255 0
-0.288305 0.260146 0.516344 127 0 127
-0.390836 -0.363925 -0.344240 0 255 0
-0.775196 0.046290 0.237520 0 255 0
0.102440 0.117773 -0.544123 0 255 0
-0.168320 0.276934 0.079786 0 255 0
0.449121 0.255674 0.303358 0 255 0
0.788478 -0.338034 -0.544123 0 255 0
-0.504036 -0.262156 0.485017 0 255 0
0.124187 -0.319252 0.516344 0 255 0
0.137108 0.360552 -0.315859 0 255 0
-0.746228 0.072681 0.516344 0 255 0
0.085045 0.054578 0.517765 127 0 127
0.449121 0.105567 0.441360 0 255 0
-0.135297 0.304162 -0.544123 0 255 0
-0.482738 -0.126931 -0.380272 0 255 0
0.428647 0.360552 -0.409797 0 255 0
0.385386 0.007503 0.517765 127 0 127
0.812023 0.330841 -0.156716 0 255 0
-0.611345 -0.070446 -0.104407 0 255 0
-0.735559 -0.363925 -0.336327 0 255 0
0.812023 0.305437 0.454119 0 255 0
0.123546 0.360552 -0.416354 0 255 0
0.165559 0.276934 -0.297749 0 255 0
-0.578557 0.295881 0.516344 0 255 0
-0.000954 0.360552 -0.533739 0 255 0
0.243394 -0.244361 0.151548 153 0 76
-0.023420 -0.281553 0.516344 0 255 0
0.376482 -0.363925 -0.369114 0 255 0
-0.022462 -0.363925 -0.225020 0 255 0
0.271396 0.086572 0.517765 127 0 127
0.047791 -0.221204 -0.544123 0 255 0
0.294798 -0.363925 0.030551 0 255 0
0.541695 0.024588 -0.544123 0 255 0
-0.135684 -0.104582 0.516344 127 0 127
0.677022 0.194401 -0.254417 0 255 0
0.523889 0.276934 -0.305288 0 255 0
-0.328730 -0.262156 -0.192468 153 0 76
0.252865 0.328205 0.516344 0 255 0
0.812023 -0.334130 -0.459738 0 255 0
0.775497 0.360552 -0.469756 0 255 0
0.812023 -0.172372 0.473279 0 255 0
0.398778 -0.363925 -0.163216 0 255 0
0.104261 0.360552 0.236423 0 255 0
0.088972 -0.262156 0.043066 0 255 0
0.449121 0.054182 -0.231672 0 255 0
-0.397599 0.101939 -0.380272 0 255 0
-0.364723 -0.262156 0.418969 0 255 0
0.305960 -0.363925 -0.218488 0 255 0
-0.485585 -0.363925 0.062137 0 255 0
-0.433870 0.276934 -0.054682 0 255 0
0.812023 0.234892 -0.208036 0 255 0
0.038203 -0.363925 0.200582 0 255 0
-0.402306 -0.363925 0.468842 0 255 0
-0.611345 -0.204918 -0.213642 0 255 0
-0.152466 -0.363925 0.312746 0 255 0
0.812023 0.050546 0.115119 0 255 0
-0.405212 0.360552 0.445882 0 255 0
-0.775196 0.151828 -0.365066 0 255 0
0.812023 0.358549 -0.486842 0 255 0
0.328177 0.276934 -0.216965 0 255 0
0.271986 -0.363925 -0.303450 0 255 0
0.812023 0.135039 -0.038909 0 255 0
0.548527 -0.199640 -0.544123 0 255 0
0.812023 -0.065585 -0.162392 0 255 0
0.248083 -0.244361 0.185760 153 0 76
-0.707790 0.360552 0.392612 0 255 0
-0.380324 -0.028113 0.517765 127 0 127
0.770418 0.360552 -0.047495 0 255 0
-0.625546 0.117326 0.516344 0 255 0
-0.611345 0.032512 -0.212079 0 255 0
0.399507 0.360552 -0.239908 0 255 0
-0.164112 0.360552 0.463887 0 255 0
-0.179756 0.360552 0.072940 0 255 0
-0.775196 -0.359103 0.415171 0 255 0
0.449121 -0.198101 0.472178 0 255 0
-0.520151 -0.363925 -0.431062 0 255 0
0.090088 0.360552 -0.122955 0 255 0
-0.072660 0.276934 -0.305155 0 255 0
0.203164 0.332342 0.516344 0 255 0
-0.611345 -0.250414 0.296223 0 255 0
-0.020047 -0.244361 -0.178609 153 0 76
0.218434 -0.363925 -0.400434 0 255 0
-0.266627 -0.262156 -0.299485 0 255 0
-0.712108 -0.363925 -0.125840 0 255 0
-0.309345 0.276934 0.487746 0 255 0
0.449121 -0.049993 0.334061 0 255 0
0.013325 -0.287072 0.516344 0 255 0
-0.012497 -0.262156 0.344035 0 255 0
-0.101476 -0.262156 -0.307292 153 0 76
0.276149 -0.363925 0.239587 0 255 0
-0.331579 0.360552 0.113662 0 255 0
-0.685636 0.360552 -0.173455 0 255 0
0.293549 -0.244361 0.186510 153 0 76
-0.611345 -0.004166 0.011682 0 255 0
0.163817 -0.262156 0.191735 0 255 0
-0.504298 0.360552 0.310066 0 255 0
-0.266008 0.359067 -0.544123 0 255 0
0.475105 -0.207966 -0.544123 0 255 0
-0.173716 -0.363925 -0.032244 0 255 0
-0.382568 0.276934 -0.092041 0 255 0
0.009066 0.360552 0.225718 0 255 0
0.812023 0.227707 0.202415 0 255 0
0.115000 0.276934 0.391201 0 255 0
-0.775196 0.015248 0.357351 0 255 0
-0.215166 -0.329044 0.516344 0 255 0
-0.073414 0.276934 -0.235304 0 255 0
0.570095 -0.328623 -0.544123 0 255 0
0.649462 0.276934 -0.367748 0 255 0
-0.066280 -0.244361 -0.263019 153 0 76
0.812023 -0.131093 0.130560 0 255 0
0.449121 0.197492 -0.156657 0 255 0
0.363265 0.360552 -0.310682 0 255 0
-0.775196 -0.092302 0.255005 0 255 0
-0.725295 -0.038148 -0.544123 0 255 0
-0.775196 0.140367 -0.484846 0 255 0
-0.127745 0.229190 -0.544123 0 255 0
0.496480 0.281131 -0.544123 0 255 0
-0.526063 -0.262156 0.353917 0 255 0
0.105520 -0.244361 0.199807 153 0 76
-0.611345 -0.194722 0.035283 0 255 0
-0.093987 -0.262156 -0.253363 0 255 0
-0.053478 0.360552 -0.514653 0 255 0
0.449121 -0.182011 -0.322467 0 255 0
-0.739027 -0.007542 -0.544123 0 255 0
-0.255479 0.276934 0.383863 0 255 0
-0.775196 -0.168422 0.013553 0 255 0
0.406547 -0.138178 -0.544123 0 255 0
-0.494667 0.360552 -0.129378 0 255 0
0.532173 0.360552 0.089733 0 255 0
-0.253235 0.276934 -0.035865 0 255 0
0.298457 -0.244361 -0.012945 153 0 76
0.451557 -0.363925 0.021779 0 255 0
0.195450 0.276934 0.493557 0 255 0
-0.231886 -0.056169 0.517765 127 0 127
-0.119311 -0.363925 0.018862 0 255 0
0.340024 0.276934 -0.259209 0 255 0
-0.611345 -0.029419 -0.324814 0 255 0
-0.345092 -0.322486 0.516344 0 255 0
0.671468 -0.363925 -0.435213 0 255 0
-0.473999 -0.363925 0.430664 0 255 0
-0.403204 0.360552 0.254313 0 255 0
0.628332 -0.156671 -0.544123 0 255 0
0.525045 -0.268949 0.516344 0 255 0
-0.616923 0.317916 -0.544123 0 255 0
0.449121 0.255610 0.156952 0 255 0
-0.591317 -0.262156 0.134525 0 255 0
-0.775196 -0.222087 -0.241077 0 255 0
0.682516 0.078936 0.516344 0 255 0
0.606024 0.063125 -0.544123 0 255 0
-0.353968 0.360552 0.045884 0 255 0
-0.204126 0.360552 -0.361224 0 255 0
0.134528 -0.262156 -0.251305 153 0 76
-0.229084 0.360552 -0.470844 0 255 0
-0.581142 0.360552 -0.175503 0 255 0
-0.775196 0.294233 0.242014 0 255 0
-0.646445 0.335700 -0.544123 0 255 0
-0.126890 -0.188842 0.024272 153 76 0
-0.340373 -0.187059 -0.544123 0 255 0
-0.353208 -0.244361 -0.053854 153 0 76
0.586218 -0.349689 0.516344 0 255 0
0.812023 -0.139820 0.082966 0 255 0
-0.049211 -0.164933 0.032470 153 76 0
0.110699 0.276934 0.172616 0 255 0
0.234414 -0.139936 -0.544123 0 255 0
0.005776 0.276934 0.432726 0 255 0
0.183208 -0.262156 0.301983 0 255 0
-0.491956 -0.262156 0.336905 0 255 0
0.310331 -0.118791 -0.544123 0 255 0
-0.030164 0.360552 0.296483 0 255 0
-0.611345 0.073629 0.325691 0 255 0
-0.255254 -0.268012 0.516344 0 255 0
-0.535378 -0.305714 0.516344 0 255 0
-0.706006 0.360552 0.224124 0 255 0
-0.646995 0.360552 0.426519 0 255 0
0.273016 -0.262156 -0.017833 0 255 0
0.671159 -0.015609 0.516344 0 255 0
-0.038224 0.360552 -0.452878 0 255 0
0.194462 -0.363925 0.490913 0 255 0
0.074952 -0.008357 0.517765 127 0 127
-0.209999 0.360552 -0.422997 0 255 0
-0.611345 -0.154808 -0.321031 0 255 0
0.717887 0.264103 0.516344 0 255 0
-0.775196 0.329258 -0.499143 0 255 0
0.444434 -0.284667 0.516344 0 255 0
-0.054996 -0.222267 -0.544123 0 255 0
0.614864 0.360552 -0.226715 0 255 0
0.072437 -0.310928 -0.544123 0 255 0
-0.312545 -0.262156 0.339636 153 0 76
0.449121 0.167871 0.129914 0 255 0
-0.078416 -0.262156 0.000436 0 255 0
-0.611345 -0.113246 -0.374954 0 255 0
-0.611345 0.002764 -0.319890 0 255 0
0.812023 0.212176 -0.267601 0 255 0
-0.477262 -0.363925 -0.354231 0 255 0
0.143066 0.250999 -0.380272 0 255 0
0.055887 -0.050003 -0.544123 0 255 0
0.764746 0.360552 -0.207550 0 255 0
0.170207 0.245547 0.516344 127 0 127
-0.597650 0.276934 -0.283537 0 255 0
0.225145 -0.363925 -0.483536 0 255 0
0.670106 0.360552 -0.540253 0 255 0
0.064941 0.276934 0.153419 0 255 0
-0.123847 0.276934 -0.232434 0 255 0
-0.611345 0.204783 0.341983 0 255 0
0.058142 -0.244361 -0.295628 153 0 76
0.113869 -0.244361 0.257990 153 0 76
0.187150 0.360552 0.184737 0 255 0
-0.611345 0.108051 -0.197884 0 255 0
-0.339997 0.276934 -0.132179 0 255 0
-0.053820 0.360552 0.219833 0 255 0
-0.433173 -0.262156 0.188667 0 255 0
0.086828 0.360552 -0.422540 0 255 0
0.812023 0.161675 -0.275085 0 255 0
-0.775196 0.061206 0.488381 0 255 0
0.558156 0.276934 -0.071988 0 255 0
0.450672 0.360552 -0.147886 0 255 0
-0.211177 -0.363925 -0.192150 0 255 0
-0.284076 -0.363925 -0.438902 0 255 0
0.347885 -0.363925 -0.116517 0 255 0
-0.678595 0.051221 0.516344 0 255 0
-0.328991 -0.244361 0.081118 153 0 76
0.065007 0.276934 0.438368 0 255 0
-0.611345 -0.239356 -0.288536 0 255 0
-0.775196 0.201110 0.111465 0 255 0
-0.775196 0.212268 0.194054 0 255 0
0.298572 -0.262156 -0.334435 0 255 0
0.552376 0.360552 0.047249 0 255 0
0.041849 -0.262156 0.266257 0 255 0
0.812023 0.008525 -0.055508 0 255 0
-0.098469 -0.363925 -0.525241 0 255 0
0.160490 0.311234 -0.544123 0 255 0
0.200728 -0.262156 -0.240589 0 255 0
-0.240129 -0.244361 0.010566 153 0 76
-0.238497 -0.363925 -0.176172 0 255 0
0.812023 -0.149344 0.198615 0 255 0
0.405860 0.353741 -0.544123 0 255 0
-0.554878 0.360552 0.417966 0 255 0
-0.775196 0.118987 -0.010252 0 255 0
-0.073678 -0.262156 0.239479 153 0 76
0.054572 0.142916 0.516344 127 0 127
-0.437813 0.276934 0.249418 0 255 0
0.078608 0.276934 -0.057020 0 255 0
-0.266965 0.254844 -0.544123 0 255 0
0.479546 -0.272887 -0.544123 0 255 0
0.288504 -0.244361 0.065155 153 0 76
0.449121 -0.014079 0.307405 0 255 0
-0.246229 -0.363925 -0.073435 0 255 0
-0.039677 0.360552 -0.038225 0 255 0
0.219473 0.276934 0.039845 0 255 0
0.126051 0.360552 -0.489665 0 255 0
0.090057 0.276934 0.115282 0 255 0
0.015968 -0.317006 -0.544123 0 255 0
-0.184098 0.360552 -0.134061 0 255 0
-0.463252 -0.363925 -0.535980 0 255 0
0.812023 0.306856 0.389963 0 255 0
-0.041990 -0.363925 -0.402146 0 255 0
0.366192 -0.000219 -0.380272 0 255 0
0.449121 -0.061196 -0.091788 0 255 0
0.423122 0.276934 -0.326201 0 255 0
0.226278 -0.363925 -0.159850 0 255 0
-0.180612 -0.363925 0.269943 0 255 0
0.812023 0.078218 0.456435 0 255 0
-0.064756 -0.204474 0.027145 153 76 0
-0.291740 0.276934 0.140961 0 255 0
0.449121 -0.107608 0.202067 0 255 0
0.429858 0.360552 0.351650 0 255 0
0.449121 -0.261157 -0.145131 0 255 0
-0.259254 -0.363925 0.022945 0 255 0
-0.344443 0.261136 0.517765 127 0 127
-0.559106 -0.262156 0.168992 0 255 0
0.677022 0.207135 -0.106705 0 255 0
0.735482 -0.363925 -0.019950 0 255 0
-0.717749 -0.363925 -0.243747 0 255 0
-0.141209 -0.244361 -0.299864 153 0 76
0.449121 0.088352 0.367403 0 255 0
0.812023 0.220714 0.141355 0 255 0
-0.303794 0.276934 0.299000 0 255 0
-0.726232 0.360552 0.367699 0 255 0
-0.775196 -0.307305 0.204627 0 255 0
0.733410 0.037065 0.516344 0 255 0
-0.044983 -0.363925 -0.049127 0 255 0
-0.297047 -0.363925 0.038184 0 255 0
-0.748783 -0.101872 -0.544123 0 255 0
0.404416 0.276934 -0.276848 0 255 0
-0.775196 0.096493 -0.396424 0 255 0
-0.201797 -0.163470 -0.380272 0 255 0
-0.309094 -0.012508 -0.380272 0 255 0
0.812023 -0.185647 -0.341943 0 255 0
0.029083 0.276934 -0.329398 0 255 0
0.200794 0.000719 0.517765 127 0 127
0.812023 -0.188414 0.135213 0 255 0
-0.063719 -0.363925 -0.349273 0 255 0
0.436275 0.175372 -0.380272 0 255 0
0.197772 0.276934 -0.198191 0 255 0
-0.598040 -0.262156 -0.163375 0 255 0
-0.087064 -0.214962 0.005646 153 76 0
-0.406623 0.049006 0.517765 127 0 127
0.449121 -0.086871 -0.025411 0 255 0
-0.094616 -0.053103 -0.380272 0 255 0
0.653301 0.269942 -0.544123 0 255 0
0.109289 0.276934 -0.309710 0 255 0
-0.308374 -0.165943 0.516344 127 0 127
0.484835 -0.363925 -0.283095 0 255 0
-0.483855 -0.256873 -0.380272 0 255 0
0.142521 -0.363925 -0.120818 0 255 0
0.534735 -0.363925 -0.431895 0 255 0
-0.568500 0.360552 -0.403636 0 255 0
-0.530747 0.360552 -0.430216 0 255 0
0.428265 0.112590 -0.544123 0 255 0
-0.185785 0.360552 0.311749 0 255 0
0.722079 -0.363925 -0.356008 0 255 0
-0.293476 -0.363925 -0.507648 0 255 0
-0.451037 0.360552 0.362716 0 255 0
0.446421 0.360552 0.002821 0 255 0
-0.201668 0.276934 0.372778 0 255 0
0.112068 -0.262156 0.454770 0 255 0
0.761302 -0.363925 -0.512489 0 255 0
0.406981 -0.262156 0.029191 0 255 0
0.129632 -0.363925 0.302085 0 255 0
-0.034646 -0.363925 -0.166590 0 255 0
0.125584 0.276934 0.144699 0 255 0
0.406973 -0.363925 -0.448085 0 255 0
0.701958 -0.363925 -0.186705 0 255 0
0.017608 -0.244361 -0.110963 153 0 76
-0.465292 -0.262156 0.393142 0 255 0
0.749633 -0.020183 -0.544123 0 255 0
-0.213142 -0.363925 -0.422004 0 255 0
0.248456 -0.262156 -0.086165 0 255 0
-0.589628 0.360552 0.364065 0 255 0
0.406751 -0.335155 0.516344 0 255 0
0.061683 -0.363925 0.327101 0 255 0
0.527928 -0.125341 0.516344 0 255 0
-0.059577 -0.363925 -0.220777 0 255 0
-0.132907 -0.262156 -0.193309 153 0 76
0.790295 0.360552 -0.019332 0 255 0
-0.232310 0.276934 0.492987 0 255 0
-0.611345 0.178184 0.395891 0 255 0
-0.445452 -0.203373 0.517765 127 0 127
0.381915 -0.262156 0.360120 0 255 0
0.449121 -0.114851 0.035236 0 255 0
0.812023 0.053843 -0.204730 0 255 0
-0.235457 -0.363925 -0.365201 0 255 0
-0.474319 0.360552 0.264136 0 255 0
-0.017808 0.139946 0.516344 127 0 127
0.812023 -0.126103 -0.268883 0 255 0
0.256255 -0.363925 0.161014 0 255 0
-0.727327 0.231494 0.516344 0 255 0
0.812023 -0.285997 0.418783 0 255 0
-0.045127 0.276934 0.083274 0 255 0
0.399378 -0.363925 -0.242378 0 255 0
-0.406520 0.199740 -0.544123 0 255 0
0.712447 -0.014953 -0.544123 0 255 0
-0.391945 0.276934 0.228251 0 255 0
-0.072705 0.209025 0.517765 127 0 127
-0.775196 -0.057456 0.286736 0 255 0
-0.473604 0.360552 -0.409561 0 255 0
0.375572 0.360552 -0.065430 0 255 0
-0.491028 0.360552 -0.274040 0 255 0
0.732421 -0.363925 0.393957 0 255 0
-0.396359 0.360552 -0.165942 0 255 0
-0.359770 -0.244361 0.309795 153 0 76
0.812023 0.097722 -0.241442 0 255 0
0.163198 0.276934 0.125330 0 255 0
0.103548 -0.262156 -0.023473 153 0 76
0.812023 0.229192 0.075229 0 255 0
-0.611345 0.005328 0.490472 0 255 0
-0.611345 0.092960 0.043279 0 255 0
-0.775196 -0.149601 0.229310 0 255 0
0.812023 0.274246 0.027231 0 255 0
0.304933 0.360552 0.331096 0 255 0
0.471971 0.014946 -0.544123 0 255 0
-0.775196 -0.158104 0.060506 0 255 0
-0.019825 0.226498 0.516344 127 0 127
0.146913 -0.363925 -0.512851 0 255 0
0.812023 -0.301894 -0.131447 0 255 0
-0.537787 -0.112216 -0.544123 0 255 0
0.449121 0.099696 0.219519 0 255 0
-0.062397 -0.091399 -0.380272 0 255 0
0.449121 0.003899 -0.316561 0 255 0
-0.775196 0.329360 0.208908 0 255 0
-0.775196 -0.302584 -0.294456 0 255 0
0.175790 -0.262156 -0.371779 0 255 0
-0.033906 -0.262156 -0.213439 153 0 76
0.105245 0.276934 0.074254 0 255 0
0.705488 -0.363925 -0.277870 0 255 0
-0.323440 -0.097492 -0.544123 0 255 0
0.809712 0.041546 -0.544123 0 255 0
0.173993 -0.363925 0.339866 0 255 0
0.084322 0.360552 -0.513012 0 255 0
-0.444976 -0.347663 0.516344 0 255 0
0.415054 -0.262156 0.104460 0 255 0
-0.202108 0.360552 -0.542367 0 255 0
0.677022 0.257208 -0.336123 0 255 0
0.606170 0.125748 0.516344 0 255 0
0.542446 -0.092699 0.516344 0 255 0
0.654854 0.360552 -0.237082 0 255 0
-0.775196 0.185863 -0.535892 0 255 0
-0.333508 0.051976 -0.380272 0 255 0
0.301270 0.185358 0.517765 127 0 127
-0.131171 -0.121302 -0.380272 0 255 0
0.012775 0.276934 -0.095422 0 255 0
-0.001568 -0.244361 0.129567 153 0 76
-0.019439 -0.244361 -0.108247 153 0 76
-0.521531 0.107486 0.516344 127 0 127
0.207294 -0.096158 -0.544123 0 255 0
-0.621743 0.360552 -0.131592 0 255 0
-0.217148 -0.244361 -0.052596 153 0 76
0.666586 0.360552 0.243826 0 255 0
-0.678372 -0.238905 -0.544123 0 255 0
-0.611345 -0.030517 0.297593 0 255 0
0.000199 -0.363925 0.248066 0 255 0
0.041948 -0.363925 -0.351961 0 255 0
0.564916 -0.363925 -0.114813 0 255 0
0.565685 0.186367 -0.041854 0 255 0
-0.040325 -0.363925 -0.489169 0 255 0
-0.343008 -0.363925 -0.306675 0 255 0
0.260070 -0.091925 -0.544123 0 255 0
-0.258312 0.056902 0.516344 127 0 127
-0.069078 -0.262156 0.496551 0 255 0
-0.062948 0.276934 0.020525 0 255 0
-0.329027 0.360552 0.367318 0 255 0
0.090739 0.360552 0.426084 0 255 0
0.812023 0.130074 -0.294977 0 255 0
0.812023 -0.018443 -0.412642 0 255 0
-0.685067 0.360552 -0.397537 0 255 0
-0.065585 -0.363925 -0.423838 0 255 0
0.155072 -0.230789 -0.544123 0 255 0
0.611698 -0.056030 0.516344 0 255 0
-0.611345 -0.079675 0.304880 0 255 0
-0.146356 0.360552 0.129211 0 255 0
-0.319266 -0.262156 0.414011 0 255 0
-0.301682 0.276934 -0.119458 0 255 0
0.262406 0.292018 0.516344 0 255 0
0.812023 -0.226545 -0.232158 0 255 0
-0.083490 0.360552 -0.247958 0 255 0
0.812023 0.005877 0.484878 0 255 0
-0.068578 0.360552 0.476286 0 255 0
0.246230 -0.144750 -0.380272 0 255 0
-0.255183 -0.208062 0.517765 127 0 127
0.090746 -0.244361 0.018561 153 0 76
0.690297 -0.273543 0.516344 0 255 0
-0.775196 -0.020439 -0.009811 0 255 0
0.663587 0.210994 0.516344 0 255 0
-0.662303 0.360552 -0.347867 0 255 0
-0.496514 -0.363925 -0.228286 0 255 0
-0.307072 -0.262156 -0.002065 0 255 0
-0.426711 -0.099299 -0.544123 0 255 0
0.449121 0.183534 0.427815 0 255 0
-0.611345 -0.098969 -0.269642 0 255 0
0.748837 -0.355129 0.516344 0 255 0
-0.291014 -0.262156 0.238938 0 255 0
0.677022 0.211688 -0.026074 0 255 0
0.812023 0.232011 -0.461274 0 255 0
-0.611345 0.275113 0.508185 0 255 0
0.460456 0.186367 -0.067388 0 255 0
0.166909 -0.262156 0.337700 0 255 0
0.033042 -0.362901 -0.544123 0 255 0
0.449121 -0.130494 -0.147083 0 255 0
-0.278379 -0.216494 -0.380272 0 255 0
-0.611345 0.160733 0.287803 0 255 0
-0.231948 0.276934 -0.061048 0 255 0
-0.775196 -0.252404 0.264724 0 255 0
-0.042914 -0.262156 0.031550 0 255 0
-0.458242 -0.087824 -0.544123 0 255 0
-0.578893 -0.363925 -0.391315 0 255 0
-0.522774 -0.262156 -0.059450 0 255 0
-0.003071 -0.262156 0.070315 0 255 0
0.449121 -0.095065 0.165960 0 255 0
0.058247 -0.244361 -0.152372 153 0 76
-0.448876 0.276934 -0.155247 0 255 0
-0.579217 0.232403 -0.544123 0 255 0
0.812023 0.260272 -0.051001 0 255 0
-0.393786 0.029745 -0.544123 0 255 0
0.437471 0.276934 0.045360 0 255 0
-0.611345 -0.087184 0.395352 0 255 0
0.534035 0.186367 -0.357776 0 255 0
0.321550 0.276934 -0.015830 0 255 0
-0.775196 -0.297845 0.286391 0 255 0
-0.668908 0.360552 -0.300849 0 255 0
0.089586 0.360552 -0.454046 0 255 0
-0.022249 0.276934 -0.151172 0 255 0
0.812023 0.135447 0.217635 0 255 0
-0.234467 0.195828 0.516344 127 0 127
-0.403863 0.360552 0.188041 0 255 0
0.244630 -0.244361 0.232117 153 0 76
-0.407890 -0.363925 -0.040833 0 255 0
-0.775196 -0.043892 0.479205 0 255 0
0.610036 -0.363925 0.197596 0 255 0
-0.415416 0.360552 -0.089438 0 255 0
0.678040 -0.148518 0.516344 0 255 0
-0.371831 -0.227055 0.516344 127 0 127
0.475283 0.051672 -0.544123 0 255 0
0.696902 -0.363925 -0.374354 0 255 0
0.053016 0.310858 0.516344 0 255 0
-0.609677 -0.262156 0.073510 0 255 0
-0.695288 -0.141029 -0.544123 0 255 0
0.252339 0.235742 0.517765 127 0 127
-0.571552 -0.262156 -0.348887 0 255 0
0.812023 0.251793 -0.098745 0 255 0
0.449121 0.029423 0.182247 0 255 0
-0.031083 -0.039713 -0.380272 0 255 0
-0.020911 0.180318 0.517765 127 0 127
0.505869 -0.363925 -0.343699 0 255 0
0.449121 -0.069273 0.145547 0 255 0
0.371967 0.360552 -0.161194 0 255 0
0.652679 0.163171 0.516344 0 255 0
0.812023 0.357215 -0.311445 0 255 0
0.468509 0.360552 0.290003 0 255 0
0.660448 -0.363925 0.201777 0 255 0
0.015844 -0.262156 0.412801 0 255 0
0.228183 0.360552 0.457232 0 255 0
0.161974 -0.363925 0.152518 0 255 0
-0.691438 0.063766 -0.544123 0 255 0
-0.704067 -0.295145 0.516344 0 255 0
-0.338142 0.360552 -0.104408 0 255 0
0.258106 -0.361152 -0.544123 0 255 0
-0.382839 0.360552 -0.258768 0 255 0
0.346826 -0.262156 0.174817 0 255 0
0.131061 -0.084006 -0.380272 0 255 0
0.306404 0.276934 0.038613 0 255 0
-0.129054 -0.120825 -0.544123 0 255 0
0.380853 -0.262156 0.128799 0 255 0
-0.483786 -0.363925 -0.314151 0 255 0
0.056667 0.250620 -0.380272 0 255 0
0.431913 -0.363925 -0.041963 0 255 0
-0.743448 0.360552 -0.359638 0 255 0
0.449121 0.231565 0.083610 0 255 0
0.445554 0.219003 0.516344 127 0 127
-0.775196 -0.001576 0.403702 0 255 0
-0.049997 0.075306 -0.544123 0 255 0
-0.363194 -0.262156 0.487037 0 255 0
0.691844 -0.363925 0.313134 0 255 0
0.432035 -0.363925 0.075288 0 255 0
-0.611345 0.142133 -0.302590 0 255 0
-0.168281 0.276934 -0.088371 0 255 0
-0.222946 -0.266817 0.516344 0 255 0
0.449121 -0.088506 0.392983 0 255 0
-0.545817 0.360552 -0.165916 0 255 0
-0.385523 0.360552 -0.488670 0 255 0
-0.070070 0.276934 -0.336954 0 255 0
0.031572 0.360552 0.013032 0 255 0
0.144756 0.360552 0.006181 0 255 0
0.270012 -0.262156 -0.197647 0 255 0
-0.053690 -0.363925 0.325886 0 255 0
0.224899 -0.363925 -0.022030 0 255 0
-0.131707 0.190962 0.516344 127 0 127
0.497769 -0.256693 0.516344 0 255 0
-0.023040 0.360552 -0.254166 0 255 0
-0.023158 0.146804 -0.544123 0 255 0
0.812023 -0.239963 -0.455075 0 255 0
-0.611345 0.267633 -0.324777 0 255 0
0.204816 -0.244361 0.266247 153 0 76
-0.018624 -0.244361 -0.001720 153 0 76
-0.611345 -0.241759 0.267625 0 255 0
-0.292269 -0.113203 0.516344 127 0 127
-0.279350 0.319308 -0.544123 0 255 0
0.812023 0.171368 0.243597 0 255 0
0.029140 -0.363925 0.423411 0 255 0
0.148525 0.297312 0.516344 0 255 0
0.580613 0.206090 -0.022080 0 255 0
-0.145336 -0.363925 -0.404653 0 255 0
-0.775196 -0.143114 -0.169100 0 255 0
-0.542779 -0.262156 0.378697 0 255 0
-0.542784 -0.173260 0.516344 127 0 127
-0.487843 -0.006388 -0.544123 0 255 0
-0.028364 0.113244 -0.380272 0 255 0
0.209460 -0.363925 0.155325 0 255 0
0.812023 0.256261 0.262550 0 255 0
-0.397316 0.276934 -0.004528 0 255 0
-0.230920 -0.262156 -0.087479 153 0 76
0.134607 -0.262156 0.285717 153 0 76
0.812023 0.129396 -0.151760 0 255 0
0.231568 -0.009650 -0.380272 0 255 0
-0.651274 0.247919 0.516344 0 255 0
-0.775196 -0.106448 0.195094 0 255 0
0.367190 0.180143 -0.544123 0 255 0
-0.577925 0.099601 0.517765 127 0 127
-0.775196 -0.061233 -0.384270 0 255 0
0.386160 -0.363925 0.503285 0 255 0
-0.280530 -0.262156 0.100686 153 0 76
-0.611345 -0.206254 0.217641 0 255 0
0.319058 0.276934 0.066808 0 255 0
0.390469 0.360552 0.048985 0 255 0
-0.775196 -0.133061 -0.112778 0 255 0
0.071311 -0.363925 0.197916 0 255 0
-0.102310 -0.262156 -0.193271 153 0 76
0.000580 -0.211894 -0.380272 0 255 0
0.443385 -0.340252 0.516344 0 255 0
0.687186 -0.363925 0.049147 0 255 0
-0.594875 -0.363925 -0.063223 0 255 0
-0.611345 0.219769 0.091745 0 255 0
0.131062 -0.262156 -0.351043 0 255 0
-0.218870 -0.262156 -0.282874 0 255 0
-0.756098 -0.363925 -0.389035 0 255 0
-0.279992 -0.363925 0.237031 0 255 0
-0.594789 -0.262156 0.388160 0 255 0
0.213915 0.191623 -0.544123 0 255 0
0.812023 0.320002 -0.453074 0 255 0
-0.611345 0.182482 -0.335680 0 255 0
-0.775196 -0.140642 0.385291 0 255 0
-0.517692 -0.060117 -0.544123 0 255 0
-0.719965 -0.363925 0.325829 0 255 0
0.555735 0.165266 -0.544123 0 255 0
0.449121 -0.104005 -0.216960 0 255 0
-0.195734 -0.244361 0.133755 153 0 76
0.564714 0.186367 -0.086333 0 255 0
-0.513454 -0.363925 0.307976 0 255 0
0.411244 0.360552 0.506902 0 255 0
-0.022330 -0.089776 -0.380272 0 255 0
0.812023 -0.013036 0.098056 0 255 0
0.727461 0.360552 -0.123161 0 255 0
0.392372 -0.122255 0.517765 127 0 127
0.521819 -0.363925 0.433472 0 255 0
0.377084 0.230132 -0.380272 0 255 0
0.180049 -0.262156 0.467091 0 255 0
-0.076846 -0.204526 0.127224 153 76 0
-0.312441 -0.262156 0.307163 0 255 0
-0.227253 0.360552 -0.018122 0 255 0
-0.618714 0.197853 0.516344 0 255 0
0.812023 -0.303030 0.120770 0 255 0
-0.512874 -0.262156 0.151030 0 255 0
-0.067298 -0.363925 -0.168582 0 255 0
-0.181115 -0.363925 0.421161 0 255 0
-0.152115 0.263816 -0.380272 0 255 0
-0.517966 0.360552 -0.351372 0 255 0
-0.064906 -0.244361 -0.126010 153 0 76
-0.162600 -0.256328 -0.316570 153 0 76
0.782601 -0.363925 -0.265326 0 255 0
0.185280 -0.262156 -0.267344 0 255 0
-0.011621 0.006077 0.516344 127 0 127
-0.090429 -0.220457 0.516344 127 0 127
-0.291252 -0.070743 -0.544123 0 255 0
-0.267308 -0.363925 -0.251665 0 255 0
0.445403 -0.075659 -0.544123 0 255 0
-0.291021 0.021156 -0.544123 0 255 0
-0.749579 -0.363925 -0.295817 0 255 0
0.449121 0.199739 -0.315589 0 255 0
-0.407990 -0.237986 0.517765 127 0 127
-0.488475 -0.262156 0.437924 0 255 0
-0.611345 -0.206339 -0.255012 0 255 0
-0.763184 0.020693 0.516344 0 255 0
0.286915 -0.363925 -0.494660 0 255 0
0.812023 -0.359061 -0.191115 0 255 0
0.255584 0.276934 -0.190782 0 255 0
-0.100589 -0.165279 0.025492 153 76 0
0.693189 -0.234793 -0.544123 0 255 0
0.334429 -0.262156 0.363773 0 255 0
0.736196 -0.164799 0.516344 0 255 0
-0.586457 -0.363925 0.166645 0 255 0
0.249404 0.214911 -0.544123 0 255 0
-0.443533 0.127947 -0.380272 0 255 0
-0.322775 0.276934 -0.372825 0 255 0
-0.313963 -0.019621 0.517765 127 0 127
0.606452 -0.363925 -0.028223 0 255 0
0.590020 -0.363925 -0.077437 0 255 0
-0.611345 0.200912 0.275432 0 255 0
0.812023 -0.070129 0.165620 0 255 0
-0.406050 -0.244361 0.114805 153 0 76
0.190564 0.129842 -0.380272 0 255 0
-0.131352 -0.244361 0.229319 153 0 76
-0.248410 0.299859 0.516344 0 255 0
-0.404558 0.276934 0.451875 0 255 0
-0.340903 -0.363925 -0.493209 0 255 0
0.081535 0.288228 -0.544123 0 255 0
0.565703 -0.363925 0.328152 0 255 0
-0.171803 -0.363925 -0.427360 0 255 0
0.488074 0.360552 -0.186352 0 255 0
0.812023 0.045113 -0.263972 0 255 0
-0.775196 -0.319161 0.373764 0 255 0
-0.775196 -0.201883 -0.358731 0 255 0
-0.775196 0.220266 -0.460124 0 255 0
0.262921 0.360552 -0.268111 0 255 0
0.066555 0.276934 -0.266610 0 255 0
-0.594307 -0.363925 0.374017 0 255 0
-0.030037 0.276934 0.479393 0 255 0
-0.044431 -0.005144 -0.380272 0 255 0
-0.461501 -0.262156 0.281880 0 255 0
-0.082637 -0.244361 -0.292201 153 0 76
0.402237 0.024633 -0.380272 0 255 0
0.712759 -0.363925 0.484813 0 255 0
0.355394 -0.030252 -0.544123 0 255 0
0.011835 -0.244361 -0.066646 153 0 76
-0.318663 -0.283510 -0.544123 0 255 0
0.515359 -0.353020 0.516344 0 255 0
0.149675 -0.363925 -0.285090 0 255 0
0.296879 0.323379 -0.544123 0 255 0
0.162661 -0.244361 -0.031770 153 0 76
-0.101417 0.072247 -0.544123 0 255 0
-0.542282 0.276934 -0.022217 0 255 0
0.140679 -0.200903 0.516344 127 0 127
0.467527 -0.363925 0.101408 0 255 0
0.677022 0.217296 -0.317770 0 255 0
-0.118532 0.360552 -0.470926 0 255 0
-0.775196 0.269712 0.316665 0 255 0
-0.442385 -0.262156 -0.181737 0 255 0
0.189306 -0.244361 0.052857 153 0 76
-0.602684 -0.324919 0.516344 0 255 0
-0.068665 -0.262156 0.118060 153 0 76
0.449121 -0.112374 -0.004306 0 255 0
-0.775196 -0.012715 -0.194156 0 255 0
-0.611345 0.085262 -0.285651 0 255 0
0.098271 0.360552 0.329910 0 255 0
0.449121 0.133158 -0.243455 0 255 0
0.507085 0.104678 0.516344 0 255 0
-0.632065 0.253569 -0.544123 0 255 0
-0.611345 -0.244515 -0.345552 0 255 0
0.424093 0.007864 0.549548 0 127 127
-0.123915 0.276934 -0.202106 0 255 0
0.342993 -0.363925 -0.148354 0 255 0
0.512535 0.360552 -0.005237 0 255 0
0.052358 0.276934 0.207149 0 255 0
-0.699868 0.360552 0.334560 0 255 0
0.079596 -0.244361 0.259095 153 0 76
-0.716053 -0.078109 -0.544123 0 255 0
-0.016356 0.169310 -0.380272 0 255 0
-0.481104 0.360552 -0.190952 0 255 0
0.096197 0.276934 -0.351159 0 255 0
0.768533 0.360552 0.109379 0 255 0
0.812023 -0.234998 0.223573 0 255 0
-0.606982 0.276934 -0.090560 0 255 0
0.373516 0.360552 0.268417 0 255 0
0.319979 0.223113 -0.544123 0 255 0
0.065661 -0.363925 0.469532 0 255 0
-0.611345 0.033977 0.424395 0 255 0
0.288424 -0.262156 -0.051098 153 0 76
0.232027 -0.344786 -0.544123 0 255 0
0.449121 -0.105535 0.321929 0 255 0
-0.611193 -0.363925 0.147172 0 255 0
0.812023 -0.226868 0.136888 0 255 0
0.629292 0.360552 0.229159 0 255 0
0.812023 0.093751 0.291845 0 255 0
-0.611345 0.273939 0.209259 0 255 0
0.748029 -0.363925 0.209489 0 255 0
0.124860 -0.033534 -0.380272 0 255 0
0.449121 -0.025677 0.490429 0 255 0
0.362382 -0.111240 -0.380272 0 255 0
0.449121 -0.205302 0.057736 0 255 0
-0.589075 -0.363925 -0.151463 0 255 0
0.810411 0.190640 0.516344 0 255 0
0.635184 0.360552 -0.033548 0 255 0
-0.775196 0.244706 0.359441 0 255 0
0.255517 0.360552 -0.488514 0 255 0
-0.415012 -0.262156 -0.135028 0 255 0
-0.775196 -0.114655 0.007714 0 255 0
-0.423430 -0.146818 -0.380272 0 255 0
-0.350107 -0.363925 0.147958 0 255 0
-0.493156 -0.262156 0.094229 0 255 0
0.653504 0.296632 0.516344 0 255 0
-0.128036 0.360552 0.358888 0 255 0
-0.425176 -0.244361 0.079224 153 0 76
-0.704695 -0.363925 0.000087 0 255 0
-0.450375 0.360552 0.198353 0 255 0
0.660171 0.360552 0.174229 0 255 0
0.377187 -0.087071 -0.544123 0 255 0
-0.121721 -0.244361 -0.242337 153 0 76
0.478852 0.186367 -0.179715 0 255 0
-0.599195 -0.262156 0.219154 0 255 0
0.812023 0.025191 0.036699 0 255 0
-0.600373 0.073553 -0.544123 0 255 0
-0.276444 0.276934 0.081462 0 255 0
-0.191876 0.276934 -0.000137 0 255 0
0.490997 0.276934 -0.340005 0 255 0
0.246687 -0.363925 -0.123324 0 255 0
0.105852 -0.279742 0.516344 0 255 0
0.315399 -0.134686 0.516344 127 0 127
-0.404332 -0.175346 -0.544123 0 255 0
0.341962 -0.262156 0.105811 0 255 0
-0.146590 -0.262156 0.143575 0 255 0
0.047338 0.360552 -0.061236 0 255 0
-0.319688 0.360552 -0.214439 0 255 0
-0.305763 0.276934 0.344887 0 255 0
0.600540 -0.221001 -0.544123 0 255 0
0.618245 0.001993 0.516344 0 255 0
0.507002 0.360552 0.492800 0 255 0
0.036958 0.145098 -0.380272 0 255 0
-0.090776 0.269366 0.516344 127 0 127
-0.775196 -0.073190 0.218145 0 255 0
-0.775196 0.157449 -0.284381 0 255 0
0.435963 -0.118540 -0.544123 0 255 0
-0.143046 -0.191563 0.516344 127 0 127
-0.775196 -0.113757 0.396736 0 255 0
0.396452 0.216716 0.516344 127 0 127
0.107055 -0.177327 0.517765 127 0 127
-0.164371 -0.244361 0.278914 153 0 76
-0.268842 -0.363925 -0.207438 0 255 0
-0.611345 0.223935 0.149591 0 255 0
-0.396750 -0.044218 -0.544123 0 255 0
0.096762 -0.363925 0.051086 0 255 0
-0.185348 -0.363925 -0.206260 0 255 0
0.752584 -0.363925 -0.396474 0 255 0
-0.611345 0.124063 0.409596 0 255 0
0.630748 -0.363925 -0.356788 0 255 0
0.812023 0.014487 -0.436984 0 255 0
-0.775196 0.055678 -0.068741 0 255 0
-0.775196 0.109714 -0.145385 0 255 0
-0.148041 -0.244361 -0.139409 153 0 76
-0.220037 -0.098359 -0.544123 0 255 0
-0.459926 0.085140 0.516344 127 0 127
0.526348 0.360552 0.168359 0 255 0
0.232529 0.276934 0.495894 0 255 0
0.222860 -0.262156 0.473365 0 255 0
-0.271669 -0.363925 0.416559 0 255 0
-0.188874 -0.363925 0.183518 0 255 0
-0.464549 0.099108 -0.380272 0 255 0
-0.008462 0.276934 0.130588 0 255 0
-0.406112 -0.245142 0.289225 153 0 76
-0.775196 0.016752 0.279002 0 255 0
-0.362670 0.093936 0.516344 127 0 127
0.099890 -0.345581 0.516344 0 255 0
-0.575111 -0.363925 -0.194063 0 255 0
0.449121 -0.035403 0.092998 0 255 0
0.558860 -0.363925 0.168146 0 255 0
0.036566 -0.363925 -0.513186 0 255 0
0.802599 -0.363925 0.489678 0 255 0
0.129495 -0.363925 0.454578 0 255 0
-0.254973 0.273847 -0.380272 0 255 0
-0.599058 0.227890 0.516344 127 0 127
-0.185531 0.360552 -0.397428 0 255 0
-0.511862 0.289096 0.516344 0 255 0
0.102455 -0.363925 -0.518566 0 255 0
-0.263027 0.276934 0.300238 0 255 0
-0.571471 -0.363925 0.205478 0 255 0
0.359072 -0.262156 -0.058592 0 255 0
-0.670626 -0.264962 0.516344 0 255 0
-0.118576 0.276934 -0.349923 0 255 0
-0.611345 0.063482 0.130706 0 255 0
-0.620568 -0.363925 -0.076795 0 255 0
0.550305 0.360552 -0.193468 0 255 0
-0.337659 0.025701 -0.544123 0 255 0
-0.666224 -0.363925 -0.260936 0 255 0
0.031457 -0.262156 -0.161093 0 255 0
0.449121 0.168004 0.078865 0 255 0
0.307426 0.239784 -0.380272 0 255 0
0.449121 -0.088221 -0.273466 0 255 0
0.200558 0.360552 0.091324 0 255 0
0.621199 0.161850 0.516344 0 255 0
0.036884 -0.190833 -0.380272 0 255 0
-0.775196 0.289940 -0.532714 0 255 0
0.588358 0.230811 -0.544123 0 255 0
0.495166 -0.028078 0.516344 0 255 0
-0.165377 0.360552 -0.064389 0 255 0
0.449121 -0.172696 0.228011 0 255 0
0.155844 -0.363925 -0.252234 0 255 0
0.090263 -0.363925 0.418823 0 255 0
-0.411952 -0.244361 -0.032077 153 0 76
-0.159056 -0.262156 -0.086184 0 255 0
0.558037 0.360552 -0.424771 0 255 0
0.005762 0.360552 0.335134 0 255 0
0.753373 0.360552 0.137879 0 255 0
-0.611345 0.027084 0.043122 0 255 0
-0.695781 -0.363925 0.176179 0 255 0
-0.674389 -0.363925 -0.457165 0 255 0
-0.203945 -0.262156 -0.133184 0 255 0
0.346870 -0.262156 -0.020516 0 255 0
-0.204972 0.360552 0.374211 0 255 0
-0.775196 0.006386 -0.408669 0 255 0
-0.541613 -0.363925 0.156236 0 255 0
0.001738 0.116360 -0.380272 0 255 0
0.139685 -0.262156 0.210595 153 0 76
0.600680 0.276934 -0.080569 0 255 0
-0.775196 0.242076 -0.137481 0 255 0
0.020962 0.276934 -0.020114 0 255 0
0.517158 0.360552 -0.434467 0 255 0
-0.050956 -0.144404 0.086336 153 76 0
0.234306 0.360552 0.169139 0 255 0
-0.247693 0.276934 0.162915 0 255 0
-0.775196 0.132741 0.137489 0 255 0
0.267709 0.360552 -0.184671 0 255 0
0.473962 0.186367 -0.225827 0 255 0
-0.641111 -0.105884 0.516344 0 255 0
0.405641 0.360552 -0.123420 0 255 0
-0.204966 -0.017147 0.517765 127 0 127
0.449121 0.143475 0.272201 0 255 0
0.812023 -0.143132 -0.324100 0 255 0
0.217103 0.276934 -0.061504 0 255 0
-0.106313 0.276934 0.339236 0 255 0
-0.342815 -0.363925 0.243279 0 255 0
0.412656 0.156198 -0.544123 0 255 0
0.142710 -0.262156 -0.218089 153 0 76
-0.583083 0.276934 0.138170 0 255 0
-0.461587 0.262297 0.516344 127 0 127
0.812023 0.035195 0.385718 0 255 0
0.810553 -0.267676 -0.544123 0 255 0
0.425097 -0.195958 -0.380272 0 255 0
0.109702 -0.262156 -0.170536 153 0 76
0.449121 0.113469 0.039096 0 255 0
-0.582291 -0.262156 0.335174 0 255 0
-0.052469 -0.223637 0.056207 153 76 0
-0.020816 0.276934 0.372013 0 255 0
-0.324835 0.360552 -0.251125 0 255 0
0.367371 0.360552 0.332944 0 255 0
-0.189593 -0.262156 -0.280631 0 255 0
-0.775196 -0.237114 0.327014 0 255 0
-0.524487 0.044024 -0.380272 0 255 0
0.168522 -0.244361 0.142364 153 0 76
0.323044 0.360552 -0.228457 0 255 0
-0.214065 0.360552 0.437813 0 255 0
-0.218003 -0.244361 0.321135 153 0 76
0.178437 -0.182789 -0.544123 0 255 0
-0.297384 -0.363925 0.458100 0 255 0
0.449121 0.165004 0.224119 0 255 0
-0.035627 -0.173907 0.122312 153 76 0
0.156806 0.360552 -0.183420 0 255 0
-0.502706 -0.363925 0.102818 0 255 0
0.397787 -0.363925 -0.311085 0 255 0
-0.579222 0.276934 0.054145 0 255 0
0.097972 -0.262156 0.125189 0 255 0
0.810774 -0.363925 -0.088584 0 255 0
-0.775196 0.250829 0.489563 0 255 0
-0.775196 -0.085750 0.421907 0 255 0
0.145133 -0.244361 -0.147824 153 0 76
-0.113207 -0.262156 0.373847 153 0 76
-0.047010 0.276934 0.336066 0 255 0
0.409898 0.276934 -0.351755 0 255 0
-0.606543 -0.262156 0.024859 0 255 0
0.449121 0.211521 0.332572 0 255 0
-0.241306 -0.244361 0.146558 153 0 76
-0.611345 -0.026485 -0.058772 0 255 0
-0.775196 -0.332324 -0.085969 0 255 0
0.420044 -0.363925 0.014207 0 255 0
0.129189 -0.180176 -0.380272 0 255 0
0.706683 0.360552 -0.068542 0 255 0
0.410493 -0.262156 -0.351211 0 255 0
0.496658 -0.363925 -0.150858 0 255 0
0.438319 -0.363925 0.290398 0 255 0
0.229508 0.333470 -0.544123 0 255 0
0.244869 -0.177645 -0.544123 0 255 0
0.342126 -0.194859 -0.380272 0 255 0
0.082636 0.360552 0.170730 0 255 0
-0.772744 -0.096623 0.516344 0 255 0
-0.058831 -0.196464 0.104794 153 76 0
0.812023 -0.006571 -0.524394 0 255 0
0.075215 -0.076838 -0.380272 0 255 0
0.449121 0.227801 0.438951 0 255 0
0.599611 0.360552 -0.389982 0 255 0
-0.042589 -0.262156 -0.351564 0 255 0
0.143331 0.360552 0.323330 0 255 0
0.394231 0.076777 -0.544123 0 255 0
-0.193509 -0.161120 -0.544123 0 255 0
-0.611345 0.071512 -0.310829 0 255 0
-0.611345 0.206201 0.417273 0 255 0
-0.154676 0.276934 0.200164 0 255 0
-0.176153 -0.150621 -0.380272 0 255 0
-0.544771 -0.363925 0.310077 0 255 0
0.679997 0.360552 0.096522 0 255 0
0.536227 0.186367 -0.096636 0 255 0
-0.632251 -0.363925 -0.403942 0 255 0
-0.227212 -0.363925 -0.237740 0 255 0
0.094147 -0.262156 -0.233126 153 0 76
-0.457139 -0.106094 -0.380272 0 255 0
-0.451066 -0.363925 0.487001 0 255 0
0.426297 -0.158948 -0.544123 0 255 0
-0.775196 -0.356589 0.318250 0 255 0
-0.186792 -0.244361 -0.211834 153 0 76
0.153816 0.227001 -0.544123 0 255 0
-0.154042 0.276934 0.359192 0 255 0
0.333719 -0.363925 -0.287426 0 255 0
0.731477 0.360552 -0.441727 0 255 0
0.006153 0.276934 0.084140 0 255 0
-0.091708 -0.262156 -0.040945 153 0 76
-0.324585 0.360552 0.310494 0 255 0
-0.154836 0.018188 0.517765 127 0 127
0.477712 0.276934 -0.282329 0 255 0
0.033962 -0.244361 -0.252911 153 0 76
0.664703 -0.127790 -0.544123 0 255 0
0.704273 0.360552 0.453936 0 255 0
0.077309 0.360552 0.365500 0 255 0
0.194938 -0.363925 -0.320760 0 255 0
0.179176 -0.279734 0.516344 0 255 0
-0.045151 0.276934 -0.112208 0 255 0
-0.190924 0.360552 -0.224212 0 255 0
0.812023 0.104148 0.514799 0 255 0
0.672006 0.139652 0.516344 0 255 0
0.130373 0.195682 -0.380272 0 255 0
0.411857 -0.262156 -0.008363 0 255 0
0.546689 -0.363925 -0.011663 0 255 0
-0.634059 0.360552 -0.352058 0 255 0
-0.407728 -0.262156 0.024356 0 255 0
-0.775196 -0.239302 -0.041287 0 255 0
-0.139757 0.360552 -0.168368 0 255 0
0.009674 0.276934 0.226929 0 255 0
0.384582 -0.223289 -0.544123 0 255 0
0.812023 -0.343647 -0.012551 0 255 0
-0.254797 0.276934 -0.212426 0 255 0
0.449121 -0.149812 0.294271 0 255 0
0.636327 0.360552 0.377714 0 255 0
0.073159 0.360552 -0.328764 0 255 0
-0.387222 -0.363925 -0.013912 0 255 0
0.125219 -0.115021 -0.380272 0 255 0
-0.120190 -0.184011 -0.380272 0 255 0
0.389895 0.122313 0.516344 127 0 127
-0.775196 -0.032540 0.061704 0 255 0
0.414532 -0.062014 0.516344 127 0 127
-0.572633 -0.363925 -0.115198 0 255 0
-0.416849 0.253360 0.517765 127 0 127
0.411765 -0.363925 -0.094940 0 255 0
0.787140 -0.216265 0.516344 0 255 0
0.137309 0.276934 0.078783 0 255 0
0.295469 -0.363925 -0.448364 0 255 0
-0.775196 -0.194768 -0.107614 0 255 0
0.299164 -0.244361 0.028565 153 0 76
0.309385 0.360552 -0.160333 0 255 0
-0.566464 0.126664 0.517765 127 0 127
-0.246507 -0.363925 0.484877 0 255 0
-0.654519 -0.331087 0.516344 0 255 0
0.140830 -0.363925 0.236131 0 255 0
-0.768705 0.360552 -0.098855 0 255 0
0.377177 0.276934 0.200544 0 255 0
0.002805 -0.363925 -0.189385 0 255 0
0.080985 -0.244361 0.105601 153 0 76
-0.775196 0.124309 0.389471 0 255 0
-0.670099 0.009472 -0.544123 0 255 0
-0.306733 0.330166 0.516344 0 255 0
-0.473977 0.276934 0.390097 0 255 0
-0.675888 -0.363925 0.383577 0 255 0
0.077047 -0.291092 0.516344 0 255 0
0.140403 -0.363925 -0.214906 0 255 0
0.117095 0.135902 0.516344 127 0 127
0.423041 -0.262156 0.300377 0 255 0
0.140218 -0.262156 -0.309952 0 255 0
0.226335 -0.363925 -0.353175 0 255 0
-0.113549 -0.028281 -0.544123 0 255 0
-0.154759 0.360552 0.286924 0 255 0
0.449121 0.201181 -0.126149 0 255 0
-0.279073 0.360552 0.088097 0 255 0
-0.654431 0.360552 0.355740 0 255 0
0.112910 -0.262156 0.019267 153 0 76
0.449121 0.268214 0.219049 0 255 0
0.812023 -0.350019 0.250154 0 255 0
-0.630201 0.360552 0.316336 0 255 0
-0.022656 -0.363925 0.225428 0 255 0
-0.506560 -0.363925 -0.037019 0 255 0
0.812023 -0.012184 0.386523 0 255 0
0.812023 -0.130544 -0.096969 0 255 0
0.339028 0.360552 0.045090 0 255 0
0.812023 0.306700 0.303500 0 255 0
-0.102904 -0.165449 0.067299 153 76 0
-0.690796 0.193550 -0.544123 0 255 0
-0.661272 -0.363925 -0.121331 0 255 0
0.238737 -0.363925 -0.062017 0 255 0
-0.451369 -0.262156 0.480959 0 255 0
-0.001504 -0.363925 -0.042764 0 255 0
-0.241216 -0.244361 0.283675 153 0 76
-0.511524 0.276934 -0.176684 0 255 0
0.190620 -0.244361 -0.022257 153 0 76
0.449121 -0.067229 0.242395 0 255 0
-0.084406 0.350395 -0.544123 0 255 0
-0.510732 0.203673 0.517765 127 0 127
-0.060392 0.282904 0.516344 0 255 0
0.009652 0.202561 0.517765 127 0 127
0.812023 0.328529 -0.015756 0 255 0
0.033824 0.276934 0.251875 0 255 0
-0.130918 0.265031 -0.544123 0 255 0
-0.609198 -0.123382 0.517765 127 0 127
-0.752906 -0.149621 -0.544123 0 255 0
-0.281102 -0.262156 -0.026510 0 255 0
-0.178682 0.223724 -0.380272 0 255 0
0.695851 0.360552 0.355445 0 255 0
0.155969 0.276934 0.342561 0 255 0
-0.611345 0.243337 -0.244775 0 255 0
0.047097 -0.262156 -0.206528 0 255 0
-0.120839 0.360552 -0.313542 0 255 0
-0.417832 0.050171 -0.544123 0 255 0
-0.196993 0.276934 -0.336053 0 255 0
0.812023 -0.317162 -0.544088 0 255 0
0.481036 -0.106524 0.516344 0 255 0
-0.611345 -0.239056 -0.032434 0 255 0
0.506146 0.186367 -0.052023 0 255 0
-0.457234 0.120223 0.516344 127 0 127
-0.167438 -0.244361 0.092829 153 0 76
0.057986 0.360552 -0.014328 0 255 0
-0.383856 -0.363925 0.309437 0 255 0
-0.278414 -0.363925 -0.385275 0 255 0
0.202881 -0.244361 0.237994 153 0 76
0.154650 0.360552 0.280877 0 255 0
0.647014 0.360552 -0.496573 0 255 0
0.449121 -0.199980 -0.052337 0 255 0
-0.019277 -0.262156 0.487619 0 255 0
0.368629 0.276934 0.417761 0 255 0
0.096759 0.360552 0.079740 0 255 0
-0.367656 0.360552 0.293201 0 255 0
-0.611345 0.217483 0.483522 0 255 0
0.249093 -0.016303 -0.544123 0 255 0
-0.031766 -0.223637 0.081748 153 76 0
0.160346 0.360552 -0.463932 0 255 0
-0.171855 0.360552 0.340826 0 255 0
0.314969 0.360552 0.494392 0 255 0
0.702207 0.360552 -0.145335 0 255 0
0.257696 -0.099864 -0.380272 0 255 0
-0.668947 -0.197426 0.516344 0 255 0
0.449121 -0.175505 0.129695 0 255 0
-0.263231 -0.363925 -0.026513 0 255 0
0.345657 -0.363925 0.179208 0 255 0
0.323086 -0.219731 -0.544123 0 255 0
-0.378306 -0.262156 0.053415 153 0 76
-0.452709 -0.363925 0.380619 0 255 0
0.015822 0.139133 0.517765 127 0 127
-0.458553 -0.146685 -0.544123 0 255 0
0.206781 -0.363925 0.388471 0 255 0
-0.039332 -0.244361 0.390417 153 0 76
-0.048424 -0.244361 0.170761 153 0 76
0.570048 0.360552 0.025236 0 255 0
0.449121 -0.105881 0.351806 0 255 0
0.273700 -0.363925 0.369227 0 255 0
0.360488 0.134722 -0.544123 0 255 0
0.812023 0.354661 0.042982 0 255 0
0.682257 -0.102019 0.516344 0 255 0
-0.736255 0.178488 0.516344 0 255 0
0.554931 0.096380 0.516344 0 255 0
-0.543286 -0.363925 0.356432 0 255 0
-0.272650 -0.262156 -0.072367 153 0 76
-0.037862 0.020363 -0.544123 0 255 0
-0.084848 0.276934 -0.163803 0 255 0
0.156224 -0.258990 -0.544123 0 255 0
0.449121 0.107876 0.387742 0 255 0
-0.496030 -0.262156 -0.086494 0 255 0
0.433801 -0.363925 -0.339794 0 255 0
-0.197632 -0.262156 -0.035087 153 0 76
0.507217 0.360552 0.455385 0 255 0
-0.078929 -0.244361 -0.236281 153 0 76
-0.460351 0.276934 0.266341 0 255 0
-0.393116 0.100598 0.516344 127 0 127
0.337397 -0.079457 0.516344 127 0 127
0.202363 0.085858 -0.380272 0 255 0
-0.103716 0.276934 0.203213 0 255 0
-0.552011 0.360552 -0.482944 0 255 0
0.234435 0.276934 0.411606 0 255 0
0.534057 -0.363925 -0.098678 0 255 0
0.640709 0.186367 -0.104746 0 255 0
0.513114 0.128750 -0.544123 0 255 0
0.812023 0.268021 0.399163 0 255 0
-0.775196 -0.331522 0.477812 0 255 0
-0.155407 -0.244361 0.320919 153 0 76
0.353913 0.276934 0.245712 0 255 0
-0.697619 0.360552 -0.471397 0 255 0
-0.639024 0.360552 -0.100830 0 255 0
-0.274548 -0.176715 -0.544123 0 255 0
-0.225672 0.217618 -0.380272 0 255 0
-0.594410 -0.147919 -0.380272 0 255 0
0.144887 -0.363925 0.366490 0 255 0
0.073270 0.276934 0.466392 0 255 0
0.440426 0.276934 0.400989 0 255 0
-0.045251 0.322217 -0.544123 0 255 0
0.449121 -0.124162 0.149065 0 255 0
0.049816 -0.244361 0.360840 153 0 76
0.449121 0.066143 0.178339 0 255 0
0.149970 -0.347207 0.516344 0 255 0
0.445895 0.276934 -0.062356 0 255 0
0.189537 -0.363925 -0.520017 0 255 0
0.812023 0.153181 0.481542 0 255 0
-0.611345 -0.100989 0.286533 0 255 0
0.431187 0.360552 0.111704 0 255 0
-0.414616 -0.262156 -0.236466 0 255 0
0.365871 -0.262156 -0.231655 0 255 0
-0.442681 0.276934 0.460095 0 255 0
0.295884 0.360552 -0.512163 0 255 0
0.652478 0.096175 0.516344 0 255 0
-0.182744 0.276934 -0.146113 0 255 0
0.373111 0.268745 0.516344 127 0 127
-0.611345 0.097407 -0.088784 0 255 0
-0.596236 0.155113 0.517765 127 0 127
0.812023 0.059930 -0.522976 0 255 0
0.812023 -0.330496 -0.377486 0 255 0
0.425808 -0.262156 -0.222246 0 255 0
-0.077860 0.033059 -0.380272 0 255 0
-0.775196 -0.346842 0.501960 0 255 0
-0.775196 -0.222356 -0.396793 0 255 0
-0.230092 -0.223726 -0.380272 0 255 0
-0.258410 0.360552 0.480363 0 255 0
0.213720 -0.055951 -0.380272 0 255 0
-0.775196 -0.216917 0.110477 0 255 0
-0.775196 -0.132482 0.329880 0 255 0
-0.159797 0.360552 -0.024490 0 255 0
0.135199 -0.226334 -0.380272 0 255 0
-0.611345 -0.198061 0.244453 0 255 0
0.057462 -0.244361 -0.041253 153 0 76
-0.146554 0.276934 0.154275 0 255 0
-0.743304 -0.216867 -0.544123 0 255 0
0.310931 -0.310820 -0.544123 0 255 0
-0.553647 0.276934 0.398521 0 255 0
0.449121 0.241028 0.349628 0 255 0
0.078847 -0.244361 0.228434 153 0 76
0.812023 -0.078361 -0.027333 0 255 0
0.139509 -0.262156 0.065169 153 0 76
0.008584 0.276934 -0.142117 0 255 0
0.039030 -0.262156 -0.113883 0 255 0
-0.775196 -0.165278 -0.336284 0 255 0
-0.369284 0.276934 -0.116687 0 255 0
-0.775196 -0.158018 -0.477826 0 255 0
0.477820 0.360552 -0.444051 0 255 0
-0.611345 -0.024186 -0.105922 0 255 0
-0.160159 -0.270208 -0.544123 0 255 0
0.434372 -0.262156 0.466351 0 255 0
-0.486544 -0.262156 0.139696 0 255 0
-0.716128 -0.363925 -0.392311 0 255 0
0.410866 0.360552 0.451745 0 255 0
0.528527 -0.363925 0.486418 0 255 0
-0.322234 -0.262156 0.265489 153 0 76
0.103644 -0.262156 0.068722 0 255 0
0.812023 -0.329905 0.188658 0 255 0
0.449121 0.182281 0.014618 0 255 0
0.286401 -0.293489 0.516344 0 255 0
-0.586849 -0.236042 -0.544123 0 255 0
0.651502 0.186367 -0.054028 0 255 0
-0.080122 0.276934 0.351284 0 255 0
-0.313146 0.276934 -0.185238 0 255 0
0.610014 0.360552 -0.088002 0 255 0
0.285752 -0.225557 -0.380272 0 255 0
-0.297852 0.360552 -0.396982 0 255 0
-0.023735 0.327975 0.516344 0 255 0
-0.339117 -0.179883 -0.380272 0 255 0
0.812023 0.112803 0.074364 0 255 0
0.320028 0.276934 -0.105210 0 255 0
-0.293475 -0.262156 0.135497 0 255 0
0.521006 -0.363925 -0.026079 0 255 0
0.812023 -0.073868 -0.306738 0 255 0
0.450066 -0.038302 0.516344 0 255 0
-0.459574 0.173645 -0.380272 0 255 0
0.488246 -0.363925 -0.210990 0 255 0
-0.743392 0.360552 0.420601 0 255 0
0.647413 0.360552 0.468886 0 255 0
-0.611345 0.132540 -0.184500 0 255 0
-0.669455 0.219999 -0.544123 0 255 0
0.195884 -0.363925 -0.214750 0 255 0
0.790054 -0.363925 0.322674 0 255 0
-0.773153 0.245626 -0.544123 0 255 0
0.334433 0.008183 -0.380272 0 255 0
-0.601964 -0.363925 -0.124377 0 255 0
0.449121 -0.179121 -0.256346 0 255 0
-0.692342 0.122359 0.516344 0 255 0
0.400128 0.360552 0.320774 0 255 0
-0.329419 0.276934 0.161815 0 255 0
-0.212880 -0.363925 0.123921 0 255 0
-0.423744 -0.363925 -0.243832 0 255 0
