0.309575 -0.690318 -0.281457 0.000000 0.500000 0.500000
0.259562 -0.705823 -0.324755 0.000000 0.500000 0.500000
0.282162 0.513796 -0.299339 0.000000 0.500000 0.500000
0.246095 -0.186089 0.318539 0.000000 0.500000 0.500000
-0.279988 -0.317376 -0.261129 0.000000 0.500000 0.500000
0.104974 0.503624 -0.394583 0.000000 0.500000 0.500000
-0.295060 -0.516824 0.242780 0.000000 0.500000 0.500000
-0.267508 -0.255735 -0.282858 0.000000 0.500000 0.500000
0.407524 0.097121 0.092202 0.000000 0.500000 0.500000
-0.080421 0.788050 -0.236344 0.300000 0.600000 0.000000
-0.007284 -0.282116 0.395500 0.000000 0.500000 0.500000
-0.387493 0.818782 -0.094218 0.300000 0.600000 0.000000
-0.202590 -0.167241 -0.336174 0.000000 0.500000 0.500000
-0.073172 -0.486609 -0.389245 0.000000 0.500000 0.500000
-0.380788 0.344846 -0.006164 0.000000 0.500000 0.500000
0.039779 -0.051344 0.389726 0.000000 0.500000 0.500000
0.403258 -0.117835 -0.116613 0.000000 0.500000 0.500000
-0.292878 0.687480 0.237852 0.000000 0.500000 0.500000
0.176608 0.788050 0.203342 0.300000 0.600000 0.000000
-0.205884 0.788050 0.261647 0.300000 0.600000 0.000000
-0.141814 -0.378088 0.355678 0.000000 0.500000 0.500000
-0.216489 0.687982 -0.341213 0.300000 0.600000 0.000000
0.066935 -0.265194 0.387571 0.000000 0.500000 0.500000
-0.209404 -0.612385 0.318481 0.000000 0.500000 0.500000
-0.361987 0.077550 -0.108164 0.000000 0.500000 0.500000
0.333868 0.822972 0.269125 0.300000 0.600000 0.000000
-0.072686 0.604827 -0.389429 0.000000 0.500000 0.500000
0.192244 -0.252064 0.352384 0.000000 0.500000 0.500000
0.324765 0.188627 -0.256754 0.000000 0.500000 0.500000
0.064264 -0.919489 -0.254509 0.000000 0.500000 0.500000
0.318064 0.061964 0.260703 0.000000 0.500000 0.500000
-0.099465 -0.842295 0.373335 0.000000 0.500000 0.500000
0.157379 0.788050 -0.042376 0.300000 0.600000 0.000000
0.007935 0.845590 0.152990 0.300000 0.600000 0.000000
-0.353163 -0.885414 0.121597 0.000000 0.500000 0.500000
-0.101204 -0.134311 -0.385100 0.000000 0.500000 0.500000
0.326345 0.727436 0.277834 0.300000 0.600000 0.000000
-0.395051 0.747356 0.038741 0.300000 0.600000 0.000000
-0.360059 -0.010163 -0.116996 0.000000 0.500000 0.500000
0.375253 -0.533133 -0.189937 0.000000 0.500000 0.500000
0.409576 -0.359169 -0.070895 0.000000 0.500000 0.500000
0.279049 -0.506511 0.301035 0.000000 0.500000 0.500000
0.335754 -0.924253 0.117379 0.000000 0.500000 0.500000
-0.270781 0.083075 0.272004 0.000000 0.500000 0.500000
-0.293377 -0.924253 -0.081020 0.000000 0.500000 0.500000
0.036854 -0.770598 0.389939 0.000000 0.500000 0.500000
-0.173827 -0.603110 0.340192 0.000000 0.500000 0.500000
-0.211627 0.495505 0.316670 0.000000 0.500000 0.500000
0.062070 -0.748371 -0.398929 0.000000 0.500000 0.500000
0.365598 -0.518016 0.196191 0.000000 0.500000 0.500000
-0.055217 0.788050 -0.201949 0.300000 0.600000 0.000000
0.435587 0.832050 -0.029262 0.300000 0.600000 0.000000
-0.104447 0.788050 -0.137865 0.300000 0.600000 0.000000
0.217724 -0.057192 -0.352085 0.000000 0.500000 0.500000
-0.101458 0.763783 0.396607 0.300000 0.600000 0.000000
-0.241670 -0.901419 -0.289739 0.000000 0.500000 0.500000
0.325229 -0.082788 -0.263515 0.000000 0.500000 0.500000
0.354396 0.764381 -0.213663 0.000000 0.500000 0.500000
-0.284973 0.131921 -0.255357 0.000000 0.500000 0.500000
0.296363 -0.651539 0.285099 0.000000 0.500000 0.500000
0.263689 0.569459 0.312318 0.000000 0.500000 0.500000
0.142412 0.845590 0.364075 0.300000 0.600000 0.000000
0.025288 -0.100732 -0.404932 0.000000 0.500000 0.500000
0.231222 0.758565 0.355484 0.300000 0.600000 0.000000
-0.158353 0.100214 0.347678 0.000000 0.500000 0.500000
-0.188636 0.296985 -0.345629 0.000000 0.500000 0.500000
-0.078378 -0.753509 -0.392727 0.000000 0.500000 0.500000
-0.362414 0.219303 -0.126808 0.000000 0.500000 0.500000
0.345427 -0.877872 -0.233607 0.000000 0.500000 0.500000
0.174701 -0.558378 -0.368172 0.000000 0.500000 0.500000
-0.290776 0.845590 0.052435 0.300000 0.600000 0.000000
-0.037097 -0.678465 -0.396540 0.000000 0.500000 0.500000
-0.271283 0.788050 -0.177820 0.300000 0.600000 0.000000
0.416539 -0.732682 0.043839 0.000000 0.500000 0.500000
-0.119160 -0.919656 -0.128116 0.000000 0.500000 0.500000
-0.234019 0.788050 -0.286071 0.300000 0.600000 0.000000
-0.392074 0.726711 -0.070244 0.300000 0.600000 0.000000
-0.237165 0.713719 -0.333822 0.300000 0.600000 0.000000
-0.248191 0.610515 0.291738 0.000000 0.500000 0.500000
0.139284 -0.255686 0.376224 0.000000 0.500000 0.500000
0.042467 0.845590 -0.103240 0.300000 0.600000 0.000000
0.357348 0.803604 -0.248843 0.300000 0.600000 0.000000
0.269372 0.352413 0.302521 0.000000 0.500000 0.500000
0.226201 -0.162896 0.332041 0.000000 0.500000 0.500000
0.113940 0.845590 -0.152619 0.300000 0.600000 0.000000
0.313934 -0.113642 0.258209 0.000000 0.500000 0.500000
-0.285861 0.768269 0.252102 0.300000 0.600000 0.000000
0.208452 -0.495281 -0.351468 0.000000 0.500000 0.500000
0.207893 0.788050 0.294469 0.300000 0.600000 0.000000
-0.369519 0.048666 0.069947 0.000000 0.500000 0.500000
0.311308 -0.254321 -0.279933 0.000000 0.500000 0.500000
-0.218564 -0.605525 -0.325318 0.000000 0.500000 0.500000
0.383558 0.845590 -0.085593 0.300000 0.600000 0.000000
-0.174872 -0.042523 0.339686 0.000000 0.500000 0.500000
-0.271875 -0.071773 0.264180 0.000000 0.500000 0.500000
-0.362455 0.504345 -0.106606 0.000000 0.500000 0.500000
-0.211507 0.315369 -0.324857 0.000000 0.500000 0.500000
-0.317912 0.120019 -0.212008 0.000000 0.500000 0.500000
0.405924 0.569514 0.075446 0.000000 0.500000 0.500000
0.014421 0.845590 0.215822 0.300000 0.600000 0.000000
0.059225 -0.508977 -0.403120 0.000000 0.500000 0.500000
0.296802 -0.018336 0.285208 0.000000 0.500000 0.500000
0.114001 0.845590 0.017236 0.300000 0.600000 0.000000
0.438334 0.824987 0.024239 0.300000 0.600000 0.000000
-0.356094 0.762435 0.183787 0.300000 0.600000 0.000000
-0.315393 0.845590 0.157453 0.300000 0.600000 0.000000
0.227577 0.845590 0.234513 0.300000 0.600000 0.000000
0.211451 0.643499 0.347641 0.000000 0.500000 0.500000
-0.034167 -0.924253 0.170534 0.000000 0.500000 0.500000
0.356793 -0.644457 0.212719 0.000000 0.500000 0.500000
-0.233737 0.845590 0.303381 0.300000 0.600000 0.000000
-0.353504 -0.875354 -0.139293 0.000000 0.500000 0.500000
-0.371739 0.518715 -0.061915 0.000000 0.500000 0.500000
0.264346 -0.016970 -0.314610 0.000000 0.500000 0.500000
-0.371768 -0.198149 0.056650 0.000000 0.500000 0.500000
0.022859 0.788050 0.369758 0.300000 0.600000 0.000000
-0.100349 -0.920157 0.287105 0.000000 0.500000 0.500000
-0.126567 -0.269513 0.363055 0.000000 0.500000 0.500000
0.325242 -0.391145 -0.256033 0.000000 0.500000 0.500000
0.155513 0.845590 0.256699 0.300000 0.600000 0.000000
-0.244735 -0.919988 0.089600 0.000000 0.500000 0.500000
-0.157262 -0.919489 -0.152019 0.000000 0.500000 0.500000
0.355650 0.458389 0.205457 0.000000 0.500000 0.500000
0.027788 -0.582597 -0.404971 0.000000 0.500000 0.500000
-0.375309 0.522208 0.006416 0.000000 0.500000 0.500000
-0.113599 0.309628 -0.376191 0.000000 0.500000 0.500000
0.267027 -0.919489 0.131839 0.000000 0.500000 0.500000
0.331275 -0.662493 -0.247696 0.000000 0.500000 0.500000
-0.005096 0.548531 0.391016 0.000000 0.500000 0.500000
0.189833 -0.028024 0.358665 0.000000 0.500000 0.500000
0.349452 0.845590 -0.226555 0.300000 0.600000 0.000000
0.371607 -0.919544 -0.036231 0.000000 0.500000 0.500000
-0.377445 -0.370722 0.039842 0.000000 0.500000 0.500000
0.108598 0.803477 -0.411717 0.300000 0.600000 0.000000
-0.123146 0.544666 0.369881 0.000000 0.500000 0.500000
0.199396 0.421179 -0.355775 0.000000 0.500000 0.500000
-0.399121 0.725493 -0.016934 0.300000 0.600000 0.000000
-0.361308 -0.133874 -0.130722 0.000000 0.500000 0.500000
0.277446 0.845590 0.110555 0.300000 0.600000 0.000000
0.001006 0.634936 0.391278 0.000000 0.500000 0.500000
0.023606 -0.919796 0.052819 0.000000 0.500000 0.500000
-0.036536 0.307656 0.386416 0.000000 0.500000 0.500000
-0.180842 0.332762 0.341975 0.000000 0.500000 0.500000
-0.201628 -0.919489 -0.243898 0.000000 0.500000 0.500000
-0.278713 0.373842 0.256282 0.000000 0.500000 0.500000
-0.362915 -0.633069 -0.105371 0.000000 0.500000 0.500000
0.116562 -0.706490 0.379131 0.000000 0.500000 0.500000
0.240001 0.788050 -0.035900 0.300000 0.600000 0.000000
-0.292223 0.017301 -0.246964 0.000000 0.500000 0.500000
0.204406 -0.924253 0.240283 0.000000 0.500000 0.500000
0.303086 -0.374687 -0.280476 0.000000 0.500000 0.500000
0.400976 -0.020139 -0.108484 0.000000 0.500000 0.500000
-0.213976 -0.380273 0.321099 0.000000 0.500000 0.500000
-0.384616 0.687982 0.066629 0.300000 0.600000 0.000000
-0.167399 0.788050 -0.314046 0.300000 0.600000 0.000000
-0.272371 0.087063 -0.269944 0.000000 0.500000 0.500000
-0.373282 0.021926 0.032108 0.000000 0.500000 0.500000
0.409934 0.726641 -0.150651 0.300000 0.600000 0.000000
0.379015 -0.038958 -0.182838 0.000000 0.500000 0.500000
-0.354022 0.717049 -0.189035 0.300000 0.600000 0.000000
0.122350 -0.919489 -0.307600 0.000000 0.500000 0.500000
-0.073013 -0.651033 0.383903 0.000000 0.500000 0.500000
-0.160866 0.788050 0.039527 0.300000 0.600000 0.000000
0.014662 -0.924253 0.311066 0.000000 0.500000 0.500000
-0.069732 0.788050 0.190641 0.300000 0.600000 0.000000
-0.121351 -0.919973 0.321148 0.000000 0.500000 0.500000
0.150720 -0.861410 -0.378506 0.000000 0.500000 0.500000
-0.198205 0.845590 0.243741 0.300000 0.600000 0.000000
0.185458 -0.919489 0.078524 0.000000 0.500000 0.500000
-0.192662 0.673837 0.330203 0.000000 0.500000 0.500000
0.321712 0.845590 0.154864 0.300000 0.600000 0.000000
-0.302272 -0.287741 -0.242604 0.000000 0.500000 0.500000
-0.215627 -0.158126 0.319860 0.000000 0.500000 0.500000
-0.307282 -0.008256 -0.228370 0.000000 0.500000 0.500000
0.408566 0.031499 0.061617 0.000000 0.500000 0.500000
-0.227661 -0.565784 -0.319150 0.000000 0.500000 0.500000
-0.054080 0.701298 0.405661 0.300000 0.600000 0.000000
0.388477 0.011627 0.138892 0.000000 0.500000 0.500000
0.265341 -0.567978 -0.319764 0.000000 0.500000 0.500000
-0.153632 -0.920157 0.020500 0.000000 0.500000 0.500000
0.322102 -0.924232 0.204051 0.000000 0.500000 0.500000
-0.301047 0.572558 -0.237004 0.000000 0.500000 0.500000
-0.312463 -0.876672 0.210090 0.000000 0.500000 0.500000
-0.338536 -0.019412 -0.170175 0.000000 0.500000 0.500000
0.316068 -0.396016 0.263013 0.000000 0.500000 0.500000
0.128720 0.311726 -0.390087 0.000000 0.500000 0.500000
-0.207738 -0.912941 -0.303125 0.000000 0.500000 0.500000
0.159435 -0.919489 -0.039764 0.000000 0.500000 0.500000
-0.208990 0.389974 0.325299 0.000000 0.500000 0.500000
0.083246 0.788050 0.185549 0.300000 0.600000 0.000000
0.366898 -0.908973 0.192803 0.000000 0.500000 0.500000
0.165086 0.002734 -0.377540 0.000000 0.500000 0.500000
0.413766 -0.482233 0.059127 0.000000 0.500000 0.500000
0.104972 0.567214 -0.390124 0.000000 0.500000 0.500000
0.304103 0.661811 0.269591 0.000000 0.500000 0.500000
0.383386 0.749633 0.149431 0.000000 0.500000 0.500000
0.028165 0.845590 -0.333129 0.300000 0.600000 0.000000
-0.046896 -0.354316 0.384413 0.000000 0.500000 0.500000
0.264612 0.788050 -0.116866 0.300000 0.600000 0.000000
-0.023396 0.641070 -0.397134 0.000000 0.500000 0.500000
-0.011338 -0.475164 0.394947 0.000000 0.500000 0.500000
0.393298 -0.640997 0.138672 0.000000 0.500000 0.500000
0.168894 0.788050 0.275265 0.300000 0.600000 0.000000
-0.295279 -0.550063 0.242458 0.000000 0.500000 0.500000
0.053902 -0.154984 0.388588 0.000000 0.500000 0.500000
-0.068039 0.812525 0.402994 0.300000 0.600000 0.000000
0.405506 0.815023 -0.163377 0.300000 0.600000 0.000000
0.186940 -0.762600 -0.362183 0.000000 0.500000 0.500000
-0.306716 0.423472 -0.237442 0.000000 0.500000 0.500000
0.407871 0.369980 0.090371 0.000000 0.500000 0.500000
-0.363993 0.845590 0.104335 0.300000 0.600000 0.000000
0.005217 -0.919489 -0.297058 0.000000 0.500000 0.500000
-0.148013 0.072646 -0.363726 0.000000 0.500000 0.500000
-0.371416 -0.088022 0.059586 0.000000 0.500000 0.500000
-0.314649 0.845590 0.099737 0.300000 0.600000 0.000000
-0.015920 -0.919761 -0.251534 0.000000 0.500000 0.500000
0.027025 0.533239 -0.404959 0.000000 0.500000 0.500000
-0.251891 -0.924253 -0.051823 0.000000 0.500000 0.500000
-0.019425 -0.104650 -0.401909 0.000000 0.500000 0.500000
0.401032 0.118140 0.119176 0.000000 0.500000 0.500000
0.035429 -0.919824 0.255203 0.000000 0.500000 0.500000
0.125897 0.788050 -0.154789 0.300000 0.600000 0.000000
0.040453 0.788050 0.037839 0.300000 0.600000 0.000000
0.061086 -0.924253 0.185671 0.000000 0.500000 0.500000
0.069741 -0.192435 0.387364 0.000000 0.500000 0.500000
-0.174222 0.845590 0.151175 0.300000 0.600000 0.000000
0.275551 0.730177 -0.334021 0.300000 0.600000 0.000000
-0.372487 -0.263409 0.043746 0.000000 0.500000 0.500000
-0.087580 -0.776338 0.380515 0.000000 0.500000 0.500000
0.361381 0.845590 -0.169849 0.300000 0.600000 0.000000
-0.019950 0.788050 0.246523 0.300000 0.600000 0.000000
-0.025752 -0.924253 -0.055684 0.000000 0.500000 0.500000
0.412062 -0.868674 -0.046512 0.000000 0.500000 0.500000
-0.380267 -0.202192 -0.033078 0.000000 0.500000 0.500000
-0.336183 -0.507917 -0.185701 0.000000 0.500000 0.500000
0.182138 0.845590 -0.008101 0.300000 0.600000 0.000000
-0.270553 0.845590 0.117606 0.300000 0.600000 0.000000
-0.253002 -0.924253 0.035482 0.000000 0.500000 0.500000
0.340251 0.171186 0.235012 0.000000 0.500000 0.500000
-0.289916 -0.612474 0.250350 0.000000 0.500000 0.500000
-0.181698 -0.227894 0.336385 0.000000 0.500000 0.500000
0.098388 0.788323 0.384860 0.000000 0.500000 0.500000
0.352920 -0.367125 -0.215830 0.000000 0.500000 0.500000
0.412325 -0.249033 -0.042977 0.000000 0.500000 0.500000
-0.207927 -0.091533 0.319684 0.000000 0.500000 0.500000
-0.367828 -0.594757 -0.078752 0.000000 0.500000 0.500000
-0.159085 -0.123934 0.352134 0.000000 0.500000 0.500000
-0.229049 0.788050 -0.075505 0.300000 0.600000 0.000000
0.182830 0.721464 -0.364070 0.000000 0.500000 0.500000
0.317202 0.471241 -0.266019 0.000000 0.500000 0.500000
0.315710 0.118279 0.263428 0.000000 0.500000 0.500000
-0.104499 0.845590 -0.028722 0.300000 0.600000 0.000000
-0.180995 -0.924253 -0.036887 0.000000 0.500000 0.500000
0.003149 -0.183911 -0.399294 0.000000 0.500000 0.500000
-0.245274 -0.724144 -0.306302 0.000000 0.500000 0.500000
0.411981 -0.010541 -0.047408 0.000000 0.500000 0.500000
-0.141721 0.692553 -0.368552 0.300000 0.600000 0.000000
0.201221 0.661654 -0.355627 0.000000 0.500000 0.500000
0.157556 -0.924253 -0.180091 0.000000 0.500000 0.500000
-0.276732 0.579146 -0.272179 0.000000 0.500000 0.500000
0.415149 -0.335240 -0.006048 0.000000 0.500000 0.500000
0.174956 -0.421474 0.359164 0.000000 0.500000 0.500000
0.342981 0.845590 0.006594 0.300000 0.600000 0.000000
-0.360028 0.592137 0.105068 0.000000 0.500000 0.500000
0.359442 -0.703721 0.198907 0.000000 0.500000 0.500000
-0.145115 0.845590 -0.163466 0.300000 0.600000 0.000000
-0.019515 -0.172787 0.394232 0.000000 0.500000 0.500000
0.196201 0.029870 -0.357985 0.000000 0.500000 0.500000
0.375273 -0.266740 0.175519 0.000000 0.500000 0.500000
-0.189714 -0.113737 -0.339609 0.000000 0.500000 0.500000
-0.228980 -0.924253 -0.146601 0.000000 0.500000 0.500000
-0.158456 -0.924253 -0.195287 0.000000 0.500000 0.500000
-0.082323 0.788050 0.100077 0.300000 0.600000 0.000000
-0.213982 0.755611 0.314752 0.000000 0.500000 0.500000
0.040176 -0.623820 0.389696 0.000000 0.500000 0.500000
0.003691 0.478921 0.391281 0.000000 0.500000 0.500000
-0.305626 0.248973 -0.230744 0.000000 0.500000 0.500000
-0.360401 0.529050 0.118068 0.000000 0.500000 0.500000
0.227782 0.845590 0.163024 0.300000 0.600000 0.000000
0.043800 0.425504 0.389431 0.000000 0.500000 0.500000
0.009948 -0.412899 0.391259 0.000000 0.500000 0.500000
0.164338 0.478538 0.367572 0.000000 0.500000 0.500000
0.404113 -0.044669 0.107356 0.000000 0.500000 0.500000
-0.373293 0.836370 0.134350 0.300000 0.600000 0.000000
0.079220 -0.620552 -0.399446 0.000000 0.500000 0.500000
0.397279 0.324221 -0.133641 0.000000 0.500000 0.500000
0.298318 0.586393 0.276115 0.000000 0.500000 0.500000
0.382215 -0.467082 -0.162697 0.000000 0.500000 0.500000
0.100030 -0.791017 -0.391364 0.000000 0.500000 0.500000
0.220920 -0.131761 -0.345442 0.000000 0.500000 0.500000
-0.210277 0.788050 -0.226179 0.300000 0.600000 0.000000
0.251456 0.624475 -0.325143 0.000000 0.500000 0.500000
0.010124 -0.863093 -0.400398 0.000000 0.500000 0.500000
0.045173 -0.336863 -0.404578 0.000000 0.500000 0.500000
0.414864 0.269093 -0.009950 0.000000 0.500000 0.500000
-0.356042 -0.073160 -0.144609 0.000000 0.500000 0.500000
-0.074659 -0.591341 0.379108 0.000000 0.500000 0.500000
-0.150687 -0.001018 0.356199 0.000000 0.500000 0.500000
0.438361 0.727531 0.008690 0.300000 0.600000 0.000000
0.399151 -0.095412 0.108328 0.000000 0.500000 0.500000
-0.047963 0.355992 0.384209 0.000000 0.500000 0.500000
-0.329302 0.592148 0.192306 0.000000 0.500000 0.500000
-0.074265 -0.924253 -0.292994 0.000000 0.500000 0.500000
0.342402 0.052410 -0.239622 0.000000 0.500000 0.500000
-0.071057 -0.052606 -0.394877 0.000000 0.500000 0.500000
0.172670 -0.586673 0.363932 0.000000 0.500000 0.500000
-0.363044 -0.269343 -0.124548 0.000000 0.500000 0.500000
-0.075332 -0.468977 0.378979 0.000000 0.500000 0.500000
-0.378306 0.484035 -0.048282 0.000000 0.500000 0.500000
-0.045858 -0.221846 0.384611 0.000000 0.500000 0.500000
0.245605 -0.762299 0.318873 0.000000 0.500000 0.500000
-0.364599 0.400586 0.091316 0.000000 0.500000 0.500000
0.291979 0.584391 -0.296756 0.000000 0.500000 0.500000
0.086916 -0.292210 -0.393234 0.000000 0.500000 0.500000
0.181016 0.788050 0.132194 0.300000 0.600000 0.000000
-0.378994 0.589815 0.018814 0.000000 0.500000 0.500000
-0.173144 -0.674152 0.340522 0.000000 0.500000 0.500000
0.071627 0.788050 -0.386737 0.300000 0.600000 0.000000
-0.351163 -0.192909 -0.154742 0.000000 0.500000 0.500000
0.415072 -0.871211 0.021481 0.000000 0.500000 0.500000
-0.053677 0.788050 -0.133836 0.300000 0.600000 0.000000
0.094776 -0.549848 0.384172 0.000000 0.500000 0.500000
0.401605 0.305230 0.116534 0.000000 0.500000 0.500000
-0.379866 0.577632 -0.038223 0.000000 0.500000 0.500000
-0.345917 0.078556 -0.165593 0.000000 0.500000 0.500000
0.128543 -0.919491 0.070918 0.000000 0.500000 0.500000
0.153815 0.830745 0.390000 0.300000 0.600000 0.000000
0.277054 0.788050 -0.264981 0.300000 0.600000 0.000000
-0.370102 0.565930 0.066421 0.000000 0.500000 0.500000
-0.105768 0.845590 0.129112 0.300000 0.600000 0.000000
0.186780 0.788050 -0.101780 0.300000 0.600000 0.000000
0.387543 -0.512494 -0.147480 0.000000 0.500000 0.500000
0.318998 -0.907383 -0.244352 0.000000 0.500000 0.500000
-0.376038 -0.795931 -0.030953 0.000000 0.500000 0.500000
-0.252089 0.845590 0.090342 0.300000 0.600000 0.000000
0.215017 -0.919489 0.060034 0.000000 0.500000 0.500000
0.095069 -0.924253 0.236669 0.000000 0.500000 0.500000
0.284739 0.845590 0.265508 0.300000 0.600000 0.000000
0.213176 0.845590 -0.304390 0.300000 0.600000 0.000000
0.045077 -0.924253 -0.070062 0.000000 0.500000 0.500000
0.085362 -0.348529 0.385585 0.000000 0.500000 0.500000
0.163878 0.845590 0.221698 0.300000 0.600000 0.000000
0.284486 0.684866 -0.298078 0.000000 0.500000 0.500000
-0.032319 -0.920117 0.052238 0.000000 0.500000 0.500000
-0.365573 -0.046267 0.088205 0.000000 0.500000 0.500000
0.415378 0.550406 0.010614 0.000000 0.500000 0.500000
0.357526 0.845590 -0.103982 0.300000 0.600000 0.000000
-0.365143 -0.353112 0.104569 0.000000 0.500000 0.500000
-0.256245 -0.752008 0.278499 0.000000 0.500000 0.500000
0.408062 0.418536 0.088085 0.000000 0.500000 0.500000
0.216582 0.788050 -0.148313 0.300000 0.600000 0.000000
0.036505 -0.133441 -0.405106 0.000000 0.500000 0.500000
-0.242369 0.845590 0.143880 0.300000 0.600000 0.000000
-0.199238 0.788050 -0.262539 0.300000 0.600000 0.000000
-0.206958 0.159285 0.320428 0.000000 0.500000 0.500000
0.278111 -0.092237 0.302212 0.000000 0.500000 0.500000
-0.105484 -0.920157 0.218226 0.000000 0.500000 0.500000
-0.119069 -0.055800 0.366487 0.000000 0.500000 0.500000
-0.049817 0.788050 -0.279685 0.300000 0.600000 0.000000
0.222893 0.788050 0.113178 0.300000 0.600000 0.000000
0.137807 -0.802008 0.376391 0.000000 0.500000 0.500000
-0.171278 0.788050 -0.024625 0.300000 0.600000 0.000000
-0.374862 -0.058108 -0.066661 0.000000 0.500000 0.500000
-0.262170 0.769176 -0.315751 0.300000 0.600000 0.000000
0.053885 0.637010 0.388582 0.000000 0.500000 0.500000
-0.112728 -0.919934 0.171065 0.000000 0.500000 0.500000
0.086693 0.704782 0.385385 0.000000 0.500000 0.500000
0.106149 -0.857252 0.386163 0.000000 0.500000 0.500000
0.230461 0.788050 -0.246091 0.300000 0.600000 0.000000
0.415330 0.671793 0.015416 0.000000 0.500000 0.500000
0.105920 0.732572 -0.412228 0.300000 0.600000 0.000000
-0.040755 0.788050 -0.022918 0.300000 0.600000 0.000000
0.326028 -0.918859 -0.207420 0.000000 0.500000 0.500000
-0.268585 0.007692 0.273941 0.000000 0.500000 0.500000
0.334036 0.683368 0.242211 0.000000 0.500000 0.500000
0.123656 0.788050 0.233808 0.300000 0.600000 0.000000
-0.331536 0.235120 0.180210 0.000000 0.500000 0.500000
-0.266838 0.788050 -0.119956 0.300000 0.600000 0.000000
-0.231572 -0.922846 0.292798 0.000000 0.500000 0.500000
0.125571 -0.430667 0.381212 0.000000 0.500000 0.500000
-0.115623 0.745898 0.370944 0.300000 0.600000 0.000000
0.388743 -0.904254 -0.156177 0.000000 0.500000 0.500000
0.292224 0.845590 -0.091711 0.300000 0.600000 0.000000
0.091937 0.275725 0.384598 0.000000 0.500000 0.500000
-0.004220 -0.313349 0.391054 0.000000 0.500000 0.500000
-0.215459 0.456638 0.319964 0.000000 0.500000 0.500000
-0.353085 -0.357751 0.139093 0.000000 0.500000 0.500000
-0.198920 0.845590 -0.043585 0.300000 0.600000 0.000000
0.345955 -0.275929 -0.226075 0.000000 0.500000 0.500000
-0.098117 0.039826 -0.386189 0.000000 0.500000 0.500000
-0.118542 0.113213 -0.379063 0.000000 0.500000 0.500000
-0.004084 0.670162 0.391060 0.000000 0.500000 0.500000
-0.146499 -0.736448 0.353411 0.000000 0.500000 0.500000
0.395460 0.774774 0.175396 0.300000 0.600000 0.000000
0.164985 -0.919489 0.248166 0.000000 0.500000 0.500000
-0.350349 -0.744606 -0.145727 0.000000 0.500000 0.500000
0.108257 0.017624 0.386313 0.000000 0.500000 0.500000
-0.379318 0.084277 -0.042562 0.000000 0.500000 0.500000
0.384780 0.507904 0.146545 0.000000 0.500000 0.500000
-0.026306 -0.919825 0.240005 0.000000 0.500000 0.500000
-0.186038 -0.763221 -0.347393 0.000000 0.500000 0.500000
0.110568 -0.924121 0.360540 0.000000 0.500000 0.500000
-0.130740 -0.077880 -0.369969 0.000000 0.500000 0.500000
-0.358532 0.416594 -0.138280 0.000000 0.500000 0.500000
-0.356130 0.021699 -0.144427 0.000000 0.500000 0.500000
0.412564 0.310655 -0.039951 0.000000 0.500000 0.500000
-0.375856 -0.448992 -0.030705 0.000000 0.500000 0.500000
-0.204736 -0.835018 0.322030 0.000000 0.500000 0.500000
0.226451 0.781756 -0.367311 0.300000 0.600000 0.000000
-0.377679 0.788136 -0.021274 0.000000 0.500000 0.500000
-0.121605 0.629502 -0.373311 0.000000 0.500000 0.500000
-0.341132 -0.514340 0.171798 0.000000 0.500000 0.500000
-0.027872 -0.924253 0.110414 0.000000 0.500000 0.500000
0.308458 -0.062041 -0.282440 0.000000 0.500000 0.500000
0.405608 -0.672498 -0.107673 0.000000 0.500000 0.500000
-0.363809 0.240413 -0.099786 0.000000 0.500000 0.500000
-0.297433 -0.119639 0.231389 0.000000 0.500000 0.500000
-0.279473 0.185846 0.263374 0.000000 0.500000 0.500000
0.175617 0.809527 -0.391905 0.300000 0.600000 0.000000
0.339676 -0.321029 -0.235325 0.000000 0.500000 0.500000
-0.066160 -0.892833 0.385248 0.000000 0.500000 0.500000
-0.288596 -0.132048 -0.251927 0.000000 0.500000 0.500000
0.416068 0.411817 -0.056373 0.000000 0.500000 0.500000
0.410272 -0.373435 0.052781 0.000000 0.500000 0.500000
0.388378 -0.243197 -0.145056 0.000000 0.500000 0.500000
-0.310636 0.179652 0.219846 0.000000 0.500000 0.500000
0.280132 -0.924253 -0.106064 0.000000 0.500000 0.500000
-0.341327 -0.863308 -0.175073 0.000000 0.500000 0.500000
0.168169 0.788050 -0.214664 0.300000 0.600000 0.000000
-0.379995 -0.703906 0.005179 0.000000 0.500000 0.500000
-0.354211 -0.924249 0.010621 0.000000 0.500000 0.500000
0.300068 -0.901666 0.260242 0.000000 0.500000 0.500000
-0.011546 -0.719757 0.390740 0.000000 0.500000 0.500000
-0.347726 0.795454 -0.202050 0.300000 0.600000 0.000000
-0.129929 -0.306472 -0.370193 0.000000 0.500000 0.500000
-0.320710 -0.789829 -0.217329 0.000000 0.500000 0.500000
0.398490 0.628391 0.110750 0.000000 0.500000 0.500000
0.233500 -0.924253 0.116994 0.000000 0.500000 0.500000
-0.184225 -0.919489 -0.083751 0.000000 0.500000 0.500000
-0.290291 -0.256373 0.249798 0.000000 0.500000 0.500000
0.305826 0.733740 -0.278948 0.000000 0.500000 0.500000
0.418346 0.368177 -0.021031 0.000000 0.500000 0.500000
-0.196579 -0.889015 0.333233 0.000000 0.500000 0.500000
0.159034 -0.924184 0.337177 0.000000 0.500000 0.500000
0.361351 0.456975 -0.210368 0.000000 0.500000 0.500000
0.169094 0.767611 -0.373018 0.300000 0.600000 0.000000
0.095257 -0.886119 -0.396382 0.000000 0.500000 0.500000
0.357098 -0.918866 -0.147492 0.000000 0.500000 0.500000
-0.396436 0.689996 -0.047419 0.300000 0.600000 0.000000
0.368029 0.393183 0.181166 0.000000 0.500000 0.500000
0.303926 -0.179753 0.277072 0.000000 0.500000 0.500000
0.352402 -0.164126 0.219234 0.000000 0.500000 0.500000
-0.389003 0.845590 -0.020231 0.300000 0.600000 0.000000
0.272254 0.000277 0.306490 0.000000 0.500000 0.500000
-0.179143 0.788050 -0.215663 0.300000 0.600000 0.000000
0.094255 -0.463443 0.384250 0.000000 0.500000 0.500000
0.043295 0.690593 0.389468 0.000000 0.500000 0.500000
0.414344 -0.698685 -0.017078 0.000000 0.500000 0.500000
0.216840 0.108714 0.343749 0.000000 0.500000 0.500000
0.306252 -0.924253 -0.124915 0.000000 0.500000 0.500000
0.364532 -0.612976 -0.207040 0.000000 0.500000 0.500000
0.264613 -0.630426 -0.314857 0.000000 0.500000 0.500000
-0.050601 0.133185 -0.398958 0.000000 0.500000 0.500000
-0.037068 0.788050 0.136802 0.300000 0.600000 0.000000
0.263547 -0.437148 0.306684 0.000000 0.500000 0.500000
0.166864 0.845590 0.064242 0.300000 0.600000 0.000000
0.064334 0.596618 -0.397656 0.000000 0.500000 0.500000
-0.029982 -0.415559 0.387718 0.000000 0.500000 0.500000
-0.295539 0.819034 0.273169 0.300000 0.600000 0.000000
-0.101595 0.845590 -0.229518 0.300000 0.600000 0.000000
0.320819 0.845590 0.209124 0.300000 0.600000 0.000000
0.329443 -0.697641 0.240251 0.000000 0.500000 0.500000
-0.000486 -0.014060 -0.403316 0.000000 0.500000 0.500000
-0.180323 0.586111 -0.351272 0.000000 0.500000 0.500000
0.059005 0.845590 -0.169765 0.300000 0.600000 0.000000
-0.203687 0.845590 0.097070 0.300000 0.600000 0.000000
-0.344669 0.845590 -0.034874 0.300000 0.600000 0.000000
0.182130 0.499102 -0.369308 0.000000 0.500000 0.500000
0.024531 -0.578101 0.390842 0.000000 0.500000 0.500000
0.411046 -0.781555 0.070804 0.000000 0.500000 0.500000
0.236695 -0.301011 -0.342215 0.000000 0.500000 0.500000
0.041766 -0.924253 -0.299202 0.000000 0.500000 0.500000
0.257932 0.753450 -0.319873 0.000000 0.500000 0.500000
0.005812 0.788050 0.155142 0.300000 0.600000 0.000000
0.257061 -0.516492 -0.321384 0.000000 0.500000 0.500000
-0.141682 0.261243 -0.366165 0.000000 0.500000 0.500000
-0.252940 0.817105 -0.323108 0.300000 0.600000 0.000000
0.078152 0.845590 -0.250995 0.300000 0.600000 0.000000
-0.338946 -0.802983 0.165256 0.000000 0.500000 0.500000
-0.201421 0.845590 -0.224251 0.300000 0.600000 0.000000
-0.370253 -0.700882 0.088292 0.000000 0.500000 0.500000
-0.211345 0.845590 0.011036 0.300000 0.600000 0.000000
-0.370378 -0.923393 -0.041852 0.000000 0.500000 0.500000
0.374379 -0.296664 -0.181588 0.000000 0.500000 0.500000
0.025803 -0.473879 0.395216 0.000000 0.500000 0.500000
0.053776 0.532444 0.393122 0.000000 0.500000 0.500000
0.408081 0.655072 -0.080832 0.000000 0.500000 0.500000
0.408595 -0.855314 0.061470 0.000000 0.500000 0.500000
-0.112968 -0.703391 -0.381001 0.000000 0.500000 0.500000
0.147310 0.691041 -0.383557 0.300000 0.600000 0.000000
0.149955 -0.480020 0.367843 0.000000 0.500000 0.500000
-0.336523 -0.466617 0.171018 0.000000 0.500000 0.500000
0.419518 0.017370 0.022850 0.000000 0.500000 0.500000
0.023671 -0.924253 -0.173103 0.000000 0.500000 0.500000
-0.316087 -0.919824 -0.060289 0.000000 0.500000 0.500000
-0.370015 -0.245162 -0.067305 0.000000 0.500000 0.500000
0.013068 -0.167544 0.391248 0.000000 0.500000 0.500000
0.157098 -0.469409 -0.375957 0.000000 0.500000 0.500000
-0.323755 -0.915917 -0.143684 0.000000 0.500000 0.500000
0.085196 0.828663 -0.416189 0.300000 0.600000 0.000000
-0.345056 -0.775738 0.149524 0.000000 0.500000 0.500000
0.017729 0.039642 0.391232 0.000000 0.500000 0.500000
-0.071781 0.777765 -0.413892 0.300000 0.600000 0.000000
-0.279218 0.788050 0.102925 0.300000 0.600000 0.000000
-0.221504 0.597542 0.314790 0.000000 0.500000 0.500000
-0.357353 0.622702 -0.141488 0.000000 0.500000 0.500000
-0.220611 0.664230 -0.318225 0.000000 0.500000 0.500000
-0.274166 0.690954 -0.301862 0.300000 0.600000 0.000000
0.236563 0.788050 0.256106 0.300000 0.600000 0.000000
0.016001 0.788050 0.080616 0.300000 0.600000 0.000000
0.402143 -0.797435 -0.119723 0.000000 0.500000 0.500000
0.282626 -0.723071 -0.298943 0.000000 0.500000 0.500000
-0.085401 -0.165661 0.381895 0.000000 0.500000 0.500000
0.165725 0.788050 -0.321292 0.300000 0.600000 0.000000
0.354540 -0.446532 0.216320 0.000000 0.500000 0.500000
0.406407 0.557182 -0.088289 0.000000 0.500000 0.500000
0.368799 0.519961 -0.191817 0.000000 0.500000 0.500000
-0.277592 -0.699060 0.257497 0.000000 0.500000 0.500000
0.416424 -0.737551 -0.040897 0.000000 0.500000 0.500000
0.138667 -0.618644 0.376589 0.000000 0.500000 0.500000
-0.375985 0.252411 -0.027661 0.000000 0.500000 0.500000
-0.075253 -0.810595 -0.389435 0.000000 0.500000 0.500000
0.243798 0.844972 0.346944 0.300000 0.600000 0.000000
0.072102 -0.924253 -0.186597 0.000000 0.500000 0.500000
-0.341676 0.168818 -0.163653 0.000000 0.500000 0.500000
-0.301191 0.659500 0.225322 0.000000 0.500000 0.500000
0.410413 0.249772 -0.065336 0.000000 0.500000 0.500000
-0.149917 0.517118 0.351758 0.000000 0.500000 0.500000
0.061091 0.788050 -0.296887 0.300000 0.600000 0.000000
0.356162 0.845590 0.052311 0.300000 0.600000 0.000000
-0.023454 -0.919919 -0.133643 0.000000 0.500000 0.500000
-0.323282 0.241080 -0.201679 0.000000 0.500000 0.500000
-0.276986 -0.550223 -0.271883 0.000000 0.500000 0.500000
-0.239035 0.411946 -0.305049 0.000000 0.500000 0.500000
0.215198 0.845590 0.193848 0.300000 0.600000 0.000000
0.268684 0.282305 -0.311368 0.000000 0.500000 0.500000
-0.339258 -0.181470 0.164674 0.000000 0.500000 0.500000
-0.290043 -0.919935 0.190626 0.000000 0.500000 0.500000
0.228633 -0.436554 0.330392 0.000000 0.500000 0.500000
-0.303118 -0.812109 0.224262 0.000000 0.500000 0.500000
-0.347551 0.624485 0.142192 0.000000 0.500000 0.500000
-0.165247 0.845590 -0.029263 0.300000 0.600000 0.000000
-0.142626 0.788050 0.346672 0.300000 0.600000 0.000000
-0.039255 0.777699 0.408494 0.300000 0.600000 0.000000
0.102598 0.385503 -0.390237 0.000000 0.500000 0.500000
-0.200652 0.813528 0.351849 0.300000 0.600000 0.000000
-0.277862 0.845590 -0.023869 0.300000 0.600000 0.000000
-0.371063 0.412891 0.057992 0.000000 0.500000 0.500000
0.366626 -0.327702 0.193389 0.000000 0.500000 0.500000
0.063244 0.788050 -0.160054 0.300000 0.600000 0.000000
-0.140944 0.061096 0.356099 0.000000 0.500000 0.500000
0.107277 -0.919489 -0.243147 0.000000 0.500000 0.500000
-0.079702 0.845590 0.224320 0.300000 0.600000 0.000000
0.156750 0.063628 -0.376095 0.000000 0.500000 0.500000
-0.330152 -0.765120 -0.188393 0.000000 0.500000 0.500000
0.302258 0.845590 0.015727 0.300000 0.600000 0.000000
0.065167 -0.381212 0.391694 0.000000 0.500000 0.500000
-0.294929 0.788050 -0.197457 0.300000 0.600000 0.000000
-0.355501 -0.380059 0.118092 0.000000 0.500000 0.500000
0.352425 0.097042 0.210930 0.000000 0.500000 0.500000
-0.368979 0.660539 -0.098077 0.000000 0.500000 0.500000
0.412903 0.844674 -0.142117 0.300000 0.600000 0.000000
-0.141618 -0.073930 0.355773 0.000000 0.500000 0.500000
-0.315955 0.421799 0.211991 0.000000 0.500000 0.500000
0.232671 0.454197 0.333356 0.000000 0.500000 0.500000
0.309923 0.632140 -0.281152 0.000000 0.500000 0.500000
-0.132084 -0.379413 -0.369451 0.000000 0.500000 0.500000
0.233838 -0.924253 0.255664 0.000000 0.500000 0.500000
0.195575 -0.671470 0.355607 0.000000 0.500000 0.500000
-0.258632 -0.776476 -0.293039 0.000000 0.500000 0.500000
-0.371063 -0.532565 0.057439 0.000000 0.500000 0.500000
-0.212481 -0.042325 -0.329442 0.000000 0.500000 0.500000
-0.020354 0.703612 -0.397411 0.000000 0.500000 0.500000
0.003500 -0.804378 0.391281 0.000000 0.500000 0.500000
-0.205705 0.788050 -0.095461 0.300000 0.600000 0.000000
-0.176710 0.788050 -0.067649 0.300000 0.600000 0.000000
0.287267 -0.179176 -0.300827 0.000000 0.500000 0.500000
-0.250205 -0.873306 0.283744 0.000000 0.500000 0.500000
-0.118965 -0.440976 -0.378915 0.000000 0.500000 0.500000
-0.084156 0.845590 0.381163 0.300000 0.600000 0.000000
-0.193509 0.788050 0.034178 0.300000 0.600000 0.000000
0.419138 0.323139 0.028037 0.000000 0.500000 0.500000
0.415924 0.132269 -0.058340 0.000000 0.500000 0.500000
0.307672 -0.437439 -0.283131 0.000000 0.500000 0.500000
-0.330922 0.845590 -0.127378 0.300000 0.600000 0.000000
0.417896 -0.278783 -0.023610 0.000000 0.500000 0.500000
-0.109924 0.271846 -0.377478 0.000000 0.500000 0.500000
-0.173713 0.788050 -0.170848 0.300000 0.600000 0.000000
0.313469 -0.820489 0.265873 0.000000 0.500000 0.500000
0.360239 0.389390 -0.212765 0.000000 0.500000 0.500000
0.305614 0.788050 -0.016116 0.300000 0.600000 0.000000
0.328280 -0.518718 -0.260439 0.000000 0.500000 0.500000
0.023267 -0.682688 -0.400403 0.000000 0.500000 0.500000
-0.078648 0.169768 0.382982 0.000000 0.500000 0.500000
0.034947 -0.898936 0.386184 0.000000 0.500000 0.500000
0.425366 0.845590 -0.076863 0.300000 0.600000 0.000000
0.216597 -0.452033 -0.352630 0.000000 0.500000 0.500000
0.070480 0.788050 0.284220 0.300000 0.600000 0.000000
-0.025808 -0.919823 0.007370 0.000000 0.500000 0.500000
-0.239677 0.100569 0.298376 0.000000 0.500000 0.500000
0.228696 -0.396622 0.336050 0.000000 0.500000 0.500000
0.374248 0.166020 0.179043 0.000000 0.500000 0.500000
0.270604 -0.839516 -0.315219 0.000000 0.500000 0.500000
0.102738 -0.663154 0.387171 0.000000 0.500000 0.500000
0.415552 0.071672 0.049775 0.000000 0.500000 0.500000
-0.257701 0.208543 0.283524 0.000000 0.500000 0.500000
0.397708 0.673344 0.113526 0.000000 0.500000 0.500000
0.003814 0.788050 -0.131282 0.300000 0.600000 0.000000
-0.321250 0.169823 -0.216364 0.000000 0.500000 0.500000
-0.373158 -0.782669 0.041133 0.000000 0.500000 0.500000
-0.053783 0.845590 0.268366 0.300000 0.600000 0.000000
-0.183932 0.045125 0.340450 0.000000 0.500000 0.500000
0.097754 0.788050 -0.093808 0.300000 0.600000 0.000000
-0.361215 0.189706 -0.111704 0.000000 0.500000 0.500000
0.128391 -0.622059 -0.384956 0.000000 0.500000 0.500000
0.131217 -0.753928 0.374393 0.000000 0.500000 0.500000
0.038488 -0.197985 -0.405095 0.000000 0.500000 0.500000
0.022446 0.735055 0.393208 0.300000 0.600000 0.000000
-0.223791 -0.002597 0.312817 0.000000 0.500000 0.500000
-0.010123 -0.645571 -0.398269 0.000000 0.500000 0.500000
-0.326233 0.788050 0.063838 0.300000 0.600000 0.000000
-0.177322 0.845590 0.265898 0.300000 0.600000 0.000000
-0.019780 0.577492 -0.401883 0.000000 0.500000 0.500000
0.269931 0.763318 0.302127 0.000000 0.500000 0.500000
0.118877 -0.026848 0.383164 0.000000 0.500000 0.500000
-0.041511 0.845590 0.192224 0.300000 0.600000 0.000000
-0.047797 0.003334 -0.394326 0.000000 0.500000 0.500000
0.339193 0.768323 0.232603 0.300000 0.600000 0.000000
-0.368966 0.113084 0.073198 0.000000 0.500000 0.500000
-0.078106 0.744424 -0.388495 0.000000 0.500000 0.500000
-0.258615 0.788050 0.273023 0.300000 0.600000 0.000000
0.367937 -0.642617 0.181355 0.000000 0.500000 0.500000
-0.110990 0.788050 -0.220858 0.300000 0.600000 0.000000
-0.375522 -0.730312 0.060935 0.000000 0.500000 0.500000
0.014704 0.229019 0.395733 0.000000 0.500000 0.500000
-0.127334 -0.919906 0.263626 0.000000 0.500000 0.500000
-0.152840 -0.766106 0.355047 0.000000 0.500000 0.500000
-0.264221 0.845590 -0.114992 0.300000 0.600000 0.000000
0.210964 -0.924253 -0.265394 0.000000 0.500000 0.500000
-0.098707 0.788050 -0.323194 0.300000 0.600000 0.000000
0.002763 -0.924253 0.115116 0.000000 0.500000 0.500000
-0.372029 -0.417910 0.080408 0.000000 0.500000 0.500000
0.416281 0.177944 -0.053463 0.000000 0.500000 0.500000
0.282434 -0.169398 0.298874 0.000000 0.500000 0.500000
-0.373454 0.633586 0.033517 0.000000 0.500000 0.500000
0.407153 0.454797 0.092164 0.000000 0.500000 0.500000
0.351601 0.842931 0.248594 0.300000 0.600000 0.000000
0.407404 0.845590 0.075566 0.300000 0.600000 0.000000
0.245332 -0.919489 0.059248 0.000000 0.500000 0.500000
-0.265718 -0.831594 -0.284930 0.000000 0.500000 0.500000
0.037793 -0.458217 -0.405126 0.000000 0.500000 0.500000
0.410043 0.788050 -0.032293 0.300000 0.600000 0.000000
-0.261039 -0.373644 0.274208 0.000000 0.500000 0.500000
0.046973 -0.924253 0.029576 0.000000 0.500000 0.500000
0.024075 -0.019203 0.390875 0.000000 0.500000 0.500000
-0.113756 0.387354 -0.375805 0.000000 0.500000 0.500000
0.410518 -0.491777 -0.064635 0.000000 0.500000 0.500000
-0.391820 0.760263 0.081094 0.300000 0.600000 0.000000
-0.057133 0.413337 0.387184 0.000000 0.500000 0.500000
0.106173 -0.851044 -0.390233 0.000000 0.500000 0.500000
-0.378858 0.010488 -0.045215 0.000000 0.500000 0.500000
-0.289252 0.317286 0.242898 0.000000 0.500000 0.500000
0.077799 0.816323 0.409056 0.300000 0.600000 0.000000
-0.144877 0.788050 0.066728 0.300000 0.600000 0.000000
0.274507 0.800473 -0.334923 0.300000 0.600000 0.000000
-0.180846 -0.468700 -0.345239 0.000000 0.500000 0.500000
-0.363706 -0.541017 -0.100291 0.000000 0.500000 0.500000
-0.051599 0.326425 -0.398822 0.000000 0.500000 0.500000
-0.068270 0.470401 0.380329 0.000000 0.500000 0.500000
0.387640 -0.622787 -0.147197 0.000000 0.500000 0.500000
-0.371894 -0.839890 -0.082289 0.000000 0.500000 0.500000
-0.374471 0.275407 0.017854 0.000000 0.500000 0.500000
-0.337895 0.826815 0.210801 0.300000 0.600000 0.000000
-0.366618 -0.686892 -0.089307 0.000000 0.500000 0.500000
-0.036509 -0.444845 -0.400661 0.000000 0.500000 0.500000
-0.242529 0.788050 -0.193631 0.300000 0.600000 0.000000
0.020460 0.773257 -0.402465 0.300000 0.600000 0.000000
0.103943 0.845590 -0.321794 0.300000 0.600000 0.000000
0.105616 0.689985 0.406768 0.300000 0.600000 0.000000
-0.192332 -0.168117 0.336262 0.000000 0.500000 0.500000
0.042940 0.379168 -0.404751 0.000000 0.500000 0.500000
0.222271 -0.547811 0.334708 0.000000 0.500000 0.500000
-0.360596 -0.921504 -0.096215 0.000000 0.500000 0.500000
0.313149 -0.433066 0.259118 0.000000 0.500000 0.500000
-0.385160 0.845590 -0.080071 0.300000 0.600000 0.000000
-0.122307 0.774993 -0.373022 0.000000 0.500000 0.500000
0.422446 0.813061 0.107385 0.300000 0.600000 0.000000
0.194454 -0.636287 0.356391 0.000000 0.500000 0.500000
0.227295 0.845590 0.014128 0.300000 0.600000 0.000000
0.219196 0.369473 0.336798 0.000000 0.500000 0.500000
0.419313 -0.444158 0.025352 0.000000 0.500000 0.500000
0.296653 -0.321596 -0.292720 0.000000 0.500000 0.500000
0.383540 0.626367 0.149112 0.000000 0.500000 0.500000
-0.312398 0.365904 -0.221812 0.000000 0.500000 0.500000
0.112234 -0.924253 0.317421 0.000000 0.500000 0.500000
0.376742 -0.649139 -0.176541 0.000000 0.500000 0.500000
0.070512 -0.523662 0.387310 0.000000 0.500000 0.500000
0.051501 0.845590 -0.012310 0.300000 0.600000 0.000000
-0.085368 0.027670 0.376795 0.000000 0.500000 0.500000
0.079714 0.739700 -0.397035 0.300000 0.600000 0.000000
0.418404 -0.062893 -0.024741 0.000000 0.500000 0.500000
0.416612 -0.380893 -0.048944 0.000000 0.500000 0.500000
-0.064421 0.100513 -0.391729 0.000000 0.500000 0.500000
0.194463 -0.426513 -0.363342 0.000000 0.500000 0.500000
0.420099 0.718231 0.119669 0.300000 0.600000 0.000000
-0.333117 -0.125866 0.186676 0.000000 0.500000 0.500000
-0.374149 0.347392 -0.070390 0.000000 0.500000 0.500000
-0.258846 0.788050 -0.259793 0.300000 0.600000 0.000000
0.414534 -0.068435 -0.071205 0.000000 0.500000 0.500000
-0.363878 0.046709 -0.099421 0.000000 0.500000 0.500000
-0.364878 0.746426 0.158538 0.300000 0.600000 0.000000
-0.377705 0.388762 0.036282 0.000000 0.500000 0.500000
-0.374735 -0.022951 0.066678 0.000000 0.500000 0.500000
0.128015 -0.527075 -0.385038 0.000000 0.500000 0.500000
-0.307733 -0.924253 0.043487 0.000000 0.500000 0.500000
-0.275676 0.609741 0.267379 0.000000 0.500000 0.500000
0.384989 0.845590 0.122118 0.300000 0.600000 0.000000
-0.177729 -0.777679 0.342863 0.000000 0.500000 0.500000
-0.131619 0.835013 -0.393076 0.300000 0.600000 0.000000
-0.032573 0.811736 0.409771 0.300000 0.600000 0.000000
0.090518 -0.919489 -0.129355 0.000000 0.500000 0.500000
0.350931 -0.063364 0.213169 0.000000 0.500000 0.500000
-0.037671 0.063740 0.390806 0.000000 0.500000 0.500000
0.402891 0.056811 -0.102496 0.000000 0.500000 0.500000
-0.365454 0.586547 -0.091174 0.000000 0.500000 0.500000
0.204846 0.739844 0.349412 0.300000 0.600000 0.000000
0.237982 0.315109 -0.335317 0.000000 0.500000 0.500000
-0.017241 -0.285492 -0.397415 0.000000 0.500000 0.500000
0.377905 0.269891 0.171488 0.000000 0.500000 0.500000
0.412331 0.597011 -0.042729 0.000000 0.500000 0.500000
0.419770 -0.305244 0.005638 0.000000 0.500000 0.500000
0.127639 0.785018 0.378098 0.300000 0.600000 0.000000
-0.353941 0.458379 0.136636 0.000000 0.500000 0.500000
0.324542 -0.192252 0.253019 0.000000 0.500000 0.500000
0.418722 0.103881 -0.020449 0.000000 0.500000 0.500000
-0.252356 0.505351 0.281858 0.000000 0.500000 0.500000
0.222840 0.377586 -0.344435 0.000000 0.500000 0.500000
0.303920 0.521008 0.277079 0.000000 0.500000 0.500000
0.076044 -0.919489 0.309517 0.000000 0.500000 0.500000
0.103117 0.845590 0.087649 0.300000 0.600000 0.000000
0.040186 0.581610 0.389696 0.000000 0.500000 0.500000
-0.237487 -0.836648 -0.306755 0.000000 0.500000 0.500000
-0.100350 0.696763 0.373085 0.000000 0.500000 0.500000
0.064344 0.845590 0.134936 0.300000 0.600000 0.000000
0.077678 0.695640 -0.417625 0.300000 0.600000 0.000000
0.175054 0.845590 -0.042322 0.300000 0.600000 0.000000
0.407504 0.002099 0.067179 0.000000 0.500000 0.500000
0.102719 -0.277224 0.387515 0.000000 0.500000 0.500000
0.023719 0.738920 -0.400808 0.000000 0.500000 0.500000
0.308710 0.271102 0.264256 0.000000 0.500000 0.500000
-0.248390 -0.399658 0.285284 0.000000 0.500000 0.500000
0.419543 -0.771486 -0.005613 0.000000 0.500000 0.500000
0.144457 0.357904 0.374130 0.000000 0.500000 0.500000
0.222488 -0.231286 0.340264 0.000000 0.500000 0.500000
-0.198935 0.788050 0.202226 0.300000 0.600000 0.000000
-0.351326 -0.074313 0.129906 0.000000 0.500000 0.500000
0.367323 -0.735730 -0.201826 0.000000 0.500000 0.500000
-0.167576 0.788050 0.310225 0.300000 0.600000 0.000000
-0.344994 0.788050 -0.058931 0.300000 0.600000 0.000000
0.213157 -0.557464 -0.349117 0.000000 0.500000 0.500000
-0.239117 0.805667 0.322658 0.300000 0.600000 0.000000
0.365399 0.772908 0.191967 0.300000 0.600000 0.000000
0.004905 0.845590 -0.096689 0.300000 0.600000 0.000000
-0.379307 -0.642942 -0.042623 0.000000 0.500000 0.500000
-0.034348 0.845590 -0.060093 0.300000 0.600000 0.000000
0.126190 0.788050 0.003893 0.300000 0.600000 0.000000
0.063217 0.845590 0.216468 0.300000 0.600000 0.000000
0.384611 0.175254 -0.155983 0.000000 0.500000 0.500000
-0.150593 0.845590 0.351254 0.300000 0.600000 0.000000
-0.048440 -0.823758 0.384118 0.000000 0.500000 0.500000
-0.292104 0.137335 0.238873 0.000000 0.500000 0.500000
0.331774 0.598440 -0.246962 0.000000 0.500000 0.500000
-0.025643 -0.724560 -0.397376 0.000000 0.500000 0.500000
0.389203 -0.714254 0.137389 0.000000 0.500000 0.500000
-0.365105 -0.915505 0.097404 0.000000 0.500000 0.500000
-0.361905 0.718073 -0.122411 0.300000 0.600000 0.000000
-0.159470 0.845590 -0.106758 0.300000 0.600000 0.000000
0.219192 -0.325196 -0.351374 0.000000 0.500000 0.500000
-0.100354 -0.616287 -0.385400 0.000000 0.500000 0.500000
-0.225500 0.220220 0.305055 0.000000 0.500000 0.500000
0.225500 0.616132 -0.342952 0.000000 0.500000 0.500000
0.419061 0.782918 0.016829 0.300000 0.600000 0.000000
-0.325462 -0.517717 0.197967 0.000000 0.500000 0.500000
-0.171904 0.039632 -0.351614 0.000000 0.500000 0.500000
-0.350992 0.033167 0.145111 0.000000 0.500000 0.500000
0.339574 -0.628728 -0.243338 0.000000 0.500000 0.500000
-0.349970 0.724111 0.141004 0.300000 0.600000 0.000000
0.083182 -0.823128 -0.394369 0.000000 0.500000 0.500000
0.312265 0.067630 -0.271864 0.000000 0.500000 0.500000
-0.024362 0.390552 -0.401548 0.000000 0.500000 0.500000
0.371239 -0.803615 0.184669 0.000000 0.500000 0.500000
-0.353729 0.156752 0.123107 0.000000 0.500000 0.500000
-0.341932 -0.131894 -0.173824 0.000000 0.500000 0.500000
-0.045183 0.845590 -0.128772 0.300000 0.600000 0.000000
-0.134809 -0.445612 0.363654 0.000000 0.500000 0.500000
0.158159 0.845590 -0.263085 0.300000 0.600000 0.000000
0.050297 0.754107 0.391171 0.300000 0.600000 0.000000
0.415288 0.464616 -0.003401 0.000000 0.500000 0.500000
-0.373305 0.143876 -0.050615 0.000000 0.500000 0.500000
0.156245 0.845590 0.102466 0.300000 0.600000 0.000000
-0.210633 -0.918975 0.321538 0.000000 0.500000 0.500000
-0.352214 -0.298897 0.128120 0.000000 0.500000 0.500000
0.355118 0.205128 0.206359 0.000000 0.500000 0.500000
-0.165733 -0.920044 0.084716 0.000000 0.500000 0.500000
-0.162556 0.525699 -0.362288 0.000000 0.500000 0.500000
-0.376874 -0.474263 0.047645 0.000000 0.500000 0.500000
0.173371 -0.924253 -0.333352 0.000000 0.500000 0.500000
0.043883 -0.279519 -0.400049 0.000000 0.500000 0.500000
-0.134056 0.845590 -0.215834 0.300000 0.600000 0.000000
-0.218693 0.189453 0.316643 0.000000 0.500000 0.500000
0.339977 0.601468 0.234626 0.000000 0.500000 0.500000
-0.132263 -0.617362 0.360299 0.000000 0.500000 0.500000
0.372692 0.504164 0.181828 0.000000 0.500000 0.500000
0.297963 0.778970 0.280338 0.300000 0.600000 0.000000
0.005907 -0.724603 -0.399554 0.000000 0.500000 0.500000
0.272990 0.845590 -0.179260 0.300000 0.600000 0.000000
0.364556 0.723678 -0.198727 0.000000 0.500000 0.500000
0.316366 -0.733243 -0.274779 0.000000 0.500000 0.500000
-0.104582 -0.747224 -0.379238 0.000000 0.500000 0.500000
-0.303254 -0.321244 0.230709 0.000000 0.500000 0.500000
-0.122463 0.336242 0.369983 0.000000 0.500000 0.500000
0.029796 -0.840906 -0.400734 0.000000 0.500000 0.500000
-0.195037 0.277986 0.328800 0.000000 0.500000 0.500000
0.357641 0.788050 -0.066924 0.300000 0.600000 0.000000
-0.112607 0.845590 -0.071128 0.300000 0.600000 0.000000
0.399000 -0.439139 0.124816 0.000000 0.500000 0.500000
0.418650 0.165075 -0.021436 0.000000 0.500000 0.500000
0.313062 0.786869 -0.301621 0.300000 0.600000 0.000000
-0.159994 -0.924250 0.324549 0.000000 0.500000 0.500000
0.401170 -0.390099 0.099119 0.000000 0.500000 0.500000
0.334660 -0.290572 0.241489 0.000000 0.500000 0.500000
-0.363650 -0.420395 0.108818 0.000000 0.500000 0.500000
-0.319699 0.845590 0.061899 0.300000 0.600000 0.000000
-0.059939 0.788050 -0.078889 0.300000 0.600000 0.000000
-0.238711 0.607779 -0.311364 0.000000 0.500000 0.500000
0.212662 0.845590 -0.154910 0.300000 0.600000 0.000000
-0.357400 -0.180185 0.112687 0.000000 0.500000 0.500000
-0.204838 -0.238819 -0.328922 0.000000 0.500000 0.500000
0.219284 -0.838451 -0.346649 0.000000 0.500000 0.500000
0.412448 -0.682002 -0.041336 0.000000 0.500000 0.500000
0.281890 0.640252 0.292409 0.000000 0.500000 0.500000
-0.048846 -0.840018 -0.394354 0.000000 0.500000 0.500000
-0.309778 0.785508 0.252203 0.300000 0.600000 0.000000
-0.155749 0.586019 0.353749 0.000000 0.500000 0.500000
0.396260 0.798738 -0.189956 0.300000 0.600000 0.000000
-0.375565 0.018572 0.002919 0.000000 0.500000 0.500000
-0.265576 -0.308096 -0.285095 0.000000 0.500000 0.500000
0.412335 0.489247 -0.042921 0.000000 0.500000 0.500000
0.167154 -0.739189 0.361886 0.000000 0.500000 0.500000
-0.331095 0.053026 0.180327 0.000000 0.500000 0.500000
-0.380687 -0.865746 -0.004326 0.000000 0.500000 0.500000
0.262684 -0.829561 0.307272 0.000000 0.500000 0.500000
0.402963 -0.601727 -0.102272 0.000000 0.500000 0.500000
-0.163688 -0.521221 0.345097 0.000000 0.500000 0.500000
-0.366712 0.753679 -0.097256 0.300000 0.600000 0.000000
