ply
format ascii 1.0
element vertex 1253
property float x
property float y
property float z
property uchar red
property uchar green
property uchar blue
end_header
0.098806 0.845589 -0.089203 76 153 0
0.402743 0.781239 -0.171320 76 153 0
-0.098123 0.762776 0.377044 76 153 0
0.249765 -0.732336 -0.330072 0 127 127
0.148891 -0.303975 -0.382793 0 127 127
-0.291168 -0.921871 -0.188056 0 127 127
0.391325 0.782233 0.138380 76 153 0
-0.362561 -0.076535 -0.118977 0 127 127
-0.256500 -0.509263 -0.291960 0 127 127
0.289854 -0.021324 0.289725 0 127 127
-0.241688 -0.310177 0.294218 0 127 127
0.391400 -0.081501 -0.143537 0 127 127
0.217194 -0.387789 0.341025 0 127 127
-0.044458 0.664250 0.387298 0 127 127
0.025303 0.010579 0.392999 0 127 127
-0.343145 0.254002 0.160622 0 127 127
-0.225685 -0.746775 0.308040 0 127 127
-0.354675 0.363152 0.127479 0 127 127
0.176040 0.788050 -0.204086 76 153 0
-0.022788 0.788050 -0.270569 76 153 0
-0.183487 0.845589 -0.243798 76 153 0
-0.378122 0.514435 -0.037545 0 127 127
0.311416 0.845589 0.072174 76 153 0
0.126912 0.788050 -0.268471 76 153 0
0.118316 -0.921871 -0.389019 0 127 127
0.379120 0.845589 0.108843 76 153 0
-0.376000 -0.139453 0.027196 0 127 127
0.068874 0.785237 0.409709 76 153 0
0.072713 -0.058712 0.389533 0 127 127
0.412464 -0.215191 0.053905 0 127 127
-0.214360 -0.187970 -0.325324 0 127 127
-0.176167 -0.269000 0.341652 0 127 127
-0.200854 0.788050 0.297212 76 153 0
-0.275526 -0.921871 0.231941 0 127 127
-0.272441 -0.688440 0.267656 0 127 127
0.339741 0.215063 -0.239450 0 127 127
0.284369 0.152729 -0.300184 0 127 127
-0.185777 0.706483 0.337003 0 127 127
-0.088607 -0.817317 -0.387030 0 127 127
-0.171104 0.845589 0.155651 76 153 0
-0.373762 0.733905 0.057798 0 127 127
0.396851 -0.653280 -0.127868 0 127 127
0.434660 0.808762 -0.041925 76 153 0
0.416683 0.304559 0.031826 0 127 127
0.237436 0.845589 0.218111 76 153 0
-0.161644 0.650904 0.348679 0 127 127
-0.053040 -0.580384 0.385658 0 127 127
0.366159 -0.486241 0.190395 0 127 127
0.012284 0.845589 -0.332517 76 153 0
-0.042670 0.845589 0.253470 76 153 0
-0.212883 -0.845501 -0.326327 0 127 127
0.158296 0.845589 0.385027 76 153 0
-0.365703 -0.034409 0.095777 0 127 127
0.425823 0.707292 0.089712 76 153 0
0.264880 0.845589 -0.183421 76 153 0
-0.379379 -0.065943 -0.030966 0 127 127
-0.274260 -0.054805 0.266085 0 127 127
0.120713 0.312787 -0.389200 0 127 127
-0.073403 0.845589 -0.066341 76 153 0
0.407317 -0.659015 0.080839 0 127 127
-0.054293 0.305762 0.385419 0 127 127
-0.255548 -0.378981 0.282247 0 127 127
0.231488 -0.148060 0.331318 0 127 127
0.384320 -0.652251 0.152859 0 127 127
0.382520 0.243123 0.156579 0 127 127
-0.345921 -0.184586 -0.160219 0 127 127
-0.341051 -0.577846 -0.170285 0 127 127
-0.045374 -0.921871 0.223797 0 127 127
-0.310190 0.845589 -0.237210 76 153 0
-0.371224 0.273916 -0.073643 0 127 127
-0.379623 0.740792 -0.029689 76 153 0
0.316332 0.076267 0.259071 0 127 127
-0.198950 -0.047629 -0.335789 0 127 127
0.149702 -0.369864 0.370422 0 127 127
-0.376828 0.298020 0.015864 0 127 127
-0.020319 0.067403 0.391911 0 127 127
0.260718 0.788050 0.231821 76 153 0
0.378211 0.444241 0.165485 0 127 127
0.051583 0.845589 -0.311999 76 153 0
-0.185346 -0.796495 0.337211 0 127 127
0.254092 0.719477 -0.326335 0 127 127
-0.015641 0.302512 -0.399826 0 127 127
-0.134187 0.046979 -0.371173 0 127 127
0.011039 0.845589 -0.384683 76 153 0
-0.341471 -0.169347 0.165432 0 127 127
0.308338 -0.089695 0.268325 0 127 127
0.045473 0.088595 0.391524 0 127 127
-0.129616 -0.014366 0.364174 0 127 127
-0.203886 -0.658262 -0.332436 0 127 127
0.063248 0.758378 -0.400181 0 127 127
-0.018474 0.687981 -0.418283 76 153 0
-0.009946 -0.858016 0.393893 0 127 127
-0.086358 0.239215 0.379292 0 127 127
-0.065123 -0.921871 -0.229054 0 127 127
0.035611 0.665281 -0.403573 0 127 127
0.128091 -0.419503 -0.387790 0 127 127
0.405769 -0.269815 -0.102231 0 127 127
0.113869 0.522582 0.382888 0 127 127
0.095311 0.403191 0.387881 0 127 127
0.261847 0.845589 0.281721 76 153 0
0.400865 -0.180389 0.114602 0 127 127
0.413555 0.382992 -0.058481 0 127 127
-0.249704 0.472653 -0.299828 0 127 127
0.386387 0.130893 -0.157944 0 127 127
0.414670 -0.320687 -0.043221 0 127 127
0.413051 0.228748 0.050832 0 127 127
0.379175 -0.354308 -0.178675 0 127 127
-0.001356 -0.921871 0.276950 0 127 127
-0.168298 0.428800 -0.356606 0 127 127
0.304629 0.813097 0.302975 76 153 0
0.339937 -0.545568 0.231741 0 127 127
0.397456 0.429697 -0.126127 0 127 127
-0.310930 0.811483 0.250507 76 153 0
0.385367 0.535901 -0.160877 0 127 127
0.067503 -0.921871 0.150953 0 127 127
0.357236 -0.506409 -0.213690 0 127 127
0.187584 -0.921871 -0.171912 0 127 127
-0.264586 0.788050 -0.000920 76 153 0
-0.332658 0.313347 -0.187632 0 127 127
0.126034 -0.458142 -0.388183 0 127 127
-0.121399 -0.222955 -0.375622 0 127 127
0.267733 0.390888 0.306703 0 127 127
-0.296158 0.315815 0.236941 0 127 127
-0.237884 0.788050 -0.288658 76 153 0
0.146744 -0.921871 -0.160495 0 127 127
-0.259829 0.600745 0.278549 0 127 127
0.051490 0.336101 -0.402428 0 127 127
-0.233817 -0.046920 0.301017 0 127 127
0.222335 0.845589 -0.117515 76 153 0
0.360826 -0.921871 -0.140545 0 127 127
-0.319837 -0.248090 -0.214132 0 127 127
0.089578 0.845589 -0.281635 76 153 0
-0.271102 -0.398614 -0.275054 0 127 127
0.150534 0.042330 0.370133 0 127 127
-0.302146 -0.808109 -0.239113 0 127 127
-0.041583 0.844440 0.408049 76 153 0
0.070422 -0.673922 0.389700 0 127 127
0.002557 0.788050 -0.331408 76 153 0
0.393387 0.838811 0.179678 76 153 0
-0.187161 0.011513 0.336333 0 127 127
0.369711 -0.802979 0.183054 0 127 127
0.076718 0.845589 -0.352765 76 153 0
0.144968 -0.031253 0.372069 0 127 127
-0.139172 0.113583 0.359551 0 127 127
0.344224 0.845589 0.190565 76 153 0
-0.209082 -0.617462 -0.328908 0 127 127
-0.259301 -0.921871 0.019208 0 127 127
-0.089242 -0.072778 0.378741 0 127 127
-0.223267 -0.183298 0.310129 0 127 127
0.364411 -0.567132 -0.203124 0 127 127
0.047678 0.788050 -0.036670 76 153 0
-0.332167 -0.592531 0.183919 0 127 127
0.330167 0.232870 0.243052 0 127 127
-0.026330 -0.755535 -0.399044 0 127 127
0.392540 -0.780746 0.135869 0 127 127
-0.359651 -0.217460 0.113174 0 127 127
-0.382401 0.842137 0.108169 76 153 0
-0.333536 -0.347717 -0.185818 0 127 127
0.394881 -0.104115 0.131031 0 127 127
-0.369318 0.252077 0.085388 0 127 127
-0.011157 0.845589 -0.031805 76 153 0
0.062107 -0.733400 -0.400399 0 127 127
0.239468 -0.620592 0.325898 0 127 127
0.004274 0.845589 -0.260518 76 153 0
0.103796 0.788050 0.222334 76 153 0
0.124471 -0.921871 -0.108862 0 127 127
-0.010429 0.845589 0.106893 76 153 0
-0.338964 0.810089 -0.220160 76 153 0
-0.359871 0.721033 0.172932 76 153 0
0.265203 0.343313 -0.316738 0 127 127
0.063071 -0.567294 -0.400215 0 127 127
0.362975 -0.446571 -0.205239 0 127 127
0.248888 -0.740391 0.319501 0 127 127
-0.028000 0.550196 -0.398922 0 127 127
-0.095317 -0.467070 0.377580 0 127 127
-0.110067 -0.332611 0.373632 0 127 127
0.397292 0.542007 0.126047 0 127 127
-0.350542 -0.548022 -0.150667 0 127 127
0.181526 0.845589 -0.354730 76 153 0
-0.048659 -0.309769 0.386496 0 127 127
0.018688 -0.337143 0.393483 0 127 127
0.159725 -0.921871 -0.350659 0 127 127
0.066009 -0.420386 -0.399654 0 127 127
0.156374 -0.046497 -0.379172 0 127 127
0.127238 -0.139041 0.378238 0 127 127
0.247445 -0.341798 0.320481 0 127 127
-0.008396 0.788050 0.326899 76 153 0
-0.232709 -0.898471 0.301974 0 127 127
0.380989 -0.425519 0.159744 0 127 127
-0.334415 0.567110 0.180608 0 127 127
0.372108 0.419175 -0.191791 0 127 127
0.092097 -0.921871 0.026393 0 127 127
-0.268159 -0.454191 0.271354 0 127 127
-0.090723 0.100490 -0.386294 0 127 127
-0.076114 -0.527644 -0.391376 0 127 127
-0.272336 0.473982 0.267746 0 127 127
-0.148963 0.788050 -0.211423 76 153 0
0.406597 0.154235 0.084608 0 127 127
0.122770 0.760320 -0.388807 0 127 127
-0.061836 0.788050 0.275429 76 153 0
0.333202 0.845589 -0.149154 76 153 0
-0.273337 -0.447835 -0.272466 0 127 127
0.276391 -0.095330 0.300823 0 127 127
0.319001 0.151892 0.255980 0 127 127
-0.226368 0.659040 0.307450 0 127 127
0.141270 0.433989 -0.385272 0 127 127
0.124324 0.788050 -0.015759 76 153 0
0.195658 -0.921871 0.115713 0 127 127
0.156830 0.357061 0.367943 0 127 127
-0.212041 0.788050 -0.071824 76 153 0
0.362181 0.531556 0.198619 0 127 127
0.243316 0.845589 0.324122 76 153 0
-0.359960 0.354846 -0.131201 0 127 127
0.366282 -0.070230 0.190141 0 127 127
0.191825 0.845589 0.161071 76 153 0
0.179684 -0.651467 0.359992 0 127 127
-0.072472 -0.003792 0.381945 0 127 127
-0.299418 -0.453881 -0.242270 0 127 127
-0.113524 0.387490 -0.378361 0 127 127
0.041573 0.788050 -0.183190 76 153 0
-0.307982 0.788050 0.218225 76 153 0
-0.045613 -0.683345 0.387078 0 127 127
0.150750 0.788050 0.222873 76 153 0
-0.077901 0.322606 -0.390754 0 127 127
-0.357299 0.700494 -0.136702 0 127 127
0.190939 -0.171244 -0.362449 0 127 127
0.169032 0.465218 0.363698 0 127 127
0.382960 0.722814 -0.211131 76 153 0
0.401088 -0.878555 0.113438 0 127 127
0.403363 0.475926 0.101530 0 127 127
-0.130749 0.415522 0.363626 0 127 127
-0.347647 0.015790 0.147681 0 127 127
0.412699 0.601576 -0.070178 0 127 127
0.165363 0.370895 -0.374823 0 127 127
0.343749 -0.140174 0.227327 0 127 127
0.369537 -0.644003 -0.195577 0 127 127
-0.024838 -0.629542 -0.399153 0 127 127
0.315184 0.575963 -0.273568 0 127 127
-0.321938 -0.211303 -0.209789 0 127 127
-0.394425 0.808986 0.047308 76 153 0
-0.166674 -0.564746 -0.357708 0 127 127
0.047956 -0.921871 0.389551 0 127 127
-0.288600 -0.573782 -0.254795 0 127 127
0.334777 0.722566 0.237715 76 153 0
-0.337823 -0.484474 -0.176957 0 127 127
-0.191090 0.144417 0.334432 0 127 127
-0.288267 -0.627634 -0.255181 0 127 127
-0.062309 0.845589 0.045949 76 153 0
-0.206948 -0.420184 0.324224 0 127 127
-0.346069 -0.038772 -0.159913 0 127 127
0.399245 0.416737 0.122009 0 127 127
-0.012115 -0.547245 -0.400084 0 127 127
0.292525 0.788050 -0.134977 76 153 0
0.159362 0.282665 0.367062 0 127 127
0.236305 0.839361 -0.362543 76 153 0
-0.179547 0.202514 -0.348966 0 127 127
-0.325528 0.840573 0.229013 76 153 0
0.347326 -0.346788 0.223186 0 127 127
0.352901 -0.591923 0.216731 0 127 127
-0.147573 -0.376933 -0.366516 0 127 127
-0.252411 0.788050 -0.068648 76 153 0
-0.087563 -0.082923 -0.387393 0 127 127
-0.315040 0.279779 -0.224046 0 127 127
0.131694 0.845589 0.303057 76 153 0
-0.141546 0.845589 -0.040561 76 153 0
-0.366034 -0.579017 -0.100804 0 127 127
-0.379771 -0.299218 -0.024382 0 127 127
-0.114679 -0.287024 0.371401 0 127 127
0.317114 0.423170 -0.271901 0 127 127
0.027804 -0.410341 0.392816 0 127 127
-0.265282 0.845589 0.244409 76 153 0
0.239712 0.788050 0.031886 76 153 0
-0.373458 -0.905316 0.061958 0 127 127
-0.312283 -0.344809 0.213197 0 127 127
-0.163748 0.259928 -0.359695 0 127 127
0.110470 0.065920 -0.391157 0 127 127
0.045259 0.845589 -0.141529 76 153 0
0.400391 -0.755518 -0.117691 0 127 127
0.110211 0.690903 -0.411409 76 153 0
0.064096 -0.921871 -0.327419 0 127 127
0.203758 -0.921871 0.038302 0 127 127
-0.227372 0.772532 -0.340472 76 153 0
-0.234446 -0.092871 -0.311683 0 127 127
-0.043759 -0.636322 0.387432 0 127 127
0.403645 0.004554 0.100057 0 127 127
-0.030646 0.228894 -0.398729 0 127 127
-0.373367 0.545728 -0.062431 0 127 127
-0.375036 -0.084430 0.040383 0 127 127
0.399651 -0.367471 0.120954 0 127 127
-0.060576 -0.174045 0.384218 0 127 127
0.398228 0.060463 -0.123909 0 127 127
0.185147 0.788050 -0.303807 76 153 0
-0.116074 0.845589 0.189934 76 153 0
-0.019847 -0.128059 0.392001 0 127 127
-0.331583 -0.072114 -0.189855 0 127 127
-0.258892 -0.642074 -0.289190 0 127 127
0.429990 0.687981 0.057070 76 153 0
0.069918 0.788050 -0.305826 76 153 0
0.363905 -0.078679 -0.203869 0 127 127
0.355886 0.483625 -0.215677 0 127 127
-0.219982 0.845589 -0.156197 76 153 0
0.004351 -0.921871 -0.362167 0 127 127
0.003749 0.480147 -0.401244 0 127 127
-0.375182 0.592281 -0.052930 0 127 127
-0.339592 0.770503 0.208303 76 153 0
-0.214105 -0.120885 0.318042 0 127 127
0.347190 0.166171 -0.228482 0 127 127
-0.015981 0.686002 0.392740 0 127 127
0.011979 -0.194921 0.393973 0 127 127
-0.284006 0.471114 -0.260114 0 127 127
0.356055 -0.304260 0.211280 0 127 127
-0.126050 -0.921871 -0.271329 0 127 127
0.007764 -0.919213 0.394281 0 127 127
-0.361242 -0.323087 -0.125882 0 127 127
0.310247 -0.255818 0.266116 0 127 127
0.375639 -0.921871 0.129032 0 127 127
-0.355679 0.450311 -0.140049 0 127 127
-0.180414 0.744705 -0.372363 76 153 0
-0.175325 -0.098921 -0.351833 0 127 127
-0.351653 0.290289 0.136164 0 127 127
-0.283111 0.788050 0.106958 76 153 0
0.391568 0.765140 0.183438 76 153 0
0.407002 0.845589 -0.000154 76 153 0
-0.397293 0.691895 -0.042939 76 153 0
0.414661 -0.095640 0.042406 0 127 127
0.421888 0.768961 -0.116289 76 153 0
-0.300924 -0.824008 0.229923 0 127 127
-0.260140 -0.785087 0.278280 0 127 127
0.207610 -0.818211 -0.354383 0 127 127
0.177569 -0.212278 -0.368918 0 127 127
0.397975 -0.235296 0.124634 0 127 127
0.252843 0.704913 0.340801 76 153 0
0.090335 0.589897 0.388244 0 127 127
0.210856 0.071662 0.345329 0 127 127
-0.307898 0.057443 -0.232453 0 127 127
-0.208396 0.788050 0.082726 76 153 0
0.402701 0.048399 0.104993 0 127 127
0.261122 0.657973 -0.320263 0 127 127
0.168045 0.784503 -0.395569 76 153 0
0.309252 -0.446123 0.267267 0 127 127
-0.242325 0.788050 0.283709 76 153 0
0.344500 0.540752 -0.232443 0 127 127
-0.168752 -0.623603 0.345240 0 127 127
-0.297296 -0.508132 -0.244728 0 127 127
0.418057 -0.794586 0.003104 0 127 127
-0.107177 0.656381 -0.380570 0 127 127
0.287408 -0.382292 0.292557 0 127 127
-0.375824 -0.706075 -0.049572 0 127 127
0.362370 0.747758 0.236125 76 153 0
0.351220 -0.032663 -0.222547 0 127 127
-0.351537 0.227647 0.136497 0 127 127
0.207180 -0.295712 -0.354591 0 127 127
0.337018 0.441707 -0.243460 0 127 127
0.190394 0.708400 0.356266 0 127 127
0.352474 0.845589 0.026967 76 153 0
-0.376673 -0.706516 0.017986 0 127 127
-0.252134 0.321562 0.285195 0 127 127
-0.036448 -0.921871 0.011687 0 127 127
-0.167307 0.570148 0.345939 0 127 127
0.196203 -0.251871 0.354245 0 127 127
0.359060 0.845589 -0.041486 76 153 0
-0.246114 0.167639 0.290395 0 127 127
-0.172786 0.788050 0.074902 76 153 0
-0.206599 -0.369033 0.324525 0 127 127
0.328279 0.845589 -0.108888 76 153 0
0.116758 -0.400616 0.381883 0 127 127
-0.330401 0.845589 0.120027 76 153 0
-0.042912 0.845589 0.185888 76 153 0
-0.013368 0.122153 -0.399992 0 127 127
-0.298476 0.687981 0.266824 76 153 0
0.066327 -0.149154 0.390000 0 127 127
0.416565 -0.213320 -0.017309 0 127 127
-0.020204 0.526502 0.391933 0 127 127
0.296831 0.788050 0.163150 76 153 0
-0.146467 -0.921871 0.077083 0 127 127
-0.224626 -0.337467 -0.318352 0 127 127
-0.313315 -0.725844 0.211677 0 127 127
0.404665 -0.617556 0.094718 0 127 127
0.001335 0.788050 -0.034284 76 153 0
0.021979 0.204622 0.393242 0 127 127
-0.169999 0.788050 0.015406 76 153 0
0.416182 -0.281758 -0.022540 0 127 127
-0.276828 0.845589 0.126515 76 153 0
-0.045740 -0.584148 -0.397625 0 127 127
0.416927 0.260070 -0.012350 0 127 127
0.121747 -0.921871 -0.030771 0 127 127
0.404948 0.113059 -0.104592 0 127 127
0.358028 0.788050 -0.011250 76 153 0
-0.315665 0.152509 0.208216 0 127 127
-0.342796 0.687981 -0.210908 76 153 0
0.023773 0.470764 0.393111 0 127 127
0.186269 -0.889945 -0.364709 0 127 127
0.329954 -0.439270 -0.253861 0 127 127
0.200688 -0.724953 0.352235 0 127 127
0.064704 0.845589 0.196796 76 153 0
0.229018 0.845589 -0.021058 76 153 0
0.409625 -0.587925 -0.091149 0 127 127
0.279259 -0.171310 -0.304598 0 127 127
-0.349799 0.160253 0.141495 0 127 127
0.097741 0.845589 -0.245863 76 153 0
-0.366966 -0.151987 0.092148 0 127 127
0.240825 -0.921871 0.219442 0 127 127
0.149315 0.845589 -0.236846 76 153 0
-0.353044 -0.774124 0.132166 0 127 127
-0.366299 -0.751040 -0.099418 0 127 127
0.378850 -0.690996 0.164164 0 127 127
0.230603 0.187123 -0.343259 0 127 127
0.303685 -0.753055 0.273712 0 127 127
0.402000 0.642379 0.108664 0 127 127
-0.198692 0.451488 -0.335964 0 127 127
0.306516 0.788050 0.018002 76 153 0
0.355373 0.831705 0.244226 76 153 0
0.140834 0.788050 -0.177604 76 153 0
0.384737 0.183211 0.151996 0 127 127
0.174717 -0.921871 -0.046334 0 127 127
0.233468 -0.853373 -0.341873 0 127 127
0.160436 0.322600 -0.377207 0 127 127
0.275415 0.788050 0.086954 76 153 0
-0.033273 -0.235275 -0.398537 0 127 127
0.236171 0.845589 0.164255 76 153 0
-0.180931 0.051200 0.339347 0 127 127
-0.294845 -0.898978 -0.247565 0 127 127
0.179713 -0.142203 0.359982 0 127 127
0.135650 0.225662 0.375311 0 127 127
0.411993 0.133848 0.056368 0 127 127
0.020812 0.723983 0.393327 76 153 0
-0.246569 0.845589 -0.237176 76 153 0
-0.253201 0.788050 0.175018 76 153 0
0.163203 -0.768307 -0.375868 0 127 127
0.119939 0.788050 0.093471 76 153 0
-0.376523 -0.189729 -0.045911 0 127 127
0.073091 -0.094557 -0.398300 0 127 127
0.115557 0.296354 0.382301 0 127 127
0.175898 -0.285389 -0.369726 0 127 127
0.241921 0.788050 0.287544 76 153 0
0.175767 0.845589 -0.062183 76 153 0
0.131939 -0.921871 -0.220330 0 127 127
-0.357549 0.845589 -0.058219 76 153 0
-0.308021 -0.267120 0.219473 0 127 127
-0.271338 0.845589 -0.116660 76 153 0
0.413745 0.182778 -0.055878 0 127 127
-0.355254 0.321193 -0.140928 0 127 127
-0.330230 -0.003208 -0.192651 0 127 127
0.214905 0.608682 -0.350854 0 127 127
0.067703 -0.921871 0.110820 0 127 127
0.288801 0.723173 -0.322576 76 153 0
0.409206 -0.761097 0.070955 0 127 127
0.240597 0.430633 -0.337991 0 127 127
0.418912 0.195745 0.020161 0 127 127
0.184151 -0.197634 0.358438 0 127 127
0.406777 0.826862 -0.159724 76 153 0
0.382141 -0.130936 -0.170151 0 127 127
-0.362199 -0.781588 -0.120870 0 127 127
-0.194776 -0.921871 0.103599 0 127 127
-0.325394 -0.144982 -0.202646 0 127 127
0.355558 0.400026 -0.216160 0 127 127
0.018124 0.245317 -0.402295 0 127 127
0.016293 -0.863203 -0.402161 0 127 127
-0.211753 0.788050 -0.008005 76 153 0
0.269863 0.845589 -0.224485 76 153 0
0.409886 -0.328110 -0.090396 0 127 127
0.043750 0.845589 -0.212755 76 153 0
0.185655 -0.035530 0.357915 0 127 127
-0.177134 -0.430273 -0.350605 0 127 127
-0.343699 0.249123 -0.164811 0 127 127
-0.385198 0.829691 -0.106231 76 153 0
-0.082338 -0.921871 -0.361004 0 127 127
-0.321868 0.156892 -0.209934 0 127 127
-0.150099 -0.619739 -0.365638 0 127 127
-0.066298 -0.548152 0.383125 0 127 127
0.312858 0.687981 -0.299819 76 153 0
0.417949 0.716955 0.001627 0 127 127
0.231629 0.218717 0.331222 0 127 127
0.359792 -0.294408 -0.209925 0 127 127
-0.375157 0.210327 0.038718 0 127 127
0.373002 -0.900804 0.176251 0 127 127
-0.379215 -0.131177 -0.016776 0 127 127
-0.348158 0.376801 -0.155594 0 127 127
0.098615 0.845589 0.090817 76 153 0
-0.257131 -0.815960 -0.291230 0 127 127
-0.378240 0.100214 -0.003447 0 127 127
0.285827 -0.398892 -0.298924 0 127 127
0.017324 -0.807597 0.393583 0 127 127
0.056680 0.845589 -0.390726 76 153 0
0.207001 0.715819 -0.354678 0 127 127
-0.127421 0.048967 0.365236 0 127 127
0.202042 0.783580 -0.379120 76 153 0
0.034291 0.788050 0.320777 76 153 0
-0.316519 -0.427740 -0.220990 0 127 127
-0.076694 0.788050 0.326255 76 153 0
-0.152185 -0.789516 0.353255 0 127 127
-0.377387 0.553484 0.008228 0 127 127
-0.107951 -0.609776 0.374656 0 127 127
-0.050216 0.188723 0.386198 0 127 127
-0.055686 -0.474957 0.385153 0 127 127
0.301274 -0.503951 -0.285583 0 127 127
0.412141 0.251478 -0.077811 0 127 127
0.249626 0.845589 0.107677 76 153 0
0.367286 0.677570 -0.198891 0 127 127
-0.327545 0.712167 0.190724 0 127 127
-0.225892 0.706876 0.307862 0 127 127
0.337836 0.766392 -0.242256 0 127 127
-0.075455 0.788050 -0.357397 76 153 0
0.016626 0.788050 0.027471 76 153 0
-0.049623 0.295720 -0.397341 0 127 127
0.278939 -0.430826 0.299093 0 127 127
0.050209 0.534133 0.391178 0 127 127
0.417088 0.026950 0.029707 0 127 127
-0.372084 -0.870139 -0.069140 0 127 127
-0.350315 0.762090 -0.196698 76 153 0
-0.062136 -0.028039 -0.396239 0 127 127
0.228409 -0.301954 0.333409 0 127 127
-0.334870 0.325848 0.179938 0 127 127
-0.122508 0.303659 -0.375236 0 127 127
0.340537 0.429303 0.231047 0 127 127
0.053029 0.845589 0.096599 76 153 0
-0.344257 -0.114094 -0.163658 0 127 127
-0.013391 0.405833 0.393235 0 127 127
-0.328788 0.509245 -0.195632 0 127 127
0.200663 0.452134 -0.357745 0 127 127
-0.374476 -0.451095 -0.056623 0 127 127
0.412880 0.563381 -0.067711 0 127 127
0.316314 -0.136679 -0.272592 0 127 127
0.175173 -0.588789 -0.370077 0 127 127
-0.289605 0.845589 -0.147480 76 153 0
-0.257773 0.845589 -0.298754 76 153 0
0.168314 0.696766 -0.395439 76 153 0
0.211468 -0.682328 0.344914 0 127 127
0.418265 -0.826756 0.023547 0 127 127
-0.252630 -0.074377 0.284767 0 127 127
0.156766 0.663654 0.367965 0 127 127
0.206099 -0.549459 -0.355114 0 127 127
-0.141025 0.788050 -0.077988 76 153 0
-0.088182 0.241693 -0.387178 0 127 127
-0.372643 0.337764 0.073112 0 127 127
-0.368265 0.719422 -0.089127 76 153 0
0.414857 -0.538055 -0.040668 0 127 127
-0.322037 -0.890714 -0.209585 0 127 127
0.438189 0.778925 0.006336 76 153 0
0.150630 0.788050 0.034144 76 153 0
-0.340205 0.655035 -0.172033 0 127 127
0.094732 -0.200817 0.387923 0 127 127
-0.350523 -0.147946 0.139412 0 127 127
0.309827 0.755558 0.266601 0 127 127
0.319524 -0.784545 -0.269218 0 127 127
-0.296434 -0.587964 0.236534 0 127 127
-0.367464 0.364790 -0.093317 0 127 127
0.262624 0.788050 -0.213083 76 153 0
-0.329894 -0.656208 -0.193344 0 127 127
0.431569 0.845589 0.033664 76 153 0
0.126273 -0.560870 0.378573 0 127 127
-0.288088 0.035684 0.248823 0 127 127
-0.178966 0.808771 -0.373347 76 153 0
-0.169731 -0.333852 0.344766 0 127 127
-0.343924 -0.921871 0.144230 0 127 127
-0.239255 0.788050 0.218724 76 153 0
-0.234331 0.818717 0.326793 76 153 0
-0.261258 0.381016 -0.286451 0 127 127
-0.053285 0.788050 -0.147064 76 153 0
0.390638 0.788050 0.100022 76 153 0
-0.088802 0.050467 0.378825 0 127 127
-0.358991 -0.158065 -0.133205 0 127 127
0.238873 -0.921871 0.290722 0 127 127
-0.230357 -0.404963 -0.314459 0 127 127
0.082453 -0.921871 -0.051135 0 127 127
-0.373950 0.504668 0.055231 0 127 127
-0.379017 -0.760521 -0.032859 0 127 127
0.388831 0.363963 -0.150920 0 127 127
-0.334749 0.788050 0.092404 76 153 0
0.304672 0.788050 -0.215053 76 153 0
-0.078171 0.691899 -0.411669 76 153 0
0.394914 0.845589 0.078327 76 153 0
0.142812 0.788050 0.172509 76 153 0
-0.340922 -0.725818 -0.170551 0 127 127
0.391833 0.709926 0.137329 0 127 127
0.055746 0.458061 0.390773 0 127 127
0.361674 0.788050 0.178588 0 127 127
0.369928 -0.921871 0.031708 0 127 127
0.243528 0.788050 -0.323162 76 153 0
-0.343153 -0.921871 -0.066281 0 127 127
0.120443 -0.921871 0.101270 0 127 127
-0.358731 0.090579 0.115820 0 127 127
0.365004 0.238858 0.192782 0 127 127
-0.272991 -0.921871 0.193097 0 127 127
0.242966 -0.663050 0.323523 0 127 127
0.023719 0.845589 0.372838 76 153 0
-0.101457 0.845589 -0.147985 76 153 0
-0.224328 0.616910 0.309212 0 127 127
-0.079586 -0.848178 0.380586 0 127 127
0.052733 -0.921871 -0.230621 0 127 127
0.207488 -0.921871 -0.320398 0 127 127
-0.196792 0.370391 -0.337254 0 127 127
0.417169 0.329115 -0.009040 0 127 127
0.126647 0.845589 -0.309560 76 153 0
-0.338956 -0.251308 -0.174614 0 127 127
-0.375349 -0.838288 0.036101 0 127 127
0.168788 -0.813165 0.363783 0 127 127
0.271004 -0.604045 0.304482 0 127 127
-0.268498 0.062844 0.271061 0 127 127
-0.252720 0.720825 -0.323257 76 153 0
-0.015260 0.718153 -0.399854 76 153 0
0.355980 0.052562 -0.215539 0 127 127
-0.080911 -0.131411 -0.389707 0 127 127
0.353439 0.687981 0.245635 76 153 0
-0.356271 -0.278807 0.122890 0 127 127
-0.353734 0.130557 -0.144070 0 127 127
-0.272543 -0.170165 0.267568 0 127 127
0.112002 -0.652743 0.383538 0 127 127
0.188888 -0.435199 -0.363441 0 127 127
0.078884 0.845589 0.266089 76 153 0
-0.371645 0.604066 0.078697 0 127 127
-0.240990 -0.350606 0.294821 0 127 127
0.149879 0.782101 0.370361 0 127 127
-0.348169 -0.609679 -0.155573 0 127 127
-0.282417 -0.316763 0.257173 0 127 127
0.115162 0.501498 -0.390261 0 127 127
-0.036592 -0.921871 0.315755 0 127 127
-0.376895 -0.543666 0.014951 0 127 127
-0.339208 -0.675828 0.171939 0 127 127
-0.202062 -0.763051 0.328444 0 127 127
0.319742 0.322462 -0.268899 0 127 127
0.267866 0.615246 -0.314438 0 127 127
0.336997 0.285127 -0.243490 0 127 127
0.132017 -0.438878 0.376575 0 127 127
-0.094104 0.475296 0.377811 0 127 127
0.167657 -0.408871 -0.373713 0 127 127
0.017432 0.609255 -0.402244 0 127 127
0.094388 0.788050 -0.229524 76 153 0
0.250393 0.764205 0.342465 76 153 0
-0.150057 0.845589 -0.364796 76 153 0
-0.314359 0.845589 -0.079818 76 153 0
-0.182193 0.285631 -0.347169 0 127 127
0.390379 -0.159384 0.140335 0 127 127
0.297760 -0.547931 0.280572 0 127 127
-0.323808 0.346313 -0.205925 0 127 127
-0.316454 0.193710 -0.221123 0 127 127
0.170189 0.788050 -0.069373 76 153 0
-0.370484 -0.357212 -0.077515 0 127 127
0.408338 0.688289 -0.155237 76 153 0
0.341683 0.845589 0.155986 76 153 0
-0.025704 0.788050 0.283973 76 153 0
-0.338388 0.216314 -0.175789 0 127 127
0.175234 -0.880783 0.361540 0 127 127
0.192531 0.265898 0.355523 0 127 127
0.268696 -0.161117 0.306049 0 127 127
0.419143 -0.561379 0.017952 0 127 127
0.011568 -0.414771 -0.401815 0 127 127
-0.285904 0.749561 0.252039 76 153 0
-0.298542 -0.366380 -0.243285 0 127 127
0.199553 0.149623 -0.358282 0 127 127
0.372796 0.845589 -0.098274 76 153 0
-0.263058 0.764231 -0.284367 0 127 127
0.276335 0.580932 0.300861 0 127 127
0.075656 0.713346 0.389318 76 153 0
0.029558 0.788050 -0.214933 76 153 0
0.400250 -0.920864 -0.118097 0 127 127
0.365115 -0.749896 0.192553 0 127 127
0.384251 -0.255506 -0.164086 0 127 127
0.360356 0.030005 0.202389 0 127 127
0.175459 0.213362 -0.369938 0 127 127
0.278018 0.374987 -0.305669 0 127 127
-0.078161 0.845589 -0.253974 76 153 0
-0.286526 -0.253045 -0.257197 0 127 127
0.326012 0.788050 0.121988 76 153 0
-0.374079 -0.479978 0.053465 0 127 127
0.363605 -0.001208 -0.204312 0 127 127
-0.341980 -0.097203 0.163971 0 127 127
-0.271218 0.002921 0.268712 0 127 127
-0.107898 -0.646676 0.374682 0 127 127
0.286797 0.547788 -0.298087 0 127 127
0.191676 0.388613 -0.362093 0 127 127
0.139968 0.050351 -0.385521 0 127 127
0.130581 -0.765152 0.377075 0 127 127
0.335725 -0.343828 -0.245363 0 127 127
-0.041467 -0.294500 -0.397938 0 127 127
-0.308743 -0.655126 0.218409 0 127 127
0.276320 -0.559755 -0.307136 0 127 127
0.288119 -0.789984 0.291734 0 127 127
-0.361968 0.730989 -0.122082 76 153 0
-0.300732 -0.678620 -0.240749 0 127 127
0.326888 -0.764983 0.246849 0 127 127
0.204247 0.788050 0.275612 76 153 0
-0.065046 0.788050 -0.214243 76 153 0
-0.149119 0.501934 -0.365979 0 127 127
0.267422 0.845589 -0.122241 76 153 0
-0.314853 -0.729380 -0.224400 0 127 127
-0.018302 -0.477478 -0.399631 0 127 127
0.334997 -0.921871 -0.018835 0 127 127
-0.114266 0.845589 -0.316908 76 153 0
0.289060 0.750685 0.316205 76 153 0
-0.310931 0.788050 -0.039464 76 153 0
0.380604 0.004585 -0.174569 0 127 127
0.113580 -0.502664 0.382989 0 127 127
0.253302 -0.271535 0.316503 0 127 127
-0.064171 0.595456 -0.395531 0 127 127
-0.372855 0.202964 -0.065110 0 127 127
-0.352043 -0.873613 -0.147566 0 127 127
0.407209 0.500019 -0.098093 0 127 127
0.050540 0.788050 -0.379066 76 153 0
-0.361544 0.722353 0.107732 76 153 0
-0.123244 -0.066210 0.367257 0 127 127
0.149045 0.119614 -0.382718 0 127 127
0.415581 -0.791824 -0.030768 0 127 127
0.099049 -0.810970 0.387607 0 127 127
0.367710 -0.526617 0.187189 0 127 127
-0.118925 -0.075773 -0.376483 0 127 127
0.183181 0.845589 -0.313071 76 153 0
-0.054058 0.788050 -0.079158 76 153 0
0.008897 0.726929 -0.421515 76 153 0
0.185691 -0.522308 0.357902 0 127 127
0.286695 0.845589 0.210877 76 153 0
-0.367409 -0.157491 -0.093605 0 127 127
-0.255610 -0.351050 -0.292991 0 127 127
0.081745 -0.356440 0.388872 0 127 127
-0.303235 0.746031 -0.237852 0 127 127
0.300121 -0.760775 -0.286579 0 127 127
-0.348335 -0.921871 -0.001753 0 127 127
-0.046762 -0.921871 -0.166424 0 127 127
0.077763 -0.462668 0.389164 0 127 127
0.414957 0.149437 -0.039306 0 127 127
0.181685 0.425538 0.359296 0 127 127
0.290307 -0.201482 -0.295055 0 127 127
0.101008 0.621654 0.387363 0 127 127
-0.311807 0.777999 -0.258284 76 153 0
0.418950 -0.758368 0.015309 0 127 127
0.309641 0.148007 -0.278356 0 127 127
0.349760 -0.074787 0.220368 0 127 127
0.187995 -0.334178 0.357101 0 127 127
0.168073 0.068357 -0.373512 0 127 127
-0.344615 0.533901 -0.162917 0 127 127
0.085216 0.010116 0.388619 0 127 127
-0.379759 -0.728198 -0.024225 0 127 127
-0.082820 -0.108837 0.379968 0 127 127
0.228066 0.648014 0.333642 0 127 127
-0.186248 0.573443 -0.344415 0 127 127
0.348817 -0.447546 0.221460 0 127 127
0.039115 -0.921871 -0.303934 0 127 127
-0.179071 0.788050 -0.313942 76 153 0
0.011145 -0.608777 0.394034 0 127 127
0.415198 -0.147782 0.039599 0 127 127
-0.373050 -0.414376 0.067541 0 127 127
0.253892 0.330494 0.316102 0 127 127
0.380693 -0.063295 -0.174313 0 127 127
0.378075 0.197534 -0.181837 0 127 127
0.403282 -0.471420 0.101953 0 127 127
0.014744 0.385417 -0.402048 0 127 127
0.173307 0.756551 -0.370980 76 153 0
-0.353539 -0.483270 0.130744 0 127 127
-0.369838 -0.871636 0.083892 0 127 127
0.183594 -0.519635 -0.366002 0 127 127
-0.222176 0.845589 -0.303679 76 153 0
-0.153309 -0.233094 0.352711 0 127 127
-0.315737 0.563483 -0.222606 0 127 127
0.188379 -0.780896 0.356967 0 127 127
-0.330293 -0.849065 -0.192521 0 127 127
0.370514 -0.297732 0.181394 0 127 127
0.287594 0.845589 0.002302 76 153 0
0.214222 0.756759 0.343044 76 153 0
-0.010283 0.845589 -0.106117 76 153 0
-0.331132 -0.486387 0.185443 0 127 127
-0.375595 0.147645 0.032735 0 127 127
-0.343940 -0.271281 0.158335 0 127 127
0.212101 0.788050 -0.167706 76 153 0
0.309919 -0.150165 0.266495 0 127 127
-0.376727 -0.898711 -0.044843 0 127 127
-0.364836 0.284761 0.098270 0 127 127
0.252988 0.514646 0.316717 0 127 127
0.164288 0.667934 -0.375343 0 127 127
0.031439 -0.068952 -0.403268 0 127 127
0.390660 0.296525 0.139754 0 127 127
-0.378284 -0.791978 -0.004043 0 127 127
0.367144 0.180606 0.188359 0 127 127
-0.317219 0.687981 -0.248278 76 153 0
-0.145703 0.788050 -0.025697 76 153 0
0.332394 0.647656 0.240474 0 127 127
-0.286112 -0.744257 0.251733 0 127 127
-0.147933 -0.110879 -0.366391 0 127 127
0.173455 0.328215 0.362159 0 127 127
0.406676 -0.153937 0.084195 0 127 127
0.409391 0.523988 0.069989 0 127 127
-0.305063 0.788050 -0.166805 76 153 0
-0.335292 0.607900 0.179316 0 127 127
0.125709 0.461505 0.378769 0 127 127
-0.046931 -0.868980 -0.397538 0 127 127
-0.376267 0.077207 0.023536 0 127 127
0.383559 0.667449 -0.166074 0 127 127
-0.172343 -0.921871 0.154123 0 127 127
0.105462 0.816010 -0.412316 76 153 0
-0.058611 0.845589 0.376682 76 153 0
0.175560 0.788050 -0.128612 76 153 0
0.261921 0.485571 -0.319573 0 127 127
-0.236435 -0.921871 0.278762 0 127 127
0.333305 0.474845 -0.248927 0 127 127
0.053210 0.845589 0.006847 76 153 0
0.157403 -0.714137 0.367743 0 127 127
-0.291260 0.788050 0.157967 76 153 0
-0.370096 -0.730533 0.083151 0 127 127
0.391120 -0.528262 0.138803 0 127 127
-0.257218 0.816962 -0.320203 76 153 0
-0.036014 -0.001920 0.388912 0 127 127
0.078748 0.276088 -0.397219 0 127 127
0.409091 0.376330 0.071556 0 127 127
-0.343707 0.168894 -0.164795 0 127 127
0.008253 -0.690068 0.394246 0 127 127
0.210407 0.529684 -0.353030 0 127 127
-0.281186 0.240296 0.258985 0 127 127
-0.222616 -0.566994 -0.319716 0 127 127
0.408701 0.845589 -0.087304 76 153 0
0.043515 0.788050 -0.090935 76 153 0
0.362184 0.597756 0.198612 0 127 127
-0.149535 -0.848776 -0.365834 0 127 127
0.084411 -0.216826 -0.396137 0 127 127
-0.313800 0.091890 -0.225620 0 127 127
-0.119032 -0.137624 0.369295 0 127 127
0.402526 0.722269 -0.171943 76 153 0
-0.294019 0.459937 0.240090 0 127 127
0.416882 0.746648 -0.012976 76 153 0
0.417004 -0.612629 0.030145 0 127 127
0.411533 0.662628 -0.085662 0 127 127
-0.361711 -0.440815 -0.123425 0 127 127
-0.024251 0.845589 -0.243543 76 153 0
0.335891 0.732804 -0.245120 76 153 0
-0.321682 -0.787458 -0.210319 0 127 127
0.360161 0.227116 -0.209382 0 127 127
0.358299 -0.330602 -0.212124 0 127 127
0.037151 -0.121279 0.392133 0 127 127
-0.229868 0.845589 0.176611 76 153 0
-0.361882 -0.615809 -0.122529 0 127 127
-0.266576 0.788050 -0.146397 76 153 0
-0.223853 0.845589 -0.069575 76 153 0
0.348690 -0.102226 -0.226273 0 127 127
-0.178018 0.840485 0.362800 76 153 0
0.382814 -0.823063 -0.168217 0 127 127
-0.318326 -0.375965 0.204299 0 127 127
0.138824 0.153279 0.374207 0 127 127
0.417464 0.260022 0.027741 0 127 127
-0.344151 0.768267 0.157729 0 127 127
-0.269695 -0.699603 -0.276683 0 127 127
-0.069115 -0.722259 -0.393811 0 127 127
0.155794 0.845589 0.052704 76 153 0
0.388443 -0.747756 0.144336 0 127 127
-0.204694 -0.209118 0.326171 0 127 127
0.065002 0.845589 0.363360 76 153 0
-0.264391 -0.556991 0.274609 0 127 127
0.393573 -0.683194 0.133733 0 127 127
0.028829 0.602504 0.392741 0 127 127
0.117687 0.735755 0.402569 76 153 0
0.010522 0.788050 -0.275984 76 153 0
-0.352122 0.845589 0.051682 76 153 0
-0.356517 -0.818462 0.122183 0 127 127
0.036616 -0.230935 -0.403647 0 127 127
0.004273 -0.008409 -0.401282 0 127 127
0.383373 -0.778991 -0.166609 0 127 127
-0.169507 0.788050 -0.273618 76 153 0
0.424643 0.806237 -0.108368 76 153 0
-0.286335 -0.025440 0.251405 0 127 127
-0.319828 0.628245 -0.214151 0 127 127
-0.043318 0.783783 -0.417698 76 153 0
-0.000302 0.820036 -0.420843 76 153 0
0.338519 0.845589 -0.002713 76 153 0
-0.264591 0.845589 0.277195 76 153 0
-0.080301 -0.848897 -0.389920 0 127 127
0.395582 -0.812771 0.129581 0 127 127
0.178374 -0.424122 0.360448 0 127 127
-0.221808 0.763127 0.337609 76 153 0
0.170556 -0.612192 0.363168 0 127 127
0.405576 -0.308246 0.089949 0 127 127
-0.087963 -0.257190 -0.387254 0 127 127
-0.288176 -0.120388 0.248694 0 127 127
0.051505 -0.866410 0.391083 0 127 127
0.194038 0.786355 0.376008 76 153 0
-0.115332 0.575950 0.371085 0 127 127
0.115320 -0.362045 -0.390231 0 127 127
0.411919 -0.477799 -0.080848 0 127 127
-0.340114 -0.391067 0.169332 0 127 127
-0.378139 0.395476 -0.037454 0 127 127
-0.231947 0.579217 -0.313379 0 127 127
-0.219579 0.401668 -0.321779 0 127 127
0.349578 -0.586440 -0.224965 0 127 127
-0.269412 -0.910213 -0.277011 0 127 127
-0.263882 0.667298 -0.283413 0 127 127
-0.124954 0.788050 0.275842 76 153 0
0.415239 -0.893113 0.039381 0 127 127
-0.297479 -0.623867 0.234995 0 127 127
-0.208858 -0.509932 0.322574 0 127 127
-0.013451 -0.191103 -0.399986 0 127 127
-0.022594 0.845589 -0.297381 76 153 0
-0.281425 -0.384331 0.258634 0 127 127
-0.369135 -0.369544 0.085911 0 127 127
-0.012895 -0.511135 0.393330 0 127 127
0.327423 -0.406011 -0.257587 0 127 127
0.178930 0.845589 0.214843 76 153 0
0.080470 0.059916 0.388966 0 127 127
0.235971 -0.921871 -0.225418 0 127 127
0.367562 0.567522 0.187497 0 127 127
-0.148880 -0.655408 -0.366062 0 127 127
-0.324771 -0.108645 0.194808 0 127 127
0.352766 -0.921871 -0.185848 0 127 127
0.113980 -0.892379 0.382850 0 127 127
0.364031 0.300239 0.194793 0 127 127
-0.193763 0.756410 0.355182 76 153 0
-0.349112 0.429920 0.143470 0 127 127
0.293548 -0.657890 0.285449 0 127 127
0.047154 -0.365215 0.391401 0 127 127
-0.059063 -0.438980 -0.396651 0 127 127
-0.339239 -0.921871 0.071206 0 127 127
0.417864 -0.681651 0.000457 0 127 127
-0.300120 0.780255 0.266425 76 153 0
-0.033463 0.788050 0.099601 76 153 0
-0.154565 0.367233 0.352103 0 127 127
0.260996 -0.801771 -0.320372 0 127 127
0.196663 -0.559832 0.354086 0 127 127
-0.013977 0.845589 -0.363879 76 153 0
0.063527 -0.611227 0.390204 0 127 127
-0.375012 0.127060 -0.053821 0 127 127
0.406259 0.743929 0.086376 76 153 0
0.244819 -0.552308 0.322264 0 127 127
-0.163406 0.621924 -0.359928 0 127 127
-0.096490 0.845589 0.134653 76 153 0
-0.210048 0.219787 -0.328252 0 127 127
0.033269 0.788050 0.181703 76 153 0
-0.310825 0.728743 0.250662 76 153 0
-0.089961 0.788050 -0.114147 76 153 0
0.404760 0.267607 0.094223 0 127 127
0.200410 -0.839280 0.352424 0 127 127
0.360153 -0.012060 0.202810 0 127 127
-0.352402 0.600761 -0.146823 0 127 127
-0.280566 0.152393 -0.264097 0 127 127
0.416205 0.736034 -0.132623 76 153 0
-0.373083 -0.003280 -0.063913 0 127 127
0.222552 0.222769 -0.347154 0 127 127
-0.233602 0.038768 -0.312256 0 127 127
0.413747 -0.849219 0.047189 0 127 127
-0.089708 -0.648632 -0.386647 0 127 127
0.392680 -0.469533 -0.139856 0 127 127
-0.190939 -0.125313 -0.341229 0 127 127
-0.397903 0.726605 -0.000272 76 153 0
-0.170547 -0.596838 -0.355079 0 127 127
0.205937 0.380637 0.348671 0 127 127
0.040833 0.083252 -0.403955 0 127 127
-0.172091 -0.155723 0.343624 0 127 127
0.398391 0.613948 0.123775 0 127 127
0.401232 -0.489827 -0.115274 0 127 127
0.076438 0.720210 -0.397661 0 127 127
0.380740 0.806238 0.205819 76 153 0
0.022405 -0.584038 -0.402608 0 127 127
-0.117788 0.845589 0.386404 76 153 0
0.183920 0.742750 0.358518 76 153 0
-0.378641 0.170657 -0.008932 0 127 127
0.158627 0.845589 -0.290905 76 153 0
-0.192984 0.425755 0.333516 0 127 127
0.326575 -0.617174 0.247211 0 127 127
0.333232 -0.491357 -0.249034 0 127 127
-0.183673 0.713961 -0.346164 76 153 0
-0.345400 0.692031 0.154140 76 153 0
0.159541 0.845589 -0.024264 76 153 0
0.049534 0.183508 0.391227 0 127 127
0.412561 0.788050 0.026720 76 153 0
-0.152155 0.788050 0.122232 76 153 0
0.413354 -0.770283 -0.061228 0 127 127
-0.374834 -0.353032 0.043143 0 127 127
-0.108620 -0.887239 -0.380068 0 127 127
0.246309 -0.223842 0.321253 0 127 127
0.230327 -0.677596 -0.343392 0 127 127
-0.085599 0.771326 -0.388076 76 153 0
0.253253 -0.448981 -0.327060 0 127 127
-0.144150 0.466954 0.357142 0 127 127
0.342281 0.182239 0.229027 0 127 127
0.390517 -0.859731 0.140050 0 127 127
-0.098568 -0.499163 0.376959 0 127 127
0.068278 0.025484 -0.399220 0 127 127
-0.144677 -0.542559 -0.367524 0 127 127
-0.241445 -0.921871 0.166786 0 127 127
-0.094156 -0.458766 -0.385099 0 127 127
-0.296143 0.347325 -0.246063 0 127 127
-0.326292 0.109171 -0.200790 0 127 127
-0.137086 0.815712 0.382603 76 153 0
-0.184019 -0.557217 0.337853 0 127 127
0.265105 0.639281 0.308488 0 127 127
-0.114315 0.788050 -0.302238 76 153 0
0.415821 -0.017700 -0.027479 0 127 127
0.055851 0.836416 -0.421796 76 153 0
-0.003047 0.295942 0.395072 0 127 127
-0.376951 0.041828 0.014186 0 127 127
0.084342 -0.921871 0.307598 0 127 127
0.367526 0.774572 -0.198537 0 127 127
0.415366 0.506321 0.038716 0 127 127
-0.361357 0.419975 -0.125278 0 127 127
0.330322 -0.029376 -0.253319 0 127 127
-0.376144 0.242376 0.025221 0 127 127
0.059379 0.357926 0.390508 0 127 127
-0.364665 0.178165 0.098761 0 127 127
-0.332542 0.182783 0.183366 0 127 127
-0.157515 -0.091949 0.350676 0 127 127
0.402818 0.082693 0.104384 0 127 127
-0.205697 -0.458232 -0.331206 0 127 127
-0.070470 0.845589 -0.289951 76 153 0
0.415887 -0.855626 -0.026575 0 127 127
-0.360021 0.825599 0.172503 76 153 0
-0.243487 0.845589 0.132188 76 153 0
0.370949 -0.364345 0.180495 0 127 127
0.386548 -0.028898 -0.157483 0 127 127
-0.317509 0.531699 -0.218944 0 127 127
0.224920 -0.790881 -0.346008 0 127 127
0.188722 0.676413 0.356848 0 127 127
0.369930 0.788050 -0.080460 76 153 0
-0.171270 -0.885470 -0.354587 0 127 127
0.092877 0.221362 -0.394519 0 127 127
-0.329078 -0.312394 -0.195031 0 127 127
0.306629 -0.316409 0.270304 0 127 127
0.181307 -0.093013 0.359428 0 127 127
-0.145654 -0.730657 -0.367184 0 127 127
0.178124 -0.000738 -0.368649 0 127 127
0.370680 -0.588808 0.181052 0 127 127
0.414668 -0.388481 -0.043247 0 127 127
-0.045627 0.788050 -0.023399 76 153 0
0.233266 0.845589 -0.178756 76 153 0
0.309034 0.788050 0.239369 76 153 0
0.358789 0.335793 -0.211402 0 127 127
0.269462 -0.567593 0.305529 0 127 127
0.214741 0.284933 -0.350933 0 127 127
0.377155 0.603877 -0.184360 0 127 127
-0.278194 0.786172 -0.266843 76 153 0
-0.033054 0.353844 0.389478 0 127 127
-0.238797 0.560349 0.296715 0 127 127
0.360411 0.475556 0.202276 0 127 127
-0.376880 -0.243008 0.015152 0 127 127
-0.369863 -0.708539 -0.080763 0 127 127
0.328401 -0.191401 -0.256148 0 127 127
0.093824 0.662601 -0.394338 0 127 127
0.413932 0.099501 -0.053321 0 127 127
0.111541 0.380976 -0.390953 0 127 127
0.400012 -0.286555 0.119069 0 127 127
0.221929 0.486311 0.337810 0 127 127
0.105121 0.788050 0.270541 76 153 0
-0.372465 0.404982 0.075541 0 127 127
0.225527 -0.090216 0.335366 0 127 127
0.024721 0.391304 0.393042 0 127 127
-0.368449 -0.508950 -0.088167 0 127 127
0.378344 -0.888160 -0.181065 0 127 127
0.307102 0.746954 -0.306768 76 153 0
-0.209885 0.144885 -0.328363 0 127 127
-0.091744 0.788050 -0.192987 76 153 0
-0.362876 0.675826 -0.117327 0 127 127
-0.298956 -0.921871 -0.035366 0 127 127
-0.346724 -0.337253 0.150332 0 127 127
0.410971 0.757745 0.143335 76 153 0
-0.115200 -0.246715 0.371149 0 127 127
-0.375031 0.655567 -0.053721 0 127 127
0.399470 -0.921871 -0.085287 0 127 127
-0.372596 -0.564006 0.073754 0 127 127
-0.338132 -0.837807 0.175030 0 127 127
0.266728 -0.717074 0.307385 0 127 127
-0.378183 -0.017194 -0.002667 0 127 127
0.207783 -0.340750 -0.354300 0 127 127
0.140035 0.687981 0.380434 76 153 0
0.122362 -0.681042 -0.388885 0 127 127
-0.031770 0.845589 -0.209730 76 153 0
0.401672 -0.300809 -0.114009 0 127 127
-0.365883 -0.670268 -0.101594 0 127 127
-0.270262 0.733770 0.295757 76 153 0
-0.219553 0.477196 -0.321797 0 127 127
-0.279661 0.845589 -0.033633 76 153 0
0.092663 0.788050 -0.041447 76 153 0
0.134030 -0.921871 0.144995 0 127 127
-0.011966 0.788050 0.176807 76 153 0
0.266774 -0.921871 0.112590 0 127 127
-0.379850 0.246604 -0.028500 0 127 127
0.266724 0.692236 -0.341644 76 153 0
-0.395979 0.799349 -0.049812 76 153 0
-0.025049 0.767589 0.411209 76 153 0
-0.387095 0.708943 0.094675 76 153 0
-0.317506 0.544346 0.205506 0 127 127
0.393605 -0.855107 -0.137197 0 127 127
-0.372963 -0.844014 0.068732 0 127 127
0.272730 0.690351 0.303309 0 127 127
0.126935 0.357328 0.378343 0 127 127
0.158542 -0.681070 -0.378123 0 127 127
-0.051344 0.707788 -0.417111 76 153 0
-0.094567 0.527723 -0.384957 0 127 127
-0.358707 0.760208 -0.133791 0 127 127
0.178184 0.256760 -0.368620 0 127 127
-0.223628 -0.244082 -0.319029 0 127 127
-0.151039 0.788050 0.324032 76 153 0
0.097290 0.771082 0.387736 0 127 127
0.253678 -0.522862 -0.326693 0 127 127
-0.379407 -0.418391 -0.019399 0 127 127
-0.113714 0.269016 -0.378296 0 127 127
0.332188 0.566585 0.240712 0 127 127
-0.342159 0.727016 -0.213555 76 153 0
-0.330268 0.845589 -0.005925 76 153 0
0.213358 0.788050 -0.257122 76 153 0
-0.359906 0.788050 -0.083091 76 153 0
0.314394 0.379784 -0.274251 0 127 127
0.143774 -0.740059 -0.384793 0 127 127
0.055028 0.788050 0.278530 76 153 0
-0.149537 0.845589 -0.179606 76 153 0
-0.369068 -0.287399 -0.084926 0 127 127
0.415891 -0.626089 -0.026519 0 127 127
0.388609 -0.309593 -0.151558 0 127 127
0.432703 0.719481 -0.068692 76 153 0
-0.264822 0.534506 -0.282325 0 127 127
-0.024338 -0.921871 0.095013 0 127 127
0.079205 0.512489 0.389058 0 127 127
0.127525 -0.875810 -0.387898 0 127 127
0.223409 0.788050 0.177275 76 153 0
0.399485 -0.203721 -0.120295 0 127 127
0.014615 0.845589 -0.148780 76 153 0
0.143082 0.788050 -0.338034 76 153 0
0.274498 0.419770 -0.308710 0 127 127
-0.091855 0.788050 0.018394 76 153 0
-0.088956 -0.921871 0.322605 0 127 127
-0.370873 0.133735 0.080916 0 127 127
-0.313628 -0.050203 -0.225819 0 127 127
-0.236902 -0.254339 0.298352 0 127 127
-0.097651 -0.347812 -0.383884 0 127 127
-0.142822 -0.361658 0.357785 0 127 127
0.406826 0.221584 -0.099194 0 127 127
-0.365301 -0.251321 -0.104638 0 127 127
0.281570 0.784820 -0.302601 76 153 0
0.167819 -0.283896 0.364120 0 127 127
0.086661 -0.280196 0.388513 0 127 127
-0.367837 0.242799 -0.091366 0 127 127
0.055899 0.421354 0.390762 0 127 127
-0.250406 -0.476507 0.286688 0 127 127
-0.379633 0.354455 -0.029638 0 127 127
-0.035437 -0.921871 0.194040 0 127 127
0.302264 -0.921871 0.198820 0 127 127
0.283156 0.789909 0.296229 76 153 0
-0.375838 -0.184740 0.029413 0 127 127
-0.065217 0.262027 0.383332 0 127 127
0.070224 -0.921871 0.364744 0 127 127
0.356716 -0.685606 0.209913 0 127 127
-0.159080 -0.921871 0.218192 0 127 127
0.144246 -0.470615 0.372321 0 127 127
-0.248858 -0.171701 0.288025 0 127 127
0.374884 -0.232280 -0.187703 0 127 127
-0.072570 0.794928 -0.413618 76 153 0
0.034202 -0.667076 0.392348 0 127 127
0.080699 -0.569429 0.388949 0 127 127
0.092926 0.825514 0.407950 76 153 0
0.380613 -0.286823 -0.174542 0 127 127
-0.013951 0.830727 0.413329 76 153 0
0.023420 0.788050 0.391477 76 153 0
0.287804 0.822120 -0.323436 76 153 0
0.402496 0.715093 -0.111639 76 153 0
-0.239041 -0.014535 -0.308562 0 127 127
-0.349733 -0.502002 -0.152340 0 127 127
-0.377063 0.455611 0.012648 0 127 127
-0.369175 0.808399 0.146189 76 153 0
-0.265982 0.788050 -0.209007 76 153 0
-0.281433 0.845589 0.075430 76 153 0
-0.219107 0.845589 0.092002 76 153 0
-0.223811 -0.505841 -0.318905 0 127 127
-0.338437 0.117177 0.174156 0 127 127
-0.035845 0.729989 0.409146 76 153 0
0.396035 0.720702 0.174205 76 153 0
-0.159681 0.533183 0.349628 0 127 127
-0.261671 0.749943 -0.316329 76 153 0
0.157297 0.845589 -0.144850 76 153 0
0.111881 -0.620347 0.383580 0 127 127
0.404636 0.345243 -0.105489 0 127 127
0.349925 -0.244387 -0.224455 0 127 127
0.337040 -0.665020 -0.243428 0 127 127
0.342722 0.788050 0.204280 76 153 0
-0.126142 0.594326 -0.373972 0 127 127
0.271560 0.210218 -0.311247 0 127 127
0.270021 0.070332 0.305149 0 127 127
0.275366 -0.203810 0.301519 0 127 127
0.201530 0.235753 0.351663 0 127 127
0.263491 -0.686135 0.309584 0 127 127
-0.138778 0.768840 0.381785 76 153 0
0.117459 0.278686 -0.389822 0 127 127
0.059178 0.845589 -0.089966 76 153 0
-0.239770 0.298106 -0.308067 0 127 127
0.097228 -0.048176 -0.393688 0 127 127
-0.358535 0.845589 0.012358 76 153 0
-0.235454 0.050380 0.299603 0 127 127
-0.144729 0.324078 -0.367506 0 127 127
-0.015428 -0.261083 -0.399841 0 127 127
-0.315152 0.218686 0.208972 0 127 127
0.268354 0.176439 0.306281 0 127 127
0.405295 0.189016 0.091423 0 127 127
-0.362267 0.214819 0.105655 0 127 127
-0.290495 0.666985 0.245280 0 127 127
-0.211725 0.549496 0.320098 0 127 127
0.418314 -0.435126 0.006609 0 127 127
-0.039143 -0.899826 -0.398107 0 127 127
0.257482 -0.664402 -0.323407 0 127 127
0.393707 -0.243730 -0.136903 0 127 127
-0.371452 0.456297 -0.072451 0 127 127
0.290916 0.845589 -0.166424 76 153 0
0.038417 -0.513330 -0.403778 0 127 127
0.380179 -0.728159 -0.175791 0 127 127
-0.146516 0.551958 -0.366884 0 127 127
-0.331981 0.280840 -0.189032 0 127 127
0.089380 0.130986 -0.395187 0 127 127
-0.362027 -0.251265 0.106346 0 127 127
-0.308016 0.470353 -0.232316 0 127 127
0.437960 0.717267 0.026199 76 153 0
0.408959 0.788050 -0.031638 76 153 0
-0.099552 0.845589 -0.382442 76 153 0
-0.179698 -0.068137 -0.348863 0 127 127
-0.362938 -0.005660 -0.117007 0 127 127
-0.317799 -0.795044 0.205075 0 127 127
0.128912 -0.241364 0.377655 0 127 127
-0.358385 0.496282 0.116814 0 127 127
0.252663 -0.921871 -0.290713 0 127 127
-0.059882 0.788050 0.208720 76 153 0
-0.378333 0.213385 -0.036440 0 127 127
0.206489 -0.921871 -0.104164 0 127 127
0.369905 -0.921871 0.097024 0 127 127
0.077297 0.323943 0.389198 0 127 127
-0.107858 0.719652 -0.401342 76 153 0
-0.316756 0.003728 0.206611 0 127 127
0.364800 -0.134266 0.193204 0 127 127
-0.374522 0.018114 0.047402 0 127 127
0.068768 -0.921871 -0.397558 0 127 127
-0.314400 -0.306157 -0.224925 0 127 127
-0.183161 0.671779 0.338268 0 127 127
-0.292614 0.353545 0.242158 0 127 127
-0.012884 -0.385458 0.393332 0 127 127
-0.230082 -0.522999 0.304243 0 127 127
-0.072658 0.353718 -0.392578 0 127 127
0.004170 0.086099 0.394544 0 127 127
0.404237 0.349855 0.096957 0 127 127
-0.270669 -0.721365 0.269186 0 127 127
0.124522 0.231973 -0.388472 0 127 127
-0.286835 0.208215 0.250668 0 127 127
0.316324 0.788050 -0.248141 76 153 0
0.424553 0.820923 0.096359 76 153 0
0.065500 -0.921871 0.238520 0 127 127
0.290295 -0.253201 -0.295065 0 127 127
-0.379570 -0.251783 -0.021638 0 127 127
0.348442 0.669090 -0.226638 0 127 127
-0.228237 -0.680371 -0.315899 0 127 127
0.080262 0.063728 -0.396930 0 127 127
-0.375627 -0.291363 0.032292 0 127 127
0.416924 0.051479 -0.012391 0 127 127
-0.051481 0.788050 0.125631 76 153 0
-0.333097 -0.175511 -0.186725 0 127 127
0.382780 0.101590 -0.168314 0 127 127
0.193603 -0.921871 0.006987 0 127 127
-0.183037 0.845589 0.033091 76 153 0
-0.219190 -0.921871 -0.244481 0 127 127
0.012936 0.276978 -0.401915 0 127 127
-0.098501 0.349367 0.376971 0 127 127
0.104199 -0.524129 -0.392356 0 127 127
0.228891 -0.792830 0.333082 0 127 127
-0.290034 -0.742731 -0.253135 0 127 127
-0.242015 -0.283379 -0.306542 0 127 127
0.173287 0.845589 0.003234 76 153 0
0.270484 0.131401 0.304835 0 127 127
