ply
format ascii 1.0
element vertex 1253
property float x
property float y
property float z
property uchar red
property uchar green
property uchar blue
end_header
-0.253779 0.896385 0.179894 0 255 0
0.112307 -0.312332 0.459503 127 127 0
-0.215325 0.817385 -0.362540 0 255 0
0.471875 -0.362981 0.037923 127 127 0
-0.166241 -0.006994 0.432281 127 127 0
0.120649 -0.935326 0.100514 127 127 0
-0.260528 -0.660291 -0.352367 127 127 0
0.310803 -0.562511 0.279289 127 127 0
-0.086529 -0.761364 0.455957 127 127 0
-0.386228 0.373931 -0.226667 127 127 0
-0.145808 -0.831843 -0.432821 127 127 0
0.152022 0.170706 0.438070 127 127 0
0.223015 0.860970 -0.350170 0 255 0
-0.475696 -0.734673 0.046835 127 127 0
-0.147001 -0.470356 -0.465323 127 127 0
0.020108 -0.542034 -0.486013 127 127 0
0.203834 0.375370 -0.400629 127 127 0
-0.135270 -0.935326 0.132558 127 127 0
0.023184 0.571238 -0.451412 127 127 0
-0.181449 0.131523 0.417074 127 127 0
-0.017702 -0.118711 0.473068 127 127 0
-0.145139 0.543110 -0.452182 127 127 0
0.005282 -0.720318 -0.486202 127 127 0
-0.220599 -0.406234 0.377924 127 127 0
-0.211208 0.097869 -0.401686 127 127 0
-0.480015 -0.182089 0.040135 127 127 0
-0.474912 -0.248652 0.078895 127 127 0
0.202065 0.896385 0.227474 0 255 0
-0.495837 0.451497 -0.022775 127 127 0
-0.179944 -0.780190 0.418579 127 127 0
0.219622 0.693081 0.323434 127 127 0
0.379379 0.609808 0.143220 127 127 0
0.397179 -0.454071 -0.207285 127 127 0
-0.236357 -0.920839 -0.263355 127 127 0
-0.241901 0.413378 -0.370993 127 127 0
-0.463362 -0.678577 0.133162 127 127 0
-0.345397 0.602234 0.235149 127 127 0
0.026552 -0.365165 0.470793 127 127 0
0.400937 0.047800 0.189155 127 127 0
-0.432106 -0.758693 -0.180789 127 127 0
0.270612 0.896385 0.081907 0 255 0
-0.474734 -0.301081 -0.094621 127 127 0
-0.470762 -0.546515 0.110419 127 127 0
-0.417193 0.820882 0.000413 0 255 0
0.367265 -0.344906 0.222827 127 127 0
-0.010519 0.506278 0.477583 127 127 0
0.143284 -0.787472 -0.447784 127 127 0
0.166028 -0.935326 -0.007613 127 127 0
0.356836 0.902056 -0.111061 0 255 0
-0.421908 -0.870152 0.099140 127 127 0
0.062463 -0.729478 -0.477734 127 127 0
-0.391675 0.625494 0.100073 127 127 0
0.222051 -0.548436 0.368041 127 127 0
-0.254100 -0.920700 0.234667 127 127 0
-0.174096 -0.166538 0.424426 127 127 0
0.416236 0.298501 0.173856 127 127 0
0.331660 -0.456611 0.258432 127 127 0
0.355822 0.871100 -0.210500 0 255 0
-0.445911 -0.383123 0.152611 127 127 0
0.300076 -0.727363 0.290017 127 127 0
0.103066 0.832484 -0.407002 0 255 0
-0.221726 0.731928 0.303719 0 255 0
0.193511 -0.697685 -0.410954 127 127 0
0.461944 0.003931 0.113357 127 127 0
-0.370184 -0.271355 0.228340 127 127 0
-0.311361 -0.375540 0.287162 127 127 0
0.195598 -0.864280 0.377028 127 127 0
0.017006 0.298181 0.472050 127 127 0
0.157418 0.224119 0.432675 127 127 0
-0.423367 0.460074 -0.189527 127 127 0
-0.157662 0.896385 -0.051650 0 255 0
0.461884 0.356559 -0.128190 127 127 0
-0.262539 -0.543784 0.335983 127 127 0
0.197467 0.571147 -0.404318 127 127 0
0.264240 -0.555891 -0.340225 127 127 0
-0.071992 0.168749 -0.480293 127 127 0
-0.107242 -0.935326 -0.083887 127 127 0
-0.366205 -0.754492 0.232318 127 127 0
0.242039 0.466074 0.348054 127 127 0
-0.403540 0.558406 -0.209355 127 127 0
-0.273534 -0.200209 0.324988 127 127 0
-0.282382 0.836090 -0.311085 0 255 0
0.425378 -0.656473 -0.179086 127 127 0
-0.245212 -0.935326 0.132232 127 127 0
0.454128 0.225080 0.135103 127 127 0
0.487832 0.442946 0.003670 127 127 0
-0.158411 -0.528786 -0.454483 127 127 0
0.368111 -0.421833 0.221981 127 127 0
-0.081698 0.296936 0.464643 127 127 0
0.061465 0.020052 0.466196 127 127 0
-0.288551 0.018547 0.309972 127 127 0
0.428086 -0.557792 -0.176378 127 127 0
0.336013 -0.494635 -0.268451 127 127 0
0.277953 -0.333850 0.312140 127 127 0
0.238801 -0.162005 0.351291 127 127 0
-0.061181 -0.935326 0.088293 127 127 0
0.370005 -0.713176 -0.234458 127 127 0
0.244442 -0.666125 0.345651 127 127 0
-0.087599 -0.039846 -0.478238 127 127 0
-0.227526 0.043013 -0.385368 127 127 0
-0.471870 -0.441624 0.101999 127 127 0
-0.185687 0.363863 -0.427208 127 127 0
-0.200118 -0.935326 0.058085 127 127 0
-0.477307 -0.389107 0.060706 127 127 0
-0.366390 0.793032 -0.205342 0 255 0
-0.287505 0.794714 0.292783 0 255 0
-0.472075 0.368441 0.100440 127 127 0
0.150017 -0.671970 -0.454448 127 127 0
0.357205 -0.150544 -0.247259 127 127 0
-0.240193 0.139246 -0.372701 127 127 0
0.113547 -0.050385 0.459340 127 127 0
-0.217673 -0.928087 0.201241 127 127 0
0.247238 0.801575 0.317211 0 255 0
-0.061637 -0.219111 0.467284 127 127 0
0.251260 -0.141866 -0.353203 127 127 0
-0.096381 0.486464 -0.485172 127 127 0
0.009753 -0.886664 0.412351 127 127 0
-0.114577 -0.618351 -0.474685 127 127 0
-0.218469 -0.758876 0.380054 127 127 0
-0.310098 0.183523 0.288424 127 127 0
-0.322384 -0.228946 -0.290510 127 127 0
0.281958 0.137422 -0.322506 127 127 0
-0.128205 0.240085 -0.472892 127 127 0
0.257637 0.229296 -0.346828 127 127 0
0.429359 0.580529 0.040653 127 127 0
-0.186058 0.189570 -0.426837 127 127 0
-0.396113 0.794092 0.119212 0 255 0
0.394978 -0.901752 0.081240 127 127 0
-0.363407 0.515875 -0.249488 127 127 0
0.249657 0.729733 0.272834 127 127 0
0.257668 0.625141 0.295175 127 127 0
-0.037560 0.117718 -0.484825 127 127 0
-0.480804 -0.668962 -0.048508 127 127 0
-0.397914 0.901557 -0.060825 0 255 0
-0.307451 0.425243 0.291072 127 127 0
-0.207256 0.648780 0.315743 127 127 0
-0.241508 -0.501460 0.357014 127 127 0
-0.369633 0.889411 -0.196022 0 255 0
0.382211 0.339009 -0.222253 127 127 0
0.459824 -0.751574 0.083119 127 127 0
-0.138304 0.690750 0.367955 127 127 0
0.396927 0.012384 -0.207537 127 127 0
-0.047846 0.680658 -0.395864 127 127 0
0.168167 0.896385 -0.170770 0 255 0
-0.476303 0.414038 -0.124201 127 127 0
0.445671 -0.504913 -0.158793 127 127 0
-0.471885 -0.444827 -0.116260 127 127 0
0.338486 0.780813 -0.234784 0 255 0
-0.152911 0.681283 -0.369736 127 127 0
0.014349 -0.935326 0.168489 127 127 0
-0.008847 0.836643 0.406183 0 255 0
-0.020841 0.896385 0.052052 0 255 0
0.254316 0.587886 -0.350149 127 127 0
-0.213053 -0.935326 -0.165238 127 127 0
-0.099276 0.506877 0.465019 127 127 0
-0.484341 -0.243361 -0.021647 127 127 0
-0.264326 0.502127 -0.348569 127 127 0
-0.206049 0.694155 0.340496 127 127 0
-0.137691 -0.632523 0.454808 127 127 0
0.050285 0.527554 0.463045 127 127 0
0.484749 0.464955 -0.041525 127 127 0
-0.000855 -0.374883 -0.488773 127 127 0
-0.081467 0.570958 -0.445098 127 127 0
-0.301401 0.899182 -0.178489 0 255 0
0.032712 -0.270726 0.469982 127 127 0
0.218093 -0.471903 0.371999 127 127 0
-0.078657 0.404325 -0.482517 127 127 0
0.216047 -0.416752 -0.388417 127 127 0
-0.395281 -0.846740 -0.214411 127 127 0
0.418110 0.425554 -0.186354 127 127 0
-0.443890 0.408463 -0.169004 127 127 0
-0.483280 -0.625567 0.015335 127 127 0
0.251834 -0.660775 -0.352630 127 127 0
0.011743 -0.922780 0.325182 127 127 0
-0.410280 -0.443993 0.188243 127 127 0
-0.197100 -0.220219 -0.415795 127 127 0
0.372613 0.665263 -0.030918 127 127 0
0.432804 -0.366228 -0.171659 127 127 0
0.080933 -0.928946 -0.286354 127 127 0
0.252229 -0.736145 0.337863 127 127 0
0.295627 0.852205 -0.290640 0 255 0
-0.379688 -0.058492 0.218834 127 127 0
0.297747 -0.383044 0.292346 127 127 0
-0.185885 0.577509 0.392302 127 127 0
-0.393728 0.052177 0.204795 127 127 0
0.476033 -0.564043 -0.020711 127 127 0
-0.348993 0.720309 0.150276 127 127 0
-0.044045 0.896385 0.185989 0 255 0
-0.008458 0.623991 -0.410332 127 127 0
0.345746 -0.510922 0.244346 127 127 0
0.335116 -0.898111 0.224149 127 127 0
-0.002203 -0.867749 -0.440030 127 127 0
0.264991 0.896385 -0.073371 0 255 0
-0.432214 0.465006 0.166309 127 127 0
0.340215 -0.404098 -0.264249 127 127 0
0.258067 0.520024 -0.346397 127 127 0
-0.461166 0.092803 0.137357 127 127 0
0.097169 0.605078 -0.413282 127 127 0
0.231627 -0.206728 -0.372837 127 127 0
0.388153 0.108148 -0.216311 127 127 0
-0.423049 -0.602116 0.175474 127 127 0
0.392681 0.500619 0.197411 127 127 0
-0.316863 0.879743 -0.273951 0 255 0
-0.417345 -0.427658 -0.195549 127 127 0
-0.170546 0.569512 -0.420523 127 127 0
0.081016 0.473060 0.474284 127 127 0
-0.445643 -0.096011 0.152880 127 127 0
-0.448007 0.553477 -0.133280 127 127 0
-0.089316 -0.133833 0.463640 127 127 0
-0.388429 0.881615 -0.152133 0 255 0
0.470603 -0.608913 0.047590 127 127 0
0.328258 -0.276894 -0.276206 127 127 0
0.049607 0.896385 0.144362 0 255 0
0.372037 0.724764 0.020923 0 255 0
0.098910 -0.915775 -0.373947 127 127 0
-0.472830 -0.136371 -0.109082 127 127 0
0.027149 -0.935326 0.221795 127 127 0
-0.384985 0.459646 -0.227910 127 127 0
0.262505 -0.712821 -0.341960 127 127 0
-0.482650 0.221559 0.020120 127 127 0
0.348493 0.700902 -0.197788 127 127 0
-0.373479 0.130692 0.225044 127 127 0
0.311448 -0.849395 0.278644 127 127 0
-0.430010 0.595328 0.006205 127 127 0
0.017523 -0.935326 -0.233166 127 127 0
0.205948 -0.935326 0.072057 127 127 0
-0.375643 -0.513390 -0.237251 127 127 0
-0.468153 -0.765099 -0.077822 127 127 0
-0.241833 -0.424833 -0.371062 127 127 0
0.280880 0.232999 0.309212 127 127 0
0.242872 0.896385 0.157433 0 255 0
0.362178 0.133323 0.227914 127 127 0
0.027424 -0.641449 0.470678 127 127 0
0.060972 0.651210 0.365287 127 127 0
0.389762 0.866368 0.114191 0 255 0
-0.383240 0.288374 -0.229654 127 127 0
0.320164 0.541612 -0.284300 127 127 0
0.054545 0.534755 -0.473270 127 127 0
0.425047 0.252496 0.165045 127 127 0
-0.437391 0.179370 0.161132 127 127 0
-0.027634 -0.173131 -0.486132 127 127 0
0.008542 -0.018422 -0.487536 127 127 0
0.141466 -0.452920 -0.462997 127 127 0
0.441130 0.276440 -0.163334 127 127 0
-0.037432 -0.935326 0.264836 127 127 0
-0.362709 -0.237851 -0.250186 127 127 0
-0.291692 -0.740987 0.306831 127 127 0
-0.407504 0.824499 0.074009 0 255 0
-0.450615 -0.570295 -0.162280 127 127 0
0.393351 -0.500546 0.196741 127 127 0
-0.336343 -0.076310 -0.276552 127 127 0
0.152042 0.477449 0.438051 127 127 0
0.461951 0.150879 0.113304 127 127 0
0.402753 0.382617 0.187339 127 127 0
-0.012477 -0.935326 -0.103158 127 127 0
-0.408509 0.033417 -0.204386 127 127 0
-0.036324 0.270278 0.470616 127 127 0
-0.170162 0.297141 0.428361 127 127 0
-0.349661 0.005536 -0.263233 127 127 0
0.172319 -0.373610 0.417774 127 127 0
-0.152764 -0.935326 0.214643 127 127 0
-0.222861 0.896385 0.103579 0 255 0
-0.485222 -0.141770 -0.014953 127 127 0
0.005174 -0.088927 -0.487979 127 127 0
-0.274705 0.116975 -0.338190 127 127 0
-0.118390 -0.935326 0.176826 127 127 0
0.092660 0.797634 0.394039 0 255 0
-0.359774 -0.873747 0.229048 127 127 0
0.084654 0.035547 -0.477515 127 127 0
0.468542 -0.708339 0.057529 127 127 0
-0.472071 0.162700 0.100476 127 127 0
0.333354 0.041060 0.256739 127 127 0
0.310586 -0.636874 -0.293879 127 127 0
0.109733 0.005795 0.459842 127 127 0
0.396862 -0.273730 -0.207602 127 127 0
0.111184 -0.146474 0.459651 127 127 0
-0.212687 0.207801 0.385836 127 127 0
0.280082 0.148074 0.310011 127 127 0
-0.481915 -0.381193 -0.040070 127 127 0
-0.250560 0.364076 0.347963 127 127 0
0.053401 -0.935326 -0.031294 127 127 0
-0.364765 0.170497 -0.248130 127 127 0
-0.130305 0.858003 -0.399212 0 255 0
0.082110 -0.459431 -0.477850 127 127 0
0.381807 -0.412400 -0.222657 127 127 0
-0.473148 0.042856 -0.106664 127 127 0
0.245445 0.374993 0.344648 127 127 0
-0.140409 0.370302 -0.468053 127 127 0
0.056615 0.668495 -0.379129 127 127 0
-0.337687 -0.434437 0.260836 127 127 0
0.365415 0.622657 -0.163601 127 127 0
-0.067202 0.896385 -0.143780 0 255 0
0.394776 0.748685 -0.116371 0 255 0
0.375814 0.234895 -0.228650 127 127 0
0.417583 -0.838082 0.136435 127 127 0
0.251020 -0.103195 0.339072 127 127 0
-0.369575 0.628544 0.146850 127 127 0
-0.295507 0.731928 0.232995 127 127 0
-0.485630 0.127015 -0.011855 127 127 0
0.031190 -0.916261 -0.380828 127 127 0
-0.053939 0.523582 0.465413 127 127 0
0.260666 -0.919296 0.230492 127 127 0
-0.280035 -0.530139 -0.332860 127 127 0
0.253742 -0.801737 0.336350 127 127 0
-0.338342 -0.321277 -0.274553 127 127 0
-0.255186 -0.282171 -0.357708 127 127 0
-0.356554 -0.401300 -0.256340 127 127 0
0.122455 -0.170272 -0.471999 127 127 0
0.333679 0.204832 0.256413 127 127 0
-0.372132 -0.283645 -0.240763 127 127 0
0.058064 -0.088785 0.466644 127 127 0
-0.438341 0.413373 0.160182 127 127 0
-0.093340 0.731738 0.361033 0 255 0
0.291151 0.576536 0.298942 127 127 0
-0.187412 0.383874 0.411111 127 127 0
-0.273067 0.604497 -0.325668 127 127 0
0.147679 -0.400049 -0.456785 127 127 0
-0.105799 0.896385 -0.038196 0 255 0
0.077982 0.896385 -0.212295 0 255 0
0.073345 -0.168227 -0.479004 127 127 0
-0.196162 0.258094 -0.416733 127 127 0
-0.274250 -0.872070 -0.338046 127 127 0
-0.191098 0.004448 -0.421796 127 127 0
0.204150 -0.935326 -0.089691 127 127 0
-0.118123 0.896385 0.244930 0 255 0
0.128708 0.342548 -0.469409 127 127 0
0.188131 -0.134473 0.401961 127 127 0
-0.151801 -0.201264 0.446722 127 127 0
-0.095749 0.722942 -0.375088 127 127 0
-0.022404 0.896385 -0.055962 0 255 0
0.175310 -0.195813 0.414782 127 127 0
-0.397029 -0.653709 0.201494 127 127 0
0.364179 0.731928 0.090387 0 255 0
0.250932 -0.935326 -0.017583 127 127 0
0.326279 0.381692 0.263813 127 127 0
-0.185459 0.896385 -0.092974 0 255 0
0.468862 0.188067 -0.075186 127 127 0
-0.380661 0.900928 0.128036 0 255 0
-0.043191 -0.935326 -0.052741 127 127 0
-0.266833 -0.935326 -0.081878 127 127 0
-0.433467 0.578807 0.084368 127 127 0
-0.472451 0.408646 0.125489 127 127 0
0.465693 0.075980 0.084880 127 127 0
0.175323 0.006099 0.414769 127 127 0
-0.030665 -0.344788 0.471361 127 127 0
-0.067769 -0.935326 -0.151855 127 127 0
-0.337302 -0.919380 -0.128813 127 127 0
-0.086230 -0.260830 -0.478418 127 127 0
-0.431191 0.171967 -0.181704 127 127 0
0.450072 -0.742465 0.133142 127 127 0
0.374917 -0.821632 0.215176 127 127 0
0.470384 0.115577 -0.063626 127 127 0
0.449103 -0.251334 -0.155362 127 127 0
0.471128 0.193142 0.043600 127 127 0
0.023530 -0.014947 0.471191 127 127 0
-0.106393 -0.713038 -0.474615 127 127 0
0.468204 0.528487 0.027590 127 127 0
-0.091567 -0.380252 -0.477715 127 127 0
-0.246575 0.585750 -0.365491 127 127 0
0.284530 -0.433287 -0.319934 127 127 0
-0.426131 -0.829028 -0.161024 127 127 0
0.299794 -0.341309 -0.304670 127 127 0
-0.381859 -0.364904 0.216664 127 127 0
-0.146146 -0.935326 0.031535 127 127 0
-0.292240 -0.923977 0.143150 127 127 0
-0.079458 -0.403410 0.464938 127 127 0
0.263524 -0.270653 0.326569 127 127 0
-0.346602 0.499145 0.251921 127 127 0
-0.315128 -0.071721 0.283395 127 127 0
-0.101413 0.061062 -0.476419 127 127 0
-0.338726 0.104351 0.259797 127 127 0
-0.170269 0.624582 0.356734 127 127 0
-0.269604 0.898163 -0.218370 0 255 0
-0.000373 0.902056 0.359245 0 255 0
0.204889 -0.321335 -0.399576 127 127 0
0.077957 -0.512182 0.464025 127 127 0
0.037960 0.896385 0.270283 0 255 0
0.110999 -0.229485 0.459675 127 127 0
-0.243953 -0.912760 0.311042 127 127 0
0.442879 0.331823 -0.161585 127 127 0
-0.418637 -0.818124 0.176210 127 127 0
0.016093 0.802172 -0.418491 0 255 0
0.269914 0.896385 -0.189921 0 255 0
0.470040 0.529588 -0.024349 127 127 0
0.292354 0.899550 -0.281605 0 255 0
-0.337014 -0.148187 0.261509 127 127 0
0.242036 -0.905086 -0.328510 127 127 0
-0.091337 -0.549247 -0.477745 127 127 0
-0.170177 0.896385 -0.263494 0 255 0
0.195159 -0.212331 -0.409305 127 127 0
-0.102608 -0.882746 0.403855 127 127 0
0.195994 0.331295 -0.408470 127 127 0
-0.309257 0.470615 0.289266 127 127 0
0.226974 0.763372 -0.347132 0 255 0
0.234446 0.441019 -0.370018 127 127 0
-0.459124 0.322975 0.139399 127 127 0
0.466006 -0.372206 0.082508 127 127 0
-0.479664 -0.662473 0.042801 127 127 0
-0.304638 -0.024328 0.293885 127 127 0
0.456315 -0.237494 0.129824 127 127 0
0.387703 0.209622 0.202390 127 127 0
0.197270 0.602785 0.361522 127 127 0
-0.324204 0.692448 0.230371 127 127 0
0.314296 0.588159 -0.290168 127 127 0
-0.302500 -0.927584 -0.036661 127 127 0
-0.481886 -0.102439 -0.040294 127 127 0
0.474004 -0.350812 -0.036123 127 127 0
0.114767 0.896385 -0.043086 0 255 0
0.274652 0.673689 0.248188 127 127 0
-0.412683 -0.900577 -0.031883 127 127 0
0.461395 0.023687 -0.131900 127 127 0
-0.204110 0.428590 0.394412 127 127 0
0.336404 0.726235 0.154856 127 127 0
-0.067896 -0.149989 -0.480831 127 127 0
-0.028766 0.669935 0.369535 127 127 0
0.467868 -0.097419 0.068366 127 127 0
-0.267340 0.046128 -0.345555 127 127 0
-0.065261 -0.935326 0.197379 127 127 0
-0.388933 0.731928 0.058871 0 255 0
0.458643 0.113420 -0.138575 127 127 0
0.378484 0.830609 -0.155791 0 255 0
-0.404464 0.121165 -0.208430 127 127 0
0.103163 0.265290 -0.475078 127 127 0
-0.439812 -0.340600 -0.173083 127 127 0
0.343509 0.902056 -0.154971 0 255 0
0.463078 0.255015 -0.119116 127 127 0
0.397377 0.698813 -0.014209 127 127 0
-0.154368 0.273579 -0.458527 127 127 0
-0.400118 -0.035513 -0.212777 127 127 0
-0.189965 -0.685269 0.408558 127 127 0
0.187364 -0.158716 -0.417101 127 127 0
-0.020332 -0.852744 0.431991 127 127 0
-0.315322 0.810635 0.261588 0 255 0
0.263962 0.726012 -0.276229 0 255 0
0.349037 -0.237419 -0.255427 127 127 0
-0.266604 -0.302375 0.331919 127 127 0
-0.481276 0.274924 -0.044924 127 127 0
-0.135068 -0.935326 -0.217697 127 127 0
0.145987 -0.023580 -0.458477 127 127 0
-0.276452 -0.363662 -0.336442 127 127 0
0.325569 0.258226 -0.278895 127 127 0
-0.252427 0.896385 -0.068622 0 255 0
-0.189278 0.659965 -0.338270 127 127 0
-0.448864 -0.813138 0.100842 127 127 0
0.013679 -0.552982 0.472487 127 127 0
-0.139706 0.437115 0.458817 127 127 0
0.159943 0.566308 0.410113 127 127 0
-0.309252 -0.500099 -0.303643 127 127 0
0.334338 0.048038 -0.270126 127 127 0
0.468500 -0.518019 0.063560 127 127 0
0.474331 -0.142055 0.019270 127 127 0
0.456100 0.050771 0.130344 127 127 0
0.055410 0.268321 -0.481366 127 127 0
-0.414636 0.749262 -0.034209 0 255 0
0.144123 -0.916508 -0.349929 127 127 0
-0.142925 -0.908874 -0.384857 127 127 0
-0.429996 -0.162747 -0.182899 127 127 0
0.068464 0.870161 -0.411596 0 255 0
-0.473221 -0.652199 0.091741 127 127 0
-0.068917 0.896385 -0.066611 0 255 0
-0.477244 0.010641 -0.075553 127 127 0
-0.088988 0.202185 0.463683 127 127 0
0.401416 0.578362 -0.172185 127 127 0
-0.256393 0.725818 0.274133 127 127 0
-0.239054 0.896385 0.045457 0 255 0
0.159130 -0.834814 -0.422384 127 127 0
-0.257541 0.210982 -0.355353 127 127 0
0.427057 -0.397204 0.163035 127 127 0
-0.241527 -0.788850 0.356996 127 127 0
0.126736 -0.935326 -0.056180 127 127 0
-0.473724 0.502829 -0.129589 127 127 0
-0.239916 0.858694 0.329298 0 255 0
0.471780 -0.304319 0.038651 127 127 0
-0.159021 0.896385 0.040784 0 255 0
0.353602 0.875298 0.200712 0 255 0
0.397104 0.890044 -0.097393 0 255 0
0.471711 0.345510 0.039169 127 127 0
0.476258 -0.527207 0.004633 127 127 0
-0.359108 0.675523 -0.140758 127 127 0
0.289094 0.661386 -0.243739 127 127 0
-0.220606 -0.750085 -0.392289 127 127 0
0.095874 -0.594586 -0.476038 127 127 0
0.474415 -0.027848 -0.033005 127 127 0
-0.061356 -0.503368 -0.481692 127 127 0
0.308423 -0.188678 -0.296041 127 127 0
0.071870 -0.384030 -0.479199 127 127 0
-0.332352 0.693472 -0.234344 127 127 0
0.045982 -0.177777 0.468235 127 127 0
-0.459003 -0.804689 0.047718 127 127 0
0.284627 -0.233838 0.305465 127 127 0
0.431498 -0.465061 -0.172966 127 127 0
0.473792 -0.438749 0.023364 127 127 0
-0.446013 0.328709 -0.166882 127 127 0
0.207261 -0.776550 0.382831 127 127 0
-0.152255 -0.925861 -0.282564 127 127 0
0.443362 -0.824997 0.044204 127 127 0
0.271680 -0.927149 -0.131545 127 127 0
0.341169 0.674879 0.143354 127 127 0
-0.270153 -0.098566 0.328370 127 127 0
-0.302397 -0.648212 0.296126 127 127 0
0.290726 0.423198 0.299367 127 127 0
-0.484976 -0.029195 0.002451 127 127 0
-0.305526 0.294697 0.292997 127 127 0
-0.353555 0.358419 0.244968 127 127 0
0.068135 -0.861624 -0.434371 127 127 0
0.401922 -0.104072 -0.202542 127 127 0
0.051504 0.896385 0.024232 0 255 0
0.300137 -0.022882 -0.304327 127 127 0
0.175493 -0.375710 -0.428972 127 127 0
-0.246746 -0.160651 -0.366148 127 127 0
-0.364495 0.743734 0.193336 0 255 0
0.184303 0.379404 0.405790 127 127 0
-0.167232 0.896385 0.093115 0 255 0
0.189391 -0.301876 0.400701 127 127 0
-0.467902 -0.483332 -0.136573 127 127 0
-0.011893 -0.420188 -0.488205 127 127 0
0.331318 0.627555 -0.222565 127 127 0
-0.210697 -0.433247 -0.402197 127 127 0
-0.066922 -0.782595 -0.467752 127 127 0
-0.439619 0.225078 0.158904 127 127 0
-0.420789 0.276882 -0.192106 127 127 0
-0.282074 -0.935326 0.046191 127 127 0
0.195515 0.731468 0.314378 0 255 0
-0.112199 0.902056 -0.336505 0 255 0
-0.431555 -0.658381 -0.181340 127 127 0
0.178780 0.862927 0.361268 0 255 0
0.206637 -0.935326 0.163064 127 127 0
-0.232853 0.027371 0.365670 127 127 0
0.174462 0.902056 -0.316955 0 255 0
0.195229 -0.625329 0.394864 127 127 0
-0.003100 0.347231 -0.489069 127 127 0
-0.301813 -0.847309 0.296710 127 127 0
-0.387145 -0.391838 -0.225750 127 127 0
0.088824 0.746938 0.394279 0 255 0
-0.053618 -0.913119 -0.400113 127 127 0
-0.325803 -0.755042 -0.287092 127 127 0
0.448496 0.181495 0.141596 127 127 0
-0.379976 0.902056 0.048886 0 255 0
0.186600 -0.743334 -0.417864 127 127 0
-0.066551 -0.908764 0.390164 127 127 0
0.464680 -0.161921 -0.106946 127 127 0
0.095712 -0.895225 0.395313 127 127 0
-0.131592 0.571884 0.420022 127 127 0
0.246755 0.902056 -0.281853 0 255 0
0.236526 -0.382600 -0.367937 127 127 0
-0.041672 -0.685507 0.469912 127 127 0
-0.114623 0.196223 -0.474680 127 127 0
0.230055 -0.019282 -0.374408 127 127 0
0.087373 -0.255293 -0.477158 127 127 0
0.182764 0.824077 -0.373990 0 255 0
-0.318824 -0.908534 -0.257961 127 127 0
-0.142221 -0.927787 0.258449 127 127 0
0.107187 -0.878645 -0.418924 127 127 0
-0.268159 0.699121 -0.307624 127 127 0
0.073145 0.896385 -0.055040 0 255 0
0.476379 -0.076510 -0.018089 127 127 0
-0.240783 0.901739 -0.324760 0 255 0
-0.204090 -0.175162 0.394432 127 127 0
0.422606 0.498374 -0.181858 127 127 0
-0.106735 -0.445347 0.461346 127 127 0
0.459450 -0.328005 0.122255 127 127 0
0.473570 -0.175105 -0.039426 127 127 0
0.173323 0.896385 -0.081052 0 255 0
-0.178848 0.731928 -0.342796 127 127 0
-0.209360 0.789241 0.352094 0 255 0
0.348523 -0.227537 0.241568 127 127 0
0.403682 -0.774508 0.186410 127 127 0
-0.245369 0.258032 -0.367525 127 127 0
-0.181238 -0.935326 -0.119802 127 127 0
0.369966 0.648580 0.061646 127 127 0
-0.028666 -0.586125 -0.485997 127 127 0
-0.432373 0.111756 0.166150 127 127 0
-0.335749 -0.573051 -0.277145 127 127 0
0.347707 -0.127962 0.242385 127 127 0
0.061363 -0.824097 0.438867 127 127 0
-0.033205 0.757947 -0.417347 0 255 0
-0.415735 -0.881253 -0.109526 127 127 0
-0.326739 -0.586013 0.271785 127 127 0
0.365291 -0.323655 -0.239173 127 127 0
0.022887 0.138656 0.471275 127 127 0
-0.200166 0.265319 0.398356 127 127 0
-0.241779 0.896385 -0.024396 0 255 0
0.105448 -0.649058 0.460406 127 127 0
0.281043 0.000588 0.309049 127 127 0
-0.294882 -0.443133 -0.318013 127 127 0
0.448280 -0.473428 0.141812 127 127 0
0.393950 -0.858843 0.166695 127 127 0
-0.484802 -0.536647 0.003773 127 127 0
0.208058 0.109189 -0.396405 127 127 0
-0.058386 -0.639931 -0.482084 127 127 0
-0.486371 0.413224 0.037530 127 127 0
0.421196 -0.037708 -0.183268 127 127 0
-0.188511 -0.165742 -0.424383 127 127 0
-0.337455 0.057267 0.261068 127 127 0
-0.153430 0.451662 -0.459465 127 127 0
-0.245200 -0.369361 -0.367695 127 127 0
-0.201205 -0.477880 -0.411689 127 127 0
-0.104004 -0.935326 0.102633 127 127 0
-0.485599 -0.344306 -0.012094 127 127 0
-0.332452 0.555271 0.266071 127 127 0
0.421711 -0.695812 0.168381 127 127 0
-0.442436 0.551149 0.136687 127 127 0
0.203840 0.896385 -0.134595 0 255 0
0.103399 -0.935326 0.190239 127 127 0
-0.139498 0.125137 -0.468431 127 127 0
0.058718 0.065096 0.466558 127 127 0
-0.278660 -0.782939 -0.334235 127 127 0
-0.286251 0.504590 0.312272 127 127 0
0.145828 -0.087145 0.444264 127 127 0
0.335606 -0.921016 -0.056639 127 127 0
-0.409940 -0.042455 0.188583 127 127 0
0.135517 -0.222441 -0.466589 127 127 0
0.360738 -0.087292 0.229354 127 127 0
-0.480661 -0.293821 -0.049596 127 127 0
0.035973 0.158339 -0.483924 127 127 0
-0.359037 -0.918841 0.039431 127 127 0
-0.305505 0.376608 -0.307389 127 127 0
-0.133133 0.363634 0.456696 127 127 0
0.291641 -0.655294 0.298451 127 127 0
0.475210 0.430313 0.088736 127 127 0
0.010599 0.185329 0.472893 127 127 0
0.124424 -0.926442 -0.286411 127 127 0
0.053976 -0.212353 -0.481554 127 127 0
-0.329309 -0.382554 -0.283586 127 127 0
-0.475798 -0.688827 -0.085895 127 127 0
0.157847 -0.537570 0.432245 127 127 0
-0.245491 -0.587280 -0.367404 127 127 0
0.144102 -0.189636 0.445991 127 127 0
-0.222117 -0.935326 -0.078170 127 127 0
0.121254 -0.768064 0.447973 127 127 0
-0.011686 -0.279439 0.473860 127 127 0
0.400606 0.611000 -0.080824 127 127 0
0.286230 -0.887006 0.296252 127 127 0
-0.005718 -0.926008 -0.319749 127 127 0
-0.475451 -0.392947 -0.089168 127 127 0
0.188418 0.230223 0.401675 127 127 0
0.041240 -0.298502 -0.483230 127 127 0
-0.065819 -0.935326 0.005883 127 127 0
0.209745 -0.916020 0.303423 127 127 0
-0.190313 0.902056 0.304965 0 255 0
-0.203715 -0.935326 -0.036327 127 127 0
-0.339689 0.618382 -0.235074 127 127 0
0.262704 -0.462406 -0.341760 127 127 0
0.464257 0.237439 0.095793 127 127 0
0.307445 -0.916981 -0.209256 127 127 0
-0.225993 -0.716462 0.372530 127 127 0
-0.210468 0.896385 -0.159585 0 255 0
-0.481771 -0.537314 -0.041169 127 127 0
-0.353807 0.265539 0.244715 127 127 0
0.411901 -0.113372 0.178191 127 127 0
0.099409 0.475451 -0.485999 127 127 0
-0.272216 -0.241989 -0.340679 127 127 0
0.467575 -0.029751 -0.084962 127 127 0
0.414691 -0.191192 -0.189773 127 127 0
-0.279578 0.347876 -0.333316 127 127 0
-0.110828 0.896385 0.187841 0 255 0
0.437076 0.450034 0.153016 127 127 0
0.204767 -0.510307 -0.399698 127 127 0
-0.452361 -0.807677 -0.104487 127 127 0
0.113906 -0.935326 -0.097703 127 127 0
0.342953 -0.629277 0.247138 127 127 0
-0.469792 -0.232499 0.117640 127 127 0
-0.286997 -0.320917 -0.325897 127 127 0
0.275729 -0.923891 0.160543 127 127 0
0.330663 -0.576777 -0.273801 127 127 0
-0.168291 0.498887 0.430232 127 127 0
0.291879 0.902056 0.226243 0 255 0
0.174492 0.896385 0.062216 0 255 0
0.087850 0.561427 0.437207 127 127 0
0.475455 0.166999 0.010730 127 127 0
-0.137445 0.031428 -0.469282 127 127 0
-0.022728 0.018146 0.472406 127 127 0
0.125113 -0.269144 0.456525 127 127 0
0.041645 -0.935326 0.118147 127 127 0
-0.357989 -0.613307 0.240534 127 127 0
-0.207425 -0.347663 -0.405470 127 127 0
0.198702 0.523211 0.391390 127 127 0
0.340984 0.388301 -0.263480 127 127 0
-0.397304 -0.544749 -0.215590 127 127 0
0.461675 -0.739879 -0.098084 127 127 0
-0.234981 0.180743 -0.377914 127 127 0
0.396844 -0.355221 -0.207620 127 127 0
-0.134073 0.896385 -0.186739 0 255 0
0.468373 -0.236465 -0.078897 127 127 0
0.062129 0.342976 -0.480481 127 127 0
-0.048464 0.851213 0.400967 0 255 0
0.325556 -0.923382 -0.012130 127 127 0
-0.175703 0.765263 0.366035 0 255 0
-0.265964 -0.348938 0.332559 127 127 0
0.088125 0.902056 -0.361921 0 255 0
0.467127 -0.527798 -0.088364 127 127 0
0.132387 0.540522 0.441181 127 127 0
0.396863 0.802354 -0.105172 0 255 0
-0.355323 -0.451547 -0.257572 127 127 0
-0.395135 -0.737517 0.203387 127 127 0
0.474944 0.481483 0.087326 127 127 0
0.392143 0.901970 0.002387 0 255 0
-0.456957 -0.742016 -0.151410 127 127 0
-0.466580 0.239206 -0.139766 127 127 0
-0.472357 -0.590638 0.098302 127 127 0
-0.040139 0.902056 -0.385905 0 255 0
0.338231 0.128957 -0.266233 127 127 0
-0.427803 -0.538377 -0.185092 127 127 0
-0.274418 -0.702013 -0.338476 127 127 0
-0.158583 -0.296059 -0.454312 127 127 0
-0.481310 -0.462653 -0.044670 127 127 0
-0.336632 0.235418 -0.276263 127 127 0
-0.483004 0.090316 -0.031800 127 127 0
0.140935 0.489193 -0.463529 127 127 0
-0.378951 0.797650 0.160644 0 255 0
-0.008309 0.085884 -0.488676 127 127 0
-0.199683 -0.273312 -0.413212 127 127 0
-0.468849 -0.721855 0.110568 127 127 0
0.169215 0.107248 -0.435249 127 127 0
0.212324 0.184723 -0.392140 127 127 0
0.290276 -0.595157 0.299816 127 127 0
0.404229 0.596346 0.112250 127 127 0
0.040873 0.896385 -0.020412 0 255 0
0.044577 0.896385 -0.097529 0 255 0
-0.023030 -0.767368 -0.477458 127 127 0
0.471301 0.301946 0.042289 127 127 0
0.331144 0.837986 0.229981 0 255 0
0.030485 0.736489 0.396759 0 255 0
-0.031316 0.896385 0.296836 0 255 0
0.432820 -0.202291 0.157272 127 127 0
0.066328 -0.935326 0.044447 127 127 0
0.286355 0.896385 -0.151658 0 255 0
0.467098 -0.182452 0.074208 127 127 0
-0.475818 -0.040775 -0.086383 127 127 0
0.463968 -0.424304 -0.112360 127 127 0
-0.070943 0.787544 -0.412380 0 255 0
0.017784 0.086011 0.471947 127 127 0
0.331789 -0.031241 0.258304 127 127 0
-0.061299 0.565048 0.438644 127 127 0
-0.194495 -0.880562 -0.384939 127 127 0
0.470269 -0.059831 0.050122 127 127 0
0.234269 -0.497465 -0.370195 127 127 0
-0.073925 -0.935326 -0.264704 127 127 0
0.432843 0.050603 -0.171621 127 127 0
-0.484601 -0.717033 -0.008382 127 127 0
0.215813 0.659936 0.298803 127 127 0
0.477229 0.110388 -0.011630 127 127 0
0.466344 -0.657772 -0.094313 127 127 0
0.093756 0.102102 0.461945 127 127 0
0.037773 -0.775542 0.457927 127 127 0
-0.456011 0.051991 0.142512 127 127 0
0.081578 -0.518206 -0.477921 127 127 0
0.142532 0.411746 0.447561 127 127 0
0.253230 0.896385 -0.113568 0 255 0
0.102108 0.896385 0.233149 0 255 0
-0.140077 0.525798 0.449683 127 127 0
0.176836 0.243971 -0.427627 127 127 0
-0.287815 0.114673 0.310707 127 127 0
0.050909 -0.307825 0.467586 127 127 0
-0.410397 -0.345974 0.188126 127 127 0
0.345522 0.175697 -0.258942 127 127 0
0.342454 -0.318892 0.247638 127 127 0
0.397713 -0.337041 0.192379 127 127 0
0.399319 0.863458 0.072140 0 255 0
-0.358994 -0.918365 -0.078429 127 127 0
0.235674 -0.012727 0.354418 127 127 0
-0.253528 -0.496728 -0.359367 127 127 0
-0.421917 -0.128281 0.176606 127 127 0
-0.126072 0.902056 0.364059 0 255 0
-0.312283 -0.235207 0.286240 127 127 0
-0.296521 0.738436 0.280153 0 255 0
0.177258 -0.253435 0.412834 127 127 0
0.463816 0.202481 -0.113515 127 127 0
0.090560 0.163559 0.462366 127 127 0
-0.403989 0.096055 0.194534 127 127 0
0.231184 0.572016 0.358909 127 127 0
0.001704 -0.286982 -0.488436 127 127 0
-0.323066 0.346697 0.275457 127 127 0
0.329622 0.898411 -0.071330 0 255 0
-0.039978 0.896385 0.235567 0 255 0
-0.057419 -0.087095 -0.482211 127 127 0
0.271217 -0.520742 0.318876 127 127 0
0.187021 0.896385 -0.008283 0 255 0
-0.371960 -0.216032 0.226563 127 127 0
0.454148 -0.054807 -0.149427 127 127 0
0.123551 0.896385 -0.143604 0 255 0
0.138505 -0.498630 0.450978 127 127 0
0.166315 0.275768 0.423777 127 127 0
0.369294 0.061214 -0.235169 127 127 0
0.403079 0.143485 -0.201385 127 127 0
0.373273 0.635130 -0.117743 127 127 0
0.154049 0.738334 0.367504 0 255 0
-0.439050 -0.118101 -0.173844 127 127 0
0.088789 0.688071 -0.395165 127 127 0
-0.385432 -0.100543 -0.227462 127 127 0
0.364059 0.241972 0.226033 127 127 0
-0.244191 0.150565 0.354332 127 127 0
0.468036 -0.454720 0.067087 127 127 0
-0.347483 0.815202 -0.234046 0 255 0
0.304945 0.896385 -0.000289 0 255 0
0.247052 0.833504 -0.331725 0 255 0
0.302765 0.857870 0.266965 0 255 0
0.373452 0.743876 0.151483 0 255 0
0.396709 -0.439894 0.193383 127 127 0
0.153505 -0.916107 0.334568 127 127 0
-0.260645 -0.835863 -0.352249 127 127 0
0.318060 0.292612 0.272032 127 127 0
-0.057137 0.497439 -0.488011 127 127 0
-0.034212 0.896385 0.013468 0 255 0
0.350604 0.351349 0.239488 127 127 0
-0.072400 0.602697 -0.419635 127 127 0
-0.232302 -0.651959 -0.380593 127 127 0
-0.432540 0.588411 -0.045084 127 127 0
0.104602 0.698527 0.379735 127 127 0
0.275613 -0.866335 -0.328851 127 127 0
-0.357370 0.877059 0.206790 0 255 0
-0.134049 -0.935326 -0.174519 127 127 0
-0.472156 -0.771246 -0.036114 127 127 0
-0.389090 0.731928 -0.003082 127 127 0
0.042479 -0.451700 -0.483068 127 127 0
-0.100145 0.896385 -0.247393 0 255 0
-0.266481 -0.924932 -0.186553 127 127 0
0.376724 0.498190 -0.227740 127 127 0
-0.158803 -0.435728 0.439720 127 127 0
-0.302779 0.887416 0.277425 0 255 0
-0.246292 0.598604 0.337970 127 127 0
0.152898 -0.891233 0.376651 127 127 0
-0.166521 -0.352637 0.432002 127 127 0
0.113434 0.088189 -0.473726 127 127 0
0.221959 0.896385 -0.243957 0 255 0
-0.472069 0.037668 0.100487 127 127 0
-0.464968 -0.129441 0.129285 127 127 0
0.408183 0.534784 0.181909 127 127 0
-0.046836 0.557157 -0.461152 127 127 0
0.201041 0.530275 -0.403423 127 127 0
-0.247398 -0.391755 0.351125 127 127 0
-0.061223 0.109405 0.467338 127 127 0
0.215316 0.901784 -0.337399 0 255 0
0.002979 -0.505353 -0.488269 127 127 0
0.211384 -0.083610 -0.393080 127 127 0
0.464390 0.282032 0.094782 127 127 0
-0.187243 -0.080893 0.411280 127 127 0
0.024034 0.400809 0.473749 127 127 0
0.466170 -0.285648 0.081256 127 127 0
0.388280 0.290867 -0.216184 127 127 0
-0.365666 0.302540 0.232856 127 127 0
0.140807 0.686859 0.361697 127 127 0
0.352897 -0.055627 -0.251567 127 127 0
0.064433 -0.935326 -0.112434 127 127 0
0.290181 -0.809390 0.299912 127 127 0
0.049073 -0.877269 0.413290 127 127 0
-0.478558 -0.277891 0.051202 127 127 0
-0.478407 0.080422 0.052351 127 127 0
0.403861 0.809957 -0.052018 0 255 0
-0.171369 0.881771 -0.382202 0 255 0
-0.309962 0.896385 0.097984 0 255 0
0.138185 -0.315765 -0.465482 127 127 0
-0.260002 -0.249383 0.338521 127 127 0
0.229362 0.401275 -0.375102 127 127 0
-0.360262 -0.012419 0.238260 127 127 0
0.433733 -0.774412 0.155591 127 127 0
0.138284 0.896385 0.183639 0 255 0
0.462891 0.355517 0.106166 127 127 0
-0.269529 -0.919717 -0.239695 127 127 0
-0.096106 0.896385 0.105539 0 255 0
0.273563 -0.395480 -0.330900 127 127 0
0.299302 0.504749 0.290790 127 127 0
0.386284 0.687071 -0.077894 127 127 0
-0.479615 -0.212761 -0.057544 127 127 0
-0.058957 -0.832021 -0.451181 127 127 0
-0.337472 0.429802 -0.275423 127 127 0
0.142497 -0.520416 -0.461967 127 127 0
-0.220906 -0.511579 -0.391989 127 127 0
0.290258 0.731928 -0.246283 0 255 0
-0.069824 0.665267 0.364129 127 127 0
-0.465803 0.543060 0.049824 127 127 0
0.290769 0.802327 0.282599 0 255 0
-0.141068 0.277757 0.453409 127 127 0
0.243188 0.842133 0.320319 0 255 0
0.168547 -0.554764 -0.435916 127 127 0
-0.391467 0.174501 0.207056 127 127 0
-0.461519 -0.186576 0.137004 127 127 0
-0.196598 0.614921 -0.368827 127 127 0
0.463779 -0.319316 -0.113793 127 127 0
-0.279715 -0.112171 -0.333180 127 127 0
0.369032 0.731928 -0.089753 127 127 0
0.403911 0.831057 0.037265 0 255 0
0.370656 -0.530090 0.219436 127 127 0
0.419496 0.344590 0.170597 127 127 0
-0.303039 0.554674 0.295483 127 127 0
0.322342 0.694210 -0.236560 127 127 0
0.152619 0.893064 -0.384287 0 255 0
0.415955 -0.868070 0.089651 127 127 0
0.239452 0.196241 -0.365012 127 127 0
-0.249675 -0.022180 -0.363219 127 127 0
0.458141 0.320726 0.125415 127 127 0
0.376190 0.747583 -0.160864 0 255 0
-0.479734 -0.582832 0.042266 127 127 0
-0.034306 0.421104 -0.493224 127 127 0
0.216110 0.592773 -0.375095 127 127 0
-0.044360 0.720560 0.367681 127 127 0
0.344723 -0.791760 0.245370 127 127 0
-0.284394 -0.569632 -0.328500 127 127 0
0.030795 0.883409 -0.416555 0 255 0
0.290609 0.321880 0.299483 127 127 0
-0.473482 0.119997 0.089754 127 127 0
0.194171 -0.935326 -0.170919 127 127 0
0.046642 0.410406 -0.487820 127 127 0
0.334223 -0.189016 0.255869 127 127 0
0.204822 0.896385 0.134553 0 255 0
-0.378401 -0.883898 -0.200300 127 127 0
0.204381 -0.883756 -0.375060 127 127 0
0.174670 -0.037377 -0.429794 127 127 0
-0.009892 0.697328 -0.408999 127 127 0
-0.055902 0.414428 0.474213 127 127 0
0.338293 -0.874860 -0.259359 127 127 0
-0.183535 -0.820940 -0.422142 127 127 0
0.171788 -0.927311 0.237676 127 127 0
0.462590 -0.506521 -0.122828 127 127 0
-0.389945 0.821326 -0.148475 0 255 0
-0.145836 -0.149761 -0.465805 127 127 0
-0.444152 -0.415635 -0.168743 127 127 0
0.183933 -0.754354 0.406159 127 127 0
0.317401 0.689897 0.226720 127 127 0
-0.370399 0.687116 0.144630 127 127 0
0.476274 0.009468 -0.018887 127 127 0
-0.288205 0.058247 0.310318 127 127 0
-0.199736 0.535424 0.398787 127 127 0
-0.173113 0.040226 0.425409 127 127 0
-0.379536 -0.887303 0.177291 127 127 0
-0.124304 -0.269427 0.459033 127 127 0
0.066557 -0.935326 -0.155821 127 127 0
-0.263642 0.757155 -0.325465 0 255 0
0.077525 0.591730 0.412605 127 127 0
-0.246385 0.403906 0.352139 127 127 0
-0.166018 0.599613 -0.395163 127 127 0
-0.398778 0.625767 -0.065403 127 127 0
0.477752 -0.270256 -0.006718 127 127 0
0.428217 -0.286689 -0.176246 127 127 0
0.069934 -0.146428 0.465082 127 127 0
-0.070790 0.337737 0.466078 127 127 0
-0.168097 0.742669 -0.382254 0 255 0
0.023914 -0.645157 -0.485512 127 127 0
-0.412453 0.805254 0.036419 0 255 0
-0.394285 -0.353626 -0.218609 127 127 0
-0.054290 -0.685601 -0.482623 127 127 0
-0.403731 0.688841 -0.014980 127 127 0
-0.149664 0.796974 -0.391193 0 255 0
-0.383979 0.054591 -0.228916 127 127 0
0.473811 0.323655 -0.037591 127 127 0
0.308136 -0.924026 0.083558 127 127 0
-0.484186 -0.615604 -0.022821 127 127 0
0.216693 -0.599232 -0.387772 127 127 0
0.295641 0.184458 -0.308823 127 127 0
-0.457151 0.001155 -0.155744 127 127 0
0.347869 0.902056 -0.026693 0 255 0
-0.303234 -0.290867 0.295289 127 127 0
0.313791 -0.430244 -0.290673 127 127 0
0.281703 -0.226001 -0.322761 127 127 0
-0.033573 0.366271 0.470978 127 127 0
-0.313908 -0.302165 -0.298987 127 127 0
-0.193200 0.896385 0.244853 0 255 0
-0.334873 -0.531508 -0.278021 127 127 0
0.030414 0.803824 0.402233 0 255 0
-0.079546 0.825944 -0.411247 0 255 0
-0.474474 -0.356277 0.082218 127 127 0
-0.378807 -0.572034 0.219715 127 127 0
-0.373672 0.449198 0.224851 127 127 0
0.174903 0.896385 0.271590 0 255 0
-0.052132 0.163945 0.468535 127 127 0
0.472388 0.231392 0.034028 127 127 0
0.381479 0.421734 0.208613 127 127 0
0.156922 0.148874 -0.447542 127 127 0
-0.228501 0.333068 0.370022 127 127 0
0.265323 0.696783 -0.303347 127 127 0
0.074544 0.896385 0.308464 0 255 0
-0.144331 -0.260408 -0.466429 127 127 0
0.473350 0.222314 -0.041093 127 127 0
-0.486079 0.053224 -0.008441 127 127 0
0.317032 0.463226 -0.287432 127 127 0
-0.221063 -0.562377 -0.391831 127 127 0
0.052231 0.316201 0.467412 127 127 0
-0.028386 -0.347037 -0.486033 127 127 0
0.418482 0.600267 -0.001491 127 127 0
-0.317782 -0.897619 0.258329 127 127 0
-0.100655 -0.922679 0.312528 127 127 0
-0.451062 -0.476675 0.147460 127 127 0
0.476944 0.494012 0.048309 127 127 0
0.162197 -0.337121 0.427895 127 127 0
-0.298436 0.542451 -0.314459 127 127 0
0.237156 0.902056 0.244801 0 255 0
-0.441263 -0.496570 -0.171632 127 127 0
-0.271148 -0.935326 -0.010637 127 127 0
0.170127 0.042027 -0.434337 127 127 0
-0.389992 -0.477614 -0.222903 127 127 0
0.043952 -0.351330 -0.482875 127 127 0
-0.026920 -0.067224 0.471855 127 127 0
-0.309336 -0.084877 -0.303559 127 127 0
-0.313529 0.254734 0.284993 127 127 0
0.424254 0.215783 -0.180210 127 127 0
-0.121923 0.322203 -0.473719 127 127 0
0.387166 0.427268 -0.217297 127 127 0
-0.092651 0.896385 -0.112949 0 255 0
0.096693 0.896385 -0.324176 0 255 0
-0.249540 0.896385 0.218782 0 255 0
0.438341 -0.743470 -0.166123 127 127 0
-0.397749 0.606173 -0.141434 127 127 0
0.030982 0.439081 0.481222 127 127 0
-0.262448 -0.451921 -0.350447 127 127 0
-0.111938 0.896385 0.037736 0 255 0
-0.198680 0.328970 -0.414214 127 127 0
-0.401931 0.206815 -0.210964 127 127 0
-0.184617 0.896385 0.177199 0 255 0
0.471761 -0.471420 -0.053162 127 127 0
-0.321485 -0.327043 0.277037 127 127 0
-0.384959 0.234840 0.213564 127 127 0
0.271403 0.642926 -0.279816 127 127 0
-0.324945 -0.918271 0.163596 127 127 0
0.217346 -0.305047 0.372746 127 127 0
-0.257941 0.233660 0.340581 127 127 0
-0.120515 0.403378 0.462066 127 127 0
-0.319024 0.855187 0.256763 0 255 0
-0.009031 -0.726222 0.471948 127 127 0
-0.076304 -0.415979 -0.479725 127 127 0
0.219237 0.184967 0.370855 127 127 0
0.322962 0.624353 0.223423 127 127 0
0.035795 -0.881748 -0.426581 127 127 0
0.403148 0.376230 -0.201316 127 127 0
0.278653 0.770931 -0.307477 0 255 0
0.459430 -0.548976 0.122304 127 127 0
0.405650 0.760043 -0.038429 0 255 0
0.275204 -0.417042 0.314888 127 127 0
-0.299990 0.381588 0.298533 127 127 0
-0.388739 0.705829 -0.117794 127 127 0
0.229259 -0.352858 0.360833 127 127 0
0.363163 0.902056 0.049768 0 255 0
-0.177846 -0.284229 0.420676 127 127 0
-0.272696 -0.928830 -0.120150 127 127 0
-0.321375 0.896721 -0.123891 0 255 0
-0.158090 0.207863 0.440433 127 127 0
-0.234886 -0.047868 0.363636 127 127 0
0.003751 0.896385 0.218411 0 255 0
0.295668 -0.136809 0.294425 127 127 0
-0.471355 -0.063512 -0.120283 127 127 0
-0.004437 0.628569 0.392681 127 127 0
-0.135845 -0.916781 0.340511 127 127 0
-0.299958 0.002230 -0.312937 127 127 0
0.472326 -0.393295 -0.048870 127 127 0
-0.279408 0.308431 0.319115 127 127 0
0.127635 -0.103916 -0.469853 127 127 0
-0.301818 -0.482963 0.296704 127 127 0
0.463329 -0.224463 -0.117209 127 127 0
0.265008 -0.916208 -0.273027 127 127 0
0.464279 -0.578583 -0.109992 127 127 0
0.441191 -0.813476 -0.108483 127 127 0
0.180559 -0.471608 -0.423904 127 127 0
0.112196 0.896385 0.081621 0 255 0
0.061653 0.740673 -0.410331 0 255 0
0.005962 0.896385 -0.096510 0 255 0
0.058831 -0.926428 0.294458 127 127 0
0.278450 0.896385 0.172471 0 255 0
0.103246 0.248457 0.460696 127 127 0
-0.384492 0.742904 -0.158700 0 255 0
0.108918 -0.545217 -0.474321 127 127 0
0.233463 -0.260905 0.356629 127 127 0
0.056381 0.896385 0.072192 0 255 0
0.473833 -0.598754 -0.037429 127 127 0
-0.174699 -0.487038 -0.438195 127 127 0
-0.326735 0.073275 -0.286159 127 127 0
-0.093855 -0.920401 -0.345853 127 127 0
-0.380098 0.138592 -0.232796 127 127 0
0.140145 -0.935326 0.020964 127 127 0
-0.103897 0.749340 0.393669 0 255 0
0.221474 0.263093 0.368618 127 127 0
-0.168636 0.896385 -0.008227 0 255 0
0.372435 0.792074 0.156021 0 255 0
-0.476410 -0.480362 0.067517 127 127 0
-0.327210 0.485954 -0.285684 127 127 0
-0.479840 -0.582424 -0.055836 127 127 0
0.134794 -0.622826 0.452516 127 127 0
0.282125 0.709233 0.270451 127 127 0
0.255633 0.896385 0.118674 0 255 0
0.222827 -0.224719 0.367266 127 127 0
0.013389 0.896385 0.131463 0 255 0
0.233630 -0.344013 -0.370834 127 127 0
0.183970 -0.041671 0.406122 127 127 0
-0.485336 0.258490 -0.000282 127 127 0
0.020365 0.896385 -0.308546 0 255 0
0.198719 -0.389714 0.391373 127 127 0
0.097955 -0.306438 -0.475764 127 127 0
-0.001790 -0.919786 -0.361467 127 127 0
0.354920 0.497305 0.235172 127 127 0
-0.230865 -0.918201 0.275365 127 127 0
-0.442667 -0.281396 0.155856 127 127 0
-0.384269 -0.149754 -0.228625 127 127 0
0.117664 0.354169 0.458798 127 127 0
-0.323502 -0.464908 -0.289392 127 127 0
0.132609 0.896385 -0.079972 0 255 0
0.329229 -0.369033 -0.275235 127 127 0
-0.340369 0.721281 -0.180009 0 255 0
-0.024915 0.742970 0.402955 0 255 0
-0.484222 0.447228 0.096394 127 127 0
-0.092977 0.896385 0.003085 0 255 0
0.196933 0.896385 -0.050946 0 255 0
0.353999 -0.682333 -0.250465 127 127 0
-0.136987 0.822174 0.382072 0 255 0
0.341125 -0.111510 -0.263339 127 127 0
-0.032871 -0.935326 -0.135502 127 127 0
0.061741 -0.382843 0.466160 127 127 0
-0.070964 -0.935326 0.237690 127 127 0
0.224271 -0.124640 -0.380193 127 127 0
0.392797 0.838496 -0.121236 0 255 0
0.257063 0.299482 0.333029 127 127 0
0.348555 0.562478 0.241537 127 127 0
-0.417195 0.865892 0.000397 0 255 0
0.247249 0.011154 -0.357214 127 127 0
-0.178814 0.150405 -0.434081 127 127 0
-0.269163 0.726065 -0.278707 127 127 0
-0.405530 0.788158 -0.103375 0 255 0
0.140708 0.390526 -0.463756 127 127 0
0.089026 0.118591 -0.476939 127 127 0
-0.238284 -0.318618 0.360239 127 127 0
-0.074954 0.896385 -0.314177 0 255 0
0.301517 -0.175885 0.288576 127 127 0
-0.164151 0.896385 -0.304381 0 255 0
-0.480621 -0.349814 0.035531 127 127 0
0.310268 0.247591 0.279824 127 127 0
-0.127150 0.704641 -0.387132 127 127 0
0.262362 0.896385 -0.015325 0 255 0
-0.148276 0.896385 -0.109782 0 255 0
0.378269 -0.618258 -0.226195 127 127 0
0.116296 0.896385 0.290003 0 255 0
0.174121 -0.337700 -0.430344 127 127 0
-0.125142 0.086738 0.458923 127 127 0
0.377404 -0.239864 -0.227060 127 127 0
0.160307 -0.679940 0.429786 127 127 0
-0.005606 -0.622089 0.474660 127 127 0
-0.162703 0.160768 0.435819 127 127 0
-0.205300 0.355527 0.393223 127 127 0
0.467037 0.152293 0.074671 127 127 0
0.121246 0.219633 -0.472499 127 127 0
-0.357292 -0.030883 -0.255603 127 127 0
-0.114733 0.526523 -0.470493 127 127 0
-0.422074 -0.234569 -0.190821 127 127 0
-0.073167 0.317467 -0.480137 127 127 0
0.144672 -0.750537 -0.456469 127 127 0
-0.261797 0.675477 0.272441 127 127 0
0.044025 -0.593005 -0.482865 127 127 0
-0.472941 -0.526904 -0.108235 127 127 0
-0.392009 -0.598890 -0.220885 127 127 0
0.382919 0.295391 0.207173 127 127 0
-0.290965 -0.634494 -0.321930 127 127 0
0.222031 0.771494 0.336553 0 255 0
0.070856 -0.035008 -0.479332 127 127 0
0.455738 0.491239 0.134354 127 127 0
0.451687 -0.427457 0.138406 127 127 0
-0.042085 0.902056 0.374933 0 255 0
0.469377 0.498934 -0.107343 127 127 0
-0.203627 0.110360 0.394896 127 127 0
-0.164930 -0.568823 -0.447964 127 127 0
-0.286570 0.896385 0.158258 0 255 0
0.198461 0.441445 0.391632 127 127 0
0.170076 0.896385 0.207285 0 255 0
-0.213479 -0.935326 0.162139 127 127 0
-0.167270 0.032056 -0.445625 127 127 0
0.233941 0.636538 -0.315901 127 127 0
-0.259586 -0.081852 -0.353308 127 127 0
-0.397973 0.690071 -0.062584 127 127 0
0.080760 0.729407 0.361579 0 255 0
-0.450499 -0.835968 -0.031124 127 127 0
-0.434141 -0.755499 0.164382 127 127 0
-0.316819 0.125881 0.281704 127 127 0
0.477232 -0.183163 -0.002761 127 127 0
-0.033484 0.861811 -0.417311 0 255 0
0.249080 0.087507 0.341013 127 127 0
-0.109064 -0.935326 -0.003069 127 127 0
-0.366624 -0.913597 0.144403 127 127 0
-0.286182 0.607753 0.297846 127 127 0
-0.324410 0.896385 -0.057752 0 255 0
-0.383449 -0.479958 0.215074 127 127 0
0.144060 0.860333 0.375650 0 255 0
-0.034123 -0.249348 0.470906 127 127 0
0.284983 -0.927987 -0.084825 127 127 0
-0.158380 -0.420448 -0.454514 127 127 0
-0.124029 -0.571459 0.459069 127 127 0
-0.213053 -0.219913 0.385470 127 127 0
0.356494 -0.867105 0.228720 127 127 0
-0.332652 0.735266 0.227729 0 255 0
0.248874 -0.047228 -0.355590 127 127 0
0.465936 0.039906 -0.097411 127 127 0
0.469926 0.390497 -0.067102 127 127 0
-0.117847 0.896385 0.282517 0 255 0
-0.336281 0.189976 0.262241 127 127 0
0.294335 -0.155020 -0.310129 127 127 0
-0.127305 0.650053 -0.366157 127 127 0
0.008030 -0.797109 -0.470007 127 127 0
-0.410438 0.739013 0.027194 0 255 0
0.011311 0.534099 0.464965 127 127 0
0.064863 -0.614583 0.465749 127 127 0
0.239855 -0.935326 0.054610 127 127 0
-0.092624 -0.935326 -0.226496 127 127 0
0.452573 0.553707 -0.047182 127 127 0
0.376169 -0.648938 0.213923 127 127 0
0.126783 0.896385 -0.001185 0 255 0
-0.247433 0.368928 -0.365462 127 127 0
0.480019 0.420071 0.033656 127 127 0
-0.400214 0.743243 0.106672 0 255 0
-0.291849 0.674616 0.236763 127 127 0
0.071125 -0.920186 -0.349184 127 127 0
-0.167121 -0.704223 0.431401 127 127 0
0.365208 -0.018586 -0.239256 127 127 0
-0.371435 -0.399330 0.227087 127 127 0
-0.003595 0.289491 -0.489134 127 127 0
0.471944 0.464335 -0.132521 127 127 0
-0.388039 -0.821599 0.210484 127 127 0
0.361719 0.691340 -0.164137 127 127 0
0.399623 0.785279 0.069837 0 255 0
0.075609 0.859493 0.396284 0 255 0
0.320027 0.590123 0.270065 127 127 0
0.301490 0.807095 -0.282998 0 255 0
-0.080332 0.259228 -0.479195 127 127 0
-0.092916 -0.199180 0.463165 127 127 0
-0.057753 -0.606865 0.467795 127 127 0
-0.021301 0.896385 -0.133005 0 255 0
0.191570 -0.481946 0.398522 127 127 0
-0.125132 -0.008619 -0.473297 127 127 0
-0.303966 -0.884119 0.291206 127 127 0
0.133694 0.504209 0.456398 127 127 0
-0.335822 0.315468 -0.277072 127 127 0
-0.344857 0.637750 0.186678 127 127 0
-0.245544 0.776935 0.324980 0 255 0
0.377046 -0.890769 0.156950 127 127 0
0.236566 -0.266444 -0.367897 127 127 0
-0.020016 0.048534 -0.487135 127 127 0
-0.473313 -0.303999 0.091040 127 127 0
0.105685 -0.369010 -0.474746 127 127 0
0.089288 -0.662738 -0.476905 127 127 0
0.272996 -0.198321 0.317096 127 127 0
0.132664 0.722557 -0.358228 127 127 0
0.346640 0.428973 0.243452 127 127 0
-0.230698 0.288849 0.367825 127 127 0
-0.386449 0.694012 0.111831 127 127 0
0.402147 0.872092 -0.065034 0 255 0
-0.398706 -0.675505 -0.214189 127 127 0
0.237472 0.896385 0.060983 0 255 0
-0.479548 0.310426 0.043678 127 127 0
-0.041512 -0.442234 -0.484305 127 127 0
0.201318 -0.071868 0.388774 127 127 0
-0.095181 -0.342837 -0.477240 127 127 0
-0.481651 -0.414405 0.027705 127 127 0
0.103603 -0.799262 -0.456738 127 127 0
-0.300640 -0.610179 0.297883 127 127 0
0.162487 0.896385 -0.273819 0 255 0
-0.193329 -0.404057 -0.419565 127 127 0
-0.241181 -0.632687 0.357342 127 127 0
0.433102 0.457713 -0.171362 127 127 0
-0.009332 -0.927816 0.292750 127 127 0
-0.010278 0.695759 0.394370 127 127 0
