ply
format ascii 1.0
element vertex 1275
property float x
property float y
property float z
property uchar red
property uchar green
property uchar blue
end_header
-0.208476 -0.203846 -0.242104 76 0 153
0.321620 -0.062417 -0.083529 76 0 153
-0.025461 0.592133 -0.180424 76 0 153
-0.131063 0.493275 0.164028 76 0 153
0.238612 0.252979 0.189021 76 0 153
0.119557 -0.606839 -0.269644 76 0 153
-0.023093 -0.621067 -0.275381 76 0 153
-0.173183 0.269515 0.223442 76 0 153
0.098740 -0.104566 0.302836 76 0 153
-0.015865 1.000213 -0.027537 76 0 153
-0.251440 -0.212190 0.179873 76 0 153
-0.095486 -0.408833 -0.308961 76 0 153
-0.287696 -0.493472 0.112701 76 0 153
-0.226171 0.325060 -0.126309 76 0 153
0.146889 0.128639 -0.296044 76 0 153
0.002831 -0.319778 0.315740 76 0 153
0.183471 0.480095 -0.147787 76 0 153
0.082255 -0.631638 -0.145379 76 0 153
-0.212863 0.308202 0.155308 76 0 153
-0.071396 0.759678 0.069152 153 76 0
0.205532 -0.631638 -0.092640 76 0 153
-0.100204 0.088185 -0.307006 76 0 153
-0.311556 0.051154 -0.010144 76 0 153
0.221426 -0.551712 -0.240358 76 0 153
-0.033467 0.922189 0.067588 76 0 153
0.242770 -0.631631 0.035200 76 0 153
-0.041706 -0.430681 -0.322291 76 0 153
0.318772 -0.062059 0.085801 76 0 153
0.075795 0.722710 0.090420 153 76 0
0.054472 0.707978 -0.116633 153 76 0
0.252221 -0.631213 -0.050381 76 0 153
-0.174922 0.462526 -0.138785 76 0 153
0.325443 -0.087002 -0.060583 76 0 153
-0.162584 0.502552 0.127044 76 0 153
0.252399 0.349874 0.061765 76 0 153
0.242635 0.388238 0.040521 76 0 153
-0.168281 0.483437 -0.139929 76 0 153
0.313389 0.095005 -0.110649 76 0 153
-0.052136 -0.629141 0.245624 76 0 153
0.091962 0.757553 -0.081093 153 76 0
0.104821 0.843936 0.075715 153 76 0
-0.085005 -0.126997 0.301684 76 0 153
-0.191008 0.546959 0.004934 76 0 153
-0.148559 -0.631638 -0.120571 76 0 153
0.330882 -0.469004 -0.023797 76 0 153
-0.141676 -0.054436 0.278006 76 0 153
-0.199600 -0.316270 0.237324 76 0 153
-0.057394 0.647602 -0.130234 76 0 153
0.013057 0.517609 -0.218905 76 0 153
0.060237 -0.403034 0.310925 76 0 153
0.260043 -0.412297 0.195039 76 0 153
0.095538 -0.257825 -0.316215 76 0 153
0.153768 -0.218454 0.281220 76 0 153
-0.100005 -0.086100 0.295414 76 0 153
-0.241047 0.309253 -0.115970 76 0 153
-0.130519 0.395420 -0.193800 76 0 153
-0.180219 -0.613842 -0.211811 76 0 153
-0.300172 -0.072404 0.080165 76 0 153
-0.010547 -0.631638 0.068865 76 0 153
0.329558 -0.027176 0.023531 76 0 153
-0.214439 0.426256 -0.060270 76 0 153
0.101191 0.464469 -0.213863 76 0 153
0.218342 0.473578 -0.092183 76 0 153
0.005611 0.668929 0.124352 153 76 0
0.125684 0.583597 -0.147522 76 0 153
0.061028 0.417862 -0.231843 76 0 153
-0.081369 -0.163484 0.302738 76 0 153
0.032909 0.729751 -0.118357 153 76 0
0.306800 0.233572 0.074912 76 0 153
-0.260979 0.249700 -0.137654 76 0 153
-0.280493 0.263798 0.051926 76 0 153
-0.127389 -0.198961 0.284157 76 0 153
0.129762 0.650603 0.064860 153 76 0
0.275044 0.008660 0.175439 76 0 153
-0.248113 -0.457234 0.184209 76 0 153
0.052955 -0.341039 -0.323468 76 0 153
0.162976 -0.065270 0.277455 76 0 153
0.041429 -0.631638 -0.199292 76 0 153
-0.051187 0.922189 0.013110 76 0 153
0.229105 -0.621275 0.154028 76 0 153
0.255934 -0.601481 0.148854 76 0 153
0.270079 -0.627209 -0.044622 76 0 153
-0.007462 -0.630218 0.247905 76 0 153
-0.254805 -0.500067 -0.186997 76 0 153
-0.292644 -0.572111 0.049655 76 0 153
-0.228571 -0.209714 0.209715 76 0 153
-0.268281 -0.612865 0.026889 76 0 153
0.299622 0.279451 -0.023514 76 0 153
-0.191481 0.119639 -0.255149 76 0 153
-0.101672 0.790488 -0.010926 153 76 0
0.237374 0.380531 -0.080327 76 0 153
0.307402 -0.559140 0.091328 76 0 153
0.292277 -0.415997 -0.160313 76 0 153
-0.311474 -0.117551 0.000374 76 0 153
0.090315 0.064007 0.305645 76 0 153
0.101371 0.105215 0.302660 76 0 153
-0.114785 0.204128 0.281719 76 0 153
0.087841 0.633667 0.122401 76 0 153
0.273909 -0.165131 -0.186888 76 0 153
0.012241 0.820715 0.116602 153 76 0
0.204652 -0.191640 0.248804 76 0 153
0.305509 -0.229311 0.117509 76 0 153
-0.156185 0.571601 0.086333 76 0 153
-0.245473 -0.622922 -0.090945 76 0 153
0.060345 0.794144 0.095218 153 76 0
0.123313 -0.261390 -0.305814 76 0 153
-0.050163 0.937847 -0.113916 76 0 153
0.322907 0.189706 -0.051680 76 0 153
-0.306809 -0.336222 0.042857 76 0 153
0.289225 -0.279226 0.154442 76 0 153
-0.174743 0.061305 -0.267971 76 0 153
0.012461 0.922189 0.010793 76 0 153
-0.209367 0.478665 -0.054611 76 0 153
0.178272 -0.515471 -0.279760 76 0 153
0.290511 -0.018128 0.152566 76 0 153
-0.020070 -0.631638 0.205950 76 0 153
-0.151264 0.299606 -0.234244 76 0 153
-0.278861 -0.327732 0.134098 76 0 153
-0.072076 -0.204875 0.305215 76 0 153
-0.311530 -0.183853 -0.010747 76 0 153
0.146407 -0.616002 0.236527 76 0 153
0.292552 0.276314 0.066790 76 0 153
0.321213 -0.037492 0.077202 76 0 153
-0.258245 0.288145 0.091881 76 0 153
-0.144914 0.542751 0.125589 76 0 153
0.270136 0.225444 -0.173206 76 0 153
0.194876 0.577874 -0.028103 76 0 153
0.236074 -0.215222 -0.235481 76 0 153
0.042861 0.502575 0.209506 76 0 153
0.076285 0.355682 0.233862 76 0 153
-0.260703 0.069719 -0.179394 76 0 153
-0.095280 0.779988 -0.038110 153 76 0
0.085392 -0.631638 -0.020348 76 0 153
0.066609 0.755768 0.090381 153 76 0
-0.015307 -0.506402 -0.325545 76 0 153
-0.019397 0.415281 -0.235523 76 0 153
0.270205 0.287043 -0.124360 76 0 153
0.132153 0.860618 -0.027233 153 76 0
0.328080 -0.509794 0.031603 76 0 153
0.301844 0.245762 0.078608 76 0 153
-0.212366 -0.001691 -0.238701 76 0 153
-0.008361 -0.631638 -0.191410 76 0 153
-0.184334 0.543518 -0.063463 76 0 153
0.118346 -0.529746 0.294595 76 0 153
0.208406 0.545696 -0.043152 76 0 153
-0.284978 -0.115288 0.119348 76 0 153
0.043565 0.269490 -0.297543 76 0 153
-0.183730 0.263696 -0.229931 76 0 153
-0.097234 0.982151 -0.011326 76 0 153
0.146669 -0.375466 0.284550 76 0 153
0.246553 -0.555481 -0.213284 76 0 153
0.004017 -0.631638 0.045385 76 0 153
-0.103267 -0.134855 0.293963 76 0 153
-0.166055 -0.611233 0.214057 76 0 153
-0.000478 0.075040 0.315263 76 0 153
-0.311288 -0.426346 -0.000393 76 0 153
-0.017013 0.374601 -0.244963 76 0 153
-0.261065 0.286506 -0.098680 76 0 153
0.141797 -0.136638 0.286358 76 0 153
-0.088344 0.390789 -0.220797 76 0 153
-0.097717 0.476760 -0.203501 76 0 153
0.029012 -0.374355 -0.326607 76 0 153
0.016031 0.952108 -0.127147 76 0 153
0.326016 -0.291300 -0.056944 76 0 153
-0.124058 0.379484 0.192745 76 0 153
-0.308264 0.134090 -0.042954 76 0 153
-0.256390 -0.202763 -0.185018 76 0 153
-0.223161 -0.228261 0.216291 76 0 153
-0.022011 0.796615 -0.114844 153 76 0
0.007012 0.231202 0.302119 76 0 153
0.035506 -0.351878 -0.325758 76 0 153
0.216470 -0.456549 -0.251485 76 0 153
0.208282 -0.072780 0.246050 76 0 153
0.051067 0.922189 -0.000353 76 0 153
-0.182254 0.468866 -0.126428 76 0 153
-0.014427 -0.363705 0.314297 76 0 153
0.325463 -0.335782 -0.061151 76 0 153
-0.191907 0.362639 -0.145093 76 0 153
-0.299171 -0.478678 0.083712 76 0 153
0.041698 -0.149427 -0.324949 76 0 153
-0.248001 0.335017 -0.026032 76 0 153
0.317768 -0.390429 0.088872 76 0 153
0.154436 0.519821 -0.161839 76 0 153
-0.073662 0.630370 -0.133217 76 0 153
0.033502 0.184900 -0.322327 76 0 153
0.064901 0.071275 -0.321895 76 0 153
0.101582 0.890768 0.069728 153 76 0
-0.037481 -0.416155 -0.322847 76 0 153
0.331697 -0.222478 0.000010 76 0 153
-0.072693 0.974454 -0.083478 76 0 153
-0.226276 -0.631637 -0.050207 76 0 153
-0.214598 0.196191 -0.228988 76 0 153
0.228843 0.241659 0.207129 76 0 153
-0.171674 0.582719 -0.030464 76 0 153
-0.281498 0.112391 -0.139304 76 0 153
-0.084778 -0.631638 -0.179564 76 0 153
-0.055513 0.791644 0.084162 153 76 0
-0.025395 0.282738 0.279872 76 0 153
-0.202706 -0.549113 0.228771 76 0 153
-0.003814 0.202784 0.308582 76 0 153
-0.267956 -0.288702 -0.168546 76 0 153
0.148811 0.591297 -0.118498 76 0 153
-0.304533 -0.024668 0.060140 76 0 153
-0.206173 -0.045462 0.232019 76 0 153
0.146446 -0.622445 -0.240078 76 0 153
0.147556 -0.499256 0.284107 76 0 153
0.032465 -0.422817 0.314190 76 0 153
0.241778 -0.062772 0.217262 76 0 153
0.285203 -0.492961 0.161497 76 0 153
0.053182 -0.079210 -0.323439 76 0 153
0.291348 -0.425857 0.151020 76 0 153
0.041815 -0.498280 0.313298 76 0 153
-0.136991 0.637332 -0.004290 153 76 0
0.212247 0.495306 -0.092486 76 0 153
-0.184981 -0.631638 0.026036 76 0 153
0.089496 -0.312350 -0.317732 76 0 153
-0.109977 0.445303 -0.201758 76 0 153
0.270072 0.331674 -0.026469 76 0 153
0.020420 0.357063 -0.253567 76 0 153
0.079582 0.800304 -0.095963 153 76 0
0.305027 -0.136960 0.119713 76 0 153
-0.109737 0.462479 -0.199905 76 0 153
0.103106 -0.594190 0.274605 76 0 153
0.132931 0.116432 0.290244 76 0 153
0.243652 0.229336 0.194797 76 0 153
0.203426 0.396874 0.127474 76 0 153
0.203007 0.240275 0.229623 76 0 153
-0.274930 -0.092375 -0.154979 76 0 153
-0.130466 -0.544860 0.278288 76 0 153
0.109133 0.259849 -0.286667 76 0 153
-0.131289 0.293801 0.239683 76 0 153
-0.289830 -0.581136 0.038302 76 0 153
-0.167174 0.480052 0.131147 76 0 153
-0.084715 0.958259 -0.078583 76 0 153
-0.308498 -0.259100 0.030031 76 0 153
-0.233575 -0.258200 0.203200 76 0 153
-0.026667 -0.631638 0.033319 76 0 153
0.148917 0.116282 -0.295203 76 0 153
-0.008439 0.423065 -0.236131 76 0 153
0.010786 0.635560 0.142236 76 0 153
-0.038305 -0.207961 0.311136 76 0 153
-0.232365 0.297168 -0.149454 76 0 153
0.237444 -0.631494 -0.099331 76 0 153
0.275866 0.314895 0.048614 76 0 153
0.116870 0.830974 0.058032 153 76 0
0.020450 0.922189 0.045760 76 0 153
-0.174644 -0.631638 0.146362 76 0 153
0.199422 0.558728 -0.057755 76 0 153
-0.305947 0.045151 0.049406 76 0 153
-0.266263 -0.509393 0.159008 76 0 153
-0.306496 -0.412958 0.045230 76 0 153
-0.143486 -0.025917 0.277089 76 0 153
0.218500 0.456793 -0.098553 76 0 153
-0.258202 0.022683 0.171058 76 0 153
0.092243 0.992160 -0.022306 76 0 153
-0.086502 -0.063307 -0.312665 76 0 153
0.239619 0.319323 -0.145531 76 0 153
0.249689 -0.626130 0.100790 76 0 153
-0.135293 0.542957 0.136630 76 0 153
-0.280517 -0.376241 0.130110 76 0 153
0.276675 -0.439278 0.173311 76 0 153
-0.310316 -0.049601 -0.027790 76 0 153
0.327379 0.172830 0.024075 76 0 153
-0.123775 -0.619683 -0.245429 76 0 153
0.223342 -0.177198 -0.246210 76 0 153
-0.141997 0.383218 0.177675 76 0 153
-0.197082 -0.631609 0.114989 76 0 153
-0.289537 0.020206 -0.119936 76 0 153
0.258735 -0.070543 -0.207831 76 0 153
0.307806 0.145823 -0.124022 76 0 153
-0.219044 -0.508105 -0.232034 76 0 153
0.318480 0.159430 0.084052 76 0 153
-0.028158 -0.628859 0.249672 76 0 153
0.118717 0.023124 0.296050 76 0 153
0.038538 -0.556490 0.306222 76 0 153
0.177290 0.395787 -0.172363 76 0 153
-0.216405 -0.309657 0.223395 76 0 153
0.015595 0.922189 -0.121818 76 0 153
0.063854 -0.028917 -0.322033 76 0 153
-0.304467 -0.530194 0.047332 76 0 153
0.115916 0.124510 -0.308877 76 0 153
0.084882 0.504700 0.198182 76 0 153
0.089524 0.705113 0.084080 153 76 0
-0.051062 0.281313 -0.288245 76 0 153
-0.051437 -0.012977 0.309425 76 0 153
-0.033482 -0.193947 -0.323374 76 0 153
-0.289421 0.211020 -0.096326 76 0 153
0.074250 0.109929 -0.320664 76 0 153
0.109355 0.922189 -0.052276 76 0 153
0.110861 0.149956 0.298996 76 0 153
0.219428 0.473337 0.078403 76 0 153
-0.062970 0.924746 -0.104271 76 0 153
0.314846 -0.266542 -0.104945 76 0 153
0.105332 0.922189 -0.029145 76 0 153
-0.144161 -0.591149 -0.261710 76 0 153
-0.254880 0.273851 0.116957 76 0 153
-0.091933 0.684215 -0.079007 153 76 0
-0.098142 -0.111499 0.296156 76 0 153
0.288353 -0.580893 0.114240 76 0 153
-0.057592 0.765623 0.081755 153 76 0
0.318614 -0.238458 0.085844 76 0 153
-0.198625 0.276911 -0.210067 76 0 153
-0.217106 0.019827 0.222749 76 0 153
0.328241 0.097938 -0.040110 76 0 153
-0.011774 0.396382 0.228209 76 0 153
0.207124 -0.586693 -0.232854 76 0 153
0.126418 0.533395 -0.177160 76 0 153
0.069149 -0.410098 -0.321336 76 0 153
0.330933 0.061770 0.010141 76 0 153
0.131228 0.927348 -0.026953 76 0 153
-0.032125 0.260196 -0.299957 76 0 153
0.000288 0.457996 0.222320 76 0 153
0.318438 0.124319 0.086974 76 0 153
0.102930 0.943826 0.074420 76 0 153
-0.053702 0.989899 -0.073804 76 0 153
0.328473 -0.238631 0.029240 76 0 153
0.170051 -0.064928 -0.285453 76 0 153
0.276024 0.078936 0.174160 76 0 153
-0.257888 0.018988 -0.183065 76 0 153
-0.158289 -0.631638 -0.004432 76 0 153
0.048201 -0.631638 -0.173388 76 0 153
0.224646 -0.382655 0.233620 76 0 153
-0.289106 -0.217073 0.109383 76 0 153
0.198581 0.525424 -0.099302 76 0 153
0.102704 -0.473947 0.302275 76 0 153
0.304859 -0.434184 0.119951 76 0 153
-0.286704 0.263963 -0.004276 76 0 153
0.072951 0.245648 -0.302475 76 0 153
0.248478 0.315508 -0.136178 76 0 153
-0.089004 -0.631638 -0.106734 76 0 153
-0.267531 -0.071613 -0.169207 76 0 153
0.300171 -0.132543 0.131331 76 0 153
-0.126330 0.052012 0.284596 76 0 153
-0.047149 0.854079 0.104276 153 76 0
-0.109135 0.261124 0.266160 76 0 153
0.141203 0.644554 -0.061456 76 0 153
-0.081770 -0.631638 0.166502 76 0 153
0.251905 0.096297 -0.217216 76 0 153
0.127721 -0.437474 -0.303988 76 0 153
0.324240 -0.129117 -0.068917 76 0 153
0.001685 -0.042459 -0.327274 76 0 153
0.313353 -0.398409 -0.109844 76 0 153
-0.273521 0.062447 -0.157925 76 0 153
-0.310395 0.163999 -0.004227 76 0 153
0.157008 -0.538942 0.276865 76 0 153
-0.157386 0.150855 -0.280362 76 0 153
-0.195002 -0.101188 -0.252447 76 0 153
-0.174173 0.423906 -0.144422 76 0 153
-0.208433 -0.394226 0.230550 76 0 153
0.131022 0.956280 -0.004286 76 0 153
-0.085283 0.897713 0.061244 153 76 0
-0.242768 0.340585 -0.042367 76 0 153
0.106437 0.300786 0.256111 76 0 153
0.103213 0.832310 -0.088868 153 76 0
-0.024975 -0.631638 -0.183329 76 0 153
0.053628 0.354392 -0.250742 76 0 153
0.099578 0.798871 0.063404 153 76 0
-0.244432 -0.258634 -0.200608 76 0 153
0.102244 -0.234288 0.302397 76 0 153
0.258643 -0.596695 -0.163471 76 0 153
0.064967 -0.631638 -0.179173 76 0 153
-0.205540 0.502446 -0.036259 76 0 153
0.311611 -0.092103 -0.115194 76 0 153
0.218609 -0.189510 -0.249843 76 0 153
0.216528 0.377350 0.118180 76 0 153
-0.193270 0.445477 0.102250 76 0 153
-0.228261 0.143730 -0.221443 76 0 153
0.253988 -0.384447 0.202926 76 0 153
0.088832 -0.592739 0.281082 76 0 153
-0.151349 -0.329236 0.272873 76 0 153
0.252879 -0.528065 0.202056 76 0 153
-0.193647 0.111070 0.241660 76 0 153
0.080490 -0.125561 -0.319576 76 0 153
0.240015 0.220380 -0.214504 76 0 153
-0.305657 0.146956 -0.061356 76 0 153
-0.254079 0.216244 0.160058 76 0 153
0.299219 -0.153836 -0.145118 76 0 153
-0.310914 -0.457937 -0.021157 76 0 153
0.116447 -0.172364 0.297067 76 0 153
-0.221160 -0.500116 0.218384 76 0 153
0.177222 0.483156 0.143179 76 0 153
-0.249450 0.329432 -0.040459 76 0 153
0.266575 0.081839 -0.197009 76 0 153
0.078163 0.991993 0.044022 76 0 153
0.117892 0.143862 -0.307873 76 0 153
-0.154805 -0.123443 -0.282465 76 0 153
0.076626 0.975679 0.084693 76 0 153
-0.228433 -0.512718 -0.220930 76 0 153
0.084206 0.495158 -0.213049 76 0 153
0.306323 -0.264592 -0.125798 76 0 153
-0.038812 0.922189 -0.087413 76 0 153
0.186571 0.500078 -0.134835 76 0 153
-0.147003 0.601745 0.063946 76 0 153
0.330164 -0.291774 0.017829 76 0 153
0.028630 -0.177671 0.314784 76 0 153
-0.307315 -0.486552 0.038959 76 0 153
-0.022775 0.617731 0.152341 76 0 153
0.266416 0.031602 -0.197730 76 0 153
0.301926 -0.500763 -0.138592 76 0 153
0.325828 0.167266 0.040347 76 0 153
0.236609 0.275473 -0.188625 76 0 153
-0.305670 -0.395341 -0.063115 76 0 153
-0.266638 0.302560 -0.033825 76 0 153
0.218081 0.458594 0.087938 76 0 153
0.328599 -0.018783 -0.038684 76 0 153
0.198699 -0.227571 0.253501 76 0 153
0.113928 -0.090997 -0.309699 76 0 153
0.055862 -0.631638 -0.146834 76 0 153
0.176185 0.335176 -0.204151 76 0 153
0.131950 -0.351964 0.290650 76 0 153
-0.144192 -0.452202 0.276432 76 0 153
0.209028 -0.007035 0.245604 76 0 153
-0.024304 -0.631638 -0.170737 76 0 153
0.074488 -0.351131 0.309048 76 0 153
0.046710 -0.631638 -0.070535 76 0 153
0.090138 -0.225216 -0.317601 76 0 153
0.172588 0.053873 0.272422 76 0 153
0.321769 -0.159824 -0.082397 76 0 153
0.020252 -0.436565 -0.327193 76 0 153
0.300794 0.276913 0.011554 76 0 153
-0.002497 -0.457071 0.315092 76 0 153
-0.076577 0.976524 0.064831 76 0 153
-0.230962 0.274097 -0.170517 76 0 153
0.297203 0.226607 -0.117813 76 0 153
0.153242 0.633360 -0.049651 76 0 153
-0.170381 -0.336347 -0.271321 76 0 153
-0.301773 -0.267674 0.073908 76 0 153
0.223591 0.505208 -0.044426 76 0 153
0.263402 -0.532918 0.187643 76 0 153
-0.083675 0.789089 0.054500 153 76 0
0.323295 -0.360200 0.066402 76 0 153
0.039861 0.681320 -0.128563 153 76 0
0.086441 -0.542267 0.302868 76 0 153
-0.298477 -0.548276 0.066135 76 0 153
-0.211443 -0.129791 -0.239551 76 0 153
-0.289207 -0.465147 0.109140 76 0 153
-0.151972 0.567014 0.097052 76 0 153
-0.255244 -0.129534 0.174915 76 0 153
0.142130 -0.258925 0.286432 76 0 153
-0.180645 0.049771 0.251851 76 0 153
0.230476 0.473470 0.046472 76 0 153
-0.222800 -0.334507 -0.228269 76 0 153
0.321421 -0.115477 -0.084302 76 0 153
0.038573 0.447307 -0.233061 76 0 153
0.167026 0.423420 0.164019 76 0 153
0.295795 -0.408093 -0.152251 76 0 153
0.239259 0.340276 -0.120189 76 0 153
-0.270132 0.272539 0.079900 76 0 153
0.246796 0.051792 0.211865 76 0 153
0.320223 -0.565510 0.014828 76 0 153
-0.017119 0.816978 0.111893 153 76 0
-0.299815 -0.509022 -0.092113 76 0 153
0.324385 0.156842 -0.067895 76 0 153
-0.164132 0.094527 0.264521 76 0 153
-0.297398 0.117509 0.089298 76 0 153
0.054701 0.688132 -0.121911 153 76 0
0.081508 0.559659 -0.187864 76 0 153
0.021245 -0.631638 -0.226400 76 0 153
-0.168586 -0.093291 -0.272697 76 0 153
-0.174235 -0.631518 0.162864 76 0 153
-0.086863 0.651414 0.092505 153 76 0
0.114188 -0.631638 -0.067679 76 0 153
0.114533 0.902546 0.042416 153 76 0
0.112224 0.328356 -0.247571 76 0 153
0.041932 -0.631622 0.232626 76 0 153
-0.097084 0.967386 0.039323 76 0 153
-0.208630 -0.631635 0.084954 76 0 153
-0.059311 0.378406 0.224157 76 0 153
-0.254647 0.115448 0.175694 76 0 153
0.253226 0.146518 0.203499 76 0 153
0.095018 -0.590966 -0.292100 76 0 153
-0.125925 -0.513233 -0.295953 76 0 153
-0.015269 -0.206722 0.313976 76 0 153
0.255716 0.347091 -0.065820 76 0 153
-0.265387 0.128643 -0.172539 76 0 153
0.262241 -0.470788 -0.203593 76 0 153
-0.152963 0.450754 0.155870 76 0 153
-0.084305 -0.631638 0.126270 76 0 153
-0.203695 -0.066738 0.233763 76 0 153
0.260143 0.318572 -0.104033 76 0 153
-0.084498 0.922189 0.027943 76 0 153
-0.182875 0.413053 0.123643 76 0 153
0.185363 -0.141124 0.263330 76 0 153
-0.145714 -0.412762 -0.287553 76 0 153
0.146474 0.388472 -0.199272 76 0 153
0.085852 0.576759 -0.176614 76 0 153
0.052586 0.056350 0.311932 76 0 153
0.132587 0.870698 -0.003959 153 76 0
-0.073772 0.101092 0.305075 76 0 153
-0.066284 0.359262 0.229114 76 0 153
-0.114904 0.157963 -0.300126 76 0 153
0.108230 0.682235 0.073276 153 76 0
0.331724 -0.113857 -0.000609 76 0 153
0.068934 0.996885 -0.016927 76 0 153
0.135313 -0.099796 -0.300843 76 0 153
-0.280785 0.262333 -0.066991 76 0 153
-0.066404 -0.608283 0.269186 76 0 153
0.313284 -0.349497 0.099484 76 0 153
-0.030894 0.922189 -0.005644 76 0 153
0.040330 0.922189 0.045051 76 0 153
-0.257069 -0.417480 -0.184133 76 0 153
-0.060308 -0.174817 -0.319579 76 0 153
-0.134950 -0.631638 -0.168875 76 0 153
0.298417 -0.480327 -0.146825 76 0 153
0.248747 0.381342 0.008144 76 0 153
-0.094709 0.051688 -0.309282 76 0 153
-0.207851 0.373515 -0.109810 76 0 153
-0.187721 -0.188840 -0.258026 76 0 153
0.168257 0.103658 0.274775 76 0 153
0.325347 0.057098 0.054516 76 0 153
-0.132293 0.473487 0.169164 76 0 153
-0.020472 -0.631638 0.097617 76 0 153
-0.301310 -0.370191 0.076135 76 0 153
-0.060439 0.925785 0.094765 76 0 153
-0.143270 0.451951 -0.176233 76 0 153
-0.301067 -0.006611 -0.088625 76 0 153
-0.301989 -0.342188 -0.084488 76 0 153
-0.068072 0.447556 0.209615 76 0 153
0.297489 -0.108589 -0.148776 76 0 153
0.298385 0.273168 0.041905 76 0 153
-0.066217 -0.343094 0.306781 76 0 153
0.023012 0.009557 0.315027 76 0 153
0.295779 0.015279 0.141230 76 0 153
-0.120094 -0.631638 0.095215 76 0 153
-0.102323 -0.540805 -0.302609 76 0 153
-0.206728 0.494587 0.032855 76 0 153
0.193426 -0.562358 -0.257687 76 0 153
0.268206 -0.084026 -0.195667 76 0 153
-0.093555 0.794009 0.037978 153 76 0
-0.258682 -0.288785 0.170432 76 0 153
-0.107121 0.922189 0.028828 76 0 153
0.035113 0.993233 -0.080846 76 0 153
-0.278589 -0.354409 0.134743 76 0 153
0.309167 0.021516 -0.120271 76 0 153
0.010849 0.851222 -0.130057 153 76 0
0.003205 -0.001976 0.315378 76 0 153
-0.081439 -0.482630 0.302700 76 0 153
0.037714 -0.631638 0.154401 76 0 153
0.026311 0.922189 0.102306 76 0 153
0.257043 0.277935 -0.159428 76 0 153
0.191627 -0.602857 0.218070 76 0 153
-0.038790 0.996390 -0.045279 76 0 153
0.002726 0.869020 -0.128179 153 76 0
0.096360 0.063269 -0.315999 76 0 153
0.233070 0.282530 0.176764 76 0 153
0.325245 -0.528497 -0.056017 76 0 153
-0.295959 -0.535723 0.086564 76 0 153
-0.087567 0.177063 0.297973 76 0 153
0.251776 -0.630709 0.049311 76 0 153
0.105828 0.615327 -0.137648 76 0 153
0.111346 0.040256 0.299075 76 0 153
-0.046057 0.992649 -0.065373 76 0 153
0.019600 -0.631638 0.035551 76 0 153
-0.302894 -0.006830 0.068437 76 0 153
0.021063 0.556669 0.190824 76 0 153
-0.311074 -0.508137 -0.010849 76 0 153
0.100319 -0.497957 -0.314816 76 0 153
0.110408 -0.631638 -0.167878 76 0 153
0.077087 -0.631638 -0.008438 76 0 153
-0.124631 0.037806 -0.296887 76 0 153
-0.155340 -0.433373 0.270525 76 0 153
-0.134584 -0.096054 0.280771 76 0 153
0.304231 -0.341579 -0.130576 76 0 153
-0.269553 0.032634 -0.165772 76 0 153
-0.026146 0.225116 0.300672 76 0 153
0.227748 0.375861 -0.108214 76 0 153
0.106911 -0.154256 -0.312583 76 0 153
-0.296303 -0.508922 0.091207 76 0 153
0.149637 -0.513029 -0.294438 76 0 153
0.219596 -0.398312 0.237497 76 0 153
0.160825 -0.625244 0.212334 76 0 153
0.288970 -0.470047 0.155665 76 0 153
0.329710 -0.084506 0.022375 76 0 153
0.019915 0.545918 0.195918 76 0 153
0.005318 1.001592 0.004548 76 0 153
0.077260 0.991883 -0.057573 76 0 153
-0.067162 0.344320 -0.248027 76 0 153
0.186952 0.592426 0.014117 76 0 153
-0.190379 -0.459074 0.244319 76 0 153
-0.036612 0.317353 0.259644 76 0 153
0.245973 -0.134829 0.212280 76 0 153
-0.040993 -0.151809 0.310632 76 0 153
0.044269 -0.083405 0.312627 76 0 153
-0.161171 -0.590774 -0.249590 76 0 153
0.273826 -0.010371 0.177027 76 0 153
-0.282370 0.262133 -0.055103 76 0 153
-0.129682 -0.631638 0.039194 76 0 153
-0.080617 0.705924 -0.084715 153 76 0
-0.277585 -0.253974 -0.148686 76 0 153
0.134775 -0.460124 0.289479 76 0 153
0.026625 -0.164553 -0.326914 76 0 153
0.023898 0.684339 0.118925 153 76 0
-0.061596 0.631044 0.127956 153 76 0
-0.035044 -0.580616 0.294141 76 0 153
-0.276644 -0.091844 0.139355 76 0 153
-0.188058 -0.631638 -0.111285 76 0 153
-0.309407 0.071707 0.023108 76 0 153
-0.034737 0.779824 0.095421 153 76 0
0.067054 0.853022 -0.116106 153 76 0
0.042838 -0.341990 0.313215 76 0 153
-0.029418 0.715691 -0.116584 153 76 0
-0.303970 0.115043 -0.074817 76 0 153
-0.183589 0.208710 -0.250963 76 0 153
-0.146566 0.117833 0.275449 76 0 153
-0.044102 0.144308 -0.321793 76 0 153
-0.031453 0.922189 -0.108699 76 0 153
-0.141725 -0.259811 0.277614 76 0 153
-0.298513 0.044025 0.086045 76 0 153
-0.301364 -0.096683 -0.087527 76 0 153
-0.188219 0.527865 0.061479 76 0 153
0.313277 0.000677 0.098892 76 0 153
-0.291772 -0.384728 -0.114542 76 0 153
0.229935 -0.482085 -0.241132 76 0 153
0.078635 0.440298 0.213984 76 0 153
0.136394 0.610290 -0.114539 76 0 153
0.299677 0.253557 -0.089486 76 0 153
0.117207 0.768151 -0.032977 153 76 0
0.041836 0.751576 -0.113215 153 76 0
0.317892 0.179649 0.079233 76 0 153
-0.272390 -0.368104 0.148575 76 0 153
-0.072889 0.469217 0.204950 76 0 153
-0.103239 0.233799 -0.289947 76 0 153
-0.217726 0.068114 -0.233759 76 0 153
-0.292441 0.075715 0.101332 76 0 153
-0.089482 0.533167 0.175841 76 0 153
0.313400 0.179127 -0.103853 76 0 153
-0.143039 0.274222 -0.255066 76 0 153
-0.256539 -0.097049 -0.184825 76 0 153
0.193116 -0.063044 -0.269371 76 0 153
0.079681 -0.563448 -0.310047 76 0 153
0.277345 -0.127144 0.172397 76 0 153
0.096557 0.040892 -0.315927 76 0 153
0.192239 -0.631638 0.123572 76 0 153
0.000029 -0.631638 -0.128037 76 0 153
-0.005618 -0.250818 -0.326951 76 0 153
-0.297358 0.229381 0.013560 76 0 153
0.269891 -0.282620 -0.192111 76 0 153
-0.259509 -0.582397 0.133235 76 0 153
-0.225555 -0.020111 0.213641 76 0 153
0.160918 0.224155 -0.276880 76 0 153
0.193295 -0.210984 0.257647 76 0 153
-0.059023 0.109968 0.308113 76 0 153
0.204648 -0.291189 0.248949 76 0 153
-0.193618 0.180364 0.238201 76 0 153
0.295991 -0.524809 -0.149867 76 0 153
0.308540 0.183893 -0.113687 76 0 153
0.192959 -0.631638 -0.085097 76 0 153
-0.109495 0.941117 -0.037733 76 0 153
-0.276243 -0.386037 -0.151868 76 0 153
0.089739 0.923296 -0.099043 76 0 153
0.014507 -0.025767 -0.327446 76 0 153
0.229919 0.167726 -0.239033 76 0 153
-0.245545 -0.025343 0.187567 76 0 153
0.084634 0.361862 0.228649 76 0 153
0.039299 0.185072 0.309957 76 0 153
-0.189281 -0.513559 -0.256365 76 0 153
-0.181730 0.564282 0.017225 76 0 153
-0.081721 0.948557 -0.086194 76 0 153
-0.101799 0.880545 0.039883 153 76 0
-0.184331 0.474582 0.109394 76 0 153
0.232486 -0.139148 0.226558 76 0 153
-0.070084 0.452147 -0.220010 76 0 153
-0.292807 -0.508817 -0.111593 76 0 153
-0.291614 -0.342655 0.103328 76 0 153
-0.310888 0.135177 0.007213 76 0 153
0.277080 -0.467718 -0.184371 76 0 153
-0.084245 -0.416436 -0.313595 76 0 153
0.123693 0.671309 -0.067647 153 76 0
0.188661 -0.631638 0.086531 76 0 153
-0.016852 0.108812 -0.325563 76 0 153
-0.006324 0.457213 -0.233670 76 0 153
0.266364 0.307717 0.094393 76 0 153
0.201393 0.350973 -0.167283 76 0 153
-0.071454 0.892588 -0.091645 153 76 0
0.077878 0.623935 -0.147435 76 0 153
-0.038499 -0.332658 -0.322713 76 0 153
-0.004343 -0.227793 -0.327007 76 0 153
-0.237821 -0.231023 0.197668 76 0 153
-0.224334 0.363849 0.065442 76 0 153
0.058494 0.431129 0.219872 76 0 153
-0.303683 -0.223583 -0.076216 76 0 153
-0.308176 -0.438812 0.032465 76 0 153
0.330932 -0.298829 -0.021711 76 0 153
-0.091386 0.970348 0.049736 76 0 153
0.035938 -0.058254 0.313635 76 0 153
0.188246 0.212385 -0.261977 76 0 153
0.000188 -0.606552 -0.292520 76 0 153
-0.142496 -0.072151 -0.289181 76 0 153
-0.301758 -0.315927 -0.085669 76 0 153
-0.230685 -0.396540 0.206964 76 0 153
-0.199501 -0.297368 -0.248993 76 0 153
0.281154 -0.113422 -0.178927 76 0 153
-0.034202 -0.631638 -0.138761 76 0 153
-0.232500 -0.078938 0.204600 76 0 153
-0.247301 0.309716 -0.100314 76 0 153
-0.112099 0.582020 0.131574 76 0 153
-0.030418 0.692438 0.110526 153 76 0
-0.273671 -0.605706 0.035130 76 0 153
-0.150757 0.349678 -0.198717 76 0 153
0.287774 -0.507005 0.157317 76 0 153
0.304009 -0.113527 0.121547 76 0 153
0.062065 0.759168 -0.104393 153 76 0
0.061817 -0.550949 0.305072 76 0 153
0.157064 -0.020991 -0.291772 76 0 153
0.286793 -0.518214 -0.169553 76 0 153
0.296247 -0.576437 0.100692 76 0 153
0.056225 0.668960 -0.127766 153 76 0
0.122165 0.970779 -0.034136 76 0 153
0.072646 0.558673 0.180329 76 0 153
0.058896 -0.351070 -0.322686 76 0 153
0.004752 0.350471 -0.256653 76 0 153
0.122300 0.963025 0.031642 76 0 153
-0.127610 -0.631182 -0.205250 76 0 153
0.023427 -0.268451 -0.327054 76 0 153
-0.039302 0.553291 -0.198297 76 0 153
0.024559 0.307619 0.269880 76 0 153
0.173174 -0.631638 -0.169031 76 0 153
-0.164849 -0.579825 0.242976 76 0 153
-0.075340 0.271316 0.275004 76 0 153
-0.215541 0.242574 -0.210069 76 0 153
-0.237156 0.206218 0.186094 76 0 153
-0.211620 -0.246478 -0.239387 76 0 153
-0.282795 -0.271571 0.124616 76 0 153
-0.153241 -0.358864 -0.283473 76 0 153
-0.045100 -0.631638 0.122205 76 0 153
-0.263773 0.221293 -0.152790 76 0 153
0.048379 -0.408108 0.312398 76 0 153
-0.310181 0.039233 -0.028813 76 0 153
-0.072713 0.987610 -0.060965 76 0 153
-0.162267 0.409402 -0.162620 76 0 153
0.281939 0.300542 0.062111 76 0 153
-0.262835 -0.246912 0.164910 76 0 153
-0.106170 -0.215350 -0.304535 76 0 153
0.276295 -0.109003 0.173807 76 0 153
0.050552 0.085642 0.312199 76 0 153
-0.266205 -0.113632 0.159665 76 0 153
0.313390 -0.482833 0.099049 76 0 153
0.044133 0.375527 0.231935 76 0 153
-0.012509 0.476752 0.217886 76 0 153
0.111944 0.836993 0.066707 153 76 0
0.226974 0.172524 0.229346 76 0 153
-0.130743 0.633629 -0.057171 76 0 153
0.039238 -0.293067 0.313686 76 0 153
0.142767 0.563337 0.136148 76 0 153
0.199725 -0.269559 0.252714 76 0 153
-0.259722 0.035602 0.169075 76 0 153
-0.214413 0.480113 -0.010339 76 0 153
0.115284 -0.475649 -0.309139 76 0 153
-0.133348 0.641220 -0.023798 153 76 0
0.104907 0.981938 -0.057454 76 0 153
0.045349 0.966737 0.105785 76 0 153
0.272162 -0.211546 0.179197 76 0 153
-0.159516 0.247894 0.244147 76 0 153
-0.180297 -0.550187 -0.257159 76 0 153
-0.115342 -0.540714 0.285858 76 0 153
-0.038766 0.812646 -0.114451 153 76 0
0.234126 -0.211710 0.224812 76 0 153
0.291015 -0.396571 0.151673 76 0 153
0.096092 0.429434 0.207495 76 0 153
0.247823 -0.527243 -0.220173 76 0 153
-0.267274 -0.468938 0.158002 76 0 153
0.328701 -0.197194 -0.039101 76 0 153
0.033546 0.278729 0.283291 76 0 153
0.154090 -0.282591 -0.293026 76 0 153
0.196725 0.537771 -0.091320 76 0 153
-0.210975 -0.190227 0.228397 76 0 153
0.324867 -0.260699 -0.066958 76 0 153
0.240653 -0.014407 0.218754 76 0 153
0.018573 0.977289 -0.116892 76 0 153
0.052198 0.559711 0.185370 76 0 153
-0.165202 -0.115920 -0.275292 76 0 153
0.182762 -0.624174 -0.210837 76 0 153
0.233596 -0.422836 -0.237762 76 0 153
-0.098839 -0.631638 -0.047808 76 0 153
-0.016347 0.623037 -0.161390 76 0 153
-0.162000 -0.056579 0.266156 76 0 153
0.210646 0.546607 -0.025238 76 0 153
0.186431 0.305913 0.207022 76 0 153
0.122971 0.742708 -0.008402 153 76 0
0.183751 0.040109 -0.276552 76 0 153
0.219131 -0.416116 0.237854 76 0 153
-0.308542 0.009918 -0.041300 76 0 153
0.202266 0.002123 0.250769 76 0 153
-0.128440 0.549393 -0.151039 76 0 153
0.193722 -0.631638 -0.124788 76 0 153
-0.254828 -0.316410 0.175459 76 0 153
0.177360 -0.476607 -0.280942 76 0 153
-0.121097 0.559834 -0.151016 76 0 153
0.248621 0.366281 0.046579 76 0 153
0.117469 0.880845 0.049742 153 76 0
-0.231740 0.255396 0.170295 76 0 153
-0.000011 -0.605212 0.281990 76 0 153
-0.309983 -0.489574 -0.027113 76 0 153
0.213046 -0.424645 -0.254114 76 0 153
-0.301285 -0.534736 0.065183 76 0 153
-0.137064 -0.631638 0.093497 76 0 153
-0.105950 -0.498528 0.292982 76 0 153
-0.176855 -0.631638 0.047621 76 0 153
0.120649 -0.455237 0.295065 76 0 153
0.298927 -0.457034 -0.145290 76 0 153
0.307967 0.244869 0.050280 76 0 153
0.263999 -0.484775 -0.201326 76 0 153
0.073904 -0.541079 -0.317171 76 0 153
0.295324 0.119170 0.142683 76 0 153
-0.096116 -0.618980 -0.258407 76 0 153
-0.166973 -0.614035 -0.221838 76 0 153
0.152987 0.618318 0.069205 76 0 153
-0.156705 -0.630764 -0.187532 76 0 153
-0.014909 0.595763 0.168391 76 0 153
-0.166343 0.290393 -0.228705 76 0 153
-0.103963 0.170456 -0.303477 76 0 153
-0.072292 0.617196 0.133861 76 0 153
0.093676 0.160158 0.304265 76 0 153
-0.172610 -0.267224 -0.269610 76 0 153
0.181493 -0.080182 -0.278283 76 0 153
-0.171741 -0.492720 0.258649 76 0 153
0.232267 -0.623728 -0.157713 76 0 153
0.187873 -0.101934 -0.273391 76 0 153
-0.013643 -0.298737 0.314303 76 0 153
-0.307207 -0.199918 0.039836 76 0 153
0.302144 -0.316444 0.125053 76 0 153
0.138103 -0.525181 0.286976 76 0 153
0.159599 0.618893 -0.064602 76 0 153
0.102027 0.413440 0.206839 76 0 153
-0.289807 0.155372 -0.117673 76 0 153
0.144488 -0.631638 -0.040678 76 0 153
-0.104454 -0.524542 -0.304009 76 0 153
-0.075269 0.669114 0.092956 153 76 0
0.036396 0.943121 0.114348 76 0 153
-0.129948 0.344899 0.205337 76 0 153
0.246209 0.367408 -0.066994 76 0 153
0.245774 0.146000 -0.224889 76 0 153
0.041106 0.776489 -0.111287 153 76 0
-0.107483 0.617628 0.104761 76 0 153
-0.074774 -0.143397 0.304788 76 0 153
-0.074623 0.305990 -0.269042 76 0 153
-0.238407 -0.018849 0.196905 76 0 153
0.296753 -0.578984 -0.109158 76 0 153
-0.228601 0.212254 0.195195 76 0 153
-0.011254 -0.221583 0.314472 76 0 153
0.326494 -0.237480 0.044268 76 0 153
-0.088040 0.916847 -0.052679 153 76 0
-0.295936 -0.343540 -0.104453 76 0 153
0.047113 -0.631638 0.024180 76 0 153
0.222774 -0.244905 0.234907 76 0 153
-0.267127 -0.335615 0.158232 76 0 153
0.120793 0.763091 -0.002021 153 76 0
-0.045918 0.842734 0.105598 153 76 0
0.082056 -0.631638 -0.069363 76 0 153
0.330004 0.050864 -0.028289 76 0 153
0.283357 -0.190722 0.163531 76 0 153
-0.241592 0.156029 0.191632 76 0 153
0.278475 -0.549549 0.162054 76 0 153
-0.211228 -0.592925 0.192240 76 0 153
-0.235870 -0.509847 0.199684 76 0 153
0.040393 0.922189 0.060325 76 0 153
-0.024525 0.137171 -0.324455 76 0 153
-0.070552 0.065317 0.305893 76 0 153
-0.234564 0.274040 0.154298 76 0 153
-0.273139 -0.130294 0.147098 76 0 153
-0.053013 -0.432502 0.309217 76 0 153
-0.221112 0.089026 -0.230101 76 0 153
-0.007479 -0.292937 -0.326797 76 0 153
-0.021225 0.723175 0.106034 153 76 0
0.205001 0.054505 0.248680 76 0 153
-0.304827 -0.049831 0.057905 76 0 153
0.265982 0.026640 0.187263 76 0 153
-0.053255 -0.351156 -0.320766 76 0 153
-0.002889 -0.129991 -0.327072 76 0 153
-0.116004 0.010034 -0.300463 76 0 153
-0.031940 -0.631637 -0.236143 76 0 153
-0.061535 0.230119 -0.305506 76 0 153
0.023671 0.875533 -0.126839 153 76 0
0.101304 -0.631638 -0.006175 76 0 153
0.202603 -0.631638 0.070580 76 0 153
-0.260322 -0.089539 0.168293 76 0 153
-0.115654 -0.339623 0.289021 76 0 153
0.057810 0.996777 0.031323 76 0 153
0.088405 -0.280262 -0.317956 76 0 153
-0.273615 -0.539502 -0.150384 76 0 153
-0.148440 0.200354 0.267511 76 0 153
-0.215495 0.218573 0.209179 76 0 153
-0.211927 -0.434132 -0.239105 76 0 153
-0.281200 -0.426685 -0.140022 76 0 153
-0.293042 0.080339 -0.111474 76 0 153
0.095423 0.913747 0.065172 153 76 0
-0.145115 -0.627227 -0.215300 76 0 153
0.278749 0.309618 -0.062643 76 0 153
-0.089328 0.841415 -0.081542 153 76 0
-0.248444 0.088734 0.183778 76 0 153
0.131888 -0.631638 -0.092213 76 0 153
-0.042371 0.797314 0.094665 153 76 0
-0.066223 -0.498929 -0.318315 76 0 153
-0.273199 0.155538 -0.157094 76 0 153
0.211445 0.529162 -0.062081 76 0 153
-0.216494 -0.165390 -0.234899 76 0 153
-0.283526 -0.138774 -0.134412 76 0 153
-0.303361 -0.079277 -0.077786 76 0 153
0.184593 -0.251215 -0.275906 76 0 153
0.276582 -0.415952 0.173432 76 0 153
0.211383 -0.038060 -0.255390 76 0 153
0.233079 0.456148 -0.057860 76 0 153
0.024332 0.636181 0.140950 76 0 153
0.011412 -0.355205 0.315996 76 0 153
-0.280833 -0.388548 -0.140909 76 0 153
-0.289097 0.033498 0.109405 76 0 153
0.096390 -0.429563 0.303874 76 0 153
0.322485 -0.370232 -0.080147 76 0 153
-0.135402 -0.179925 0.280591 76 0 153
0.183984 -0.631638 -0.052047 76 0 153
-0.267965 0.051093 -0.168533 76 0 153
0.322115 -0.507755 0.071444 76 0 153
-0.283501 -0.109688 -0.134477 76 0 153
0.108770 0.875305 0.066126 153 76 0
0.292917 0.012360 -0.159247 76 0 153
-0.118038 0.155717 0.287163 76 0 153
-0.107185 -0.007299 0.292526 76 0 153
0.085377 -0.515598 0.306479 76 0 153
-0.275925 0.094183 -0.152620 76 0 153
0.288199 -0.000468 0.156864 76 0 153
-0.028235 -0.631638 -0.099681 76 0 153
-0.235040 0.033539 -0.212866 76 0 153
-0.154880 -0.452572 -0.282417 76 0 153
-0.293974 -0.056351 0.097622 76 0 153
-0.310107 -0.152640 0.017761 76 0 153
0.072434 -0.631505 0.221372 76 0 153
0.015179 -0.631638 -0.131811 76 0 153
-0.131559 0.603474 0.090073 76 0 153
0.307942 -0.084359 -0.123286 76 0 153
-0.285400 -0.030725 -0.129900 76 0 153
-0.075218 0.916106 -0.074154 153 76 0
0.053535 0.922673 -0.120282 76 0 153
0.277400 -0.442362 -0.183954 76 0 153
-0.273046 -0.509091 -0.158250 76 0 153
-0.125648 0.160429 -0.295523 76 0 153
-0.311028 -0.489614 -0.014095 76 0 153
0.025851 0.217404 0.305209 76 0 153
0.095053 -0.631638 -0.150672 76 0 153
-0.248201 -0.566448 -0.178267 76 0 153
0.318752 0.069210 0.085875 76 0 153
-0.051004 0.641131 0.125133 153 76 0
-0.208192 0.351583 0.117811 76 0 153
-0.025075 -0.602974 -0.292722 76 0 153
0.168205 0.082827 0.274802 76 0 153
0.150715 -0.631638 -0.098589 76 0 153
0.156056 -0.078134 -0.292197 76 0 153
0.253817 0.360418 0.026958 76 0 153
0.324198 0.048402 -0.068200 76 0 153
0.169871 -0.170905 0.273593 76 0 153
0.183485 0.139566 -0.276606 76 0 153
-0.198904 0.514136 0.041549 76 0 153
0.245507 -0.231828 0.213451 76 0 153
-0.305665 0.134642 -0.062664 76 0 153
-0.305689 0.135834 0.050786 76 0 153
-0.047819 0.904448 -0.104436 153 76 0
0.089417 0.922189 0.079959 76 0 153
-0.264132 -0.311473 0.162892 76 0 153
0.222409 -0.158011 0.234726 76 0 153
-0.002250 -0.343345 -0.327100 76 0 153
0.082539 0.939466 0.093510 76 0 153
0.163621 0.603152 -0.081776 76 0 153
0.000502 0.965017 -0.122786 76 0 153
-0.099140 0.317264 -0.251972 76 0 153
-0.279458 -0.046543 0.132666 76 0 153
-0.291605 -0.148110 -0.114947 76 0 153
0.326217 -0.278129 0.046365 76 0 153
0.209960 -0.126238 0.244761 76 0 153
-0.293052 0.196639 0.084409 76 0 153
-0.086174 0.322150 -0.254288 76 0 153
0.011993 0.386210 0.231750 76 0 153
0.080752 0.612357 -0.155162 76 0 153
0.272283 -0.355492 -0.188991 76 0 153
-0.279589 0.193666 0.119396 76 0 153
-0.016558 -0.282880 -0.325602 76 0 153
-0.014029 -0.631638 0.057156 76 0 153
-0.302592 -0.176100 -0.081534 76 0 153
0.278644 0.057490 0.170743 76 0 153
-0.107551 0.683986 0.038458 153 76 0
0.160276 0.627953 -0.041293 76 0 153
0.180663 0.251067 0.242239 76 0 153
-0.232430 0.369588 -0.020304 76 0 153
0.320977 -0.491329 -0.089010 76 0 153
0.328370 -0.105111 0.032574 76 0 153
0.266847 -0.032689 0.186112 76 0 153
-0.239767 0.224211 0.175600 76 0 153
-0.311372 0.109041 0.001272 76 0 153
0.329724 0.074809 0.019709 76 0 153
0.326459 0.164676 -0.049169 76 0 153
0.170761 0.575047 0.092188 76 0 153
-0.090590 -0.631343 -0.227285 76 0 153
0.103526 -0.314348 0.302317 76 0 153
0.284796 -0.241460 0.161549 76 0 153
-0.018543 0.234941 0.298824 76 0 153
0.210432 0.518089 0.066416 76 0 153
-0.090941 0.969201 -0.063704 76 0 153
-0.233127 0.356182 -0.055828 76 0 153
0.215338 -0.528965 0.238849 76 0 153
-0.118130 -0.382969 0.287995 76 0 153
-0.066381 0.576250 0.164984 76 0 153
-0.305169 -0.181541 -0.066913 76 0 153
-0.061805 0.906345 0.081930 153 76 0
-0.276429 -0.325272 -0.151425 76 0 153
0.080392 -0.392341 0.308012 76 0 153
0.113800 -0.150048 0.297521 76 0 153
0.281174 0.207728 0.153390 76 0 153
-0.099410 -0.256377 0.295543 76 0 153
-0.052789 0.980711 0.082771 76 0 153
0.105004 -0.602090 -0.279830 76 0 153
-0.173888 -0.038136 0.257037 76 0 153
0.098225 -0.094239 -0.315456 76 0 153
-0.234127 -0.043813 -0.214056 76 0 153
-0.300172 0.055778 -0.091786 76 0 153
-0.026835 0.604187 0.160887 76 0 153
-0.282771 0.129555 -0.136235 76 0 153
0.005689 -0.516198 -0.326910 76 0 153
0.108902 0.394986 0.207749 76 0 153
0.290291 -0.606562 0.054636 76 0 153
0.183761 0.400285 0.152235 76 0 153
-0.137245 0.083705 0.280014 76 0 153
0.182183 -0.631638 0.007193 76 0 153
-0.174073 -0.083512 0.256896 76 0 153
0.233180 0.458812 0.045634 76 0 153
0.253430 0.222604 -0.196335 76 0 153
-0.071587 0.067610 -0.317265 76 0 153
-0.298978 0.116355 -0.096008 76 0 153
-0.037646 -0.238402 -0.322826 76 0 153
0.203371 -0.631638 -0.041322 76 0 153
0.003770 0.292473 0.278254 76 0 153
-0.203774 -0.494062 -0.245688 76 0 153
0.181833 -0.631638 0.038490 76 0 153
-0.215936 -0.049891 0.223776 76 0 153
0.259043 -0.613038 -0.135562 76 0 153
0.077301 0.007475 -0.320230 76 0 153
0.064856 0.922189 -0.105740 76 0 153
-0.310920 0.110084 -0.021307 76 0 153
-0.105553 0.864991 0.037585 153 76 0
-0.069405 -0.557990 -0.310294 76 0 153
0.160237 -0.180049 -0.290430 76 0 153
-0.264963 0.081009 0.161598 76 0 153
0.249188 -0.091659 0.208395 76 0 153
-0.177480 0.360038 0.154096 76 0 153
-0.227245 -0.126862 0.211441 76 0 153
-0.232199 -0.353649 -0.216567 76 0 153
0.324891 -0.367226 -0.065069 76 0 153
0.096784 0.528993 0.184214 76 0 153
0.329481 -0.172200 0.024119 76 0 153
-0.309358 0.010347 0.023482 76 0 153
-0.297693 -0.080874 -0.100184 76 0 153
-0.112769 0.938649 -0.014186 76 0 153
-0.221856 0.240690 0.191014 76 0 153
0.313520 -0.582423 -0.014415 76 0 153
-0.281297 -0.328364 -0.139788 76 0 153
0.233689 -0.010355 -0.237677 76 0 153
0.116881 0.885376 -0.059892 153 76 0
-0.132557 0.334982 0.210656 76 0 153
-0.144227 0.627725 -0.009921 76 0 153
0.073016 0.477040 -0.222199 76 0 153
0.063812 0.922189 -0.027923 76 0 153
-0.304705 -0.375882 -0.070439 76 0 153
0.154715 -0.392775 0.281177 76 0 153
0.318394 0.095989 -0.097306 76 0 153
0.025270 0.485411 -0.228454 76 0 153
-0.015090 -0.631638 0.117368 76 0 153
0.185148 0.412786 0.146673 76 0 153
-0.264587 -0.314287 -0.173782 76 0 153
0.158880 -0.630554 0.190051 76 0 153
-0.017146 -0.599553 0.284732 76 0 153
0.007776 0.944095 -0.128991 76 0 153
0.172783 -0.253276 -0.283883 76 0 153
0.319926 -0.146810 0.081731 76 0 153
0.279839 -0.622999 -0.016320 76 0 153
-0.122959 0.328063 -0.233715 76 0 153
0.223206 0.241407 -0.223847 76 0 153
-0.299614 -0.305535 0.082142 76 0 153
0.130781 0.097248 0.291134 76 0 153
-0.146424 0.014255 0.275599 76 0 153
-0.080701 0.364806 -0.232777 76 0 153
0.289264 0.039277 -0.166694 76 0 153
-0.128062 -0.441010 -0.295464 76 0 153
0.041973 -0.248805 0.313299 76 0 153
0.317294 0.231990 -0.019417 76 0 153
-0.063552 0.766162 -0.088461 153 76 0
-0.126842 -0.170114 -0.295970 76 0 153
0.059425 -0.438772 -0.322616 76 0 153
0.188573 -0.037707 -0.272854 76 0 153
-0.224509 -0.174231 0.214826 76 0 153
-0.306786 0.093185 -0.054632 76 0 153
-0.308796 -0.088279 0.027766 76 0 153
0.091146 0.686391 -0.100503 153 76 0
-0.305721 -0.406759 -0.062724 76 0 153
0.114318 0.632314 -0.114561 76 0 153
-0.269743 -0.489450 0.153756 76 0 153
0.119106 0.601382 0.128043 76 0 153
0.195636 -0.631608 0.134648 76 0 153
0.163265 0.503485 0.149809 76 0 153
-0.264117 -0.355162 -0.174514 76 0 153
0.282951 -0.394357 -0.175647 76 0 153
0.255937 -0.274482 0.200388 76 0 153
-0.122035 0.241296 -0.279750 76 0 153
-0.096906 0.678704 0.063255 153 76 0
-0.126799 -0.292859 -0.295988 76 0 153
-0.165360 -0.391012 -0.275171 76 0 153
0.130275 -0.246430 -0.302930 76 0 153
-0.226434 0.376388 -0.047788 76 0 153
0.058782 -0.565685 0.300728 76 0 153
0.171915 0.281770 -0.244929 76 0 153
0.186197 0.418548 -0.155817 76 0 153
-0.237932 0.098166 0.197523 76 0 153
0.017232 0.988798 0.090570 76 0 153
0.010976 1.001261 -0.025144 76 0 153
0.011835 -0.631638 -0.047671 76 0 153
-0.177904 -0.167503 0.253592 76 0 153
-0.301818 0.162843 0.068467 76 0 153
0.068582 -0.259798 0.309657 76 0 153
-0.299274 -0.017875 0.083349 76 0 153
0.036039 -0.270572 0.314031 76 0 153
0.046744 0.881994 -0.120483 153 76 0
0.223982 0.514894 -0.012394 76 0 153
-0.212938 -0.545947 0.220574 76 0 153
-0.193565 -0.554865 -0.245421 76 0 153
-0.221602 -0.112220 -0.229570 76 0 153
-0.262338 0.299476 -0.073575 76 0 153
0.266943 -0.329011 0.186005 76 0 153
0.108787 -0.200859 -0.311812 76 0 153
-0.290150 0.223163 0.071930 76 0 153
0.331580 -0.480689 0.002681 76 0 153
0.181426 -0.188750 0.266739 76 0 153
0.309922 0.068328 0.106522 76 0 153
-0.217862 -0.631493 -0.071838 76 0 153
0.208858 0.416867 0.114347 76 0 153
0.053911 -0.487005 -0.323333 76 0 153
-0.145017 -0.631638 0.128565 76 0 153
-0.299862 -0.279926 -0.092882 76 0 153
0.326434 -0.440946 0.047277 76 0 153
-0.063270 0.075346 -0.318971 76 0 153
0.120025 -0.009853 -0.307176 76 0 153
-0.284167 -0.350743 0.121307 76 0 153
0.291462 0.230243 -0.128922 76 0 153
-0.305182 -0.331593 -0.066814 76 0 153
0.177648 -0.230523 0.269097 76 0 153
-0.197076 0.305689 -0.189326 76 0 153
0.171310 0.483080 -0.161466 76 0 153
0.054313 0.511960 0.204745 76 0 153
0.316829 -0.005599 -0.102097 76 0 153
0.068087 -0.631638 -0.037197 76 0 153
-0.079333 0.017950 0.303489 76 0 153
0.197264 -0.396948 -0.266188 76 0 153
0.121140 0.754752 -0.019594 153 76 0
-0.238128 0.151558 -0.208180 76 0 153
0.040901 0.107105 -0.325053 76 0 153
0.113015 -0.318486 -0.310075 76 0 153
-0.217279 0.408625 -0.057390 76 0 153
0.076009 0.661646 -0.121907 153 76 0
0.164444 0.626943 0.009632 76 0 153
-0.169744 0.247926 0.236219 76 0 153
0.246103 -0.022037 0.212652 76 0 153
0.199615 0.386085 -0.148562 76 0 153
0.063588 0.086415 0.310449 76 0 153
0.088806 0.179329 0.303641 76 0 153
-0.097341 -0.300143 -0.308193 76 0 153
-0.275092 -0.108185 0.143034 76 0 153
-0.097829 0.922189 0.048548 76 0 153
-0.018691 0.254644 0.292167 76 0 153
-0.007358 0.995892 0.057913 76 0 153
0.178983 0.099133 0.268312 76 0 153
-0.070356 -0.631638 0.088873 76 0 153
-0.254587 -0.623335 0.045516 76 0 153
0.263032 0.062203 -0.202015 76 0 153
-0.106082 0.374452 0.206089 76 0 153
-0.001563 -0.631638 0.096060 76 0 153
-0.158809 -0.549413 -0.273703 76 0 153
-0.280304 0.232382 0.094034 76 0 153
0.294886 -0.493935 0.143684 76 0 153
0.104917 0.568738 -0.172183 76 0 153
0.217402 0.504983 -0.070909 76 0 153
0.239309 0.417651 0.024737 76 0 153
-0.085862 -0.333756 0.301141 76 0 153
-0.032166 -0.260537 0.311962 76 0 153
0.272281 -0.384789 -0.188997 76 0 153
0.257148 0.353855 -0.036366 76 0 153
0.184537 -0.552229 0.256907 76 0 153
-0.308362 -0.504430 -0.041469 76 0 153
-0.289311 -0.088366 -0.120486 76 0 153
-0.056054 -0.455598 -0.320397 76 0 153
-0.189737 0.071591 0.244897 76 0 153
0.325506 -0.210473 -0.063379 76 0 153
-0.161042 0.601786 -0.025227 76 0 153
-0.121860 0.632413 -0.079510 76 0 153
0.158071 0.222230 0.267417 76 0 153
0.310296 0.253610 0.007646 76 0 153
0.158274 -0.620870 0.222653 76 0 153
-0.046002 -0.631638 0.012174 76 0 153
0.111494 0.377812 -0.223267 76 0 153
0.331115 -0.197761 -0.018860 76 0 153
-0.134109 -0.068953 0.281156 76 0 153
0.315594 0.120874 -0.105316 76 0 153
0.139386 -0.013504 0.287567 76 0 153
0.271786 -0.533137 -0.188007 76 0 153
0.161127 0.525499 0.141209 76 0 153
-0.282895 -0.205734 -0.135936 76 0 153
-0.024425 0.536657 -0.208692 76 0 153
0.042638 1.000226 -0.015326 76 0 153
0.331242 0.050265 0.005304 76 0 153
-0.164599 -0.026588 0.264162 76 0 153
0.179193 -0.257301 0.268177 76 0 153
-0.288545 0.123676 0.110738 76 0 153
0.202078 0.541872 -0.073344 76 0 153
-0.204193 -0.444597 0.233642 76 0 153
0.039570 0.229435 -0.311952 76 0 153
-0.058399 0.446667 -0.225173 76 0 153
0.099638 0.922189 0.011808 76 0 153
-0.190487 0.218350 0.231183 76 0 153
0.218763 -0.190197 0.237360 76 0 153
0.326592 -0.470422 -0.053995 76 0 153
0.058179 -0.339951 0.311196 76 0 153
0.075739 0.014243 0.308570 76 0 153
-0.133045 0.613699 -0.086967 76 0 153
0.315554 -0.568115 0.043595 76 0 153
-0.308351 -0.304257 -0.042750 76 0 153
-0.098130 0.727125 0.033717 153 76 0
0.300638 0.061108 -0.140994 76 0 153
0.083947 -0.110352 -0.318869 76 0 153
0.320360 -0.263034 -0.089239 76 0 153
-0.270332 0.288214 0.048093 76 0 153
0.318940 -0.120156 0.084754 76 0 153
-0.307873 0.168386 0.022025 76 0 153
0.301448 0.018017 0.126790 76 0 153
-0.064841 0.922189 0.041610 76 0 153
-0.266844 0.210390 -0.152475 76 0 153
0.163479 0.248407 -0.267010 76 0 153
0.020118 0.236840 0.300510 76 0 153
0.278919 0.314483 -0.041723 76 0 153
0.130279 0.939297 0.022853 76 0 153
0.120464 0.422670 -0.209516 76 0 153
0.328680 -0.348580 0.027668 76 0 153
0.101312 -0.279329 -0.314584 76 0 153
-0.177964 -0.631638 0.102093 76 0 153
0.227452 0.020242 -0.243056 76 0 153
0.034983 0.357311 0.240147 76 0 153
0.040622 0.679518 0.117239 153 76 0
0.325860 -0.351060 0.049076 76 0 153
-0.275968 -0.032423 -0.152519 76 0 153
-0.147300 -0.060951 -0.286751 76 0 153
0.053806 -0.623182 0.259784 76 0 153
0.296923 -0.074966 -0.149529 76 0 153
-0.219179 0.384161 0.059504 76 0 153
0.011372 -0.312692 0.315998 76 0 153
0.012207 0.922189 -0.030190 76 0 153
0.075458 -0.631638 0.194453 76 0 153
0.051918 -0.631638 0.165796 76 0 153
-0.118458 0.047526 -0.299446 76 0 153
-0.078358 -0.631638 -0.127485 76 0 153
-0.083211 0.263580 -0.287136 76 0 153
-0.102441 0.241919 0.276111 76 0 153
-0.285769 0.251656 0.046860 76 0 153
-0.000535 -0.327640 -0.327176 76 0 153
-0.201947 -0.050652 -0.247116 76 0 153
0.001859 -0.243046 0.315367 76 0 153
-0.114272 -0.073138 0.289338 76 0 153
-0.028782 0.104811 -0.323993 76 0 153
-0.304761 -0.036460 -0.070017 76 0 153
-0.061994 0.922189 -0.029626 76 0 153
0.196755 -0.499134 -0.266514 76 0 153
0.023897 0.777151 0.103632 153 76 0
-0.193021 -0.631638 -0.069259 76 0 153
-0.180691 -0.568473 0.237451 76 0 153
0.331328 -0.324059 0.008415 76 0 153
-0.160663 -0.147001 -0.278696 76 0 153
0.055318 -0.631638 -0.012378 76 0 153
-0.188691 -0.212785 0.245697 76 0 153
-0.178458 -0.181698 0.253157 76 0 153
0.095885 -0.631638 0.050447 76 0 153
0.019116 -0.631638 -0.119653 76 0 153
-0.307241 -0.401789 0.039572 76 0 153
0.282709 -0.433677 -0.176999 76 0 153
