ply
format ascii 1.0
element vertex 632
property float x
property float y
property float z
property float nx
property float ny
property float nz
property uchar red
property uchar green
property uchar blue
property float opacity
end_header
0.529683 0.483912 -0.393750 0.000000 0.000000 -1.000000 46 36 35 1.000000
0.394246 0.717424 -0.393750 0.000000 0.000000 -1.000000 46 40 40 1.000000
0.301304 0.772517 -0.052252 0.000000 1.000000 0.000000 97 45 19 1.000000
-0.299590 -0.733160 -0.088261 0.000000 -1.000000 0.000000 61 50 52 1.000000
0.580133 0.313796 -0.104247 -1.000000 0.000000 0.000000 255 255 255 1.000000
-0.500146 0.772517 0.137548 0.000000 1.000000 0.000000 100 48 20 1.000000
-0.030387 -0.606877 0.358910 -0.000000 -0.136326 0.990664 198 204 214 1.000000
0.118537 0.305047 0.353861 0.000000 0.000000 1.000000 68 28 7 1.000000
0.074142 0.603935 -0.393750 0.000000 0.000000 -1.000000 52 46 46 1.000000
0.082409 -0.386661 0.353861 0.000000 0.000000 -1.000000 255 255 255 1.000000
0.034987 -0.733160 -0.136714 0.000000 -1.000000 0.000000 57 49 50 1.000000
-0.558267 -0.522906 0.213264 -1.000000 0.000000 0.000000 77 31 6 1.000000
-0.466922 0.195245 -0.393750 0.000000 0.000000 -1.000000 51 45 45 1.000000
0.455838 0.241320 -0.393750 0.000000 0.000000 1.000000 255 255 255 1.000000
0.201538 0.001985 -0.393750 0.000000 0.000000 1.000000 255 255 255 1.000000
0.580133 -0.254069 -0.350445 -1.000000 0.000000 0.000000 255 255 255 1.000000
-0.546488 0.650118 0.357606 -0.382614 0.000000 0.923908 199 205 215 1.000000
-0.327976 -0.733160 -0.316022 0.000000 -1.000000 0.000000 51 45 45 1.000000
-0.558267 0.136582 0.217656 -1.000000 0.000000 0.000000 78 36 12 1.000000
0.580133 -0.611713 0.069307 -1.000000 0.000000 0.000000 255 255 255 1.000000
0.545531 0.017842 -0.393750 0.000000 0.000000 -1.000000 58 50 51 1.000000
-0.490323 0.051084 0.353861 0.000000 0.000000 1.000000 85 35 12 1.000000
0.580133 -0.252414 0.074932 1.000000 0.000000 0.000000 80 36 13 1.000000
0.126581 -0.701683 -0.393750 0.000000 0.000000 -1.000000 57 51 51 1.000000
0.425528 -0.728492 0.317264 0.000000 0.000000 1.000000 68 57 59 1.000000
-0.558267 0.735093 0.225648 1.000000 0.000000 0.000000 204 210 220 1.000000
0.363839 0.772517 -0.003695 0.000000 1.000000 0.000000 87 41 14 1.000000
0.580133 -0.355409 0.068549 -1.000000 0.000000 0.000000 255 255 255 1.000000
0.504866 -0.053138 -0.393750 0.000000 0.000000 -1.000000 59 51 52 1.000000
-0.284770 0.281807 -0.393750 0.000000 0.000000 1.000000 255 255 255 1.000000
0.580133 0.153160 -0.077598 1.000000 0.000000 0.000000 69 29 8 1.000000
0.580133 0.362441 -0.046629 1.000000 0.000000 0.000000 70 26 5 1.000000
0.530712 -0.107044 -0.393750 0.000000 0.000000 1.000000 255 255 255 1.000000
-0.280887 0.287109 0.341295 0.000000 0.000000 1.000000 255 255 255 1.000000
0.099643 -0.559070 0.353861 0.000000 0.000000 1.000000 70 30 8 1.000000
0.194744 -0.267413 0.353861 0.000000 0.000000 1.000000 86 36 11 1.000000
0.580133 -0.267651 0.016348 1.000000 0.000000 0.000000 95 43 15 1.000000
-0.115751 0.772517 0.324552 0.000000 -1.000000 0.000000 255 255 255 1.000000
0.119692 0.574306 -0.393750 0.000000 0.000000 -1.000000 54 48 48 1.000000
0.424338 0.524559 0.353861 0.000000 0.000000 1.000000 94 47 19 1.000000
-0.016564 -0.183985 -0.393750 0.000000 0.000000 1.000000 255 255 255 1.000000
-0.558267 -0.030595 -0.356264 1.000000 0.000000 0.000000 206 212 222 1.000000
-0.111744 -0.733160 0.287257 0.000000 1.000000 0.000000 255 255 255 1.000000
0.228200 0.259013 0.341295 0.000000 0.000000 -1.000000 255 255 255 1.000000
-0.558267 0.661810 0.030513 -1.000000 0.000000 0.000000 78 31 9 1.000000
-0.558267 0.016042 -0.273296 1.000000 0.000000 0.000000 205 211 221 1.000000
0.264008 0.049990 0.353861 0.000000 0.000000 -1.000000 255 255 255 1.000000
-0.047877 0.626109 0.341295 0.000000 0.000000 1.000000 255 255 255 1.000000
0.545979 0.772517 -0.010330 0.000000 -1.000000 0.000000 255 255 255 1.000000
-0.203361 0.003917 0.353861 0.000000 0.000000 1.000000 74 30 5 1.000000
-0.066823 -0.733160 -0.331921 0.000000 -1.000000 0.000000 65 54 56 1.000000
0.304940 0.435274 0.353861 0.000000 0.000000 -1.000000 255 255 255 1.000000
0.580133 0.613215 0.083630 -1.000000 0.000000 0.000000 255 255 255 1.000000
-0.254846 0.772517 0.027456 0.000000 1.000000 0.000000 91 42 15 1.000000
-0.159761 0.568112 0.353861 0.000000 0.000000 -1.000000 255 255 255 1.000000
-0.558267 0.188936 -0.101589 1.000000 0.000000 0.000000 201 207 217 1.000000
0.213936 0.772517 -0.130300 0.000000 1.000000 0.000000 83 35 9 1.000000
0.580133 -0.637902 -0.100634 -1.000000 0.000000 0.000000 255 255 255 1.000000
0.415451 -0.733160 0.171490 0.000000 1.000000 0.000000 255 255 255 1.000000
-0.085097 -0.254580 -0.393750 0.000000 0.000000 1.000000 255 255 255 1.000000
-0.558267 0.545638 0.114447 -1.000000 0.000000 0.000000 83 37 12 1.000000
0.365018 0.295885 -0.393750 0.000000 0.000000 -1.000000 54 46 47 1.000000
-0.519890 0.772517 -0.312620 0.000000 1.000000 0.000000 71 28 7 1.000000
0.527248 -0.604293 0.358839 0.000000 1.000000 0.000000 202 208 218 1.000000
0.567463 0.292198 -0.393750 0.000000 0.000000 -1.000000 53 47 47 1.000000
0.580133 -0.582866 -0.137666 1.000000 0.000000 0.000000 82 34 8 1.000000
-0.345613 0.687369 0.341295 0.000000 0.000000 -1.000000 255 255 255 1.000000
0.580133 0.656728 -0.344371 -1.000000 0.000000 0.000000 255 255 255 1.000000
-0.406789 -0.733160 -0.111359 0.000000 -1.000000 0.000000 59 51 52 1.000000
-0.558267 -0.372880 -0.331223 -1.000000 0.000000 0.000000 86 36 11 1.000000
-0.558267 0.230966 0.231411 -1.000000 0.000000 0.000000 87 38 17 1.000000
-0.359882 -0.733160 -0.155347 0.000000 -1.000000 0.000000 57 49 50 1.000000
-0.173816 -0.733160 -0.366319 0.000000 -1.000000 0.000000 60 52 53 1.000000
-0.557081 0.465952 0.346650 -0.935839 0.000000 0.352427 196 202 212 1.000000
-0.059299 -0.133397 -0.393750 0.000000 0.000000 1.000000 255 255 255 1.000000
0.475708 0.772517 -0.046807 0.000000 -1.000000 0.000000 255 255 255 1.000000
0.580133 -0.272559 -0.249366 -1.000000 0.000000 0.000000 255 255 255 1.000000
0.423153 0.006839 -0.393750 0.000000 0.000000 1.000000 255 255 255 1.000000
-0.164490 -0.604906 0.341295 0.000000 0.000000 -1.000000 255 255 255 1.000000
0.329640 0.772517 0.137929 0.000000 1.000000 0.000000 76 30 5 1.000000
0.012152 0.584158 -0.393750 0.000000 0.000000 -1.000000 59 51 52 1.000000
0.580133 -0.673636 -0.227252 -1.000000 0.000000 0.000000 255 255 255 1.000000
0.182954 0.686701 -0.393750 0.000000 0.000000 -1.000000 53 42 44 1.000000
0.524025 0.021297 0.341295 0.000000 0.000000 -1.000000 255 255 255 1.000000
0.216533 -0.733160 -0.241828 0.000000 1.000000 0.000000 255 255 255 1.000000
-0.351348 -0.126430 -0.393750 0.000000 0.000000 1.000000 255 255 255 1.000000
-0.084456 -0.306247 -0.393750 0.000000 0.000000 1.000000 255 255 255 1.000000
0.217797 0.772517 0.114817 0.000000 -1.000000 0.000000 255 255 255 1.000000
0.488792 0.620669 0.341295 0.000000 0.000000 1.000000 255 255 255 1.000000
0.550559 -0.299928 0.353861 0.000000 0.000000 1.000000 88 38 13 1.000000
0.352819 0.014005 -0.393750 0.000000 0.000000 1.000000 255 255 255 1.000000
0.287570 -0.232149 -0.393750 0.000000 0.000000 -1.000000 57 49 50 1.000000
-0.038791 -0.424397 -0.393750 0.000000 0.000000 -1.000000 52 46 46 1.000000
-0.149197 -0.727018 0.317264 0.000000 0.000000 1.000000 53 45 46 1.000000
-0.558267 -0.089526 -0.249321 -1.000000 0.000000 0.000000 76 32 11 1.000000
-0.237447 -0.132931 0.341295 0.000000 0.000000 1.000000 255 255 255 1.000000
0.010316 -0.733160 -0.370665 0.000000 -1.000000 0.000000 66 54 54 1.000000
0.428235 -0.733160 -0.310686 0.000000 1.000000 0.000000 255 255 255 1.000000
0.351759 0.772517 0.256615 0.000000 -1.000000 0.000000 255 255 255 1.000000
0.054864 -0.403295 0.341295 0.000000 0.000000 -1.000000 255 255 255 1.000000
-0.558267 -0.713575 0.166667 1.000000 0.000000 0.000000 197 203 213 1.000000
-0.431616 0.003931 -0.393750 0.000000 0.000000 1.000000 255 255 255 1.000000
0.187739 0.772517 -0.039540 0.000000 1.000000 0.000000 78 36 10 1.000000
0.258069 -0.484906 -0.393750 0.000000 0.000000 -1.000000 51 43 44 1.000000
-0.558267 -0.144687 -0.365195 1.000000 0.000000 0.000000 208 214 224 1.000000
-0.558267 0.360269 -0.092776 -1.000000 0.000000 0.000000 77 33 10 1.000000
0.239544 -0.595982 0.341295 0.000000 0.000000 1.000000 255 255 255 1.000000
0.127557 0.602770 0.353861 0.000000 0.000000 1.000000 78 36 12 1.000000
-0.166282 0.772517 -0.176151 0.000000 -1.000000 0.000000 255 255 255 1.000000
0.580133 0.166406 0.241358 1.000000 0.000000 0.000000 73 30 9 1.000000
0.262614 -0.647049 0.317264 0.000000 0.000000 -1.000000 255 255 255 1.000000
0.580133 0.309922 -0.194254 1.000000 0.000000 0.000000 73 29 6 1.000000
-0.056642 -0.733160 0.216044 0.000000 -1.000000 0.000000 61 53 54 1.000000
0.239115 -0.733160 0.304188 0.000000 -1.000000 0.000000 63 55 56 1.000000
0.187929 -0.396821 0.353861 0.000000 0.000000 -1.000000 255 255 255 1.000000
0.580133 -0.392549 -0.259415 -1.000000 0.000000 0.000000 255 255 255 1.000000
-0.558267 -0.548392 -0.177488 1.000000 0.000000 0.000000 196 202 212 1.000000
0.580133 -0.289055 0.137819 -1.000000 0.000000 0.000000 255 255 255 1.000000
0.098813 -0.104014 -0.393750 0.000000 0.000000 1.000000 255 255 255 1.000000
0.580133 -0.429626 -0.070966 1.000000 0.000000 0.000000 66 27 8 1.000000
0.580133 -0.553093 -0.358141 1.000000 0.000000 0.000000 69 26 5 1.000000
-0.557047 0.524151 0.346733 -0.934188 0.000000 0.356780 200 206 216 1.000000
-0.406855 0.772517 0.112210 0.000000 1.000000 0.000000 91 39 13 1.000000
-0.326952 0.349959 -0.393750 0.000000 0.000000 -1.000000 67 55 55 1.000000
-0.354653 -0.733160 0.002603 0.000000 1.000000 0.000000 255 255 255 1.000000
-0.473252 -0.365426 0.341295 0.000000 0.000000 -1.000000 255 255 255 1.000000
-0.176202 -0.733160 0.138958 0.000000 -1.000000 0.000000 56 50 50 1.000000
-0.558267 0.189174 0.183063 -1.000000 0.000000 0.000000 91 42 15 1.000000
0.283870 0.747135 -0.393750 0.000000 0.000000 1.000000 255 255 255 1.000000
-0.558267 0.322577 -0.228343 -1.000000 0.000000 0.000000 72 26 1 1.000000
-0.367577 0.188064 -0.393750 0.000000 0.000000 1.000000 255 255 255 1.000000
0.245347 -0.460665 0.353861 0.000000 0.000000 1.000000 85 36 15 1.000000
0.580133 -0.424487 -0.213972 -1.000000 0.000000 0.000000 255 255 255 1.000000
-0.429773 -0.733160 0.087176 0.000000 1.000000 0.000000 255 255 255 1.000000
-0.383835 -0.733160 0.054510 0.000000 1.000000 0.000000 255 255 255 1.000000
-0.558267 0.709607 -0.131445 1.000000 0.000000 0.000000 195 201 211 1.000000
-0.558267 -0.209866 -0.351117 -1.000000 0.000000 0.000000 80 31 4 1.000000
0.046921 0.458481 -0.393750 0.000000 0.000000 1.000000 255 255 255 1.000000
0.482438 0.233086 0.341295 0.000000 0.000000 -1.000000 255 255 255 1.000000
0.327871 0.009947 0.341295 0.000000 0.000000 -1.000000 255 255 255 1.000000
-0.054499 0.088934 0.341295 0.000000 0.000000 1.000000 255 255 255 1.000000
-0.558267 0.100082 -0.245455 1.000000 0.000000 0.000000 206 212 222 1.000000
-0.558267 0.188085 0.271881 1.000000 0.000000 0.000000 196 201 217 1.000000
-0.363738 0.772517 0.028370 0.000000 1.000000 0.000000 87 41 16 1.000000
-0.199441 -0.555241 0.341295 0.000000 0.000000 -1.000000 255 255 255 1.000000
0.575554 0.634119 -0.393750 0.000000 0.000000 1.000000 255 255 255 1.000000
-0.558267 -0.072752 0.036122 -1.000000 0.000000 0.000000 86 38 14 1.000000
0.486954 -0.610096 0.358157 -0.000000 -0.302941 0.953009 196 202 212 1.000000
0.253912 0.593696 0.341295 0.000000 0.000000 -1.000000 255 255 255 1.000000
-0.190485 -0.298148 -0.393750 0.000000 0.000000 -1.000000 59 51 52 1.000000
0.580133 -0.372775 -0.321003 1.000000 0.000000 0.000000 77 31 6 1.000000
0.580133 0.738890 0.132944 1.000000 0.000000 0.000000 85 37 13 1.000000
-0.477592 -0.298770 0.341295 0.000000 0.000000 -1.000000 255 255 255 1.000000
0.580133 0.705217 -0.299775 -1.000000 0.000000 0.000000 255 255 255 1.000000
0.580133 0.569971 -0.077458 1.000000 0.000000 0.000000 79 36 15 1.000000
-0.153260 0.177015 -0.393750 0.000000 0.000000 1.000000 255 255 255 1.000000
-0.441926 -0.148027 -0.393750 0.000000 0.000000 -1.000000 59 48 50 1.000000
-0.558267 -0.549537 0.261972 -1.000000 0.000000 0.000000 64 24 3 1.000000
0.580133 0.116389 -0.174462 -1.000000 0.000000 0.000000 255 255 255 1.000000
0.580133 -0.661941 0.042677 1.000000 0.000000 0.000000 87 41 16 1.000000
-0.219302 0.196733 -0.393750 0.000000 0.000000 1.000000 255 255 255 1.000000
-0.522711 0.772517 0.206890 0.000000 1.000000 0.000000 96 47 20 1.000000
-0.272824 -0.653840 0.300273 0.000000 0.000000 -1.000000 255 255 255 1.000000
0.212818 -0.300406 -0.393750 0.000000 0.000000 1.000000 255 255 255 1.000000
0.580133 -0.455066 -0.264054 -1.000000 0.000000 0.000000 255 255 255 1.000000
-0.558267 -0.393210 -0.261251 1.000000 0.000000 0.000000 205 211 221 1.000000
0.580133 -0.124540 0.154795 1.000000 0.000000 0.000000 100 47 17 1.000000
0.135993 0.299279 -0.393750 0.000000 0.000000 1.000000 255 255 255 1.000000
0.580133 0.421132 -0.159436 1.000000 0.000000 0.000000 72 30 4 1.000000
0.000647 0.772517 -0.324885 0.000000 -1.000000 0.000000 255 255 255 1.000000
-0.470374 0.772517 0.001784 0.000000 1.000000 0.000000 71 29 5 1.000000
-0.250688 0.378257 0.353861 0.000000 0.000000 -1.000000 255 255 255 1.000000
-0.118435 -0.733160 -0.055054 0.000000 1.000000 0.000000 255 255 255 1.000000
0.580133 -0.616462 -0.198654 1.000000 0.000000 0.000000 66 26 4 1.000000
0.580133 -0.399712 -0.021673 -1.000000 0.000000 0.000000 255 255 255 1.000000
-0.558267 0.280120 0.187866 1.000000 0.000000 0.000000 202 208 218 1.000000
-0.370692 0.540644 0.341295 0.000000 0.000000 -1.000000 255 255 255 1.000000
-0.282312 -0.699230 0.300273 0.000000 0.000000 -1.000000 255 255 255 1.000000
0.471922 0.027440 0.353861 0.000000 0.000000 1.000000 70 27 7 1.000000
-0.558267 0.411621 0.315227 1.000000 0.000000 0.000000 198 204 214 1.000000
0.001322 -0.733160 -0.023138 0.000000 -1.000000 0.000000 53 47 47 1.000000
-0.126163 -0.435518 0.341295 0.000000 0.000000 1.000000 255 255 255 1.000000
-0.420777 -0.733160 0.222873 0.000000 -1.000000 0.000000 62 56 56 1.000000
-0.418760 0.748632 0.353861 0.000000 0.000000 -1.000000 255 255 255 1.000000
-0.347269 -0.733160 -0.090149 0.000000 -1.000000 0.000000 60 52 53 1.000000
-0.166840 -0.733160 0.256248 0.000000 1.000000 0.000000 255 255 255 1.000000
0.353751 -0.428861 -0.393750 0.000000 0.000000 -1.000000 53 47 47 1.000000
0.220615 0.734894 -0.393750 0.000000 0.000000 -1.000000 59 51 52 1.000000
0.580133 0.589002 -0.280314 1.000000 0.000000 0.000000 94 44 19 1.000000
-0.519635 0.288050 -0.393750 0.000000 0.000000 1.000000 255 255 255 1.000000
0.415375 0.116694 -0.393750 0.000000 0.000000 -1.000000 57 49 50 1.000000
-0.370891 -0.418486 0.353861 0.000000 0.000000 -1.000000 255 255 255 1.000000
0.194282 0.462631 0.353861 0.000000 0.000000 -1.000000 255 255 255 1.000000
0.580133 -0.214725 -0.022114 -1.000000 0.000000 0.000000 255 255 255 1.000000
-0.558267 -0.008562 0.029169 1.000000 0.000000 0.000000 206 212 222 1.000000
-0.035511 0.193252 -0.393750 0.000000 0.000000 -1.000000 60 52 53 1.000000
-0.558267 -0.035052 0.243853 1.000000 0.000000 0.000000 212 218 228 1.000000
0.071805 -0.701553 0.300273 0.000000 0.000000 -1.000000 255 255 255 1.000000
-0.184667 -0.337906 -0.393750 0.000000 0.000000 1.000000 255 255 255 1.000000
-0.366620 -0.094652 -0.393750 0.000000 0.000000 -1.000000 63 53 52 1.000000
0.071532 -0.300354 -0.393750 0.000000 0.000000 -1.000000 58 50 51 1.000000
0.463444 0.588052 -0.393750 0.000000 0.000000 1.000000 255 255 255 1.000000
0.353852 0.531686 0.353861 0.000000 0.000000 -1.000000 255 255 255 1.000000
0.123779 -0.733160 0.082468 0.000000 -1.000000 0.000000 58 50 51 1.000000
0.350298 -0.733160 -0.172743 0.000000 -1.000000 0.000000 59 51 52 1.000000
-0.484092 0.089230 -0.393750 0.000000 0.000000 1.000000 255 255 255 1.000000
0.512963 0.071548 -0.393750 0.000000 0.000000 1.000000 255 255 255 1.000000
-0.214736 -0.733160 -0.171687 0.000000 -1.000000 0.000000 58 50 51 1.000000
-0.036668 0.772517 0.268868 0.000000 1.000000 0.000000 85 39 14 1.000000
-0.327270 -0.498448 -0.393750 0.000000 0.000000 -1.000000 63 55 56 1.000000
-0.558267 -0.044717 0.004622 1.000000 0.000000 0.000000 206 212 222 1.000000
0.459765 0.772517 -0.091910 0.000000 -1.000000 0.000000 255 255 255 1.000000
0.359644 -0.162405 0.353861 0.000000 0.000000 -1.000000 255 255 255 1.000000
-0.558267 0.158580 0.291873 -1.000000 0.000000 0.000000 93 44 17 1.000000
0.242906 -0.733160 -0.317378 0.000000 -1.000000 0.000000 68 57 59 1.000000
-0.428262 0.772517 0.068419 0.000000 -1.000000 0.000000 255 255 255 1.000000
-0.511166 -0.733160 0.275863 0.000000 1.000000 0.000000 255 255 255 1.000000
0.578758 0.253822 0.347103 0.926517 0.000000 0.376253 208 214 224 1.000000
-0.079744 -0.468177 0.353861 0.000000 0.000000 1.000000 71 28 7 1.000000
0.108150 -0.663173 0.300273 0.000000 0.000000 1.000000 65 54 56 1.000000
0.568596 0.431159 -0.393750 0.000000 0.000000 -1.000000 56 48 49 1.000000
0.580133 -0.558595 -0.107454 -1.000000 0.000000 0.000000 255 255 255 1.000000
-0.558267 -0.322672 -0.104208 1.000000 0.000000 0.000000 200 206 216 1.000000
0.435265 0.343428 0.353861 0.000000 0.000000 1.000000 73 33 11 1.000000
0.187513 -0.463832 0.341295 0.000000 0.000000 1.000000 255 255 255 1.000000
-0.558267 0.531349 -0.183345 1.000000 0.000000 0.000000 201 207 217 1.000000
-0.558267 -0.153770 0.252003 1.000000 0.000000 0.000000 205 211 221 1.000000
0.350843 -0.221238 -0.393750 0.000000 0.000000 1.000000 255 255 255 1.000000
0.580133 0.665844 0.221481 1.000000 0.000000 0.000000 97 45 20 1.000000
-0.558267 -0.459447 -0.104118 1.000000 0.000000 0.000000 202 208 218 1.000000
-0.558267 -0.670165 -0.392821 -1.000000 0.000000 0.000000 85 41 16 1.000000
-0.281646 -0.284972 -0.393750 0.000000 0.000000 -1.000000 57 46 48 1.000000
-0.491691 -0.053542 0.341295 0.000000 0.000000 1.000000 255 255 255 1.000000
0.098468 0.355547 -0.393750 0.000000 0.000000 1.000000 255 255 255 1.000000
0.153545 0.116826 0.341295 0.000000 0.000000 -1.000000 255 255 255 1.000000
-0.474407 0.692355 -0.393750 0.000000 0.000000 1.000000 255 255 255 1.000000
-0.022391 0.738138 -0.393750 0.000000 0.000000 1.000000 255 255 255 1.000000
-0.215900 0.551096 0.353861 0.000000 0.000000 -1.000000 255 255 255 1.000000
0.278037 0.260978 0.353861 0.000000 0.000000 1.000000 67 24 3 1.000000
0.091352 0.772517 -0.222988 0.000000 1.000000 0.000000 80 34 9 1.000000
0.283897 0.714344 -0.393750 0.000000 0.000000 1.000000 255 255 255 1.000000
-0.208779 0.394522 0.353861 0.000000 0.000000 -1.000000 255 255 255 1.000000
0.429765 -0.139026 -0.393750 0.000000 0.000000 1.000000 255 255 255 1.000000
0.198697 0.387243 0.341295 0.000000 0.000000 1.000000 255 255 255 1.000000
0.280654 -0.733160 -0.183397 0.000000 1.000000 0.000000 255 255 255 1.000000
-0.558267 0.481856 0.236500 -1.000000 0.000000 0.000000 88 38 13 1.000000
-0.157317 0.003004 0.341295 0.000000 0.000000 -1.000000 255 255 255 1.000000
0.580133 -0.490636 -0.371765 -1.000000 0.000000 0.000000 255 255 255 1.000000
-0.509614 -0.232640 -0.393750 0.000000 0.000000 1.000000 255 255 255 1.000000
0.341654 -0.325514 -0.393750 0.000000 0.000000 1.000000 255 255 255 1.000000
-0.331639 -0.733160 0.290113 0.000000 1.000000 0.000000 255 255 255 1.000000
0.106016 0.532097 0.353861 0.000000 0.000000 -1.000000 255 255 255 1.000000
-0.043048 0.772517 0.146242 0.000000 1.000000 0.000000 68 29 8 1.000000
0.574553 -0.265603 -0.393750 0.000000 0.000000 -1.000000 55 49 49 1.000000
-0.396995 0.572593 0.353861 0.000000 0.000000 1.000000 70 28 4 1.000000
0.213911 -0.443727 0.341295 0.000000 0.000000 1.000000 255 255 255 1.000000
-0.558267 -0.262386 0.203568 1.000000 0.000000 0.000000 209 215 225 1.000000
0.580133 0.747840 0.031379 1.000000 0.000000 0.000000 98 46 20 1.000000
0.066798 0.592229 0.341295 0.000000 0.000000 1.000000 255 255 255 1.000000
-0.375480 0.210694 0.341295 0.000000 0.000000 -1.000000 255 255 255 1.000000
0.024880 -0.011330 -0.393750 0.000000 0.000000 1.000000 255 255 255 1.000000
0.172697 -0.733160 -0.172656 0.000000 1.000000 0.000000 255 255 255 1.000000
0.485197 -0.710931 0.317264 0.000000 0.000000 -1.000000 255 255 255 1.000000
0.580133 0.218628 -0.330941 1.000000 0.000000 0.000000 78 34 11 1.000000
0.580133 0.372515 -0.177590 1.000000 0.000000 0.000000 83 36 16 1.000000
0.373648 -0.733160 0.062944 0.000000 1.000000 0.000000 255 255 255 1.000000
-0.236963 0.108227 -0.393750 0.000000 0.000000 1.000000 255 255 255 1.000000
0.580133 0.188337 -0.258728 -1.000000 0.000000 0.000000 255 255 255 1.000000
-0.063078 -0.733160 -0.253179 0.000000 -1.000000 0.000000 60 49 51 1.000000
0.477261 -0.020872 -0.393750 0.000000 0.000000 -1.000000 63 55 56 1.000000
-0.529239 0.411901 0.341295 0.000000 0.000000 1.000000 255 255 255 1.000000
-0.220509 -0.078424 -0.393750 0.000000 0.000000 -1.000000 53 45 46 1.000000
0.576327 0.105485 -0.393750 0.000000 0.000000 1.000000 255 255 255 1.000000
-0.458788 0.003043 0.353861 0.000000 0.000000 -1.000000 255 255 255 1.000000
-0.129130 -0.684465 0.300273 0.000000 0.000000 1.000000 54 48 48 1.000000
-0.544802 0.503232 -0.393750 0.000000 0.000000 1.000000 255 255 255 1.000000
0.580133 0.401113 0.067587 -1.000000 0.000000 0.000000 255 255 255 1.000000
0.580133 0.656274 0.052019 1.000000 0.000000 0.000000 65 28 8 1.000000
0.580133 -0.383397 0.300134 1.000000 0.000000 0.000000 86 38 14 1.000000
-0.445003 -0.317326 -0.393750 0.000000 0.000000 -1.000000 64 58 58 1.000000
0.060501 -0.733160 -0.045991 0.000000 1.000000 0.000000 255 255 255 1.000000
0.137266 -0.733160 -0.223761 0.000000 -1.000000 0.000000 59 51 52 1.000000
-0.359033 0.030868 0.341295 0.000000 0.000000 1.000000 255 255 255 1.000000
0.170628 0.539619 0.341295 0.000000 0.000000 1.000000 255 255 255 1.000000
-0.225691 -0.733160 0.316547 0.000000 1.000000 0.000000 255 255 255 1.000000
-0.558267 -0.716644 -0.306158 1.000000 0.000000 0.000000 205 211 221 1.000000
-0.097134 0.047944 0.341295 0.000000 0.000000 1.000000 255 255 255 1.000000
-0.558267 -0.507749 0.010090 -1.000000 0.000000 0.000000 84 36 10 1.000000
0.580133 0.028396 -0.099157 1.000000 0.000000 0.000000 74 31 10 1.000000
0.227405 0.002484 0.341295 0.000000 0.000000 1.000000 255 255 255 1.000000
0.580133 0.562093 -0.181413 -1.000000 0.000000 0.000000 255 255 255 1.000000
-0.008650 -0.627553 -0.393750 0.000000 0.000000 1.000000 255 255 255 1.000000
0.261398 -0.236827 0.353861 0.000000 0.000000 -1.000000 255 255 255 1.000000
0.144504 -0.338653 -0.393750 0.000000 0.000000 1.000000 255 255 255 1.000000
-0.321340 0.531756 -0.393750 0.000000 0.000000 -1.000000 65 54 56 1.000000
0.580133 0.228973 -0.292295 -1.000000 0.000000 0.000000 255 255 255 1.000000
0.580133 -0.368879 0.021436 1.000000 0.000000 0.000000 82 36 11 1.000000
-0.455638 -0.653628 0.300273 0.000000 0.000000 1.000000 49 41 42 1.000000
0.207925 -0.530399 0.353861 0.000000 0.000000 -1.000000 255 255 255 1.000000
-0.123597 -0.703501 -0.393750 0.000000 0.000000 1.000000 255 255 255 1.000000
0.449787 0.420432 -0.393750 0.000000 0.000000 -1.000000 63 52 54 1.000000
-0.558267 0.192391 -0.291767 -1.000000 0.000000 0.000000 82 38 13 1.000000
0.113091 0.393152 0.341295 0.000000 0.000000 -1.000000 255 255 255 1.000000
0.329888 0.062794 -0.393750 0.000000 0.000000 -1.000000 49 47 46 1.000000
-0.558267 0.159193 0.009182 1.000000 0.000000 0.000000 202 208 218 1.000000
0.212183 0.547660 0.353861 0.000000 0.000000 1.000000 68 25 4 1.000000
-0.027568 0.772517 0.033382 0.000000 1.000000 0.000000 93 41 16 1.000000
0.580133 -0.267260 0.289819 1.000000 0.000000 0.000000 82 36 11 1.000000
-0.025506 -0.733160 0.086693 0.000000 1.000000 0.000000 255 255 255 1.000000
0.045002 0.630323 -0.393750 0.000000 0.000000 1.000000 255 255 255 1.000000
0.497357 0.734866 0.353861 0.000000 0.000000 -1.000000 255 255 255 1.000000
-0.316540 0.523622 0.353861 0.000000 0.000000 1.000000 93 37 12 1.000000
0.580133 0.559146 -0.337056 1.000000 0.000000 0.000000 84 38 13 1.000000
-0.209917 -0.149820 0.341295 0.000000 0.000000 -1.000000 255 255 255 1.000000
-0.144164 0.772517 0.116752 0.000000 -1.000000 0.000000 255 255 255 1.000000
0.390406 0.354631 -0.393750 0.000000 0.000000 1.000000 255 255 255 1.000000
0.436931 -0.420742 0.353861 0.000000 0.000000 1.000000 65 26 7 1.000000
-0.274164 -0.733160 -0.211904 0.000000 1.000000 0.000000 255 255 255 1.000000
-0.064195 -0.733160 -0.064273 0.000000 -1.000000 0.000000 60 49 51 1.000000
-0.172286 0.772517 0.099377 0.000000 1.000000 0.000000 85 41 16 1.000000
0.381152 0.772517 0.058241 0.000000 -1.000000 0.000000 255 255 255 1.000000
-0.006162 -0.135919 0.338177 0.000000 0.000000 1.000000 81 35 10 1.000000
0.429159 0.731115 0.341295 0.000000 0.000000 1.000000 255 255 255 1.000000
-0.558267 -0.078287 -0.357094 1.000000 0.000000 0.000000 206 212 222 1.000000
-0.248804 0.030194 0.353861 0.000000 0.000000 -1.000000 255 255 255 1.000000
0.580133 0.403667 0.001458 -1.000000 0.000000 0.000000 255 255 255 1.000000
-0.113081 -0.733160 -0.290092 0.000000 1.000000 0.000000 255 255 255 1.000000
-0.257376 0.772517 0.169467 0.000000 -1.000000 0.000000 255 255 255 1.000000
-0.333928 -0.365543 0.353861 0.000000 0.000000 1.000000 81 33 7 1.000000
0.223058 -0.421887 -0.393750 0.000000 0.000000 1.000000 255 255 255 1.000000
0.152403 0.438526 0.341295 0.000000 0.000000 1.000000 255 255 255 1.000000
-0.354706 -0.262143 0.353861 0.000000 0.000000 1.000000 96 44 18 1.000000
-0.558267 0.648344 -0.372047 -1.000000 0.000000 0.000000 75 38 8 1.000000
0.522407 -0.733160 0.039746 0.000000 1.000000 0.000000 255 255 255 1.000000
0.012092 -0.045931 0.338177 0.000000 0.000000 1.000000 81 33 7 1.000000
-0.152534 -0.733160 0.202859 0.000000 -1.000000 0.000000 54 48 48 1.000000
-0.298172 0.772517 -0.281063 0.000000 -1.000000 0.000000 255 255 255 1.000000
0.044170 -0.473660 -0.393750 0.000000 0.000000 -1.000000 53 45 46 1.000000
-0.037301 0.308206 -0.393750 0.000000 0.000000 -1.000000 51 43 44 1.000000
-0.047313 -0.667761 0.300273 0.000000 0.000000 -1.000000 255 255 255 1.000000
-0.340400 0.205612 -0.393750 0.000000 0.000000 1.000000 255 255 255 1.000000
-0.507136 0.772517 -0.044788 0.000000 -1.000000 0.000000 255 255 255 1.000000
-0.558267 0.430448 0.095090 -1.000000 0.000000 0.000000 64 25 4 1.000000
-0.418323 0.248954 0.341295 0.000000 0.000000 -1.000000 255 255 255 1.000000
0.323140 0.302623 0.341295 0.000000 0.000000 1.000000 255 255 255 1.000000
-0.315386 0.484116 0.353861 0.000000 0.000000 -1.000000 255 255 255 1.000000
0.580133 0.041386 -0.270186 -1.000000 0.000000 0.000000 255 255 255 1.000000
0.428338 -0.733160 -0.002858 0.000000 1.000000 0.000000 255 255 255 1.000000
-0.061994 0.772517 0.082675 0.000000 1.000000 0.000000 65 26 7 1.000000
-0.480587 -0.560455 -0.393750 0.000000 0.000000 -1.000000 60 52 53 1.000000
0.580133 0.515309 0.097354 1.000000 0.000000 0.000000 89 40 13 1.000000
0.580133 -0.561571 0.323941 -1.000000 0.000000 0.000000 255 255 255 1.000000
-0.307396 0.678259 0.353861 0.000000 0.000000 1.000000 82 32 9 1.000000
0.028485 0.461042 0.338177 0.000000 0.000000 -1.000000 255 255 255 1.000000
-0.558267 0.122675 0.063979 -1.000000 0.000000 0.000000 77 35 9 1.000000
-0.210504 0.531906 -0.393750 0.000000 0.000000 -1.000000 55 44 46 1.000000
0.580133 -0.166081 -0.071888 1.000000 0.000000 0.000000 57 20 0 1.000000
-0.558267 0.646976 -0.143502 -1.000000 0.000000 0.000000 89 41 17 1.000000
0.326855 0.169930 0.353861 0.000000 0.000000 -1.000000 255 255 255 1.000000
-0.503778 -0.128879 -0.393750 0.000000 0.000000 1.000000 255 255 255 1.000000
-0.558267 -0.524591 0.147588 1.000000 0.000000 0.000000 198 204 214 1.000000
0.580133 -0.564192 -0.316640 1.000000 0.000000 0.000000 80 36 13 1.000000
0.129122 -0.069390 -0.393750 0.000000 0.000000 1.000000 255 255 255 1.000000
0.488050 -0.733160 0.242874 0.000000 -1.000000 0.000000 69 59 58 1.000000
-0.139570 0.034795 -0.393750 0.000000 0.000000 -1.000000 51 43 44 1.000000
-0.296942 -0.312805 0.353861 0.000000 0.000000 -1.000000 255 255 255 1.000000
0.043660 0.711390 -0.393750 0.000000 0.000000 -1.000000 57 51 51 1.000000
-0.427636 0.772517 -0.050166 0.000000 1.000000 0.000000 78 35 14 1.000000
-0.519838 -0.733160 0.236349 0.000000 1.000000 0.000000 255 255 255 1.000000
-0.517719 0.772517 0.013335 0.000000 -1.000000 0.000000 255 255 255 1.000000
-0.558267 0.389588 0.146982 -1.000000 0.000000 0.000000 86 38 14 1.000000
0.580133 -0.262945 -0.313518 1.000000 0.000000 0.000000 72 28 5 1.000000
0.442579 0.772517 -0.142261 0.000000 1.000000 0.000000 90 38 12 1.000000
0.041214 0.772517 -0.264632 0.000000 1.000000 0.000000 75 35 14 1.000000
-0.533888 -0.719610 0.317264 0.000000 0.000000 -1.000000 255 255 255 1.000000
-0.242682 -0.733160 0.006077 0.000000 -1.000000 0.000000 55 49 49 1.000000
0.271219 0.216574 -0.393750 0.000000 0.000000 1.000000 255 255 255 1.000000
0.107996 0.165604 -0.393750 0.000000 0.000000 -1.000000 47 41 41 1.000000
0.470438 0.294033 0.353861 0.000000 0.000000 -1.000000 255 255 255 1.000000
0.580133 -0.554232 0.088807 1.000000 0.000000 0.000000 84 40 15 1.000000
-0.109925 -0.733160 -0.216352 0.000000 -1.000000 0.000000 59 51 52 1.000000
-0.406788 0.213248 -0.393750 0.000000 0.000000 -1.000000 58 50 51 1.000000
-0.347406 -0.217014 0.341295 0.000000 0.000000 -1.000000 255 255 255 1.000000
-0.003473 -0.733160 0.291546 0.000000 1.000000 0.000000 255 255 255 1.000000
-0.558267 -0.415954 -0.080133 1.000000 0.000000 0.000000 202 208 218 1.000000
0.158597 -0.306446 0.341295 0.000000 0.000000 -1.000000 255 255 255 1.000000
0.580133 -0.173905 -0.278953 1.000000 0.000000 0.000000 84 40 17 1.000000
0.580133 -0.101177 0.065726 -1.000000 0.000000 0.000000 255 255 255 1.000000
-0.089195 -0.652257 0.300273 0.000000 0.000000 -1.000000 255 255 255 1.000000
0.411551 -0.125421 0.353861 0.000000 0.000000 1.000000 87 39 13 1.000000
-0.558267 0.276265 0.011713 1.000000 0.000000 0.000000 202 208 218 1.000000
0.580133 0.640286 -0.282568 1.000000 0.000000 0.000000 86 40 13 1.000000
-0.558267 0.210106 -0.322978 -1.000000 0.000000 0.000000 91 42 15 1.000000
0.218789 0.195654 -0.393750 0.000000 0.000000 -1.000000 52 46 46 1.000000
-0.534388 0.005475 -0.393750 0.000000 0.000000 1.000000 255 255 255 1.000000
0.580133 -0.568006 -0.167312 -1.000000 0.000000 0.000000 255 255 255 1.000000
0.258699 0.150945 -0.393750 0.000000 0.000000 -1.000000 58 50 51 1.000000
0.182666 -0.733160 -0.231937 0.000000 1.000000 0.000000 255 255 255 1.000000
-0.558267 -0.103492 0.144903 1.000000 0.000000 0.000000 206 212 222 1.000000
0.387039 0.255681 0.353861 0.000000 0.000000 1.000000 68 26 2 1.000000
0.176360 -0.733160 -0.392289 0.000000 1.000000 0.000000 255 255 255 1.000000
0.580133 0.483405 0.060714 -1.000000 0.000000 0.000000 255 255 255 1.000000
0.445093 -0.320895 0.341295 0.000000 0.000000 -1.000000 255 255 255 1.000000
0.580133 0.277200 -0.098378 1.000000 0.000000 0.000000 78 30 4 1.000000
0.272693 -0.012945 -0.393750 0.000000 0.000000 1.000000 255 255 255 1.000000
-0.245928 0.772517 0.109812 0.000000 1.000000 0.000000 88 41 13 1.000000
-0.202342 0.772517 -0.078319 0.000000 -1.000000 0.000000 255 255 255 1.000000
0.081834 -0.356285 0.341295 0.000000 0.000000 -1.000000 255 255 255 1.000000
-0.361277 -0.077409 0.341295 0.000000 0.000000 1.000000 255 255 255 1.000000
-0.558267 0.747886 -0.115010 -1.000000 0.000000 0.000000 73 30 9 1.000000
-0.140228 0.772517 -0.112351 0.000000 1.000000 0.000000 90 38 12 1.000000
0.347709 -0.481180 -0.393750 0.000000 0.000000 -1.000000 58 50 51 1.000000
0.057126 0.687999 0.341295 0.000000 0.000000 -1.000000 255 255 255 1.000000
-0.558267 -0.564613 -0.272506 1.000000 0.000000 0.000000 205 211 221 1.000000
0.507792 -0.402870 0.353861 0.000000 0.000000 1.000000 90 42 18 1.000000
-0.252593 -0.076991 0.341295 0.000000 0.000000 1.000000 255 255 255 1.000000
-0.089651 -0.720063 -0.393750 0.000000 0.000000 -1.000000 43 35 36 1.000000
-0.558084 -0.510286 0.342844 -0.986076 0.000000 0.166294 206 212 222 1.000000
0.580133 0.047504 -0.043675 1.000000 0.000000 0.000000 67 27 3 1.000000
0.580133 -0.419464 -0.149415 -1.000000 0.000000 0.000000 255 255 255 1.000000
-0.408201 0.314027 0.353861 0.000000 0.000000 -1.000000 255 255 255 1.000000
-0.447942 -0.199804 -0.393750 0.000000 0.000000 -1.000000 52 44 45 1.000000
-0.194170 0.691188 -0.393750 0.000000 0.000000 1.000000 255 255 255 1.000000
-0.558267 0.006063 0.094221 -1.000000 0.000000 0.000000 73 30 9 1.000000
-0.119413 0.168119 0.353861 0.000000 0.000000 -1.000000 255 255 255 1.000000
-0.503146 -0.109849 0.341295 0.000000 0.000000 -1.000000 255 255 255 1.000000
0.531766 0.116241 0.353861 0.000000 0.000000 1.000000 87 37 14 1.000000
0.087365 -0.146009 0.341295 0.000000 0.000000 1.000000 255 255 255 1.000000
0.580133 -0.636072 -0.277004 1.000000 0.000000 0.000000 90 40 15 1.000000
0.186723 0.685383 0.353861 0.000000 0.000000 -1.000000 255 255 255 1.000000
-0.558267 0.589860 0.323350 -1.000000 0.000000 0.000000 85 35 10 1.000000
-0.379971 0.138165 0.341295 0.000000 0.000000 -1.000000 255 255 255 1.000000
0.012498 -0.652982 0.300273 0.000000 0.000000 1.000000 57 51 51 1.000000
0.341955 -0.733160 -0.044907 0.000000 -1.000000 0.000000 49 43 43 1.000000
-0.221625 -0.249253 0.353861 0.000000 0.000000 1.000000 70 27 6 1.000000
0.580133 0.039294 0.181769 -1.000000 0.000000 0.000000 255 255 255 1.000000
0.580133 0.463951 -0.141998 1.000000 0.000000 0.000000 84 31 11 1.000000
0.477436 -0.188350 -0.393750 0.000000 0.000000 -1.000000 51 45 45 1.000000
0.258573 0.400498 0.353861 0.000000 0.000000 1.000000 91 42 15 1.000000
-0.499384 -0.619472 0.351567 -0.000000 -0.792865 0.609398 204 210 220 1.000000
0.080790 0.384825 -0.393750 0.000000 0.000000 -1.000000 54 48 48 1.000000
-0.164666 0.772517 -0.057154 0.000000 1.000000 0.000000 87 39 15 1.000000
-0.558267 -0.357146 0.202635 -1.000000 0.000000 0.000000 81 34 12 1.000000
0.282757 0.447506 -0.393750 0.000000 0.000000 -1.000000 53 45 46 1.000000
-0.526013 0.772517 0.079616 0.000000 1.000000 0.000000 74 33 15 1.000000
0.334994 -0.733160 0.290941 0.000000 1.000000 0.000000 255 255 255 1.000000
0.346821 -0.476252 0.353861 0.000000 0.000000 -1.000000 255 255 255 1.000000
-0.293296 0.082460 -0.393750 0.000000 0.000000 -1.000000 57 51 51 1.000000
-0.411303 0.772517 -0.014818 0.000000 -1.000000 0.000000 255 255 255 1.000000
0.336282 0.389578 -0.393750 0.000000 0.000000 1.000000 255 255 255 1.000000
0.580133 0.015475 0.146664 -1.000000 0.000000 0.000000 255 255 255 1.000000
-0.198863 0.772517 0.262605 0.000000 1.000000 0.000000 74 32 8 1.000000
0.174359 0.772517 -0.377226 0.000000 1.000000 0.000000 78 36 12 1.000000
0.580133 -0.352370 -0.142316 1.000000 0.000000 0.000000 99 47 19 1.000000
0.485588 -0.443890 0.341295 0.000000 0.000000 1.000000 255 255 255 1.000000
0.251698 -0.058432 0.341295 0.000000 0.000000 1.000000 255 255 255 1.000000
0.485254 -0.551453 0.341295 0.000000 0.000000 -1.000000 255 255 255 1.000000
0.273349 -0.733160 -0.393412 0.000000 1.000000 0.000000 255 255 255 1.000000
0.036879 0.286679 -0.393750 0.000000 0.000000 1.000000 255 255 255 1.000000
0.201239 -0.166600 -0.393750 0.000000 0.000000 -1.000000 60 49 51 1.000000
0.040251 -0.733160 0.278485 0.000000 1.000000 0.000000 255 255 255 1.000000
-0.125577 0.158645 -0.393750 0.000000 0.000000 -1.000000 60 54 54 1.000000
0.320039 -0.690571 0.300273 0.000000 0.000000 -1.000000 255 255 255 1.000000
0.166908 -0.733160 0.125337 0.000000 1.000000 0.000000 255 255 255 1.000000
-0.558267 0.210040 0.332569 1.000000 0.000000 0.000000 201 207 217 1.000000
-0.558267 -0.085127 0.277067 -1.000000 0.000000 0.000000 77 30 8 1.000000
-0.187420 0.772517 0.298061 0.000000 1.000000 0.000000 83 35 9 1.000000
-0.558267 0.686824 -0.097672 -1.000000 0.000000 0.000000 84 38 11 1.000000
0.580133 0.530019 -0.282803 1.000000 0.000000 0.000000 89 41 15 1.000000
-0.015262 0.097653 0.353165 0.721684 0.000000 0.692222 196 202 212 1.000000
0.274224 0.342165 0.341295 0.000000 0.000000 -1.000000 255 255 255 1.000000
0.529742 -0.679804 0.300273 0.000000 0.000000 1.000000 41 35 35 1.000000
-0.230485 0.772517 -0.239594 0.000000 -1.000000 0.000000 255 255 255 1.000000
0.139174 -0.041601 0.341295 0.000000 0.000000 1.000000 255 255 255 1.000000
-0.494425 0.772517 0.265947 0.000000 1.000000 0.000000 58 23 3 1.000000
0.580133 -0.583158 0.057188 -1.000000 0.000000 0.000000 255 255 255 1.000000
0.580133 0.680694 0.261054 1.000000 0.000000 0.000000 66 26 4 1.000000
0.577339 -0.273688 0.349915 -0.852270 0.000000 -0.523101 255 255 255 1.000000
0.065310 -0.733160 -0.365069 0.000000 -1.000000 0.000000 58 50 51 1.000000
0.278940 0.772517 0.110790 0.000000 -1.000000 0.000000 255 255 255 1.000000
-0.128792 0.772517 0.089177 0.000000 -1.000000 0.000000 255 255 255 1.000000
-0.178737 0.469141 -0.393750 0.000000 0.000000 -1.000000 65 54 56 1.000000
0.187839 -0.046717 0.353861 0.000000 0.000000 -1.000000 255 255 255 1.000000
-0.118130 -0.269474 0.353861 0.000000 0.000000 -1.000000 255 255 255 1.000000
0.521669 0.772517 -0.278433 0.000000 -1.000000 0.000000 255 255 255 1.000000
0.351397 0.117984 -0.393750 0.000000 0.000000 1.000000 255 255 255 1.000000
-0.328529 -0.733160 -0.160407 0.000000 1.000000 0.000000 255 255 255 1.000000
0.215695 -0.457810 -0.393750 0.000000 0.000000 1.000000 255 255 255 1.000000
-0.431635 0.683238 0.353861 0.000000 0.000000 1.000000 96 46 21 1.000000
0.254115 0.772517 0.206754 0.000000 1.000000 0.000000 84 40 17 1.000000
-0.174861 -0.733160 -0.221849 0.000000 -1.000000 0.000000 62 54 55 1.000000
0.217483 0.645143 0.353861 0.000000 0.000000 -1.000000 255 255 255 1.000000
0.262333 -0.137310 -0.393750 0.000000 0.000000 -1.000000 57 49 50 1.000000
-0.494802 -0.661451 -0.393750 0.000000 0.000000 -1.000000 58 47 49 1.000000
0.115300 -0.733160 -0.070810 0.000000 1.000000 0.000000 255 255 255 1.000000
0.578604 -0.696264 0.317264 0.000000 0.000000 1.000000 62 54 55 1.000000
-0.286706 0.226868 0.353861 0.000000 0.000000 1.000000 81 33 9 1.000000
-0.558267 -0.702561 0.102235 1.000000 0.000000 0.000000 202 208 218 1.000000
0.222716 -0.045392 -0.393750 0.000000 0.000000 -1.000000 70 56 57 1.000000
-0.558267 -0.001408 -0.091389 1.000000 0.000000 0.000000 201 207 217 1.000000
0.580133 0.608304 0.217759 1.000000 0.000000 0.000000 80 32 8 1.000000
-0.081320 -0.062857 0.341295 0.000000 0.000000 -1.000000 255 255 255 1.000000
-0.558267 -0.102433 0.027198 1.000000 0.000000 0.000000 204 210 220 1.000000
0.381385 -0.596669 -0.393750 0.000000 0.000000 -1.000000 57 49 50 1.000000
0.242598 -0.094958 0.341295 0.000000 0.000000 1.000000 255 255 255 1.000000
-0.206357 0.739919 0.341295 0.000000 0.000000 1.000000 255 255 255 1.000000
0.154711 -0.022856 -0.393750 0.000000 0.000000 1.000000 255 255 255 1.000000
-0.395397 0.579869 -0.393750 0.000000 0.000000 1.000000 255 255 255 1.000000
0.134780 0.170071 0.341295 0.000000 0.000000 1.000000 255 255 255 1.000000
0.495966 -0.512700 -0.393750 0.000000 0.000000 1.000000 255 255 255 1.000000
-0.130681 0.772517 0.211191 0.000000 -1.000000 0.000000 255 255 255 1.000000
0.075628 0.344424 0.353861 0.000000 0.000000 1.000000 78 34 9 1.000000
-0.376029 -0.437479 -0.393750 0.000000 0.000000 1.000000 255 255 255 1.000000
-0.527723 0.772517 -0.198282 0.000000 -1.000000 0.000000 255 255 255 1.000000
0.385007 0.357064 0.353861 0.000000 0.000000 -1.000000 255 255 255 1.000000
-0.144836 0.741475 -0.393750 0.000000 0.000000 -1.000000 65 54 56 1.000000
0.460544 0.182595 0.353861 0.000000 0.000000 1.000000 72 30 6 1.000000
-0.558267 0.664569 -0.031488 1.000000 0.000000 0.000000 198 204 214 1.000000
-0.071818 -0.733160 0.178235 0.000000 -1.000000 0.000000 53 47 47 1.000000
0.000429 0.074238 0.338177 0.000000 0.000000 -1.000000 255 255 255 1.000000
-0.558267 -0.442907 0.311711 1.000000 0.000000 0.000000 204 210 220 1.000000
-0.297371 -0.498758 0.353861 0.000000 0.000000 1.000000 80 34 9 1.000000
0.027188 0.772517 -0.075838 0.000000 -1.000000 0.000000 255 255 255 1.000000
0.518001 0.515257 -0.393750 0.000000 0.000000 1.000000 255 255 255 1.000000
-0.007834 0.772517 0.103574 0.000000 -1.000000 0.000000 255 255 255 1.000000
-0.558267 0.383510 0.199488 -1.000000 0.000000 0.000000 77 34 13 1.000000
0.580133 -0.490612 -0.321237 1.000000 0.000000 0.000000 68 28 6 1.000000
0.580133 0.041730 -0.361278 -1.000000 0.000000 0.000000 255 255 255 1.000000
0.119949 0.660764 0.353861 0.000000 0.000000 -1.000000 255 255 255 1.000000
0.580133 -0.292992 -0.056079 -1.000000 0.000000 0.000000 255 255 255 1.000000
-0.371092 -0.657578 -0.393750 0.000000 0.000000 -1.000000 65 54 56 1.000000
0.497195 -0.181891 0.341295 0.000000 0.000000 1.000000 255 255 255 1.000000
-0.558267 0.243811 0.065748 1.000000 0.000000 0.000000 196 202 212 1.000000
-0.500609 -0.733160 0.153955 0.000000 1.000000 0.000000 255 255 255 1.000000
-0.558267 0.240000 -0.070277 -1.000000 0.000000 0.000000 89 42 20 1.000000
0.580133 0.591168 -0.247838 1.000000 0.000000 0.000000 85 39 14 1.000000
0.385161 -0.263568 0.341295 0.000000 0.000000 1.000000 255 255 255 1.000000
-0.496577 0.772517 -0.195651 0.000000 1.000000 0.000000 87 35 9 1.000000
-0.558267 0.529219 0.039263 -1.000000 0.000000 0.000000 91 42 13 1.000000
-0.558267 -0.563994 0.079755 -1.000000 0.000000 0.000000 74 31 11 1.000000
0.507159 0.772517 0.100234 0.000000 1.000000 0.000000 89 43 16 1.000000
-0.430421 -0.337535 0.353861 0.000000 0.000000 1.000000 97 50 22 1.000000
-0.558267 -0.164498 0.016580 -1.000000 0.000000 0.000000 90 42 16 1.000000
0.441103 0.239133 0.353861 0.000000 0.000000 1.000000 63 23 2 1.000000
-0.093335 0.205222 -0.393750 0.000000 0.000000 -1.000000 58 50 51 1.000000
0.319913 -0.674314 -0.393750 0.000000 0.000000 1.000000 255 255 255 1.000000
-0.015747 -0.411438 0.341295 0.000000 0.000000 1.000000 255 255 255 1.000000
0.162693 -0.475188 -0.393750 0.000000 0.000000 1.000000 255 255 255 1.000000
-0.089463 0.772517 -0.156332 0.000000 1.000000 0.000000 88 38 13 1.000000
0.285736 0.772517 0.324250 0.000000 1.000000 0.000000 82 30 5 1.000000
-0.167490 0.530449 0.353861 0.000000 0.000000 1.000000 92 44 20 1.000000
0.254216 0.772517 -0.093232 0.000000 -1.000000 0.000000 255 255 255 1.000000
0.580133 -0.611458 0.298413 -1.000000 0.000000 0.000000 255 255 255 1.000000
0.580133 0.444727 -0.285501 -1.000000 0.000000 0.000000 255 255 255 1.000000
0.561644 -0.733160 0.074338 0.000000 -1.000000 0.000000 65 54 56 1.000000
0.493714 -0.256430 -0.393750 0.000000 0.000000 1.000000 255 255 255 1.000000
0.413438 0.130868 0.341295 0.000000 0.000000 -1.000000 255 255 255 1.000000
0.580133 -0.183923 0.191097 -1.000000 0.000000 0.000000 255 255 255 1.000000
-0.001340 0.772517 -0.209232 0.000000 1.000000 0.000000 89 39 16 1.000000
-0.558267 -0.102089 -0.015643 1.000000 0.000000 0.000000 202 208 218 1.000000
-0.375465 -0.733160 0.296217 0.000000 -1.000000 0.000000 59 51 52 1.000000
0.186158 0.772517 -0.244345 0.000000 -1.000000 0.000000 255 255 255 1.000000
0.442576 0.650429 -0.393750 0.000000 0.000000 1.000000 255 255 255 1.000000
-0.233062 0.318257 -0.393750 0.000000 0.000000 -1.000000 61 53 54 1.000000
0.122255 0.103454 0.341295 0.000000 0.000000 -1.000000 255 255 255 1.000000
0.580133 0.561696 0.003016 1.000000 0.000000 0.000000 76 32 9 1.000000
0.502168 0.772517 -0.144304 0.000000 -1.000000 0.000000 255 255 255 1.000000
0.580133 -0.166607 -0.344467 1.000000 0.000000 0.000000 63 22 6 1.000000
0.324660 0.772517 -0.311975 0.000000 -1.000000 0.000000 255 255 255 1.000000
0.150817 0.772517 -0.149419 0.000000 -1.000000 0.000000 255 255 255 1.000000
-0.277617 -0.618239 0.353053 -0.000000 -0.727487 0.686121 212 218 228 1.000000
0.324774 0.253277 0.353861 0.000000 0.000000 -1.000000 255 255 255 1.000000
-0.503179 -0.733160 -0.292434 0.000000 -1.000000 0.000000 59 51 52 1.000000
0.580133 -0.587984 -0.375359 1.000000 0.000000 0.000000 72 30 4 1.000000
0.010003 -0.733160 -0.118947 0.000000 -1.000000 0.000000 58 50 51 1.000000
0.498514 -0.677570 0.317264 0.000000 0.000000 1.000000 55 49 49 1.000000
-0.411875 0.130374 0.341295 0.000000 0.000000 1.000000 255 255 255 1.000000
0.166058 -0.243946 0.353861 0.000000 0.000000 -1.000000 255 255 255 1.000000
-0.406129 0.772517 -0.388775 0.000000 1.000000 0.000000 91 39 13 1.000000
0.154927 0.083004 -0.393750 0.000000 0.000000 -1.000000 56 50 50 1.000000
0.580133 0.690291 -0.372693 1.000000 0.000000 0.000000 86 39 17 1.000000
-0.390827 -0.193733 0.353861 0.000000 0.000000 1.000000 69 30 11 1.000000
0.578514 0.503372 0.347690 0.913498 0.000000 0.406842 210 216 226 1.000000
-0.474937 0.750478 -0.393750 0.000000 0.000000 1.000000 255 255 255 1.000000
0.160649 0.772517 0.008509 0.000000 1.000000 0.000000 67 27 5 1.000000
0.580133 0.683665 0.114495 1.000000 0.000000 0.000000 88 40 16 1.000000
-0.514885 -0.604147 -0.393750 0.000000 0.000000 -1.000000 60 49 51 1.000000
-0.199135 0.136106 0.353861 0.000000 0.000000 1.000000 72 29 8 1.000000
-0.254100 -0.417003 -0.393750 0.000000 0.000000 1.000000 255 255 255 1.000000
0.580133 -0.114587 0.290281 1.000000 0.000000 0.000000 95 45 20 1.000000
-0.526996 0.772517 -0.087741 0.000000 1.000000 0.000000 58 19 0 1.000000
0.580133 -0.091183 -0.364819 1.000000 0.000000 0.000000 88 36 11 1.000000
-0.546532 0.188922 -0.393750 0.000000 0.000000 1.000000 255 255 255 1.000000
-0.016461 0.134293 0.354308 0.659168 0.000000 0.751995 192 198 208 1.000000
0.551799 0.772517 0.292816 0.000000 -1.000000 0.000000 255 255 255 1.000000
-0.558267 0.736889 -0.287373 -1.000000 0.000000 0.000000 77 33 8 1.000000
-0.051577 -0.330114 0.341295 0.000000 0.000000 -1.000000 255 255 255 1.000000
-0.558267 -0.097996 -0.327309 1.000000 0.000000 0.000000 206 212 222 1.000000
0.078730 0.764128 -0.393750 0.000000 0.000000 1.000000 255 255 255 1.000000
-0.558267 -0.564754 0.288804 -1.000000 0.000000 0.000000 85 37 11 1.000000
0.427517 0.267856 0.353861 0.000000 0.000000 1.000000 92 46 21 1.000000
0.367506 -0.229175 0.353861 0.000000 0.000000 1.000000 74 31 10 1.000000
-0.558267 -0.309336 -0.339978 -1.000000 0.000000 0.000000 83 35 9 1.000000
0.297054 -0.095730 0.353861 0.000000 0.000000 -1.000000 255 255 255 1.000000
0.048828 -0.149932 -0.393750 0.000000 0.000000 1.000000 255 255 255 1.000000
0.396764 0.496981 0.353861 0.000000 0.000000 -1.000000 255 255 255 1.000000
0.471966 -0.733160 -0.111513 0.000000 1.000000 0.000000 255 255 255 1.000000
-0.131468 -0.534247 0.353861 0.000000 0.000000 -1.000000 255 255 255 1.000000
-0.196682 0.772517 -0.131421 0.000000 1.000000 0.000000 87 39 13 1.000000
0.474437 0.578488 0.353861 0.000000 0.000000 1.000000 76 32 9 1.000000
-0.289690 -0.017720 -0.393750 0.000000 0.000000 1.000000 255 255 255 1.000000
-0.476258 0.298527 -0.393750 0.000000 0.000000 1.000000 255 255 255 1.000000
0.355203 0.448434 -0.393750 0.000000 0.000000 -1.000000 63 52 54 1.000000
0.439604 0.631275 0.353861 0.000000 0.000000 -1.000000 255 255 255 1.000000
-0.230956 0.326221 0.353861 0.000000 0.000000 -1.000000 255 255 255 1.000000
0.228800 0.309953 0.341295 0.000000 0.000000 1.000000 255 255 255 1.000000
-0.124843 0.495759 -0.393750 0.000000 0.000000 -1.000000 55 47 48 1.000000
0.553435 0.388297 -0.393750 0.000000 0.000000 -1.000000 60 54 54 1.000000
-0.092757 0.772517 0.271180 0.000000 1.000000 0.000000 77 31 6 1.000000
-0.505559 0.772517 -0.138384 0.000000 -1.000000 0.000000 255 255 255 1.000000
-0.279534 0.474888 0.353861 0.000000 0.000000 1.000000 83 35 11 1.000000
0.542768 0.170386 0.353861 0.000000 0.000000 1.000000 80 32 6 1.000000
-0.068279 -0.416508 -0.393750 0.000000 0.000000 -1.000000 58 52 52 1.000000
-0.148367 -0.597241 -0.393750 0.000000 0.000000 -1.000000 57 49 50 1.000000
-0.164450 0.772517 0.035358 0.000000 1.000000 0.000000 86 38 14 1.000000
-0.120812 -0.733160 0.066874 0.000000 1.000000 0.000000 255 255 255 1.000000
0.580133 -0.279338 -0.192030 1.000000 0.000000 0.000000 82 32 7 1.000000
-0.558267 0.222043 0.296450 1.000000 0.000000 0.000000 195 200 216 1.000000
-0.406644 0.461573 0.341295 0.000000 0.000000 1.000000 255 255 255 1.000000
0.549091 -0.425381 0.353861 0.000000 0.000000 -1.000000 255 255 255 1.000000
-0.010243 -0.733160 -0.183954 0.000000 -1.000000 0.000000 49 41 42 1.000000
0.512005 -0.503819 0.341295 0.000000 0.000000 -1.000000 255 255 255 1.000000
