ply
format ascii 1.0
element vertex 1266
property float x
property float y
property float z
property uchar red
property uchar green
property uchar blue
end_header
0.571661 -0.586519 0.499075 153 76 0
-0.102716 -0.490017 0.379797 0 127 127
0.224766 -0.194837 0.565103 255 0 0
0.512734 -0.051509 0.119149 127 127 0
0.055960 0.569100 -0.312305 204 51 127
-0.037067 -0.504667 0.606533 255 0 0
-0.181947 0.470423 -0.606942 255 0 0
0.601913 -0.401422 -0.525877 153 76 0
0.078085 -0.586519 0.425566 153 0 76
-0.249879 -0.490017 -0.153075 0 127 127
-0.621116 -0.286490 0.465077 76 0 153
0.563694 0.093144 -0.598398 153 76 0
-0.520260 0.569100 -0.482270 204 51 127
0.407982 -0.586519 -0.460652 153 0 76
-0.621116 0.329337 -0.015015 76 0 153
0.186829 0.280396 -0.122205 153 0 76
-0.621116 -0.008173 -0.120978 76 0 153
-0.557417 -0.289211 0.357407 0 255 0
-0.323607 -0.133377 0.539623 255 0 0
0.601913 -0.040126 -0.432204 153 76 0
0.315346 0.336612 0.539623 76 0 153
-0.621116 -0.280634 -0.128095 76 0 153
-0.582897 -0.508827 -0.448035 76 0 153
0.563694 0.382185 0.022705 153 76 0
-0.621116 0.436907 0.396003 76 0 153
-0.621116 0.117602 -0.288892 76 0 153
0.423474 -0.351100 -0.555983 76 0 153
-0.178854 -0.317419 -0.568722 0 0 255
0.100156 0.518140 -0.399374 204 51 127
-0.495728 0.531385 0.565128 204 51 127
-0.531937 0.411286 0.124842 0 127 127
0.563694 0.150014 0.374618 153 76 0
0.021067 -0.118542 0.606533 255 0 0
0.324134 0.381081 -0.606942 255 0 0
-0.253388 -0.502757 0.494440 0 127 127
-0.621116 0.098365 0.072019 76 0 153
-0.546272 0.569100 -0.136341 204 51 127
0.601913 -0.481800 0.192143 153 76 0
0.387545 0.280396 0.151177 153 0 76
-0.074360 0.518140 0.274565 204 51 127
-0.255705 0.569100 -0.102768 204 51 127
-0.579642 0.301219 -0.568722 255 0 0
-0.273929 0.569100 -0.278423 204 51 127
-0.463723 -0.502757 0.175120 0 127 127
-0.326207 0.267656 -0.114973 153 0 76
0.288353 0.569100 0.270384 204 51 127
-0.289847 0.518140 -0.281415 204 51 127
-0.131301 0.023477 -0.530528 127 0 127
-0.216632 0.267656 -0.067096 153 0 76
0.184668 -0.362936 -0.568722 0 0 255
-0.458603 0.267656 -0.414345 153 0 76
0.512734 -0.051239 0.491416 127 127 0
-0.536064 -0.515497 0.309956 0 255 0
-0.075569 0.267656 -0.290819 153 0 76
0.330890 0.518140 -0.258581 204 51 127
-0.429469 -0.502757 -0.249917 0 127 127
-0.367505 -0.475752 0.539623 255 0 0
-0.105430 -0.586519 0.310877 153 0 76
0.466651 0.440229 -0.568722 255 0 0
-0.621116 -0.520170 -0.397175 76 0 153
0.538134 0.254916 0.348315 127 0 127
-0.522441 -0.028527 0.568313 255 0 0
0.419157 0.569100 0.545622 204 51 127
0.552207 -0.485918 0.222742 204 51 127
0.538214 0.413295 0.342604 127 0 127
0.512734 -0.502009 0.451326 127 127 0
0.209583 0.265458 -0.505048 76 153 0
0.512734 0.019702 -0.048096 127 127 0
0.601913 -0.020187 -0.086828 153 76 0
-0.621116 0.421582 0.116558 76 0 153
0.512547 -0.535559 -0.377879 153 0 76
0.601913 -0.381061 0.263630 153 76 0
-0.621116 0.369888 0.009729 76 0 153
0.248528 -0.465150 -0.606942 0 0 255
-0.516078 -0.214847 -0.568722 76 0 153
0.512734 -0.500271 0.535920 127 127 0
0.601913 -0.258284 -0.499290 153 76 0
0.601913 -0.511610 -0.462693 153 76 0
0.166361 -0.018673 0.568313 255 0 0
-0.051021 0.263342 -0.588831 255 0 0
-0.359311 -0.490017 -0.405368 0 127 127
0.110164 -0.535559 0.380307 153 0 76
0.196376 -0.321253 -0.568722 76 0 153
0.227040 0.106170 -0.555983 76 0 153
-0.411705 0.278219 0.606533 76 0 153
0.036651 -0.070539 0.539623 255 0 0
0.563694 0.281090 -0.172147 153 76 0
-0.370331 0.079123 0.656740 153 0 76
-0.541124 0.318791 -0.505048 76 153 0
-0.251377 0.280396 0.507220 153 0 76
-0.013088 0.177523 0.568871 255 0 0
-0.417128 0.518140 -0.551338 204 51 127
-0.582897 -0.168911 -0.012629 76 0 153
0.086366 -0.535559 0.207209 153 0 76
0.074888 0.280396 0.441556 153 0 76
-0.092695 -0.586519 -0.046420 153 0 76
-0.276596 -0.535559 -0.202011 153 0 76
0.341177 -0.146129 0.606533 255 0 0
-0.621116 0.048293 -0.091658 76 0 153
-0.268552 0.518140 -0.375934 204 51 127
-0.531937 -0.502916 0.070704 0 255 0
-0.053748 -0.586519 0.166305 153 0 76
0.185868 -0.535559 0.496679 153 0 76
0.449687 0.018030 0.606533 255 0 0
-0.582897 0.435224 -0.326665 76 0 153
-0.256533 -0.073010 -0.530528 127 0 127
0.069117 0.240248 -0.568722 76 0 153
0.369166 0.064716 0.568313 255 0 0
0.033851 -0.586519 0.096759 153 0 76
-0.223127 0.030423 0.568313 255 0 0
-0.582897 -0.250910 -0.282292 76 0 153
0.157951 0.518140 -0.202226 204 51 127
-0.557417 -0.349430 0.557088 255 0 0
-0.531937 -0.319985 -0.028813 0 255 0
-0.582897 0.462643 0.210994 76 0 153
0.563694 -0.339258 0.181497 153 76 0
0.186840 0.518140 -0.260822 204 51 127
0.423880 0.280396 -0.460913 153 0 76
0.601913 -0.509308 0.363568 153 76 0
-0.557417 0.300935 -0.303091 0 127 127
-0.511094 -0.076284 0.565103 255 0 0
-0.548202 0.509714 0.338418 0 127 127
0.547901 -0.507182 -0.606942 0 0 255
0.563694 -0.085765 -0.187013 153 76 0
0.375345 -0.586519 -0.315929 153 0 76
0.327061 0.569100 -0.188895 204 51 127
0.563694 -0.520570 -0.561805 153 76 0
0.190843 -0.350394 -0.530528 127 0 127
-0.531937 0.311305 0.149027 0 127 127
-0.253412 -0.490017 0.276111 0 127 127
-0.582897 0.525029 0.262916 76 0 153
-0.085325 0.370955 -0.505048 76 153 0
0.601913 0.177514 -0.265097 153 76 0
0.207788 0.280396 -0.439842 153 0 76
0.075922 -0.348168 -0.530528 127 0 127
-0.582897 -0.015226 -0.185786 76 0 153
-0.455766 0.280396 -0.146529 153 0 76
-0.264696 -0.347260 0.568313 255 0 0
-0.175206 0.227098 0.606533 76 0 153
0.254390 0.518140 0.317822 204 51 127
-0.266385 0.569100 0.278227 204 51 127
0.601913 0.341964 -0.302586 153 76 0
-0.098947 -0.535559 0.511486 153 0 76
-0.621116 0.005077 -0.387829 76 0 153
0.601913 -0.135341 -0.008682 153 76 0
0.567575 -0.426995 0.606533 255 0 0
-0.348478 -0.387058 -0.568722 0 0 255
-0.621116 -0.233406 -0.260884 76 0 153
0.244360 -0.502757 0.327042 0 127 127
0.601913 -0.215546 -0.434335 153 76 0
-0.582897 -0.060652 -0.139246 76 0 153
-0.483231 -0.586519 0.187489 153 0 76
-0.555083 -0.026959 0.606533 255 0 0
0.601913 -0.131538 0.074551 153 76 0
-0.099072 0.267656 -0.214654 153 0 76
0.196148 -0.137022 -0.530528 127 0 127
0.538214 -0.497210 -0.476485 127 127 0
0.563694 0.172067 0.036421 153 76 0
-0.084722 0.431410 0.606533 76 0 153
0.563694 -0.113573 -0.606738 153 76 0
0.601913 -0.296683 0.129032 153 76 0
0.362030 0.350335 0.539623 76 0 153
-0.055706 0.313851 -0.568722 76 0 153
0.512734 -0.444139 -0.433569 127 127 0
-0.531937 -0.190127 0.228814 0 255 0
0.483243 -0.535559 -0.432456 153 0 76
0.563694 0.327364 -0.129520 153 76 0
0.581857 -0.181645 0.606533 255 0 0
-0.582897 -0.316186 0.512785 76 0 153
0.202881 0.094302 0.606533 255 0 0
0.520146 0.045059 -0.101301 127 127 0
-0.531440 0.284226 0.568313 76 0 153
0.160845 -0.586519 0.060530 153 0 76
0.538214 -0.101459 0.197708 127 127 0
0.225966 0.502392 -0.530528 76 153 0
0.516629 0.045059 0.025149 127 127 0
-0.527450 -0.586519 -0.517290 153 0 76
0.601913 -0.301576 -0.303194 153 76 0
0.225849 0.342529 -0.606942 255 0 0
-0.582897 0.534045 -0.568616 204 51 127
0.304929 -0.086707 -0.530528 127 0 127
0.001151 -0.502757 0.249896 0 127 127
0.415643 -0.549235 0.565128 153 0 76
-0.531937 0.441747 -0.491654 0 127 127
0.265959 0.518140 0.160347 204 51 127
-0.328900 -0.586519 -0.020199 153 0 76
-0.158563 -0.502757 -0.124222 0 127 127
-0.457196 -0.535559 0.510479 153 0 76
0.563694 -0.203111 0.087373 153 76 0
-0.011534 0.569100 0.471324 204 51 127
0.458786 0.076171 0.659064 153 0 76
0.204964 -0.535559 0.288983 153 0 76
-0.067890 -0.330096 -0.555983 76 0 153
0.512734 0.370232 0.341445 127 0 127
0.601913 0.358205 0.554737 153 76 0
0.045643 0.484982 0.606533 76 0 153
0.128913 0.280396 0.027803 153 0 76
0.601913 -0.198918 -0.156800 153 76 0
-0.224648 0.122918 0.568313 255 0 0
-0.296963 0.569100 0.038132 204 51 127
0.538214 -0.154788 -0.407623 127 127 0
-0.621116 -0.317321 -0.441890 76 0 153
0.252965 0.536053 0.568313 76 0 153
-0.621116 -0.499602 -0.138390 76 0 153
0.005398 0.569100 0.135995 204 51 127
0.601913 -0.372394 0.496849 153 76 0
0.578847 -0.586519 0.314391 153 76 0
0.563694 -0.318897 -0.392481 153 76 0
-0.582897 -0.213373 -0.042580 76 0 153
0.428333 0.518140 -0.324549 204 51 127
-0.621116 0.488432 -0.290954 76 0 153
-0.335493 -0.490017 0.223406 0 127 127
-0.531937 -0.006746 -0.121006 0 255 0
0.512734 -0.031972 -0.266869 127 127 0
0.089866 0.569100 0.346172 204 51 127
-0.247387 -0.586519 -0.253779 153 0 76
-0.582897 0.528573 0.178653 204 51 127
-0.557417 -0.035250 -0.087132 0 255 0
0.222307 -0.108948 -0.555983 76 0 153
0.237501 0.569100 -0.394925 204 51 127
-0.548137 0.330332 -0.606942 255 0 0
-0.578262 -0.586519 -0.339308 153 0 76
-0.161816 0.280396 0.103306 153 0 76
-0.016902 0.135062 0.568313 255 0 0
0.495047 -0.152114 -0.555983 76 0 153
0.066256 0.355663 0.539623 76 0 153
-0.531937 0.019775 0.488631 0 255 0
0.511728 0.518140 -0.540999 204 51 127
-0.427293 -0.535559 0.226510 153 0 76
-0.621116 -0.091257 -0.137093 76 0 153
0.601913 0.118927 0.421951 153 76 0
0.563694 0.286888 -0.397727 153 76 0
0.048017 0.518140 -0.376002 204 51 127
0.538214 -0.315329 -0.285002 127 127 0
-0.020341 -0.411703 0.568313 255 0 0
-0.306089 -0.196179 -0.568722 76 0 153
-0.582897 0.094523 -0.009719 76 0 153
-0.480378 -0.535559 0.309354 153 0 76
0.467778 -0.586519 -0.420084 153 0 76
-0.621116 0.192658 -0.604465 76 0 153
-0.582897 -0.197681 0.192255 76 0 153
-0.437047 -0.586519 -0.158545 153 0 76
-0.050822 -0.124638 -0.530528 127 0 127
0.601913 0.517992 0.262794 153 76 0
-0.557417 -0.049391 0.128883 0 255 0
0.472492 -0.333651 0.568313 255 0 0
-0.218609 0.378515 0.568313 76 0 153
-0.384223 -0.352491 -0.568722 0 0 255
0.311330 0.045059 0.560495 255 0 0
0.555827 -0.485918 0.561627 204 51 127
-0.486962 0.491017 -0.505048 76 153 0
-0.397005 0.280396 0.217572 153 0 76
0.012727 0.267656 0.173215 153 0 76
-0.407850 -0.521473 0.606533 255 0 0
-0.582897 -0.378890 0.210452 76 0 153
0.255194 0.334234 -0.568722 255 0 0
-0.137192 0.081290 -0.555983 76 0 153
0.601913 0.365218 -0.487997 153 76 0
-0.118081 0.569100 -0.506962 204 51 127
0.069150 -0.490017 -0.413040 0 127 127
0.377245 0.267656 0.300208 153 0 76
-0.579682 -0.223306 0.606533 255 0 0
0.563694 -0.340888 -0.241801 153 76 0
-0.090205 -0.573381 0.565128 153 0 76
-0.080199 -0.535559 0.034952 153 0 76
0.513287 0.509714 0.378933 127 0 127
-0.582897 -0.000467 0.055197 76 0 153
0.256221 -0.021256 -0.530528 127 0 127
-0.162640 0.569100 -0.404325 204 51 127
-0.125945 -0.535559 -0.577492 0 0 255
-0.306141 0.390411 -0.555983 76 0 153
-0.063825 -0.538485 0.568313 255 0 0
0.538214 -0.120905 0.110384 127 127 0
0.403412 -0.535559 -0.494256 153 0 76
-0.621116 0.341780 -0.487866 76 0 153
-0.621116 0.161050 0.019256 76 0 153
0.563694 0.246317 -0.019768 153 76 0
0.099003 0.486618 -0.505048 76 153 0
-0.212900 0.518140 -0.271569 204 51 127
0.367883 0.312031 -0.505048 76 153 0
0.563694 0.009226 0.246022 153 76 0
0.233539 0.518140 0.528059 204 51 127
0.302762 -0.397912 -0.568722 0 0 255
0.563694 0.167706 0.427743 153 76 0
0.601913 0.549442 0.104026 153 76 0
-0.068789 -0.036532 -0.505048 127 0 127
-0.163020 -0.502757 0.507891 0 127 127
0.030942 -0.332669 -0.555983 76 0 153
-0.050674 0.518140 -0.570856 204 51 127
-0.059693 0.569100 0.054383 204 51 127
-0.621116 0.343307 0.179746 76 0 153
-0.621116 0.386219 -0.577513 76 0 153
0.333507 -0.326775 -0.568722 0 0 255
0.563694 -0.089315 -0.282741 153 76 0
0.601913 0.265605 -0.386780 153 76 0
0.097880 -0.031565 0.606533 255 0 0
0.173747 0.569100 -0.562759 204 51 127
0.460721 -0.160397 -0.530528 127 0 127
0.269102 0.518140 -0.016045 204 51 127
-0.008299 -0.502757 0.208244 0 127 127
0.512734 0.289301 0.320302 127 0 127
0.601913 -0.148594 -0.512101 153 76 0
0.044664 -0.586519 0.208662 153 0 76
-0.374214 -0.490017 0.154096 0 127 127
0.488932 -0.278896 -0.530528 127 0 127
0.255210 -0.535559 0.034790 153 0 76
0.601913 -0.397911 0.175148 153 76 0
-0.216275 0.569100 0.009945 204 51 127
-0.406426 0.569100 -0.129883 204 51 127
-0.539703 0.569100 0.204547 204 51 127
-0.531937 0.452801 0.278358 0 127 127
-0.132238 -0.253444 0.568313 255 0 0
0.601913 -0.046254 0.205085 153 76 0
-0.531937 -0.374897 0.010269 0 255 0
0.181738 -0.531551 -0.555983 76 0 153
0.512734 -0.364396 -0.176750 127 127 0
0.512734 -0.185272 -0.168381 127 127 0
-0.002666 0.062975 0.568313 255 0 0
-0.555231 -0.286077 -0.555983 76 0 153
0.593202 -0.327306 0.565128 153 76 0
0.524783 0.113133 0.568313 255 0 0
0.536207 0.460884 -0.555983 76 0 153
0.199353 0.569100 -0.440382 204 51 127
0.512734 0.487700 0.213116 127 0 127
0.499141 -0.535559 0.291366 153 0 76
0.385421 0.569100 0.447540 204 51 127
-0.621116 0.311111 0.271667 76 0 153
0.350414 -0.502757 0.309874 0 127 127
-0.482311 -0.459897 -0.568722 0 0 255
-0.621116 0.397382 -0.026250 76 0 153
0.011334 -0.470631 -0.505048 127 0 127
-0.214957 -0.490017 -0.055064 0 127 127
0.601913 0.205267 -0.292712 153 76 0
-0.557417 0.477136 0.041576 0 127 127
-0.043868 -0.058952 0.539623 255 0 0
-0.551456 0.509714 0.193248 0 127 127
0.133919 0.267656 -0.374159 153 0 76
-0.003901 0.518140 0.390677 204 51 127
0.601913 -0.430061 0.384389 153 76 0
-0.569913 0.296169 -0.463731 0 255 0
0.293647 -0.251336 -0.530528 127 0 127
0.506464 0.058993 -0.555983 76 0 153
-0.192015 -0.194162 0.568313 255 0 0
0.563694 0.425925 -0.020533 153 76 0
0.601913 -0.077486 -0.361919 153 76 0
-0.364897 0.569100 0.003963 204 51 127
0.381647 0.254216 0.606533 76 0 153
0.073142 -0.404685 -0.606942 0 0 255
0.377777 0.280396 -0.281652 153 0 76
-0.531937 -0.017722 -0.329332 0 255 0
-0.204521 0.518140 0.043122 204 51 127
-0.138679 -0.535559 0.337799 153 0 76
0.512734 -0.012632 -0.463479 127 127 0
0.601913 -0.065056 -0.566966 153 76 0
0.085676 -0.424693 0.568313 255 0 0
0.601913 0.353203 0.350314 153 76 0
-0.531937 -0.135164 -0.314474 0 255 0
-0.124063 -0.586519 0.140782 153 0 76
-0.041068 -0.490017 -0.404640 0 127 127
-0.137429 0.477918 -0.505048 76 153 0
0.003120 0.341411 -0.568722 76 0 153
-0.557417 -0.259443 -0.131276 0 255 0
-0.169988 -0.226053 0.606533 255 0 0
-0.506188 -0.269311 -0.530528 127 0 127
0.563694 -0.051181 -0.499140 153 76 0
0.043659 -0.586519 -0.564192 153 0 76
-0.350256 -0.535559 0.262703 153 0 76
-0.557557 -0.145080 0.568313 255 0 0
0.563694 0.367318 -0.270449 153 76 0
-0.414060 -0.224328 -0.568722 76 0 153
-0.582897 0.568727 -0.515749 204 51 127
-0.015138 -0.502757 -0.103518 0 127 127
0.054015 -0.535559 -0.083588 153 0 76
0.512734 -0.109838 -0.214192 127 127 0
0.563694 0.491480 -0.153386 153 76 0
0.432819 -0.586519 -0.206890 153 0 76
-0.562116 -0.586519 0.003589 153 0 76
-0.374022 -0.344478 0.565103 255 0 0
0.512734 -0.149184 -0.444737 127 127 0
0.160116 -0.502757 0.304057 0 127 127
-0.621116 0.245252 -0.142708 76 0 153
-0.036495 -0.586519 0.542813 153 0 76
0.229927 -0.502757 0.276354 0 127 127
-0.166083 -0.389320 -0.505048 127 0 127
0.170700 -0.535559 0.449240 153 0 76
0.355685 -0.130173 -0.505048 127 0 127
0.125541 0.569100 0.110291 204 51 127
-0.582897 -0.391252 -0.110044 76 0 153
0.462716 -0.490017 0.338067 0 127 127
-0.582897 -0.363832 -0.373848 76 0 153
0.104218 -0.490017 -0.201682 0 127 127
0.517035 0.569100 0.192649 204 51 127
0.513743 0.569100 -0.453310 204 51 127
-0.233174 0.267656 -0.146196 153 0 76
0.563694 0.424290 0.254016 153 76 0
0.554139 0.304621 0.091769 153 76 0
-0.456382 0.518140 -0.213137 204 51 127
0.470234 -0.113909 0.565103 255 0 0
-0.406572 -0.433818 0.568313 255 0 0
-0.582897 0.256587 0.016662 76 0 153
-0.134375 0.267656 -0.264977 153 0 76
0.398060 0.569100 -0.425185 204 51 127
-0.365319 -0.490017 0.425722 0 127 127
-0.621116 0.524680 0.225791 76 0 153
-0.110418 -0.338397 -0.530528 127 0 127
-0.160661 -0.388597 -0.568722 76 0 153
-0.142542 0.081920 0.568313 255 0 0
0.300960 -0.253865 0.568313 255 0 0
0.253700 -0.535559 -0.417677 153 0 76
-0.531937 0.309349 -0.068084 0 127 127
0.563694 -0.356161 -0.176619 153 76 0
-0.300715 0.267656 0.304589 153 0 76
0.544584 0.338726 -0.506765 153 76 0
0.165255 -0.062700 -0.568722 76 0 153
-0.557417 0.012435 -0.249196 0 255 0
0.200014 0.001868 0.565103 255 0 0
0.310874 -0.046181 -0.505048 127 0 127
0.598041 -0.586519 -0.039792 153 76 0
-0.557417 -0.387166 -0.310139 0 255 0
0.350903 -0.535559 -0.194031 153 0 76
-0.531937 -0.268856 0.188685 0 255 0
0.137972 0.394422 -0.606942 255 0 0
0.549227 -0.240823 0.606533 255 0 0
0.359361 -0.535559 0.039544 153 0 76
-0.172389 -0.490017 -0.401598 0 127 127
-0.245993 0.267656 0.268015 153 0 76
0.598388 0.200500 0.565128 153 76 0
-0.243892 -0.586519 0.484089 153 0 76
-0.297313 -0.502757 0.303390 0 127 127
0.206255 -0.107472 -0.505048 127 0 127
0.563694 0.322178 0.145817 153 76 0
-0.582897 -0.267170 -0.076248 76 0 153
0.402998 0.479264 -0.530528 76 153 0
0.512734 -0.086803 0.053208 127 127 0
-0.582897 -0.502410 -0.013951 76 0 153
0.512734 0.317431 0.451306 127 0 127
-0.439371 -0.490017 0.458240 0 127 127
-0.144829 -0.427200 0.568313 255 0 0
0.601913 0.562862 -0.389127 153 76 0
0.563694 -0.340819 0.262135 153 76 0
-0.269841 -0.535559 -0.244807 153 0 76
-0.010140 -0.216278 -0.530528 127 0 127
-0.582897 -0.315136 -0.141460 76 0 153
-0.236875 0.286310 -0.555983 76 0 153
0.204520 0.518140 0.097782 204 51 127
-0.573342 -0.460423 0.370575 0 0 255
-0.395260 -0.586519 0.416202 153 0 76
-0.621116 -0.312281 -0.526900 76 0 153
-0.178677 0.518140 -0.331265 204 51 127
0.059793 0.518140 0.334185 204 51 127
0.357158 -0.535559 -0.044928 153 0 76
0.534078 0.045059 0.342532 127 127 0
0.017589 -0.502448 0.568313 255 0 0
-0.428948 0.267656 0.011234 153 0 76
-0.351062 -0.490017 -0.252852 0 127 127
0.601913 0.515125 -0.270622 153 76 0
-0.531425 0.267656 0.228914 153 0 76
0.563694 -0.505716 0.481074 153 76 0
-0.531937 -0.321639 0.456522 0 255 0
0.519556 -0.307413 -0.606942 0 0 255
-0.449980 0.515805 0.606533 76 0 153
0.001527 0.518140 0.280153 204 51 127
-0.582897 -0.035115 -0.271894 76 0 153
0.601913 -0.123651 -0.126688 153 76 0
-0.055613 -0.396700 -0.568722 76 0 153
-0.441094 -0.279750 -0.530528 127 0 127
-0.557417 -0.332327 0.390705 0 255 0
0.231359 -0.535559 0.130908 153 0 76
0.512734 -0.510795 0.187895 127 127 0
0.549927 -0.372040 -0.606942 0 0 255
0.093403 -0.194980 -0.555983 76 0 153
0.243459 0.383971 -0.530528 76 153 0
-0.173982 -0.428816 -0.606942 0 0 255
0.160395 -0.490017 -0.198022 0 127 127
0.538214 -0.455742 -0.284155 127 127 0
0.538214 -0.162598 0.528114 127 127 0
-0.545560 -0.219354 0.565103 255 0 0
0.601913 -0.038526 0.490608 153 76 0
0.223040 -0.245364 0.568313 255 0 0
-0.526183 0.057835 0.568313 255 0 0
-0.582897 0.486365 0.342809 76 0 153
-0.266433 0.280396 -0.196410 153 0 76
0.601913 0.124087 -0.426029 153 76 0
0.018067 -0.418885 0.568313 255 0 0
0.563694 -0.028088 0.380781 153 76 0
0.042456 0.337273 -0.606942 255 0 0
-0.547149 0.518140 -0.490412 204 51 127
-0.208479 0.518140 0.263285 204 51 127
-0.621116 0.230085 0.064060 76 0 153
0.512734 0.417571 0.050086 127 0 127
-0.534155 -0.535559 0.048860 153 0 76
-0.621116 0.164640 -0.215555 76 0 153
0.107754 -0.490017 0.397222 0 127 127
0.193322 0.569100 -0.258217 204 51 127
-0.022772 0.569100 -0.174501 204 51 127
-0.012080 -0.490017 -0.033814 0 127 127
-0.307643 -0.586519 0.604535 255 0 0
0.437059 -0.490017 0.138031 0 127 127
0.601913 -0.003232 -0.260032 153 76 0
-0.192264 0.518140 -0.482049 204 51 127
-0.582897 -0.383260 -0.576798 76 0 153
0.079148 0.569100 -0.429655 204 51 127
-0.449304 0.475383 -0.568722 255 0 0
-0.582897 -0.275757 -0.585171 76 0 153
0.563694 0.448627 0.527940 153 76 0
-0.582897 -0.145771 -0.293589 76 0 153
-0.621116 -0.495584 0.477504 76 0 153
0.049303 0.254916 0.564103 76 0 153
-0.582897 -0.019971 0.439635 76 0 153
-0.557417 0.002586 0.557557 255 0 0
0.601913 -0.543820 -0.573771 153 76 0
-0.449044 -0.535559 0.339308 153 0 76
0.210724 0.280396 -0.084136 153 0 76
0.086137 -0.535559 -0.127508 153 0 76
0.093400 -0.545694 0.568313 255 0 0
0.563694 0.097006 0.136132 153 76 0
-0.557417 0.468614 -0.029473 0 127 127
-0.582897 -0.174813 0.122466 76 0 153
0.238465 0.366282 0.568313 76 0 153
0.030371 0.267656 0.009957 153 0 76
-0.376344 0.087010 0.606533 255 0 0
-0.621116 0.312646 -0.095560 76 0 153
-0.134862 -0.554869 0.565128 153 0 76
0.280471 0.262866 0.539623 76 0 153
-0.621116 0.288193 -0.326127 76 0 153
-0.301529 0.518140 -0.129897 204 51 127
-0.395788 0.430616 0.568313 76 0 153
-0.569968 -0.586519 -0.071581 153 0 76
-0.580965 -0.586519 0.415903 153 0 76
0.159589 -0.122540 0.568313 255 0 0
-0.426686 0.327621 0.539623 76 0 153
-0.621116 0.467272 -0.154011 76 0 153
-0.295683 0.280396 -0.134750 153 0 76
-0.582897 0.255432 -0.558558 76 0 153
-0.238792 -0.535559 -0.030360 153 0 76
0.088599 -0.042050 0.539623 255 0 0
0.601913 0.152739 0.011381 153 76 0
-0.582897 0.202486 -0.374366 76 0 153
0.269696 0.385750 -0.606942 255 0 0
-0.357936 -0.284867 -0.505048 127 0 127
-0.571250 -0.496781 0.606533 255 0 0
0.513374 -0.215711 -0.568722 76 0 153
0.512734 -0.097079 -0.467859 127 127 0
-0.380174 0.183894 0.594008 76 0 153
-0.582897 0.108607 0.051654 76 0 153
0.563693 0.556795 -0.263793 204 51 127
-0.055771 -0.535559 -0.289595 153 0 76
-0.557417 -0.079116 -0.285611 0 255 0
0.380569 0.444347 0.606533 76 0 153
-0.531937 0.420065 -0.051478 0 127 127
-0.579036 -0.531557 -0.606942 0 0 255
-0.299853 0.518140 0.468240 204 51 127
-0.019219 -0.470258 -0.530528 127 0 127
-0.271364 -0.347045 0.606533 255 0 0
-0.531937 0.327054 0.227150 0 127 127
0.131054 0.267656 0.435858 153 0 76
-0.312545 0.569100 0.526672 204 51 127
0.123631 -0.535559 -0.603458 0 0 255
-0.615415 -0.586519 -0.254764 76 0 153
-0.071237 -0.490017 0.027227 0 127 127
0.068917 -0.042940 -0.530528 127 0 127
0.216189 0.569100 0.507633 204 51 127
0.282670 0.267656 -0.218286 153 0 76
0.425655 -0.586519 -0.287489 153 0 76
-0.531937 0.486450 -0.072359 0 127 127
-0.582897 0.241936 0.165914 76 0 153
-0.621116 0.488375 -0.517293 76 0 153
0.601913 0.305772 -0.536887 153 76 0
0.080616 0.318652 -0.568722 76 0 153
-0.621116 0.269696 0.303288 76 0 153
0.217495 0.280396 0.121708 153 0 76
0.481391 0.254916 -0.521131 76 153 0
-0.059775 -0.269387 -0.505048 127 0 127
0.601913 0.231858 -0.502882 153 76 0
0.601913 -0.474709 -0.017354 153 76 0
0.601913 -0.182696 -0.249007 153 76 0
0.563694 0.049297 -0.533936 153 76 0
0.493732 -0.490017 0.270268 0 127 127
0.387136 0.569100 0.340850 204 51 127
-0.503542 -0.535559 -0.065357 153 0 76
-0.085390 -0.140270 0.565103 255 0 0
-0.557417 -0.221980 0.501948 0 255 0
-0.023803 0.480932 -0.530528 76 153 0
0.512734 -0.055024 -0.098317 127 127 0
-0.582897 0.493788 0.107634 76 0 153
-0.278314 0.518140 0.097314 204 51 127
-0.464438 -0.535559 -0.134290 153 0 76
0.136659 -0.535559 -0.505926 153 0 76
0.538214 0.394847 0.505959 127 0 127
-0.423653 -0.367183 -0.505048 127 0 127
-0.582897 0.542229 0.137483 204 51 127
0.229054 -0.490017 0.005757 0 127 127
-0.131552 -0.147709 -0.568722 76 0 153
-0.462535 0.267630 -0.606942 255 0 0
0.497203 0.267656 -0.435668 153 0 76
0.563694 -0.286930 -0.144217 153 76 0
-0.572258 0.341262 0.502181 0 255 0
0.193432 0.518140 0.296816 204 51 127
0.563693 -0.561718 -0.591614 153 0 76
0.563694 0.220574 -0.147954 153 76 0
-0.621116 0.306773 -0.421528 76 0 153
-0.420519 -0.396136 0.606533 255 0 0
-0.582897 0.530385 -0.190179 204 51 127
-0.621116 0.265023 0.547850 76 0 153
0.445306 0.518140 0.311360 204 51 127
0.397637 -0.586519 0.571798 255 0 0
0.601913 0.161903 0.092455 153 76 0
-0.180908 -0.572817 -0.606942 153 0 76
-0.213563 -0.105170 0.539623 255 0 0
0.396929 -0.502757 -0.235810 0 127 127
-0.144874 -0.502757 0.380354 0 127 127
0.352112 0.518140 -0.604783 255 0 0
0.601913 -0.453948 -0.178746 153 76 0
0.520526 0.156475 0.606533 255 0 0
-0.553740 0.219418 0.606533 76 0 153
0.563694 -0.333239 -0.544719 153 76 0
0.092492 0.490597 -0.606942 255 0 0
-0.621116 0.275885 -0.085089 76 0 153
0.601913 0.389622 -0.369711 153 76 0
0.563694 -0.531647 -0.295367 153 76 0
-0.373133 -0.047387 0.565103 255 0 0
0.159989 -0.586519 -0.463647 153 0 76
0.003793 0.022463 0.568313 255 0 0
-0.557417 0.334602 -0.159084 0 127 127
-0.296388 -0.278909 -0.505048 127 0 127
0.537429 -0.355009 -0.505048 127 0 127
0.601913 -0.399282 0.525585 153 76 0
0.430923 -0.586519 -0.102184 153 0 76
0.427099 -0.570222 -0.606942 153 0 76
-0.286304 -0.414988 -0.505048 127 0 127
-0.557417 -0.142778 -0.366545 0 255 0
0.038565 0.381398 0.568313 76 0 153
0.512734 0.264905 0.128227 127 0 127
-0.621116 -0.030098 0.168448 76 0 153
-0.582897 0.007362 -0.360060 76 0 153
0.066070 -0.159872 -0.505048 127 0 127
-0.090573 0.569100 -0.435822 204 51 127
-0.168560 0.518140 0.057031 204 51 127
-0.456398 0.518140 -0.562111 76 0 153
0.126953 0.569100 0.472436 204 51 127
0.563694 -0.438948 -0.411191 153 76 0
0.375485 0.388637 0.539623 76 0 153
-0.318456 -0.586519 0.402885 153 0 76
-0.118279 -0.371888 -0.606942 0 0 255
0.514327 -0.011064 0.606533 255 0 0
-0.494294 0.211532 0.568313 76 0 153
-0.557417 0.295497 0.499852 0 127 127
-0.370825 -0.535559 -0.251839 153 0 76
-0.563340 0.518140 0.385015 204 51 127
-0.347907 0.569100 -0.037649 204 51 127
0.174296 0.337445 -0.505048 76 153 0
0.037232 0.429089 -0.505048 76 153 0
-0.111606 0.273000 -0.530528 76 153 0
-0.452858 -0.586519 0.403886 153 0 76
0.601913 0.394977 0.502655 153 76 0
0.601913 -0.456457 -0.226271 153 76 0
0.285152 0.166313 0.606533 255 0 0
-0.308102 -0.045447 -0.568722 76 0 153
-0.385862 -0.490017 0.385997 0 127 127
-0.245952 0.173048 0.568313 255 0 0
-0.531937 0.476535 0.112607 0 127 127
-0.279026 -0.147076 0.568313 255 0 0
-0.582897 -0.097017 -0.209293 76 0 153
-0.078778 -0.535559 -0.357618 153 0 76
0.601913 0.391540 -0.137361 153 76 0
-0.531937 -0.231866 0.275072 0 255 0
0.601913 -0.284280 -0.363574 153 76 0
-0.531937 0.313185 0.080476 0 127 127
-0.487231 -0.490017 -0.093742 0 127 127
-0.621116 0.161301 -0.497895 76 0 153
-0.557417 0.432196 0.046472 0 127 127
-0.510802 -0.075949 -0.555983 76 0 153
0.351072 -0.535559 0.129532 153 0 76
0.534304 -0.586519 -0.126936 153 0 76
0.538214 0.465191 -0.467250 127 0 127
-0.223751 0.178779 -0.568722 76 0 153
0.601913 0.123664 0.547415 153 76 0
0.036368 -0.216537 -0.530528 127 0 127
-0.621116 -0.153152 -0.346506 76 0 153
0.238224 0.191924 -0.555983 76 0 153
-0.055730 0.518140 -0.285468 204 51 127
0.046449 0.397449 -0.606942 255 0 0
0.385224 0.028602 0.568313 255 0 0
0.125990 -0.303304 0.606533 255 0 0
0.601913 -0.221165 0.053471 153 76 0
0.538214 -0.255186 -0.128866 127 127 0
0.531389 0.298807 -0.606942 255 0 0
-0.511471 -0.490017 -0.046908 0 127 127
-0.016048 -0.115270 0.565103 255 0 0
-0.261968 -0.586519 0.436237 153 0 76
0.044703 -0.031866 -0.568722 76 0 153
0.075551 -0.452630 0.539623 255 0 0
0.429586 -0.246873 0.568313 255 0 0
0.374609 0.398535 -0.568722 255 0 0
-0.395209 0.019142 0.539623 255 0 0
-0.557417 -0.393189 0.503364 0 255 0
-0.518083 -0.490017 0.337914 0 127 127
0.238947 0.569100 -0.107576 204 51 127
-0.357173 -0.008632 0.568313 255 0 0
-0.026941 0.521354 -0.606942 204 51 127
0.554451 -0.488724 0.084530 204 51 127
0.378939 -0.222218 -0.568722 76 0 153
-0.432725 0.416762 -0.606942 255 0 0
-0.183083 -0.329006 0.606533 255 0 0
-0.191581 -0.167560 0.539623 255 0 0
-0.338854 -0.515497 -0.529817 127 0 127
-0.410235 0.569100 -0.378416 204 51 127
-0.231664 0.527426 0.568313 76 0 153
0.406678 0.518140 -0.398863 204 51 127
-0.506860 -0.502757 -0.454922 0 127 127
-0.246502 0.014749 -0.568722 76 0 153
-0.226017 0.280396 0.014127 153 0 76
0.563694 -0.466540 -0.579220 153 76 0
0.512734 0.272898 0.453243 127 0 127
-0.139058 0.267656 0.317278 153 0 76
-0.294342 0.169736 -0.568722 76 0 153
-0.043491 -0.543712 0.606533 255 0 0
0.332644 -0.502757 -0.263561 0 127 127
0.038636 -0.490017 -0.269434 0 127 127
-0.621116 0.421575 -0.541062 76 0 153
0.069181 -0.490017 0.087086 0 127 127
0.316042 0.569100 0.083991 204 51 127
0.001407 0.280396 0.432918 153 0 76
-0.087339 0.339732 -0.568722 76 0 153
0.538214 -0.281451 0.520269 127 127 0
-0.582897 -0.262137 -0.464530 76 0 153
-0.415782 -0.535559 -0.471656 153 0 76
-0.388098 0.518140 -0.585756 204 51 127
-0.168474 -0.423324 -0.530528 127 0 127
-0.536647 0.518140 -0.544446 204 51 127
0.563694 0.182230 -0.560579 153 76 0
-0.233229 -0.379939 -0.568722 0 0 255
-0.219931 0.569100 -0.541535 204 51 127
0.512734 0.375138 0.131127 127 0 127
0.411905 -0.535559 -0.268533 153 0 76
0.563694 0.502797 0.208139 153 76 0
-0.181902 0.518140 -0.221738 204 51 127
-0.582897 -0.483349 0.076321 76 0 153
-0.621116 -0.169194 0.219073 76 0 153
-0.582897 -0.094853 -0.425290 76 0 153
-0.621116 -0.356087 0.518022 76 0 153
-0.299754 -0.497589 0.565103 255 0 0
0.269201 0.245503 -0.555983 76 0 153
0.563694 0.392396 0.191469 153 76 0
-0.582897 0.009773 0.334290 76 0 153
0.601913 0.047355 -0.005482 153 76 0
-0.586079 -0.056410 0.565128 76 0 153
0.468617 0.518140 -0.246044 204 51 127
0.512734 -0.212324 -0.065838 127 127 0
-0.367073 0.280396 0.483050 153 0 76
0.600121 -0.402820 -0.606942 153 76 0
-0.531937 -0.089198 -0.382585 0 255 0
-0.258040 -0.503141 -0.530528 127 0 127
-0.411206 -0.586519 -0.280053 153 0 76
-0.621116 -0.437992 -0.377342 76 0 153
-0.573342 0.324944 0.238890 0 255 0
-0.426234 0.518140 -0.155375 204 51 127
0.151695 -0.490017 -0.334525 0 127 127
0.538214 -0.011536 0.357421 127 127 0
0.170434 0.518140 -0.328028 204 51 127
0.437875 -0.535559 -0.451632 153 0 76
-0.516721 -0.196767 -0.530528 127 0 127
0.243445 0.039515 -0.530528 127 0 127
-0.313661 -0.062990 0.606533 255 0 0
-0.374376 0.518140 0.066884 204 51 127
-0.582897 0.382398 0.250039 76 0 153
-0.127418 -0.586519 0.341467 153 0 76
0.161439 -0.502757 0.143772 0 127 127
0.091526 -0.293935 -0.505048 127 0 127
0.601913 -0.468721 -0.416010 153 76 0
-0.007715 -0.535559 0.456369 153 0 76
0.322946 0.095730 0.668519 153 0 76
-0.270807 0.362300 0.606533 76 0 153
-0.176936 -0.569322 0.568313 255 0 0
-0.514765 -0.299507 -0.606942 0 0 255
0.563694 0.048031 0.298519 153 76 0
-0.386718 -0.262198 0.539623 255 0 0
0.451731 0.407385 -0.555983 76 0 153
-0.168093 0.280396 0.394966 153 0 76
0.538214 -0.374243 -0.258669 127 127 0
0.379742 -0.577790 -0.606942 153 0 76
0.021044 0.256426 -0.505048 76 153 0
0.255514 0.280396 0.102867 153 0 76
-0.582897 -0.407838 -0.338193 76 0 153
0.101411 0.518140 0.118738 204 51 127
0.003781 -0.582961 0.606533 255 0 0
-0.621116 -0.313579 0.307574 76 0 153
0.377338 0.267656 0.481415 153 0 76
-0.582897 -0.448766 0.167473 76 0 153
0.271113 -0.586519 0.010550 153 0 76
-0.617931 0.202724 0.587356 76 0 153
-0.243635 0.569100 0.143022 204 51 127
0.563694 0.407460 -0.157760 153 76 0
-0.473905 0.569100 0.478571 204 51 127
0.206383 -0.586519 0.051195 153 0 76
0.330639 -0.586519 -0.480698 153 0 76
-0.592936 -0.586519 0.350908 76 0 153
0.202850 -0.502757 -0.234912 0 127 127
-0.582897 -0.470019 -0.598994 0 0 255
0.331482 -0.424006 0.568313 255 0 0
0.114774 -0.379680 -0.568722 76 0 153
0.512734 -0.424605 0.243052 127 127 0
0.282100 -0.397632 0.539623 255 0 0
0.240866 -0.535559 -0.339989 153 0 76
-0.167569 0.518140 -0.088240 204 51 127
0.538214 -0.098111 -0.394114 127 127 0
0.184193 -0.553320 0.606533 255 0 0
-0.198779 0.333540 0.568313 76 0 153
0.544080 0.569100 -0.170275 204 51 127
-0.128018 -0.535559 0.387150 153 0 76
-0.195677 0.527959 -0.606942 204 51 127
-0.312423 -0.502757 0.035191 0 127 127
0.468215 -0.330479 -0.568722 76 0 153
0.414806 0.507852 0.568313 76 0 153
-0.250761 -0.319737 -0.555983 76 0 153
0.470694 -0.463078 -0.568722 76 0 153
0.441153 -0.586519 0.263044 153 0 76
0.059046 0.518140 -0.146560 204 51 127
0.358191 0.263342 -0.590179 255 0 0
0.153436 -0.502757 0.061454 0 127 127
-0.324166 -0.570415 -0.606942 153 0 76
-0.582897 0.258542 0.558953 76 0 153
0.294415 0.324675 0.568313 76 0 153
-0.396122 -0.586519 0.582276 255 0 0
0.538214 0.447696 -0.408648 127 0 127
0.463203 -0.502757 0.288393 0 127 127
-0.472985 0.006420 -0.530528 127 0 127
0.262760 -0.200023 0.568313 255 0 0
-0.366157 -0.586519 0.155681 153 0 76
-0.542221 0.045059 -0.009485 0 255 0
0.143156 0.518140 0.177762 204 51 127
0.284597 0.518140 0.455291 204 51 127
0.223923 -0.425292 0.606533 255 0 0
0.300481 -0.292263 0.568313 255 0 0
0.566366 0.442722 0.565128 153 76 0
-0.576527 -0.486297 -0.186203 0 0 255
-0.534454 -0.586519 0.075361 153 0 76
-0.564290 -0.429150 0.241442 0 0 255
-0.427384 -0.502757 -0.335741 0 127 127
-0.621116 0.509861 0.276189 76 0 153
0.524392 0.518140 0.152160 204 51 127
0.395483 -0.421881 -0.530528 127 0 127
-0.293078 -0.502757 0.223440 0 127 127
-0.621116 0.417799 0.008802 76 0 153
0.538214 0.023270 0.134901 127 127 0
0.563694 -0.079248 -0.523847 153 76 0
-0.171977 -0.125991 0.539623 255 0 0
0.239389 0.441235 0.539623 76 0 153
-0.540021 0.045059 -0.295891 0 255 0
0.012876 -0.067455 0.568313 255 0 0
0.424572 0.267656 0.246017 153 0 76
-0.170286 -0.483747 0.539623 255 0 0
0.477160 -0.490017 -0.227654 0 127 127
-0.245794 0.475727 -0.606942 255 0 0
0.142717 0.569100 -0.141816 204 51 127
-0.582897 0.425832 -0.601695 76 0 153
-0.557417 -0.072214 -0.016259 0 255 0
0.438910 -0.540555 0.606533 255 0 0
-0.531937 -0.283120 -0.360032 0 255 0
0.393138 -0.457296 -0.505048 127 0 127
0.296891 -0.208167 0.606533 255 0 0
-0.170875 0.280396 -0.057112 153 0 76
0.272918 -0.490017 -0.121884 0 127 127
0.527819 -0.535559 -0.533398 153 0 76
-0.144049 0.280396 0.002893 153 0 76
0.058182 -0.522783 -0.568722 76 0 153
-0.330746 0.406500 0.606533 76 0 153
0.060616 -0.535559 -0.390350 153 0 76
0.468882 -0.057169 0.568313 255 0 0
0.255176 0.280396 -0.186864 153 0 76
0.601913 -0.017481 0.338853 153 76 0
-0.347600 -0.388505 0.606533 255 0 0
0.556470 0.384920 0.606533 76 0 153
-0.102326 -0.586519 0.046894 153 0 76
-0.621116 0.231327 0.295022 76 0 153
-0.621116 0.046159 -0.316736 76 0 153
0.528922 -0.063085 0.568313 255 0 0
-0.378080 0.569100 0.445718 204 51 127
-0.171200 -0.535559 -0.244391 153 0 76
0.111177 0.518140 -0.016941 204 51 127
-0.127702 0.046496 0.606533 255 0 0
0.601913 0.273688 -0.196764 153 76 0
0.563694 -0.236414 0.415553 153 76 0
0.512734 -0.056374 -0.309496 127 127 0
-0.404357 0.280396 0.504979 153 0 76
0.512734 -0.466239 0.440873 127 127 0
-0.390952 -0.502757 0.310039 0 127 127
0.601913 -0.086546 -0.130104 153 76 0
-0.401692 -0.502757 -0.201591 0 127 127
-0.256098 -0.586519 -0.605745 153 0 76
0.601913 0.392046 0.336603 153 76 0
-0.582897 0.204448 -0.054530 76 0 153
0.268666 0.403825 0.568313 76 0 153
0.089637 -0.586519 0.327665 153 0 76
-0.374626 -0.370098 -0.505048 127 0 127
0.538214 -0.346480 0.415675 127 127 0
-0.621116 -0.306587 0.032740 76 0 153
0.538214 -0.197103 -0.458082 127 127 0
0.563694 -0.174381 0.016116 153 76 0
-0.621116 -0.505319 0.330387 76 0 153
-0.530260 -0.502757 -0.118955 0 127 127
0.254531 0.270205 -0.606942 255 0 0
-0.531937 -0.464527 0.199474 0 255 0
0.224855 0.001926 0.606533 255 0 0
0.171757 -0.535559 -0.431821 153 0 76
-0.037864 -0.428290 0.606533 255 0 0
0.317912 0.569100 0.137807 204 51 127
0.469993 0.267656 -0.470643 153 0 76
0.329199 -0.104150 -0.568722 76 0 153
-0.385870 -0.502757 -0.297700 0 127 127
-0.621116 0.561423 0.512014 76 0 153
0.160584 0.569100 0.169217 204 51 127
-0.566896 0.569100 0.401274 204 51 127
-0.179171 -0.502757 -0.455967 0 127 127
0.521714 0.569100 0.006498 204 51 127
0.512734 -0.493782 0.129215 127 127 0
-0.582897 -0.117440 0.358511 76 0 153
-0.292172 0.280396 0.009847 153 0 76
-0.621116 -0.214008 -0.292571 76 0 153
0.404317 -0.306874 -0.530528 127 0 127
0.441449 -0.502757 -0.167809 0 127 127
-0.241533 0.518140 -0.475359 204 51 127
-0.526920 -0.145178 -0.568722 76 0 153
0.601913 0.394596 0.057486 153 76 0
-0.203334 0.569100 0.275407 204 51 127
-0.441449 0.358667 -0.530528 76 153 0
0.424812 -0.535559 0.342479 153 0 76
0.069662 -0.502757 -0.462626 0 127 127
-0.557417 -0.107165 0.438994 0 255 0
0.257368 0.267656 -0.436343 153 0 76
-0.193206 0.410486 -0.568722 255 0 0
0.133852 -0.435512 -0.530528 127 0 127
-0.022067 0.569100 -0.218749 204 51 127
0.314030 0.458316 -0.568722 76 0 153
-0.582897 0.032969 0.516092 76 0 153
0.601913 0.497721 -0.337143 153 76 0
-0.368277 0.281655 0.568313 76 0 153
0.251149 0.288700 -0.530528 76 153 0
0.157187 -0.502757 -0.383691 0 127 127
0.512734 0.042721 0.391528 127 127 0
0.492030 0.569100 -0.576741 204 51 127
-0.267627 -0.447420 0.568313 255 0 0
-0.398935 0.119235 0.606533 255 0 0
-0.263291 0.569100 0.228205 204 51 127
-0.554596 0.509714 -0.313602 0 127 127
0.601913 -0.459573 0.222317 153 76 0
-0.031477 0.280396 0.188940 153 0 76
0.206986 -0.035977 -0.530528 127 0 127
-0.621116 -0.136051 -0.585594 76 0 153
0.563694 0.541593 0.083760 153 76 0
-0.274729 0.042341 -0.555983 76 0 153
-0.342762 0.280396 -0.038967 153 0 76
-0.312255 -0.535559 0.490965 153 0 76
0.563694 0.164467 -0.437952 153 76 0
-0.344032 -0.452727 -0.568722 76 0 153
-0.573500 0.281688 0.396403 0 255 0
-0.151134 0.569100 0.120842 204 51 127
0.420126 0.518140 0.143509 204 51 127
-0.145300 -0.216506 -0.505048 127 0 127
0.202429 -0.499943 0.606533 255 0 0
-0.439170 0.569100 0.261302 204 51 127
0.512734 0.407365 -0.339341 127 0 127
0.155771 0.518140 -0.039353 204 51 127
-0.426799 -0.535559 -0.069940 153 0 76
0.512734 -0.436616 0.374910 127 127 0
-0.621116 -0.324650 0.235817 76 0 153
-0.513924 0.569100 0.238312 204 51 127
-0.621116 -0.365460 0.442114 76 0 153
0.538214 -0.427672 -0.521125 127 0 127
-0.565879 -0.429150 0.007523 0 0 255
0.440008 -0.490017 -0.081750 0 127 127
0.203613 0.280396 0.021629 153 0 76
0.115697 -0.535559 -0.348896 153 0 76
-0.621116 -0.522113 0.173869 76 0 153
-0.477881 -0.105615 -0.530528 127 0 127
0.563694 -0.506525 -0.051548 153 76 0
-0.345615 -0.586519 -0.098720 153 0 76
0.057589 -0.502757 0.255730 0 127 127
-0.103711 -0.586519 0.482897 153 0 76
-0.621116 -0.080007 0.512042 76 0 153
-0.582897 0.014838 0.427181 76 0 153
-0.557417 -0.458806 -0.427973 0 255 0
-0.002263 -0.586519 0.024811 153 0 76
0.591989 0.569100 -0.192160 153 76 0
0.119122 0.000906 0.568313 255 0 0
-0.471833 -0.502757 -0.337139 0 127 127
-0.621116 0.086393 -0.406409 76 0 153
0.530447 0.254916 0.200182 127 0 127
0.471499 -0.054255 -0.555983 76 0 153
-0.297718 -0.535559 -0.453018 153 0 76
0.130965 0.352858 -0.568722 255 0 0
-0.582897 -0.505955 0.436605 76 0 153
-0.431616 0.518140 0.215344 204 51 127
-0.025933 -0.462487 0.539623 255 0 0
-0.582897 0.117122 -0.455437 76 0 153
-0.351023 -0.233254 0.539623 255 0 0
-0.313742 -0.345357 -0.530528 127 0 127
0.351701 -0.440421 -0.505048 127 0 127
0.421628 -0.502757 -0.118289 0 127 127
-0.394850 -0.455322 -0.505048 127 0 127
0.538214 0.415506 0.204885 127 0 127
-0.523107 0.032703 0.606533 255 0 0
0.011802 -0.337787 0.568313 255 0 0
-0.367987 -0.422691 0.568313 255 0 0
-0.166580 0.168962 -0.568722 76 0 153
-0.557417 -0.125050 0.033028 0 255 0
-0.531937 -0.119295 0.265619 0 255 0
-0.550155 0.569100 -0.275710 204 51 127
0.463632 0.289689 -0.530528 76 153 0
0.310907 0.280396 0.252860 153 0 76
0.601913 -0.517417 -0.314788 153 76 0
0.563694 0.209819 -0.342125 153 76 0
-0.088781 -0.535559 -0.271175 153 0 76
-0.617931 -0.543083 0.601635 255 0 0
-0.169877 -0.490017 -0.214678 0 127 127
-0.146366 -0.371354 -0.530528 127 0 127
-0.621116 0.397494 0.062151 76 0 153
-0.582897 -0.391170 -0.045075 76 0 153
0.417750 0.518140 0.461557 204 51 127
-0.442481 -0.521526 -0.606942 0 0 255
-0.510701 0.518140 0.438541 204 51 127
-0.557417 -0.251410 0.329955 0 255 0
-0.582897 0.059215 -0.606800 76 0 153
0.563694 0.074155 0.510280 153 76 0
0.426034 0.518140 0.516555 204 51 127
-0.576527 -0.426779 0.447325 0 0 255
0.044563 -0.515497 0.543475 255 0 0
0.428131 0.518140 -0.537488 204 51 127
0.303041 0.509714 0.553303 76 0 153
-0.531937 -0.181476 -0.348919 0 255 0
-0.557417 -0.412727 0.142231 0 255 0
-0.445944 -0.502757 -0.141740 0 127 127
0.538516 0.281512 -0.568722 255 0 0
-0.459424 -0.488743 -0.568722 76 0 153
-0.621116 0.041977 0.493350 76 0 153
-0.621116 -0.162889 -0.208117 76 0 153
-0.232756 -0.509834 -0.568722 76 0 153
-0.437676 -0.586519 -0.070354 153 0 76
-0.372007 -0.557190 0.568313 255 0 0
0.256861 0.431927 -0.530528 76 153 0
0.272473 -0.324791 -0.606942 0 0 255
-0.093296 -0.409446 -0.606942 0 0 255
-0.096383 0.518140 0.037445 204 51 127
0.194158 -0.388368 -0.606942 0 0 255
-0.162723 0.518140 0.158126 204 51 127
-0.096342 0.309497 0.606533 76 0 153
-0.206656 0.009207 0.606533 255 0 0
-0.369894 0.267656 -0.421070 153 0 76
0.136656 0.118138 -0.555983 76 0 153
-0.621116 -0.265953 0.018722 76 0 153
-0.260164 -0.395982 -0.530528 127 0 127
0.533987 0.044494 0.539623 255 0 0
-0.621116 0.416848 0.338853 76 0 153
-0.582897 0.122728 0.256591 76 0 153
0.538214 -0.291392 0.014247 127 127 0
0.141176 -0.586519 0.510403 153 0 76
0.298009 0.280396 0.051363 153 0 76
0.345129 0.169709 -0.568722 76 0 153
-0.621116 0.349331 -0.377085 76 0 153
-0.251925 0.025696 0.539623 255 0 0
-0.557417 -0.276426 0.402111 0 255 0
-0.066397 0.287309 0.568313 76 0 153
0.036914 -0.502757 0.350543 0 127 127
-0.185644 -0.490017 0.354132 0 127 127
0.035902 0.569100 0.075743 204 51 127
0.113886 -0.502757 -0.132628 0 127 127
0.104491 0.280396 -0.256154 153 0 76
0.506088 -0.535559 -0.168284 153 0 76
0.538214 -0.039982 -0.158679 127 127 0
-0.186222 -0.490017 0.161364 0 127 127
0.563694 -0.041754 -0.108583 153 76 0
-0.426223 -0.535559 0.291106 153 0 76
0.563694 -0.400769 -0.372316 153 76 0
-0.333127 -0.586519 0.345117 153 0 76
-0.100477 -0.502757 -0.160945 0 127 127
0.512734 -0.179776 0.129385 127 127 0
-0.557417 0.484258 -0.420274 0 127 127
0.472405 -0.535559 0.525617 153 0 76
0.338286 0.334735 -0.568722 76 0 153
-0.437587 0.518140 -0.484906 204 51 127
0.591468 0.032995 0.606533 255 0 0
0.512734 0.385228 -0.503433 127 0 127
-0.217403 0.458873 -0.568722 255 0 0
-0.582897 0.507119 -0.019091 76 0 153
0.209413 0.045059 0.551774 255 0 0
-0.072590 -0.026663 -0.568722 76 0 153
-0.129347 0.082814 0.656740 153 0 76
-0.582897 -0.581371 0.496389 76 0 153
-0.582897 0.240330 -0.028593 76 0 153
0.342506 -0.063455 -0.568722 76 0 153
0.496626 0.518140 0.274653 204 51 127
-0.497802 0.267656 0.213675 153 0 76
0.596803 -0.552247 0.565128 153 76 0
-0.621116 -0.228773 0.406929 76 0 153
0.372951 -0.535559 -0.572105 0 0 255
0.317647 -0.175588 0.539623 255 0 0
-0.582897 0.326571 -0.297311 76 0 153
-0.582897 -0.254263 0.210798 76 0 153
0.463693 0.509714 -0.519608 76 153 0
-0.460796 0.031649 0.565103 255 0 0
-0.262568 0.280396 -0.483781 153 0 76
0.034093 -0.231368 0.606533 255 0 0
-0.601814 0.424585 0.606533 76 0 153
0.072119 -0.072968 -0.505048 127 0 127
-0.408149 0.263342 -0.598756 255 0 0
0.360393 0.556929 0.568313 76 0 153
-0.621116 -0.271782 0.098048 76 0 153
-0.187395 0.267656 0.193696 153 0 76
-0.618924 0.130464 0.565128 76 0 153
0.147462 0.358980 0.606533 76 0 153
0.563694 0.530812 0.017268 153 76 0
-0.582897 0.201995 0.464931 76 0 153
0.601913 0.156562 0.300207 153 76 0
-0.140019 -0.148291 0.539623 255 0 0
-0.489666 -0.419394 -0.568722 0 0 255
-0.248238 -0.116771 0.539623 255 0 0
-0.531937 -0.107545 -0.134175 0 255 0
0.061503 -0.062193 0.565103 255 0 0
-0.329113 -0.355113 0.606533 255 0 0
0.563694 -0.440118 0.193874 153 76 0
0.472482 0.569100 -0.320992 204 51 127
-0.554435 -0.302323 0.606533 255 0 0
0.601913 -0.309879 -0.006936 153 76 0
-0.010276 0.314803 0.568313 76 0 153
0.179066 -0.535559 0.072636 153 0 76
-0.501819 -0.535559 -0.329303 153 0 76
-0.166736 -0.449442 -0.505048 127 0 127
0.023731 -0.096156 -0.530528 127 0 127
0.569074 0.569100 0.199212 153 76 0
-0.557417 0.374652 0.159965 0 127 127
0.563694 -0.406052 0.419547 153 76 0
-0.140963 -0.586519 0.249512 153 0 76
-0.274547 -0.490017 0.430767 0 127 127
0.601913 0.319292 0.297689 153 76 0
-0.213612 0.280396 -0.218736 153 0 76
0.526789 0.535734 0.606533 76 0 153
-0.447138 -0.297189 0.539623 255 0 0
0.403736 -0.432127 -0.568722 0 0 255
-0.582897 -0.314649 -0.249836 76 0 153
0.461736 -0.457157 0.606533 255 0 0
-0.557417 -0.339404 0.134129 0 255 0
0.254624 0.448263 -0.606942 255 0 0
0.515521 0.386622 -0.606942 255 0 0
-0.557417 0.385914 0.101837 0 127 127
0.563694 0.197073 0.385878 153 76 0
-0.557417 -0.333619 -0.169768 0 255 0
0.346792 -0.088827 0.539623 255 0 0
-0.412297 -0.422372 -0.568722 76 0 153
-0.582897 0.231406 -0.173263 76 0 153
0.567563 0.569100 -0.056690 153 76 0
-0.471414 0.113159 0.606533 255 0 0
0.512734 -0.164623 0.345033 127 127 0
0.176066 -0.481407 0.539623 255 0 0
-0.376421 0.072315 -0.555983 76 0 153
0.601913 0.054847 -0.398173 153 76 0
-0.557417 -0.430286 0.558502 255 0 0
-0.582897 0.165277 0.331743 76 0 153
0.554139 -0.449906 -0.138631 204 51 127
0.601913 -0.585916 -0.076021 153 76 0
-0.143882 -0.177320 0.606533 255 0 0
0.206616 -0.586519 -0.297080 153 0 76
-0.114419 -0.031876 0.568313 255 0 0
0.563693 -0.556185 -0.227495 153 0 76
0.538214 0.444446 0.481861 127 0 127
-0.352277 -0.502757 -0.329065 0 127 127
-0.531937 -0.027101 0.325433 0 255 0
-0.582897 0.269112 0.231915 76 0 153
0.512734 -0.420592 0.407608 127 127 0
0.601913 0.352724 -0.337373 153 76 0
-0.531937 -0.299694 0.094611 0 255 0
-0.445198 -0.586519 0.103880 153 0 76
0.024848 0.569100 0.510317 204 51 127
0.524414 0.254916 -0.119360 127 0 127
0.334042 -0.486253 -0.568722 0 0 255
0.069133 -0.100633 -0.568722 76 0 153
0.538214 -0.031828 0.136119 127 127 0
0.512734 -0.272489 0.292505 127 127 0
0.563694 -0.371241 -0.470489 153 76 0
-0.263007 -0.535559 -0.086520 153 0 76
-0.091043 -0.118486 -0.505048 127 0 127
0.015030 0.286774 -0.530528 76 153 0
0.601913 -0.183687 0.496713 153 76 0
0.552569 -0.365984 -0.555983 76 0 153
-0.000483 -0.535559 -0.343452 153 0 76
-0.531937 0.358028 0.533445 0 127 127
-0.132120 0.267656 0.534344 153 0 76
-0.565469 -0.437846 0.117208 0 0 255
-0.595858 0.322846 0.565128 76 0 153
0.171350 0.172545 -0.555983 76 0 153
0.405361 -0.490017 0.477398 0 127 127
-0.564685 -0.426231 -0.387564 0 0 255
-0.553646 -0.202744 -0.530528 127 0 127
0.102390 0.254916 0.545275 76 0 153
-0.621116 -0.450821 -0.501874 76 0 153
-0.208348 0.313848 -0.568722 76 0 153
-0.089644 0.267431 0.606533 76 0 153
0.378276 0.018908 -0.568722 76 0 153
-0.582897 0.030516 0.248272 76 0 153
-0.531937 -0.209771 0.396503 0 255 0
0.563694 0.339015 0.353416 153 76 0
0.512734 -0.338863 0.065084 127 127 0
-0.312896 0.562730 0.581564 76 0 153
-0.573342 0.307247 -0.356433 0 255 0
-0.531937 0.389766 -0.001625 0 127 127
0.308303 -0.502757 -0.070469 0 127 127
0.563694 -0.142426 0.452331 153 76 0
-0.472174 -0.030114 0.568313 255 0 0
-0.087664 0.002044 0.565103 255 0 0
-0.621116 0.396980 0.432849 76 0 153
-0.071265 0.225851 -0.555983 76 0 153
-0.621116 -0.104640 0.007538 76 0 153
-0.582897 -0.165777 0.480855 76 0 153
0.388784 -0.586519 -0.001047 153 0 76
-0.165299 -0.490017 -0.338418 0 127 127
-0.621116 -0.379887 -0.431690 76 0 153
-0.064020 0.480688 0.667748 76 153 0
-0.270999 -0.430624 -0.555983 76 0 153
-0.392583 0.389207 -0.530528 76 153 0
-0.597963 0.569100 0.283572 76 0 153
-0.434062 0.072894 0.669151 153 0 76
-0.250778 -0.546097 0.568313 255 0 0
-0.621116 0.135202 0.299409 76 0 153
-0.298260 0.424389 0.565103 76 0 153
-0.199604 0.463191 0.656740 76 153 0
-0.557417 -0.186425 0.038279 0 255 0
0.153699 -0.210272 0.539623 255 0 0
-0.557417 -0.060150 0.272502 0 255 0
-0.576527 -0.426992 -0.144397 0 0 255
0.132752 0.022253 0.539623 255 0 0
0.512734 0.002499 0.335415 127 127 0
-0.009348 0.415446 -0.505048 76 153 0
0.356352 0.569100 -0.037097 204 51 127
0.520813 -0.586519 0.464510 153 0 76
0.601913 -0.048212 0.562193 153 76 0
0.409849 -0.073113 -0.530528 127 0 127
-0.190545 0.316486 0.606533 76 0 153
0.054730 -0.586519 -0.221143 153 0 76
-0.582897 0.483979 0.295272 76 0 153
0.472778 -0.586519 0.185989 153 0 76
-0.050915 -0.490017 -0.035851 0 127 127
0.601913 -0.378609 -0.580038 153 76 0
0.563694 -0.002684 -0.475145 153 76 0
-0.557417 -0.003116 -0.298698 0 255 0
-0.475662 0.509714 0.543038 76 0 153
0.601913 -0.469420 0.549396 153 76 0
0.562698 0.337711 -0.555983 76 0 153
-0.248219 0.280396 0.081140 153 0 76
-0.582897 -0.577653 0.310466 76 0 153
0.563694 0.247897 0.160266 153 76 0
-0.445213 -0.311475 -0.606942 0 0 255
0.009257 -0.225367 0.568313 255 0 0
-0.369373 0.280396 -0.181589 153 0 76
0.601913 0.312906 0.370014 153 76 0
-0.091640 -0.174060 0.606533 255 0 0
-0.090708 -0.490017 0.504169 0 127 127
-0.557417 0.043160 -0.121106 0 255 0
0.310930 -0.502757 -0.503258 0 127 127
-0.557417 -0.376105 0.258260 0 255 0
0.554890 0.569100 -0.401158 204 51 127
-0.007365 0.475868 0.565103 76 0 153
0.139814 0.320391 0.568313 76 0 153
0.161361 -0.290713 -0.568722 0 0 255
-0.251064 0.352337 0.568313 76 0 153
-0.582897 0.548805 -0.461473 204 51 127
-0.582897 -0.198826 -0.248712 76 0 153
0.304518 0.569100 -0.156424 204 51 127
