-0.057487 0.758166 0.600127 0.300000 0.600000 0.000000
-0.057487 0.782329 0.558798 0.300000 0.600000 0.000000
0.050220 0.674067 -0.035469 0.300000 0.600000 0.000000
-0.320886 -0.449727 -0.096278 0.500000 0.500000 0.000000
-0.049728 0.846343 0.035077 0.300000 0.600000 0.000000
0.000835 -0.711349 -0.059826 0.600000 0.000000 0.300000
-0.394361 -0.449727 -0.128477 0.500000 0.500000 0.000000
-0.033077 0.738375 0.061246 0.300000 0.600000 0.000000
0.016703 0.921695 0.346678 0.300000 0.600000 0.000000
0.344249 -0.083526 -0.127537 0.000000 1.000000 0.000000
0.094594 -0.391301 -0.065559 0.600000 0.300000 0.000000
0.333575 -0.144302 -0.107799 0.000000 1.000000 0.000000
-0.172749 -0.374131 -0.040233 0.300000 0.000000 0.600000
0.391118 -0.330533 -0.159597 0.000000 1.000000 0.000000
-0.025772 0.883720 0.091062 0.300000 0.600000 0.000000
0.050220 0.526844 0.647359 0.300000 0.600000 0.000000
-0.044146 -0.663958 -0.043503 0.300000 0.000000 0.600000
0.050220 0.372892 -0.112185 0.300000 0.600000 0.000000
-0.005200 0.923798 0.330704 0.300000 0.600000 0.000000
0.050220 0.836896 0.476539 0.300000 0.600000 0.000000
0.093302 -0.322239 -0.139069 0.300000 0.000000 0.600000
0.050220 0.583024 -0.113657 0.300000 0.600000 0.000000
-0.057487 -0.079832 -0.139739 0.300000 0.600000 0.000000
0.023169 -0.711349 -0.006142 0.600000 0.000000 0.300000
-0.100569 -0.563368 -0.128082 0.300000 0.000000 0.600000
-0.089749 -0.573339 -0.209697 0.300000 0.000000 0.600000
-0.250358 -0.367391 -0.055558 0.300000 0.000000 0.600000
0.050220 0.455737 -0.093049 0.300000 0.600000 0.000000
0.333575 -0.193901 -0.115210 0.000000 1.000000 0.000000
0.016221 0.236037 -0.061774 0.300000 0.600000 0.000000
0.050220 0.171221 -0.083551 0.300000 0.600000 0.000000
0.093302 -0.509197 -0.112225 0.300000 0.000000 0.600000
-0.100569 -0.538393 -0.148878 0.300000 0.000000 0.600000
0.237165 -0.454014 -0.045077 0.600000 0.300000 0.000000
0.113430 -0.334856 -0.051643 0.600000 0.300000 0.000000
-0.057487 0.250243 -0.140779 0.300000 0.600000 0.000000
-0.100569 -0.401035 -0.106400 0.300000 0.000000 0.600000
0.093302 -0.501952 -0.141227 0.300000 0.000000 0.600000
0.029908 0.601238 -0.035995 0.300000 0.600000 0.000000
0.353571 -0.154633 -0.073635 0.000000 1.000000 0.000000
-0.422954 -0.199049 -0.102576 0.500000 0.500000 0.000000
-0.057487 0.780849 0.000018 0.300000 0.600000 0.000000
-0.100569 -0.587063 -0.056129 0.300000 0.000000 0.600000
-0.234112 -0.482457 -0.080349 0.300000 0.000000 0.600000
0.333575 -0.178439 -0.134487 0.000000 1.000000 0.000000
-0.052428 0.633170 0.596958 0.300000 0.600000 0.000000
-0.100569 -0.373417 -0.081378 0.300000 0.000000 0.600000
0.355873 -0.409539 -0.159597 0.000000 1.000000 0.000000
-0.005167 0.523808 -0.163413 0.300000 0.600000 0.000000
0.374945 -0.441726 -0.078442 0.000000 1.000000 0.000000
-0.042816 0.039310 -0.168210 0.300000 0.600000 0.000000
-0.109730 -0.666177 -0.120224 0.600000 0.000000 0.300000
-0.037798 -0.233134 -0.195810 0.300000 0.000000 0.600000
-0.100569 -0.370443 -0.126538 0.300000 0.000000 0.600000
0.050220 0.718919 0.596803 0.300000 0.600000 0.000000
0.050220 0.893370 0.175867 0.300000 0.600000 0.000000
-0.073624 -0.364271 -0.018692 0.300000 0.000000 0.600000
-0.052531 0.875408 0.473679 0.300000 0.600000 0.000000
0.018337 -0.480869 -0.018692 0.300000 0.000000 0.600000
-0.077591 -0.411018 -0.018692 0.300000 0.000000 0.600000
0.025728 -0.024385 -0.061774 0.300000 0.600000 0.000000
0.267778 -0.449727 -0.111113 0.000000 1.000000 0.000000
-0.026575 0.674059 -0.121240 0.300000 0.600000 0.000000
-0.035004 0.818797 0.255620 0.300000 0.600000 0.000000
-0.057487 0.880296 0.358394 0.300000 0.600000 0.000000
0.131016 -0.332235 -0.156451 0.600000 0.300000 0.000000
0.050220 0.695522 -0.056694 0.300000 0.600000 0.000000
0.050220 0.636329 0.664692 0.300000 0.600000 0.000000
0.042441 0.855443 0.518860 0.300000 0.600000 0.000000
-0.122110 -0.701815 -0.190670 0.600000 0.000000 0.300000
-0.100569 -0.513661 -0.138345 0.300000 0.000000 0.600000
-0.050589 0.823127 0.559865 0.300000 0.600000 0.000000
0.333575 -0.238675 -0.112545 0.000000 1.000000 0.000000
-0.002501 0.282489 -0.169480 0.300000 0.600000 0.000000
-0.223540 -0.332235 -0.146686 0.300000 0.000000 0.600000
-0.100172 -0.598099 -0.194041 0.300000 0.000000 0.600000
-0.025131 0.781196 0.122587 0.300000 0.600000 0.000000
0.061302 -0.542014 -0.212563 0.300000 0.000000 0.600000
-0.038336 0.219979 -0.062089 0.300000 0.600000 0.000000
0.093302 -0.577734 -0.143849 0.300000 0.000000 0.600000
-0.048701 0.854623 0.521199 0.300000 0.600000 0.000000
0.006215 0.613678 -0.146250 0.300000 0.600000 0.000000
-0.178020 -0.462579 -0.190878 0.300000 0.000000 0.600000
-0.057487 0.661617 -0.041332 0.300000 0.600000 0.000000
0.038848 -0.305660 -0.212563 0.300000 0.000000 0.600000
-0.296155 -0.440370 -0.155627 0.500000 0.500000 0.000000
-0.057487 0.855664 0.391916 0.300000 0.600000 0.000000
0.003259 0.248430 -0.169480 0.300000 0.600000 0.000000
-0.308987 -0.363562 -0.122304 0.500000 0.500000 0.000000
-0.057487 0.136773 -0.085376 0.300000 0.600000 0.000000
-0.100393 -0.570949 -0.038898 0.300000 0.000000 0.600000
-0.032600 0.594358 -0.038670 0.300000 0.600000 0.000000
-0.414104 -0.436999 -0.155237 0.500000 0.500000 0.000000
0.216024 -0.359789 -0.191022 0.600000 0.300000 0.000000
-0.057487 0.692666 -0.023359 0.300000 0.600000 0.000000
0.023154 -0.663958 -0.100910 0.300000 0.000000 0.600000
0.004597 0.370698 -0.169480 0.300000 0.600000 0.000000
0.037507 -0.459914 -0.212563 0.300000 0.000000 0.600000
-0.153030 -0.483023 -0.115508 0.300000 0.000000 0.600000
-0.057487 0.714438 0.568243 0.300000 0.600000 0.000000
0.418042 -0.218003 -0.087070 0.000000 1.000000 0.000000
0.046620 0.825624 0.333695 0.300000 0.600000 0.000000
0.036638 -0.384300 -0.018692 0.300000 0.000000 0.600000
-0.100569 -0.564100 -0.080332 0.300000 0.000000 0.600000
-0.071371 -0.663958 -0.135554 0.300000 0.000000 0.600000
-0.100569 -0.334161 -0.138045 0.300000 0.000000 0.600000
-0.076841 -0.589717 -0.018692 0.300000 0.000000 0.600000
-0.267180 -0.437766 -0.157204 0.500000 0.500000 0.000000
-0.378829 -0.090726 -0.073432 0.500000 0.500000 0.000000
0.050220 -0.106885 -0.128211 0.300000 0.600000 0.000000
0.010424 -0.287996 -0.018692 0.300000 0.000000 0.600000
-0.356995 -0.124156 -0.073608 0.500000 0.500000 0.000000
-0.119976 -0.698790 -0.221518 0.600000 0.000000 0.300000
0.039877 0.073509 -0.064988 0.300000 0.600000 0.000000
-0.011757 0.792420 -0.040958 0.300000 0.600000 0.000000
-0.057487 0.882688 0.175278 0.300000 0.600000 0.000000
0.006649 0.672313 0.687734 0.300000 0.600000 0.000000
-0.049500 0.340825 -0.066797 0.300000 0.600000 0.000000
0.032254 -0.525550 -0.018692 0.300000 0.000000 0.600000
-0.056137 0.827114 0.357917 0.300000 0.600000 0.000000
0.338248 -0.130119 -0.151156 0.000000 1.000000 0.000000
-0.057118 0.899949 0.368269 0.300000 0.600000 0.000000
-0.090292 -0.663958 -0.050503 0.300000 0.000000 0.600000
0.105252 -0.389362 -0.191022 0.600000 0.300000 0.000000
0.048845 -0.593662 -0.018692 0.300000 0.000000 0.600000
-0.007774 0.664349 -0.004632 0.300000 0.600000 0.000000
-0.008186 -0.692160 0.002850 0.600000 0.000000 0.300000
0.050220 0.895720 0.256342 0.300000 0.600000 0.000000
-0.057109 -0.002932 -0.150811 0.300000 0.600000 0.000000
0.419740 -0.324928 -0.137189 0.000000 1.000000 0.000000
0.096228 -0.711349 -0.129830 0.600000 0.000000 0.300000
-0.072137 -0.309294 -0.018692 0.300000 0.000000 0.600000
0.153225 -0.332235 -0.137892 0.600000 0.300000 0.000000
-0.067365 -0.711349 -0.196994 0.600000 0.000000 0.300000
-0.100569 -0.531663 -0.106175 0.300000 0.000000 0.600000
0.057101 -0.663958 -0.066662 0.600000 0.000000 0.300000
-0.024923 0.833503 0.555965 0.300000 0.600000 0.000000
-0.057487 0.787755 0.490692 0.300000 0.600000 0.000000
-0.057487 0.489254 -0.135706 0.300000 0.600000 0.000000
-0.347163 -0.449727 -0.124277 0.500000 0.500000 0.000000
0.162004 -0.332235 -0.109338 0.600000 0.300000 0.000000
-0.007665 -0.644890 -0.212563 0.300000 0.000000 0.600000
0.163312 -0.332235 -0.082140 0.600000 0.300000 0.000000
0.024255 0.646449 0.582865 0.300000 0.600000 0.000000
0.032780 0.928414 0.274267 0.300000 0.600000 0.000000
0.050220 -0.211704 -0.094461 0.300000 0.600000 0.000000
0.046600 0.072602 -0.159667 0.300000 0.600000 0.000000
-0.020735 0.023627 -0.061774 0.300000 0.600000 0.000000
0.207327 -0.420285 -0.191022 0.600000 0.300000 0.000000
0.037183 0.594348 0.606553 0.300000 0.600000 0.000000
-0.100569 -0.642837 -0.183940 0.300000 0.000000 0.600000
-0.013882 0.698766 0.543995 0.300000 0.600000 0.000000
-0.038356 -0.663958 -0.196417 0.300000 0.000000 0.600000
-0.336789 -0.140242 -0.098590 0.500000 0.500000 0.000000
0.050220 0.857667 0.250442 0.300000 0.600000 0.000000
0.100718 -0.665208 -0.012658 0.600000 0.000000 0.300000
0.000766 0.704775 -0.108211 0.300000 0.600000 0.000000
0.210323 -0.332235 -0.070910 0.600000 0.300000 0.000000
-0.124164 -0.332235 -0.117079 0.300000 0.000000 0.600000
-0.100569 -0.259972 -0.109861 0.300000 0.000000 0.600000
0.046461 0.777170 0.469790 0.300000 0.600000 0.000000
0.333575 -0.260233 -0.112118 0.000000 1.000000 0.000000
-0.057487 0.905424 0.296692 0.300000 0.600000 0.000000
0.019380 0.501756 -0.166316 0.300000 0.600000 0.000000
-0.362941 -0.152628 -0.073432 0.500000 0.500000 0.000000
-0.049684 -0.663958 -0.070140 0.300000 0.000000 0.600000
-0.043413 0.902885 0.424475 0.300000 0.600000 0.000000
-0.047758 -0.463489 -0.212563 0.300000 0.000000 0.600000
-0.057487 0.338529 -0.088477 0.300000 0.600000 0.000000
-0.029527 -0.085146 -0.169480 0.300000 0.600000 0.000000
-0.114137 -0.332235 -0.070049 0.300000 0.000000 0.600000
0.010982 0.812005 -0.018210 0.300000 0.600000 0.000000
0.019154 0.860436 0.044906 0.300000 0.600000 0.000000
-0.110755 -0.711349 -0.073955 0.600000 0.000000 0.300000
0.049056 -0.452071 -0.018692 0.300000 0.000000 0.600000
-0.037489 0.739821 0.502975 0.300000 0.600000 0.000000
-0.057487 0.102047 -0.140167 0.300000 0.600000 0.000000
0.009892 -0.174634 -0.169480 0.300000 0.600000 0.000000
0.170799 -0.479458 -0.050119 0.600000 0.300000 0.000000
0.016894 0.530872 0.620549 0.300000 0.600000 0.000000
0.384208 -0.257010 -0.159597 0.000000 1.000000 0.000000
0.005842 0.479380 0.627328 0.300000 0.600000 0.000000
-0.036981 0.656599 -0.010751 0.300000 0.600000 0.000000
-0.363359 -0.390515 -0.073432 0.500000 0.500000 0.000000
-0.056201 -0.186261 -0.154846 0.300000 0.600000 0.000000
0.050220 0.728290 0.553883 0.300000 0.600000 0.000000
0.024327 -0.544393 -0.212563 0.300000 0.000000 0.600000
0.255913 -0.363562 -0.110144 0.000000 1.000000 0.000000
0.333575 -0.339738 -0.122166 0.000000 1.000000 0.000000
0.143705 -0.335225 -0.180387 0.600000 0.300000 0.000000
-0.119494 -0.675380 -0.084392 0.600000 0.000000 0.300000
-0.028185 -0.260178 -0.018692 0.300000 0.000000 0.600000
-0.117996 -0.483023 -0.090586 0.300000 0.000000 0.600000
0.042346 -0.233134 -0.077992 0.300000 0.600000 0.000000
-0.052575 -0.030100 -0.069905 0.300000 0.600000 0.000000
-0.036515 0.186459 -0.061849 0.300000 0.600000 0.000000
-0.267929 -0.397275 -0.073432 0.500000 0.500000 0.000000
-0.041514 0.549894 -0.159240 0.300000 0.600000 0.000000
-0.100569 -0.402308 -0.049317 0.300000 0.000000 0.600000
-0.064275 -0.690859 0.002850 0.600000 0.000000 0.300000
-0.419402 -0.284182 -0.149694 0.500000 0.500000 0.000000
-0.356367 -0.384904 -0.159571 0.500000 0.500000 0.000000
0.007917 0.447715 -0.169480 0.300000 0.600000 0.000000
-0.100569 -0.346665 -0.097865 0.300000 0.000000 0.600000
0.175207 -0.332235 -0.157998 0.600000 0.300000 0.000000
0.049718 0.817779 0.018431 0.300000 0.600000 0.000000
-0.182961 -0.410713 -0.040233 0.300000 0.000000 0.600000
0.024353 -0.077121 -0.061774 0.300000 0.600000 0.000000
-0.010593 -0.233134 -0.163661 0.300000 0.600000 0.000000
-0.083375 -0.492142 -0.019264 0.300000 0.000000 0.600000
0.050220 0.229137 -0.103160 0.300000 0.600000 0.000000
-0.052888 0.150975 -0.160942 0.300000 0.600000 0.000000
0.050220 0.858441 0.106842 0.300000 0.600000 0.000000
0.076906 -0.637970 -0.019369 0.300000 0.000000 0.600000
0.245162 -0.463157 -0.098222 0.600000 0.300000 0.000000
0.243663 -0.347949 -0.055991 0.600000 0.300000 0.000000
0.045008 0.287644 -0.161740 0.300000 0.600000 0.000000
0.094594 -0.341346 -0.069297 0.600000 0.300000 0.000000
0.078325 -0.566593 -0.019836 0.300000 0.000000 0.600000
0.090259 -0.533617 -0.029257 0.300000 0.000000 0.600000
-0.057487 0.618219 -0.087167 0.300000 0.600000 0.000000
0.412474 -0.446371 -0.083589 0.000000 1.000000 0.000000
0.047886 0.909018 0.215534 0.300000 0.600000 0.000000
0.052743 -0.663958 -0.175351 0.600000 0.000000 0.300000
0.008407 -0.236435 -0.018692 0.300000 0.000000 0.600000
-0.025947 0.761287 0.474666 0.300000 0.600000 0.000000
-0.057487 0.389568 -0.139875 0.300000 0.600000 0.000000
0.011079 -0.096140 -0.169480 0.300000 0.600000 0.000000
-0.009421 0.109577 -0.061774 0.300000 0.600000 0.000000
0.172542 -0.483023 -0.130389 0.600000 0.300000 0.000000
0.235966 -0.424398 -0.187098 0.600000 0.300000 0.000000
0.093302 -0.280439 -0.134420 0.300000 0.000000 0.600000
-0.013243 -0.289260 -0.018692 0.300000 0.000000 0.600000
0.009016 -0.233134 -0.129247 0.300000 0.000000 0.600000
0.267008 -0.445233 -0.150923 0.000000 1.000000 0.000000
0.072716 -0.277340 -0.212437 0.300000 0.000000 0.600000
-0.019418 0.489664 0.733681 0.300000 0.600000 0.000000
0.050220 0.607513 -0.068330 0.300000 0.600000 0.000000
0.409547 -0.114107 -0.076761 0.000000 1.000000 0.000000
-0.026446 0.561805 -0.050705 0.300000 0.600000 0.000000
0.050220 0.176796 -0.126763 0.300000 0.600000 0.000000
0.347645 -0.290233 -0.074951 0.000000 1.000000 0.000000
0.119152 -0.699807 -0.125403 0.600000 0.000000 0.300000
-0.090898 -0.663958 -0.073002 0.300000 0.000000 0.600000
-0.048383 0.918079 0.223542 0.300000 0.600000 0.000000
0.008839 0.404108 -0.169480 0.300000 0.600000 0.000000
-0.057487 0.843147 0.195752 0.300000 0.600000 0.000000
-0.224726 -0.483023 -0.125861 0.300000 0.000000 0.600000
-0.219047 -0.483023 -0.151400 0.300000 0.000000 0.600000
-0.057239 0.834338 0.223060 0.300000 0.600000 0.000000
-0.179512 -0.483023 -0.122231 0.300000 0.000000 0.600000
-0.031152 -0.651301 -0.018692 0.300000 0.000000 0.600000
-0.008562 0.203022 -0.169480 0.300000 0.600000 0.000000
0.047166 -0.346145 -0.212563 0.300000 0.000000 0.600000
0.419740 -0.104073 -0.123656 0.000000 1.000000 0.000000
-0.193196 -0.332235 -0.159657 0.300000 0.000000 0.600000
0.094594 -0.343813 -0.143810 0.600000 0.300000 0.000000
-0.001772 0.558621 0.724602 0.300000 0.600000 0.000000
0.050220 -0.231415 -0.120405 0.300000 0.600000 0.000000
-0.033151 -0.233134 -0.129176 0.300000 0.600000 0.000000
-0.390186 -0.138762 -0.159597 0.500000 0.500000 0.000000
-0.001644 -0.181468 -0.061774 0.300000 0.600000 0.000000
-0.381689 -0.377466 -0.159597 0.500000 0.500000 0.000000
-0.151244 -0.362540 -0.040233 0.300000 0.000000 0.600000
-0.365679 -0.165200 -0.159597 0.500000 0.500000 0.000000
0.048305 0.914530 0.265152 0.300000 0.600000 0.000000
0.000550 0.890262 0.106858 0.300000 0.600000 0.000000
-0.046957 0.912231 0.170730 0.300000 0.600000 0.000000
0.060968 -0.663958 -0.147119 0.600000 0.000000 0.300000
0.146547 -0.483023 -0.064026 0.600000 0.300000 0.000000
-0.166523 -0.430182 -0.040233 0.300000 0.000000 0.600000
0.008917 0.258312 -0.061774 0.300000 0.600000 0.000000
0.033654 0.661937 -0.125552 0.300000 0.600000 0.000000
0.093302 -0.381793 -0.087882 0.300000 0.000000 0.600000
-0.057487 0.817890 0.097736 0.300000 0.600000 0.000000
0.107878 -0.666636 -0.130756 0.600000 0.000000 0.300000
-0.338424 -0.083526 -0.096361 0.500000 0.500000 0.000000
-0.008729 -0.233134 -0.140849 0.300000 0.000000 0.600000
-0.204338 -0.403489 -0.040233 0.300000 0.000000 0.600000
-0.247107 -0.341227 -0.066487 0.300000 0.000000 0.600000
0.396902 -0.335932 -0.073432 0.000000 1.000000 0.000000
-0.336789 -0.171942 -0.129279 0.500000 0.500000 0.000000
-0.100569 -0.608134 -0.075624 0.300000 0.000000 0.600000
-0.251300 -0.461925 -0.136002 0.300000 0.000000 0.600000
-0.332020 -0.420847 -0.159597 0.500000 0.500000 0.000000
-0.016277 0.574818 -0.156698 0.300000 0.600000 0.000000
-0.189634 -0.332235 -0.116225 0.300000 0.000000 0.600000
0.073909 -0.663958 -0.020294 0.600000 0.000000 0.300000
-0.039016 -0.065192 -0.062178 0.300000 0.600000 0.000000
-0.011214 0.555371 0.617324 0.300000 0.600000 0.000000
-0.007307 0.589509 0.606450 0.300000 0.600000 0.000000
-0.020903 -0.711349 -0.102635 0.600000 0.000000 0.300000
-0.052920 0.760835 0.620152 0.300000 0.600000 0.000000
0.093302 -0.485455 -0.072987 0.300000 0.000000 0.600000
-0.037300 0.812849 0.209069 0.300000 0.600000 0.000000
0.050220 0.009140 -0.123954 0.300000 0.600000 0.000000
0.001000 -0.410423 -0.212563 0.300000 0.000000 0.600000
-0.008253 0.928670 0.293695 0.300000 0.600000 0.000000
-0.041058 0.403832 -0.062447 0.300000 0.600000 0.000000
0.093270 -0.365560 -0.039988 0.300000 0.000000 0.600000
0.028078 0.191960 -0.061774 0.300000 0.600000 0.000000
-0.092604 -0.233134 -0.045045 0.300000 0.000000 0.600000
-0.043425 0.539093 0.621003 0.300000 0.600000 0.000000
0.075406 -0.233134 -0.049958 0.300000 0.000000 0.600000
-0.238608 -0.391835 -0.188956 0.300000 0.000000 0.600000
-0.030982 -0.189032 -0.169480 0.300000 0.600000 0.000000
0.014453 0.866672 0.512738 0.300000 0.600000 0.000000
-0.057487 0.526507 -0.100477 0.300000 0.600000 0.000000
-0.041088 -0.665307 -0.219622 0.600000 0.000000 0.300000
0.021187 0.736203 0.649867 0.300000 0.600000 0.000000
-0.068087 -0.233134 -0.126655 0.300000 0.000000 0.600000
-0.025327 0.477727 0.652131 0.300000 0.600000 0.000000
-0.069786 -0.233134 -0.106042 0.300000 0.000000 0.600000
0.183250 -0.483023 -0.158298 0.600000 0.300000 0.000000
0.016595 0.713231 0.532895 0.300000 0.600000 0.000000
-0.049989 -0.310653 -0.212563 0.300000 0.000000 0.600000
-0.009346 0.627942 0.590530 0.300000 0.600000 0.000000
-0.244049 -0.337777 -0.106059 0.300000 0.000000 0.600000
-0.023687 0.820009 0.300948 0.300000 0.600000 0.000000
0.057799 -0.565623 -0.018692 0.300000 0.000000 0.600000
-0.057487 0.430396 -0.083560 0.300000 0.600000 0.000000
0.007503 0.662599 0.571746 0.300000 0.600000 0.000000
0.050220 0.607366 0.689089 0.300000 0.600000 0.000000
0.048221 0.596304 -0.139471 0.300000 0.600000 0.000000
-0.044234 0.899194 0.133275 0.300000 0.600000 0.000000
0.419740 -0.264640 -0.100255 0.000000 1.000000 0.000000
-0.402574 -0.245689 -0.159444 0.500000 0.500000 0.000000
0.050220 -0.185368 -0.108591 0.300000 0.600000 0.000000
-0.059388 -0.254493 -0.212563 0.300000 0.000000 0.600000
-0.020310 0.872801 0.064701 0.300000 0.600000 0.000000
0.031034 -0.341907 -0.018692 0.300000 0.000000 0.600000
-0.220046 -0.483023 -0.062509 0.300000 0.000000 0.600000
-0.010322 -0.663958 -0.068859 0.600000 0.000000 0.300000
0.025355 0.401264 -0.061774 0.300000 0.600000 0.000000
0.010566 0.783485 0.613586 0.300000 0.600000 0.000000
0.047773 0.243188 -0.157651 0.300000 0.600000 0.000000
0.028985 -0.679041 0.001750 0.600000 0.000000 0.300000
-0.062336 -0.711349 -0.177110 0.600000 0.000000 0.300000
-0.100569 -0.564074 -0.171780 0.300000 0.000000 0.600000
0.119152 -0.693493 -0.208520 0.600000 0.000000 0.300000
0.026622 0.922918 0.228385 0.300000 0.600000 0.000000
0.119152 -0.704317 -0.094172 0.600000 0.000000 0.300000
0.145170 -0.332235 -0.071283 0.600000 0.300000 0.000000
-0.057487 0.647474 0.668011 0.300000 0.600000 0.000000
0.093302 -0.529699 -0.072370 0.300000 0.000000 0.600000
0.011148 0.588878 -0.154847 0.300000 0.600000 0.000000
-0.057487 0.871029 0.405449 0.300000 0.600000 0.000000
-0.100569 -0.645407 -0.138805 0.300000 0.000000 0.600000
0.093302 -0.545284 -0.142207 0.300000 0.000000 0.600000
0.050220 0.327275 -0.111575 0.300000 0.600000 0.000000
-0.375022 -0.441622 -0.154666 0.500000 0.500000 0.000000
-0.030224 -0.022729 -0.169480 0.300000 0.600000 0.000000
-0.383513 -0.210928 -0.159597 0.500000 0.500000 0.000000
-0.052669 -0.711349 -0.062997 0.600000 0.000000 0.300000
-0.057487 0.760377 0.524981 0.300000 0.600000 0.000000
-0.072073 -0.233134 -0.166732 0.300000 0.000000 0.600000
-0.055144 0.424042 -0.157398 0.300000 0.600000 0.000000
0.000782 0.735985 -0.084263 0.300000 0.600000 0.000000
0.165184 -0.373657 -0.191022 0.600000 0.300000 0.000000
-0.100569 -0.610233 -0.155797 0.300000 0.000000 0.600000
-0.247057 -0.440244 -0.049160 0.300000 0.000000 0.600000
-0.422954 -0.166246 -0.124210 0.500000 0.500000 0.000000
-0.100569 -0.368233 -0.169285 0.300000 0.000000 0.600000
-0.024515 -0.234972 -0.212563 0.300000 0.000000 0.600000
-0.319910 -0.392305 -0.073432 0.500000 0.500000 0.000000
0.097685 -0.696434 -0.234094 0.600000 0.000000 0.300000
0.015909 0.680005 0.558391 0.300000 0.600000 0.000000
0.047317 -0.663958 -0.026845 0.300000 0.000000 0.600000
0.022278 0.816830 0.240674 0.300000 0.600000 0.000000
-0.052290 -0.115848 -0.069534 0.300000 0.600000 0.000000
-0.070676 -0.711349 -0.146766 0.600000 0.000000 0.300000
-0.039630 0.770839 0.463015 0.300000 0.600000 0.000000
0.050220 -0.133044 -0.101500 0.300000 0.600000 0.000000
0.050220 0.412471 -0.084991 0.300000 0.600000 0.000000
0.094594 -0.402410 -0.124036 0.600000 0.300000 0.000000
0.037873 0.576743 -0.048384 0.300000 0.600000 0.000000
0.093302 -0.280268 -0.087168 0.300000 0.000000 0.600000
0.050220 -0.072964 -0.114150 0.300000 0.600000 0.000000
0.188315 -0.460819 -0.191022 0.600000 0.300000 0.000000
-0.100569 -0.386247 -0.154527 0.300000 0.000000 0.600000
0.165383 -0.462320 -0.040343 0.600000 0.300000 0.000000
-0.396293 -0.103165 -0.159597 0.500000 0.500000 0.000000
0.049732 0.701695 0.001548 0.300000 0.600000 0.000000
-0.057487 0.858373 0.365719 0.300000 0.600000 0.000000
0.089892 -0.326284 -0.028779 0.300000 0.000000 0.600000
0.245383 -0.460466 -0.120292 0.600000 0.300000 0.000000
-0.057438 0.500729 0.645869 0.300000 0.600000 0.000000
0.050220 0.529640 0.703061 0.300000 0.600000 0.000000
0.009222 0.307505 -0.169480 0.300000 0.600000 0.000000
0.018635 -0.663958 -0.156464 0.300000 0.000000 0.600000
0.040691 0.791077 0.602922 0.300000 0.600000 0.000000
0.293592 -0.417694 -0.159597 0.000000 1.000000 0.000000
0.335241 -0.310900 -0.145881 0.000000 1.000000 0.000000
-0.051895 0.692786 0.557716 0.300000 0.600000 0.000000
0.006923 -0.711349 -0.136234 0.600000 0.000000 0.300000
-0.057487 -0.039420 -0.121725 0.300000 0.600000 0.000000
-0.057487 0.653720 0.616827 0.300000 0.600000 0.000000
-0.008888 -0.638009 -0.018692 0.300000 0.000000 0.600000
0.005293 0.478460 0.735156 0.300000 0.600000 0.000000
-0.057487 0.824678 0.139061 0.300000 0.600000 0.000000
-0.036845 -0.554347 -0.018692 0.300000 0.000000 0.600000
-0.115360 -0.711349 -0.146293 0.600000 0.000000 0.300000
0.008179 0.046009 -0.061774 0.300000 0.600000 0.000000
0.041088 -0.233134 -0.166903 0.300000 0.000000 0.600000
0.091236 -0.452700 -0.031441 0.300000 0.000000 0.600000
-0.043363 -0.482063 -0.018692 0.300000 0.000000 0.600000
0.050220 0.657478 -0.072531 0.300000 0.600000 0.000000
-0.009853 0.663664 -0.125545 0.300000 0.600000 0.000000
-0.358501 -0.206483 -0.159597 0.500000 0.500000 0.000000
-0.033209 0.771667 0.104633 0.300000 0.600000 0.000000
0.111757 -0.483023 -0.126947 0.600000 0.300000 0.000000
-0.277578 -0.396434 -0.159597 0.500000 0.500000 0.000000
0.092688 -0.284896 -0.195689 0.300000 0.000000 0.600000
0.044621 -0.664652 -0.217831 0.600000 0.000000 0.300000
-0.172339 -0.427347 -0.191022 0.300000 0.000000 0.600000
0.333575 -0.281154 -0.104058 0.000000 1.000000 0.000000
-0.005724 0.037061 -0.169480 0.300000 0.600000 0.000000
0.093302 -0.646576 -0.049036 0.300000 0.000000 0.600000
-0.057487 0.830929 0.402050 0.300000 0.600000 0.000000
0.050220 0.804764 0.100062 0.300000 0.600000 0.000000
-0.056091 0.781764 0.471581 0.300000 0.600000 0.000000
0.419740 -0.239699 -0.119458 0.000000 1.000000 0.000000
0.355648 -0.191840 -0.159597 0.000000 1.000000 0.000000
-0.019202 0.514370 -0.056950 0.300000 0.600000 0.000000
-0.003257 0.148573 -0.061774 0.300000 0.600000 0.000000
-0.059483 -0.273084 -0.018692 0.300000 0.000000 0.600000
0.050220 0.341489 -0.084643 0.300000 0.600000 0.000000
0.093302 -0.649556 -0.164115 0.300000 0.000000 0.600000
0.128849 -0.350575 -0.190601 0.600000 0.300000 0.000000
-0.030560 0.303184 -0.169480 0.300000 0.600000 0.000000
0.005183 0.145136 -0.169480 0.300000 0.600000 0.000000
0.050220 0.035186 -0.112507 0.300000 0.600000 0.000000
-0.057487 0.815413 0.451631 0.300000 0.600000 0.000000
0.050220 0.761506 0.538651 0.300000 0.600000 0.000000
-0.012717 -0.105857 -0.061774 0.300000 0.600000 0.000000
0.093302 -0.405065 -0.047806 0.300000 0.000000 0.600000
0.050220 0.546032 -0.097430 0.300000 0.600000 0.000000
0.029665 0.553297 0.617728 0.300000 0.600000 0.000000
0.391158 -0.395985 -0.159597 0.000000 1.000000 0.000000
-0.035079 -0.233134 -0.172517 0.300000 0.000000 0.600000
0.035648 -0.206737 -0.168169 0.300000 0.600000 0.000000
-0.050274 0.891728 0.440702 0.300000 0.600000 0.000000
0.041651 -0.711349 -0.073731 0.600000 0.000000 0.300000
0.004950 -0.264233 -0.212563 0.300000 0.000000 0.600000
-0.070557 -0.691163 -0.234104 0.600000 0.000000 0.300000
-0.005588 -0.450347 -0.212563 0.300000 0.000000 0.600000
-0.055785 0.155778 -0.075404 0.300000 0.600000 0.000000
0.049628 0.553588 0.634749 0.300000 0.600000 0.000000
-0.396308 -0.189281 -0.073432 0.500000 0.500000 0.000000
-0.336789 -0.253141 -0.103636 0.500000 0.500000 0.000000
0.006065 -0.233134 -0.197220 0.300000 0.000000 0.600000
-0.017304 -0.663958 -0.193298 0.600000 0.000000 0.300000
0.018248 0.819905 0.301740 0.300000 0.600000 0.000000
-0.420619 -0.230637 -0.085533 0.500000 0.500000 0.000000
0.206788 -0.393608 -0.040233 0.600000 0.300000 0.000000
-0.022385 -0.213124 -0.061774 0.300000 0.600000 0.000000
-0.111006 -0.387724 -0.040233 0.300000 0.000000 0.600000
0.011019 -0.075508 -0.169480 0.300000 0.600000 0.000000
0.385030 -0.287190 -0.159597 0.000000 1.000000 0.000000
-0.010121 -0.107846 -0.169480 0.300000 0.600000 0.000000
0.093302 -0.303780 -0.163393 0.300000 0.000000 0.600000
0.405589 -0.228327 -0.074918 0.000000 1.000000 0.000000
0.333575 -0.298480 -0.116276 0.000000 1.000000 0.000000
-0.022090 0.672809 0.687529 0.300000 0.600000 0.000000
0.412860 -0.132656 -0.153725 0.000000 1.000000 0.000000
0.419740 -0.183908 -0.135335 0.000000 1.000000 0.000000
-0.209572 -0.332235 -0.126788 0.300000 0.000000 0.600000
-0.028005 0.821673 -0.005610 0.300000 0.600000 0.000000
-0.192284 -0.332235 -0.081982 0.300000 0.000000 0.600000
0.007681 0.006268 -0.061774 0.300000 0.600000 0.000000
-0.100569 -0.295019 -0.179760 0.300000 0.000000 0.600000
0.025443 0.655898 -0.011116 0.300000 0.600000 0.000000
0.049936 0.841246 0.051744 0.300000 0.600000 0.000000
-0.066731 -0.665028 -0.218950 0.600000 0.000000 0.300000
-0.237916 -0.334020 -0.169590 0.300000 0.000000 0.600000
-0.020524 -0.663958 -0.088372 0.600000 0.000000 0.300000
-0.028860 -0.711349 -0.208012 0.600000 0.000000 0.300000
-0.276987 -0.444827 -0.081577 0.500000 0.500000 0.000000
-0.266384 -0.363562 -0.131419 0.500000 0.500000 0.000000
0.046798 0.837509 0.031572 0.300000 0.600000 0.000000
-0.057487 0.319943 -0.121635 0.300000 0.600000 0.000000
-0.250624 -0.386711 -0.122351 0.500000 0.500000 0.000000
0.050220 -0.158227 -0.087508 0.300000 0.600000 0.000000
0.049040 0.710769 0.650617 0.300000 0.600000 0.000000
-0.053049 0.586556 -0.146329 0.300000 0.600000 0.000000
-0.057487 0.778517 0.065377 0.300000 0.600000 0.000000
0.050220 0.867446 0.377849 0.300000 0.600000 0.000000
-0.023956 0.905512 0.422098 0.300000 0.600000 0.000000
-0.057487 0.866609 0.271286 0.300000 0.600000 0.000000
-0.304879 -0.449727 -0.134950 0.500000 0.500000 0.000000
-0.102571 -0.711349 -0.095563 0.600000 0.000000 0.300000
0.050220 -0.020136 -0.119631 0.300000 0.600000 0.000000
-0.100569 -0.279779 -0.147948 0.300000 0.000000 0.600000
-0.057487 0.689263 0.635763 0.300000 0.600000 0.000000
-0.057487 0.235905 -0.104435 0.300000 0.600000 0.000000
-0.422557 -0.129522 -0.141073 0.500000 0.500000 0.000000
-0.024988 0.915609 0.172869 0.300000 0.600000 0.000000
-0.096619 -0.663958 -0.153846 0.300000 0.000000 0.600000
0.089337 -0.561053 -0.203199 0.300000 0.000000 0.600000
-0.370108 -0.248579 -0.159597 0.500000 0.500000 0.000000
0.035914 0.813462 0.361568 0.300000 0.600000 0.000000
-0.096237 -0.687054 0.002850 0.600000 0.000000 0.300000
0.047394 -0.023806 -0.158565 0.300000 0.600000 0.000000
-0.057487 0.538988 0.673426 0.300000 0.600000 0.000000
0.010769 -0.233134 -0.038145 0.300000 0.000000 0.600000
-0.008669 0.815128 0.338021 0.300000 0.600000 0.000000
0.245383 -0.365008 -0.092868 0.600000 0.300000 0.000000
0.380069 -0.190419 -0.073432 0.000000 1.000000 0.000000
0.404965 -0.444632 -0.151706 0.000000 1.000000 0.000000
0.389172 -0.156394 -0.073432 0.000000 1.000000 0.000000
0.376427 -0.103378 -0.159597 0.000000 1.000000 0.000000
-0.216777 -0.357671 -0.040233 0.300000 0.000000 0.600000
0.261192 -0.364434 -0.143963 0.000000 1.000000 0.000000
-0.350076 -0.357807 -0.075275 0.500000 0.500000 0.000000
0.046799 0.768294 0.612545 0.300000 0.600000 0.000000
-0.057369 0.570226 0.636193 0.300000 0.600000 0.000000
-0.057487 0.903634 0.266383 0.300000 0.600000 0.000000
0.396514 -0.357069 -0.159597 0.000000 1.000000 0.000000
0.039761 0.822603 0.260580 0.300000 0.600000 0.000000
-0.000909 0.184174 -0.169480 0.300000 0.600000 0.000000
-0.057487 0.639871 -0.051885 0.300000 0.600000 0.000000
0.050432 -0.404930 -0.212563 0.300000 0.000000 0.600000
-0.310493 -0.363665 -0.094191 0.500000 0.500000 0.000000
0.079256 -0.317035 -0.211034 0.300000 0.000000 0.600000
-0.057487 0.505238 -0.107707 0.300000 0.600000 0.000000
-0.100418 -0.711349 -0.168033 0.600000 0.000000 0.300000
-0.051092 0.293579 -0.068018 0.300000 0.600000 0.000000
0.000876 -0.663958 -0.114032 0.300000 0.000000 0.600000
-0.057487 0.351037 -0.136166 0.300000 0.600000 0.000000
-0.174535 -0.332235 -0.151283 0.300000 0.000000 0.600000
0.359614 -0.291270 -0.159597 0.000000 1.000000 0.000000
-0.097678 -0.233134 -0.092259 0.300000 0.000000 0.600000
0.245383 -0.387563 -0.124122 0.600000 0.300000 0.000000
-0.004691 0.113384 -0.169480 0.300000 0.600000 0.000000
-0.057487 0.062436 -0.125353 0.300000 0.600000 0.000000
-0.047972 0.655852 -0.124614 0.300000 0.600000 0.000000
0.022379 0.757585 -0.067689 0.300000 0.600000 0.000000
-0.057487 0.630629 0.678002 0.300000 0.600000 0.000000
0.053631 -0.235056 -0.018692 0.300000 0.000000 0.600000
-0.011729 0.346017 -0.061774 0.300000 0.600000 0.000000
-0.251358 -0.359084 -0.115709 0.300000 0.000000 0.600000
0.033533 0.263352 -0.168841 0.300000 0.600000 0.000000
-0.175009 -0.483023 -0.155515 0.300000 0.000000 0.600000
0.095842 -0.336439 -0.181969 0.600000 0.300000 0.000000
0.267252 -0.401414 -0.073432 0.000000 1.000000 0.000000
-0.041715 -0.430104 -0.212563 0.300000 0.000000 0.600000
-0.044142 0.702288 0.022186 0.300000 0.600000 0.000000
-0.038623 0.620583 0.708780 0.300000 0.600000 0.000000
0.021734 0.477727 0.673708 0.300000 0.600000 0.000000
0.005340 0.543976 -0.160758 0.300000 0.600000 0.000000
0.093302 -0.630721 -0.175533 0.300000 0.000000 0.600000
0.012990 -0.039111 -0.061774 0.300000 0.600000 0.000000
-0.100090 -0.291357 -0.036592 0.300000 0.000000 0.600000
0.094594 -0.411507 -0.106826 0.600000 0.300000 0.000000
-0.189630 -0.333297 -0.055406 0.300000 0.000000 0.600000
-0.100569 -0.507395 -0.185403 0.300000 0.000000 0.600000
-0.038696 0.708855 0.536709 0.300000 0.600000 0.000000
-0.057487 0.457290 -0.105033 0.300000 0.600000 0.000000
0.044133 -0.014589 -0.068374 0.300000 0.600000 0.000000
-0.054996 0.522772 -0.067670 0.300000 0.600000 0.000000
0.050220 0.519829 -0.126667 0.300000 0.600000 0.000000
-0.056686 0.835659 0.303152 0.300000 0.600000 0.000000
-0.095966 -0.252840 -0.027225 0.300000 0.000000 0.600000
-0.057487 0.441169 -0.128220 0.300000 0.600000 0.000000
0.023689 0.787766 0.138450 0.300000 0.600000 0.000000
-0.057487 0.688810 0.595260 0.300000 0.600000 0.000000
0.034849 0.533619 -0.161133 0.300000 0.600000 0.000000
-0.422954 -0.376686 -0.121826 0.500000 0.500000 0.000000
0.050220 0.548515 -0.130757 0.300000 0.600000 0.000000
-0.004368 0.846237 0.539371 0.300000 0.600000 0.000000
-0.055950 0.481681 0.720582 0.300000 0.600000 0.000000
-0.000486 -0.698770 -0.234104 0.600000 0.000000 0.300000
0.047759 0.308499 -0.073572 0.300000 0.600000 0.000000
-0.015176 0.073163 -0.169480 0.300000 0.600000 0.000000
-0.057487 0.786362 0.023112 0.300000 0.600000 0.000000
0.044491 -0.100477 -0.162414 0.300000 0.600000 0.000000
0.050220 0.157443 -0.127740 0.300000 0.600000 0.000000
0.059878 -0.645598 -0.212563 0.300000 0.000000 0.600000
-0.393410 -0.083526 -0.133251 0.500000 0.500000 0.000000
0.017222 0.813951 0.218805 0.300000 0.600000 0.000000
-0.403226 -0.423623 -0.073671 0.500000 0.500000 0.000000
-0.018239 0.782071 0.441071 0.300000 0.600000 0.000000
0.001687 0.561656 -0.050725 0.300000 0.600000 0.000000
0.381675 -0.083526 -0.073520 0.000000 1.000000 0.000000
-0.057487 0.678147 -0.072733 0.300000 0.600000 0.000000
0.050220 0.481715 0.649397 0.300000 0.600000 0.000000
-0.016123 0.789388 0.142366 0.300000 0.600000 0.000000
0.049072 0.091261 -0.076742 0.300000 0.600000 0.000000
-0.418013 -0.092251 -0.081524 0.500000 0.500000 0.000000
-0.100569 -0.544833 -0.049720 0.300000 0.000000 0.600000
0.126364 -0.332235 -0.092293 0.600000 0.300000 0.000000
0.048542 -0.077399 -0.155794 0.300000 0.600000 0.000000
0.079404 -0.492502 -0.210972 0.300000 0.000000 0.600000
-0.022921 0.434610 -0.169480 0.300000 0.600000 0.000000
-0.030911 0.617988 0.594654 0.300000 0.600000 0.000000
0.094594 -0.440361 -0.135937 0.600000 0.300000 0.000000
0.245383 -0.401843 -0.106301 0.600000 0.300000 0.000000
0.050220 0.787176 -0.002984 0.300000 0.600000 0.000000
-0.121005 -0.679029 -0.055437 0.600000 0.000000 0.300000
-0.145545 -0.332235 -0.149181 0.300000 0.000000 0.600000
-0.047481 -0.523412 -0.212563 0.300000 0.000000 0.600000
-0.056937 -0.192739 -0.079141 0.300000 0.600000 0.000000
-0.163920 -0.392640 -0.191022 0.300000 0.000000 0.600000
0.049974 0.869231 0.458284 0.300000 0.600000 0.000000
-0.231782 -0.482764 -0.107920 0.300000 0.000000 0.600000
-0.011823 -0.368039 -0.212563 0.300000 0.000000 0.600000
-0.047331 -0.403572 -0.018692 0.300000 0.000000 0.600000
0.419740 -0.340684 -0.101234 0.000000 1.000000 0.000000
0.008369 -0.666754 -0.008138 0.600000 0.000000 0.300000
-0.057193 0.691011 0.659094 0.300000 0.600000 0.000000
0.011875 -0.368990 -0.212563 0.300000 0.000000 0.600000
0.047601 0.643875 0.687157 0.300000 0.600000 0.000000
0.037598 0.712729 -0.099437 0.300000 0.600000 0.000000
0.012120 0.835388 0.012263 0.300000 0.600000 0.000000
0.048883 0.903162 0.376287 0.300000 0.600000 0.000000
-0.056416 0.821350 0.018858 0.300000 0.600000 0.000000
0.031676 0.310829 -0.169085 0.300000 0.600000 0.000000
0.093302 -0.435813 -0.040406 0.300000 0.000000 0.600000
-0.122110 -0.694506 -0.153135 0.600000 0.000000 0.300000
0.027964 -0.674832 -0.231261 0.600000 0.000000 0.300000
-0.363667 -0.287568 -0.159597 0.500000 0.500000 0.000000
0.004951 0.087374 -0.169480 0.300000 0.600000 0.000000
0.050220 0.697220 0.602898 0.300000 0.600000 0.000000
-0.087289 -0.298237 -0.210716 0.300000 0.000000 0.600000
-0.050763 -0.334274 -0.018692 0.300000 0.000000 0.600000
-0.100569 -0.338358 -0.049658 0.300000 0.000000 0.600000
0.245307 -0.443038 -0.061200 0.600000 0.300000 0.000000
0.136860 -0.368167 -0.191022 0.600000 0.300000 0.000000
-0.026549 0.598401 -0.152578 0.300000 0.600000 0.000000
0.108915 -0.411919 -0.191022 0.600000 0.300000 0.000000
0.050170 0.203623 -0.148320 0.300000 0.600000 0.000000
-0.001410 0.744508 0.069238 0.300000 0.600000 0.000000
0.284340 -0.368096 -0.082055 0.000000 1.000000 0.000000
-0.122110 -0.695108 -0.116209 0.600000 0.000000 0.300000
0.118525 -0.711349 -0.168215 0.600000 0.000000 0.300000
-0.251358 -0.427799 -0.140804 0.300000 0.000000 0.600000
-0.026117 0.542366 0.726742 0.300000 0.600000 0.000000
0.047871 0.616199 -0.042685 0.300000 0.600000 0.000000
0.093302 -0.293933 -0.044775 0.300000 0.000000 0.600000
-0.007747 0.792546 0.415782 0.300000 0.600000 0.000000
0.050220 0.580828 0.693520 0.300000 0.600000 0.000000
-0.100569 -0.255003 -0.147910 0.300000 0.000000 0.600000
-0.057487 0.519389 0.650087 0.300000 0.600000 0.000000
-0.121765 -0.682882 -0.207512 0.600000 0.000000 0.300000
-0.100569 -0.315855 -0.094903 0.300000 0.000000 0.600000
-0.000889 0.487364 -0.060505 0.300000 0.600000 0.000000
0.028560 0.805019 -0.027314 0.300000 0.600000 0.000000
-0.057487 0.491435 -0.082859 0.300000 0.600000 0.000000
0.229553 -0.482233 -0.071926 0.600000 0.300000 0.000000
-0.040112 0.017225 -0.168931 0.300000 0.600000 0.000000
0.050220 0.689102 -0.016835 0.300000 0.600000 0.000000
-0.038456 0.928032 0.269764 0.300000 0.600000 0.000000
0.026217 0.427418 -0.169480 0.300000 0.600000 0.000000
-0.215492 -0.427835 -0.040233 0.300000 0.000000 0.600000
-0.013915 -0.663958 -0.049702 0.600000 0.000000 0.300000
-0.328543 -0.363562 -0.136639 0.500000 0.500000 0.000000
-0.057487 0.740906 -0.019941 0.300000 0.600000 0.000000
0.032068 -0.711349 -0.152774 0.600000 0.000000 0.300000
0.197816 -0.393370 -0.191022 0.600000 0.300000 0.000000
0.050220 -0.087268 -0.127265 0.300000 0.600000 0.000000
0.108584 -0.481702 -0.054782 0.600000 0.300000 0.000000
0.048111 0.422311 -0.156833 0.300000 0.600000 0.000000
-0.132971 -0.355065 -0.040233 0.300000 0.000000 0.600000
-0.275304 -0.379249 -0.074282 0.500000 0.500000 0.000000
0.035914 -0.629050 -0.212563 0.300000 0.000000 0.600000
-0.057487 0.865173 0.134531 0.300000 0.600000 0.000000
-0.192875 -0.441226 -0.191022 0.300000 0.000000 0.600000
-0.014091 0.906377 0.145761 0.300000 0.600000 0.000000
0.044605 0.618916 0.602078 0.300000 0.600000 0.000000
-0.039470 0.477727 0.630098 0.300000 0.600000 0.000000
-0.016056 -0.126480 -0.061774 0.300000 0.600000 0.000000
-0.122110 -0.697503 -0.032741 0.600000 0.000000 0.300000
0.035492 0.281511 -0.063021 0.300000 0.600000 0.000000
-0.043542 0.080318 -0.167909 0.300000 0.600000 0.000000
-0.051232 0.877725 0.093261 0.300000 0.600000 0.000000
0.093302 -0.338901 -0.108272 0.300000 0.000000 0.600000
-0.030770 0.805428 0.181091 0.300000 0.600000 0.000000
-0.057487 0.851492 0.453723 0.300000 0.600000 0.000000
0.094594 -0.372669 -0.177195 0.600000 0.300000 0.000000
-0.010926 0.770449 -0.057817 0.300000 0.600000 0.000000
0.050220 0.514013 0.666443 0.300000 0.600000 0.000000
-0.312550 -0.385941 -0.159597 0.500000 0.500000 0.000000
-0.040730 0.630971 -0.024186 0.300000 0.600000 0.000000
-0.087684 -0.465467 -0.020702 0.300000 0.000000 0.600000
0.026621 0.811641 0.584455 0.300000 0.600000 0.000000
0.050220 0.296375 -0.092855 0.300000 0.600000 0.000000
0.064373 -0.663958 -0.103635 0.300000 0.000000 0.600000
-0.008148 0.711284 0.668988 0.300000 0.600000 0.000000
0.016950 -0.362791 -0.018692 0.300000 0.000000 0.600000
0.093302 -0.305075 -0.070541 0.300000 0.000000 0.600000
-0.065222 -0.555621 -0.212563 0.300000 0.000000 0.600000
0.112755 -0.711349 -0.054719 0.600000 0.000000 0.300000
0.021574 0.807115 0.185163 0.300000 0.600000 0.000000
0.017451 -0.220030 -0.061774 0.300000 0.600000 0.000000
0.050087 -0.046293 -0.148952 0.300000 0.600000 0.000000
0.333575 -0.159549 -0.134285 0.000000 1.000000 0.000000
0.318051 -0.363562 -0.116705 0.000000 1.000000 0.000000
-0.054187 -0.022912 -0.159249 0.300000 0.600000 0.000000
0.367627 -0.423689 -0.073432 0.000000 1.000000 0.000000
-0.391079 -0.121763 -0.073432 0.500000 0.500000 0.000000
-0.049536 0.111990 -0.066824 0.300000 0.600000 0.000000
-0.358304 -0.341492 -0.159594 0.500000 0.500000 0.000000
-0.056515 0.040883 -0.154088 0.300000 0.600000 0.000000
-0.143864 -0.404208 -0.040233 0.300000 0.000000 0.600000
0.338118 -0.273770 -0.082043 0.000000 1.000000 0.000000
0.034472 0.915172 0.389905 0.300000 0.600000 0.000000
-0.138126 -0.401701 -0.191022 0.300000 0.000000 0.600000
-0.022747 -0.305557 -0.018692 0.300000 0.000000 0.600000
0.050220 0.835541 0.214982 0.300000 0.600000 0.000000
0.298604 -0.376702 -0.157692 0.000000 1.000000 0.000000
0.145527 -0.483023 -0.116529 0.600000 0.300000 0.000000
0.047917 0.441428 -0.073953 0.300000 0.600000 0.000000
0.023418 0.551228 -0.159803 0.300000 0.600000 0.000000
-0.005492 0.523663 0.621498 0.300000 0.600000 0.000000
-0.023344 -0.602931 -0.212563 0.300000 0.000000 0.600000
-0.098184 -0.409829 -0.200582 0.300000 0.000000 0.600000
0.346495 -0.250630 -0.075428 0.000000 1.000000 0.000000
0.007677 -0.606045 -0.018692 0.300000 0.000000 0.600000
0.050220 0.654071 -0.053859 0.300000 0.600000 0.000000
-0.100569 -0.435397 -0.042443 0.300000 0.000000 0.600000
0.074650 -0.711349 -0.215389 0.600000 0.000000 0.300000
0.039250 0.736821 0.511156 0.300000 0.600000 0.000000
0.049345 -0.711349 -0.126263 0.600000 0.000000 0.300000
-0.100569 -0.251746 -0.070318 0.300000 0.000000 0.600000
-0.024413 0.258759 -0.061774 0.300000 0.600000 0.000000
-0.031237 -0.233134 -0.035942 0.300000 0.000000 0.600000
0.010784 -0.008126 -0.169480 0.300000 0.600000 0.000000
0.151706 -0.359561 -0.040233 0.600000 0.300000 0.000000
0.033809 0.502538 -0.059189 0.300000 0.600000 0.000000
-0.056920 0.510793 -0.147743 0.300000 0.600000 0.000000
0.039041 0.664481 0.688037 0.300000 0.600000 0.000000
0.047223 0.148891 -0.158855 0.300000 0.600000 0.000000
0.333575 -0.186506 -0.097968 0.000000 1.000000 0.000000
-0.167133 -0.332235 -0.115811 0.300000 0.000000 0.600000
-0.016895 0.892851 0.452666 0.300000 0.600000 0.000000
0.049503 0.904028 0.357570 0.300000 0.600000 0.000000
0.044375 0.867890 0.070915 0.300000 0.600000 0.000000
0.050220 0.781484 0.579327 0.300000 0.600000 0.000000
-0.007018 -0.006165 -0.061774 0.300000 0.600000 0.000000
0.050220 0.495373 -0.088004 0.300000 0.600000 0.000000
-0.100569 -0.247747 -0.180368 0.300000 0.000000 0.600000
-0.073670 -0.233134 -0.037909 0.300000 0.000000 0.600000
-0.004888 -0.445467 -0.018692 0.300000 0.000000 0.600000
-0.017157 -0.258327 -0.212563 0.300000 0.000000 0.600000
-0.057487 0.896700 0.322721 0.300000 0.600000 0.000000
0.093302 -0.534895 -0.121417 0.300000 0.000000 0.600000
-0.267053 -0.449727 -0.123607 0.500000 0.500000 0.000000
0.413477 -0.152248 -0.079803 0.000000 1.000000 0.000000
-0.038555 0.750398 0.076350 0.300000 0.600000 0.000000
0.245383 -0.393523 -0.162231 0.600000 0.300000 0.000000
0.334881 -0.449104 -0.090240 0.000000 1.000000 0.000000
0.046602 0.878854 0.104969 0.300000 0.600000 0.000000
-0.055965 0.265143 -0.155417 0.300000 0.600000 0.000000
0.093302 -0.507393 -0.180096 0.300000 0.000000 0.600000
-0.042290 0.823038 0.286008 0.300000 0.600000 0.000000
-0.100569 -0.433634 -0.157962 0.300000 0.000000 0.600000
-0.057487 0.577272 0.673782 0.300000 0.600000 0.000000
0.093302 -0.573146 -0.043959 0.300000 0.000000 0.600000
0.007338 0.648098 0.697764 0.300000 0.600000 0.000000
-0.100569 -0.615923 -0.117172 0.300000 0.000000 0.600000
-0.048975 -0.640522 -0.018692 0.300000 0.000000 0.600000
-0.100569 -0.469449 -0.130742 0.300000 0.000000 0.600000
-0.015642 0.647955 0.582240 0.300000 0.600000 0.000000
0.035557 -0.254650 -0.212563 0.300000 0.000000 0.600000
-0.019226 0.478676 -0.169355 0.300000 0.600000 0.000000
0.385105 -0.122272 -0.073432 0.000000 1.000000 0.000000
-0.359822 -0.307159 -0.073432 0.500000 0.500000 0.000000
0.050220 0.875819 0.218855 0.300000 0.600000 0.000000
-0.057487 0.094900 -0.095853 0.300000 0.600000 0.000000
-0.100569 -0.315591 -0.144835 0.300000 0.000000 0.600000
-0.057465 0.608018 -0.056150 0.300000 0.600000 0.000000
-0.100569 -0.314347 -0.164557 0.300000 0.000000 0.600000
-0.029698 -0.711349 -0.144890 0.600000 0.000000 0.300000
-0.189837 -0.455266 -0.040233 0.300000 0.000000 0.600000
-0.057487 0.680695 -0.037624 0.300000 0.600000 0.000000
0.244987 -0.404624 -0.058768 0.600000 0.300000 0.000000
0.050220 0.846597 0.408974 0.300000 0.600000 0.000000
-0.049945 0.798069 0.416463 0.300000 0.600000 0.000000
0.025748 0.911217 0.157447 0.300000 0.600000 0.000000
0.020449 0.060331 -0.169480 0.300000 0.600000 0.000000
0.419350 -0.413926 -0.141017 0.000000 1.000000 0.000000
0.238775 -0.476943 -0.111175 0.600000 0.300000 0.000000
-0.382139 -0.427558 -0.073432 0.500000 0.500000 0.000000
0.187921 -0.332235 -0.142327 0.600000 0.300000 0.000000
0.057687 -0.313763 -0.018692 0.300000 0.000000 0.600000
-0.415198 -0.087360 -0.154397 0.500000 0.500000 0.000000
0.050220 0.879258 0.403216 0.300000 0.600000 0.000000
-0.057487 0.085625 -0.114143 0.300000 0.600000 0.000000
-0.374836 -0.447111 -0.084854 0.500000 0.500000 0.000000
0.098562 -0.664083 -0.178946 0.600000 0.000000 0.300000
-0.361881 -0.205639 -0.073432 0.500000 0.500000 0.000000
0.419740 -0.432355 -0.111582 0.000000 1.000000 0.000000
0.410332 -0.153025 -0.155665 0.000000 1.000000 0.000000
-0.057487 -0.217616 -0.109844 0.300000 0.600000 0.000000
0.168094 -0.482901 -0.170407 0.600000 0.300000 0.000000
-0.416049 -0.133013 -0.079284 0.500000 0.500000 0.000000
-0.085047 -0.546918 -0.019610 0.300000 0.000000 0.600000
-0.089579 -0.663958 -0.116233 0.600000 0.000000 0.300000
0.014449 0.826466 0.565136 0.300000 0.600000 0.000000
-0.057487 -0.063483 -0.121590 0.300000 0.600000 0.000000
0.050220 0.486258 -0.114967 0.300000 0.600000 0.000000
0.349603 -0.083526 -0.149309 0.000000 1.000000 0.000000
-0.012776 0.816939 0.241507 0.300000 0.600000 0.000000
-0.079113 -0.711349 -0.103506 0.600000 0.000000 0.300000
-0.247966 -0.463335 -0.180513 0.300000 0.000000 0.600000
-0.388046 -0.395144 -0.073432 0.500000 0.500000 0.000000
-0.043101 -0.152671 -0.063162 0.300000 0.600000 0.000000
-0.037788 0.093960 -0.062017 0.300000 0.600000 0.000000
-0.057487 0.847856 0.272770 0.300000 0.600000 0.000000
0.010037 0.883778 0.474569 0.300000 0.600000 0.000000
0.043650 -0.233134 -0.191756 0.300000 0.000000 0.600000
0.050220 0.668272 0.626881 0.300000 0.600000 0.000000
0.036616 0.157672 -0.063486 0.300000 0.600000 0.000000
-0.057487 0.769441 0.040770 0.300000 0.600000 0.000000
-0.002651 0.718499 0.036918 0.300000 0.600000 0.000000
0.416993 -0.380871 -0.084537 0.000000 1.000000 0.000000
0.099342 -0.664186 -0.198205 0.600000 0.000000 0.300000
0.075052 -0.233134 -0.079457 0.300000 0.000000 0.600000
0.048157 0.861372 0.495326 0.300000 0.600000 0.000000
-0.057487 0.650380 -0.077970 0.300000 0.600000 0.000000
-0.057487 0.730977 0.560118 0.300000 0.600000 0.000000
0.036090 -0.210643 -0.063269 0.300000 0.600000 0.000000
-0.122110 -0.692362 -0.091027 0.600000 0.000000 0.300000
-0.202638 -0.384248 -0.191022 0.300000 0.000000 0.600000
-0.386098 -0.180423 -0.159597 0.500000 0.500000 0.000000
-0.100569 -0.451890 -0.078421 0.300000 0.000000 0.600000
0.097848 -0.711349 -0.085443 0.600000 0.000000 0.300000
-0.031552 -0.054122 -0.169480 0.300000 0.600000 0.000000
0.333575 -0.113567 -0.110061 0.000000 1.000000 0.000000
-0.109078 -0.665907 -0.174529 0.600000 0.000000 0.300000
-0.337449 -0.162967 -0.089957 0.500000 0.500000 0.000000
0.093302 -0.431649 -0.186313 0.300000 0.000000 0.600000
0.038697 -0.711349 -0.193361 0.600000 0.000000 0.300000
0.034749 0.619273 -0.029366 0.300000 0.600000 0.000000
0.355652 -0.152106 -0.159597 0.000000 1.000000 0.000000
-0.057487 0.412435 -0.116271 0.300000 0.600000 0.000000
-0.320604 -0.423729 -0.073432 0.500000 0.500000 0.000000
-0.100569 -0.639446 -0.100501 0.300000 0.000000 0.600000
0.035353 0.345516 -0.168291 0.300000 0.600000 0.000000
0.001833 0.631047 -0.023472 0.300000 0.600000 0.000000
-0.057487 0.618004 0.633004 0.300000 0.600000 0.000000
-0.399328 -0.289722 -0.073432 0.500000 0.500000 0.000000
0.419740 -0.167503 -0.126013 0.000000 1.000000 0.000000
0.061628 -0.233134 -0.200283 0.300000 0.000000 0.600000
0.419079 -0.353885 -0.143074 0.000000 1.000000 0.000000
-0.363086 -0.269028 -0.073432 0.500000 0.500000 0.000000
0.050220 0.561617 0.674210 0.300000 0.600000 0.000000
-0.336789 -0.122733 -0.104027 0.500000 0.500000 0.000000
-0.370761 -0.083526 -0.096383 0.500000 0.500000 0.000000
-0.422954 -0.282805 -0.113272 0.500000 0.500000 0.000000
-0.229910 -0.332410 -0.060455 0.300000 0.000000 0.600000
0.050220 0.793816 0.534144 0.300000 0.600000 0.000000
-0.015087 -0.400213 -0.212563 0.300000 0.000000 0.600000
-0.052991 -0.233134 -0.140157 0.300000 0.600000 0.000000
0.049705 0.656062 -0.032190 0.300000 0.600000 0.000000
-0.113913 -0.483023 -0.070452 0.300000 0.000000 0.600000
-0.043627 -0.711349 -0.113828 0.600000 0.000000 0.300000
-0.047226 0.665778 0.573438 0.300000 0.600000 0.000000
