ply
format ascii 1.0
element vertex 1278
property float x
property float y
property float z
property uchar red
property uchar green
property uchar blue
end_header
-0.466632 0.102811 -0.371981 76 0 153
0.316749 0.071220 0.335018 0 0 255
-0.468971 0.475583 0.160656 76 0 153
0.091794 -0.058422 -0.419628 76 153 0
-0.466632 0.080823 -0.324954 76 0 153
0.204086 -0.385641 -0.486692 153 76 0
-0.047747 -0.384936 0.138634 153 76 0
-0.044603 -0.365372 -0.266584 76 0 153
0.244275 -0.309929 -0.367600 76 0 153
-0.264407 -0.365372 -0.066008 76 0 153
-0.255371 -0.385641 -0.355490 153 76 0
0.341980 0.423495 0.404340 0 0 255
-0.427302 -0.139176 -0.371953 127 0 127
0.148299 0.436610 -0.228623 76 0 153
0.163429 -0.385641 -0.171527 153 76 0
-0.302623 0.436610 0.105172 76 0 153
0.286745 -0.326845 0.464127 0 255 0
-0.352504 -0.385641 -0.291552 153 76 0
-0.412597 0.059717 -0.449482 153 0 76
0.349968 -0.185695 0.579890 0 0 255
-0.289141 0.082517 -0.305761 0 127 127
-0.466632 -0.087400 -0.025185 76 0 153
0.437920 -0.096012 0.667933 0 0 255
0.015486 -0.365372 -0.254546 76 0 153
0.299813 -0.326845 0.508589 0 255 0
-0.347171 -0.092678 -0.392272 76 0 153
0.403264 0.189438 0.799832 0 0 255
0.310431 -0.378136 0.389458 0 0 255
0.311731 0.149747 0.321230 0 0 255
-0.486901 0.038755 -0.354690 76 0 153
0.258007 0.089340 0.173626 0 0 255
0.463174 -0.113189 0.737318 0 0 255
0.255217 -0.242156 0.749649 0 255 0
-0.012857 0.384100 -0.015520 153 0 76
-0.201581 0.436610 -0.125321 76 0 153
0.218831 0.061947 0.219592 0 0 255
-0.315806 -0.139176 -0.203493 127 0 127
-0.486901 0.299216 -0.028678 76 0 153
0.262254 -0.271499 0.185295 0 0 255
-0.035726 -0.051969 -0.392272 76 0 153
-0.485375 -0.290997 -0.392272 76 0 153
-0.336394 0.315090 -0.421300 153 0 76
-0.136325 0.416341 0.138485 76 0 153
0.018177 0.078014 -0.060062 153 0 76
-0.466632 0.064954 -0.238829 76 0 153
-0.347828 -0.143679 -0.345216 127 0 127
0.244062 -0.215424 -0.373172 76 0 153
0.192086 0.291461 0.541089 127 127 0
-0.245961 -0.385641 0.120419 153 76 0
-0.439050 0.436610 0.005695 76 0 153
-0.423228 -0.365372 -0.257036 76 0 153
0.292769 -0.055823 0.422735 0 0 255
-0.486901 0.010266 -0.250348 76 0 153
-0.309282 0.436610 -0.347870 76 0 153
0.262632 0.303010 0.113234 76 0 153
0.104899 0.436610 0.088273 76 0 153
-0.466632 0.200591 -0.262435 76 0 153
-0.244896 0.416341 -0.281997 76 0 153
-0.238120 0.078014 -0.357668 0 127 127
0.393979 -0.178402 0.700808 0 0 255
-0.213535 -0.365372 -0.072931 76 0 153
-0.109149 0.321947 -0.392272 76 0 153
-0.463511 -0.385641 -0.242482 153 76 0
0.265953 -0.282118 0.349059 0 0 255
0.214882 -0.214508 0.638831 0 255 0
0.168822 -0.143679 -0.254071 127 0 127
0.179119 -0.255291 0.195837 0 255 0
-0.049767 -0.385641 0.059568 153 76 0
-0.202524 0.416341 -0.145500 76 0 153
-0.063948 -0.385641 -0.020856 153 76 0
0.146425 0.324749 0.450748 127 127 0
0.179079 -0.070551 0.183073 0 255 0
0.345046 0.249222 0.412764 0 0 255
-0.395500 0.436610 0.115552 76 0 153
-0.190869 -0.385641 0.079833 153 76 0
0.295540 0.324554 0.430349 0 0 255
0.082920 -0.148590 -0.460208 76 153 0
-0.085686 -0.247608 -0.460208 76 153 0
0.003701 0.436610 -0.205608 76 0 153
0.259492 0.168163 0.030975 76 0 153
0.243333 -0.226419 0.124703 0 0 255
0.142791 0.458811 0.131391 76 0 153
-0.466632 0.281813 -0.136355 76 0 153
0.260642 -0.335373 0.061106 76 0 153
0.171068 0.436610 -0.324995 76 0 153
0.337041 0.248341 0.693709 127 127 0
-0.077779 -0.385641 -0.255588 153 76 0
-0.316404 0.416341 -0.156926 76 0 153
-0.221255 -0.365372 0.003134 76 0 153
0.474161 0.256478 0.767504 0 0 255
0.460683 0.054938 0.834827 0 0 255
-0.141997 0.416341 -0.233998 76 0 153
0.032810 0.436610 -0.015386 76 0 153
0.210558 -0.385641 0.020496 153 76 0
-0.129956 0.436610 -0.193005 76 0 153
0.206810 0.321422 0.616652 127 127 0
-0.308244 0.436610 -0.082717 76 0 153
-0.364989 0.058857 -0.407660 153 0 76
-0.012800 -0.356870 -0.406773 153 76 0
0.461471 0.160620 0.834540 0 0 255
-0.261859 -0.365372 -0.003292 76 0 153
-0.020801 -0.143679 -0.386537 76 0 153
0.467244 0.281071 0.748498 0 0 255
0.488883 0.324366 0.807951 0 0 255
0.467382 -0.376187 0.748878 0 0 255
0.076035 0.436610 -0.070420 76 0 153
0.092101 -0.312192 0.237255 0 255 0
0.009806 -0.385641 0.058855 153 76 0
-0.160581 -0.039699 -0.392272 76 0 153
-0.157022 -0.365372 -0.291277 76 0 153
-0.109398 -0.084705 -0.406773 153 76 0
-0.285469 0.436610 -0.048951 76 0 153
-0.379667 0.436610 -0.054031 76 0 153
-0.029854 0.532284 0.141185 76 0 153
-0.158905 -0.317978 -0.460208 153 76 0
-0.179506 -0.139176 -0.261857 127 0 127
-0.300577 -0.385641 0.075133 153 76 0
-0.124584 0.436610 -0.168066 76 0 153
0.255496 0.038339 -0.073695 76 0 153
-0.416954 0.193662 -0.440839 153 0 76
-0.466632 -0.130202 -0.020994 76 0 153
-0.292263 -0.179291 -0.392272 76 0 153
0.218277 0.436610 -0.329187 76 0 153
0.234324 0.436610 0.082857 76 0 153
-0.124157 -0.365372 -0.145164 76 0 153
-0.044481 0.436610 -0.031902 76 0 153
0.197512 0.521931 0.097356 76 0 153
0.119640 -0.143679 -0.146980 127 0 127
-0.011151 -0.365463 -0.460208 76 153 0
-0.345216 0.436610 -0.295285 76 0 153
0.426474 0.291508 0.790087 127 127 0
-0.486901 -0.029719 0.026430 76 0 153
-0.353052 0.078014 -0.224451 0 127 127
-0.061103 0.074766 -0.392272 76 0 153
0.115388 -0.027426 -0.392272 76 0 153
0.220977 0.118643 -0.015520 153 0 76
-0.270849 0.416341 -0.132566 76 0 153
0.377221 -0.347976 0.501164 0 0 255
0.243333 0.007714 -0.151195 76 0 153
0.243333 -0.123284 0.062698 76 0 153
-0.486901 0.141134 -0.373479 76 0 153
0.428881 -0.364081 0.643097 0 0 255
-0.255858 0.416341 0.015730 76 0 153
-0.459584 0.416341 -0.362674 76 0 153
0.243333 0.060387 0.046498 76 0 153
0.245719 -0.326270 -0.329783 76 0 153
0.243333 -0.075959 -0.044417 76 0 153
-0.118046 -0.385641 -0.310670 153 76 0
-0.102883 -0.139176 -0.018469 127 0 127
-0.486901 -0.063215 -0.233884 76 0 153
-0.466632 0.159629 -0.322035 76 0 153
0.154615 0.299384 -0.015520 153 0 76
0.337495 0.271873 0.545621 0 0 255
-0.382266 -0.365372 0.121180 76 0 153
-0.072356 0.436610 -0.161913 76 0 153
0.342190 -0.315013 0.558519 0 0 255
0.261723 -0.362447 0.089423 76 0 153
0.155796 -0.174960 0.204326 0 255 0
-0.486901 -0.168083 -0.222995 76 0 153
0.089904 -0.385641 -0.213894 153 76 0
-0.151085 0.260929 -0.392272 76 0 153
-0.486901 -0.012535 -0.236755 76 0 153
-0.466632 -0.181076 -0.051220 76 0 153
0.243333 0.000767 0.028311 76 0 153
0.325015 0.355271 0.357728 0 0 255
-0.336956 0.416341 0.061302 76 0 153
-0.374871 0.078014 -0.207446 0 127 127
-0.316823 0.082517 -0.204657 0 127 127
0.258757 -0.044792 0.011727 76 0 153
0.423899 0.190114 0.629409 0 0 255
-0.382074 -0.231488 -0.400162 76 0 153
-0.486901 -0.145381 0.058763 76 0 153
-0.423222 -0.143679 -0.102363 127 0 127
-0.161149 -0.139476 -0.460208 76 153 0
0.246273 -0.230302 -0.315259 76 0 153
0.263121 0.196052 0.126029 76 0 153
0.100848 -0.365372 -0.349730 76 0 153
0.015417 0.419408 -0.392272 76 0 153
0.016351 0.416341 0.000738 153 0 76
-0.332943 -0.365372 -0.310817 76 0 153
0.134120 -0.365372 -0.160564 76 0 153
-0.288502 0.494582 0.164140 76 0 153
0.306497 -0.236655 0.825547 0 255 0
-0.268663 0.436610 -0.259627 76 0 153
-0.466632 0.356253 -0.339051 76 0 153
0.252690 -0.082158 0.159016 0 0 255
0.243333 0.167040 -0.007460 153 0 76
0.344997 0.135164 0.566232 0 0 255
-0.466632 -0.063288 0.104450 76 0 153
0.407053 -0.003490 0.583127 0 0 255
0.146089 -0.365372 -0.054346 76 0 153
-0.018651 -0.143679 -0.041050 127 0 127
0.259065 0.129724 0.019811 76 0 153
-0.193978 0.082517 -0.336331 0 127 127
0.218077 0.078103 0.140433 0 0 255
0.296850 0.024031 0.280345 0 0 255
0.068846 0.174512 -0.015520 153 0 76
-0.431770 0.436610 -0.093726 76 0 153
0.126326 0.416341 0.031959 76 0 153
0.311256 0.049762 0.319927 0 0 255
-0.486901 -0.102542 0.087979 76 0 153
-0.486901 0.130643 -0.133329 76 0 153
-0.304444 -0.099563 -0.392272 76 0 153
0.250075 0.048337 0.151832 0 0 255
-0.429051 -0.084189 -0.474935 153 0 76
-0.063773 0.291105 -0.300358 153 0 76
0.434137 -0.296661 0.811142 0 0 255
-0.486901 0.305472 -0.070185 76 0 153
-0.468339 -0.385641 0.082813 153 76 0
0.428207 0.164409 0.794849 0 0 255
-0.466632 -0.309735 -0.169497 76 0 153
-0.185500 -0.339400 -0.392272 76 0 153
0.243333 0.190773 0.100271 76 0 153
-0.169242 -0.385641 -0.055938 153 76 0
-0.385556 -0.143679 -0.253993 127 0 127
0.188864 -0.223380 0.567345 0 255 0
-0.486901 -0.199379 -0.164262 76 0 153
0.261798 -0.314300 0.091373 76 0 153
-0.059613 -0.249850 -0.392272 76 0 153
0.175117 0.248341 0.430541 127 127 0
-0.401954 0.078014 -0.373196 0 127 127
-0.063773 0.343377 -0.286714 153 0 76
0.422154 0.166485 0.624616 0 0 255
-0.107459 -0.365372 -0.118846 76 0 153
0.211048 -0.326845 0.269417 0 255 0
0.280333 0.105020 0.234966 0 0 255
0.257819 -0.108076 -0.012842 76 0 153
-0.236060 -0.385641 -0.257238 153 76 0
0.284167 0.304674 0.245499 0 0 255
0.085149 -0.245724 0.272170 0 255 0
0.422434 0.393488 0.778987 0 0 255
0.237759 -0.320167 0.701685 0 255 0
0.419322 0.187770 0.770438 0 0 255
0.484936 0.173650 0.797108 0 0 255
-0.466632 0.190222 0.016988 76 0 153
-0.229989 0.082517 -0.116046 0 127 127
0.143644 0.248940 0.443106 127 127 0
0.368902 -0.029891 0.631911 0 0 255
0.080271 -0.385641 0.037897 153 76 0
0.243333 0.262508 0.112833 76 0 153
0.254109 -0.070756 -0.110008 76 0 153
-0.410333 -0.139737 -0.395085 127 0 127
-0.400844 0.436610 -0.214007 76 0 153
-0.355289 0.093866 -0.423252 153 0 76
0.394949 0.112796 0.549870 0 0 255
0.088896 0.416341 0.099855 76 0 153
0.460273 -0.354367 0.729347 0 0 255
-0.048446 -0.385641 -0.190977 153 76 0
0.280800 -0.326845 0.594405 0 255 0
0.253475 -0.294655 -0.126616 76 0 153
-0.122630 -0.365372 -0.357176 76 0 153
-0.437193 0.082517 -0.290645 0 127 127
0.141867 -0.365372 -0.308282 76 0 153
0.062746 -0.385641 0.122061 153 76 0
-0.164484 -0.365372 -0.174241 76 0 153
-0.338587 0.284720 -0.392272 76 0 153
-0.459292 0.540432 0.144187 76 0 153
-0.222524 0.416341 0.015805 76 0 153
-0.094693 0.416341 -0.378475 76 0 153
-0.319470 -0.385641 -0.185057 153 76 0
-0.061687 -0.139176 -0.316343 127 0 127
0.150744 0.336031 0.206164 127 127 0
-0.332037 0.416341 -0.313643 76 0 153
0.143412 0.493355 0.168115 76 0 153
0.197114 0.436610 -0.228658 76 0 153
-0.416335 0.436610 -0.149876 76 0 153
0.190167 -0.155563 0.191816 0 255 0
-0.093827 0.078014 -0.173766 0 127 127
0.412060 -0.142094 0.596883 0 0 255
-0.044650 0.078014 -0.033051 153 0 76
-0.033233 0.078014 -0.140332 0 127 127
0.227950 -0.186791 0.244646 0 0 255
0.243333 -0.230938 0.043461 76 0 153
0.249380 -0.186527 -0.233886 76 0 153
-0.042504 0.363991 -0.015520 153 0 76
-0.082599 -0.075010 -0.460208 76 153 0
0.295548 -0.354196 0.276769 0 0 255
-0.380967 -0.365372 0.054314 76 0 153
-0.068604 -0.333722 -0.460208 153 76 0
-0.104389 0.078014 -0.128946 0 127 127
-0.466632 -0.224671 -0.086388 76 0 153
0.250007 0.382579 0.305248 0 0 255
0.233452 -0.326845 0.578303 0 255 0
0.457085 0.433837 0.822152 0 0 255
-0.466632 -0.092688 -0.118738 76 0 153
0.250206 0.127687 -0.212235 76 0 153
-0.466632 -0.184677 -0.001406 76 0 153
0.419163 -0.247705 0.806824 0 255 0
-0.061068 -0.365372 -0.058205 76 0 153
0.244498 -0.377969 0.160058 0 0 255
0.199985 -0.139176 -0.289437 127 0 127
-0.258409 0.253943 -0.432640 153 0 76
-0.327871 -0.365372 -0.079389 76 0 153
0.243333 -0.158430 -0.099276 76 0 153
-0.466632 -0.097540 -0.332293 76 0 153
-0.486901 -0.007424 -0.303543 76 0 153
0.194924 0.078014 -0.207072 0 127 127
0.370690 0.051835 0.824466 0 255 0
-0.241473 0.078014 -0.329099 0 127 127
0.466485 -0.007302 0.832715 0 0 255
-0.063773 0.216617 -0.042078 153 0 76
-0.281370 0.200506 -0.392272 76 0 153
0.393638 0.163623 0.546269 0 0 255
0.040099 -0.360409 -0.460208 153 76 0
0.244189 0.261125 -0.369836 76 0 153
0.243333 -0.257676 -0.022882 76 0 153
-0.370837 -0.139176 -0.180025 127 0 127
0.114695 -0.058966 -0.406773 76 153 0
0.161797 -0.263935 0.457872 0 255 0
-0.398810 0.416341 -0.185020 76 0 153
0.101549 -0.274935 0.245886 0 255 0
0.100818 -0.193105 0.305640 0 255 0
0.224160 -0.139176 -0.243021 127 0 127
0.254319 0.428928 -0.104521 76 0 153
0.151966 -0.365372 -0.139670 153 76 0
-0.239099 -0.000949 -0.392272 76 0 153
-0.466632 0.227005 0.104720 76 0 153
0.372461 0.165017 0.811043 0 0 255
0.109623 -0.262156 0.213948 0 255 0
-0.486901 0.421596 -0.082985 76 0 153
-0.486901 -0.257006 0.100355 76 0 153
0.261751 0.309612 0.090153 76 0 153
0.348060 -0.326845 0.633733 0 255 0
0.185897 0.135355 0.180591 0 0 255
0.243333 0.229006 0.003923 153 0 76
0.406831 0.273395 0.798534 127 127 0
0.292226 0.352246 0.421245 0 0 255
0.050552 0.078421 -0.015520 153 0 76
0.243333 -0.002498 0.125037 0 0 255
0.191806 0.429358 -0.392272 76 0 153
-0.466632 -0.164958 -0.151316 76 0 153
-0.243882 0.542523 0.141185 76 0 153
-0.400923 0.148306 -0.392272 76 0 153
0.115509 0.273215 0.209224 127 127 0
0.366540 0.301040 0.625420 0 0 255
-0.486901 -0.125419 -0.084269 76 0 153
-0.111965 0.436610 -0.106382 76 0 153
0.214248 -0.365372 -0.227009 76 0 153
-0.466632 0.269377 -0.335569 76 0 153
-0.427300 0.520449 0.127382 76 0 153
-0.486901 0.347759 -0.283690 76 0 153
0.259676 -0.326173 0.035795 76 0 153
0.122073 -0.302972 0.348729 0 255 0
0.211058 0.337803 0.198237 0 0 255
-0.157921 -0.365372 -0.231224 76 0 153
0.264817 0.324230 0.345938 0 0 255
-0.466632 0.020568 0.137855 76 0 153
0.243333 -0.120169 -0.119915 76 0 153
0.415985 -0.378136 0.677098 0 0 255
0.352127 0.132390 0.432218 0 0 255
0.247843 0.374419 -0.274128 76 0 153
-0.384472 -0.030707 -0.449947 153 0 76
0.145065 -0.365372 0.080788 76 0 153
0.108323 -0.143679 -0.307790 127 0 127
-0.149613 -0.143679 -0.342137 127 0 127
0.062572 -0.143679 -0.110418 127 0 127
0.081294 -0.334603 -0.460208 76 153 0
0.485810 0.111457 0.799510 0 0 255
-0.394032 0.416341 -0.056438 76 0 153
0.225081 0.134947 -0.392272 76 0 153
-0.027387 0.416341 -0.001268 153 0 76
-0.486901 -0.116930 0.056249 76 0 153
0.183636 -0.326845 0.494624 0 255 0
0.243333 0.029720 -0.107515 76 0 153
0.275248 0.328660 0.220995 0 0 255
-0.093906 0.275590 -0.392272 76 0 153
-0.146551 0.416341 0.009194 76 0 153
-0.202398 0.082517 -0.254813 0 127 127
-0.105697 -0.139176 -0.235744 127 0 127
-0.008063 0.416341 0.109908 76 0 153
-0.465309 -0.246451 -0.392272 76 0 153
0.262292 -0.067634 0.104327 76 0 153
-0.267418 0.416341 -0.232564 76 0 153
0.194676 0.059172 -0.392272 76 0 153
-0.186669 0.080683 -0.100680 0 127 127
-0.275195 0.436610 -0.107996 76 0 153
0.148337 -0.385641 -0.344464 153 76 0
-0.463093 0.416341 -0.335701 76 0 153
0.411001 0.011623 0.747575 0 0 255
-0.351849 0.436610 -0.243758 76 0 153
-0.466632 0.017907 -0.161943 76 0 153
-0.466632 -0.013759 0.015663 76 0 153
0.438656 -0.201745 0.823559 0 0 255
-0.355326 -0.139176 -0.070305 127 0 127
0.256698 -0.346384 0.170029 0 0 255
0.035081 -0.139176 -0.294959 127 0 127
0.390898 -0.051720 0.804333 0 0 255
-0.032427 -0.084152 -0.392272 76 0 153
-0.466632 -0.362906 -0.183006 76 0 153
-0.486901 -0.136000 -0.248218 76 0 153
-0.486901 -0.174585 -0.193481 76 0 153
-0.295765 -0.385641 -0.204254 153 76 0
-0.223823 -0.365372 -0.292041 76 0 153
-0.027361 -0.365372 -0.319390 76 0 153
-0.178969 0.210701 -0.420555 153 0 76
-0.466632 0.326765 -0.305253 76 0 153
-0.486901 -0.056259 -0.298875 76 0 153
-0.254808 0.482551 0.141185 76 0 153
-0.486901 0.193530 -0.342634 76 0 153
-0.256272 -0.385641 -0.305561 153 76 0
-0.466632 -0.048262 -0.339681 76 0 153
0.244524 -0.385641 -0.315292 153 76 0
-0.353731 0.473486 0.185113 76 0 153
0.030663 -0.333759 -0.392272 76 0 153
-0.383746 -0.086553 -0.484197 153 0 76
0.109462 0.274905 -0.015520 153 0 76
-0.086870 -0.342681 -0.392272 76 0 153
-0.145666 0.436610 0.076264 76 0 153
0.102423 0.373046 -0.015520 153 0 76
0.184643 -0.385641 -0.120761 153 76 0
0.091373 0.108826 -0.015520 153 0 76
0.061230 -0.365372 -0.027331 76 0 153
0.411212 -0.013920 0.748156 0 0 255
0.097174 -0.182508 -0.392272 76 0 153
0.198693 0.160388 -0.015520 153 0 76
0.163104 0.078014 -0.377972 76 0 153
0.020400 -0.385641 -0.215128 153 76 0
-0.270322 0.416341 0.055059 76 0 153
-0.364711 -0.365372 -0.185135 76 0 153
0.243333 0.351261 0.083308 76 0 153
-0.440952 0.364268 -0.392272 76 0 153
0.215949 0.100768 -0.392272 76 0 153
-0.364200 0.301622 -0.425457 153 0 76
-0.356920 0.011947 -0.461032 153 0 76
-0.389251 0.423207 -0.392272 76 0 153
0.258801 0.303889 0.012887 76 0 153
0.243333 -0.029272 -0.035638 76 0 153
-0.466632 0.333574 -0.259255 76 0 153
0.377654 0.105501 0.502352 0 0 255
-0.447043 0.436610 0.081358 76 0 153
0.034582 0.078014 -0.327015 0 127 127
-0.238048 -0.385641 -0.095077 153 76 0
-0.308622 0.436610 -0.010324 76 0 153
0.486971 0.000151 0.802698 0 0 255
0.224066 0.436610 0.051684 76 0 153
-0.015886 -0.385641 -0.182947 153 76 0
-0.098764 -0.365372 -0.294202 76 0 153
-0.120600 -0.309353 -0.392272 76 0 153
-0.421013 -0.124642 -0.480864 153 0 76
-0.255565 -0.365372 0.063165 76 0 153
-0.066259 0.436610 -0.009920 76 0 153
-0.486901 0.024175 -0.226903 76 0 153
0.408990 -0.119929 0.810526 0 0 255
0.177505 -0.372255 -0.443890 153 76 0
-0.107744 0.416341 -0.253377 76 0 153
-0.465533 0.290831 -0.392272 76 0 153
0.055304 0.225406 -0.392272 76 0 153
-0.225440 0.436610 -0.183018 76 0 153
-0.018296 0.416341 0.066222 76 0 153
-0.486901 0.389928 -0.305344 76 0 153
0.028010 -0.365372 -0.387409 76 0 153
0.241135 -0.326845 0.514865 0 255 0
0.054429 -0.365372 -0.234698 76 0 153
0.130906 -0.303702 0.372999 0 255 0
0.429818 -0.051720 0.645673 0 0 255
-0.366873 0.267859 -0.392272 76 0 153
0.248737 -0.326845 0.649920 0 255 0
0.172466 0.316205 0.522293 127 127 0
0.251937 0.360237 -0.166909 76 0 153
0.379751 0.221901 0.508115 0 0 255
0.219141 0.446591 0.153184 0 0 255
-0.142105 -0.385641 -0.014983 153 76 0
-0.390655 0.066577 -0.392272 0 127 127
-0.486901 -0.053386 -0.160280 76 0 153
0.441432 0.012436 0.677581 0 0 255
-0.243485 0.436610 -0.023073 76 0 153
0.177505 -0.208196 -0.436850 76 153 0
0.001209 0.078014 -0.077715 153 0 76
0.229264 -0.069494 0.248257 0 0 255
0.210858 0.043696 0.197686 0 0 255
-0.486901 -0.079159 0.042097 76 0 153
-0.147717 0.078014 -0.357448 0 127 127
-0.443239 0.447084 0.159485 76 0 153
-0.285215 -0.365372 -0.331806 76 0 153
0.339414 0.248341 0.644742 127 127 0
0.243333 -0.005135 -0.363645 76 0 153
-0.466632 -0.011400 -0.350141 76 0 153
-0.486901 -0.319425 -0.105455 76 0 153
0.194741 -0.385641 -0.229417 153 76 0
0.210015 0.416341 0.023137 76 0 153
-0.393462 -0.385641 -0.213970 153 76 0
-0.262097 -0.143679 -0.090676 127 0 127
-0.486901 0.008668 -0.339940 76 0 153
0.434187 0.306055 0.811278 0 0 255
-0.045636 -0.385641 -0.347110 153 76 0
-0.436974 -0.051401 -0.414502 153 0 76
-0.358255 0.120766 -0.416436 153 0 76
-0.486901 0.249774 -0.042648 76 0 153
-0.443583 0.019444 -0.451091 153 0 76
-0.127366 0.436610 -0.042626 76 0 153
0.375664 0.206464 0.822656 0 255 0
0.304012 0.248341 0.558013 127 127 0
0.163306 0.232764 0.201592 0 255 0
0.372950 0.342454 0.819300 127 127 0
-0.291819 0.416341 -0.115204 76 0 153
-0.079659 0.399375 -0.392272 76 0 153
0.323880 0.307242 0.354611 0 0 255
-0.087660 -0.384806 -0.406773 153 76 0
0.234011 -0.365372 0.037438 76 0 153
0.167823 -0.385641 -0.195355 153 76 0
-0.325465 0.416341 -0.059578 76 0 153
-0.466632 -0.217859 -0.028160 76 0 153
0.260781 0.295627 0.064738 76 0 153
-0.052021 0.411862 -0.015520 153 0 76
-0.486901 0.136593 -0.030587 76 0 153
0.028393 -0.365372 -0.137712 76 0 153
0.380613 -0.326845 0.793574 0 255 0
-0.445133 -0.365372 -0.268966 76 0 153
-0.466632 0.209431 -0.026660 76 0 153
0.306537 0.439086 0.319545 0 0 255
0.224408 -0.281234 -0.392272 76 0 153
0.153366 -0.302079 0.469816 0 255 0
0.243333 -0.290168 0.117196 76 0 153
-0.430615 -0.365372 0.093848 76 0 153
-0.342545 0.416341 -0.266693 76 0 153
0.160030 -0.058422 -0.413675 76 153 0
-0.422237 0.078014 -0.202091 0 127 127
0.155412 -0.139176 -0.280452 127 0 127
0.309793 0.064380 0.469510 0 0 255
0.113256 -0.385641 0.113831 153 76 0
0.243333 0.013047 -0.008208 76 0 153
0.198799 0.248341 0.435297 127 127 0
-0.486901 -0.032442 0.077118 76 0 153
0.127537 -0.326845 0.227354 0 255 0
-0.134104 -0.211602 -0.392272 76 0 153
-0.008222 -0.385641 -0.146164 153 76 0
0.479177 -0.203381 0.781286 0 0 255
0.381710 -0.208174 0.667099 0 0 255
-0.297198 -0.385641 -0.120665 153 76 0
-0.291232 0.318468 -0.429440 153 0 76
0.175478 -0.238492 0.530569 0 255 0
0.104355 0.416341 0.009331 76 0 153
0.057234 0.315149 -0.392272 76 0 153
0.205317 -0.310175 0.145077 0 0 255
0.083124 -0.365372 0.093006 76 0 153
-0.466632 0.056989 -0.052047 76 0 153
-0.114370 -0.385641 -0.368548 153 76 0
0.273015 0.085782 0.214860 0 0 255
0.485618 0.271264 0.798981 0 0 255
0.243889 0.139675 -0.377713 76 0 153
-0.166495 0.436610 0.117277 76 0 153
0.490881 0.145314 0.813442 0 0 255
-0.107567 0.436610 -0.296414 76 0 153
-0.466632 0.211745 0.068670 76 0 153
0.192709 -0.365372 -0.111853 76 0 153
0.199418 0.269107 0.166255 0 0 255
-0.355315 0.416341 -0.098836 76 0 153
-0.466632 0.355187 0.104056 76 0 153
-0.466632 -0.264328 0.089534 76 0 153
0.047982 -0.385641 -0.042131 153 76 0
0.302661 -0.062410 0.296310 0 0 255
0.278655 0.361902 0.230355 0 0 255
0.422784 0.346488 0.779950 0 0 255
0.110670 0.248341 0.276362 127 127 0
0.187711 -0.385641 -0.303548 153 76 0
0.230700 -0.365372 -0.299514 76 0 153
-0.259766 0.389946 -0.392272 76 0 153
0.243333 -0.022046 -0.136266 76 0 153
-0.140391 0.416341 -0.184788 76 0 153
0.242032 0.078014 -0.068544 76 0 153
-0.357014 0.416341 0.039129 76 0 153
0.199793 0.436610 0.106153 76 0 153
0.263836 -0.336166 0.343242 0 0 255
0.387133 -0.316383 0.528395 0 0 255
-0.165320 0.421450 -0.392272 76 0 153
-0.024564 -0.307867 -0.460208 76 153 0
0.426945 -0.311841 0.637778 0 0 255
-0.003477 -0.385641 -0.337390 153 76 0
-0.437051 0.436610 -0.247829 76 0 153
-0.004742 -0.143679 -0.147939 127 0 127
-0.135919 -0.242301 -0.460208 76 153 0
0.289885 0.439086 0.345182 0 0 255
-0.150666 0.416341 -0.130722 76 0 153
-0.483667 -0.385641 -0.175749 153 76 0
-0.285236 -0.385641 -0.227406 153 76 0
-0.466632 -0.122226 -0.174385 76 0 153
0.250637 0.157711 -0.200959 76 0 153
0.263059 -0.215946 0.187506 0 0 255
0.259199 0.248341 0.542085 127 127 0
0.308450 0.373636 0.465819 0 0 255
-0.227423 0.372981 -0.392272 76 0 153
0.258613 -0.205390 0.007951 76 0 153
0.199987 -0.222060 0.167820 0 0 255
0.019665 -0.365372 0.101985 76 0 153
-0.466632 -0.200644 -0.206686 76 0 153
0.161686 0.436610 0.032460 76 0 153
-0.383009 -0.274950 -0.392272 76 0 153
-0.466632 -0.342142 0.005577 76 0 153
-0.466632 0.089747 -0.030217 76 0 153
0.342890 -0.205797 0.560443 0 0 255
0.243333 -0.161142 -0.001863 76 0 153
0.258920 -0.239478 0.016014 76 0 153
0.475682 0.134302 0.771682 0 0 255
0.223647 -0.326477 0.627803 0 255 0
-0.486901 0.274920 -0.119950 76 0 153
0.259292 -0.275487 0.025755 76 0 153
-0.486901 0.127591 0.121358 76 0 153
-0.486901 -0.152538 -0.351619 76 0 153
-0.397776 0.416341 0.132192 76 0 153
0.253879 -0.186166 -0.116030 76 0 153
0.168629 0.344580 -0.015520 153 0 76
0.121409 -0.326845 0.274505 0 255 0
-0.454826 -0.365372 -0.320462 76 0 153
0.266008 0.294411 0.779298 127 127 0
-0.343020 0.488932 0.093003 76 0 153
0.314277 0.245227 0.328226 0 0 255
-0.440069 -0.385641 -0.434846 153 76 0
-0.486901 -0.193304 -0.275106 76 0 153
0.264850 0.000238 0.192426 0 0 255
-0.136982 -0.143679 -0.266829 127 0 127
-0.295498 0.416341 0.089128 76 0 153
0.189025 0.078014 -0.036443 153 0 76
-0.486901 -0.168710 -0.091035 76 0 153
0.243333 -0.045279 -0.076146 76 0 153
-0.466632 -0.153159 -0.261873 76 0 153
-0.234271 0.416341 -0.231512 76 0 153
0.244225 0.110394 -0.368911 76 0 153
-0.063773 0.410679 -0.234083 76 0 153
-0.087977 -0.365372 0.052480 76 0 153
-0.466632 -0.339908 -0.078119 76 0 153
0.291764 -0.082239 0.266371 0 0 255
-0.467156 -0.008726 0.141185 76 0 153
-0.239420 0.436610 -0.270667 76 0 153
-0.423308 0.416341 -0.230204 76 0 153
0.330483 0.326496 0.819625 127 127 0
0.243333 0.316506 0.000777 153 0 76
-0.077193 0.082517 -0.236401 0 127 127
-0.425537 -0.385641 -0.332068 153 76 0
0.462207 -0.204214 0.834272 0 0 255
-0.359590 -0.365372 0.001567 76 0 153
-0.286621 -0.385641 0.025018 153 76 0
0.243333 -0.248268 -0.082457 76 0 153
0.135763 -0.212458 0.198838 0 255 0
0.379589 -0.081238 0.507669 0 0 255
-0.181050 0.436610 -0.023109 76 0 153
-0.418859 0.416341 0.076904 76 0 153
-0.381488 -0.371985 -0.442017 153 0 76
-0.110699 -0.143679 -0.263261 127 0 127
0.193828 0.189589 -0.015520 153 0 76
0.251994 -0.000256 0.157105 0 0 255
-0.426218 0.436610 -0.291221 76 0 153
-0.229801 -0.304589 -0.392272 76 0 153
-0.459358 -0.082859 -0.392272 76 0 153
0.472086 0.301451 0.761803 0 0 255
-0.063773 0.210167 -0.337159 153 0 76
0.241713 0.036932 0.131830 0 0 255
0.474615 0.073547 0.829756 0 0 255
-0.400785 0.436610 -0.345614 76 0 153
0.053950 0.393124 -0.392272 76 0 153
-0.466632 -0.204040 -0.063985 76 0 153
0.088708 0.258599 -0.392272 76 0 153
-0.466632 0.141931 -0.057454 76 0 153
-0.316886 -0.139176 -0.057870 127 0 127
-0.305674 0.198155 -0.392272 76 0 153
0.376867 -0.030627 0.500191 0 0 255
-0.409570 0.416341 -0.364003 76 0 153
0.421016 -0.279200 0.775092 0 0 255
-0.018108 -0.385641 -0.092667 153 76 0
0.046146 -0.365372 0.047906 76 0 153
0.287930 0.322778 0.813443 127 127 0
-0.425651 0.436610 -0.041355 76 0 153
0.340408 0.230417 0.553623 0 0 255
0.186656 -0.248090 0.561281 0 255 0
0.054616 -0.217809 -0.406773 153 76 0
-0.423609 -0.365372 0.122363 76 0 153
0.483493 -0.141413 0.826525 0 0 255
-0.108796 -0.385641 0.026223 153 76 0
-0.102641 0.082517 -0.362069 0 127 127
0.444786 0.299581 0.686797 0 0 255
-0.347669 0.416341 -0.133464 76 0 153
0.184045 0.458811 0.101981 76 0 153
0.243333 0.048567 -0.166694 76 0 153
0.100092 -0.365372 0.112482 76 0 153
-0.486901 -0.157816 0.083550 76 0 153
-0.062842 -0.227408 -0.406773 153 76 0
0.043819 -0.385641 -0.509650 153 76 0
0.373439 0.083476 0.644374 0 0 255
-0.014479 -0.295082 -0.406773 153 76 0
0.261501 -0.047127 0.083616 76 0 153
-0.396848 0.082517 -0.128388 0 127 127
-0.486901 0.185583 0.111824 76 0 153
-0.298104 0.136877 -0.392272 76 0 153
0.369981 -0.326845 0.751246 0 255 0
0.006867 -0.085752 -0.406773 153 76 0
-0.485098 0.406387 0.138634 76 0 153
0.325993 -0.138601 0.514018 0 0 255
-0.486901 0.280332 -0.220802 76 0 153
-0.465929 0.416341 -0.048903 76 0 153
0.192416 -0.305911 0.190997 0 255 0
-0.466632 -0.205201 -0.376459 76 0 153
0.201595 -0.139176 -0.326258 127 0 127
0.092731 0.436610 -0.279489 76 0 153
0.062095 0.289135 -0.015520 153 0 76
0.152479 -0.285771 -0.460208 153 76 0
-0.131275 -0.365372 -0.007550 76 0 153
-0.093040 -0.351425 -0.460208 153 76 0
0.263499 0.123630 0.135948 76 0 153
0.317246 -0.161889 0.489986 0 0 255
-0.486901 0.094140 -0.348925 76 0 153
0.243333 0.101418 0.092271 76 0 153
0.255561 0.216798 -0.071969 76 0 153
0.062139 0.189882 -0.392272 76 0 153
-0.075020 -0.073252 -0.406773 153 76 0
-0.318745 -0.385641 -0.071689 153 76 0
0.241385 -0.365372 -0.115775 76 0 153
0.402856 -0.144814 0.799980 0 0 255
0.409741 -0.378136 0.726721 0 0 255
0.073834 -0.365372 -0.200933 76 0 153
-0.407835 0.436610 0.004814 76 0 153
-0.177633 -0.373310 -0.426827 153 76 0
0.197214 0.436610 0.036814 76 0 153
0.403281 0.018286 0.572762 0 0 255
-0.216725 0.416341 -0.311624 76 0 153
0.084638 0.436610 0.115497 76 0 153
0.181757 0.139112 -0.392272 76 0 153
0.217653 -0.365372 0.097350 76 0 153
0.039746 -0.385641 -0.380591 153 76 0
0.003182 0.078014 -0.364338 0 127 127
-0.466632 -0.024212 0.041924 76 0 153
-0.357684 -0.365372 0.087997 76 0 153
-0.119039 0.416341 0.002616 76 0 153
-0.486901 0.187080 -0.046463 76 0 153
0.208475 -0.044254 0.143928 0 0 255
0.284325 0.248341 0.645843 127 127 0
-0.324013 -0.365372 0.093891 76 0 153
-0.067768 0.078014 -0.336029 0 127 127
0.246571 0.369590 -0.307459 76 0 153
0.309462 -0.326845 0.748710 0 255 0
-0.365006 0.479500 0.165786 76 0 153
-0.037210 0.412350 -0.392272 76 0 153
0.312368 0.207779 0.476584 0 0 255
0.119936 0.078014 -0.277450 0 127 127
-0.199374 0.416341 -0.088684 76 0 153
0.262332 0.415440 0.185508 0 0 255
-0.441617 -0.365372 -0.139042 76 0 153
0.165030 -0.143679 -0.346126 127 0 127
0.334466 -0.173096 0.537296 0 0 255
0.201550 -0.358731 0.172114 0 0 255
0.243333 -0.091579 -0.199147 76 0 153
-0.486901 0.309118 -0.388259 76 0 153
-0.466632 -0.298279 -0.330445 76 0 153
-0.096355 0.416341 -0.273531 76 0 153
0.229321 -0.143679 -0.075410 127 0 127
0.434907 -0.296376 0.659655 0 0 255
0.246025 0.250221 -0.321767 76 0 153
-0.465962 0.082517 -0.141594 76 0 153
-0.384979 -0.139217 -0.016635 127 0 127
-0.103844 -0.142342 -0.460208 76 153 0
0.102493 -0.141190 -0.406773 153 76 0
0.037598 -0.103685 -0.406773 153 76 0
0.451290 -0.232113 0.704667 0 0 255
-0.371382 0.436610 -0.026226 76 0 153
0.225866 0.184094 0.137598 0 0 255
0.253985 0.197765 -0.113258 76 0 153
0.009868 -0.289630 -0.406773 153 76 0
-0.218974 -0.385641 -0.322616 153 76 0
0.248440 0.340926 -0.258511 76 0 153
0.193905 -0.385641 -0.363301 153 76 0
0.224528 0.235364 0.235245 0 0 255
0.252475 0.086857 -0.152820 76 0 153
0.426859 0.090154 0.791146 0 0 255
0.258908 -0.217498 0.724683 0 255 0
0.127179 -0.271002 -0.460208 153 76 0
-0.182737 0.391994 -0.392272 76 0 153
-0.268329 0.436610 -0.158458 76 0 153
-0.255519 0.436610 -0.063073 76 0 153
0.444215 0.342524 0.685228 0 0 255
-0.236470 -0.143679 -0.167822 127 0 127
0.105053 -0.235738 0.301968 0 255 0
0.286502 0.021324 0.405518 0 0 255
0.232123 -0.193105 0.661746 0 255 0
-0.466632 0.375516 0.000454 76 0 153
0.247264 0.108610 -0.289310 76 0 153
-0.246012 0.436610 0.094627 76 0 153
0.260954 0.321874 0.069268 76 0 153
-0.247558 0.164106 -0.392272 76 0 153
-0.381656 -0.319481 -0.443297 153 0 76
0.149976 0.162240 0.193665 0 0 255
0.413894 0.209116 0.808742 0 0 255
0.111010 -0.385641 0.017856 153 76 0
-0.359347 -0.025298 -0.465333 153 0 76
0.170819 -0.270440 0.517768 0 255 0
-0.372299 -0.365372 -0.041393 76 0 153
0.176455 0.313847 0.498143 127 127 0
0.117573 0.339846 0.222965 127 127 0
-0.127425 0.416341 0.068745 76 0 153
-0.063773 0.104847 -0.374446 153 0 76
0.262099 0.029521 0.099281 76 0 153
0.256383 -0.232730 -0.050455 76 0 153
0.250432 0.248341 0.382903 127 127 0
0.188510 -0.321991 0.566375 0 255 0
0.200020 0.391575 -0.015520 153 0 76
-0.486901 0.225266 -0.216390 76 0 153
0.024020 0.297704 -0.015520 153 0 76
0.386432 0.188931 0.680072 0 0 255
-0.485887 0.061391 0.141185 76 0 153
0.258275 0.203201 -0.000884 76 0 153
0.314179 -0.378136 0.467296 0 0 255
0.322166 -0.008430 0.349902 0 0 255
0.377518 0.173624 0.501980 0 0 255
-0.003066 0.078014 -0.261315 0 127 127
-0.370560 -0.385641 0.066539 153 76 0
-0.135648 -0.365372 -0.314468 76 0 153
0.236772 0.252289 0.698973 127 127 0
-0.069543 0.416341 -0.113831 76 0 153
-0.063773 0.170686 -0.191787 153 0 76
-0.468209 0.458062 0.116182 76 0 153
-0.376241 0.530593 0.144187 76 0 153
-0.259899 -0.181818 -0.392272 76 0 153
-0.002096 -0.365372 0.129823 76 0 153
0.328212 0.250077 0.520116 0 0 255
-0.063773 0.096440 -0.193753 153 0 76
0.087875 -0.259272 -0.406773 153 76 0
0.334618 0.346026 0.537715 0 0 255
0.177505 -0.083216 -0.433091 153 76 0
0.348349 -0.286442 0.575441 0 0 255
-0.486901 -0.225911 0.102740 76 0 153
0.026535 -0.385641 0.118955 153 76 0
-0.090445 -0.143679 -0.390551 153 76 0
0.395783 0.217391 0.552163 0 0 255
0.259919 -0.298557 0.042158 76 0 153
0.252172 0.219002 -0.160747 76 0 153
0.030070 0.436610 -0.318359 76 0 153
-0.466632 -0.215428 0.091923 76 0 153
-0.486901 -0.154867 0.007628 76 0 153
-0.452515 -0.385641 -0.057093 153 76 0
-0.155016 0.436610 0.044199 76 0 153
-0.224058 -0.385641 0.047288 153 76 0
-0.108329 0.078014 -0.249149 0 127 127
0.075037 -0.365372 -0.086375 76 0 153
-0.063773 0.259198 -0.266731 153 0 76
-0.466632 0.315819 -0.327069 76 0 153
0.075728 -0.278577 -0.460208 153 76 0
0.125615 0.436610 -0.150610 76 0 153
-0.063773 0.141245 -0.122349 153 0 76
-0.230897 -0.385641 0.090925 76 0 153
0.216374 -0.365372 -0.024246 76 0 153
-0.001234 0.436610 -0.101000 76 0 153
-0.368812 0.078014 -0.339039 0 127 127
-0.151438 -0.385641 -0.249949 153 76 0
0.045951 -0.385641 -0.316191 153 76 0
-0.364670 -0.365372 -0.076769 76 0 153
0.258638 0.305043 0.175359 0 0 255
-0.466632 -0.325223 0.075692 76 0 153
-0.191459 -0.313941 -0.392272 76 0 153
0.251242 -0.289646 0.308642 0 0 255
-0.354425 0.416341 -0.197303 76 0 153
-0.241871 -0.365372 -0.148566 76 0 153
-0.324934 -0.251126 -0.392272 153 0 76
-0.466632 -0.187732 -0.148372 76 0 153
-0.466632 0.010569 -0.262261 76 0 153
-0.109587 0.436610 -0.218268 76 0 153
0.344104 -0.115798 0.410174 0 0 255
0.222032 -0.169392 0.228387 0 0 255
-0.466632 -0.238674 0.135423 76 0 153
0.395314 0.013360 0.550874 0 0 255
0.281616 -0.307345 0.785718 0 255 0
0.275354 -0.289069 0.374888 0 0 255
0.278014 0.203522 0.228594 0 0 255
-0.328879 0.436610 0.084993 76 0 153
-0.389935 -0.385641 0.022358 76 0 153
-0.358300 -0.365372 -0.358906 76 0 153
0.157589 -0.346803 -0.460208 153 76 0
-0.430813 -0.365372 -0.179181 76 0 153
-0.486901 -0.344865 0.038046 76 0 153
-0.063773 0.223578 -0.179790 153 0 76
0.042786 0.416341 0.092332 76 0 153
-0.407232 -0.143679 -0.284945 127 0 127
0.261222 0.431262 0.141185 76 0 153
-0.466632 0.301567 -0.179941 76 0 153
0.318632 0.439086 0.407501 0 0 255
-0.305314 0.436610 0.044485 76 0 153
-0.486901 -0.022882 -0.129762 76 0 153
0.401194 -0.039202 0.567027 0 0 255
0.314384 -0.264446 0.815731 0 255 0
0.095955 0.377845 -0.392272 76 0 153
0.149698 0.416341 -0.012355 153 0 76
0.293050 -0.167289 0.423508 0 0 255
0.432665 -0.378136 0.726699 0 0 255
-0.203276 0.170524 -0.392272 76 0 153
-0.486901 -0.050486 -0.328240 76 0 153
0.430755 0.439086 0.715812 0 0 255
-0.059688 0.323738 -0.392272 76 0 153
-0.120478 -0.385641 0.100635 153 76 0
-0.466632 0.085776 0.101785 76 0 153
-0.486901 -0.365245 -0.342379 76 0 153
-0.074361 -0.143679 -0.344302 127 0 127
0.090493 -0.385641 -0.238244 153 76 0
0.332000 -0.201609 0.831871 0 255 0
-0.044764 0.078014 -0.375992 0 127 127
-0.483789 0.344664 0.141185 76 0 153
-0.486901 0.335382 -0.091359 76 0 153
-0.099364 0.002764 -0.392272 76 0 153
-0.466632 0.047372 -0.190131 76 0 153
0.457182 0.075227 0.720855 0 0 255
0.135584 -0.051923 0.205337 0 0 255
-0.245837 -0.385641 -0.064403 153 76 0
-0.486901 -0.098966 -0.154750 76 0 153
-0.007058 -0.365372 0.078948 76 0 153
-0.193845 0.416341 -0.117995 76 0 153
0.287123 0.204314 0.407223 0 0 255
-0.406048 -0.231488 -0.459779 153 0 76
-0.268259 -0.139176 -0.370062 127 0 127
-0.097313 -0.058422 -0.443195 153 76 0
-0.466632 0.404428 -0.303149 76 0 153
0.339838 0.008478 0.398455 0 0 255
0.436686 0.373711 0.818145 0 0 255
-0.266404 0.436610 -0.012799 76 0 153
0.112119 -0.077156 -0.392272 76 0 153
0.171497 -0.385641 -0.009107 153 76 0
0.296688 -0.320558 0.805204 0 255 0
0.263181 -0.318968 0.187842 0 0 255
-0.466632 0.315083 0.018261 76 0 153
-0.109785 0.416341 -0.087310 76 0 153
0.479116 -0.116369 0.781118 0 0 255
-0.007296 -0.385641 -0.503731 153 76 0
0.243333 -0.187074 -0.029502 76 0 153
0.007902 -0.385641 -0.280802 153 76 0
-0.466632 0.378930 0.120058 76 0 153
0.069345 0.436610 -0.337734 76 0 153
-0.466632 0.134946 -0.337010 76 0 153
-0.359246 -0.231488 -0.457908 153 0 76
-0.466632 -0.124258 -0.125307 76 0 153
0.253608 0.106075 -0.123131 76 0 153
0.188364 -0.365372 -0.138591 76 0 153
0.276522 -0.314004 0.378098 0 0 255
0.262841 -0.209004 0.118694 76 0 153
-0.102992 -0.385641 -0.043314 153 76 0
0.051087 0.436610 -0.099740 76 0 153
0.447553 0.203698 0.694399 0 0 255
0.243333 -0.115996 0.026977 76 0 153
-0.465391 -0.080566 0.141185 76 0 153
0.368337 0.153217 0.476754 0 0 255
-0.463671 0.418827 -0.392272 76 0 153
-0.063773 0.299897 -0.360219 153 0 76
-0.395498 0.416341 -0.304542 76 0 153
-0.486901 -0.093143 -0.187708 76 0 153
-0.236765 -0.365372 -0.195852 76 0 153
-0.244355 0.416341 0.079747 76 0 153
-0.354001 0.416341 0.123689 76 0 153
0.194182 -0.193105 0.546918 0 255 0
0.140494 0.262727 0.209895 127 127 0
-0.486901 0.330057 -0.344132 76 0 153
0.376977 -0.184691 0.654095 0 0 255
-0.209598 0.078014 -0.320280 0 127 127
0.112040 -0.195279 0.212008 0 255 0
0.065397 -0.119761 -0.406773 153 76 0
0.168833 -0.385641 0.137425 153 76 0
-0.388311 0.127702 -0.394831 76 0 153
0.249893 -0.342039 -0.220452 76 0 153
-0.466632 0.321927 0.120513 76 0 153
0.217660 0.408755 0.216375 0 0 255
-0.129784 -0.365372 -0.048051 76 0 153
0.098791 -0.198825 0.254532 0 255 0
0.207917 -0.385641 -0.009368 153 76 0
0.228459 -0.273705 0.676132 0 255 0
-0.137589 -0.269885 -0.460208 153 76 0
0.086560 0.327567 0.253995 127 127 0
0.243333 0.219098 0.138608 76 0 153
0.132063 0.250007 -0.392272 76 0 153
0.243333 -0.076701 -0.319474 76 0 153
0.029075 0.173833 -0.015520 153 0 76
-0.354603 -0.385641 -0.268826 153 76 0
0.111402 0.294451 -0.392272 76 0 153
-0.466632 -0.298348 -0.380999 76 0 153
0.243333 0.076601 0.018696 76 0 153
0.394198 0.426850 0.547807 0 0 255
0.230419 -0.301556 0.646410 0 255 0
-0.093793 -0.385641 0.004045 153 76 0
-0.460595 0.137681 -0.392272 76 0 153
-0.359805 0.019145 -0.392272 76 0 153
-0.104736 0.436610 0.012117 76 0 153
-0.254873 0.436610 -0.390856 76 0 153
-0.290622 -0.329696 -0.392272 76 0 153
0.257621 -0.364439 -0.018014 76 0 153
0.493291 0.265097 0.822959 0 0 255
0.248823 -0.102046 -0.248458 76 0 153
0.276988 -0.238714 0.801377 0 255 0
0.194894 -0.123054 0.153826 0 0 255
0.136548 0.248341 0.291073 127 127 0
-0.466632 0.195728 -0.325994 76 0 153
0.203686 -0.385641 0.063562 153 76 0
-0.284234 0.082517 -0.264076 0 127 127
-0.418979 -0.101017 -0.398638 76 0 153
-0.154957 -0.225479 -0.460208 76 153 0
0.274267 -0.203817 0.371903 0 0 255
0.335702 -0.279054 0.819979 0 255 0
-0.486901 0.101565 -0.159353 76 0 153
0.473103 -0.354290 0.829787 0 0 255
-0.055063 -0.284081 -0.406773 153 76 0
0.187445 -0.197481 0.192806 0 255 0
-0.421673 -0.365372 -0.210556 76 0 153
-0.184432 -0.365372 0.016421 76 0 153
-0.184993 0.416341 -0.277958 76 0 153
-0.153169 -0.365372 -0.144497 76 0 153
0.239365 0.252172 -0.015520 153 0 76
-0.486901 0.379721 -0.108813 76 0 153
-0.460845 -0.385641 0.013688 153 76 0
0.225292 0.436223 0.237343 0 0 255
-0.053025 -0.211696 -0.460208 153 76 0
0.342640 0.423585 0.559755 0 0 255
0.263602 -0.251659 0.140863 0 0 255
0.406439 0.081377 0.735041 0 0 255
-0.059548 0.372917 -0.392272 76 0 153
0.364663 0.298795 0.826660 127 127 0
0.256531 -0.385641 0.052468 153 76 0
0.325598 0.034378 0.512932 0 0 255
-0.289877 0.433440 0.138634 76 0 153
-0.486901 0.005653 0.108034 76 0 153
-0.486901 -0.218607 -0.273983 76 0 153
-0.131381 0.436610 0.032637 76 0 153
0.439529 -0.033146 0.672352 0 0 255
-0.427993 -0.047272 -0.475747 153 0 76
-0.111133 0.436610 -0.058537 76 0 153
-0.205635 -0.365372 -0.233270 76 0 153
0.160594 0.263429 0.489676 127 127 0
-0.155030 -0.365372 0.039675 76 0 153
-0.048373 0.436610 0.121953 76 0 153
-0.151088 0.436610 -0.364906 76 0 153
0.435125 -0.009543 0.660254 0 0 255
0.139501 -0.370507 -0.460208 153 76 0
0.177505 -0.344134 -0.426290 76 153 0
0.265907 0.349198 0.348932 0 0 255
-0.466632 0.403776 0.025829 76 0 153
0.428903 0.374835 0.796762 0 0 255
0.048295 -0.365372 -0.007940 76 0 153
-0.352713 -0.028874 -0.432420 153 0 76
-0.338745 -0.385641 -0.420571 153 76 0
-0.070930 0.436610 -0.256879 76 0 153
-0.486901 0.070762 0.080308 76 0 153
0.271440 0.038536 0.364135 0 0 255
-0.131499 -0.058422 -0.412998 76 153 0
-0.036609 -0.139176 -0.369656 127 0 127
0.326247 0.439086 0.365992 0 0 255
-0.486901 -0.339582 -0.180097 76 0 153
0.177505 -0.073013 -0.411741 76 153 0
0.255453 -0.273745 -0.074807 76 0 153
0.316094 -0.007628 0.486821 0 0 255
0.308191 -0.146130 0.311505 0 0 255
0.154009 -0.385641 0.023660 153 76 0
-0.053140 0.155150 -0.392272 76 0 153
0.192100 0.059258 0.178333 0 255 0
0.277744 0.232184 0.227852 0 0 255
0.069989 -0.143679 -0.348220 127 0 127
0.110054 -0.385641 -0.186043 153 76 0
0.246342 -0.342340 0.295179 0 0 255
-0.266933 0.416341 -0.290980 76 0 153
0.350245 0.364054 0.580650 0 0 255
-0.088935 -0.385641 -0.084678 153 76 0
-0.169550 -0.224576 -0.392272 76 0 153
-0.328337 0.082517 -0.126297 0 127 127
-0.322721 0.078014 -0.353300 0 127 127
-0.291670 -0.220567 -0.392272 76 0 153
-0.486901 0.351336 -0.184094 76 0 153
0.136928 -0.326845 0.318385 0 255 0
0.165164 0.248341 0.452204 127 127 0
-0.466632 0.319201 -0.073803 76 0 153
-0.466632 -0.224796 -0.113018 76 0 153
-0.466632 -0.218533 -0.287478 76 0 153
-0.278143 0.298883 -0.452654 153 0 76
-0.486901 0.262621 -0.264440 76 0 153
-0.167060 -0.365372 0.085877 76 0 153
0.361826 -0.326634 0.827689 0 255 0
-0.348641 0.416341 0.011117 76 0 153
0.270820 0.208510 0.362431 0 0 255
0.354430 -0.077389 0.438545 0 0 255
-0.486901 -0.163453 0.030977 76 0 153
0.172448 0.263682 -0.015520 153 0 76
-0.486901 0.290207 -0.198142 76 0 153
-0.466632 -0.270659 -0.217578 76 0 153
-0.063773 0.148011 -0.145907 153 0 76
0.033125 0.078014 -0.132880 0 127 127
0.164667 -0.326845 0.287926 0 255 0
-0.466632 0.011518 -0.219417 76 0 153
0.272592 0.285057 0.367301 0 0 255
-0.086129 0.086122 -0.392272 76 0 153
0.228627 -0.365372 0.136570 0 0 255
-0.161647 0.416341 -0.048321 76 0 153
-0.180105 0.082517 -0.259655 0 127 127
-0.352182 0.045551 -0.436455 153 0 76
-0.412998 -0.385641 -0.157178 153 76 0
0.243333 0.050405 0.110697 76 0 153
-0.288641 0.436610 -0.025942 76 0 153
-0.466632 -0.103019 -0.080697 76 0 153
0.243333 0.346415 0.059778 76 0 153
-0.204540 -0.365372 0.074343 76 0 153
0.360863 0.086017 0.456220 0 0 255
0.215826 0.511925 0.147096 76 0 153
0.235912 -0.223089 0.266521 0 0 255
0.091690 -0.143679 -0.215218 127 0 127
-0.063773 0.153989 -0.232376 153 0 76
-0.466632 -0.332992 -0.052899 76 0 153
0.134857 -0.365372 0.022284 76 0 153
0.282403 0.079112 0.394256 0 0 255
0.400441 -0.063242 0.718562 0 0 255
0.140997 0.248341 0.375523 127 127 0
-0.054056 -0.118832 -0.406773 153 76 0
0.141392 -0.001084 0.209568 0 0 255
0.150790 -0.248769 0.427629 0 255 0
0.215798 0.170345 -0.392272 76 0 153
0.052418 0.436610 -0.046831 76 0 153
-0.387593 -0.385641 0.129645 153 76 0
-0.063084 -0.365372 0.069887 76 0 153
-0.486901 0.179786 -0.166755 76 0 153
0.254405 0.291196 -0.102251 76 0 153
0.336615 0.299623 0.543200 0 0 255
0.250449 0.202650 -0.205876 76 0 153
-0.220462 -0.385641 -0.429443 76 0 153
0.166518 0.436610 0.113219 76 0 153
0.336273 0.289492 0.388660 0 0 255
-0.425711 -0.365372 0.033864 76 0 153
0.097827 0.078014 -0.109069 0 127 127
0.450465 -0.023818 0.702399 0 0 255
0.243333 -0.307787 -0.291242 76 0 153
-0.486901 -0.072120 0.085686 76 0 153
-0.274316 0.273215 -0.392272 76 0 153
0.243333 -0.245365 -0.178773 76 0 153
-0.486901 0.292421 -0.092182 76 0 153
-0.486901 0.371319 0.029219 76 0 153
0.397540 0.340367 0.556990 0 0 255
-0.406079 -0.385641 -0.276176 153 76 0
0.227670 0.078014 -0.270240 0 127 127
0.260638 0.129082 0.061013 76 0 153
0.243333 -0.032385 -0.367600 76 0 153
0.449924 -0.250844 0.838743 0 0 255
-0.066608 -0.139176 -0.383213 76 0 153
0.251915 0.190089 -0.167480 76 0 153
0.213496 -0.087796 -0.392272 76 0 153
0.008302 -0.040491 -0.392272 76 0 153
0.035245 0.416341 0.061471 76 0 153
-0.120861 -0.154546 -0.406773 153 76 0
-0.220199 -0.385641 -0.065628 153 76 0
-0.466632 0.005225 -0.307078 76 0 153
0.232369 -0.385641 -0.174137 153 76 0
-0.275544 0.416341 -0.372197 76 0 153
0.028935 0.416594 0.138634 76 0 153
0.082120 0.416341 0.049841 76 0 153
0.295321 0.430229 0.276144 0 0 255
-0.076004 -0.001994 -0.392272 76 0 153
-0.162539 0.436610 -0.202918 76 0 153
-0.466632 -0.015928 -0.030135 76 0 153
-0.466632 0.260362 -0.102621 76 0 153
0.106047 0.322664 -0.392272 76 0 153
-0.398196 0.416341 -0.126313 76 0 153
-0.486901 -0.292927 -0.303342 76 0 153
-0.466632 0.224731 -0.173806 76 0 153
0.243333 -0.155331 0.068825 76 0 153
0.270713 -0.211812 0.790754 0 255 0
-0.070385 0.416341 -0.286760 76 0 153
-0.392048 -0.144794 -0.455922 153 0 76
-0.379994 -0.365372 -0.226844 76 0 153
0.203691 0.254607 0.608084 127 127 0
0.229055 -0.092000 0.247681 0 0 255
-0.486901 -0.301793 -0.038553 76 0 153
-0.466632 -0.324279 -0.327834 76 0 153
-0.444061 0.117031 -0.432889 153 0 76
-0.486901 0.266027 -0.289436 76 0 153
-0.466632 0.253027 -0.221802 76 0 153
-0.187081 -0.385641 -0.207869 153 76 0
0.291681 0.225849 0.266143 0 0 255
-0.324874 0.496441 0.143418 76 0 153
0.430758 0.142657 0.648255 0 0 255
0.247958 -0.212702 0.146016 0 0 255
0.439308 0.416892 0.825348 0 0 255
-0.486901 -0.233129 -0.217714 76 0 153
0.234529 -0.385641 -0.497803 153 76 0
0.192062 0.115738 -0.015520 153 0 76
-0.176561 -0.279929 -0.392272 76 0 153
0.003179 0.289347 -0.392272 76 0 153
-0.462617 0.212238 -0.392272 76 0 153
-0.114692 0.416341 0.087279 76 0 153
0.132680 -0.363440 -0.406773 153 76 0
0.177505 -0.163538 -0.436319 76 153 0
-0.241078 -0.385641 -0.469899 76 0 153
0.253343 0.180095 -0.130065 76 0 153
0.300960 0.082845 0.291637 0 0 255
0.029126 -0.143679 -0.249494 127 0 127
0.236645 0.416869 0.268537 0 0 255
0.097866 -0.103750 -0.460208 76 153 0
-0.486901 0.384645 0.074904 76 0 153
0.243333 0.320615 0.054829 76 0 153
0.086687 -0.304016 0.284783 0 255 0
-0.466632 -0.349129 0.083110 76 0 153
-0.466632 -0.327960 -0.126486 76 0 153
0.409172 -0.229587 0.797682 0 255 0
-0.063773 0.370719 -0.046744 153 0 76
-0.311927 -0.365372 -0.095792 76 0 153
-0.107836 0.436610 0.115825 76 0 153
-0.420923 -0.385641 0.061911 153 76 0
0.416011 -0.290037 0.795192 0 255 0
-0.162282 0.436610 -0.010783 76 0 153
-0.434168 0.436610 0.045886 76 0 153
-0.044249 -0.365372 0.095169 76 0 153
0.249623 0.212797 -0.227526 76 0 153
0.172681 -0.244307 -0.460208 153 76 0
0.156939 0.112666 0.203909 0 0 255
0.067429 0.416341 0.090336 76 0 153
-0.466632 0.238391 -0.366388 76 0 153
0.343583 0.057771 0.408744 0 0 255
-0.237943 -0.385641 -0.234874 153 76 0
0.038317 -0.001737 -0.392272 76 0 153
-0.056130 0.543119 0.141185 76 0 153
0.252725 0.207493 0.312716 0 0 255
-0.201345 -0.385641 -0.246186 153 76 0
-0.089044 -0.277672 -0.392272 76 0 153
0.263267 -0.007958 0.341679 0 0 255
0.096485 -0.349313 -0.392272 76 0 153
-0.466632 -0.333460 -0.301477 76 0 153
-0.466632 0.093429 0.123971 76 0 153
0.184302 0.357210 -0.392272 76 0 153
-0.486901 -0.357922 -0.036860 76 0 153
0.255868 -0.073030 -0.063927 76 0 153
0.253609 0.388804 -0.123113 76 0 153
-0.486901 -0.035253 -0.072439 76 0 153
0.195927 0.272060 0.551643 127 127 0
0.458434 -0.272351 0.724293 0 0 255
-0.212448 0.218696 -0.442145 153 0 76
0.217293 -0.385641 -0.085572 153 76 0
-0.013944 0.513535 0.141185 76 0 153
0.126747 -0.227945 0.361573 0 255 0
-0.416517 0.416341 -0.100121 76 0 153
0.157676 -0.326845 0.209523 0 255 0
0.221967 0.139346 0.139017 0 0 255
0.251924 0.324134 -0.167246 76 0 153
0.426549 -0.163309 0.636692 0 0 255
-0.466632 -0.014344 -0.055907 76 0 153
0.098768 -0.251408 0.254626 0 255 0
0.117651 0.161371 -0.015520 153 0 76
0.035740 0.078014 -0.206874 0 127 127
-0.057202 -0.385641 -0.461355 153 76 0
0.280294 -0.007891 0.234858 0 0 255
0.052466 0.264730 -0.392272 76 0 153
-0.466632 0.225054 -0.070842 76 0 153
-0.335465 -0.364966 0.141185 76 0 153
-0.486901 -0.276416 -0.005952 76 0 153
-0.245234 0.436610 0.021022 76 0 153
-0.486901 0.049025 0.045368 76 0 153
-0.304863 0.416341 -0.255829 76 0 153
-0.466632 0.134085 0.094550 76 0 153
0.387572 0.301269 0.529602 0 0 255
-0.466632 -0.037973 -0.099833 76 0 153
-0.294003 -0.365372 -0.037077 76 0 153
-0.466632 -0.158672 -0.184056 76 0 153
0.206649 -0.236226 0.186122 0 0 255
-0.397555 -0.385641 -0.066788 153 76 0
-0.466632 0.188505 -0.373242 76 0 153
0.434771 0.178063 0.812882 0 0 255
-0.466632 0.308778 -0.279891 76 0 153
0.383957 0.414863 0.519670 0 0 255
-0.466632 -0.232397 -0.135421 76 0 153
0.028278 0.078014 -0.181948 0 127 127
-0.466632 0.169907 -0.258062 76 0 153
-0.466632 0.069994 -0.183579 76 0 153
-0.177633 -0.222586 -0.436195 76 153 0
0.251833 -0.179688 0.156663 0 0 255
-0.117905 -0.365372 0.024012 76 0 153
0.283984 -0.198876 0.398600 0 0 255
0.338432 0.390331 0.394592 0 0 255
0.013421 -0.143679 -0.213098 127 0 127
0.193567 0.207382 -0.392272 76 0 153
0.099297 -0.220690 -0.392272 76 0 153
0.245638 0.028645 -0.331895 76 0 153
-0.303970 0.399810 -0.392272 76 0 153
0.353384 0.323204 0.817642 127 127 0
-0.486901 0.329162 0.011061 76 0 153
-0.249211 -0.046102 -0.392272 76 0 153
-0.004607 -0.143679 -0.332639 127 0 127
0.186389 0.248341 0.385305 127 127 0
-0.152646 -0.385641 -0.392135 153 76 0
0.393868 0.047846 0.700502 0 0 255
-0.000694 -0.365372 0.008237 76 0 153
0.245310 0.012744 0.292342 0 0 255
0.008365 -0.365372 -0.028212 76 0 153
0.243333 0.031132 0.030341 76 0 153
0.140471 -0.097628 0.209903 0 0 255
0.374621 0.088755 0.810257 0 255 0
-0.466632 -0.017354 0.086820 76 0 153
-0.304086 0.416341 -0.283179 76 0 153
