ply
format ascii 1.0
element vertex 1263
property float x
property float y
property float z
property uchar red
property uchar green
property uchar blue
end_header
-0.541568 0.091081 0.369143 127 0 127
0.545334 -0.489007 -0.237005 127 0 127
-0.226076 0.420608 -0.551332 0 127 127
-0.067836 0.001260 -0.479103 0 255 0
0.141317 0.075831 0.567277 153 0 76
-0.160674 -0.585808 0.004391 76 153 0
-0.541568 -0.045218 0.033310 127 0 127
0.497222 -0.196328 -0.314843 153 0 76
0.293962 -0.206064 -0.563591 0 127 127
-0.578344 -0.312206 -0.560277 127 0 127
-0.492533 0.015123 -0.410738 0 0 255
0.034325 0.477130 -0.522483 153 0 76
-0.578344 0.429144 0.186378 127 0 127
0.491504 -0.585808 -0.352735 76 153 0
-0.492533 0.350900 0.294772 153 0 76
0.051222 -0.137866 -0.502321 76 0 153
-0.480172 0.292708 0.530501 0 255 0
0.595115 -0.585808 0.193173 127 127 0
0.491208 0.477130 0.370762 153 0 76
-0.492533 0.185602 0.051362 76 153 0
0.537200 -0.371258 -0.251436 127 0 127
0.598494 -0.378250 0.409338 127 127 0
0.314547 0.173500 0.527412 153 0 76
0.316605 0.102143 0.567277 153 0 76
0.598494 -0.256899 0.309040 127 127 0
-0.302353 0.032093 -0.502321 255 0 0
-0.070038 -0.310755 0.527412 127 127 0
-0.541568 0.095650 -0.358201 127 0 127
0.231525 -0.017580 0.567277 153 0 76
-0.412656 0.439273 0.631345 153 76 0
0.303063 -0.492951 0.400379 153 0 76
0.061112 0.526165 -0.271476 153 0 76
0.000156 -0.536773 -0.019743 76 153 0
0.322642 -0.585808 0.148268 76 153 0
0.598494 -0.303520 -0.482003 127 127 0
0.512683 -0.444634 -0.227823 127 0 127
-0.438010 -0.585808 0.196556 76 153 0
-0.028287 -0.028481 0.530501 153 0 76
-0.091791 0.422360 0.567277 76 0 153
-0.233039 -0.536773 -0.060286 76 153 0
-0.578344 -0.293175 -0.516149 127 0 127
-0.578344 -0.092298 0.411806 127 0 127
-0.020087 0.417210 -0.600367 0 127 127
0.598494 -0.105743 0.394826 127 127 0
-0.098174 -0.505210 0.245318 153 0 76
-0.483143 0.080240 0.567277 153 0 76
-0.472831 0.024981 -0.563591 0 127 127
0.512683 0.265884 0.304310 127 0 127
0.296206 -0.276165 -0.526839 76 153 0
-0.492533 0.246566 0.154627 127 127 0
-0.495290 0.284658 -0.269175 127 127 0
0.339427 -0.319478 -0.600367 0 127 127
-0.081634 0.240919 0.527412 0 255 0
0.598494 -0.045496 0.122872 127 127 0
0.049176 -0.118766 0.502895 153 0 76
0.524016 -0.085999 -0.223755 76 0 153
0.551838 0.203508 0.202964 127 0 127
-0.021796 0.359659 -0.190922 76 0 153
-0.127994 0.147577 0.530501 153 0 76
0.180108 0.001260 0.130582 0 255 0
-0.554484 0.450932 0.567277 76 0 153
0.335561 0.371917 0.121602 76 0 153
-0.048007 0.001260 0.363458 0 255 0
0.228803 -0.492951 0.301514 153 0 76
0.246025 -0.403363 0.567277 127 127 0
0.561718 -0.063988 -0.165394 127 127 0
0.180946 0.359659 0.039505 76 0 153
-0.157281 0.526165 0.043955 153 0 76
0.524936 -0.534780 -0.600367 76 153 0
-0.346816 -0.284835 -0.526839 76 153 0
-0.578344 0.073200 -0.259454 127 0 127
-0.229870 -0.505210 -0.229325 153 0 76
-0.234090 0.477130 0.209538 153 0 76
-0.578344 0.305384 0.172384 127 0 127
0.385224 0.347400 -0.511682 0 0 255
0.327883 -0.469939 0.502895 127 127 0
-0.465001 0.026442 0.530501 153 0 76
-0.512482 -0.585808 0.234962 76 153 0
0.537200 0.073388 0.421984 204 51 127
0.058907 0.417066 0.502895 76 0 153
0.210708 0.186588 -0.420503 76 153 0
0.598494 0.477010 -0.297760 127 127 0
0.598494 0.417999 -0.277775 127 127 0
-0.149379 0.166690 -0.502321 0 127 127
0.064837 -0.585808 -0.553364 76 153 0
-0.528616 -0.536773 0.011234 127 0 127
0.561718 -0.038194 0.182980 127 127 0
-0.091821 0.347400 0.510347 76 0 153
-0.578344 -0.342656 0.123924 127 0 127
0.512683 0.400294 -0.283782 204 51 127
-0.094008 -0.196328 -0.267916 153 0 76
0.475844 -0.010999 -0.217392 0 255 0
-0.492533 -0.422808 -0.157339 0 127 127
-0.578344 0.516110 -0.297340 127 0 127
0.512683 0.066002 -0.220202 204 51 127
-0.277794 0.359659 0.478458 76 0 153
-0.196128 0.477130 0.241918 153 0 76
-0.541568 -0.326346 0.064339 127 0 127
-0.247789 -0.302162 -0.526839 76 153 0
-0.578344 0.283863 -0.120812 127 0 127
-0.480779 -0.075943 0.530501 153 0 76
-0.578344 0.395714 0.361652 127 0 127
-0.541568 -0.149175 -0.104519 127 0 127
-0.117113 -0.184069 -0.037276 153 0 76
0.598494 -0.398942 0.173734 127 127 0
0.367821 0.174330 -0.028360 76 153 0
0.145673 -0.536773 0.309080 76 153 0
-0.133271 -0.010999 -0.073059 0 255 0
-0.526525 0.235637 -0.389972 127 0 127
0.282468 0.284658 0.517313 0 255 0
0.225634 -0.010999 0.495508 0 255 0
-0.379188 0.477130 0.382302 153 0 76
0.347137 0.240644 -0.600367 0 127 127
0.561718 -0.479655 0.238273 127 0 127
0.064192 -0.291599 -0.593196 0 127 127
0.141240 0.001260 0.080731 0 255 0
-0.410273 -0.491486 0.530501 127 127 0
0.561718 0.498127 0.225359 153 0 76
0.128768 -0.536773 0.013864 76 153 0
0.598494 -0.230072 -0.469365 127 127 0
-0.222166 -0.010999 -0.043423 0 255 0
-0.084534 0.359659 -0.064113 76 0 153
-0.492533 0.254628 0.198926 127 127 0
-0.045780 0.167079 -0.551332 0 127 127
0.408471 0.202884 0.502895 0 255 0
-0.509253 -0.272294 -0.161413 0 127 127
0.034001 0.216107 0.502895 0 255 0
0.561718 0.143872 0.082722 127 127 0
-0.069914 0.369329 0.567277 76 0 153
0.561718 0.032508 0.289577 127 127 0
-0.578344 -0.269319 -0.130256 127 0 127
-0.237879 -0.098714 -0.526839 76 0 153
0.408590 0.001260 -0.467467 0 255 0
-0.572696 0.271913 0.527436 0 255 0
0.562599 0.142082 -0.600367 127 127 0
-0.578344 -0.414377 0.408560 127 0 127
-0.004961 0.359659 -0.030034 76 0 153
-0.464220 0.121441 0.567277 153 0 76
-0.541568 -0.464488 0.341977 0 127 127
-0.498775 -0.483390 -0.563591 0 127 127
0.537200 -0.089286 -0.066715 76 0 153
-0.492533 -0.380552 -0.386907 0 127 127
-0.351894 0.157218 0.567277 153 0 76
0.364441 0.398053 0.567277 76 0 153
-0.006227 -0.184069 0.406723 153 0 76
-0.325173 0.122343 0.567277 153 0 76
0.367733 0.477130 0.471623 153 0 76
-0.039794 -0.505210 0.486358 127 127 0
-0.492533 -0.128043 -0.050416 153 76 0
0.598494 0.073670 -0.275315 127 127 0
-0.014730 -0.505210 -0.396015 153 0 76
-0.164445 0.359659 -0.089687 76 0 153
0.551244 0.402666 0.530501 76 0 153
-0.407342 -0.431493 0.530501 127 127 0
-0.226269 -0.505210 0.297338 153 0 76
-0.238769 -0.469676 0.527412 127 127 0
0.598494 -0.344633 -0.504473 127 127 0
-0.541568 -0.369545 -0.177760 0 127 127
0.103044 0.174330 -0.013401 76 153 0
0.033931 -0.505210 0.175026 153 0 76
-0.492533 -0.349750 -0.413339 0 127 127
-0.349009 0.214325 -0.526839 0 127 127
0.561718 0.335276 -0.114423 127 127 0
0.386832 -0.196328 -0.159896 153 0 76
0.488379 0.477130 0.270624 153 0 76
0.195847 0.049368 0.527412 153 0 76
0.316478 -0.196328 -0.465052 153 0 76
0.512683 -0.310568 -0.251439 127 0 127
-0.491181 -0.195634 0.527412 153 0 76
0.072255 -0.181054 -0.563591 0 127 127
0.552524 0.026816 -0.319414 127 127 0
-0.441599 -0.585808 0.264925 76 153 0
0.254810 -0.184069 -0.339786 153 0 76
0.504786 -0.293597 0.502895 127 127 0
0.219274 -0.536773 -0.074152 76 153 0
-0.218862 0.001260 0.027214 0 255 0
0.598494 -0.305571 -0.564491 127 127 0
-0.517051 0.463190 -0.215950 153 0 76
-0.578344 -0.573633 0.123805 127 0 127
-0.578344 0.151490 -0.048260 127 0 127
0.151106 0.526165 0.130972 153 0 76
-0.541568 -0.372082 0.389786 0 127 127
0.440703 -0.450642 -0.526839 76 153 0
0.161759 0.354405 -0.526839 0 0 255
-0.359266 0.186588 -0.452262 76 153 0
-0.242209 0.526165 0.076558 153 0 76
-0.235796 0.286525 0.530501 0 255 0
-0.578344 0.446202 -0.593982 127 0 127
-0.279479 -0.200986 -0.502321 76 0 153
0.013514 0.068834 0.621283 76 0 153
-0.499824 -0.451980 0.530501 127 127 0
0.598494 0.228258 0.349224 127 127 0
-0.578344 0.267837 -0.501134 127 0 127
0.512683 0.249690 -0.487907 127 0 127
-0.578344 -0.075199 -0.496181 127 0 127
-0.578344 -0.408592 0.186139 127 0 127
0.561718 0.246062 0.153188 0 0 255
-0.492533 -0.131810 -0.217695 153 76 0
-0.365064 0.030275 -0.526839 255 0 0
-0.022900 0.001260 0.099932 0 255 0
-0.446321 -0.113932 0.629173 127 0 127
-0.232721 0.254397 -0.563591 0 127 127
0.043981 -0.237169 -0.551332 0 127 127
-0.578344 0.113080 -0.385205 127 0 127
0.174688 0.174330 -0.230979 76 153 0
-0.541568 -0.185155 -0.582559 127 0 127
-0.349228 0.359659 0.028411 76 0 153
-0.503269 -0.272294 0.052504 0 127 127
-0.276665 0.477130 -0.500431 0 0 255
0.520328 0.319190 -0.563591 0 127 127
0.190932 -0.196328 -0.085477 153 0 76
-0.541568 0.109878 -0.017719 127 0 127
0.598494 0.152228 -0.177428 127 127 0
0.484394 -0.492951 -0.101207 153 0 76
-0.252122 -0.335600 0.567277 127 127 0
-0.498442 -0.023258 -0.353397 0 0 255
-0.492533 0.407003 -0.122692 153 0 76
-0.151237 -0.536773 -0.560504 76 153 0
-0.142779 0.526165 -0.282860 153 0 76
-0.350602 0.450021 0.530501 76 0 153
-0.054447 0.526165 0.449584 153 0 76
-0.492533 -0.171695 -0.310375 153 76 0
0.055484 0.294464 0.567277 0 255 0
0.598494 -0.020924 0.316110 127 127 0
0.594617 0.526165 -0.429721 127 127 0
-0.541568 -0.183813 -0.240347 153 76 0
0.474298 -0.087997 0.530501 153 0 76
-0.541568 0.127416 -0.160011 127 0 127
-0.059233 -0.492951 0.066038 153 0 76
0.258489 -0.314639 0.635026 0 0 255
0.306778 -0.196328 0.197929 153 0 76
0.510922 0.526165 -0.184293 153 0 76
0.040179 0.482353 0.567277 76 0 153
-0.101640 -0.371056 -0.563591 0 127 127
0.132861 0.443858 -0.526839 0 0 255
0.402867 0.174330 -0.463918 76 153 0
0.061265 0.001260 0.342501 0 255 0
0.561718 0.274200 0.302492 127 127 0
-0.336538 -0.071629 0.530501 153 0 76
0.512683 -0.123536 0.144734 76 0 153
0.561718 -0.550769 0.113386 76 153 0
-0.578344 -0.332521 0.511592 127 127 0
0.598494 -0.551876 -0.537066 127 127 0
0.561718 -0.301109 -0.126418 127 127 0
0.185010 0.073413 -0.526839 255 0 0
-0.313930 -0.010999 -0.450577 0 255 0
0.374853 0.477130 -0.325550 153 0 76
0.060670 -0.496215 0.530501 127 127 0
-0.233353 0.359659 -0.211749 76 0 153
-0.492533 0.040203 0.193213 0 0 255
-0.525707 -0.585808 -0.399753 76 153 0
-0.578344 -0.072688 -0.088006 127 0 127
0.513339 -0.059698 0.567277 153 0 76
0.298797 -0.104056 -0.502321 76 0 153
-0.282043 -0.471279 -0.563591 0 127 127
0.514647 -0.023258 0.351376 204 51 127
0.107654 -0.431024 0.530501 127 127 0
-0.467345 -0.536773 0.240066 76 153 0
0.535697 -0.272294 0.018067 127 0 127
-0.089370 -0.196328 -0.095244 153 0 76
0.583889 -0.585808 0.484800 127 127 0
-0.522553 -0.431574 0.324335 0 255 0
0.598494 0.157931 0.140907 127 127 0
0.597456 0.526165 -0.378418 127 127 0
-0.134194 0.001260 0.080685 0 255 0
-0.578344 -0.113713 0.205823 127 0 127
0.598494 -0.499177 0.297600 127 127 0
0.111233 -0.184069 0.457202 153 0 76
0.331356 0.371917 0.414970 76 0 153
0.252331 -0.585808 -0.571756 76 153 0
0.555195 0.005203 -0.494353 127 127 0
-0.096839 -0.492951 0.391041 153 0 76
0.290602 -0.131787 0.527412 153 0 76
-0.455266 -0.184069 0.034312 153 0 76
-0.541568 0.224481 -0.353731 127 0 127
-0.541568 -0.093496 -0.526698 76 0 153
0.598494 0.408307 -0.535849 127 127 0
0.512683 0.068044 -0.435318 204 51 127
-0.521249 0.477130 0.249721 127 0 127
0.464655 -0.503457 -0.600367 0 127 127
-0.373070 0.237413 0.527412 0 255 0
0.033240 0.120160 0.530501 153 0 76
0.352991 -0.505210 -0.277104 153 0 76
0.501235 -0.492951 -0.349380 153 0 76
-0.517051 0.047077 -0.220365 0 0 255
0.435955 -0.536773 0.102662 76 153 0
0.480181 -0.418844 0.567277 127 127 0
0.598494 0.193247 -0.246507 127 127 0
0.465818 0.001260 -0.278392 0 255 0
0.041153 -0.536773 -0.558809 76 153 0
-0.492533 -0.121583 0.158351 153 76 0
-0.144538 0.001260 0.001683 0 255 0
0.449534 0.526165 -0.178821 153 0 76
0.008986 0.317132 0.530501 0 255 0
-0.040142 0.126347 0.530501 153 0 76
-0.124222 -0.536773 -0.009088 76 153 0
-0.399022 0.477130 -0.194355 153 0 76
-0.146969 -0.492951 0.255901 153 0 76
0.196947 0.186588 0.399115 76 153 0
-0.191793 -0.184069 -0.300079 153 0 76
-0.451917 -0.419588 -0.526839 76 153 0
0.256118 -0.184069 -0.430804 153 0 76
0.561718 0.361023 0.281251 127 127 0
0.450881 0.359659 -0.165261 76 0 153
0.507809 -0.536773 0.286433 76 153 0
0.512683 -0.117538 -0.347653 76 0 153
-0.541568 -0.359141 0.321803 0 127 127
0.027037 -0.483063 -0.600367 0 127 127
-0.517051 0.200999 -0.287484 127 127 0
0.472461 0.234733 0.530501 0 255 0
0.598494 0.064925 0.006472 127 127 0
0.100241 -0.158244 0.502895 153 0 76
0.537200 -0.159081 -0.305619 76 0 153
-0.578344 0.472848 -0.049039 127 0 127
-0.511748 -0.023258 -0.024414 127 0 127
-0.315010 -0.505210 -0.015438 153 0 76
-0.541568 -0.510132 -0.529842 127 0 127
0.453980 -0.184069 -0.463683 153 0 76
0.077970 -0.023258 0.505827 0 255 0
0.561718 -0.278080 0.283585 127 127 0
0.484942 -0.146027 -0.563591 0 127 127
0.566625 0.182991 0.567277 153 0 76
0.598494 0.150733 0.502015 127 127 0
-0.422453 -0.163626 -0.563591 0 127 127
0.015484 0.359659 0.397522 76 0 153
0.029668 0.359659 -0.109254 76 0 153
-0.082755 0.371917 -0.297681 76 0 153
-0.378499 -0.317374 -0.563591 0 127 127
-0.470718 0.174330 -0.174215 76 153 0
0.150772 0.237711 0.530501 0 255 0
-0.170339 -0.184069 -0.023249 153 0 76
-0.541568 0.215842 -0.207278 127 0 127
-0.372395 0.429844 -0.526839 0 0 255
-0.464484 -0.196328 0.165416 153 0 76
0.561718 0.416175 -0.210707 204 51 127
0.012743 -0.358116 0.530501 127 127 0
-0.340184 -0.113420 0.502895 153 0 76
0.512683 0.384215 0.359589 76 0 153
0.056396 -0.043609 -0.551332 0 127 127
-0.492533 0.078751 -0.090601 0 0 255
0.496097 0.001260 0.187112 0 255 0
-0.127844 -0.111658 0.530501 153 0 76
0.352328 0.526165 0.182119 153 0 76
0.258676 0.441582 -0.563591 0 127 127
-0.578344 0.361052 0.043071 127 0 127
0.553948 0.062637 0.047829 153 76 0
-0.242842 0.174330 -0.105043 76 153 0
-0.071264 -0.492951 0.432485 153 0 76
-0.524722 -0.125502 -0.277563 127 0 127
-0.181051 -0.493058 0.567277 127 127 0
0.370710 -0.514587 0.530501 127 127 0
0.598494 0.149228 -0.283042 127 127 0
0.561718 -0.296724 -0.286566 127 127 0
-0.517051 -0.174945 -0.499101 76 153 0
0.404158 -0.536773 -0.311236 153 0 76
-0.541568 -0.490682 0.294472 127 0 127
-0.578344 -0.398586 0.018572 127 0 127
-0.541568 0.380763 0.059631 76 0 153
0.305682 -0.145073 -0.563591 0 127 127
-0.541568 0.284332 -0.218600 127 0 127
0.512683 -0.360760 0.002690 127 0 127
-0.203123 -0.364300 -0.563591 0 127 127
-0.432635 -0.327624 -0.526839 0 127 127
-0.103795 -0.505210 0.192905 153 0 76
0.541879 -0.585808 -0.085007 76 153 0
0.213195 -0.585808 -0.555117 76 153 0
0.561718 -0.130486 0.475331 0 127 127
-0.578344 0.316644 -0.489152 127 0 127
0.598494 0.406339 -0.136798 127 127 0
-0.146559 0.174330 -0.385052 76 153 0
-0.083311 -0.050426 0.530501 153 0 76
0.561718 -0.575406 -0.472204 76 153 0
0.202798 -0.132789 -0.551332 0 127 127
0.598494 -0.307031 -0.021322 127 127 0
-0.347325 0.371917 -0.308774 76 0 153
-0.541568 -0.177856 0.013015 76 153 0
0.231167 0.068626 -0.526839 255 0 0
0.274793 -0.492951 0.186291 153 0 76
0.003776 0.058663 0.567277 153 0 76
0.429600 0.249337 0.567277 0 255 0
0.008377 0.203149 -0.502321 0 127 127
-0.532374 0.217895 -0.045418 127 0 127
0.495770 -0.585808 0.433152 76 153 0
-0.217643 -0.585808 0.038128 76 153 0
0.561718 0.025786 -0.576423 0 127 127
0.314277 -0.585808 -0.284764 76 153 0
0.011241 -0.238327 0.530501 127 127 0
0.561718 -0.365427 0.469231 127 0 127
-0.447075 -0.492951 0.398045 153 0 76
0.288386 0.329095 0.567277 0 255 0
0.537200 -0.517368 -0.488256 127 0 127
0.044818 -0.585808 -0.408725 76 153 0
0.561718 -0.485971 0.138808 127 127 0
-0.541568 0.129558 -0.206989 127 0 127
-0.541568 -0.086687 0.253218 127 0 127
0.249376 -0.492951 -0.211817 153 0 76
0.507803 0.526165 -0.307325 153 0 76
0.512683 0.045220 -0.118741 204 51 127
0.025421 0.477130 0.088321 153 0 76
-0.443000 -0.536773 -0.550636 76 153 0
0.489043 0.477130 0.012745 153 0 76
-0.427252 -0.585808 -0.205383 76 153 0
-0.342399 -0.585808 0.422159 76 153 0
-0.149893 0.477130 0.200770 153 0 76
0.598494 -0.196313 0.368625 127 127 0
-0.578344 0.273173 0.026772 127 0 127
0.210322 -0.536773 0.243635 76 153 0
0.002557 -0.010999 -0.298094 0 255 0
0.537200 -0.091783 -0.028892 76 0 153
-0.206887 -0.076010 0.567277 153 0 76
0.110691 0.477130 0.209703 153 0 76
-0.492533 -0.415271 0.178118 0 127 127
-0.062493 -0.292733 -0.563591 0 127 127
-0.541568 -0.456449 -0.099267 127 0 127
-0.292622 0.302735 -0.551332 0 127 127
0.318323 -0.501927 0.530501 127 127 0
-0.541568 -0.177262 -0.031003 76 153 0
-0.300324 0.526165 0.035984 153 0 76
0.123878 -0.585808 -0.438423 76 153 0
0.209342 -0.306188 -0.563591 0 127 127
0.108364 0.371917 0.479775 76 0 153
-0.198703 0.322512 0.530501 0 255 0
0.205273 0.438705 0.567277 76 0 153
0.554687 0.340836 0.565050 0 255 0
0.085607 -0.013731 -0.502321 255 0 0
-0.345363 0.477130 -0.061061 153 0 76
0.561718 0.484193 -0.432843 153 0 76
0.399870 -0.505210 -0.219076 153 0 76
0.561718 0.252053 -0.550148 0 127 127
-0.102083 -0.496850 -0.551332 0 127 127
-0.056501 0.186588 -0.285288 76 153 0
0.136283 -0.505210 -0.123629 153 0 76
0.512683 0.426250 0.383732 204 51 127
-0.221784 -0.482065 -0.563591 0 127 127
0.398253 -0.442329 0.567277 127 127 0
0.598494 0.452909 -0.038235 127 127 0
-0.578344 0.101135 -0.315933 127 0 127
0.283043 -0.468460 -0.502321 76 153 0
0.528062 0.477130 -0.046544 153 0 76
-0.362203 -0.010999 0.152936 0 255 0
0.418870 -0.010999 0.273726 0 255 0
0.361603 -0.184069 0.124299 153 0 76
-0.541568 -0.474297 -0.454271 0 255 0
-0.539740 0.148128 0.530501 0 255 0
-0.517051 0.040362 -0.392582 127 0 127
0.381513 -0.456866 0.502895 127 127 0
-0.404235 -0.073367 0.530501 153 0 76
0.255382 -0.346449 0.530501 127 127 0
-0.237998 -0.215151 0.542078 153 0 76
0.537200 0.278826 -0.372875 127 0 127
0.209118 0.388115 -0.563591 0 127 127
0.561718 -0.298967 0.173330 127 127 0
-0.541568 -0.524742 -0.412249 127 0 127
0.598494 0.332330 -0.057437 127 127 0
-0.487374 -0.337529 -0.502321 0 127 127
-0.578344 0.290594 0.306107 127 0 127
-0.286699 -0.585808 -0.023634 76 153 0
-0.020332 0.526165 0.327815 153 0 76
0.513061 -0.272294 -0.485893 127 0 127
-0.473204 0.289488 -0.551332 0 127 127
-0.440617 0.371917 -0.181497 76 0 153
0.182956 -0.492951 0.492326 153 0 76
0.508874 -0.505210 -0.388339 153 0 76
0.182444 0.359659 -0.223759 76 0 153
0.084104 -0.505210 -0.230332 153 0 76
-0.578344 -0.467963 -0.355842 127 0 127
0.248628 -0.505210 0.408298 153 0 76
-0.112016 0.022441 0.567277 153 0 76
-0.113268 -0.585808 -0.294179 76 153 0
-0.189376 -0.585808 0.067116 76 153 0
0.561718 0.484600 -0.146631 127 127 0
-0.578344 -0.222532 0.174139 127 0 127
0.186535 -0.585808 -0.229077 76 153 0
-0.094841 0.477130 -0.448308 153 0 76
0.561718 -0.563059 -0.177933 76 153 0
-0.432382 -0.335369 -0.600367 0 127 127
-0.578344 -0.072851 0.199827 127 0 127
-0.336935 0.406615 -0.502321 0 0 255
0.561718 -0.416653 -0.256473 127 127 0
0.346872 -0.010999 -0.137465 0 255 0
-0.541568 0.507665 0.020333 153 0 76
0.036245 0.101471 -0.563591 0 127 127
0.318180 0.247323 -0.563591 0 127 127
-0.191279 -0.400922 0.530501 127 127 0
0.153662 0.001260 0.030978 0 255 0
0.053775 -0.492951 0.089041 153 0 76
-0.037396 0.477130 0.226420 153 0 76
-0.116076 0.477130 -0.184552 153 0 76
-0.578344 -0.140760 -0.462619 127 0 127
0.598494 -0.158822 0.328178 127 127 0
0.547962 0.190532 -0.201801 127 127 0
0.534211 0.459155 -0.502321 0 0 255
0.424268 0.477130 -0.533461 153 0 76
0.484430 0.359659 0.182516 76 0 153
-0.235652 -0.582955 -0.600367 76 153 0
0.076304 -0.196328 -0.060850 153 0 76
-0.280684 -0.492951 -0.154717 153 0 76
0.561718 0.183031 0.166951 0 0 255
0.497254 0.477130 0.123427 153 0 76
0.012208 -0.196328 -0.050365 153 0 76
0.525870 -0.023258 0.391214 204 51 127
-0.406771 0.444808 0.567277 76 0 153
-0.075411 -0.124598 0.615589 127 0 127
-0.295082 -0.193056 0.567277 153 0 76
-0.282012 0.195538 0.530501 0 255 0
-0.578344 -0.332282 0.315878 127 0 127
0.156946 0.477130 0.314761 153 0 76
-0.421972 -0.437239 -0.502321 76 153 0
-0.169334 0.359659 -0.329692 76 0 153
0.358955 -0.310258 0.567277 127 127 0
-0.194717 0.156500 -0.551332 0 127 127
0.598494 0.258637 0.009537 127 127 0
0.533200 -0.536773 -0.073941 76 153 0
-0.578344 0.157198 0.037486 127 0 127
0.138743 0.049799 0.630515 76 0 153
-0.437806 0.162071 -0.523260 0 127 127
0.345784 -0.184069 -0.117151 153 0 76
0.537200 0.034499 -0.249194 153 76 0
-0.578344 0.182456 -0.411875 127 0 127
0.049391 -0.380831 -0.600367 0 127 127
-0.491652 -0.536773 -0.372817 76 153 0
0.239760 0.371917 0.491915 76 0 153
0.413373 -0.585808 -0.272948 76 153 0
0.537200 -0.088842 -0.124471 76 0 153
0.160407 0.477130 -0.204601 153 0 76
-0.426230 0.290540 0.567277 0 255 0
-0.420711 0.371917 0.121051 76 0 153
-0.122755 -0.185094 0.527412 153 0 76
0.403502 -0.010999 0.345498 0 255 0
0.561718 0.260235 0.419877 127 127 0
-0.325904 -0.536773 -0.228462 76 153 0
0.093148 0.415947 -0.563591 0 127 127
-0.213713 -0.540168 0.567277 127 127 0
0.188824 -0.536773 -0.302503 76 153 0
-0.149763 0.359659 0.326100 76 0 153
-0.458080 -0.492951 0.087091 153 0 76
0.512683 -0.395102 -0.430491 127 0 127
-0.457409 0.477130 -0.169384 153 0 76
0.346841 -0.536773 -0.572228 0 127 127
0.299383 0.052587 -0.563591 0 127 127
0.525283 0.526165 0.023637 153 0 76
0.260770 -0.184069 -0.199601 153 0 76
-0.533774 0.002503 -0.314260 0 0 255
0.598494 -0.543768 0.162910 127 127 0
-0.330502 0.477130 -0.249592 153 0 76
-0.288146 -0.225044 0.530501 127 127 0
0.340662 -0.585808 -0.492044 76 153 0
0.523873 0.469987 0.051308 204 51 127
-0.522113 0.526165 0.428088 153 0 76
0.598494 0.519917 0.411437 127 127 0
-0.578344 0.224639 0.226404 127 0 127
-0.535439 0.246144 0.126161 127 127 0
0.392850 0.456181 0.502895 153 0 76
0.598494 -0.518981 0.484741 127 127 0
0.405704 -0.585808 0.339373 76 153 0
0.598494 -0.070370 -0.523938 127 127 0
0.301256 0.359659 -0.098993 76 0 153
0.477823 -0.505210 -0.414690 153 0 76
-0.143866 0.526165 -0.464209 153 0 76
0.119873 -0.251296 -0.563591 0 127 127
-0.316840 -0.495970 -0.526839 76 153 0
0.561718 -0.298572 -0.057368 127 0 127
0.561718 -0.303117 0.114016 127 127 0
-0.517051 0.390037 -0.219717 76 0 153
-0.492533 0.350762 0.101184 76 0 153
0.598494 0.493943 0.065920 127 127 0
0.247394 -0.299750 -0.526839 76 153 0
0.512683 0.390774 -0.349125 204 51 127
0.062833 -0.536773 -0.206635 76 153 0
-0.541568 0.127677 0.332195 127 0 127
0.320434 0.001260 -0.313784 0 255 0
0.569235 0.230184 0.530501 127 127 0
-0.415547 0.526165 0.200904 153 0 76
0.216271 0.477130 -0.043367 153 0 76
-0.411907 0.404243 -0.600367 0 127 127
-0.571975 0.059896 0.567277 153 0 76
0.362249 0.174330 0.411403 76 153 0
0.104983 0.526165 0.165674 153 0 76
-0.541568 0.269676 -0.013768 127 0 127
-0.385679 0.174330 0.223136 76 153 0
0.598494 -0.476338 -0.108824 127 127 0
-0.578344 -0.214278 -0.367686 127 0 127
-0.260256 0.008250 -0.502321 255 0 0
0.598494 -0.280804 0.119320 127 127 0
-0.492533 -0.303724 -0.173451 0 127 127
0.561718 0.333222 0.393343 127 127 0
0.186635 -0.010999 0.477581 0 255 0
-0.361637 -0.196328 -0.370118 153 0 76
-0.463690 -0.585808 0.339355 76 153 0
-0.124042 0.043155 -0.563591 0 127 127
-0.276382 0.371917 0.297146 76 0 153
-0.492533 0.431103 -0.173096 153 0 76
0.400475 -0.196328 0.063976 153 0 76
-0.394961 -0.184069 -0.264949 153 0 76
0.012401 -0.184069 -0.293171 153 0 76
-0.187242 -0.098830 -0.551332 0 127 127
0.598494 -0.534306 0.317262 127 127 0
-0.227029 -0.196328 -0.123734 153 0 76
0.023471 0.174330 -0.264746 76 153 0
0.074197 -0.196328 -0.375244 153 0 76
-0.507544 -0.428083 -0.526839 76 153 0
-0.097976 0.298121 0.530501 0 255 0
0.598494 -0.085799 -0.055457 127 127 0
-0.262926 -0.492951 0.168121 153 0 76
0.392920 -0.585808 -0.558073 76 153 0
-0.302186 0.149378 0.553266 0 255 0
-0.461115 0.434371 0.600231 153 76 0
-0.026229 0.201115 0.530501 0 255 0
-0.259600 -0.585808 0.075534 76 153 0
0.580501 0.526165 0.184634 153 0 76
0.497469 -0.585808 0.101944 76 153 0
0.367734 -0.492951 -0.065334 153 0 76
0.299554 -0.585808 -0.089734 76 153 0
0.267604 -0.585808 -0.373990 76 153 0
0.561718 0.039580 -0.184969 153 76 0
0.437059 0.250055 0.530501 0 255 0
0.272414 -0.076284 0.567277 153 0 76
0.598494 0.301905 -0.095749 127 127 0
0.400897 -0.010999 0.032891 0 255 0
-0.517051 0.458253 0.489770 153 0 76
0.137593 -0.184069 -0.343613 153 0 76
0.008338 0.220519 0.567277 0 255 0
0.537200 -0.426334 -0.160644 127 0 127
-0.158477 -0.010999 -0.398386 0 255 0
0.512683 -0.391679 0.486013 127 127 0
-0.440493 0.526165 -0.122878 153 0 76
-0.219723 -0.253585 0.530501 127 127 0
0.077678 0.321564 0.530501 0 255 0
0.077484 -0.536773 0.474091 76 153 0
0.496558 -0.585808 -0.006658 76 153 0
-0.425491 0.230807 -0.551332 0 127 127
-0.578344 -0.518960 0.034746 127 0 127
-0.541568 -0.510841 0.155956 127 0 127
-0.380114 0.520036 0.560289 76 0 153
0.526611 -0.023258 -0.388471 204 51 127
-0.512471 -0.517468 0.526960 127 127 0
0.537200 -0.470161 0.404761 127 0 127
0.598494 0.117200 -0.073398 127 127 0
-0.053321 -0.536773 -0.186195 76 153 0
-0.228007 0.477130 -0.179029 153 0 76
-0.578344 0.048291 0.257336 127 0 127
0.033123 0.411915 0.567277 76 0 153
0.561718 0.211017 -0.064227 0 0 255
0.058103 -0.492951 -0.416374 153 0 76
0.254211 -0.268483 -0.563591 0 127 127
-0.261877 -0.495039 -0.600367 0 127 127
0.286176 0.185680 -0.563591 0 127 127
0.561718 -0.568980 -0.271658 127 127 0
-0.101737 0.477130 -0.017517 153 0 76
0.207067 0.275924 0.530501 0 255 0
0.374903 -0.505210 0.413752 153 0 76
0.263151 -0.585808 -0.274723 76 153 0
0.445499 -0.401830 -0.526839 76 153 0
0.040934 -0.362904 -0.526839 76 153 0
0.005560 -0.465811 0.502895 127 127 0
-0.517051 -0.458389 0.205195 0 127 127
-0.123757 0.486911 -0.600367 153 0 76
0.598494 0.320404 -0.251872 127 127 0
0.233121 -0.492951 -0.057807 153 0 76
0.422512 -0.413823 0.567277 127 127 0
0.021372 -0.393539 -0.563591 0 127 127
0.037221 0.001260 -0.247998 0 255 0
-0.363467 -0.505210 0.355393 153 0 76
0.598494 -0.333618 0.080488 127 127 0
0.547300 0.351569 -0.600367 0 127 127
0.306079 -0.505210 -0.250411 153 0 76
0.529622 -0.549613 0.567277 127 127 0
-0.492533 0.175090 0.212170 76 153 0
-0.295222 0.371917 0.386188 76 0 153
0.598494 -0.325001 -0.135346 127 127 0
-0.221550 0.361465 0.567277 76 0 153
0.377930 0.037358 0.530501 153 0 76
-0.332097 0.001260 0.381415 0 255 0
0.323370 -0.536773 0.244075 76 153 0
-0.541568 0.268049 0.208013 127 0 127
0.543330 0.378969 -0.386602 204 51 127
0.561718 0.494674 0.526655 153 0 76
0.265733 -0.196328 -0.139257 153 0 76
0.598494 0.322924 -0.571010 127 127 0
0.105910 0.477130 0.275492 153 0 76
-0.541568 0.016096 0.072468 76 0 153
-0.501202 -0.310652 -0.551332 0 127 127
-0.351640 0.315525 -0.551332 0 127 127
0.054996 0.186588 -0.201602 76 153 0
0.598494 0.404719 0.116335 127 127 0
-0.541568 0.460036 -0.335911 153 0 76
0.019141 -0.505210 0.222238 153 0 76
0.248790 0.099329 0.507746 153 0 76
-0.050507 0.411448 0.530501 76 0 153
-0.150504 0.375722 -0.563591 0 127 127
-0.517051 -0.427844 0.237701 0 127 127
-0.227557 -0.010999 0.460491 0 255 0
0.042657 0.477130 -0.565893 0 127 127
0.598494 -0.402159 -0.382332 127 127 0
0.525116 0.477130 0.491986 204 51 127
0.408242 0.526165 -0.338804 153 0 76
-0.578344 -0.004396 -0.019380 127 0 127
0.253998 -0.556497 -0.600367 76 153 0
-0.517051 0.437675 -0.065226 153 0 76
-0.420134 -0.184069 0.331810 153 0 76
0.426003 -0.585808 -0.227597 76 153 0
-0.348019 -0.536773 0.329201 76 153 0
-0.391765 -0.505210 -0.481098 153 0 76
0.598494 -0.182049 -0.411049 127 127 0
-0.492533 -0.383910 0.436021 0 127 127
-0.316646 0.475884 0.567277 76 0 153
0.337272 0.060405 0.637309 76 0 153
-0.525492 0.247966 0.497938 0 255 0
0.569540 -0.499272 0.567277 127 127 0
0.298084 0.186588 0.034667 76 153 0
0.348442 0.441072 0.626146 153 76 0
-0.013619 -0.198126 0.567277 153 0 76
-0.578344 -0.450307 -0.560302 127 0 127
-0.068385 -0.196328 0.133903 153 0 76
-0.347075 0.427019 -0.563591 0 127 127
0.512683 0.424735 -0.105107 204 51 127
0.271564 -0.221544 0.567277 127 127 0
0.434380 -0.010999 -0.403472 0 255 0
0.561718 -0.417986 0.154622 255 0 0
-0.212174 0.526165 0.253878 153 0 76
-0.194811 -0.096716 0.502895 153 0 76
0.497471 0.481165 -0.600367 0 127 127
-0.124244 0.099329 -0.513637 255 0 0
-0.379588 -0.342136 0.567277 127 127 0
-0.385217 0.526165 0.333881 153 0 76
0.393244 -0.492951 -0.341472 153 0 76
-0.360123 -0.309580 -0.502321 76 153 0
-0.487468 -0.058490 0.567277 153 0 76
0.561718 -0.066695 -0.556138 0 127 127
-0.578344 0.209721 0.414963 127 0 127
-0.015175 0.371917 0.259815 76 0 153
0.598494 0.441117 -0.213316 127 127 0
0.598494 0.166233 -0.427470 127 127 0
-0.235799 -0.184069 0.485214 153 0 76
0.459683 0.020199 -0.502321 0 255 0
-0.357461 -0.585808 0.536043 127 127 0
-0.030720 0.477130 -0.443381 153 0 76
0.561718 -0.291669 -0.363301 127 0 127
0.049280 -0.167721 0.567277 153 0 76
0.470376 0.390204 -0.563591 0 127 127
0.473049 0.331233 -0.551332 0 127 127
-0.395900 -0.184069 -0.006861 153 0 76
0.490489 -0.010999 0.030492 0 255 0
-0.492533 0.190095 0.418020 127 127 0
0.369761 0.217406 0.502895 0 255 0
0.561718 -0.019483 -0.431101 127 127 0
-0.537004 0.418746 -0.600367 0 127 127
-0.332237 -0.585808 0.041525 76 153 0
-0.399058 -0.536773 0.432880 76 153 0
-0.077282 0.371917 0.299780 76 0 153
-0.296110 0.371917 -0.113907 76 0 153
-0.076685 -0.340066 0.502895 127 127 0
-0.541568 -0.300816 -0.037315 127 0 127
-0.578344 0.369776 0.178027 127 0 127
-0.541568 -0.066027 0.153732 127 0 127
0.036133 0.506216 0.530501 153 0 76
0.512683 -0.311048 -0.029559 127 0 127
0.245033 0.359659 0.189188 76 0 153
0.561718 -0.275820 -0.432660 127 127 0
0.460684 0.464946 0.530501 153 0 76
0.521972 -0.253825 -0.563591 0 127 127
0.598494 0.445257 -0.418684 127 127 0
-0.578344 -0.578020 -0.429674 127 0 127
0.398601 -0.177561 -0.563591 0 127 127
-0.541568 -0.497917 -0.373834 127 0 127
0.561718 0.361890 -0.142614 127 127 0
-0.578344 -0.403956 0.485337 127 0 127
-0.492533 -0.445639 0.030124 0 127 127
-0.578344 0.043194 0.123709 127 0 127
0.598494 0.433821 0.293462 127 127 0
-0.503360 0.347400 0.158964 153 0 76
-0.302081 0.371917 0.088349 76 0 153
0.424763 -0.003711 -0.563591 0 127 127
-0.215601 0.096814 -0.502321 255 0 0
0.598494 -0.374510 -0.048853 127 127 0
0.153108 -0.300355 -0.600367 0 127 127
0.537201 0.233472 -0.524942 127 127 0
-0.578344 -0.550602 -0.572632 127 0 127
0.561718 -0.368512 -0.585713 127 127 0
0.561718 -0.341327 -0.103926 127 127 0
-0.125975 0.371917 0.028448 76 0 153
-0.492016 -0.145735 -0.526839 76 0 153
-0.316650 -0.536773 0.194634 76 153 0
-0.184242 0.526165 0.483097 153 0 76
0.150376 0.359659 -0.053589 76 0 153
-0.256982 0.378744 -0.600367 0 127 127
0.044057 0.359659 0.357612 76 0 153
-0.506674 0.012858 -0.502321 0 0 255
0.537200 -0.114184 0.220703 127 127 0
0.466456 -0.218470 -0.551332 0 127 127
0.598494 0.047361 -0.398485 127 127 0
0.371970 -0.437679 -0.502321 76 153 0
-0.428454 0.174330 0.298815 76 153 0
-0.182891 -0.386826 -0.600367 0 127 127
-0.517051 -0.514019 0.424965 76 153 0
0.183302 0.186588 -0.315180 76 153 0
0.193615 -0.004598 -0.526839 255 0 0
0.373787 0.371917 0.224457 76 0 153
0.598494 0.145116 -0.563747 127 127 0
-0.541568 0.280619 -0.266468 127 0 127
-0.384757 -0.585808 -0.559844 76 153 0
-0.157162 0.323140 0.530501 76 0 153
-0.541568 -0.237850 0.433722 127 0 127
-0.344794 0.526165 -0.025532 153 0 76
0.376642 0.526165 -0.452578 153 0 76
-0.047407 -0.166074 0.530501 153 0 76
-0.578344 0.140352 0.511189 127 0 127
-0.331729 -0.485378 0.530501 127 127 0
0.512683 0.248707 -0.372933 127 0 127
0.598494 -0.185838 0.128903 127 127 0
0.013561 0.421941 -0.563591 0 127 127
0.138698 0.437225 0.530501 76 0 153
0.021518 -0.115375 0.527412 153 0 76
-0.317364 0.371917 -0.375463 76 0 153
0.006501 -0.585808 -0.316386 76 153 0
0.561718 -0.227307 -0.135198 127 127 0
-0.313762 0.228104 0.567277 0 255 0
-0.470733 -0.585808 -0.057365 76 153 0
0.512683 -0.485916 0.033892 127 0 127
0.598494 0.284480 -0.168926 127 127 0
0.239696 -0.505210 -0.309948 153 0 76
-0.016641 -0.492951 -0.359491 153 0 76
-0.180931 0.252193 0.530501 0 255 0
0.062287 -0.296987 0.527412 127 127 0
-0.315776 0.006064 -0.563591 0 127 127
-0.150025 0.277558 -0.600367 0 127 127
-0.333433 0.254987 -0.502321 0 127 127
0.302841 0.477130 0.030545 153 0 76
0.561718 0.089323 -0.361597 127 127 0
-0.172124 -0.294032 -0.563591 0 127 127
-0.433517 0.526165 -0.470954 153 0 76
-0.524299 0.198583 0.172988 127 0 127
-0.249289 0.371917 0.221702 76 0 153
0.126375 0.477130 -0.349181 153 0 76
-0.541568 -0.011049 -0.377862 76 0 153
-0.578344 0.192468 0.017022 127 0 127
0.488636 -0.536773 0.155656 76 153 0
-0.142289 -0.462116 0.527412 127 127 0
0.561718 -0.458335 -0.071442 127 127 0
-0.517051 0.415626 -0.335188 76 0 153
0.561718 -0.125224 -0.125385 0 127 127
-0.221416 -0.505210 -0.181470 153 0 76
-0.578344 -0.473347 -0.410636 127 0 127
-0.492533 -0.307489 -0.030013 0 127 127
0.158838 -0.505210 -0.060133 153 0 76
-0.517051 0.446924 -0.007228 127 0 127
0.598494 -0.448716 0.459691 127 127 0
-0.466655 0.359659 -0.235116 76 0 153
-0.031913 0.284658 0.508055 0 255 0
-0.524947 0.488774 -0.600367 0 127 127
-0.211363 -0.337349 -0.600367 0 127 127
0.050648 -0.016930 0.567277 153 0 76
-0.175387 0.012910 0.530501 153 0 76
-0.578344 0.127562 0.088561 127 0 127
-0.237386 0.058564 0.527412 153 0 76
0.334624 0.526165 -0.050729 153 0 76
0.505344 -0.585808 0.375265 76 153 0
0.472678 -0.251994 0.567277 127 127 0
-0.350438 -0.585808 0.161351 76 153 0
0.537200 -0.148556 0.088730 0 127 127
0.258633 0.477130 -0.386252 153 0 76
-0.367936 -0.585808 -0.336241 76 153 0
0.274743 0.275419 -0.502321 0 127 127
0.346460 -0.554793 0.567277 127 127 0
-0.122658 0.371917 -0.457380 76 0 153
0.217970 0.439153 -0.502321 0 0 255
-0.390457 -0.536773 -0.182695 76 153 0
0.009597 -0.025682 0.530501 153 0 76
0.014853 -0.010999 -0.215628 0 255 0
-0.329783 -0.264029 0.530501 127 127 0
0.512683 -0.411882 0.180355 127 0 127
0.223775 -0.184069 0.454620 153 0 76
0.143722 -0.503475 -0.551332 0 127 127
-0.355638 0.186588 -0.233771 76 153 0
-0.260122 -0.497719 -0.526839 76 153 0
0.046463 -0.184069 -0.400802 153 0 76
0.523967 -0.421027 -0.563591 0 127 127
-0.500397 0.347400 0.027142 153 0 76
-0.416361 0.526165 -0.299471 153 0 76
-0.492533 -0.321652 -0.070235 0 127 127
-0.578344 -0.410691 0.264641 127 0 127
0.543441 0.433294 -0.335086 153 76 0
-0.578344 -0.082391 -0.440148 127 0 127
-0.303162 -0.196328 -0.025319 153 0 76
-0.541568 -0.364525 -0.388501 0 127 127
0.264709 0.186588 -0.406313 76 153 0
0.000827 0.500933 0.567277 76 0 153
-0.461083 -0.086837 -0.502321 76 0 153
-0.463511 0.186588 0.181312 76 153 0
0.333392 0.114330 0.530501 153 0 76
-0.305146 0.001260 -0.317120 0 255 0
0.174826 0.371917 0.113611 76 0 153
0.041708 -0.505210 -0.169570 153 0 76
-0.517051 -0.465889 -0.347164 127 0 127
-0.541568 -0.240588 0.501373 153 76 0
-0.570919 0.344327 -0.600367 127 0 127
-0.112349 -0.236263 0.567277 127 127 0
0.467497 -0.585808 -0.509405 76 153 0
-0.170851 -0.184069 -0.385230 153 0 76
0.598494 -0.497511 -0.407540 127 127 0
-0.298082 0.001260 0.342997 0 255 0
-0.578344 0.233378 0.263307 127 0 127
0.561718 -0.582664 0.016523 127 127 0
0.498284 -0.196328 0.116706 153 0 76
-0.266176 -0.196328 0.348558 153 0 76
-0.047566 -0.010999 -0.108350 0 255 0
0.137572 0.477130 -0.243434 153 0 76
0.053501 0.526165 -0.380861 153 0 76
-0.492533 0.163548 0.467751 127 127 0
-0.578344 -0.063367 -0.146438 127 0 127
-0.089172 0.526165 -0.559685 153 0 76
-0.259384 -0.585808 -0.273998 76 153 0
-0.099076 -0.319182 -0.526839 76 153 0
-0.492533 0.258610 0.057354 127 127 0
0.561718 0.502666 -0.025387 127 127 0
-0.541568 -0.289966 0.308814 127 0 127
-0.424207 -0.585808 -0.589286 76 153 0
0.229850 0.526165 0.398078 153 0 76
0.598494 -0.071095 0.049279 127 127 0
0.179175 0.304392 0.567277 0 255 0
-0.541568 -0.024853 -0.180220 127 0 127
0.421689 0.001260 0.392647 0 255 0
-0.501204 -0.585808 -0.500012 76 153 0
-0.541568 0.454895 0.276875 127 0 127
-0.151991 -0.585808 -0.178412 76 153 0
-0.527825 0.059827 0.391249 127 0 127
-0.541568 -0.064181 0.466237 127 0 127
0.147868 -0.536773 0.112959 76 153 0
0.472831 0.438013 0.598049 153 76 0
0.274937 -0.492951 0.041443 153 0 76
-0.205912 0.359659 -0.277281 76 0 153
0.501470 0.186588 0.147583 76 153 0
0.561718 0.477524 -0.391058 153 0 76
-0.494357 -0.507802 -0.526839 76 153 0
-0.341342 0.477130 -0.515597 153 0 76
0.091943 0.477130 -0.470598 153 0 76
-0.450583 0.440233 -0.551332 0 127 127
-0.483975 0.477130 -0.064702 153 0 76
-0.323427 0.467947 -0.563591 153 0 76
-0.225519 -0.536773 -0.293440 76 153 0
0.066580 0.526165 -0.072740 153 0 76
0.221769 0.235806 -0.526839 0 127 127
0.563579 0.438423 0.567277 76 0 153
0.458919 -0.437933 0.530501 127 127 0
0.518306 -0.208587 -0.386264 76 0 153
0.598494 -0.169802 -0.056214 127 127 0
0.561718 -0.509394 -0.370265 127 127 0
0.561718 0.308225 0.053484 127 127 0
-0.420142 -0.010999 0.033273 0 255 0
0.598494 -0.258374 -0.008541 127 127 0
-0.161423 0.359659 0.146377 76 0 153
0.107220 -0.476456 0.567277 127 127 0
0.086072 0.186588 -0.126293 76 153 0
0.434446 -0.585808 -0.067233 76 153 0
0.306496 -0.585808 0.086504 76 153 0
-0.432831 0.359659 0.014025 76 0 153
-0.510866 0.501892 0.530501 153 0 76
-0.336840 0.326662 0.530501 76 0 153
-0.541568 0.078342 -0.280521 127 0 127
-0.515393 -0.208587 0.031822 153 76 0
-0.578344 -0.028941 0.485304 127 0 127
-0.572428 -0.585808 0.187841 76 153 0
0.561718 -0.564050 0.414111 76 153 0
-0.394515 -0.492951 0.412196 153 0 76
-0.032731 -0.010999 -0.180012 0 255 0
0.561718 -0.225928 0.039679 0 127 127
-0.317196 -0.358960 -0.600367 0 127 127
0.390391 0.269783 -0.526839 0 127 127
-0.516322 -0.272294 0.204280 0 127 127
-0.260208 -0.299050 0.527412 127 127 0
-0.381344 0.174330 -0.406356 76 153 0
0.266667 -0.585808 0.221132 76 153 0
0.010619 0.340836 0.563630 0 255 0
0.224880 -0.184069 0.028350 153 0 76
-0.093592 0.174330 -0.442250 76 153 0
-0.541568 -0.450387 -0.589017 127 0 127
0.507446 0.526165 0.227668 153 0 76
0.487492 -0.173879 -0.526839 0 127 127
-0.387608 0.526165 -0.568812 153 0 76
0.104912 0.371917 -0.491774 76 0 153
0.092960 0.526165 -0.154063 153 0 76
-0.578344 -0.299059 -0.366480 127 0 127
-0.083321 0.186588 -0.215725 76 153 0
0.598494 0.306937 0.337538 127 127 0
0.247758 -0.123566 -0.526839 76 0 153
0.512683 0.048333 0.159065 204 51 127
0.372005 0.433700 -0.502321 0 0 255
-0.219782 -0.122393 -0.502321 76 0 153
0.146283 -0.585808 -0.534539 76 153 0
0.205562 -0.536773 -0.243636 76 153 0
0.132707 0.477130 -0.408595 153 0 76
0.598494 0.461859 0.461964 127 127 0
-0.288948 0.477130 0.252844 153 0 76
-0.541568 -0.417282 0.144040 127 0 127
-0.044188 -0.585808 -0.563491 76 153 0
-0.147135 -0.126026 0.567277 153 0 76
-0.279319 -0.085999 -0.519130 76 0 153
0.268670 -0.505210 -0.386284 153 0 76
-0.541568 -0.155983 0.219337 76 153 0
-0.131892 0.477130 -0.405094 153 0 76
0.196907 0.186588 -0.352862 76 153 0
-0.541568 0.165521 -0.138443 127 0 127
0.381039 -0.142295 -0.563591 0 127 127
0.429477 -0.297979 -0.600367 0 127 127
-0.266003 -0.183094 0.530501 153 0 76
-0.532374 0.034898 -0.461805 127 0 127
-0.084189 -0.398020 -0.526839 76 153 0
-0.133557 -0.536773 0.391178 76 153 0
0.512683 -0.454442 0.235358 127 0 127
-0.517051 -0.350609 -0.252381 0 127 127
0.512683 -0.469861 0.496616 127 0 127
0.512683 0.163649 -0.245647 127 0 127
0.222303 0.112798 -0.563591 0 127 127
-0.000696 0.384669 0.530501 76 0 153
-0.246077 -0.536773 0.149947 153 0 76
0.598494 -0.215838 -0.588188 127 127 0
0.398103 0.477130 -0.065285 153 0 76
-0.114034 0.225649 -0.551332 0 127 127
0.561718 0.087455 0.120539 204 51 127
-0.517051 -0.286735 -0.280470 0 127 127
-0.107701 -0.492951 0.043345 153 0 76
0.252395 -0.126945 0.530501 153 0 76
0.598494 0.367560 0.302483 127 127 0
0.561718 -0.037402 -0.086333 204 51 127
0.398566 0.119623 0.567277 153 0 76
-0.507994 0.284658 -0.369087 127 127 0
-0.049498 0.526165 -0.487220 153 0 76
-0.443774 -0.103055 0.530501 153 0 76
-0.414376 -0.406003 -0.600367 0 127 127
-0.121966 -0.517468 -0.510263 76 153 0
-0.541568 0.060730 -0.556839 0 127 127
-0.398054 0.039789 -0.502321 255 0 0
-0.076452 -0.492951 -0.319105 153 0 76
-0.496566 0.162071 0.279827 127 127 0
0.296360 0.359659 0.346847 76 0 153
-0.395376 0.477130 -0.541651 153 0 76
0.193426 -0.173923 -0.502321 76 0 153
0.537200 0.377046 0.423971 204 51 127
0.561718 0.100481 0.202821 127 127 0
0.371040 0.477130 0.154156 153 0 76
-0.018199 -0.010999 -0.421765 0 255 0
-0.262733 -0.196328 -0.088551 153 0 76
-0.383285 0.091123 0.527412 153 0 76
0.498351 -0.585808 0.519666 76 153 0
-0.492533 0.063656 0.366170 0 0 255
-0.141778 0.174330 -0.171730 76 153 0
-0.534374 0.269556 0.567277 0 255 0
0.170693 0.162094 -0.551332 0 127 127
0.537200 -0.321088 0.233687 127 0 127
-0.517051 -0.195299 -0.457537 153 76 0
-0.084908 0.073344 0.502895 153 0 76
-0.578344 0.165563 0.219008 127 0 127
-0.492533 0.207858 0.080555 76 153 0
-0.378317 -0.505210 0.096567 153 0 76
0.568938 -0.520237 -0.600367 127 127 0
-0.016545 -0.196328 0.471289 153 0 76
0.106230 0.257087 -0.600367 0 127 127
0.351275 -0.536773 -0.497743 76 153 0
0.371978 0.001260 -0.479817 0 255 0
-0.454170 0.174330 -0.319570 76 153 0
-0.523180 -0.486769 0.477717 127 0 127
0.438992 0.371917 -0.353861 76 0 153
-0.492533 0.016133 0.053759 0 0 255
0.223158 0.526165 -0.564991 153 0 76
-0.187988 0.526165 -0.207271 153 0 76
0.267312 0.001260 -0.169055 0 255 0
0.240615 -0.196328 0.301436 153 0 76
0.211314 -0.184069 -0.348988 153 0 76
-0.578344 -0.467621 0.010351 127 0 127
0.247806 -0.010999 0.245148 0 255 0
0.543474 -0.172725 0.362314 0 127 127
0.299366 0.477130 -0.380982 153 0 76
0.598494 -0.246297 0.175540 127 127 0
0.537200 -0.352211 0.371801 127 0 127
-0.551422 0.132846 0.567277 153 0 76
-0.459100 0.099329 0.508748 153 0 76
0.598494 0.343907 -0.312819 127 127 0
0.561718 0.327255 -0.213310 127 127 0
-0.066348 -0.536773 0.181711 153 0 76
0.137224 0.477130 -0.445349 153 0 76
0.561718 0.097567 0.526191 153 0 76
0.018533 0.001260 0.100531 0 255 0
0.306235 -0.023258 0.525522 153 0 76
0.560912 0.477130 0.002136 127 127 0
-0.578344 -0.168078 -0.120685 127 0 127
-0.172458 0.477130 -0.060280 153 0 76
0.232555 -0.492951 0.239026 153 0 76
-0.541568 -0.446118 -0.421909 127 0 127
0.263115 -0.085326 -0.563591 0 127 127
0.548359 0.477130 0.258893 153 0 76
-0.541568 -0.046676 0.432301 127 0 127
-0.541568 0.506802 -0.564253 153 0 76
0.415044 0.186588 0.229922 76 153 0
-0.061035 0.174330 0.114955 76 153 0
-0.136328 -0.492951 -0.273970 153 0 76
-0.578344 -0.004091 0.057578 127 0 127
0.329556 -0.499538 -0.600367 0 127 127
0.459640 0.364659 -0.600367 0 127 127
-0.123948 0.001260 0.438098 0 255 0
-0.578276 0.526165 -0.340602 127 0 127
-0.109257 0.146006 -0.551332 0 127 127
0.239576 -0.184069 -0.273850 153 0 76
0.561718 -0.568667 -0.314573 127 127 0
-0.517051 -0.364796 -0.058893 0 127 127
-0.025397 0.526165 0.105297 153 0 76
0.400645 0.370729 0.502895 76 0 153
0.170706 0.174330 0.366120 76 153 0
-0.108549 0.001260 -0.370639 0 255 0
0.454232 -0.505210 0.272084 153 0 76
0.017475 -0.010999 0.226002 0 255 0
-0.022863 0.174330 -0.340081 76 153 0
-0.502192 0.284658 0.259774 127 127 0
-0.492533 -0.368158 0.096614 0 127 127
-0.334109 -0.536773 0.476937 76 153 0
-0.020750 -0.184069 0.279063 153 0 76
-0.126066 -0.196328 -0.075852 153 0 76
0.181267 -0.010999 0.407915 0 255 0
-0.187534 -0.505210 0.314463 153 0 76
0.537201 -0.332776 -0.507718 76 153 0
0.598494 0.380010 -0.503215 127 127 0
0.436671 0.371917 -0.103054 76 0 153
0.118002 -0.260062 0.530501 127 127 0
-0.452042 0.186588 -0.279480 76 153 0
-0.240381 -0.348423 -0.563591 0 127 127
0.598494 -0.483070 -0.575455 127 127 0
-0.100419 -0.585808 -0.448767 76 153 0
0.315344 -0.536773 -0.206441 76 153 0
-0.180301 -0.356311 -0.526839 0 127 127
-0.167652 -0.175509 -0.563591 0 127 127
0.081150 -0.536773 0.220268 76 153 0
-0.541568 0.050438 0.121420 76 0 153
-0.081451 -0.184069 -0.190969 153 0 76
0.561718 -0.116204 -0.015444 127 127 0
0.208372 0.055994 0.635016 76 0 153
0.190167 -0.434611 -0.600367 0 127 127
0.378165 0.001260 -0.404051 0 255 0
-0.492533 0.250869 -0.481601 127 127 0
-0.368692 -0.037151 -0.551332 0 127 127
0.127563 -0.337553 0.530501 127 127 0
0.473212 -0.184069 -0.340103 153 0 76
-0.371029 -0.515952 -0.563591 0 127 127
-0.324951 0.174330 0.040459 76 153 0
-0.307165 -0.184069 -0.266956 153 0 76
-0.462350 0.001260 -0.077772 0 255 0
-0.484261 0.043830 0.567277 153 0 76
-0.338601 0.477130 0.417443 153 0 76
0.484326 0.371917 0.441575 76 0 153
-0.342466 -0.207833 -0.526839 76 0 153
-0.541568 0.289233 0.057112 127 0 127
0.187967 -0.536773 0.310441 76 153 0
-0.043212 0.347168 -0.563591 0 127 127
0.481584 -0.492951 0.057078 153 0 76
-0.517051 -0.334669 -0.161414 0 127 127
0.485338 0.249210 0.603944 204 51 127
0.561718 -0.069339 -0.383203 127 127 0
-0.416824 0.282555 -0.600367 0 127 127
-0.300430 0.186588 -0.196408 76 153 0
-0.523180 -0.484802 0.089569 0 255 0
-0.492533 0.281164 0.493710 127 127 0
0.177873 0.371917 0.492267 76 0 153
0.419422 -0.536773 -0.070619 76 153 0
-0.541568 -0.107294 -0.382161 127 0 127
-0.454769 -0.145068 -0.551332 0 127 127
-0.013619 -0.505210 0.296062 153 0 76
0.424637 -0.585808 0.141758 76 153 0
0.561718 -0.522184 0.266639 76 153 0
0.304597 -0.010999 -0.033835 0 255 0
-0.563748 0.526165 0.299382 127 0 127
0.269422 0.096531 -0.502321 255 0 0
0.508120 -0.536773 -0.003715 76 153 0
-0.372579 0.001260 -0.280899 0 255 0
-0.254386 0.520036 0.537909 76 0 153
-0.099010 0.155507 0.554497 153 0 76
0.273262 -0.189487 -0.526839 153 0 76
-0.066533 -0.536773 0.294701 76 153 0
-0.364946 0.526165 -0.231338 153 0 76
0.413154 0.371917 0.150977 76 0 153
-0.150892 -0.196328 0.466437 153 0 76
-0.496363 -0.023258 0.356223 0 0 255
0.076267 0.299928 -0.563591 0 127 127
0.454469 0.046537 -0.526839 255 0 0
-0.034077 0.444407 -0.526839 0 0 255
-0.183801 0.359659 -0.411525 76 0 153
-0.578344 0.018921 -0.370777 127 0 127
0.278423 0.359659 0.057733 76 0 153
0.288059 0.126230 0.567277 153 0 76
0.104845 -0.401768 0.567277 127 127 0
0.064149 0.077203 0.567277 153 0 76
0.153388 0.044172 0.502895 153 0 76
0.073013 -0.585808 0.250856 76 153 0
-0.578344 -0.335616 -0.078170 127 0 127
0.528640 0.387096 -0.563591 0 127 127
-0.570868 -0.585808 0.325840 127 0 127
-0.365224 -0.196328 0.044438 153 0 76
0.598494 -0.093644 0.311911 127 127 0
-0.277674 -0.585808 0.367479 76 153 0
0.409110 -0.492951 0.042039 153 0 76
0.239189 -0.585808 0.423405 76 153 0
-0.439164 -0.010999 0.087101 0 255 0
0.561718 -0.458833 0.186923 127 127 0
-0.108858 -0.303538 -0.600367 0 127 127
0.580758 -0.215151 0.531469 76 0 153
-0.291528 -0.336222 0.567277 127 127 0
-0.303218 0.371917 -0.300184 76 0 153
-0.194404 -0.536773 -0.580469 76 153 0
-0.492533 -0.352218 -0.110049 0 127 127
0.199572 0.001260 0.086253 0 255 0
-0.541568 0.363100 -0.047471 127 0 127
0.411486 0.340576 -0.563591 0 127 127
0.081435 0.477130 0.495387 153 0 76
0.193775 -0.492951 -0.182142 153 0 76
-0.024112 0.174330 -0.159136 76 153 0
0.403131 -0.585808 0.260613 76 153 0
0.598494 -0.239581 -0.158611 127 127 0
-0.114893 0.329961 -0.551332 0 127 127
0.525869 0.243010 0.530501 0 255 0
-0.541568 0.388352 -0.013753 76 0 153
0.530936 -0.085999 0.197762 127 127 0
0.598494 -0.192672 0.244079 127 127 0
0.512683 -0.122492 0.262233 76 0 153
0.484594 -0.221280 0.545780 127 127 0
0.518633 -0.085999 0.474217 76 0 153
-0.468743 0.526165 -0.455486 153 0 76
-0.541568 -0.438823 -0.022824 0 255 0
0.523741 -0.023258 0.148515 204 51 127
-0.388952 -0.184069 0.387458 153 0 76
0.062812 0.477130 -0.226804 153 0 76
-0.492533 0.407520 0.258277 153 0 76
-0.035274 0.371917 0.349327 76 0 153
-0.175238 0.477130 -0.557557 0 127 127
-0.578344 0.460806 0.526465 76 0 153
0.072681 -0.550903 0.567277 127 127 0
0.598494 -0.359592 0.282533 127 127 0
-0.541568 -0.138589 -0.139189 76 153 0
-0.541568 0.169149 0.399528 127 0 127
-0.541568 -0.155656 0.275377 76 153 0
0.561718 0.254841 -0.085036 127 127 0
-0.059370 0.186588 0.432874 76 153 0
0.017728 -0.505210 -0.263989 153 0 76
-0.541568 -0.507725 -0.114552 0 255 0
-0.517051 0.350298 -0.330345 153 0 76
0.429031 0.084223 -0.563591 0 127 127
0.489666 -0.184069 0.315814 153 0 76
0.463002 0.371917 -0.288788 76 0 153
0.415510 -0.315061 0.615589 0 0 255
0.561718 -0.267173 -0.189973 127 127 0
-0.578344 0.271907 -0.085284 127 0 127
-0.170160 -0.505210 -0.233713 153 0 76
-0.382620 0.477130 -0.580389 0 127 127
-0.004395 0.182376 0.567277 0 255 0
0.481397 0.371917 0.256740 76 0 153
-0.517051 -0.316714 0.137974 0 127 127
0.504535 0.174330 -0.374039 127 0 127
0.544413 0.245156 -0.300135 127 0 127
-0.318578 0.359659 0.485442 76 0 153
-0.073051 -0.157814 -0.526839 76 0 153
0.329959 0.186588 -0.484333 76 153 0
0.502600 -0.505210 0.325778 153 0 76
-0.324149 0.359659 0.415908 76 0 153
-0.373463 0.001260 -0.478383 0 255 0
-0.388323 -0.517468 0.511253 127 127 0
-0.578344 -0.262361 0.156306 127 0 127
-0.517051 -0.301669 -0.429581 0 127 127
