0.498060 0.097086 -0.415295 0.000000 0.000000 1.000000
0.231059 -0.493184 -0.443750 0.300000 0.000000 0.600000
0.474856 -0.228491 0.180541 0.500000 0.500000 0.000000
-0.433785 0.117711 0.411325 0.000000 0.000000 1.000000
0.747576 -0.460659 -0.224806 0.600000 0.000000 0.300000
0.608933 -0.245361 0.466780 0.600000 0.300000 0.000000
0.342124 0.495997 -0.401067 0.000000 0.000000 1.000000
0.387442 -0.228491 0.061157 0.500000 0.500000 0.000000
0.656463 -0.205417 0.495235 0.600000 0.300000 0.000000
-0.541600 0.146166 0.335117 0.000000 0.000000 1.000000
0.344283 -0.266431 -0.095654 1.000000 0.000000 0.000000
0.620786 0.549278 -0.290841 0.600000 0.000000 0.300000
0.247506 -0.413635 0.239170 0.300000 0.000000 0.600000
-0.494602 0.248431 0.495264 0.600000 0.000000 0.300000
0.728606 -0.651511 0.184977 0.600000 0.000000 0.300000
0.293893 -0.209521 -0.226089 0.500000 0.500000 0.000000
-0.096588 -0.192334 -0.219618 0.000000 0.500000 0.500000
0.142142 -0.648014 0.239170 0.300000 0.000000 0.600000
0.728606 -0.016519 0.438197 0.800000 0.200000 0.500000
0.399838 -0.266431 0.055353 1.000000 0.000000 0.000000
-0.257772 0.520823 0.443516 0.300000 0.600000 0.000000
0.625845 -0.266431 -0.274866 1.000000 0.000000 0.000000
0.728606 -0.236421 0.090108 0.800000 0.200000 0.500000
0.728606 -0.100930 -0.040136 0.800000 0.200000 0.500000
-0.629811 -0.266431 -0.165171 1.000000 0.000000 0.000000
-0.164264 0.146166 -0.031904 0.000000 0.000000 1.000000
0.151215 0.508570 0.495235 0.600000 0.300000 0.000000
-0.694142 0.029884 -0.086073 0.600000 0.000000 0.300000
0.281766 -0.262267 -0.415295 0.000000 0.000000 1.000000
0.522245 -0.228491 0.047615 0.500000 0.500000 0.000000
-0.112104 -0.046612 -0.401067 0.000000 0.000000 1.000000
-0.707668 0.488075 0.466809 0.500000 0.000000 0.500000
0.503845 0.146166 0.392171 0.000000 0.000000 1.000000
-0.189738 -0.228491 -0.247125 0.300000 0.000000 0.600000
0.618834 0.549278 0.296841 0.600000 0.000000 0.300000
0.728096 0.194043 -0.415295 0.000000 0.000000 1.000000
0.147512 0.117711 -0.390444 0.000000 0.000000 1.000000
0.747576 -0.257416 0.159381 0.800000 0.200000 0.500000
0.728606 0.061366 0.025832 0.800000 0.200000 0.500000
-0.694142 0.552167 -0.346391 0.600000 0.000000 0.300000
-0.456071 -0.228491 -0.058869 0.300000 0.000000 0.600000
-0.020716 0.042647 0.472875 0.600000 0.000000 0.300000
0.746146 -0.655315 0.078553 0.600000 0.000000 0.300000
-0.686509 0.098060 0.438354 0.500000 0.000000 0.500000
0.102582 0.146166 -0.142448 0.000000 0.000000 1.000000
-0.713112 -0.155733 0.163804 0.600000 0.000000 0.300000
0.350313 -0.431229 0.239170 0.300000 0.000000 0.600000
0.057670 0.577733 -0.426701 0.000000 0.000000 1.000000
-0.694142 0.237579 -0.075313 0.600000 0.000000 0.300000
-0.627748 -0.186395 -0.126103 0.300000 0.600000 0.000000
-0.455473 -0.228491 -0.261607 0.300000 0.000000 0.600000
-0.713112 -0.545643 0.143194 0.600000 0.300000 0.000000
0.101691 0.146166 0.134951 0.000000 0.000000 1.000000
0.121567 -0.179308 -0.075918 1.000000 0.000000 0.000000
-0.574339 -0.197903 -0.396325 0.600000 0.000000 0.300000
0.130370 -0.266431 0.412970 1.000000 0.000000 0.000000
0.250337 0.559117 0.438354 0.300000 0.600000 0.000000
-0.559658 -0.238818 0.466780 0.600000 0.000000 0.300000
0.747576 0.485192 0.003732 0.800000 0.200000 0.500000
0.403572 -0.204206 -0.401067 0.000000 0.000000 1.000000
-0.412951 -0.075644 -0.415295 0.000000 0.000000 1.000000
0.728606 0.207255 0.345672 0.800000 0.200000 0.500000
-0.433656 0.076647 -0.415295 0.000000 0.000000 1.000000
0.269445 0.300791 -0.415295 0.000000 0.000000 1.000000
-0.151112 -0.209521 -0.170717 0.300000 0.000000 0.600000
-0.208009 0.315276 -0.401067 0.000000 0.000000 1.000000
-0.694142 -0.228166 -0.259698 0.600000 0.000000 0.300000
-0.424574 -0.228491 -0.265450 0.300000 0.000000 0.600000
0.126609 0.124733 0.438354 0.000000 0.000000 1.000000
-0.627748 -0.236186 0.079435 0.300000 0.600000 0.000000
-0.204811 0.146166 0.080239 0.000000 0.000000 1.000000
0.342350 -0.266431 0.368199 1.000000 0.000000 0.000000
0.747576 0.061554 0.090902 0.800000 0.200000 0.500000
0.417965 -0.119468 0.495264 0.600000 0.300000 0.000000
0.427691 -0.266431 -0.236947 1.000000 0.000000 0.000000
0.519090 -0.209521 0.229305 0.500000 0.500000 0.000000
0.747576 -0.035979 0.423851 0.800000 0.200000 0.500000
0.747576 -0.629387 -0.440025 0.600000 0.000000 0.300000
0.363962 -0.228491 -0.074715 0.500000 0.500000 0.000000
-0.713112 -0.258739 0.281341 0.600000 0.000000 0.300000
0.370279 0.117711 -0.394884 0.000000 0.000000 1.000000
-0.189234 -0.228491 -0.362743 0.300000 0.000000 0.600000
-0.701167 -0.128686 0.438354 0.500000 0.000000 0.500000
0.728606 -0.424293 0.074504 0.600000 0.000000 0.300000
0.059402 -0.266431 -0.157859 1.000000 0.000000 0.000000
-0.663286 0.291593 0.466780 0.600000 0.000000 0.300000
0.210428 0.117711 0.004586 0.000000 0.000000 1.000000
-0.628221 -0.237976 -0.339669 0.300000 0.600000 0.000000
0.250391 0.117711 0.295562 0.000000 0.000000 1.000000
-0.582643 0.549278 0.093927 0.300000 0.000000 0.600000
0.671024 0.146166 0.033447 0.000000 0.000000 1.000000
0.518635 0.146166 -0.221134 0.000000 0.000000 1.000000
0.747576 -0.510151 -0.150959 0.600000 0.000000 0.300000
0.238365 -0.393386 -0.443750 0.300000 0.000000 0.600000
-0.409881 0.117711 -0.395675 0.000000 0.000000 1.000000
0.659239 0.117711 0.236009 0.000000 0.000000 1.000000
-0.334302 -0.266431 -0.008996 1.000000 0.000000 0.000000
-0.642586 -0.551550 0.239170 0.300000 0.000000 0.600000
-0.556282 0.117711 0.017002 0.000000 0.000000 1.000000
0.632968 -0.266431 -0.378538 1.000000 0.000000 0.000000
0.515851 -0.266431 -0.115355 1.000000 0.000000 0.000000
-0.630623 0.530308 -0.029981 0.300000 0.000000 0.600000
0.728606 -0.466805 -0.124861 0.600000 0.000000 0.300000
0.029843 0.117711 -0.356102 0.000000 0.000000 1.000000
-0.573711 -0.209521 0.258475 0.300000 0.000000 0.600000
0.696542 -0.571671 -0.443750 0.300000 0.000000 0.600000
-0.486348 0.460158 -0.401067 0.000000 0.000000 1.000000
0.586358 0.280708 0.495153 0.600000 0.300000 0.000000
-0.534280 -0.228491 -0.028678 0.300000 0.000000 0.600000
0.550671 -0.266431 -0.063769 1.000000 0.000000 0.000000
0.747576 0.427958 0.298260 0.800000 0.200000 0.500000
0.727766 0.456000 0.466809 0.000000 1.000000 0.000000
-0.098800 0.146166 0.311253 0.000000 0.000000 1.000000
-0.411759 -0.173639 -0.401067 0.000000 0.000000 1.000000
0.622541 0.138944 0.471429 0.600000 0.300000 0.000000
-0.713112 -0.363552 0.002894 0.600000 0.300000 0.000000
-0.441024 -0.228491 -0.102262 0.300000 0.000000 0.600000
0.741478 0.019652 0.466809 0.000000 1.000000 0.000000
-0.623819 0.146166 -0.069455 0.000000 0.000000 1.000000
0.728606 0.216678 0.003352 0.800000 0.200000 0.500000
-0.228711 0.117711 0.386677 0.000000 0.000000 1.000000
0.102597 -0.190628 0.005479 1.000000 0.000000 0.000000
0.747576 0.536028 -0.032859 0.800000 0.200000 0.500000
0.616525 -0.228491 0.366417 0.500000 0.500000 0.000000
-0.307407 -0.048461 0.495264 0.600000 0.000000 0.300000
0.728606 0.002531 0.264813 0.800000 0.200000 0.500000
-0.686014 -0.266431 0.426896 1.000000 0.000000 0.000000
-0.713112 -0.245147 0.348868 0.600000 0.000000 0.300000
-0.602886 -0.328760 -0.443750 0.300000 0.000000 0.600000
0.630650 0.549278 -0.118623 0.600000 0.000000 0.300000
0.271614 0.161696 0.495264 0.600000 0.300000 0.000000
-0.713112 0.430681 0.407112 0.600000 0.000000 0.300000
0.728606 -0.093923 -0.090687 0.800000 0.200000 0.500000
0.728606 -0.198882 -0.391676 0.800000 0.200000 0.500000
-0.117343 -0.207517 0.495235 0.600000 0.000000 0.300000
-0.627748 -0.193119 -0.155159 0.300000 0.600000 0.000000
0.445040 -0.130350 0.471429 0.600000 0.300000 0.000000
0.747576 -0.345914 -0.117730 0.600000 0.000000 0.300000
-0.272102 -0.170292 0.471429 0.600000 0.000000 0.300000
0.381128 0.216976 -0.401067 0.000000 0.000000 1.000000
-0.713112 -0.190674 -0.077457 0.600000 0.000000 0.300000
0.686803 0.046731 0.495235 0.600000 0.300000 0.000000
-0.301834 -0.228491 0.241528 0.300000 0.000000 0.600000
0.654248 0.476045 -0.401067 0.000000 0.000000 1.000000
0.432618 0.117711 -0.120225 0.000000 0.000000 1.000000
-0.501672 0.146166 -0.127641 0.000000 0.000000 1.000000
0.747576 -0.020673 0.041087 0.800000 0.200000 0.500000
0.520084 -0.198874 -0.377355 0.000000 1.000000 0.000000
0.617824 0.530308 0.037104 0.600000 0.000000 0.300000
-0.136944 0.535550 0.489607 0.600000 0.000000 0.300000
0.162947 -0.228491 -0.032321 0.500000 0.500000 0.000000
0.339567 -0.189684 0.480249 0.600000 0.300000 0.000000
0.160887 0.146166 0.316556 0.000000 0.000000 1.000000
0.563642 0.146166 -0.030490 0.000000 0.000000 1.000000
-0.311772 0.117711 0.025525 0.000000 0.000000 1.000000
-0.088893 -0.162096 0.392308 0.000000 0.500000 0.500000
-0.580190 0.504520 -0.443750 0.000000 0.000000 1.000000
0.477577 0.301576 -0.401067 0.000000 0.000000 1.000000
-0.694142 0.311460 -0.007427 0.600000 0.000000 0.300000
0.066783 0.479228 0.495235 0.600000 0.300000 0.000000
0.389654 0.215375 0.471429 0.600000 0.300000 0.000000
0.466945 -0.228491 0.324928 0.500000 0.500000 0.000000
0.728606 -0.014510 -0.329381 0.800000 0.200000 0.500000
0.728606 -0.261319 0.331273 0.800000 0.200000 0.500000
-0.563567 -0.264726 -0.415295 0.000000 0.000000 1.000000
0.649639 -0.228491 0.149877 0.500000 0.500000 0.000000
0.747576 0.459290 -0.036459 0.800000 0.200000 0.500000
0.203726 0.195542 0.471429 0.600000 0.300000 0.000000
0.371112 0.352228 -0.401067 0.000000 0.000000 1.000000
0.465084 0.095907 0.471429 0.600000 0.300000 0.000000
-0.356873 0.061056 -0.415295 0.000000 0.000000 1.000000
0.124743 -0.399267 0.239170 0.300000 0.000000 0.600000
0.452843 -0.195537 0.490565 0.600000 0.300000 0.000000
0.549999 0.464937 0.466780 0.600000 0.300000 0.000000
-0.229257 0.117711 0.123914 0.000000 0.000000 1.000000
-0.077618 -0.215350 -0.233770 0.000000 0.500000 0.500000
-0.488265 0.117711 -0.013693 0.000000 0.000000 1.000000
-0.494702 0.549512 0.438354 0.300000 0.600000 0.000000
0.233256 -0.196638 0.438354 0.800000 0.200000 0.500000
-0.244648 -0.369837 0.239170 0.300000 0.000000 0.600000
-0.690551 -0.621273 -0.443750 0.300000 0.000000 0.600000
0.128799 0.146166 -0.387515 0.000000 0.000000 1.000000
0.496750 -0.550544 0.239170 0.300000 0.000000 0.600000
0.321906 0.046512 -0.401067 0.000000 0.000000 1.000000
-0.509848 -0.209521 -0.326105 0.300000 0.000000 0.600000
-0.456266 0.146166 0.259701 0.000000 0.000000 1.000000
-0.602568 0.196423 -0.415295 0.000000 0.000000 1.000000
0.339011 0.146166 0.118760 0.000000 0.000000 1.000000
-0.181680 -0.115059 0.471429 0.600000 0.000000 0.300000
0.728606 -0.072270 0.012449 0.800000 0.200000 0.500000
0.586798 0.146166 0.398197 0.000000 0.000000 1.000000
-0.621413 -0.211734 -0.377355 0.300000 0.000000 0.600000
-0.414076 0.117711 0.135071 0.000000 0.000000 1.000000
0.103900 0.463491 -0.415295 0.000000 0.000000 1.000000
0.458795 0.517035 -0.443750 0.000000 0.000000 1.000000
0.234054 -0.266431 -0.243845 1.000000 0.000000 0.000000
-0.068407 -0.266431 0.254789 1.000000 0.000000 0.000000
-0.169298 0.551244 0.438354 0.300000 0.600000 0.000000
0.579378 0.117711 -0.015553 0.000000 0.000000 1.000000
0.670985 0.577733 0.439220 0.300000 0.600000 0.000000
-0.268563 -0.266431 -0.099546 1.000000 0.000000 0.000000
0.233985 -0.280726 -0.415295 0.000000 0.000000 1.000000
-0.694142 0.127826 -0.167452 0.600000 0.000000 0.300000
0.161042 -0.228491 0.024585 0.500000 0.500000 0.000000
0.203437 -0.444554 -0.443750 0.300000 0.000000 0.600000
-0.647347 0.117711 0.117510 0.000000 0.000000 1.000000
0.747576 -0.371378 0.005454 0.600000 0.000000 0.300000
-0.180778 -0.325838 0.239170 0.300000 0.000000 0.600000
-0.076306 0.183174 0.466780 0.600000 0.000000 0.300000
0.747576 0.494508 -0.291795 0.800000 0.200000 0.500000
-0.165367 -0.209521 0.082345 0.300000 0.000000 0.600000
0.718116 0.117711 0.222053 0.000000 0.000000 1.000000
-0.054000 0.567433 -0.443750 0.000000 0.000000 1.000000
0.677505 0.117711 0.358676 0.000000 0.000000 1.000000
-0.549414 0.117711 -0.244089 0.000000 0.000000 1.000000
0.009343 0.218665 -0.401067 0.000000 0.000000 1.000000
0.297480 0.117711 0.106521 0.000000 0.000000 1.000000
0.426178 -0.228491 -0.341775 0.500000 0.500000 0.000000
0.720597 -0.266431 -0.360263 1.000000 0.000000 0.000000
0.640191 -0.173956 -0.377355 0.000000 1.000000 0.000000
-0.694142 0.008261 -0.213584 0.600000 0.000000 0.300000
-0.363201 -0.209521 -0.167412 0.300000 0.000000 0.600000
-0.713112 0.260800 0.202331 0.600000 0.000000 0.300000
-0.480656 -0.590910 -0.443750 0.300000 0.000000 0.600000
-0.098582 -0.209521 0.355167 0.300000 0.000000 0.600000
0.509739 0.117711 0.228563 0.000000 0.000000 1.000000
-0.713112 0.412623 -0.202992 0.600000 0.000000 0.300000
0.355701 0.281065 0.495264 0.600000 0.300000 0.000000
0.125735 0.311025 0.466780 0.600000 0.300000 0.000000
-0.447660 0.577733 -0.443721 0.000000 0.000000 1.000000
-0.176371 -0.228491 0.176237 0.300000 0.000000 0.600000
-0.713112 -0.487507 -0.160100 0.600000 0.300000 0.000000
-0.223629 0.329893 0.495264 0.600000 0.000000 0.300000
-0.228970 0.117711 0.218336 0.000000 0.000000 1.000000
0.341074 0.234766 -0.401067 0.000000 0.000000 1.000000
-0.225004 0.146166 -0.162969 0.000000 0.000000 1.000000
0.030431 -0.224608 0.466809 0.500000 0.500000 0.000000
0.455832 -0.228491 -0.009212 0.500000 0.500000 0.000000
0.193365 0.146166 -0.045693 0.000000 0.000000 1.000000
-0.079266 -0.266431 0.166720 1.000000 0.000000 0.000000
-0.031939 0.343025 0.495235 0.600000 0.000000 0.300000
-0.029587 -0.170969 -0.415295 0.000000 0.000000 1.000000
0.747576 0.382446 0.367024 0.800000 0.200000 0.500000
0.596738 -0.001102 -0.415295 0.000000 0.000000 1.000000
-0.694142 -0.314655 -0.210827 0.600000 0.300000 0.000000
-0.295514 -0.266431 0.359981 1.000000 0.000000 0.000000
-0.247371 0.117711 -0.174279 0.000000 0.000000 1.000000
0.413669 -0.013141 0.495264 0.600000 0.300000 0.000000
0.256753 -0.495070 0.239170 0.300000 0.000000 0.600000
0.498675 0.479427 -0.401067 0.000000 0.000000 1.000000
-0.636584 0.549278 -0.152982 0.300000 0.000000 0.600000
0.102654 -0.238033 0.466780 0.600000 0.300000 0.000000
-0.299385 -0.228491 0.024476 0.300000 0.000000 0.600000
-0.228328 0.095034 -0.415295 0.000000 0.000000 1.000000
0.484365 0.146166 -0.095149 0.000000 0.000000 1.000000
-0.694142 0.011662 0.103263 0.600000 0.000000 0.300000
-0.691821 0.146166 -0.022847 0.000000 0.000000 1.000000
0.178129 0.464377 -0.443750 0.000000 0.000000 1.000000
0.004863 0.146166 0.296998 0.000000 0.000000 1.000000
-0.466784 -0.059142 0.471429 0.600000 0.000000 0.300000
0.584160 -0.228491 0.367959 0.500000 0.500000 0.000000
0.559513 -0.026205 0.471429 0.600000 0.300000 0.000000
-0.056586 0.208961 0.466780 0.600000 0.000000 0.300000
-0.713112 -0.442401 0.101331 0.600000 0.300000 0.000000
-0.713112 0.476166 0.409328 0.600000 0.000000 0.300000
0.180799 0.544000 -0.443750 0.000000 0.000000 1.000000
0.302149 0.146166 -0.142154 0.000000 0.000000 1.000000
0.016805 0.117711 -0.302201 0.000000 0.000000 1.000000
0.535936 0.516220 0.466780 0.600000 0.300000 0.000000
-0.588939 0.549278 0.368053 0.300000 0.000000 0.600000
0.700151 0.240814 0.459688 0.000000 1.000000 0.000000
0.728606 -0.036719 0.155959 0.800000 0.200000 0.500000
0.209343 -0.182560 -0.396325 0.000000 1.000000 0.000000
0.747576 -0.579063 0.098523 0.600000 0.000000 0.300000
0.728606 -0.165143 0.120617 0.800000 0.200000 0.500000
0.518151 0.117711 0.424300 0.000000 0.000000 1.000000
-0.713112 -0.487705 0.169194 0.600000 0.300000 0.000000
-0.672245 -0.176153 -0.415295 0.000000 0.000000 1.000000
0.673773 0.145598 0.495235 0.600000 0.300000 0.000000
0.741073 -0.313856 0.198149 0.600000 0.000000 0.300000
-0.160291 -0.592950 -0.443750 0.300000 0.000000 0.600000
-0.082530 -0.237976 -0.293647 0.000000 0.500000 0.500000
-0.581187 0.530308 -0.221699 0.300000 0.000000 0.600000
-0.583652 0.549278 -0.045676 0.300000 0.000000 0.600000
-0.713112 0.296931 0.233602 0.600000 0.000000 0.300000
0.524555 0.367428 0.495264 0.600000 0.300000 0.000000
0.692580 0.549278 0.238090 0.600000 0.000000 0.300000
-0.297157 0.117711 0.064100 0.000000 0.000000 1.000000
0.150667 -0.266431 0.234921 1.000000 0.000000 0.000000
0.577567 0.146166 -0.214374 0.000000 0.000000 1.000000
-0.365202 0.146166 0.122064 0.000000 0.000000 1.000000
-0.142967 0.310016 0.486245 0.600000 0.000000 0.300000
0.379970 -0.209521 0.005247 0.500000 0.500000 0.000000
-0.674319 0.552989 0.466809 0.500000 0.000000 0.500000
-0.370596 0.146166 -0.062310 0.000000 0.000000 1.000000
0.487294 -0.164607 0.419384 0.800000 0.200000 0.500000
-0.607719 0.530168 0.494713 0.600000 0.000000 0.300000
0.375284 -0.550839 0.239170 0.300000 0.000000 0.600000
-0.525819 0.221589 0.495264 0.600000 0.000000 0.300000
-0.699368 -0.406895 -0.443749 0.600000 0.300000 0.000000
-0.672145 0.039420 0.495235 0.600000 0.000000 0.300000
-0.095110 0.296818 0.495235 0.600000 0.000000 0.300000
-0.636715 -0.280450 0.466809 0.000000 0.500000 0.500000
0.337686 0.530715 0.438354 0.300000 0.600000 0.000000
0.590268 -0.209521 -0.235569 0.500000 0.500000 0.000000
-0.122622 0.117711 -0.154898 0.000000 0.000000 1.000000
0.102597 -0.200917 -0.278932 1.000000 0.000000 0.000000
-0.169876 0.331715 -0.401067 0.000000 0.000000 1.000000
0.560779 -0.228491 0.413829 0.500000 0.500000 0.000000
-0.589486 -0.209521 -0.083901 0.300000 0.000000 0.600000
-0.713112 -0.234031 -0.077092 0.600000 0.000000 0.300000
-0.627748 -0.209057 0.049141 0.300000 0.600000 0.000000
-0.505388 -0.466436 0.239170 0.300000 0.000000 0.600000
-0.646718 -0.184938 0.265619 0.300000 0.600000 0.000000
0.277594 0.117711 0.426265 0.000000 0.000000 1.000000
-0.388741 -0.266431 0.090881 1.000000 0.000000 0.000000
0.102597 -0.192284 0.049229 1.000000 0.000000 0.000000
0.651318 0.440183 0.495235 0.600000 0.300000 0.000000
0.610705 0.314643 0.482673 0.600000 0.300000 0.000000
0.083354 0.117711 -0.087121 0.000000 0.000000 1.000000
0.701058 -0.266431 -0.170251 1.000000 0.000000 0.000000
0.004613 -0.418868 -0.443750 0.300000 0.000000 0.600000
-0.694142 0.514363 0.216192 0.600000 0.000000 0.300000
0.323326 -0.262998 -0.415295 0.000000 0.000000 1.000000
-0.670701 0.326467 0.466809 0.500000 0.000000 0.500000
0.734747 0.165039 -0.443749 0.800000 0.200000 0.500000
0.285989 -0.266431 -0.093912 1.000000 0.000000 0.000000
0.367923 0.117711 0.324060 0.000000 0.000000 1.000000
0.616036 0.146166 -0.261165 0.000000 0.000000 1.000000
-0.694142 0.043581 0.222497 0.600000 0.000000 0.300000
0.367233 0.146166 -0.031578 0.000000 0.000000 1.000000
0.511847 -0.228491 0.184401 0.500000 0.500000 0.000000
0.255262 0.146166 0.078842 0.000000 0.000000 1.000000
0.222684 0.102513 0.471429 0.600000 0.300000 0.000000
-0.704819 0.054396 0.438354 0.500000 0.000000 0.500000
0.521995 0.532360 -0.415295 0.000000 0.000000 1.000000
-0.504777 0.137533 -0.415295 0.000000 0.000000 1.000000
-0.352436 0.554852 0.438354 0.300000 0.600000 0.000000
-0.370351 0.181922 -0.415295 0.000000 0.000000 1.000000
-0.713112 -0.054580 0.378407 0.600000 0.000000 0.300000
0.747576 0.246763 0.039340 0.800000 0.200000 0.500000
-0.506833 0.003984 -0.401067 0.000000 0.000000 1.000000
0.747576 0.031138 0.286259 0.800000 0.200000 0.500000
0.728606 -0.300557 -0.274277 0.800000 0.200000 0.500000
-0.200600 0.127745 0.471429 0.600000 0.000000 0.300000
-0.236986 -0.228491 0.332718 0.300000 0.000000 0.600000
0.214662 0.100107 -0.415295 0.000000 0.000000 1.000000
-0.267206 0.549581 0.466809 0.300000 0.600000 0.000000
-0.380589 0.512170 0.495235 0.600000 0.000000 0.300000
0.107040 0.117711 0.241689 0.000000 0.000000 1.000000
0.747576 0.410838 -0.073859 0.800000 0.200000 0.500000
0.117835 -0.218930 0.438354 0.800000 0.200000 0.500000
-0.713112 -0.103532 0.399181 0.600000 0.000000 0.300000
0.059613 -0.086296 0.466780 0.600000 0.300000 0.000000
-0.608583 -0.266431 0.147563 1.000000 0.000000 0.000000
-0.408046 -0.228491 0.246016 0.300000 0.000000 0.600000
0.505839 -0.266431 0.087724 1.000000 0.000000 0.000000
-0.558610 0.346441 0.471429 0.600000 0.000000 0.300000
-0.011433 -0.266431 0.159295 1.000000 0.000000 0.000000
0.747576 -0.348990 -0.213739 0.600000 0.000000 0.300000
-0.713112 0.219307 -0.172689 0.600000 0.000000 0.300000
0.144320 -0.329349 0.239170 0.300000 0.000000 0.600000
-0.113280 -0.175934 0.471429 0.600000 0.000000 0.300000
-0.652596 0.530308 0.242409 0.300000 0.000000 0.600000
-0.396956 0.453520 -0.415295 0.000000 0.000000 1.000000
0.167787 -0.208325 0.466780 0.600000 0.300000 0.000000
-0.143491 -0.311844 -0.415295 0.000000 0.000000 1.000000
-0.135208 -0.228491 -0.025214 0.300000 0.000000 0.600000
0.652706 -0.228491 0.382803 0.500000 0.500000 0.000000
-0.713112 -0.376602 -0.398403 0.600000 0.300000 0.000000
-0.487868 0.146166 0.209032 0.000000 0.000000 1.000000
-0.713112 -0.204819 0.245430 0.600000 0.000000 0.300000
-0.160396 -0.266431 0.293276 1.000000 0.000000 0.000000
0.617836 0.146166 0.201809 0.000000 0.000000 1.000000
0.397406 -0.156008 0.471429 0.600000 0.300000 0.000000
-0.169100 -0.161463 0.485004 0.600000 0.000000 0.300000
-0.694142 -0.611897 0.013284 0.600000 0.300000 0.000000
0.644742 0.269441 0.466780 0.600000 0.300000 0.000000
0.714673 -0.267409 0.466809 0.000000 1.000000 0.000000
-0.223326 0.036027 -0.401067 0.000000 0.000000 1.000000
-0.083661 0.146166 0.145307 0.000000 0.000000 1.000000
0.747576 -0.174734 -0.373254 0.800000 0.200000 0.500000
0.326484 -0.016359 0.471429 0.600000 0.300000 0.000000
0.728606 -0.146621 0.182839 0.800000 0.200000 0.500000
0.654099 -0.162096 -0.068558 0.000000 0.000000 1.000000
-0.713112 -0.092900 -0.009004 0.600000 0.000000 0.300000
-0.525888 0.026426 0.495264 0.600000 0.000000 0.300000
0.728606 0.021911 -0.054298 0.800000 0.200000 0.500000
0.747576 0.229062 -0.369645 0.800000 0.200000 0.500000
-0.694142 0.428006 0.115401 0.600000 0.000000 0.300000
-0.500468 -0.266431 0.226836 1.000000 0.000000 0.000000
-0.713112 0.499710 -0.171375 0.600000 0.000000 0.300000
0.124345 0.033427 0.466780 0.600000 0.300000 0.000000
0.055177 0.190904 0.475784 0.600000 0.300000 0.000000
0.376679 -0.206066 0.495235 0.600000 0.300000 0.000000
0.466324 -0.443302 -0.443750 0.300000 0.000000 0.600000
-0.328517 0.146166 -0.386278 0.000000 0.000000 1.000000
-0.584816 -0.206251 0.466780 0.600000 0.000000 0.300000
-0.340098 -0.228491 0.379813 0.300000 0.000000 0.600000
-0.646718 -0.184118 -0.364066 0.300000 0.600000 0.000000
-0.121643 0.117711 0.130412 0.000000 0.000000 1.000000
0.455954 -0.228491 0.376998 0.500000 0.500000 0.000000
-0.520628 -0.228491 0.148119 0.300000 0.000000 0.600000
0.452055 -0.082919 -0.415295 0.000000 0.000000 1.000000
0.728606 -0.276574 0.235148 0.800000 0.200000 0.500000
0.068157 0.117711 -0.247178 0.000000 0.000000 1.000000
-0.299690 -0.228491 0.404185 0.300000 0.000000 0.600000
-0.178982 -0.261694 0.495235 0.600000 0.000000 0.300000
-0.387980 0.063226 -0.415295 0.000000 0.000000 1.000000
-0.694142 0.466852 0.214257 0.600000 0.000000 0.300000
-0.624782 0.425594 -0.415295 0.000000 0.000000 1.000000
0.048258 0.002410 0.438354 0.500000 0.500000 0.000000
-0.100861 -0.266431 -0.334308 1.000000 0.000000 0.000000
-0.300138 -0.266431 0.211299 1.000000 0.000000 0.000000
-0.412289 -0.390285 0.239170 0.300000 0.000000 0.600000
-0.106285 0.569327 -0.415295 0.000000 0.000000 1.000000
0.308789 0.114206 0.471429 0.600000 0.300000 0.000000
0.671106 -0.266431 -0.012682 1.000000 0.000000 0.000000
-0.129141 0.146166 -0.088357 0.000000 0.000000 1.000000
0.728606 -0.119759 -0.201450 0.800000 0.200000 0.500000
0.584212 0.313555 0.495264 0.600000 0.300000 0.000000
0.747576 -0.545764 -0.000953 0.600000 0.000000 0.300000
-0.412042 0.117711 -0.163043 0.000000 0.000000 1.000000
-0.694142 0.397046 -0.144021 0.600000 0.000000 0.300000
0.467782 0.117711 0.194656 0.000000 0.000000 1.000000
0.647921 0.117711 0.182728 0.000000 0.000000 1.000000
0.747576 0.568902 -0.435303 0.800000 0.200000 0.500000
0.747576 0.525637 0.427359 0.800000 0.200000 0.500000
0.529813 0.405834 -0.415295 0.000000 0.000000 1.000000
-0.350739 0.403748 -0.401067 0.000000 0.000000 1.000000
-0.308985 0.558094 0.438354 0.300000 0.600000 0.000000
-0.608187 0.049621 0.466780 0.600000 0.000000 0.300000
0.283108 -0.228491 0.390827 0.500000 0.500000 0.000000
-0.496020 0.117585 0.471429 0.600000 0.000000 0.300000
0.513586 0.146166 0.308347 0.000000 0.000000 1.000000
0.728606 -0.042643 -0.074767 0.800000 0.200000 0.500000
0.527638 -0.555679 -0.443750 0.300000 0.000000 0.600000
-0.095033 -0.162096 -0.389975 0.600000 0.000000 0.300000
0.165894 0.117711 0.223479 0.000000 0.000000 1.000000
0.501292 -0.209521 -0.321627 0.500000 0.500000 0.000000
0.301392 -0.235963 0.495235 0.600000 0.300000 0.000000
-0.713112 -0.565221 0.048277 0.600000 0.300000 0.000000
0.469244 -0.212243 0.419384 0.800000 0.200000 0.500000
0.225901 -0.034113 -0.415295 0.000000 0.000000 1.000000
0.728606 -0.121018 0.229051 0.800000 0.200000 0.500000
-0.227069 -0.228491 -0.289921 0.300000 0.000000 0.600000
-0.092226 -0.476215 0.239170 0.300000 0.000000 0.600000
-0.039678 0.064933 0.454057 0.500000 0.500000 0.000000
0.055174 0.449454 0.480428 0.600000 0.300000 0.000000
-0.694142 -0.023780 -0.221437 0.600000 0.000000 0.300000
0.747576 0.118986 -0.266368 0.800000 0.200000 0.500000
-0.310565 0.496538 0.495235 0.600000 0.000000 0.300000
-0.713112 0.018038 -0.136656 0.600000 0.000000 0.300000
0.403459 0.146166 0.236084 0.000000 0.000000 1.000000
-0.360902 0.402673 0.471429 0.600000 0.000000 0.300000
-0.111932 0.221243 0.480389 0.600000 0.000000 0.300000
-0.694142 -0.446446 -0.023975 0.600000 0.300000 0.000000
0.638726 0.117711 -0.280968 0.000000 0.000000 1.000000
-0.540558 -0.228491 -0.147399 0.300000 0.000000 0.600000
0.068119 0.327452 0.466809 0.500000 0.500000 0.000000
0.733759 -0.058470 0.466809 0.000000 1.000000 0.000000
-0.522331 -0.228491 -0.271390 0.300000 0.000000 0.600000
0.201504 0.117711 0.037413 0.000000 0.000000 1.000000
-0.226981 -0.149010 -0.415295 0.000000 0.000000 1.000000
-0.515070 0.105765 -0.401067 0.000000 0.000000 1.000000
0.585832 -0.169136 -0.377355 0.000000 1.000000 0.000000
0.335878 -0.228491 -0.337620 0.500000 0.500000 0.000000
0.473083 0.117711 -0.000329 0.000000 0.000000 1.000000
-0.497062 -0.309217 -0.415295 0.000000 0.000000 1.000000
0.318410 -0.228491 -0.027579 0.500000 0.500000 0.000000
0.747576 -0.265803 -0.069443 0.800000 0.200000 0.500000
-0.508695 0.117711 0.320596 0.000000 0.000000 1.000000
0.711920 0.259075 -0.401067 0.000000 0.000000 1.000000
0.397828 0.146166 -0.349094 0.000000 0.000000 1.000000
0.130644 -0.237976 -0.392423 0.000000 1.000000 0.000000
-0.383930 -0.266431 0.181437 1.000000 0.000000 0.000000
0.297094 0.494735 0.546878 0.300000 0.000000 0.600000
0.202044 -0.065427 -0.401067 0.000000 0.000000 1.000000
0.636363 -0.039805 0.487809 0.600000 0.300000 0.000000
-0.287698 0.330200 0.471429 0.600000 0.000000 0.300000
-0.713112 -0.507860 -0.185907 0.600000 0.300000 0.000000
-0.235701 -0.518790 -0.443750 0.300000 0.000000 0.600000
-0.694142 -0.474476 0.020411 0.600000 0.300000 0.000000
0.129817 -0.265417 0.495218 0.600000 0.300000 0.000000
-0.074211 -0.076978 -0.415295 0.000000 0.000000 1.000000
-0.498381 0.117711 0.091477 0.000000 0.000000 1.000000
-0.463617 -0.266431 0.056121 1.000000 0.000000 0.000000
0.377153 -0.170192 0.438354 0.800000 0.200000 0.500000
-0.713112 -0.209317 -0.033372 0.600000 0.000000 0.300000
0.474150 0.117711 0.371045 0.000000 0.000000 1.000000
0.380813 0.400658 0.495264 0.600000 0.300000 0.000000
0.138713 -0.084083 0.467812 0.600000 0.300000 0.000000
0.301268 0.146166 0.361625 0.000000 0.000000 1.000000
-0.694142 0.518669 0.089642 0.600000 0.000000 0.300000
-0.391638 -0.209521 -0.296507 0.300000 0.000000 0.600000
-0.161510 -0.228491 0.362546 0.300000 0.000000 0.600000
-0.713112 0.526181 -0.395750 0.600000 0.000000 0.300000
-0.694142 -0.091895 0.057882 0.600000 0.000000 0.300000
-0.694142 0.289144 0.164774 0.600000 0.000000 0.300000
-0.042165 0.117711 0.137958 0.000000 0.000000 1.000000
-0.580631 -0.303598 0.466809 0.000000 0.500000 0.500000
0.480215 0.146166 -0.188339 0.000000 0.000000 1.000000
0.708000 -0.424530 -0.443750 0.300000 0.000000 0.600000
0.481636 -0.634151 0.239170 0.300000 0.000000 0.600000
-0.519567 -0.310901 0.466809 0.000000 0.500000 0.500000
0.620820 -0.209521 0.119235 0.500000 0.500000 0.000000
0.266727 -0.266431 0.306620 1.000000 0.000000 0.000000
0.312062 -0.562040 0.239170 0.300000 0.000000 0.600000
0.357887 -0.266431 0.094977 1.000000 0.000000 0.000000
0.179991 -0.266431 -0.024247 1.000000 0.000000 0.000000
-0.259400 -0.196396 0.438354 0.500000 0.000000 0.500000
-0.713112 -0.370187 0.043036 0.600000 0.300000 0.000000
-0.036393 0.117711 0.403833 0.000000 0.000000 1.000000
0.511722 -0.266431 -0.255121 1.000000 0.000000 0.000000
-0.189808 -0.046295 -0.401067 0.000000 0.000000 1.000000
-0.148589 -0.172130 0.438354 0.500000 0.000000 0.500000
-0.279590 -0.228491 -0.257059 0.300000 0.000000 0.600000
-0.057450 0.374343 0.495235 0.600000 0.000000 0.300000
0.215429 -0.492050 0.239170 0.300000 0.000000 0.600000
-0.705148 0.577733 0.438255 0.600000 0.000000 0.300000
0.469240 -0.228491 -0.282275 0.500000 0.500000 0.000000
-0.713112 -0.229859 0.155339 0.600000 0.000000 0.300000
0.085570 0.577733 0.452660 0.300000 0.600000 0.000000
-0.399169 0.117711 0.097448 0.000000 0.000000 1.000000
0.373387 -0.228491 0.226469 0.500000 0.500000 0.000000
-0.143515 0.146166 0.286355 0.000000 0.000000 1.000000
-0.261111 0.424342 0.485163 0.600000 0.000000 0.300000
-0.307873 -0.514946 -0.443750 0.300000 0.000000 0.600000
-0.593793 0.146166 0.299190 0.000000 0.000000 1.000000
-0.186653 -0.228491 -0.295959 0.300000 0.000000 0.600000
-0.470067 -0.521563 -0.443750 0.300000 0.000000 0.600000
0.747576 -0.127757 0.372129 0.800000 0.200000 0.500000
-0.558473 0.405471 -0.415295 0.000000 0.000000 1.000000
0.150937 0.540930 0.438354 0.300000 0.600000 0.000000
0.611848 0.117711 0.274086 0.000000 0.000000 1.000000
0.747576 0.020959 -0.435998 0.800000 0.200000 0.500000
-0.713112 0.290602 0.382724 0.600000 0.000000 0.300000
-0.654805 0.146166 0.350734 0.000000 0.000000 1.000000
0.716627 0.530308 -0.115765 0.600000 0.000000 0.300000
0.285678 0.136438 0.471429 0.600000 0.300000 0.000000
0.747576 0.336832 -0.162238 0.800000 0.200000 0.500000
0.308516 -0.266431 0.402491 1.000000 0.000000 0.000000
0.634815 -0.228491 -0.249597 0.500000 0.500000 0.000000
-0.121334 -0.266431 -0.173433 1.000000 0.000000 0.000000
-0.713112 -0.104760 0.220119 0.600000 0.000000 0.300000
-0.713112 0.427291 0.074263 0.600000 0.000000 0.300000
-0.683798 0.524647 0.467913 0.600000 0.000000 0.300000
-0.032318 -0.266431 -0.315839 1.000000 0.000000 0.000000
-0.274987 -0.293486 0.466809 0.000000 0.500000 0.500000
-0.366273 -0.513490 0.239170 0.300000 0.000000 0.600000
-0.350385 -0.638638 -0.443750 0.300000 0.000000 0.600000
0.521245 0.527701 -0.443750 0.000000 0.000000 1.000000
-0.094023 -0.266431 0.331633 1.000000 0.000000 0.000000
0.114241 0.377276 0.495235 0.600000 0.300000 0.000000
0.129314 -0.272546 0.466809 0.000000 0.500000 0.500000
0.571207 0.146166 0.271323 0.000000 0.000000 1.000000
-0.408996 -0.209521 -0.116429 0.300000 0.000000 0.600000
0.280304 -0.209521 0.261573 0.500000 0.500000 0.000000
-0.620652 0.117711 -0.177536 0.000000 0.000000 1.000000
-0.032598 0.396351 -0.415295 0.000000 0.000000 1.000000
-0.694142 0.311837 0.104957 0.600000 0.000000 0.300000
0.130409 -0.019131 0.466780 0.600000 0.300000 0.000000
0.526109 0.104742 0.471429 0.600000 0.300000 0.000000
-0.713112 -0.625572 -0.298248 0.600000 0.300000 0.000000
0.031362 -0.266431 0.088029 1.000000 0.000000 0.000000
-0.583139 0.530308 -0.121959 0.300000 0.000000 0.600000
-0.580207 0.146166 0.163906 0.000000 0.000000 1.000000
-0.628867 0.146166 -0.329616 0.000000 0.000000 1.000000
0.728606 -0.648501 -0.328250 0.600000 0.000000 0.300000
-0.477940 -0.034746 0.495264 0.600000 0.000000 0.300000
0.052421 -0.266431 -0.201973 1.000000 0.000000 0.000000
-0.603755 0.306748 0.466780 0.600000 0.000000 0.300000
-0.395644 -0.106512 0.495264 0.600000 0.000000 0.300000
0.747576 0.116832 0.061745 0.800000 0.200000 0.500000
0.145313 -0.209521 0.156717 0.500000 0.500000 0.000000
0.553977 -0.209521 0.145330 0.500000 0.500000 0.000000
-0.315532 0.240461 0.495264 0.600000 0.000000 0.300000
-0.037537 0.373328 0.438354 0.500000 0.500000 0.000000
-0.713112 -0.001211 0.041245 0.600000 0.000000 0.300000
0.505934 -0.313856 0.465397 0.000000 0.500000 0.500000
0.757061 0.095221 0.439487 0.000000 1.000000 0.000000
-0.694142 0.067859 0.166453 0.600000 0.000000 0.300000
0.185517 0.350646 0.471429 0.600000 0.300000 0.000000
-0.573899 0.146166 -0.043375 0.000000 0.000000 1.000000
-0.015161 0.577734 -0.414752 0.000000 0.000000 1.000000
-0.077618 -0.172539 0.011115 0.000000 0.500000 0.500000
-0.052412 -0.266431 0.364671 1.000000 0.000000 0.000000
0.024809 0.286946 -0.401067 0.000000 0.000000 1.000000
0.728606 0.465853 -0.119450 0.800000 0.200000 0.500000
0.271120 0.146166 -0.200352 0.000000 0.000000 1.000000
-0.665881 0.146166 -0.051796 0.000000 0.000000 1.000000
0.193950 0.117711 -0.081939 0.000000 0.000000 1.000000
-0.147053 -0.228491 0.392541 0.300000 0.000000 0.600000
0.747576 -0.558907 0.038558 0.600000 0.000000 0.300000
-0.362416 0.464342 -0.401067 0.000000 0.000000 1.000000
-0.694142 0.311008 -0.036321 0.600000 0.000000 0.300000
0.728606 -0.390423 -0.186301 0.600000 0.000000 0.300000
0.048759 0.146166 -0.026386 0.000000 0.000000 1.000000
0.380590 -0.209521 -0.361261 0.500000 0.500000 0.000000
-0.651510 0.117711 -0.198870 0.000000 0.000000 1.000000
0.287495 0.146166 -0.388641 0.000000 0.000000 1.000000
0.441241 0.520121 0.466780 0.600000 0.300000 0.000000
0.291614 0.146166 0.272153 0.000000 0.000000 1.000000
-0.307418 0.325176 0.495264 0.600000 0.000000 0.300000
-0.096588 -0.191254 0.223524 0.000000 0.500000 0.500000
0.085889 -0.266431 -0.257679 1.000000 0.000000 0.000000
-0.262599 -0.257980 0.466780 0.600000 0.000000 0.300000
0.610529 -0.617160 0.239170 0.300000 0.000000 0.600000
0.014300 0.117711 -0.026409 0.000000 0.000000 1.000000
0.624250 0.117711 0.078421 0.000000 0.000000 1.000000
-0.646418 -0.237251 -0.415295 0.300000 0.000000 0.600000
-0.297848 -0.266431 -0.003606 1.000000 0.000000 0.000000
0.493186 0.342684 -0.415295 0.000000 0.000000 1.000000
-0.694142 0.061758 0.000380 0.600000 0.000000 0.300000
0.311953 0.117711 -0.367611 0.000000 0.000000 1.000000
-0.077855 -0.162096 -0.338807 0.000000 0.500000 0.500000
0.416280 -0.266431 0.146629 1.000000 0.000000 0.000000
0.561431 0.039619 -0.401067 0.000000 0.000000 1.000000
0.728606 -0.074462 -0.424092 0.800000 0.200000 0.500000
0.747576 0.339217 0.410677 0.800000 0.200000 0.500000
0.691464 0.391941 0.495235 0.600000 0.300000 0.000000
0.601679 0.397178 -0.415295 0.000000 0.000000 1.000000
0.747576 -0.097061 -0.287791 0.800000 0.200000 0.500000
-0.066715 -0.609462 0.239170 0.300000 0.000000 0.600000
-0.074846 -0.037407 0.466780 0.600000 0.000000 0.300000
-0.675969 0.146166 0.123232 0.000000 0.000000 1.000000
0.556297 -0.228491 0.352142 0.500000 0.500000 0.000000
-0.254569 -0.408511 -0.443750 0.300000 0.000000 0.600000
0.543732 -0.404565 0.239170 0.300000 0.000000 0.600000
-0.370260 0.241583 0.471429 0.600000 0.000000 0.300000
-0.074572 0.146166 0.204093 0.000000 0.000000 1.000000
-0.452465 0.308151 -0.415295 0.000000 0.000000 1.000000
-0.171935 -0.216884 0.466780 0.600000 0.000000 0.300000
-0.072063 0.117711 -0.077040 0.000000 0.000000 1.000000
-0.349591 -0.209521 -0.275675 0.300000 0.000000 0.600000
0.698671 0.117711 -0.008536 0.000000 0.000000 1.000000
-0.645817 0.117711 0.293709 0.000000 0.000000 1.000000
0.671696 -0.188530 -0.096678 0.000000 0.000000 1.000000
0.697714 0.158468 -0.415295 0.000000 0.000000 1.000000
-0.713112 -0.379983 0.148095 0.600000 0.300000 0.000000
-0.365999 -0.162096 -0.394370 0.600000 0.000000 0.300000
0.443512 0.117711 -0.037835 0.000000 0.000000 1.000000
-0.570350 -0.228491 0.017944 0.300000 0.000000 0.600000
-0.059697 -0.322272 -0.443750 0.300000 0.000000 0.600000
0.633316 -0.446658 -0.443750 0.300000 0.000000 0.600000
0.445419 -0.575356 -0.443750 0.300000 0.000000 0.600000
0.277553 -0.206076 0.466780 0.600000 0.300000 0.000000
0.363441 -0.228491 -0.165649 0.500000 0.500000 0.000000
-0.552884 -0.266431 0.219783 1.000000 0.000000 0.000000
0.728606 0.490094 0.388410 0.800000 0.200000 0.500000
0.260998 -0.237976 0.435990 0.800000 0.200000 0.500000
0.189853 0.117711 -0.315949 0.000000 0.000000 1.000000
0.483938 0.146166 -0.304921 0.000000 0.000000 1.000000
-0.265531 -0.228491 0.330599 0.300000 0.000000 0.600000
-0.694142 0.565567 0.016697 0.600000 0.000000 0.300000
-0.083647 -0.443813 0.239170 0.300000 0.000000 0.600000
0.728606 0.378909 0.054493 0.800000 0.200000 0.500000
-0.713112 0.332417 -0.397872 0.600000 0.000000 0.300000
-0.539591 -0.576852 -0.443750 0.300000 0.000000 0.600000
-0.621166 0.549278 -0.319679 0.300000 0.000000 0.600000
-0.281410 0.117711 0.169451 0.000000 0.000000 1.000000
0.750751 0.200235 0.438354 0.000000 1.000000 0.000000
0.102597 -0.232974 -0.190719 1.000000 0.000000 0.000000
-0.637704 -0.257614 0.438354 0.000000 0.500000 0.500000
-0.694142 0.285380 0.130738 0.600000 0.000000 0.300000
-0.189793 -0.189691 0.419384 0.500000 0.000000 0.500000
0.555719 0.117711 0.340591 0.000000 0.000000 1.000000
-0.633508 0.549278 -0.252047 0.300000 0.000000 0.600000
-0.694142 -0.090018 0.090512 0.600000 0.000000 0.300000
0.608047 0.025782 -0.401067 0.000000 0.000000 1.000000
-0.635753 0.530308 0.364370 0.300000 0.000000 0.600000
0.001918 0.117711 -0.137329 0.000000 0.000000 1.000000
0.082740 0.117711 -0.024554 0.000000 0.000000 1.000000
-0.454900 0.203937 -0.401067 0.000000 0.000000 1.000000
0.508842 0.117711 0.136678 0.000000 0.000000 1.000000
-0.421651 0.123817 0.471429 0.600000 0.000000 0.300000
-0.406942 -0.228491 0.101180 0.300000 0.000000 0.600000
0.170052 0.071648 -0.415295 0.000000 0.000000 1.000000
-0.446485 0.487749 0.530677 0.300000 0.000000 0.600000
0.471063 -0.209521 -0.047648 0.500000 0.500000 0.000000
-0.544574 -0.266431 -0.321457 1.000000 0.000000 0.000000
0.558973 0.146166 -0.291858 0.000000 0.000000 1.000000
-0.429040 -0.085548 0.471429 0.600000 0.000000 0.300000
0.650370 0.150350 -0.415295 0.000000 0.000000 1.000000
0.747576 -0.284691 0.058243 0.800000 0.200000 0.500000
0.438344 0.093438 -0.415295 0.000000 0.000000 1.000000
-0.624438 0.146166 0.102616 0.000000 0.000000 1.000000
0.747576 0.168342 0.370501 0.800000 0.200000 0.500000
0.567227 -0.209521 0.072727 0.500000 0.500000 0.000000
0.406227 0.117711 0.336880 0.000000 0.000000 1.000000
0.747576 0.545042 -0.269340 0.800000 0.200000 0.500000
-0.027264 0.117711 -0.006668 0.000000 0.000000 1.000000
0.454373 0.532051 -0.401067 0.000000 0.000000 1.000000
0.747576 0.555220 -0.317612 0.800000 0.200000 0.500000
0.019207 -0.024060 -0.415295 0.000000 0.000000 1.000000
-0.119088 0.117711 -0.363621 0.000000 0.000000 1.000000
-0.423579 0.530917 0.491545 0.600000 0.000000 0.300000
-0.039678 -0.238086 0.448841 0.500000 0.500000 0.000000
0.627933 0.488683 0.495235 0.600000 0.300000 0.000000
0.562778 -0.645900 0.239170 0.300000 0.000000 0.600000
-0.440942 0.493764 -0.401067 0.000000 0.000000 1.000000
0.747576 -0.001833 0.243950 0.800000 0.200000 0.500000
-0.722597 -0.076702 0.440605 0.500000 0.000000 0.500000
-0.080231 0.258157 0.466780 0.600000 0.000000 0.300000
0.102597 -0.215234 -0.328077 1.000000 0.000000 0.000000
0.093836 -0.290688 -0.415295 0.000000 0.000000 1.000000
0.234715 0.146166 0.299032 0.000000 0.000000 1.000000
0.495742 -0.064887 -0.401067 0.000000 0.000000 1.000000
-0.615602 -0.266431 0.311257 1.000000 0.000000 0.000000
-0.377291 -0.228491 -0.008848 0.300000 0.000000 0.600000
-0.674621 0.117711 -0.139379 0.000000 0.000000 1.000000
-0.694142 -0.016034 -0.423825 0.600000 0.000000 0.300000
-0.572131 0.117711 -0.371433 0.000000 0.000000 1.000000
-0.446567 0.146166 0.084475 0.000000 0.000000 1.000000
-0.204239 0.434980 -0.401067 0.000000 0.000000 1.000000
0.365208 -0.228491 0.180832 0.500000 0.500000 0.000000
-0.599051 0.117711 -0.015933 0.000000 0.000000 1.000000
0.184908 -0.228491 0.399837 0.500000 0.500000 0.000000
-0.233382 -0.209521 -0.022856 0.300000 0.000000 0.600000
0.101023 0.117711 0.354284 0.000000 0.000000 1.000000
0.747576 0.414675 -0.252800 0.800000 0.200000 0.500000
-0.043603 0.117711 -0.045571 0.000000 0.000000 1.000000
-0.694142 0.234089 -0.113719 0.600000 0.000000 0.300000
-0.491830 0.472181 0.495235 0.600000 0.000000 0.300000
0.734768 -0.313856 -0.328052 0.800000 0.200000 0.500000
0.190383 -0.209521 0.155808 0.500000 0.500000 0.000000
-0.508627 0.331596 -0.401067 0.000000 0.000000 1.000000
0.521687 0.117711 -0.197682 0.000000 0.000000 1.000000
-0.320308 -0.308197 0.438354 0.000000 0.500000 0.500000
-0.713112 0.039045 -0.295663 0.600000 0.000000 0.300000
0.675715 -0.599373 -0.443750 0.300000 0.000000 0.600000
-0.085947 -0.237976 -0.386238 0.600000 0.000000 0.300000
-0.355538 0.146166 -0.280050 0.000000 0.000000 1.000000
0.169818 0.528896 -0.415295 0.000000 0.000000 1.000000
0.169742 0.117711 0.354661 0.000000 0.000000 1.000000
-0.207643 0.146166 -0.220416 0.000000 0.000000 1.000000
-0.694142 -0.273497 0.154347 0.600000 0.000000 0.300000
0.158444 0.117711 0.183718 0.000000 0.000000 1.000000
-0.524157 0.117711 0.005523 0.000000 0.000000 1.000000
0.033404 0.117711 0.417522 0.000000 0.000000 1.000000
0.728606 0.391259 0.329921 0.800000 0.200000 0.500000
0.394875 0.117711 -0.119108 0.000000 0.000000 1.000000
-0.694142 -0.063373 -0.266456 0.600000 0.000000 0.300000
0.376506 -0.052865 -0.401067 0.000000 0.000000 1.000000
0.430513 0.146166 -0.235731 0.000000 0.000000 1.000000
-0.381699 0.001724 -0.401067 0.000000 0.000000 1.000000
0.728606 -0.230752 0.037418 0.800000 0.200000 0.500000
-0.508086 -0.266431 0.281207 1.000000 0.000000 0.000000
0.523340 0.146166 0.412886 0.000000 0.000000 1.000000
0.025757 -0.266431 0.248890 1.000000 0.000000 0.000000
-0.223309 0.538244 -0.443750 0.000000 0.000000 1.000000
0.082208 0.515566 0.466780 0.600000 0.300000 0.000000
-0.096835 -0.266431 0.140172 1.000000 0.000000 0.000000
0.427998 -0.228491 0.371774 0.500000 0.500000 0.000000
0.747576 0.442781 0.372975 0.800000 0.200000 0.500000
-0.636371 0.117711 0.054349 0.000000 0.000000 1.000000
0.152751 -0.209521 -0.338428 0.500000 0.500000 0.000000
0.728606 0.564521 0.024812 0.800000 0.200000 0.500000
0.424793 -0.607136 -0.443750 0.300000 0.000000 0.600000
0.067227 0.118716 0.438354 0.000000 0.000000 1.000000
-0.713112 -0.387223 -0.210633 0.600000 0.300000 0.000000
-0.713112 0.391898 0.256885 0.600000 0.000000 0.300000
-0.689019 0.146166 0.026899 0.000000 0.000000 1.000000
0.222584 -0.209521 -0.214194 0.500000 0.500000 0.000000
0.721474 0.336969 0.438354 0.000000 1.000000 0.000000
0.614786 0.532267 0.067660 0.600000 0.000000 0.300000
0.060920 0.122484 0.490568 0.600000 0.300000 0.000000
0.587974 -0.093965 -0.415295 0.000000 0.000000 1.000000
0.352805 0.576482 -0.415295 0.000000 0.000000 1.000000
0.419706 -0.228491 0.185618 0.500000 0.500000 0.000000
-0.652851 0.003418 -0.401067 0.000000 0.000000 1.000000
-0.713112 0.361830 -0.124406 0.600000 0.000000 0.300000
-0.039678 0.156935 0.447639 0.500000 0.500000 0.000000
0.614805 0.530308 -0.204037 0.600000 0.000000 0.300000
-0.112249 0.526950 0.466780 0.600000 0.000000 0.300000
-0.713112 0.056852 -0.259438 0.600000 0.000000 0.300000
-0.408520 0.117711 -0.306665 0.000000 0.000000 1.000000
-0.176068 -0.266431 0.321361 1.000000 0.000000 0.000000
0.328072 0.117711 0.332904 0.000000 0.000000 1.000000
-0.290410 -0.266431 -0.231908 1.000000 0.000000 0.000000
0.121567 -0.190598 -0.049867 1.000000 0.000000 0.000000
-0.120028 -0.284844 0.438354 0.000000 0.500000 0.500000
0.747576 0.021620 -0.100622 0.800000 0.200000 0.500000
0.728606 0.111495 0.159411 0.800000 0.200000 0.500000
0.747576 -0.400547 -0.214840 0.600000 0.000000 0.300000
0.747576 0.405862 -0.414059 0.800000 0.200000 0.500000
-0.191923 0.553178 0.466809 0.300000 0.600000 0.000000
-0.713112 -0.628656 0.043482 0.600000 0.300000 0.000000
0.528103 -0.130764 0.471429 0.600000 0.300000 0.000000
0.728606 0.303349 0.188501 0.800000 0.200000 0.500000
0.728606 -0.286412 0.272242 0.800000 0.200000 0.500000
0.011607 -0.242738 0.438354 0.500000 0.500000 0.000000
-0.246165 -0.228491 0.248142 0.300000 0.000000 0.600000
0.728606 -0.199726 -0.175009 0.800000 0.200000 0.500000
0.472806 -0.096723 0.471429 0.600000 0.300000 0.000000
0.711676 -0.266431 0.376616 1.000000 0.000000 0.000000
-0.713112 0.159837 0.161110 0.600000 0.000000 0.300000
0.058280 0.146166 0.267676 0.000000 0.000000 1.000000
-0.646718 -0.233619 0.040901 0.300000 0.600000 0.000000
0.671696 -0.178678 0.339819 0.000000 0.000000 1.000000
0.637294 -0.228491 0.284463 0.500000 0.500000 0.000000
0.384948 0.146166 -0.145955 0.000000 0.000000 1.000000
0.747576 0.365063 -0.101712 0.800000 0.200000 0.500000
0.747576 -0.153485 0.335281 0.800000 0.200000 0.500000
-0.694142 -0.525727 -0.201116 0.600000 0.300000 0.000000
-0.694142 -0.301093 -0.087680 0.600000 0.000000 0.300000
-0.625545 0.000338 0.466780 0.600000 0.000000 0.300000
-0.360770 -0.104089 -0.415295 0.000000 0.000000 1.000000
0.622394 -0.228491 -0.182765 0.500000 0.500000 0.000000
-0.694142 0.111936 0.047000 0.600000 0.000000 0.300000
-0.223046 0.536599 -0.415295 0.000000 0.000000 1.000000
0.747576 -0.135535 0.010619 0.800000 0.200000 0.500000
-0.713112 -0.280004 -0.038253 0.600000 0.000000 0.300000
0.728606 -0.044881 -0.144221 0.800000 0.200000 0.500000
-0.190644 0.210522 0.471429 0.600000 0.000000 0.300000
0.548718 -0.434065 0.239170 0.300000 0.000000 0.600000
0.747576 -0.630738 0.171867 0.600000 0.000000 0.300000
0.747576 -0.254546 0.277735 0.800000 0.200000 0.500000
-0.456020 0.146166 0.137496 0.000000 0.000000 1.000000
0.728606 0.114518 0.334441 0.800000 0.200000 0.500000
-0.501474 -0.266431 -0.227193 1.000000 0.000000 0.000000
0.277408 -0.579196 -0.443750 0.300000 0.000000 0.600000
-0.497964 -0.209521 0.171029 0.300000 0.000000 0.600000
0.228957 -0.013080 0.471429 0.600000 0.300000 0.000000
-0.129229 -0.209521 0.056308 0.300000 0.000000 0.600000
0.105101 0.260192 -0.415295 0.000000 0.000000 1.000000
-0.354915 -0.155604 0.471429 0.600000 0.000000 0.300000
-0.694142 -0.060476 -0.381986 0.600000 0.000000 0.300000
0.291220 -0.018509 0.471429 0.600000 0.300000 0.000000
0.747576 -0.091374 0.296652 0.800000 0.200000 0.500000
0.361748 0.463652 0.494593 0.600000 0.300000 0.000000
-0.171190 -0.235349 -0.415295 0.000000 0.000000 1.000000
0.337015 -0.266431 0.236578 1.000000 0.000000 0.000000
0.029641 0.146166 -0.247566 0.000000 0.000000 1.000000
-0.694142 -0.235705 0.040095 0.600000 0.000000 0.300000
-0.617580 0.530308 0.333470 0.300000 0.000000 0.600000
0.014878 -0.266431 0.301358 1.000000 0.000000 0.000000
0.294207 -0.228491 0.296680 0.500000 0.500000 0.000000
-0.091134 0.236665 -0.415295 0.000000 0.000000 1.000000
-0.348229 0.333250 0.495264 0.600000 0.000000 0.300000
0.587649 -0.088746 0.493994 0.600000 0.300000 0.000000
0.586349 -0.266431 0.089815 1.000000 0.000000 0.000000
0.117883 -0.237976 0.245691 1.000000 0.000000 0.000000
0.667239 -0.256946 0.442289 0.000000 0.500000 0.500000
-0.658228 0.420682 -0.415295 0.000000 0.000000 1.000000
-0.713112 0.302135 -0.111442 0.600000 0.000000 0.300000
-0.235966 0.243861 0.495264 0.600000 0.000000 0.300000
0.747576 -0.218742 -0.221385 0.800000 0.200000 0.500000
-0.417361 -0.228764 0.438354 0.500000 0.000000 0.500000
-0.713112 -0.344717 -0.370665 0.600000 0.300000 0.000000
-0.713112 -0.183366 0.300280 0.600000 0.000000 0.300000
0.747576 0.060792 -0.293188 0.800000 0.200000 0.500000
0.121567 -0.185384 -0.257838 1.000000 0.000000 0.000000
0.484403 -0.072090 0.495264 0.600000 0.300000 0.000000
-0.694142 0.575438 0.170149 0.600000 0.000000 0.300000
-0.710699 -0.227912 0.466809 0.500000 0.000000 0.500000
-0.096589 -0.218667 -0.339660 0.300000 0.000000 0.600000
0.068540 0.213239 -0.401067 0.000000 0.000000 1.000000
0.424222 -0.232093 -0.377355 0.000000 1.000000 0.000000
-0.477232 -0.209521 -0.085020 0.300000 0.000000 0.600000
-0.053365 0.117711 0.220552 0.000000 0.000000 1.000000
-0.644037 0.146166 0.159475 0.000000 0.000000 1.000000
0.256509 0.162624 0.471429 0.600000 0.300000 0.000000
0.660702 0.549278 -0.389647 0.600000 0.000000 0.300000
-0.406426 -0.209521 0.300559 0.300000 0.000000 0.600000
0.602080 -0.335768 -0.443750 0.300000 0.000000 0.600000
