ply
format ascii 1.0
element vertex 1279
property float x
property float y
property float z
property uchar red
property uchar green
property uchar blue
end_header
-0.146805 0.552758 0.466809 76 153 0
-0.076516 -0.266431 -0.235882 255 0 0
-0.694142 0.392539 0.389480 153 0 76
0.318377 -0.655226 0.239170 76 0 153
0.728606 0.473982 0.361971 204 51 127
-0.363460 0.117711 0.304365 0 0 255
0.728606 -0.127598 -0.308148 204 51 127
0.747576 -0.278120 0.201949 204 51 127
0.744491 0.463447 -0.443749 204 51 127
-0.699000 0.577733 0.264680 153 0 76
-0.694142 -0.546809 -0.318743 153 76 0
0.687849 0.018372 -0.401067 0 0 255
-0.651068 0.275389 -0.401067 0 0 255
-0.358528 -0.266431 -0.362915 255 0 0
0.001199 0.066184 -0.415295 0 0 255
0.747576 -0.043403 0.396523 204 51 127
-0.433178 0.556920 -0.443750 0 0 255
0.001923 -0.200251 0.438354 127 127 0
-0.471468 0.406950 0.471429 153 0 76
0.728606 0.476608 0.152087 204 51 127
0.728606 0.340438 -0.029331 204 51 127
-0.368230 -0.266431 -0.178896 255 0 0
0.341206 0.146166 -0.017327 0 0 255
0.728606 0.333079 0.293774 204 51 127
0.439305 -0.239589 0.495235 153 76 0
0.704660 0.288497 0.495235 153 76 0
0.728606 0.191593 0.095117 204 51 127
-0.478449 -0.266431 -0.012681 255 0 0
-0.470601 -0.240045 0.495235 153 0 76
-0.274923 -0.209521 -0.239709 76 0 153
0.567966 0.558988 0.438354 76 153 0
0.511847 0.146166 -0.134145 0 0 255
-0.474093 -0.189325 -0.377355 153 0 76
-0.655361 0.146166 -0.333241 0 0 255
0.159889 0.330509 0.481133 153 76 0
0.244026 0.117711 0.324541 0 0 255
-0.580163 0.378025 0.481041 153 0 76
-0.319231 -0.209521 0.106675 76 0 153
0.239269 -0.216331 -0.377355 127 127 0
-0.632051 -0.266431 0.414256 255 0 0
0.728606 0.135984 -0.035754 204 51 127
0.747576 0.375630 0.172315 204 51 127
-0.017390 -0.266431 0.099749 255 0 0
0.289118 -0.340065 0.239170 76 0 153
-0.694142 0.212619 -0.043621 153 0 76
0.579384 -0.272344 0.488947 0 127 127
-0.300571 0.182821 0.495264 153 0 76
-0.713112 -0.247172 -0.252829 153 0 76
0.659648 -0.162096 0.241480 0 0 255
-0.694142 0.511188 0.076721 153 0 76
0.659725 0.146166 -0.198978 0 0 255
-0.706178 0.577733 -0.193226 153 0 76
-0.276340 0.117711 -0.277902 0 0 255
-0.713112 0.213526 0.320599 153 0 76
-0.458862 0.146166 0.179956 0 0 255
0.436317 -0.182273 -0.415295 0 0 255
-0.100298 0.430989 0.491338 153 0 76
-0.578354 0.008351 -0.415295 0 0 255
-0.374796 0.100987 0.495264 153 0 76
-0.162615 0.463913 -0.442044 0 0 255
-0.713112 0.330910 -0.340880 153 0 76
-0.270527 0.357152 0.495264 153 0 76
0.274977 -0.209521 0.277632 127 127 0
0.115253 -0.266431 -0.252792 255 0 0
0.203582 -0.418051 -0.443750 76 0 153
0.604183 -0.054291 -0.415295 0 0 255
-0.694142 0.153691 -0.237024 153 0 76
0.646584 0.146166 0.161818 0 0 255
-0.713112 0.151696 0.160928 153 0 76
0.082783 -0.453681 0.239170 76 0 153
-0.627748 -0.171976 0.208938 76 153 0
0.114827 -0.162096 -0.343049 255 0 0
-0.612960 0.117711 0.072880 0 0 255
-0.397808 -0.109672 0.495264 153 0 76
0.263465 -0.313856 0.443057 0 127 127
0.042459 -0.546816 -0.443750 76 0 153
0.345070 -0.058509 -0.415295 0 0 255
0.678758 -0.266431 -0.129835 255 0 0
0.728606 -0.075753 0.209193 204 51 127
0.676535 0.414866 0.495235 153 76 0
0.623236 -0.072958 0.480519 153 76 0
0.083483 0.117711 0.180663 0 0 255
-0.307808 -0.209521 -0.081999 76 0 153
0.728606 0.365608 -0.260664 204 51 127
0.426021 -0.086410 0.495264 153 76 0
0.356226 0.281002 0.471429 153 76 0
0.598734 0.178984 -0.401067 0 0 255
-0.678106 -0.596198 0.239170 76 0 153
0.254063 0.211421 -0.415295 0 0 255
-0.627748 -0.168321 -0.347576 76 153 0
0.652726 -0.173725 -0.038480 0 0 255
0.728606 0.179074 0.229905 204 51 127
-0.005050 0.123905 0.466809 153 0 76
-0.169421 -0.266431 0.377122 255 0 0
-0.296815 -0.162096 0.426396 127 0 127
-0.593217 0.117711 0.263898 0 0 255
-0.713112 -0.184580 -0.174155 153 0 76
0.174734 -0.228491 0.096899 127 127 0
-0.694142 -0.084182 0.350609 153 0 76
-0.446541 -0.209521 -0.197881 76 0 153
-0.713112 -0.503621 0.148798 153 76 0
0.728606 0.003170 -0.223277 204 51 127
-0.575952 0.073488 0.482795 153 0 76
-0.289775 0.101645 -0.415295 0 0 255
0.666402 0.530308 0.231378 153 0 76
-0.171216 0.117711 0.039029 0 0 255
-0.713112 0.069463 -0.172858 153 0 76
-0.694142 -0.060895 0.156287 153 0 76
0.290742 -0.209521 -0.031666 127 127 0
-0.492436 -0.608448 0.239170 76 0 153
-0.050728 -0.334297 0.239170 76 0 153
0.747576 -0.272624 0.396320 204 51 127
-0.067028 -0.266431 -0.097396 255 0 0
0.675174 0.075212 0.495235 153 76 0
0.092409 -0.652587 0.239170 76 0 153
0.115821 -0.332201 -0.443750 76 0 153
0.368128 0.229426 -0.401067 0 0 255
0.728606 0.077554 0.256990 204 51 127
-0.713112 0.029740 0.249599 153 0 76
0.728606 -0.567907 -0.350675 153 0 76
-0.293567 -0.099375 -0.415295 0 0 255
0.521628 0.117711 0.263805 0 0 255
0.335376 -0.266431 0.169011 255 0 0
-0.713112 -0.050995 -0.060998 153 0 76
-0.713112 -0.148716 0.019120 153 0 76
0.470407 -0.209521 0.253714 127 127 0
-0.247695 -0.021460 0.471429 153 0 76
-0.211571 -0.225904 0.495235 153 0 76
-0.713112 -0.193384 0.408055 153 0 76
-0.001340 -0.550488 0.239170 76 0 153
-0.070257 -0.266431 -0.332216 255 0 0
0.747576 -0.163639 -0.438432 204 51 127
-0.182178 -0.266431 -0.363877 255 0 0
0.160318 -0.228491 0.223162 127 127 0
0.012282 -0.266431 0.351637 255 0 0
0.344111 -0.195384 0.419384 204 51 127
-0.351943 0.481954 -0.443750 0 0 255
-0.045738 0.117711 0.129605 0 0 255
0.653976 -0.266431 0.285757 255 0 0
0.217988 0.352187 -0.415295 0 0 255
-0.484066 0.202893 0.471429 153 0 76
-0.304752 -0.266431 0.294225 255 0 0
0.003854 0.117711 -0.132528 0 0 255
0.296449 -0.266431 -0.195318 255 0 0
0.330770 -0.369847 -0.443750 76 0 153
0.194668 -0.209521 -0.213392 127 127 0
-0.694142 0.123184 0.372943 153 0 76
0.526473 0.117711 -0.333639 0 0 255
0.694748 0.530308 -0.375703 153 0 76
-0.710391 -0.112923 -0.443749 153 0 76
-0.500203 -0.228491 -0.108684 76 0 153
-0.195185 0.180829 0.495264 153 0 76
0.747576 0.202826 -0.439024 204 51 127
0.735282 -0.265752 -0.443749 204 51 127
-0.395351 0.117711 -0.140150 0 0 255
0.458236 -0.266431 0.020422 255 0 0
0.364401 0.527650 -0.443750 0 0 255
-0.137981 0.141001 -0.415295 0 0 255
0.728606 0.082837 -0.342350 204 51 127
-0.618272 0.529250 -0.443750 0 0 255
0.728606 -0.355186 0.149723 153 0 76
0.745234 0.577733 -0.206423 204 51 127
-0.272118 -0.266431 -0.315565 255 0 0
-0.243913 -0.355404 0.239170 76 0 153
0.747576 0.283762 -0.102781 204 51 127
-0.497662 0.117711 -0.208841 0 0 255
0.454013 0.117711 0.140285 0 0 255
0.662580 0.530308 0.403011 153 0 76
-0.587220 0.570008 0.466809 76 153 0
0.165451 0.146166 -0.064533 0 0 255
-0.713112 0.296165 0.402531 153 0 76
-0.196212 0.058129 -0.415295 0 0 255
0.568737 -0.313856 -0.443289 76 0 153
0.022947 -0.112273 -0.415295 0 0 255
-0.713112 0.057129 0.060332 153 0 76
0.717531 -0.446526 -0.443750 76 0 153
0.678941 -0.266431 -0.283606 255 0 0
0.728606 -0.564089 -0.009486 153 0 76
-0.236752 0.544874 -0.401067 0 0 255
0.747576 -0.453913 -0.265554 153 0 76
-0.172160 0.146166 -0.269577 0 0 255
0.747576 -0.407500 -0.059741 153 0 76
0.278205 0.478747 -0.443750 0 0 255
-0.633501 -0.266431 -0.002630 255 0 0
0.747576 -0.095467 0.034352 204 51 127
0.510942 -0.144809 0.490747 153 76 0
-0.628471 0.530308 0.163260 76 0 153
0.747576 -0.180205 0.087594 204 51 127
-0.694142 -0.507355 -0.165957 153 76 0
-0.238379 -0.388202 -0.443750 76 0 153
-0.414478 0.247214 -0.415295 0 0 255
0.190965 -0.147574 0.487441 153 76 0
-0.490522 -0.209521 0.302364 76 0 153
-0.652287 -0.266431 -0.366463 255 0 0
-0.592880 0.352241 -0.415295 0 0 255
-0.516085 0.472857 -0.443750 0 0 255
0.443133 0.489796 -0.401067 0 0 255
0.747576 0.242547 0.308692 204 51 127
0.187005 -0.644581 -0.443750 76 0 153
0.099998 0.118500 0.495235 153 76 0
-0.073562 -0.311141 -0.415295 0 0 255
0.747576 0.056065 0.346262 204 51 127
-0.694142 0.375679 -0.179147 153 0 76
-0.713112 0.497635 0.208758 153 0 76
0.068838 -0.227383 0.495235 153 76 0
-0.167071 0.236111 -0.401067 0 0 255
-0.555347 -0.149911 -0.401067 153 0 76
-0.611088 0.284535 0.466780 153 0 76
-0.224798 -0.570197 0.239170 76 0 153
0.327121 -0.266431 0.030336 255 0 0
0.747576 -0.464865 0.117251 153 0 76
0.463286 0.117711 0.407591 0 0 255
0.747576 -0.570495 -0.127682 153 0 76
0.509655 -0.584199 0.239170 76 0 153
0.434377 0.387140 -0.415295 0 0 255
-0.373276 0.481389 0.466780 153 0 76
0.342215 0.117711 0.156881 0 0 255
0.528441 0.515864 -0.443750 0 0 255
0.037612 -0.355364 0.239170 76 0 153
0.728606 0.360110 -0.360061 204 51 127
0.004253 -0.630197 -0.443750 76 0 153
0.728606 -0.102473 0.320728 204 51 127
0.260440 0.516948 0.466780 153 76 0
-0.537649 -0.217904 0.438354 127 0 127
0.265085 -0.098584 -0.401067 0 0 255
-0.644635 -0.113061 0.495235 153 0 76
0.168109 0.501117 0.495235 153 76 0
0.728606 0.046112 0.098610 204 51 127
0.176806 -0.209521 0.397363 127 127 0
-0.558078 -0.266431 0.190770 255 0 0
0.674120 0.530308 0.062741 153 0 76
0.527554 0.339388 -0.415295 0 0 255
-0.600896 -0.323787 -0.443750 76 0 153
-0.489016 -0.266431 0.131368 255 0 0
-0.126713 -0.456194 0.239170 76 0 153
0.399335 -0.313856 0.454884 0 127 127
-0.407269 -0.564335 -0.443750 76 0 153
-0.713112 0.499276 -0.236832 153 0 76
0.747576 -0.211668 -0.263963 204 51 127
-0.516722 0.117711 -0.024111 0 0 255
-0.713112 0.574834 0.371456 153 0 76
-0.715253 -0.000463 0.466809 127 0 127
0.571573 -0.209521 -0.025257 127 127 0
0.499519 -0.644235 -0.443750 76 0 153
0.574988 0.117711 -0.191093 0 0 255
0.717562 -0.113288 0.486667 153 76 0
0.667755 -0.652907 0.239170 76 0 153
0.728606 0.010245 0.184058 204 51 127
-0.713112 -0.177965 -0.309680 153 0 76
0.174080 -0.311022 0.438354 0 127 127
-0.713112 0.107866 -0.393892 153 0 76
0.135279 0.492075 -0.443750 0 0 255
-0.156104 -0.148840 -0.415295 0 0 255
-0.713112 -0.242580 -0.066495 153 0 76
-0.537490 -0.209521 -0.267871 76 0 153
0.702994 0.530308 -0.031372 153 0 76
-0.304576 -0.099337 0.495264 153 0 76
0.355857 0.089886 0.495264 153 76 0
0.202892 -0.266431 -0.075290 255 0 0
-0.148456 -0.209521 0.293522 76 0 153
-0.311231 -0.313777 0.466809 0 127 127
-0.269389 0.359949 -0.415295 0 0 255
0.499339 -0.209521 -0.136322 127 127 0
0.518096 0.352753 0.495264 153 76 0
-0.713112 -0.038835 -0.387444 153 0 76
0.145089 -0.052192 -0.401067 0 0 255
-0.713112 -0.340971 -0.220758 153 76 0
0.472557 0.077646 -0.415295 0 0 255
0.205826 -0.553250 0.239170 76 0 153
0.558959 -0.222359 0.419384 127 127 0
-0.008267 -0.313856 0.451118 0 127 127
-0.429275 0.316620 0.471429 153 0 76
-0.353678 -0.314270 0.239170 76 0 153
0.675716 0.235687 -0.401067 0 0 255
0.393856 0.503588 0.466780 153 76 0
-0.352553 0.146166 -0.312189 0 0 255
-0.057319 0.506764 0.495235 153 0 76
0.255666 0.117711 -0.002808 0 0 255
-0.464267 -0.272629 -0.401067 255 0 0
-0.253346 -0.266431 0.102800 255 0 0
0.275391 -0.201703 0.495235 153 76 0
0.186665 0.146166 -0.253968 0 0 255
0.327171 0.047620 -0.401067 0 0 255
-0.267764 0.146166 0.365525 0 0 255
0.012331 -0.438177 -0.443750 76 0 153
-0.296484 0.443020 0.480544 153 0 76
0.059920 0.117711 0.276565 0 0 255
-0.006343 -0.066995 0.438354 127 127 0
-0.639155 -0.162096 -0.024044 76 153 0
-0.713112 -0.611179 -0.259888 153 76 0
0.567013 0.146166 -0.039223 0 0 255
0.611329 -0.266431 -0.187637 255 0 0
0.747576 -0.525655 -0.423785 153 0 76
-0.646718 -0.225305 0.125306 76 153 0
-0.299833 0.146166 -0.168044 0 0 255
-0.346546 0.406907 -0.401067 0 0 255
0.367917 -0.266431 -0.325144 255 0 0
0.116914 -0.162096 -0.149567 255 0 0
0.727936 0.117711 0.050479 204 51 127
0.652726 -0.165840 -0.322970 0 0 255
-0.123804 -0.306482 0.438354 0 127 127
-0.684431 0.469069 -0.443750 0 0 255
0.647384 -0.433626 0.239170 76 0 153
-0.566559 -0.209521 0.262225 76 0 153
0.728606 -0.476209 0.007608 153 0 76
0.290593 0.395944 -0.401067 0 0 255
-0.340508 0.117711 0.009766 0 0 255
0.598907 0.444299 0.471429 153 76 0
-0.713112 0.204607 0.228502 153 0 76
-0.630078 0.530308 0.002380 76 0 153
-0.694142 -0.016943 -0.248621 153 0 76
0.334226 0.146166 -0.313622 0 0 255
-0.522331 -0.209521 0.033958 76 0 153
-0.711360 -0.655315 -0.101887 153 76 0
0.747576 0.191128 -0.225803 204 51 127
0.464564 0.146166 0.322169 0 0 255
-0.707308 0.577733 -0.098209 153 0 76
0.447010 -0.414933 0.239170 76 0 153
0.521893 0.244674 -0.401067 0 0 255
-0.713112 -0.102595 -0.226754 153 0 76
0.728606 0.294361 -0.185003 204 51 127
0.583555 -0.209521 0.192070 127 127 0
-0.601954 0.205526 -0.401067 0 0 255
0.747576 -0.537918 0.167214 153 0 76
-0.713112 0.371169 0.039804 153 0 76
0.500583 -0.209521 -0.260165 127 127 0
-0.713112 0.499647 0.422408 153 0 76
0.668869 -0.162096 0.326545 0 0 255
0.462195 -0.209521 0.159671 127 127 0
-0.321203 0.293850 0.471429 153 0 76
0.490482 0.220629 0.495264 153 76 0
-0.420693 -0.542660 0.239170 76 0 153
0.698522 0.117711 -0.116910 0 0 255
0.635273 -0.418761 -0.443750 76 0 153
0.567928 0.117711 0.070155 0 0 255
-0.597317 -0.255895 0.495235 153 0 76
0.337092 0.146166 0.426167 0 0 255
0.221097 0.117711 0.234126 0 0 255
-0.694142 -0.336983 0.040654 153 76 0
0.093206 0.146166 0.018205 0 0 255
0.740701 0.067932 -0.443749 204 51 127
-0.679578 0.117711 -0.012994 0 0 255
-0.414845 0.025934 0.495264 153 0 76
-0.399719 -0.237976 0.419455 76 0 153
-0.180446 -0.266431 -0.181435 255 0 0
0.594103 0.463913 -0.434038 0 0 255
-0.404044 -0.422935 -0.443750 76 0 153
-0.117226 0.372948 -0.415295 0 0 255
-0.713112 0.270649 -0.103225 153 0 76
-0.620862 0.549278 -0.152543 76 0 153
-0.251750 -0.209521 0.240028 76 0 153
-0.013715 0.117711 -0.218176 0 0 255
-0.106396 0.522632 -0.401067 0 0 255
0.510844 0.497005 0.535758 76 0 153
0.509468 0.027634 0.471429 153 76 0
-0.694142 -0.643796 0.066004 153 76 0
-0.255090 -0.266431 -0.051260 255 0 0
-0.398067 -0.090691 -0.415295 0 0 255
0.747576 -0.389410 -0.384071 153 0 76
-0.156568 -0.598200 -0.443750 76 0 153
-0.347826 -0.209521 0.337459 76 0 153
-0.202600 -0.209521 -0.122956 76 0 153
0.002505 -0.266431 -0.377390 255 0 0
-0.713112 -0.269051 0.260864 153 0 76
0.426094 0.117711 0.008066 0 0 255
0.556949 -0.493010 -0.443750 76 0 153
-0.250528 -0.233038 0.419384 76 0 153
0.728606 -0.628395 0.049517 153 0 76
-0.291972 -0.224485 -0.396325 153 0 76
0.114366 -0.004466 0.495235 153 76 0
0.423400 -0.094809 -0.415295 0 0 255
-0.528818 0.117711 0.426407 0 0 255
-0.084918 0.146166 0.062329 0 0 255
0.401839 -0.266431 -0.249572 255 0 0
0.335534 -0.209521 0.334087 127 127 0
-0.097232 -0.650879 0.239170 76 0 153
-0.028028 0.117711 0.293320 0 0 255
-0.093849 -0.266431 0.258256 255 0 0
0.663730 -0.162096 -0.127770 0 0 255
0.127226 -0.205937 -0.415295 0 0 255
0.413965 -0.209521 -0.092227 127 127 0
0.728606 0.382520 -0.443620 204 51 127
0.747576 0.545424 0.109345 204 51 127
0.208507 -0.357726 0.239170 76 0 153
0.686213 0.577733 0.466111 76 153 0
-0.523710 0.394279 -0.401067 0 0 255
-0.605866 -0.266431 -0.092300 255 0 0
0.291638 0.161567 0.495264 153 76 0
0.728606 -0.346589 -0.131015 153 0 76
0.181932 -0.266431 0.292778 255 0 0
0.054824 0.172057 0.438354 127 127 0
-0.184396 -0.209521 -0.007130 76 0 153
0.163403 0.178495 -0.401067 0 0 255
-0.041238 -0.010264 -0.401067 0 0 255
-0.694142 -0.107928 0.089375 153 0 76
0.385652 -0.522953 0.239170 76 0 153
-0.713112 0.314957 0.105432 153 0 76
0.728606 -0.265847 0.005793 204 51 127
-0.322441 -0.351804 -0.443750 76 0 153
-0.072498 -0.266431 -0.001264 255 0 0
0.693257 -0.505713 0.239170 76 0 153
0.367640 -0.019284 0.471429 153 76 0
-0.095656 -0.162096 -0.360478 0 127 127
0.117371 0.146166 0.100932 0 0 255
0.282434 0.117711 -0.177128 0 0 255
0.423504 0.146166 -0.390359 0 0 255
-0.134464 -0.096019 0.484893 153 0 76
-0.065499 -0.414650 -0.443750 76 0 153
0.269067 -0.442329 0.239170 76 0 153
-0.336289 0.216042 -0.415295 0 0 255
-0.617480 -0.164921 0.438354 127 0 127
-0.061085 0.116240 -0.401067 0 0 255
0.110339 0.427779 -0.401067 0 0 255
0.755843 0.174627 0.438354 0 255 0
0.377968 -0.209521 0.071056 127 127 0
0.561868 -0.162096 -0.383805 0 0 255
-0.080756 -0.162096 -0.105578 0 127 127
0.647955 0.146166 -0.038748 0 0 255
0.747576 0.518868 0.241569 204 51 127
0.714365 -0.356923 0.239170 76 0 153
-0.675256 0.240354 0.492096 153 0 76
0.161823 -0.209521 0.018390 127 127 0
-0.078766 0.185573 0.495235 153 0 76
-0.269366 0.146166 -0.019600 0 0 255
-0.617157 0.146166 -0.107333 0 0 255
-0.694142 0.035882 -0.362932 153 0 76
-0.486217 -0.102946 0.471429 153 0 76
-0.643731 0.122556 0.438354 0 0 255
-0.694142 0.235554 0.094352 153 0 76
-0.243305 0.117711 -0.115810 0 0 255
-0.184483 -0.313856 -0.432283 76 0 153
0.553693 0.128062 0.438354 0 0 255
0.658354 -0.164124 0.419384 0 0 255
0.018751 0.117711 0.008060 0 0 255
0.635580 0.256153 0.469994 153 76 0
0.013036 -0.266431 0.174106 255 0 0
-0.100929 0.146166 0.422511 0 0 255
0.263440 0.146166 0.164080 0 0 255
0.192104 0.134346 0.495264 153 76 0
-0.503347 -0.553249 -0.443750 76 0 153
0.555830 -0.322027 0.239170 76 0 153
0.370869 0.117711 0.284740 0 0 255
0.728606 -0.236184 -0.070476 204 51 127
0.349308 0.117711 -0.121647 0 0 255
-0.468952 0.488497 0.466780 153 0 76
-0.706024 -0.430973 -0.443749 153 76 0
0.747576 0.267109 -0.347665 204 51 127
0.667869 0.492972 -0.443750 0 0 255
-0.694142 -0.438071 0.037780 153 76 0
-0.713112 0.339708 0.196850 153 0 76
-0.475607 -0.266431 0.404486 255 0 0
-0.127939 0.117711 -0.209682 0 0 255
0.747576 0.494328 0.047120 204 51 127
0.654162 -0.162096 0.157759 0 0 255
0.446150 0.382234 0.471429 153 76 0
0.067680 -0.266431 -0.092290 255 0 0
-0.617480 -0.213998 -0.415295 76 0 153
-0.526174 -0.324938 0.239170 76 0 153
-0.538949 -0.456429 -0.443750 76 0 153
0.418994 -0.519163 -0.443750 76 0 153
0.670217 0.313592 -0.415295 0 0 255
-0.077618 -0.162101 -0.196121 0 127 127
0.616891 -0.266431 0.086490 255 0 0
0.600441 0.003178 0.471429 153 76 0
-0.164407 0.060106 0.471429 153 0 76
-0.694142 0.335557 -0.261063 153 0 76
0.494474 0.003066 -0.401067 0 0 255
-0.160406 0.117711 0.318600 0 0 255
-0.646718 -0.235367 0.318628 76 153 0
-0.105337 0.146166 -0.343002 0 0 255
0.228586 0.522770 -0.401067 0 0 255
-0.694142 0.503062 -0.052483 153 0 76
-0.134627 -0.209521 -0.238478 76 0 153
0.617824 0.145605 0.480670 153 76 0
0.488876 0.146166 -0.058055 0 0 255
0.392023 -0.251009 -0.415295 0 0 255
-0.416345 -0.209521 -0.010739 76 0 153
0.619772 0.530308 -0.326559 153 0 76
0.006732 0.404278 -0.415295 0 0 255
0.728606 -0.380727 -0.240823 153 0 76
-0.027059 -0.176888 -0.401067 0 0 255
-0.263601 -0.501410 -0.443750 76 0 153
-0.713112 -0.431635 0.180147 153 76 0
0.132825 -0.531680 -0.443750 76 0 153
-0.533157 0.117711 0.185914 0 0 255
0.728606 0.455905 -0.130791 204 51 127
0.262916 -0.064832 0.471429 153 76 0
-0.111551 0.117711 -0.073992 0 0 255
0.629118 0.146166 0.330176 0 0 255
0.743491 -0.655315 0.219869 153 0 76
0.247860 -0.266431 0.097403 255 0 0
-0.305853 0.520823 0.464737 76 153 0
0.515806 -0.223847 0.495235 153 76 0
-0.217458 0.117711 0.101931 0 0 255
0.558443 0.283977 0.495264 153 76 0
0.423473 -0.209521 0.319840 127 127 0
0.065207 0.488198 0.495105 153 76 0
0.291488 -0.209521 0.199150 127 127 0
0.575182 -0.209521 -0.226713 127 127 0
0.005021 0.177192 -0.415295 0 0 255
-0.657939 0.531719 0.466809 76 153 0
0.579049 -0.266431 0.358618 255 0 0
-0.529043 0.146166 0.337227 0 0 255
0.390258 -0.164813 0.483796 153 76 0
0.318148 -0.266431 0.402091 255 0 0
0.169359 -0.209521 -0.294451 127 127 0
-0.165875 0.146166 -0.133450 0 0 255
-0.000747 0.370463 0.438354 127 127 0
0.032244 0.256731 0.466809 127 127 0
0.284500 -0.266431 -0.335293 255 0 0
0.371635 0.343987 -0.401067 0 0 255
0.300994 0.390160 0.495264 153 76 0
-0.286501 0.146166 0.234456 0 0 255
0.459259 -0.209521 0.081922 127 127 0
0.680318 0.530308 -0.173277 153 0 76
0.496476 -0.298674 -0.401067 0 0 255
0.092853 -0.266431 0.049229 255 0 0
0.728606 0.401735 0.334652 204 51 127
0.096966 0.117711 -0.136470 0 0 255
0.457064 0.117711 -0.180416 0 0 255
-0.078511 -0.162096 0.390268 0 127 127
-0.119648 0.295378 -0.415295 0 0 255
0.526490 -0.266431 -0.305976 255 0 0
-0.371431 0.068185 -0.401067 0 0 255
-0.441313 -0.266431 -0.143858 255 0 0
-0.694142 -0.399956 -0.280532 153 76 0
0.644514 -0.232561 0.466780 153 76 0
-0.694142 0.402240 0.313123 153 0 76
0.732256 -0.655315 -0.380280 153 0 76
-0.694142 -0.374307 -0.380797 153 76 0
0.346480 -0.209521 -0.157925 127 127 0
-0.720032 0.127959 0.466809 127 0 127
-0.612778 0.117711 -0.252366 0 0 255
-0.299668 -0.645277 -0.443750 76 0 153
0.573131 -0.568193 -0.443750 76 0 153
-0.409029 -0.209521 -0.342210 76 0 153
0.650952 -0.589570 -0.443750 76 0 153
-0.713112 0.424313 -0.104947 153 0 76
-0.321215 0.049515 0.471429 153 0 76
0.519988 -0.266431 0.279180 255 0 0
0.747576 -0.084695 -0.126782 204 51 127
0.326079 -0.266431 0.278170 255 0 0
-0.071044 -0.188046 0.495235 153 0 76
-0.608722 -0.596188 -0.443750 76 0 153
-0.627074 0.530308 0.302945 76 0 153
-0.713112 -0.580434 -0.007481 153 76 0
0.281443 -0.266431 -0.092248 255 0 0
-0.713112 0.262846 -0.443433 153 0 76
-0.713112 -0.156632 0.336822 153 0 76
0.728606 0.500172 -0.276408 204 51 127
-0.487859 0.117711 -0.358683 0 0 255
0.078110 0.058603 -0.415295 0 0 255
-0.415055 -0.266431 -0.238831 255 0 0
-0.223137 -0.209521 -0.295391 76 0 153
0.142367 0.333181 -0.415295 0 0 255
0.121090 -0.118699 0.495235 153 76 0
0.747576 -0.610981 -0.229776 153 0 76
-0.651099 0.530308 -0.277579 76 0 153
0.311813 0.146166 0.342971 0 0 255
0.446828 -0.237162 0.419384 204 51 127
0.287382 0.249446 0.471429 153 76 0
0.102597 -0.189400 0.352598 255 0 0
-0.689743 0.549278 -0.366310 76 0 153
0.449891 -0.266431 -0.143157 255 0 0
0.746232 -0.313856 -0.386085 153 0 76
-0.646718 -0.236861 -0.215519 76 153 0
-0.289343 -0.473137 0.239170 76 0 153
-0.199641 0.412388 -0.401067 0 0 255
0.660163 0.577733 -0.438966 0 0 255
-0.694142 0.406659 -0.337163 153 0 76
-0.311524 0.146166 0.131163 0 0 255
-0.602176 -0.469092 0.239170 76 0 153
0.546636 -0.266431 -0.121926 255 0 0
0.496770 -0.209521 -0.010549 127 127 0
0.105296 0.224958 -0.415295 0 0 255
0.728606 -0.231130 0.139766 204 51 127
-0.153709 -0.209521 0.206625 76 0 153
0.384644 -0.209521 0.171671 127 127 0
-0.140640 -0.209521 -0.323274 76 0 153
-0.032580 0.059984 0.438354 127 127 0
-0.319607 -0.209521 -0.171879 76 0 153
0.695717 0.146166 -0.294842 0 0 255
0.064572 0.383754 0.494053 153 76 0
-0.014405 0.500824 -0.401067 0 0 255
-0.722597 0.406892 0.458636 127 0 127
0.237887 -0.237976 0.431511 204 51 127
-0.368661 -0.500192 -0.443750 76 0 153
0.101770 -0.116895 -0.401067 0 0 255
-0.422875 0.160203 0.471429 153 0 76
0.210008 -0.266431 -0.162765 255 0 0
-0.694142 0.273577 0.250942 153 0 76
0.108694 -0.237976 0.433153 204 51 127
0.747576 -0.112465 -0.384247 204 51 127
-0.200357 -0.209521 0.067282 76 0 153
-0.571145 -0.228491 -0.331459 76 0 153
-0.370715 -0.167124 0.419384 127 0 127
0.621524 -0.306883 0.438354 0 127 127
0.072720 -0.286495 -0.401067 0 0 255
-0.148195 -0.265543 0.495203 153 0 76
0.051516 0.117711 -0.267814 0 0 255
-0.410236 -0.392110 0.239170 76 0 153
-0.329491 -0.266431 -0.264293 255 0 0
-0.257358 0.139343 0.438354 0 0 255
-0.713112 0.189955 -0.371373 153 0 76
-0.548449 0.117711 -0.098097 0 0 255
0.700151 0.354296 0.457232 0 255 0
-0.461529 -0.011538 -0.415295 0 0 255
0.257774 -0.209521 -0.255678 127 127 0
-0.713112 -0.113887 -0.148378 153 0 76
-0.317904 -0.209521 -0.325575 76 0 153
0.029731 -0.130379 0.466809 127 127 0
0.253993 0.083941 0.495264 153 76 0
0.728606 -0.494825 -0.149281 153 0 76
-0.551443 -0.209521 0.144480 76 0 153
0.728606 0.014360 -0.058455 204 51 127
0.362655 -0.338266 0.239170 76 0 153
-0.653024 -0.498472 -0.443750 76 0 153
-0.114126 -0.469833 -0.443750 76 0 153
-0.131223 -0.228491 0.115405 76 0 153
0.006096 0.530711 0.466809 127 127 0
-0.028393 0.146166 0.400797 0 0 255
-0.694142 0.087429 0.199992 153 0 76
0.579161 -0.266431 -0.365479 255 0 0
0.533158 -0.475937 0.239170 76 0 153
-0.713112 -0.189151 0.081245 153 0 76
0.259961 0.146166 -0.326254 0 0 255
0.326679 0.468906 0.466780 153 76 0
0.757061 0.293494 0.444191 0 255 0
-0.023894 0.294243 0.438354 127 127 0
0.578505 0.391312 -0.401067 0 0 255
0.640416 -0.585018 0.239170 76 0 153
0.507825 0.520823 0.456310 153 76 0
-0.694142 -0.590307 -0.389800 153 76 0
-0.412026 0.146166 0.235914 0 0 255
-0.655175 0.389453 -0.401067 0 0 255
-0.694142 -0.108574 -0.372762 153 0 76
-0.468259 0.508140 -0.401067 0 0 255
0.670513 -0.087375 -0.415295 0 0 255
0.505594 0.146166 0.094715 0 0 255
0.132839 -0.192831 0.492454 153 76 0
0.614801 0.117711 -0.365166 0 0 255
-0.429514 0.146166 0.315455 0 0 255
-0.713112 -0.253190 -0.328786 153 0 76
-0.713112 0.060727 0.427055 127 0 127
0.102650 0.117711 0.354117 0 0 255
-0.644625 0.055704 -0.415295 0 0 255
-0.278578 -0.198137 0.492419 153 0 76
-0.652534 0.530308 0.231732 76 0 153
0.747576 -0.218869 -0.190488 204 51 127
-0.094110 -0.162096 0.319423 0 127 127
0.087204 -0.266431 0.219320 255 0 0
-0.249570 0.504652 0.539068 76 0 153
0.728606 -0.338156 0.011101 153 0 76
0.176715 0.257573 0.471429 153 76 0
-0.713112 -0.547274 -0.225698 153 76 0
-0.362784 -0.266431 0.091901 255 0 0
0.684153 0.549278 0.146338 153 0 76
0.424328 -0.266431 0.192462 255 0 0
-0.694142 -0.217448 0.201018 153 0 76
0.535441 -0.209521 0.131273 127 127 0
-0.194023 0.117711 0.224328 0 0 255
-0.713112 -0.129835 0.216741 153 0 76
0.619987 -0.266431 -0.078065 255 0 0
0.747576 -0.022009 0.040163 204 51 127
-0.072362 0.117711 0.197706 0 0 255
-0.347891 -0.266431 -0.104747 255 0 0
-0.646369 0.117711 0.315500 0 0 255
0.046909 -0.266431 -0.216018 255 0 0
0.121567 -0.217318 -0.196519 127 127 0
-0.082193 -0.237976 0.427814 127 0 127
-0.634608 -0.162096 -0.098631 76 153 0
0.533571 0.577734 -0.407128 0 0 255
-0.554252 0.146166 -0.364542 0 0 255
-0.398015 -0.236735 -0.415295 0 0 255
0.728606 -0.121407 0.124554 204 51 127
-0.713112 0.083208 0.315885 153 0 76
0.277321 0.106510 -0.415295 0 0 255
-0.091067 0.025931 0.466780 153 0 76
-0.566118 -0.266431 0.030326 255 0 0
0.717434 0.117711 0.388819 0 0 255
-0.049826 -0.583018 -0.443750 76 0 153
-0.118674 -0.028014 -0.401067 0 0 255
0.728606 0.221721 -0.066080 204 51 127
0.511667 -0.209521 -0.346945 127 127 0
-0.694142 0.474809 0.138461 153 0 76
-0.673400 0.117711 0.111351 0 0 255
-0.342814 -0.209521 0.174319 76 0 153
0.686867 0.117711 0.214865 0 0 255
-0.713112 0.208791 -0.176952 153 0 76
-0.123791 -0.209521 -0.073627 76 0 153
-0.482640 0.041299 0.471429 153 0 76
-0.077618 -0.230743 0.064431 0 127 127
0.130120 0.117711 -0.220907 0 0 255
0.671696 -0.230971 -0.346403 0 0 255
-0.039179 0.146166 -0.073358 0 0 255
0.498592 -0.266431 0.100029 255 0 0
-0.713112 -0.472702 -0.103125 153 76 0
0.728606 0.422418 0.415004 204 51 127
0.222893 0.007059 0.495264 153 76 0
0.076791 -0.391852 -0.443750 76 0 153
0.480456 -0.652584 0.239170 76 0 153
-0.713112 0.263507 -0.366722 153 0 76
0.747576 -0.272821 -0.301444 204 51 127
-0.446960 -0.209521 -0.276418 76 0 153
0.747576 0.211711 0.169560 204 51 127
-0.555828 0.513566 -0.401067 0 0 255
-0.556928 0.238267 0.471429 153 0 76
0.685440 0.117711 0.109594 0 0 255
-0.077618 -0.198150 0.175605 0 127 127
0.473715 -0.387151 -0.443750 76 0 153
-0.374265 -0.453321 0.239170 76 0 153
0.165009 -0.266431 0.163350 255 0 0
0.397076 -0.266431 0.286636 255 0 0
-0.713112 -0.010946 0.307675 153 0 76
0.437174 0.221858 -0.415295 0 0 255
0.499082 0.146166 0.198075 0 0 255
0.679525 0.549278 -0.095478 153 0 76
-0.477867 -0.266431 0.261391 255 0 0
0.173105 -0.209521 -0.104911 127 127 0
0.263980 -0.602717 0.239170 76 0 153
0.728606 -0.240121 0.335083 204 51 127
0.558933 0.109818 -0.415295 0 0 255
-0.694142 0.024334 -0.116538 153 0 76
0.175444 -0.263008 -0.415295 255 0 0
0.396775 0.575675 0.466809 76 153 0
-0.301829 0.146166 -0.361904 0 0 255
0.747576 0.100560 -0.174998 204 51 127
0.747576 -0.130332 -0.072171 204 51 127
-0.058469 0.256803 0.495235 153 0 76
0.441750 0.452030 0.480292 153 76 0
-0.652965 -0.014926 -0.415295 0 0 255
0.728606 -0.514510 -0.304717 153 0 76
-0.557436 -0.080972 -0.415295 0 0 255
-0.542704 0.011305 0.495264 153 0 76
-0.630033 -0.339599 0.239170 76 0 153
0.176027 0.117711 0.347602 0 0 255
0.715260 0.026134 0.438354 204 51 127
-0.190045 -0.219060 -0.415295 0 0 255
0.200956 -0.209521 0.329471 127 127 0
0.652726 -0.231291 0.221867 0 0 255
-0.694142 -0.381749 -0.086644 153 76 0
-0.210742 0.182953 -0.415295 0 0 255
0.394978 0.087039 -0.415295 0 0 255
-0.713112 0.328378 -0.026820 153 0 76
0.690551 -0.217155 -0.415295 0 0 255
-0.511817 -0.209521 0.373664 76 0 153
-0.713112 -0.654839 0.223222 153 76 0
0.121159 -0.392123 0.239170 76 0 153
-0.488930 -0.513988 0.239170 76 0 153
0.747576 0.576077 -0.372114 204 51 127
-0.713085 0.577733 0.087143 153 0 76
-0.381457 0.146166 -0.064181 0 0 255
-0.206275 -0.209521 -0.226250 76 0 153
0.757061 -0.217575 0.438428 0 255 0
0.356672 -0.266431 -0.037354 255 0 0
-0.206839 -0.266431 0.311026 255 0 0
0.747576 0.351020 0.037053 204 51 127
-0.531641 -0.442414 0.239170 76 0 153
0.562744 0.117711 -0.259810 0 0 255
-0.429263 0.117711 -0.222668 0 0 255
0.110653 0.279509 0.466780 153 76 0
-0.213204 0.520823 0.447200 153 0 76
-0.243744 -0.568125 -0.443750 76 0 153
-0.207716 -0.169529 0.419384 127 0 127
-0.657256 0.117711 -0.187180 0 0 255
-0.646360 -0.309646 0.466809 0 127 127
0.566121 0.508508 0.495235 153 76 0
-0.694142 0.014679 0.008679 153 0 76
0.102597 -0.230197 0.282008 255 0 0
-0.694142 0.212729 0.026863 153 0 76
-0.697492 -0.251754 -0.443749 153 0 76
-0.324435 -0.209521 -0.003273 76 0 153
-0.545552 0.167770 0.471429 153 0 76
0.144052 0.117711 0.229730 0 0 255
-0.082222 -0.403004 0.239170 76 0 153
-0.078008 -0.042367 0.466780 153 0 76
0.459334 -0.020983 0.471429 153 76 0
-0.694142 -0.343041 0.177651 153 76 0
-0.565917 -0.209521 -0.197978 76 0 153
0.728606 -0.131424 0.250163 204 51 127
-0.544506 -0.071942 0.495264 153 0 76
-0.694142 -0.513336 -0.025309 153 76 0
-0.646718 -0.221861 -0.308317 76 153 0
0.425579 0.101792 0.471429 153 76 0
0.747576 -0.272192 -0.126108 204 51 127
-0.694142 -0.561830 0.116121 153 76 0
-0.608515 0.445920 0.495146 153 0 76
-0.296153 0.510090 -0.401067 0 0 255
0.271283 -0.587316 -0.443750 76 0 153
0.678485 0.549278 -0.296130 153 0 76
0.757061 0.540471 0.461426 0 255 0
0.521628 -0.162096 0.425044 204 51 127
-0.694142 -0.312216 0.403246 153 0 76
0.613525 -0.209521 0.129046 127 127 0
-0.198652 -0.412205 0.239170 76 0 153
-0.218526 0.397542 0.471429 153 0 76
0.024776 0.117711 0.142817 0 0 255
-0.472912 -0.311799 0.466809 0 127 127
0.390849 0.341707 0.471429 153 76 0
-0.438442 0.117711 0.051966 0 0 255
0.380694 -0.266431 -0.177276 255 0 0
0.533674 -0.266431 -0.000729 255 0 0
-0.627748 -0.177468 0.282903 76 153 0
0.423547 0.239941 0.495264 153 76 0
-0.352811 -0.598984 0.239170 76 0 153
-0.611782 -0.579177 0.239170 76 0 153
0.305075 -0.215475 -0.415295 0 0 255
0.219355 0.365576 0.471429 153 76 0
-0.409430 -0.266431 0.274904 255 0 0
0.700151 -0.060608 0.442663 0 255 0
0.747576 0.040174 -0.277522 204 51 127
-0.672304 0.170257 0.495235 153 0 76
0.747576 -0.640480 -0.093576 153 0 76
0.747576 -0.030145 -0.384485 204 51 127
0.492379 -0.471057 -0.443750 76 0 153
0.728606 -0.069379 -0.263961 204 51 127
-0.646718 -0.225262 -0.056494 76 153 0
-0.226208 -0.266431 0.165336 255 0 0
0.732507 0.232435 0.466809 0 255 0
0.144275 -0.604556 0.239170 76 0 153
0.158954 -0.503881 0.239170 76 0 153
-0.713112 -0.560492 0.186111 153 76 0
0.747576 -0.147805 -0.240633 204 51 127
0.744945 0.577733 -0.063834 204 51 127
-0.654683 0.395911 0.466780 153 0 76
-0.711980 -0.239028 0.466809 127 0 127
-0.435758 -0.209521 0.150136 76 0 153
-0.645493 -0.266431 0.179750 255 0 0
0.038853 -0.265232 0.438354 0 127 127
-0.089780 0.527924 0.438354 76 153 0
0.565913 0.146166 0.220903 0 0 255
0.341850 -0.266431 0.096610 255 0 0
0.671696 -0.208344 0.028425 0 0 255
-0.433196 0.110867 -0.401067 0 0 255
-0.106649 -0.537205 -0.443750 76 0 153
-0.390708 0.117711 0.366417 0 0 255
0.255970 -0.209521 0.047736 127 127 0
0.060710 -0.026615 0.438354 127 127 0
0.146708 0.105523 -0.415295 0 0 255
-0.645373 -0.146042 -0.415295 0 0 255
0.700705 0.549278 0.350380 153 0 76
0.333399 0.117711 0.047688 0 0 255
-0.332131 -0.043727 -0.401067 0 0 255
-0.160304 0.127581 0.471429 153 0 76
-0.473358 -0.324225 -0.443750 76 0 153
0.224301 -0.209521 0.149549 127 127 0
-0.713112 0.452176 -0.188449 153 0 76
0.210661 -0.059699 -0.415295 0 0 255
0.757061 -0.298245 0.460975 0 255 0
0.102597 -0.215056 -0.302722 255 0 0
-0.265966 -0.269868 0.490689 153 0 76
0.564487 -0.102764 0.495264 153 76 0
-0.713112 -0.034951 0.392583 153 0 76
-0.713112 0.114098 -0.075978 153 0 76
-0.694142 -0.209637 -0.004770 153 0 76
-0.202965 -0.266431 0.030091 255 0 0
0.220783 -0.483218 -0.443750 76 0 153
0.261764 -0.361686 -0.443750 76 0 153
0.320413 -0.209521 -0.336984 127 127 0
-0.713175 -0.160661 0.466809 127 0 127
-0.375541 0.528177 -0.401067 0 0 255
0.469339 -0.266431 -0.243053 255 0 0
0.728606 -0.216606 0.224781 204 51 127
-0.713112 -0.003705 0.088732 153 0 76
0.184631 0.146166 0.084892 0 0 255
0.397841 -0.372686 -0.443750 76 0 153
0.685748 -0.266431 0.063151 255 0 0
0.224425 0.146166 -0.195169 0 0 255
-0.366463 -0.209521 0.056617 76 0 153
-0.463076 -0.616419 -0.443750 76 0 153
-0.713112 -0.178158 -0.240857 153 0 76
0.728606 -0.033338 -0.167120 204 51 127
-0.186563 -0.266431 0.107609 255 0 0
0.747576 0.146001 -0.398573 204 51 127
-0.312180 0.119919 0.471429 153 0 76
0.345654 -0.578916 0.239170 76 0 153
-0.389690 -0.209521 -0.151262 76 0 153
-0.167192 -0.536417 0.239170 76 0 153
0.728606 0.427044 -0.390077 0 0 255
-0.694142 -0.316202 0.104090 153 0 76
-0.650772 0.016552 0.466780 127 0 127
-0.665688 -0.055117 0.452506 153 0 76
0.245977 -0.162033 -0.415295 0 0 255
-0.595945 -0.209521 0.393907 76 0 153
-0.713112 -0.520001 -0.377729 153 76 0
-0.136317 0.146166 -0.009839 0 0 255
-0.306505 -0.162096 -0.378683 153 0 76
-0.402938 -0.039230 0.471429 153 0 76
0.137373 0.524369 0.438354 76 153 0
0.616443 -0.211045 -0.377355 0 255 0
-0.245402 -0.266431 -0.222485 255 0 0
0.275645 -0.209521 0.362659 127 127 0
-0.659703 -0.418087 0.239170 76 0 153
-0.049845 -0.266431 -0.167718 255 0 0
-0.640262 0.549278 0.098433 76 0 153
-0.647159 0.549278 -0.091666 76 0 153
0.031654 0.537638 -0.443750 0 0 255
-0.495577 -0.266431 0.065430 255 0 0
0.296436 -0.266431 -0.266484 255 0 0
0.224864 -0.228491 0.238772 127 127 0
0.048640 0.423063 0.438354 127 127 0
0.380140 0.575660 -0.401067 0 0 255
0.424094 0.146166 -0.255041 0 0 255
-0.499695 -0.175022 0.471429 153 0 76
-0.587841 -0.266431 -0.165683 255 0 0
-0.694142 0.477550 -0.299385 153 0 76
-0.434542 0.540712 0.438354 76 153 0
0.747576 0.288952 0.358822 204 51 127
-0.474052 -0.209521 -0.045952 76 0 153
0.225383 -0.209521 -0.041256 127 127 0
-0.064083 0.492501 -0.443750 0 0 255
-0.024708 0.406892 0.489436 153 0 76
0.232698 0.288338 -0.401067 0 0 255
0.747576 0.516498 0.311906 204 51 127
0.498648 -0.154779 -0.401067 0 255 0
0.747576 0.176354 0.027612 204 51 127
-0.032476 -0.266431 0.221801 255 0 0
-0.414974 -0.192901 0.487297 153 0 76
0.449120 0.533606 0.490746 153 76 0
0.459163 -0.244373 -0.401067 0 255 0
0.169736 -0.209521 -0.365104 127 127 0
-0.052158 -0.500025 0.239170 76 0 153
0.330071 -0.313856 0.446215 0 127 127
0.298455 -0.266431 0.337933 255 0 0
0.138714 0.172186 0.466853 153 76 0
-0.400889 0.362972 -0.401067 0 0 255
-0.493241 0.146166 -0.267893 0 0 255
-0.481511 0.248076 -0.415295 0 0 255
-0.660181 0.146166 -0.400099 0 0 255
-0.556164 0.146166 0.121040 0 0 255
0.322277 0.536055 0.489135 153 76 0
-0.440651 -0.147568 -0.415295 0 0 255
0.747576 -0.576370 -0.288470 153 0 76
0.524386 -0.209521 -0.070777 127 127 0
-0.713112 -0.011093 -0.321353 153 0 76
-0.451560 0.256597 0.495264 153 0 76
0.085142 0.514526 -0.401067 0 0 255
0.121567 -0.197098 0.120781 255 0 0
0.728606 0.332764 0.228176 204 51 127
0.345652 -0.635652 -0.443750 76 0 153
-0.629340 -0.162096 0.144340 76 153 0
-0.446472 -0.209521 0.372371 76 0 153
0.747576 0.508272 -0.344157 204 51 127
-0.519814 0.532126 0.491302 153 0 76
0.619725 -0.266431 -0.256183 255 0 0
-0.713112 0.442190 0.061096 153 0 76
-0.649896 -0.266431 0.060518 255 0 0
0.743502 -0.002300 -0.443749 204 51 127
0.079939 0.294721 -0.401067 0 0 255
-0.492282 -0.380616 0.239170 76 0 153
-0.181010 0.286731 0.495264 153 0 76
0.648434 0.071356 -0.415295 0 0 255
0.120770 -0.266508 0.492198 153 76 0
0.700151 0.120416 0.451509 0 0 255
-0.141055 0.494507 0.495235 153 0 76
0.257495 -0.294002 -0.401067 0 0 255
0.387580 -0.209521 -0.300654 127 127 0
-0.383399 -0.264333 0.495235 153 0 76
0.325818 -0.482174 0.239170 76 0 153
0.266866 0.577733 0.444051 76 153 0
0.681959 0.117711 0.294913 0 0 255
-0.142677 -0.209521 0.358203 76 0 153
-0.713112 0.229746 -0.238908 153 0 76
-0.299060 0.117711 0.296832 0 0 255
-0.694142 -0.473696 -0.309519 153 76 0
0.277699 -0.136131 0.471429 153 76 0
0.747576 0.399336 -0.008978 204 51 127
0.700151 -0.250712 0.439091 0 255 0
-0.459694 -0.266431 0.198017 255 0 0
0.379499 -0.312855 -0.401067 0 0 255
-0.425765 -0.266431 0.040099 255 0 0
0.063513 0.117711 -0.360186 0 0 255
-0.525696 -0.266431 -0.062928 255 0 0
-0.713112 0.421623 -0.399044 153 0 76
0.102597 -0.210379 -0.109082 255 0 0
-0.639405 0.117711 0.218738 0 0 255
-0.664439 0.530308 -0.206398 76 0 153
0.700151 0.510973 0.453980 0 255 0
0.588459 -0.266431 0.241075 255 0 0
-0.208486 0.483259 -0.401067 0 0 255
-0.713112 0.518623 0.008711 153 0 76
-0.139621 -0.600266 0.239170 76 0 153
0.094523 0.117711 0.426753 0 0 255
0.002418 0.000644 0.438354 127 127 0
-0.384130 0.501676 0.530887 76 0 153
0.342535 0.117711 -0.255116 0 0 255
0.020898 -0.489955 0.239170 76 0 153
0.688282 -0.266431 -0.217085 255 0 0
0.694065 0.549278 -0.233125 153 0 76
-0.713112 0.157792 -0.307562 153 0 76
-0.283240 0.298836 -0.401067 0 0 255
-0.004246 -0.266431 -0.083708 255 0 0
0.211307 0.146166 -0.113282 0 0 255
0.316859 0.193470 -0.415295 0 0 255
-0.299935 -0.266431 0.058663 255 0 0
-0.324808 -0.281811 -0.415295 0 0 255
0.579104 0.117711 0.301789 0 0 255
-0.227795 0.118051 -0.415295 0 0 255
-0.548103 0.146166 0.026506 0 0 255
-0.443520 0.117711 -0.076888 0 0 255
-0.254549 -0.266431 0.364812 255 0 0
0.271208 -0.268881 0.491091 153 76 0
-0.416235 -0.209521 0.303511 76 0 153
-0.694142 -0.606999 -0.063584 153 76 0
0.747576 0.077187 -0.085707 204 51 127
-0.518608 0.112296 -0.415295 0 0 255
0.016861 0.307281 -0.415295 0 0 255
-0.496026 0.117711 0.132457 0 0 255
-0.173693 -0.446708 -0.443750 76 0 153
0.410045 -0.589332 -0.443750 76 0 153
-0.025285 -0.266431 0.295915 255 0 0
-0.317665 -0.266431 -0.037851 255 0 0
-0.558127 -0.209521 -0.127696 76 0 153
0.607927 -0.209521 0.031154 127 127 0
-0.694142 -0.098363 -0.015230 153 0 76
-0.053401 -0.604492 0.239170 76 0 153
0.029268 -0.266431 0.056228 255 0 0
-0.713112 -0.475959 0.087278 153 76 0
-0.533798 -0.248334 0.495235 153 0 76
0.329783 -0.209521 -0.096001 127 127 0
-0.255575 -0.209521 0.176422 76 0 153
-0.201772 -0.066763 0.495264 153 0 76
-0.243652 -0.059672 -0.401067 0 0 255
-0.694142 -0.312001 0.304359 153 0 76
-0.127482 -0.277971 -0.401067 0 0 255
0.728606 0.378633 0.111684 204 51 127
-0.713112 -0.292377 -0.387214 153 0 76
-0.608843 0.131120 0.495235 153 0 76
-0.091149 0.117711 0.285879 0 0 255
-0.363702 0.175656 0.495264 153 0 76
0.607388 0.117711 0.120699 0 0 255
0.052788 -0.601606 0.239170 76 0 153
-0.049746 0.117711 -0.331650 0 0 255
0.482987 0.465056 -0.443750 0 0 255
-0.271381 0.164382 -0.415295 0 0 255
-0.026305 -0.138765 0.438354 127 127 0
0.449347 -0.266431 0.337094 255 0 0
0.161447 -0.266431 0.047903 255 0 0
-0.305562 -0.266431 -0.195915 255 0 0
0.618882 -0.209521 0.325728 127 127 0
0.218757 0.146166 0.384683 0 0 255
-0.509255 -0.209521 -0.328724 76 0 153
-0.531259 0.422233 0.485498 153 0 76
0.393141 -0.266431 0.015584 255 0 0
-0.326208 -0.219667 0.438354 127 0 127
0.660646 -0.158579 0.495235 153 76 0
0.466949 -0.187918 0.471429 153 76 0
-0.396838 -0.266431 -0.299388 255 0 0
-0.014619 0.146166 -0.274608 0 0 255
0.728606 0.310602 0.158991 204 51 127
0.526238 -0.228491 0.225588 127 127 0
0.747576 0.397917 -0.209791 204 51 127
-0.534941 -0.313856 -0.427459 76 0 153
0.248571 -0.266431 0.284613 255 0 0
-0.290508 -0.575843 0.239170 76 0 153
0.570349 0.388076 0.495264 153 76 0
-0.605550 0.577734 -0.405490 0 0 255
0.728606 -0.261837 0.270739 204 51 127
-0.694142 0.232258 0.379414 153 0 76
-0.077618 -0.225202 -0.284857 0 127 127
-0.140887 -0.266431 -0.132005 255 0 0
0.747576 0.365522 -0.083862 204 51 127
0.454181 0.117711 0.072214 0 0 255
0.568437 -0.106064 -0.415295 0 0 255
0.393181 0.146166 0.180253 0 0 255
0.757061 -0.094604 0.441470 0 255 0
0.728606 -0.310784 -0.253902 204 51 127
-0.646718 -0.166549 -0.185977 76 153 0
0.669417 -0.237976 -0.049653 127 127 0
0.629600 -0.329023 -0.443750 76 0 153
0.617375 0.549278 0.197224 153 0 76
-0.694142 0.394327 -0.042346 153 0 76
-0.713112 -0.018276 0.198087 153 0 76
0.728606 -0.415586 -0.330430 153 0 76
-0.341250 0.117711 0.081946 0 0 255
-0.417137 0.436534 0.480725 153 0 76
-0.522602 0.355510 0.471429 153 0 76
-0.180869 -0.237976 0.431606 76 0 153
0.444898 -0.036104 -0.415295 0 0 255
0.175772 -0.266431 -0.231037 255 0 0
-0.361378 -0.611217 -0.443750 76 0 153
0.210981 0.040349 -0.401067 0 0 255
-0.318999 -0.209521 0.242347 76 0 153
0.367467 -0.461579 -0.443750 76 0 153
0.233104 -0.497094 0.239170 76 0 153
0.402857 0.146166 0.433881 0 0 255
0.399502 0.470451 -0.443750 0 0 255
-0.694142 0.347114 0.257957 153 0 76
-0.233016 -0.228491 -0.366082 76 0 153
0.728606 -0.591371 0.141289 153 0 76
0.560020 -0.266431 0.124638 255 0 0
0.366344 -0.256946 0.442041 255 0 0
-0.346824 -0.145046 0.490193 153 0 76
-0.196020 -0.004358 -0.401067 0 0 255
-0.582947 -0.209521 0.333048 76 0 153
-0.713112 -0.408562 -0.221907 153 76 0
0.245810 0.567613 -0.443750 0 0 255
-0.543189 0.146166 0.240356 0 0 255
0.550731 0.117711 -0.092060 0 0 255
-0.541509 -0.266431 0.262453 255 0 0
0.111270 0.530300 0.494471 153 76 0
0.652726 -0.210019 -0.279224 0 0 255
-0.227337 0.146166 0.026207 0 0 255
-0.598410 0.515018 0.495235 153 0 76
-0.658401 -0.304317 -0.415295 76 0 153
0.476573 0.117711 -0.291864 0 0 255
0.201963 0.146166 0.285928 0 0 255
-0.568382 -0.209521 0.077947 76 0 153
0.163609 0.392782 0.471429 153 76 0
-0.581237 0.549278 -0.290684 76 0 153
-0.694142 -0.225785 -0.123817 153 0 76
-0.658333 0.505670 -0.401067 0 0 255
-0.459797 -0.266431 -0.080944 255 0 0
0.031404 0.120305 -0.415295 0 0 255
0.698585 0.146166 -0.358560 0 0 255
-0.164930 0.117711 -0.324092 0 0 255
-0.694142 -0.339461 -0.136267 153 76 0
0.133265 -0.056148 0.466780 153 76 0
0.334242 0.334645 0.495264 153 76 0
-0.683869 0.328934 -0.401067 153 0 76
0.177118 0.117711 -0.327844 0 0 255
-0.713112 -0.384112 0.005562 153 76 0
0.288072 -0.266431 0.222844 255 0 0
0.477552 -0.266431 0.224691 255 0 0
0.747576 -0.474090 -0.204242 153 0 76
-0.589660 -0.194874 0.489926 153 0 76
0.757061 -0.017574 0.455073 0 255 0
-0.694142 0.317840 -0.146231 153 0 76
0.614786 0.546692 0.065994 153 0 76
0.728606 0.247601 0.120840 204 51 127
0.549473 0.151333 0.495264 153 76 0
-0.067333 0.146166 -0.207996 0 0 255
0.063784 -0.266431 0.313131 255 0 0
0.747576 0.040608 -0.382712 204 51 127
0.747576 -0.413958 0.151595 153 0 76
-0.104250 0.374180 0.468520 153 0 76
-0.130672 -0.094135 -0.401067 0 0 255
0.102597 -0.209607 -0.009400 255 0 0
-0.126168 -0.228491 -0.010024 76 0 153
-0.665688 -0.127069 0.438955 127 0 127
0.517062 0.088445 0.471429 153 76 0
-0.713112 0.450902 0.385283 153 0 76
-0.035301 -0.236748 -0.415295 0 0 255
-0.324267 0.577733 0.451818 76 153 0
0.308681 0.117711 0.288904 0 0 255
0.171203 0.388942 -0.401067 0 0 255
-0.486864 -0.266431 0.324481 255 0 0
0.671696 -0.234828 0.117772 0 0 255
-0.422419 0.146166 -0.352354 0 0 255
-0.395914 0.117711 0.427297 0 0 255
-0.713190 0.281001 0.466809 127 0 127
0.728606 -0.589778 -0.065292 153 0 76
-0.503000 -0.209521 -0.174632 76 0 153
0.196607 -0.266431 -0.342191 255 0 0
-0.326609 -0.266431 0.141066 255 0 0
-0.713112 -0.569374 -0.139701 153 76 0
-0.279966 0.556181 -0.443750 0 0 255
-0.026066 0.247822 -0.401067 0 0 255
0.050627 -0.486464 -0.443750 76 0 153
0.750302 -0.164126 0.466809 0 255 0
0.313302 0.504320 -0.401067 0 0 255
-0.131832 0.430311 -0.401067 0 0 255
0.755126 0.378617 0.466809 0 255 0
-0.232761 0.146166 -0.246350 0 0 255
0.269194 -0.266431 -0.032016 255 0 0
-0.713112 -0.220365 0.139341 153 0 76
-0.590911 0.146166 0.318871 0 0 255
-0.010555 -0.266431 -0.235760 255 0 0
-0.539807 0.326330 -0.401067 0 0 255
0.131210 0.117711 -0.023234 0 0 255
0.076771 0.044833 0.495235 153 76 0
0.747576 -0.029128 -0.102395 204 51 127
-0.141468 -0.266431 0.323285 255 0 0
0.586057 -0.162096 0.423021 204 51 127
0.728606 0.426219 -0.262911 204 51 127
0.161146 -0.586296 -0.443750 76 0 153
0.057400 -0.266431 -0.345940 255 0 0
-0.713112 0.424420 0.174813 153 0 76
0.706452 -0.266431 -0.383813 255 0 0
-0.023949 -0.266431 0.400202 255 0 0
0.172698 -0.266431 0.377012 255 0 0
0.275748 -0.209521 -0.195061 127 127 0
0.430655 -0.266431 -0.064187 255 0 0
-0.367409 -0.266431 0.330861 255 0 0
-0.547346 0.146166 -0.228515 0 0 255
-0.627748 -0.206997 0.018331 76 0 153
0.747576 0.234956 -0.184069 204 51 127
-0.174224 -0.174714 0.480667 153 0 76
-0.344333 0.146166 0.254506 0 0 255
-0.331551 0.229010 0.471429 153 0 76
-0.694142 0.154470 0.320327 0 0 255
0.137001 0.562496 -0.401067 0 0 255
-0.713112 0.474313 0.267038 153 0 76
-0.017177 0.146166 0.047440 0 0 255
-0.264431 -0.209521 -0.128845 76 0 153
-0.694142 0.273121 -0.045928 153 0 76
-0.253861 -0.266431 0.261742 255 0 0
-0.494557 -0.266431 -0.242715 255 0 0
0.747576 -0.499312 0.213592 153 0 76
-0.670523 -0.365141 -0.443750 76 0 153
0.297571 0.117711 -0.047729 0 0 255
-0.016447 -0.067749 -0.401067 0 0 255
0.475348 0.146166 -0.348038 0 0 255
0.593760 -0.406235 0.239170 76 0 153
0.747576 0.510011 -0.172350 204 51 127
0.728606 0.224355 -0.300701 204 51 127
-0.549558 0.059262 -0.401067 0 0 255
-0.178484 0.146166 0.173609 0 0 255
0.627112 0.001364 -0.415295 0 0 255
-0.375950 -0.209521 -0.209845 76 0 153
0.366805 0.493977 0.548149 76 0 153
0.747576 0.320296 -0.295387 204 51 127
-0.296818 0.146166 -0.229018 0 0 255
-0.270746 -0.415457 0.239170 76 0 153
0.024882 0.117711 0.415029 0 0 255
-0.098397 0.299309 0.466780 153 0 76
0.747576 -0.144289 -0.173750 204 51 127
0.728606 0.159609 0.146401 204 51 127
0.160782 -0.209521 0.280161 127 127 0
0.230439 0.117711 -0.063963 0 0 255
0.617023 0.117711 -0.233969 0 0 255
-0.099641 -0.142405 0.466780 153 0 76
-0.375196 0.306170 0.495264 153 0 76
-0.237431 -0.209521 -0.044485 76 0 153
-0.109966 -0.266431 -0.186130 255 0 0
-0.001728 0.570716 -0.401067 0 0 255
-0.457334 -0.220604 0.438354 127 0 127
-0.698848 -0.053107 -0.443749 153 0 76
0.652726 -0.220123 -0.157315 127 127 0
0.164934 -0.228491 -0.038678 127 127 0
-0.096588 -0.176352 0.048415 0 127 127
0.747576 0.516502 -0.416423 204 51 127
-0.167951 -0.266431 0.178639 255 0 0
0.098876 0.334849 0.495235 153 76 0
0.315101 -0.043423 0.495264 153 76 0
0.334126 -0.184923 0.480382 153 76 0
0.102597 -0.202089 0.223127 255 0 0
-0.131292 -0.266431 -0.307812 255 0 0
0.747576 -0.074646 0.271264 204 51 127
-0.486973 -0.209521 0.102958 76 0 153
-0.625156 0.341511 0.495235 153 0 76
-0.420686 0.180324 -0.415295 0 0 255
-0.161113 0.413726 0.471429 153 0 76
-0.521131 -0.000640 -0.401067 0 0 255
0.379054 -0.209521 -0.374467 127 127 0
-0.694142 0.089099 -0.334598 153 0 76
0.125782 0.146166 -0.367178 0 0 255
0.554658 -0.313856 0.450694 0 127 127
-0.560551 -0.166367 0.419384 127 0 127
-0.713112 -0.276597 -0.017146 153 0 76
-0.713112 0.542674 0.310581 153 0 76
-0.694142 0.056518 -0.227697 153 0 76
-0.649921 0.117711 -0.066699 0 0 255
0.747576 0.284157 0.038634 204 51 127
-0.694142 -0.249631 0.410639 153 0 76
0.423837 -0.209521 -0.245615 127 127 0
-0.133145 0.186581 0.471429 153 0 76
0.660714 0.017293 0.495235 153 76 0
0.605551 0.117711 0.008650 0 0 255
0.728606 -0.495913 0.063568 153 0 76
-0.044275 0.072130 0.495235 153 0 76
-0.054860 0.381458 -0.401067 0 0 255
0.671696 -0.209841 0.286425 0 0 255
0.479261 -0.097027 0.471429 153 76 0
0.551621 -0.030871 -0.401067 0 0 255
-0.673076 0.117711 -0.279123 153 0 76
0.747576 -0.345948 0.070658 153 0 76
0.172722 -0.162096 0.432576 204 51 127
0.332913 0.146166 -0.189271 0 0 255
-0.713112 -0.587733 0.064679 153 76 0
-0.694142 -0.119179 0.275609 153 0 76
0.424760 0.529470 -0.443750 0 0 255
-0.656155 -0.654583 0.239170 76 0 153
0.155146 -0.376375 -0.443750 76 0 153
-0.187963 -0.325510 0.239170 76 0 153
0.613599 0.338623 -0.415295 0 0 255
0.747576 -0.452252 -0.108490 153 0 76
0.442473 -0.209521 0.023320 127 127 0
-0.713112 0.071540 0.002352 153 0 76
