ply
format ascii 1.0
element vertex 616
property float x
property float y
property float z
property float nx
property float ny
property float nz
property uchar red
property uchar green
property uchar blue
property float opacity
end_header
0.113837 -0.244361 0.337274 0.000000 1.000000 0.000000 255 255 255 1.000000
-0.611345 0.087925 0.489473 -1.000000 0.000000 0.000000 142 144 153 1.000000
0.449121 0.165977 0.484697 -1.000000 0.000000 0.000000 255 249 239 1.000000
0.449121 0.171723 0.381071 -1.000000 0.000000 0.000000 255 249 239 1.000000
0.491207 0.186367 -0.175369 0.000000 1.000000 0.000000 255 249 239 1.000000
-0.696924 -0.363925 0.352179 0.000000 -1.000000 -0.000000 255 249 239 1.000000
0.438610 0.007389 0.543990 0.000000 -1.000000 -0.000000 255 255 255 1.000000
-0.611345 0.000439 0.202534 -1.000000 0.000000 0.000000 142 144 153 1.000000
0.812023 -0.166112 -0.348391 1.000000 0.000000 0.000000 255 249 239 1.000000
0.260340 0.276934 0.012291 0.000000 -1.000000 -0.000000 255 249 239 1.000000
0.088310 0.276934 -0.071770 0.000000 -1.000000 -0.000000 255 249 239 1.000000
-0.375352 -0.033493 -0.544123 0.000000 0.000000 -1.000000 255 249 239 1.000000
-0.775196 0.045169 -0.141972 1.000000 0.000000 0.000000 142 144 153 1.000000
-0.077700 -0.363925 0.026916 0.000000 1.000000 0.000000 142 144 153 1.000000
0.759140 0.243210 0.516344 0.000000 0.000000 -1.000000 142 144 153 1.000000
-0.521368 -0.363925 -0.403767 0.000000 1.000000 0.000000 142 144 153 1.000000
0.258074 -0.363925 0.223889 0.000000 1.000000 0.000000 142 144 153 1.000000
-0.402389 0.360552 -0.410574 0.000000 1.000000 0.000000 255 249 239 1.000000
-0.139286 0.175964 0.516344 0.000000 0.000000 -1.000000 128 128 128 0.500000
0.812023 -0.189087 0.169724 1.000000 0.000000 0.000000 255 249 239 1.000000
-0.439638 -0.363925 -0.502432 0.000000 1.000000 0.000000 142 144 153 1.000000
-0.227372 -0.363925 -0.345128 0.000000 1.000000 0.000000 142 144 153 1.000000
-0.448702 0.276934 -0.017025 0.000000 -1.000000 -0.000000 255 249 239 1.000000
-0.202194 -0.285723 0.516344 0.000000 0.000000 -1.000000 142 144 153 1.000000
-0.210695 0.360552 -0.143673 0.000000 -1.000000 -0.000000 142 144 153 1.000000
-0.724475 0.360552 0.138479 0.000000 1.000000 0.000000 255 249 239 1.000000
0.767885 0.360552 0.317468 0.000000 1.000000 0.000000 255 249 239 1.000000
0.651015 -0.363925 0.148497 0.000000 -1.000000 -0.000000 255 249 239 1.000000
0.812023 -0.131245 0.292945 -1.000000 0.000000 0.000000 142 144 153 1.000000
0.014304 -0.176975 0.517765 0.000000 -0.000000 1.000000 128 128 128 0.500000
-0.087248 0.276934 0.364489 0.000000 1.000000 0.000000 142 144 153 1.000000
0.758932 0.077118 -0.544123 0.000000 0.000000 -1.000000 255 249 239 1.000000
-0.632708 -0.363925 0.477937 0.000000 -1.000000 -0.000000 255 249 239 1.000000
0.050217 -0.262156 -0.328120 0.000000 1.000000 0.000000 255 249 239 1.000000
-0.611345 0.199175 -0.096273 1.000000 0.000000 0.000000 255 249 239 1.000000
-0.775196 0.290711 -0.026402 1.000000 0.000000 0.000000 142 144 153 1.000000
-0.412950 -0.363925 -0.401112 0.000000 -1.000000 -0.000000 255 249 239 1.000000
-0.317123 -0.262156 0.403422 0.000000 -1.000000 -0.000000 142 144 153 1.000000
-0.775196 -0.355024 -0.148551 1.000000 0.000000 0.000000 142 144 153 1.000000
-0.309759 0.237576 -0.544123 0.000000 0.000000 -1.000000 255 249 239 1.000000
-0.494628 0.276934 0.326706 0.000000 -1.000000 -0.000000 255 249 239 1.000000
0.175066 -0.363925 -0.426365 0.000000 1.000000 0.000000 142 144 153 1.000000
-0.560967 -0.363925 0.329006 0.000000 1.000000 0.000000 142 144 153 1.000000
-0.036317 0.081770 0.517765 0.000000 -0.000000 1.000000 128 128 128 0.500000
0.449121 -0.088009 0.503980 1.000000 0.000000 0.000000 142 144 153 1.000000
-0.775196 0.106642 0.168396 1.000000 0.000000 0.000000 142 144 153 1.000000
0.459546 -0.363925 0.446330 0.000000 1.000000 0.000000 142 144 153 1.000000
0.058243 0.052382 -0.544123 0.000000 0.000000 -1.000000 255 249 239 1.000000
-0.611345 -0.100586 0.444792 -1.000000 0.000000 0.000000 142 144 153 1.000000
-0.566499 0.360552 -0.369649 0.000000 1.000000 0.000000 255 249 239 1.000000
0.793128 0.288046 -0.544123 0.000000 -0.000000 1.000000 142 144 153 1.000000
0.812023 0.254249 0.196613 1.000000 0.000000 0.000000 255 249 239 1.000000
-0.202089 -0.244361 0.160385 0.000000 -1.000000 -0.000000 255 255 255 1.000000
-0.487129 0.276934 0.263399 0.000000 -1.000000 -0.000000 255 249 239 1.000000
-0.705831 0.360552 -0.417962 0.000000 -1.000000 -0.000000 142 144 153 1.000000
0.486675 -0.363925 -0.431204 0.000000 1.000000 0.000000 142 144 153 1.000000
-0.425312 -0.363925 -0.533631 0.000000 1.000000 0.000000 142 144 153 1.000000
0.274482 -0.130560 -0.544123 0.000000 -0.000000 1.000000 142 144 153 1.000000
-0.323294 -0.146821 -0.380272 0.000000 0.000000 -1.000000 142 144 153 1.000000
-0.089804 -0.244361 -0.015601 0.000000 -1.000000 -0.000000 255 255 255 1.000000
-0.643100 -0.363925 -0.090465 0.000000 -1.000000 -0.000000 255 249 239 1.000000
0.812023 -0.074081 0.070083 1.000000 0.000000 0.000000 255 249 239 1.000000
-0.093458 0.278896 0.516344 0.000000 0.000000 -1.000000 142 144 153 1.000000
0.150112 0.061996 -0.380272 0.000000 -0.000000 1.000000 255 249 239 1.000000
0.068338 -0.244361 0.305900 0.000000 -1.000000 -0.000000 255 255 255 1.000000
-0.611345 0.026332 -0.127098 -1.000000 0.000000 0.000000 142 144 153 1.000000
-0.524714 0.360552 0.368257 0.000000 -1.000000 -0.000000 142 144 153 1.000000
-0.529779 0.342116 -0.544123 0.000000 -0.000000 1.000000 142 144 153 1.000000
-0.615583 -0.363925 -0.208389 0.000000 -1.000000 -0.000000 255 249 239 1.000000
0.515194 0.360552 -0.422412 0.000000 1.000000 0.000000 255 249 239 1.000000
-0.217415 0.360552 0.346251 0.000000 -1.000000 -0.000000 142 144 153 1.000000
0.142442 -0.363925 0.461794 0.000000 -1.000000 -0.000000 255 249 239 1.000000
0.505043 -0.363925 -0.003301 0.000000 1.000000 0.000000 142 144 153 1.000000
-0.565799 -0.363925 0.226147 0.000000 -1.000000 -0.000000 255 249 239 1.000000
0.649501 -0.363925 -0.365180 0.000000 1.000000 0.000000 142 144 153 1.000000
-0.136589 -0.363925 -0.146664 0.000000 -1.000000 -0.000000 255 249 239 1.000000
-0.706012 -0.034793 -0.544123 0.000000 0.000000 -1.000000 255 249 239 1.000000
-0.097121 -0.244361 0.393185 0.000000 -1.000000 -0.000000 255 255 255 1.000000
-0.662035 -0.363925 0.237869 0.000000 -1.000000 -0.000000 255 249 239 1.000000
0.545603 -0.252430 -0.544123 0.000000 0.000000 -1.000000 255 249 239 1.000000
0.303693 0.356200 -0.544123 0.000000 0.000000 -1.000000 255 249 239 1.000000
-0.534531 -0.163044 -0.380272 0.000000 0.000000 -1.000000 142 144 153 1.000000
-0.775196 0.173692 -0.521632 -1.000000 0.000000 0.000000 255 249 239 1.000000
0.812023 -0.232527 0.332820 -1.000000 0.000000 0.000000 142 144 153 1.000000
-0.290619 0.276934 -0.300140 0.000000 -1.000000 -0.000000 255 249 239 1.000000
0.101208 -0.244361 0.186060 0.000000 -1.000000 -0.000000 255 255 255 1.000000
0.282679 0.360552 0.446523 0.000000 1.000000 0.000000 255 249 239 1.000000
0.739251 -0.363925 0.102568 0.000000 -1.000000 -0.000000 255 249 239 1.000000
-0.026415 -0.178861 0.086396 -1.000000 0.000000 0.000000 255 255 255 1.000000
0.449121 0.155210 -0.286792 -1.000000 0.000000 0.000000 255 249 239 1.000000
-0.019026 0.100782 -0.544123 0.000000 -0.000000 1.000000 142 144 153 1.000000
-0.062161 -0.363925 0.484799 0.000000 1.000000 0.000000 142 144 153 1.000000
0.014159 0.051595 -0.380272 0.000000 -0.000000 1.000000 255 249 239 1.000000
0.069204 0.360552 0.486240 0.000000 -1.000000 -0.000000 142 144 153 1.000000
0.738993 0.360552 -0.475836 0.000000 1.000000 0.000000 255 249 239 1.000000
0.812023 -0.221450 0.484307 1.000000 0.000000 0.000000 255 249 239 1.000000
-0.058293 0.276934 -0.061591 0.000000 -1.000000 -0.000000 255 249 239 1.000000
-0.370792 -0.065133 -0.544123 0.000000 0.000000 -1.000000 255 249 239 1.000000
-0.479064 -0.126360 -0.544123 0.000000 -0.000000 1.000000 142 144 153 1.000000
-0.515146 0.276934 -0.198068 0.000000 1.000000 0.000000 142 144 153 1.000000
-0.775196 -0.109204 -0.130509 -1.000000 0.000000 0.000000 255 249 239 1.000000
-0.232042 0.276934 0.103891 0.000000 1.000000 0.000000 142 144 153 1.000000
0.743051 0.227950 -0.544123 0.000000 0.000000 -1.000000 255 249 239 1.000000
-0.368224 0.049728 0.516344 0.000000 0.000000 -1.000000 128 128 128 0.500000
0.708037 -0.363925 0.154185 0.000000 -1.000000 -0.000000 255 249 239 1.000000
0.064213 0.233736 -0.380272 0.000000 0.000000 -1.000000 142 144 153 1.000000
0.449121 -0.058762 -0.352481 1.000000 0.000000 0.000000 142 144 153 1.000000
-0.584780 0.360552 0.385018 0.000000 -1.000000 -0.000000 142 144 153 1.000000
-0.484174 0.118944 0.517765 0.000000 0.000000 -1.000000 128 128 128 0.500000
-0.611345 -0.127851 0.411289 -1.000000 0.000000 0.000000 142 144 153 1.000000
0.449121 0.274904 0.065389 -1.000000 0.000000 0.000000 255 249 239 1.000000
0.223914 -0.009783 -0.380272 0.000000 -0.000000 1.000000 255 249 239 1.000000
0.174137 -0.063729 -0.380272 0.000000 -0.000000 1.000000 255 249 239 1.000000
0.494922 0.360552 0.209532 0.000000 1.000000 0.000000 255 249 239 1.000000
-0.073526 -0.262156 0.144576 0.000000 1.000000 0.000000 255 249 239 1.000000
0.387810 -0.363925 0.437857 0.000000 -1.000000 -0.000000 255 249 239 1.000000
-0.178976 -0.046506 0.517765 0.000000 0.000000 -1.000000 128 128 128 0.500000
0.812023 -0.099467 0.128013 -1.000000 0.000000 0.000000 142 144 153 1.000000
0.500387 -0.362137 -0.544123 0.000000 -0.000000 1.000000 142 144 153 1.000000
0.216263 -0.262156 -0.163687 0.000000 -1.000000 -0.000000 255 255 255 1.000000
-0.017395 -0.262156 0.366923 0.000000 -1.000000 -0.000000 142 144 153 1.000000
-0.709376 -0.090809 -0.544123 0.000000 -0.000000 1.000000 142 144 153 1.000000
0.115023 -0.262156 -0.161869 0.000000 -1.000000 -0.000000 142 144 153 1.000000
-0.009553 -0.098019 -0.544123 0.000000 -0.000000 1.000000 142 144 153 1.000000
0.070775 -0.363925 -0.165620 0.000000 1.000000 0.000000 142 144 153 1.000000
0.229583 -0.262156 0.389523 0.000000 1.000000 0.000000 255 249 239 1.000000
-0.204675 -0.156795 0.516344 0.000000 0.000000 -1.000000 128 128 128 0.500000
-0.611345 0.005826 0.487983 -1.000000 0.000000 0.000000 142 144 153 1.000000
0.260610 0.276934 0.247296 0.000000 1.000000 0.000000 142 144 153 1.000000
0.383030 -0.262156 0.038844 0.000000 -1.000000 -0.000000 142 144 153 1.000000
-0.327179 0.360552 -0.148639 0.000000 1.000000 0.000000 255 249 239 1.000000
0.027008 -0.262156 0.353856 0.000000 -1.000000 -0.000000 142 144 153 1.000000
0.812023 -0.023948 0.243512 1.000000 0.000000 0.000000 255 249 239 1.000000
0.650482 0.276934 -0.102708 0.000000 1.000000 0.000000 142 144 153 1.000000
-0.487727 -0.363925 -0.373378 0.000000 1.000000 0.000000 142 144 153 1.000000
0.103410 -0.244361 -0.234661 0.000000 -1.000000 -0.000000 255 255 255 1.000000
0.467765 -0.099613 -0.544123 0.000000 -0.000000 1.000000 142 144 153 1.000000
-0.123479 -0.044356 -0.380272 0.000000 0.000000 -1.000000 142 144 153 1.000000
-0.634500 -0.363925 0.175195 0.000000 1.000000 0.000000 142 144 153 1.000000
-0.086813 0.276934 -0.117064 0.000000 -1.000000 -0.000000 255 249 239 1.000000
-0.465099 -0.363925 0.420910 0.000000 -1.000000 -0.000000 255 249 239 1.000000
0.026912 0.046795 0.516344 0.000000 -0.000000 1.000000 128 128 128 0.500000
-0.775196 -0.240054 0.321257 1.000000 0.000000 0.000000 142 144 153 1.000000
0.431330 -0.262156 -0.249820 0.000000 1.000000 0.000000 255 249 239 1.000000
0.424153 0.083128 -0.380272 0.000000 0.000000 -1.000000 142 144 153 1.000000
-0.069251 -0.190881 0.091015 0.000000 0.000000 -1.000000 255 255 255 1.000000
0.429368 0.360552 0.409151 0.000000 1.000000 0.000000 255 249 239 1.000000
-0.655831 -0.233713 -0.544123 0.000000 0.000000 -1.000000 255 249 239 1.000000
-0.049839 0.360552 0.269909 0.000000 -1.000000 -0.000000 142 144 153 1.000000
0.812023 0.121817 0.440524 -1.000000 0.000000 0.000000 142 144 153 1.000000
-0.450913 0.360552 -0.299272 0.000000 1.000000 0.000000 255 249 239 1.000000
-0.057038 -0.363925 -0.460238 0.000000 1.000000 0.000000 142 144 153 1.000000
-0.611345 0.249771 0.059546 -1.000000 0.000000 0.000000 142 144 153 1.000000
0.812023 -0.090193 0.337758 1.000000 0.000000 0.000000 255 249 239 1.000000
-0.560680 -0.219312 -0.544123 0.000000 -0.000000 1.000000 142 144 153 1.000000
0.812023 -0.072840 -0.378187 1.000000 0.000000 0.000000 255 249 239 1.000000
-0.459187 -0.253311 -0.544123 0.000000 -0.000000 1.000000 142 144 153 1.000000
0.081058 -0.363925 0.391016 0.000000 -1.000000 -0.000000 255 249 239 1.000000
-0.051946 0.276934 0.262005 0.000000 1.000000 0.000000 142 144 153 1.000000
0.113550 -0.363925 0.090017 0.000000 1.000000 0.000000 142 144 153 1.000000
-0.008248 -0.262156 0.033889 0.000000 -1.000000 -0.000000 255 255 255 1.000000
0.593485 0.360552 -0.130139 0.000000 -1.000000 -0.000000 142 144 153 1.000000
-0.167460 -0.012024 -0.380272 0.000000 -0.000000 1.000000 255 249 239 1.000000
-0.439413 -0.058386 -0.544123 0.000000 -0.000000 1.000000 142 144 153 1.000000
0.425908 -0.195546 0.516344 0.000000 -0.000000 1.000000 128 128 128 0.500000
0.062533 -0.363925 -0.094519 0.000000 1.000000 0.000000 142 144 153 1.000000
0.559457 0.360552 -0.037992 0.000000 1.000000 0.000000 255 249 239 1.000000
0.451823 -0.363925 -0.303568 0.000000 1.000000 0.000000 142 144 153 1.000000
0.550481 0.212125 -0.243275 -0.435912 -0.509373 0.741970 128 128 128 0.500000
0.723689 -0.363925 0.192110 0.000000 -1.000000 -0.000000 255 249 239 1.000000
0.544385 0.276934 -0.301783 0.000000 1.000000 0.000000 142 144 153 1.000000
0.075612 -0.262156 -0.210176 0.000000 -1.000000 -0.000000 255 255 255 1.000000
0.200229 -0.363925 -0.175510 0.000000 -1.000000 -0.000000 255 249 239 1.000000
-0.775196 0.343382 -0.227481 -1.000000 0.000000 0.000000 255 249 239 1.000000
0.730536 0.159211 0.516344 0.000000 -0.000000 1.000000 184 133 10 1.000000
-0.547722 -0.018847 0.516344 0.000000 -0.000000 1.000000 128 128 128 0.500000
0.398614 0.360552 0.436693 0.000000 1.000000 0.000000 255 249 239 1.000000
0.812023 -0.051456 0.383617 1.000000 0.000000 0.000000 255 249 239 1.000000
-0.525115 0.249021 0.516344 0.000000 0.000000 -1.000000 128 128 128 0.500000
0.168295 0.055464 -0.544123 0.000000 0.000000 -1.000000 255 249 239 1.000000
0.449121 -0.187647 -0.025195 -1.000000 0.000000 0.000000 255 249 239 1.000000
0.016648 -0.138858 -0.380272 0.000000 0.000000 -1.000000 142 144 153 1.000000
0.797179 -0.363925 -0.449299 0.000000 1.000000 0.000000 142 144 153 1.000000
-0.611345 0.244989 -0.041584 1.000000 0.000000 0.000000 255 249 239 1.000000
0.502947 0.221583 -0.172187 0.020117 -0.237779 0.971111 128 128 128 0.500000
0.812023 0.135420 -0.046453 1.000000 0.000000 0.000000 255 249 239 1.000000
-0.014338 -0.244361 0.295805 0.000000 -1.000000 -0.000000 255 255 255 1.000000
0.476947 0.091290 0.516344 0.000000 0.000000 -1.000000 142 144 153 1.000000
0.812023 -0.030544 -0.227778 -1.000000 0.000000 0.000000 142 144 153 1.000000
0.043945 0.360552 0.323918 0.000000 1.000000 0.000000 255 249 239 1.000000
0.812023 -0.248760 -0.208580 1.000000 0.000000 0.000000 255 249 239 1.000000
0.236272 -0.363925 0.500142 0.000000 -1.000000 -0.000000 255 249 239 1.000000
0.634522 0.360552 0.253283 0.000000 -1.000000 -0.000000 142 144 153 1.000000
0.677948 0.105967 0.516344 0.000000 0.000000 -1.000000 142 144 153 1.000000
0.238674 0.360552 -0.243594 0.000000 1.000000 0.000000 255 249 239 1.000000
-0.332214 0.276934 0.248772 0.000000 -1.000000 -0.000000 255 249 239 1.000000
-0.348757 -0.262156 0.038056 0.000000 -1.000000 -0.000000 255 255 255 1.000000
-0.775196 -0.136908 -0.483139 1.000000 0.000000 0.000000 142 144 153 1.000000
0.812023 -0.315989 -0.048817 1.000000 0.000000 0.000000 255 249 239 1.000000
-0.775196 0.088227 0.487344 -1.000000 0.000000 0.000000 255 249 239 1.000000
-0.775196 -0.084196 -0.240539 1.000000 0.000000 0.000000 142 144 153 1.000000
-0.181386 0.123013 -0.544123 0.000000 0.000000 -1.000000 255 249 239 1.000000
0.310026 0.360552 0.369773 0.000000 1.000000 0.000000 255 249 239 1.000000
-0.610385 -0.363925 0.367850 0.000000 -1.000000 -0.000000 255 249 239 1.000000
-0.598545 -0.363925 0.431070 0.000000 -1.000000 -0.000000 255 249 239 1.000000
0.430201 0.276934 -0.251430 0.000000 -1.000000 -0.000000 255 249 239 1.000000
-0.682504 0.360552 0.032490 0.000000 1.000000 0.000000 255 249 239 1.000000
-0.775196 -0.363739 -0.044159 -1.000000 0.000000 0.000000 255 249 239 1.000000
0.449121 0.161058 0.225377 1.000000 0.000000 0.000000 142 144 153 1.000000
-0.591552 -0.064617 -0.544123 0.000000 -0.000000 1.000000 142 144 153 1.000000
0.578560 0.317326 0.516344 0.000000 -0.000000 1.000000 255 249 239 1.000000
0.449121 0.220648 0.268694 -1.000000 0.000000 0.000000 255 249 239 1.000000
0.449121 -0.144911 0.495707 -1.000000 0.000000 0.000000 255 249 239 1.000000
-0.775196 0.126366 -0.120520 -1.000000 0.000000 0.000000 255 249 239 1.000000
0.386000 -0.088544 0.517765 0.000000 -0.000000 1.000000 128 128 128 0.500000
-0.103431 -0.335487 0.516344 0.000000 -0.000000 1.000000 255 249 239 1.000000
-0.240657 0.360552 -0.253195 0.000000 -1.000000 -0.000000 142 144 153 1.000000
0.449121 0.254831 -0.199566 -1.000000 0.000000 0.000000 128 128 128 0.500000
0.069466 0.360552 0.006665 0.000000 1.000000 0.000000 255 249 239 1.000000
0.397721 -0.274148 -0.544123 0.000000 -0.000000 1.000000 142 144 153 1.000000
0.449121 0.071435 0.413592 1.000000 0.000000 0.000000 142 144 153 1.000000
0.075817 -0.363925 -0.514358 0.000000 -1.000000 -0.000000 255 249 239 1.000000
-0.056108 -0.144208 0.037852 0.000000 1.000000 0.000000 255 255 255 1.000000
0.238079 0.360552 -0.419419 0.000000 -1.000000 -0.000000 142 144 153 1.000000
-0.611345 0.130828 0.231221 -1.000000 0.000000 0.000000 142 144 153 1.000000
-0.611345 -0.151933 0.202099 1.000000 0.000000 0.000000 255 249 239 1.000000
0.812023 0.349057 -0.227347 -1.000000 0.000000 0.000000 142 144 153 1.000000
-0.611345 -0.094969 -0.105635 -1.000000 0.000000 0.000000 142 144 153 1.000000
-0.611345 -0.150282 0.116714 -1.000000 0.000000 0.000000 142 144 153 1.000000
0.449121 0.193709 0.349885 1.000000 0.000000 0.000000 142 144 153 1.000000
-0.299746 -0.206508 -0.544123 0.000000 0.000000 -1.000000 255 249 239 1.000000
0.027213 0.360552 -0.050657 0.000000 1.000000 0.000000 255 249 239 1.000000
0.114928 -0.262156 -0.355092 0.000000 -1.000000 -0.000000 142 144 153 1.000000
-0.485517 -0.363925 0.059675 0.000000 -1.000000 -0.000000 255 249 239 1.000000
0.812023 0.185485 0.217389 1.000000 0.000000 0.000000 255 249 239 1.000000
0.812023 -0.262264 0.442373 1.000000 0.000000 0.000000 255 249 239 1.000000
-0.775196 -0.242872 -0.512170 1.000000 0.000000 0.000000 142 144 153 1.000000
0.269855 -0.244361 -0.052113 0.000000 1.000000 0.000000 255 255 255 1.000000
-0.775196 -0.092753 -0.503313 -1.000000 0.000000 0.000000 255 249 239 1.000000
0.812023 0.105280 -0.115241 -1.000000 0.000000 0.000000 142 144 153 1.000000
-0.386898 -0.007778 0.517765 0.000000 -0.000000 1.000000 128 128 128 0.500000
-0.775196 -0.336970 0.234386 -1.000000 0.000000 0.000000 255 249 239 1.000000
-0.738131 -0.363925 -0.259720 0.000000 -1.000000 -0.000000 255 249 239 1.000000
-0.282713 0.001428 0.517765 0.000000 -0.000000 1.000000 128 128 128 0.500000
0.812023 -0.030432 0.487666 1.000000 0.000000 0.000000 255 249 239 1.000000
-0.775196 -0.215884 -0.463002 1.000000 0.000000 0.000000 142 144 153 1.000000
-0.112334 -0.208202 -0.544123 0.000000 -0.000000 1.000000 142 144 153 1.000000
-0.208768 0.360552 -0.032797 0.000000 -1.000000 -0.000000 142 144 153 1.000000
0.812023 -0.246540 -0.275558 -1.000000 0.000000 0.000000 142 144 153 1.000000
-0.775196 0.110760 0.039715 1.000000 0.000000 0.000000 142 144 153 1.000000
0.639471 0.276934 -0.334852 0.000000 -1.000000 -0.000000 255 249 239 1.000000
0.266112 -0.262156 -0.324883 0.000000 1.000000 0.000000 255 249 239 1.000000
-0.524899 -0.070459 -0.380272 0.000000 -0.000000 1.000000 255 249 239 1.000000
0.478120 -0.363925 0.350884 0.000000 1.000000 0.000000 142 144 153 1.000000
0.119978 -0.262156 -0.291118 0.000000 1.000000 0.000000 255 249 239 1.000000
0.449121 -0.028885 -0.258016 -1.000000 0.000000 0.000000 255 249 239 1.000000
0.648735 -0.357399 0.516344 0.000000 0.000000 -1.000000 142 144 153 1.000000
0.433488 -0.363925 0.296542 0.000000 -1.000000 -0.000000 255 249 239 1.000000
0.406001 -0.219470 -0.380272 0.000000 -0.000000 1.000000 255 249 239 1.000000
-0.671000 0.052088 -0.544123 0.000000 0.000000 -1.000000 255 249 239 1.000000
0.812023 0.066443 0.398422 1.000000 0.000000 0.000000 255 249 239 1.000000
-0.775196 -0.167400 -0.475050 1.000000 0.000000 0.000000 142 144 153 1.000000
-0.653215 0.360552 -0.517416 0.000000 1.000000 0.000000 255 249 239 1.000000
-0.041055 -0.031007 -0.380272 0.000000 0.000000 -1.000000 142 144 153 1.000000
0.664271 0.265912 -0.380272 0.000000 -0.000000 1.000000 255 249 239 1.000000
-0.445228 0.360552 0.389059 0.000000 -1.000000 -0.000000 142 144 153 1.000000
0.449121 -0.225946 -0.342259 -1.000000 0.000000 0.000000 255 249 239 1.000000
0.290474 0.276934 -0.368125 0.000000 -1.000000 -0.000000 255 249 239 1.000000
-0.611345 -0.245303 -0.220914 -1.000000 0.000000 0.000000 142 144 153 1.000000
0.674747 -0.175686 -0.544123 0.000000 -0.000000 1.000000 142 144 153 1.000000
0.438953 0.235818 -0.544123 0.000000 0.000000 -1.000000 255 249 239 1.000000
0.573383 0.360552 -0.237002 0.000000 -1.000000 -0.000000 142 144 153 1.000000
-0.611345 0.147836 -0.242775 1.000000 0.000000 0.000000 255 249 239 1.000000
-0.021125 -0.244361 -0.292600 0.000000 1.000000 0.000000 255 255 255 1.000000
-0.575981 -0.363925 -0.364673 0.000000 1.000000 0.000000 142 144 153 1.000000
0.449121 0.108457 -0.279764 -1.000000 0.000000 0.000000 255 249 239 1.000000
0.251448 -0.007675 -0.544123 0.000000 0.000000 -1.000000 255 249 239 1.000000
0.137876 0.276934 -0.345021 0.000000 -1.000000 -0.000000 255 249 239 1.000000
0.138177 0.123323 -0.380272 0.000000 0.000000 -1.000000 142 144 153 1.000000
0.373520 -0.137006 -0.544123 0.000000 0.000000 -1.000000 255 249 239 1.000000
0.531144 0.360552 0.445435 0.000000 -1.000000 -0.000000 142 144 153 1.000000
-0.478495 0.360552 -0.445571 0.000000 1.000000 0.000000 255 249 239 1.000000
0.812023 0.267178 -0.345395 1.000000 0.000000 0.000000 255 249 239 1.000000
-0.611345 -0.051822 -0.335213 1.000000 0.000000 0.000000 255 249 239 1.000000
0.812023 0.241406 -0.377851 -1.000000 0.000000 0.000000 142 144 153 1.000000
-0.775196 -0.040748 -0.481757 1.000000 0.000000 0.000000 142 144 153 1.000000
0.297826 -0.363925 0.252622 0.000000 -1.000000 -0.000000 255 249 239 1.000000
-0.775196 -0.020671 0.473929 1.000000 0.000000 0.000000 142 144 153 1.000000
0.479029 0.276934 -0.100793 0.000000 1.000000 0.000000 142 144 153 1.000000
-0.611345 0.087475 0.172237 1.000000 0.000000 0.000000 255 249 239 1.000000
-0.582032 -0.023732 -0.380272 0.000000 -0.000000 1.000000 255 249 239 1.000000
-0.775196 -0.234872 0.229688 -1.000000 0.000000 0.000000 255 249 239 1.000000
-0.715356 -0.363925 -0.063241 0.000000 1.000000 0.000000 142 144 153 1.000000
-0.611345 -0.036682 -0.150383 -1.000000 0.000000 0.000000 142 144 153 1.000000
-0.040546 0.276934 0.008201 0.000000 1.000000 0.000000 142 144 153 1.000000
0.301617 -0.363925 -0.108592 0.000000 -1.000000 -0.000000 255 249 239 1.000000
-0.308820 -0.016847 -0.544123 0.000000 -0.000000 1.000000 142 144 153 1.000000
-0.775196 0.120149 -0.183217 -1.000000 0.000000 0.000000 255 249 239 1.000000
-0.775196 -0.267100 -0.203951 -1.000000 0.000000 0.000000 255 249 239 1.000000
-0.611345 0.162777 0.000588 1.000000 0.000000 0.000000 255 249 239 1.000000
0.352396 0.276934 -0.343715 0.000000 1.000000 0.000000 142 144 153 1.000000
-0.447878 -0.244361 0.165709 0.000000 -1.000000 -0.000000 255 255 255 1.000000
0.007808 0.276934 0.050076 0.000000 -1.000000 -0.000000 255 249 239 1.000000
0.812023 0.360244 0.432100 1.000000 0.000000 0.000000 255 249 239 1.000000
-0.611345 -0.202656 0.365389 -1.000000 0.000000 0.000000 142 144 153 1.000000
0.294632 -0.262156 -0.223033 0.000000 1.000000 0.000000 255 249 239 1.000000
0.141313 -0.363925 -0.485376 0.000000 1.000000 0.000000 142 144 153 1.000000
-0.775196 -0.212390 -0.315702 1.000000 0.000000 0.000000 142 144 153 1.000000
-0.775196 0.123170 -0.352158 1.000000 0.000000 0.000000 142 144 153 1.000000
0.702034 0.360552 0.047242 0.000000 -1.000000 -0.000000 142 144 153 1.000000
0.223459 0.276934 -0.069529 0.000000 -1.000000 -0.000000 255 249 239 1.000000
0.345414 0.360552 -0.359648 0.000000 -1.000000 -0.000000 142 144 153 1.000000
0.261469 -0.262156 0.064549 0.000000 1.000000 0.000000 255 249 239 1.000000
-0.119331 -0.206283 0.089729 0.000000 0.000000 -1.000000 255 255 255 1.000000
0.644027 -0.061493 0.516344 0.000000 0.000000 -1.000000 142 144 153 1.000000
0.449121 0.031381 -0.172981 -1.000000 0.000000 0.000000 255 249 239 1.000000
-0.454600 0.360552 -0.001301 0.000000 1.000000 0.000000 255 249 239 1.000000
0.812023 0.263379 -0.281331 -1.000000 0.000000 0.000000 142 144 153 1.000000
-0.775196 -0.062669 0.449730 1.000000 0.000000 0.000000 142 144 153 1.000000
-0.161388 0.276934 -0.266233 0.000000 1.000000 0.000000 142 144 153 1.000000
-0.392219 -0.244361 -0.004622 0.000000 -1.000000 -0.000000 255 255 255 1.000000
-0.335337 0.214071 0.517765 0.000000 -0.000000 1.000000 128 128 128 0.500000
0.508771 -0.363925 0.029444 0.000000 1.000000 0.000000 142 144 153 1.000000
0.228809 -0.363925 -0.333317 0.000000 1.000000 0.000000 142 144 153 1.000000
-0.076938 0.360552 -0.017146 0.000000 1.000000 0.000000 255 249 239 1.000000
-0.331035 0.360552 0.260879 0.000000 -1.000000 -0.000000 142 144 153 1.000000
-0.424246 0.276934 -0.304754 0.000000 1.000000 0.000000 142 144 153 1.000000
-0.775196 -0.139953 -0.215039 -1.000000 0.000000 0.000000 255 249 239 1.000000
-0.066627 0.360552 0.026637 0.000000 -1.000000 -0.000000 142 144 153 1.000000
-0.252458 -0.363925 -0.309470 0.000000 1.000000 0.000000 142 144 153 1.000000
-0.519631 -0.262156 -0.170621 0.000000 -1.000000 -0.000000 142 144 153 1.000000
-0.020178 -0.363925 0.250033 0.000000 -1.000000 -0.000000 255 249 239 1.000000
-0.249638 -0.247330 0.517765 0.000000 -0.000000 1.000000 128 128 128 0.500000
-0.528121 -0.262156 0.135592 0.000000 1.000000 0.000000 255 249 239 1.000000
0.169607 -0.167786 0.517765 0.000000 -0.000000 1.000000 128 128 128 0.500000
0.677022 0.267228 -0.319975 -1.000000 0.000000 0.000000 255 249 239 1.000000
0.474047 0.186367 -0.060243 0.000000 1.000000 0.000000 255 249 239 1.000000
-0.775196 -0.289795 0.192448 1.000000 0.000000 0.000000 142 144 153 1.000000
-0.775196 0.286138 0.339978 -1.000000 0.000000 0.000000 255 249 239 1.000000
0.384105 0.276934 0.359253 0.000000 1.000000 0.000000 142 144 153 1.000000
0.310065 -0.363925 0.062194 0.000000 1.000000 0.000000 142 144 153 1.000000
0.028843 -0.244361 -0.184652 0.000000 -1.000000 -0.000000 255 255 255 1.000000
0.408316 -0.363925 0.040499 0.000000 1.000000 0.000000 142 144 153 1.000000
0.533039 0.276934 -0.070923 0.000000 -1.000000 -0.000000 255 249 239 1.000000
0.791092 -0.007159 0.516344 0.000000 0.000000 -1.000000 142 144 153 1.000000
0.726138 0.360552 -0.154527 0.000000 1.000000 0.000000 255 249 239 1.000000
0.812023 0.002071 -0.302168 1.000000 0.000000 0.000000 255 249 239 1.000000
-0.775196 0.005779 0.231876 1.000000 0.000000 0.000000 142 144 153 1.000000
-0.280499 -0.262156 0.267476 0.000000 1.000000 0.000000 255 249 239 1.000000
0.677022 0.195931 -0.218455 1.000000 0.000000 0.000000 142 144 153 1.000000
-0.031515 0.360552 -0.240083 0.000000 1.000000 0.000000 255 249 239 1.000000
-0.775196 -0.320391 -0.098966 -1.000000 0.000000 0.000000 255 249 239 1.000000
-0.000615 0.276934 -0.052471 0.000000 1.000000 0.000000 142 144 153 1.000000
0.329165 -0.363925 -0.382014 0.000000 -1.000000 -0.000000 255 249 239 1.000000
-0.485311 0.360552 -0.103148 0.000000 1.000000 0.000000 255 249 239 1.000000
-0.157142 0.360552 0.150489 0.000000 -1.000000 -0.000000 142 144 153 1.000000
-0.656756 -0.007293 0.516344 0.000000 0.000000 -1.000000 142 144 153 1.000000
0.449121 0.193258 0.206839 -1.000000 0.000000 0.000000 255 249 239 1.000000
0.418154 0.068026 0.516344 0.000000 0.000000 -1.000000 128 128 128 0.500000
0.812023 0.336346 -0.320442 -1.000000 0.000000 0.000000 142 144 153 1.000000
-0.345220 -0.005421 0.517765 0.000000 0.000000 -1.000000 128 128 128 0.500000
0.180875 -0.363925 -0.355354 0.000000 -1.000000 -0.000000 255 249 239 1.000000
-0.775196 -0.214821 0.050959 1.000000 0.000000 0.000000 142 144 153 1.000000
-0.628946 0.035490 -0.544123 0.000000 0.000000 -1.000000 255 249 239 1.000000
0.812023 0.328820 -0.085414 1.000000 0.000000 0.000000 255 249 239 1.000000
-0.599278 -0.334682 0.516344 0.000000 -0.000000 1.000000 255 249 239 1.000000
-0.127428 -0.227938 0.032031 -1.000000 0.000000 0.000000 255 255 255 1.000000
0.812023 -0.294875 -0.387198 1.000000 0.000000 0.000000 255 249 239 1.000000
-0.775196 0.015099 -0.242993 1.000000 0.000000 0.000000 142 144 153 1.000000
0.760043 -0.363925 0.298529 0.000000 -1.000000 -0.000000 255 249 239 1.000000
-0.586236 -0.081099 -0.380272 0.000000 -0.000000 1.000000 255 249 239 1.000000
0.778451 -0.363925 0.238312 0.000000 -1.000000 -0.000000 255 249 239 1.000000
0.571550 -0.363925 0.419633 0.000000 1.000000 0.000000 142 144 153 1.000000
0.351534 0.058968 0.517765 0.000000 -0.000000 1.000000 128 128 128 0.500000
-0.043126 0.066600 -0.380272 0.000000 0.000000 -1.000000 142 144 153 1.000000
-0.194866 -0.262156 0.033817 0.000000 -1.000000 -0.000000 142 144 153 1.000000
-0.775196 0.194699 -0.274838 1.000000 0.000000 0.000000 142 144 153 1.000000
-0.775196 0.122025 0.228454 1.000000 0.000000 0.000000 142 144 153 1.000000
0.812023 -0.346468 0.375018 1.000000 0.000000 0.000000 255 249 239 1.000000
-0.385671 0.177506 -0.544123 0.000000 0.000000 -1.000000 255 249 239 1.000000
0.503719 -0.363925 0.196628 0.000000 -1.000000 -0.000000 255 249 239 1.000000
-0.457214 -0.262156 0.389804 0.000000 -1.000000 -0.000000 142 144 153 1.000000
0.496440 0.009123 0.516344 0.000000 0.000000 -1.000000 142 144 153 1.000000
-0.610352 0.128546 0.517765 0.000000 -0.000000 1.000000 128 128 128 0.500000
-0.389716 -0.244361 0.181623 0.000000 1.000000 0.000000 255 255 255 1.000000
0.649218 0.274288 -0.544123 0.000000 0.000000 -1.000000 255 249 239 1.000000
0.378545 -0.186582 -0.380272 0.000000 0.000000 -1.000000 142 144 153 1.000000
0.140354 -0.262156 0.037407 0.000000 -1.000000 -0.000000 255 255 255 1.000000
0.424862 0.245682 0.517765 0.000000 -0.000000 1.000000 128 128 128 0.500000
0.265766 0.276934 -0.112243 0.000000 1.000000 0.000000 142 144 153 1.000000
-0.417935 0.359066 0.516344 0.000000 0.000000 -1.000000 142 144 153 1.000000
-0.465954 0.360552 -0.514159 0.000000 -1.000000 -0.000000 142 144 153 1.000000
-0.775196 -0.187580 0.276783 1.000000 0.000000 0.000000 142 144 153 1.000000
-0.409223 -0.173145 -0.544123 0.000000 0.000000 -1.000000 255 249 239 1.000000
0.795256 0.244676 0.516344 0.000000 0.000000 -1.000000 142 144 153 1.000000
-0.714842 -0.099978 0.516344 0.000000 0.000000 -1.000000 142 144 153 1.000000
0.812023 -0.163447 0.051542 -1.000000 0.000000 0.000000 142 144 153 1.000000
0.435454 -0.363925 -0.428921 0.000000 1.000000 0.000000 142 144 153 1.000000
0.812023 0.018156 0.150785 -1.000000 0.000000 0.000000 142 144 153 1.000000
0.649897 -0.363925 0.454726 0.000000 -1.000000 -0.000000 255 249 239 1.000000
-0.515104 0.360552 0.224061 0.000000 -1.000000 -0.000000 142 144 153 1.000000
0.812023 0.141127 0.491463 1.000000 0.000000 0.000000 255 249 239 1.000000
-0.499475 0.276934 -0.155367 0.000000 -1.000000 -0.000000 255 249 239 1.000000
0.037648 -0.311156 0.516344 0.000000 0.000000 -1.000000 142 144 153 1.000000
0.449121 0.176624 -0.196333 -1.000000 0.000000 0.000000 255 249 239 1.000000
0.812023 0.213342 -0.247864 1.000000 0.000000 0.000000 255 249 239 1.000000
-0.449544 -0.244361 -0.083698 0.000000 1.000000 0.000000 255 255 255 1.000000
0.449121 0.005984 0.416800 -1.000000 0.000000 0.000000 255 249 239 1.000000
0.744395 0.290119 -0.544123 0.000000 0.000000 -1.000000 255 249 239 1.000000
-0.611345 0.141982 0.060851 -1.000000 0.000000 0.000000 142 144 153 1.000000
-0.611345 0.250764 0.207353 -1.000000 0.000000 0.000000 142 144 153 1.000000
0.242579 -0.363925 0.154445 0.000000 1.000000 0.000000 142 144 153 1.000000
0.812023 0.077497 -0.045162 -1.000000 0.000000 0.000000 142 144 153 1.000000
0.449121 -0.164055 -0.162111 -1.000000 0.000000 0.000000 255 249 239 1.000000
0.257681 0.117976 -0.544123 0.000000 0.000000 -1.000000 255 249 239 1.000000
0.263169 0.360552 -0.349934 0.000000 -1.000000 -0.000000 142 144 153 1.000000
-0.512901 0.276934 -0.303819 0.000000 -1.000000 -0.000000 255 249 239 1.000000
-0.326866 -0.363925 0.336362 0.000000 -1.000000 -0.000000 255 249 239 1.000000
-0.651443 0.242321 0.516344 0.000000 0.000000 -1.000000 142 144 153 1.000000
0.094094 -0.244361 -0.077221 0.000000 1.000000 0.000000 255 255 255 1.000000
-0.425263 -0.302588 -0.544123 0.000000 -0.000000 1.000000 142 144 153 1.000000
0.348018 0.360552 0.469101 0.000000 1.000000 0.000000 255 249 239 1.000000
0.040686 -0.363925 -0.156203 0.000000 1.000000 0.000000 142 144 153 1.000000
0.270325 0.163156 -0.380272 0.000000 0.000000 -1.000000 142 144 153 1.000000
0.584277 -0.363925 0.190200 0.000000 1.000000 0.000000 142 144 153 1.000000
-0.775196 0.102845 -0.242476 1.000000 0.000000 0.000000 142 144 153 1.000000
-0.534351 -0.067505 -0.544123 0.000000 0.000000 -1.000000 255 249 239 1.000000
0.812023 -0.349581 -0.177021 1.000000 0.000000 0.000000 255 249 239 1.000000
-0.480669 -0.262156 -0.259886 0.000000 -1.000000 -0.000000 142 144 153 1.000000
-0.127309 -0.250539 -0.380272 0.000000 0.000000 -1.000000 142 144 153 1.000000
-0.378395 -0.244361 0.276239 0.000000 -1.000000 -0.000000 255 255 255 1.000000
0.146038 -0.244361 -0.204082 0.000000 1.000000 0.000000 255 255 255 1.000000
0.453544 -0.362773 -0.544123 0.000000 0.000000 -1.000000 255 249 239 1.000000
-0.775196 -0.066820 0.167201 -1.000000 0.000000 0.000000 255 249 239 1.000000
-0.112206 0.360552 -0.097621 0.000000 1.000000 0.000000 255 249 239 1.000000
-0.424287 -0.363925 0.044457 0.000000 1.000000 0.000000 142 144 153 1.000000
-0.476184 0.338281 0.516344 0.000000 -0.000000 1.000000 255 249 239 1.000000
0.260408 -0.363925 -0.169966 0.000000 1.000000 0.000000 142 144 153 1.000000
0.022030 -0.105720 -0.380272 0.000000 0.000000 -1.000000 142 144 153 1.000000
0.677700 0.360552 -0.517495 0.000000 1.000000 0.000000 255 249 239 1.000000
-0.155362 0.281061 -0.544123 0.000000 0.000000 -1.000000 255 249 239 1.000000
0.047661 -0.363925 0.451471 0.000000 1.000000 0.000000 142 144 153 1.000000
0.812023 0.198892 -0.023472 -1.000000 0.000000 0.000000 142 144 153 1.000000
-0.775196 0.279943 0.101786 -1.000000 0.000000 0.000000 255 249 239 1.000000
0.728570 -0.215889 -0.544123 0.000000 -0.000000 1.000000 142 144 153 1.000000
-0.316914 0.360552 -0.543425 0.000000 1.000000 0.000000 255 249 239 1.000000
0.121929 -0.262156 -0.020307 0.000000 -1.000000 -0.000000 255 255 255 1.000000
0.357558 0.161171 -0.544123 0.000000 -0.000000 1.000000 142 144 153 1.000000
0.060747 -0.244361 -0.139252 0.000000 -1.000000 -0.000000 255 255 255 1.000000
0.474524 0.186367 -0.140563 0.000000 -1.000000 -0.000000 142 144 153 1.000000
0.763955 -0.363925 0.366113 0.000000 1.000000 0.000000 142 144 153 1.000000
0.812023 0.013201 0.333024 1.000000 0.000000 0.000000 255 249 239 1.000000
-0.611345 -0.157463 -0.001687 -1.000000 0.000000 0.000000 142 144 153 1.000000
0.723610 -0.362130 0.516344 0.000000 -0.000000 1.000000 255 249 239 1.000000
-0.252174 -0.363925 0.387943 0.000000 1.000000 0.000000 142 144 153 1.000000
-0.196896 -0.244361 -0.174386 0.000000 -1.000000 -0.000000 255 255 255 1.000000
0.290673 -0.343241 0.516344 0.000000 0.000000 -1.000000 142 144 153 1.000000
-0.599154 -0.262156 0.132037 0.000000 1.000000 0.000000 255 249 239 1.000000
0.449121 0.103625 -0.220885 1.000000 0.000000 0.000000 142 144 153 1.000000
0.707963 -0.363925 -0.211710 0.000000 1.000000 0.000000 142 144 153 1.000000
-0.683248 -0.363925 -0.361690 0.000000 -1.000000 -0.000000 255 249 239 1.000000
-0.611345 -0.236424 0.416914 1.000000 0.000000 0.000000 255 249 239 1.000000
-0.775196 0.088629 0.375704 -1.000000 0.000000 0.000000 255 249 239 1.000000
-0.389577 -0.363925 -0.056495 0.000000 1.000000 0.000000 142 144 153 1.000000
-0.531699 0.276934 0.087615 0.000000 -1.000000 -0.000000 255 249 239 1.000000
0.449121 0.085191 -0.119909 1.000000 0.000000 0.000000 142 144 153 1.000000
0.464881 0.360552 -0.310942 0.000000 -1.000000 -0.000000 142 144 153 1.000000
-0.274587 -0.363925 -0.444351 0.000000 -1.000000 -0.000000 255 249 239 1.000000
-0.520268 0.360552 -0.169618 0.000000 1.000000 0.000000 255 249 239 1.000000
0.641351 -0.288950 -0.544123 0.000000 -0.000000 1.000000 142 144 153 1.000000
-0.268778 -0.363925 -0.250481 0.000000 -1.000000 -0.000000 255 249 239 1.000000
0.140841 -0.363925 0.164322 0.000000 -1.000000 -0.000000 255 249 239 1.000000
0.102347 0.360552 -0.205606 0.000000 1.000000 0.000000 255 249 239 1.000000
-0.658202 -0.226871 0.516344 0.000000 0.000000 -1.000000 142 144 153 1.000000
0.597902 0.247895 -0.216892 0.558364 -0.744446 -0.366101 128 128 128 0.500000
0.663005 -0.363925 0.486292 0.000000 1.000000 0.000000 142 144 153 1.000000
-0.576035 0.276934 -0.195299 0.000000 1.000000 0.000000 142 144 153 1.000000
0.337009 -0.262156 0.057852 0.000000 1.000000 0.000000 255 249 239 1.000000
0.290296 0.057664 -0.544123 0.000000 -0.000000 1.000000 142 144 153 1.000000
0.812023 -0.107800 0.081053 1.000000 0.000000 0.000000 255 249 239 1.000000
-0.775196 -0.332596 -0.182094 -1.000000 0.000000 0.000000 255 249 239 1.000000
-0.611345 -0.055409 0.446648 -1.000000 0.000000 0.000000 142 144 153 1.000000
-0.775196 -0.000784 0.291452 -1.000000 0.000000 0.000000 255 249 239 1.000000
0.310156 0.276934 0.501908 0.000000 1.000000 0.000000 142 144 153 1.000000
0.247443 0.360552 -0.075162 0.000000 -1.000000 -0.000000 142 144 153 1.000000
0.571704 0.186367 -0.360876 0.000000 1.000000 0.000000 255 249 239 1.000000
0.510972 -0.363925 0.442915 0.000000 1.000000 0.000000 142 144 153 1.000000
0.481029 0.360552 -0.491867 0.000000 1.000000 0.000000 255 249 239 1.000000
-0.217204 -0.363925 0.514812 0.000000 1.000000 0.000000 142 144 153 1.000000
0.366799 0.276934 -0.028553 0.000000 1.000000 0.000000 142 144 153 1.000000
-0.312444 -0.262156 -0.162265 0.000000 -1.000000 -0.000000 255 255 255 1.000000
0.714019 0.360552 0.231421 0.000000 -1.000000 -0.000000 142 144 153 1.000000
-0.542786 -0.363925 0.511705 0.000000 1.000000 0.000000 142 144 153 1.000000
-0.131629 0.360552 0.428832 0.000000 1.000000 0.000000 255 249 239 1.000000
-0.438549 0.360552 0.308237 0.000000 -1.000000 -0.000000 142 144 153 1.000000
0.449121 0.191558 -0.376690 -1.000000 0.000000 0.000000 128 128 128 0.500000
0.812023 -0.095856 0.239161 1.000000 0.000000 0.000000 255 249 239 1.000000
-0.611345 0.247554 -0.289364 -1.000000 0.000000 0.000000 142 144 153 1.000000
0.350468 -0.262156 0.105156 0.000000 -1.000000 -0.000000 142 144 153 1.000000
-0.685545 0.360552 0.090182 0.000000 -1.000000 -0.000000 142 144 153 1.000000
0.703014 -0.013848 -0.544123 0.000000 0.000000 -1.000000 255 249 239 1.000000
0.248110 -0.232104 -0.380272 0.000000 -0.000000 1.000000 255 249 239 1.000000
0.298867 0.360552 -0.358217 0.000000 1.000000 0.000000 255 249 239 1.000000
-0.220289 0.292515 -0.544123 0.000000 0.000000 -1.000000 255 249 239 1.000000
-0.675569 0.190677 0.516344 0.000000 0.000000 -1.000000 142 144 153 1.000000
-0.258568 -0.363925 0.098959 0.000000 -1.000000 -0.000000 255 249 239 1.000000
0.125964 -0.194218 0.516344 0.000000 -0.000000 1.000000 128 128 128 0.500000
-0.304943 -0.262156 0.133996 0.000000 -1.000000 -0.000000 142 144 153 1.000000
-0.030934 -0.244361 -0.074512 0.000000 1.000000 0.000000 255 255 255 1.000000
-0.368492 0.360552 0.195212 0.000000 -1.000000 -0.000000 142 144 153 1.000000
0.349775 0.360552 -0.405899 0.000000 1.000000 0.000000 255 249 239 1.000000
-0.775196 -0.279991 0.266485 -1.000000 0.000000 0.000000 255 249 239 1.000000
0.340669 -0.363925 0.080682 0.000000 -1.000000 -0.000000 255 249 239 1.000000
0.273083 -0.020086 0.517765 0.000000 -0.000000 1.000000 128 128 128 0.500000
-0.157522 0.360552 0.234920 0.000000 -1.000000 -0.000000 142 144 153 1.000000
0.399539 0.276934 -0.301373 0.000000 1.000000 0.000000 142 144 153 1.000000
-0.536094 -0.262156 0.064098 0.000000 -1.000000 -0.000000 142 144 153 1.000000
0.449121 0.126419 0.380913 1.000000 0.000000 0.000000 142 144 153 1.000000
0.730433 -0.279961 0.516344 0.000000 0.000000 -1.000000 142 144 153 1.000000
-0.350281 0.276934 0.496447 0.000000 1.000000 0.000000 142 144 153 1.000000
-0.775196 -0.339678 0.447962 -1.000000 0.000000 0.000000 255 249 239 1.000000
-0.153927 -0.073516 -0.380272 0.000000 0.000000 -1.000000 142 144 153 1.000000
-0.468278 0.360552 0.449363 0.000000 -1.000000 -0.000000 142 144 153 1.000000
0.684003 0.360552 0.494732 0.000000 -1.000000 -0.000000 142 144 153 1.000000
0.715144 -0.215513 0.516344 0.000000 0.000000 -1.000000 142 144 153 1.000000
0.185700 0.360552 0.077152 0.000000 1.000000 0.000000 255 249 239 1.000000
0.158559 -0.237328 -0.380272 0.000000 0.000000 -1.000000 142 144 153 1.000000
0.812023 -0.055238 -0.303542 -1.000000 0.000000 0.000000 142 144 153 1.000000
0.530612 0.153499 -0.544123 0.000000 -0.000000 1.000000 142 144 153 1.000000
-0.044424 0.276934 -0.342481 0.000000 -1.000000 -0.000000 255 249 239 1.000000
0.442495 0.360552 0.179249 0.000000 -1.000000 -0.000000 142 144 153 1.000000
0.090434 0.176922 -0.544123 0.000000 -0.000000 1.000000 142 144 153 1.000000
-0.056661 0.360552 0.315467 0.000000 -1.000000 -0.000000 142 144 153 1.000000
-0.502810 -0.262156 0.045783 0.000000 -1.000000 -0.000000 142 144 153 1.000000
-0.611345 0.257041 0.486630 -1.000000 0.000000 0.000000 142 144 153 1.000000
-0.080433 -0.363925 0.373913 0.000000 -1.000000 -0.000000 255 249 239 1.000000
-0.267942 0.360552 0.063114 0.000000 -1.000000 -0.000000 142 144 153 1.000000
0.719904 -0.116646 -0.544123 0.000000 0.000000 -1.000000 255 249 239 1.000000
-0.263457 -0.182841 0.516344 0.000000 -0.000000 1.000000 128 128 128 0.500000
-0.775196 0.208202 -0.514704 -1.000000 0.000000 0.000000 255 249 239 1.000000
0.240637 0.360552 -0.299316 0.000000 1.000000 0.000000 255 249 239 1.000000
-0.775196 -0.273777 0.458995 -1.000000 0.000000 0.000000 255 249 239 1.000000
-0.303460 -0.286426 0.516344 0.000000 -0.000000 1.000000 255 249 239 1.000000
0.629749 -0.363925 -0.530390 0.000000 -1.000000 -0.000000 255 249 239 1.000000
-0.775196 -0.061106 0.018996 -1.000000 0.000000 0.000000 255 249 239 1.000000
-0.213905 0.360552 0.070553 0.000000 1.000000 0.000000 255 249 239 1.000000
-0.051261 0.276934 0.043560 0.000000 -1.000000 -0.000000 255 249 239 1.000000
-0.165483 -0.363925 -0.224195 0.000000 -1.000000 -0.000000 255 249 239 1.000000
0.199768 0.276934 -0.306043 0.000000 -1.000000 -0.000000 255 249 239 1.000000
0.137204 -0.363925 -0.212754 0.000000 -1.000000 -0.000000 255 249 239 1.000000
-0.419878 0.360552 0.340021 0.000000 -1.000000 -0.000000 142 144 153 1.000000
0.276083 -0.272881 -0.544123 0.000000 0.000000 -1.000000 255 249 239 1.000000
0.372472 -0.363925 -0.423039 0.000000 1.000000 0.000000 142 144 153 1.000000
-0.380600 -0.244361 0.221338 0.000000 -1.000000 -0.000000 255 255 255 1.000000
0.812023 -0.139146 -0.497107 -1.000000 0.000000 0.000000 142 144 153 1.000000
0.319727 -0.363925 -0.513651 0.000000 1.000000 0.000000 142 144 153 1.000000
-0.578807 0.186061 0.517765 0.000000 -0.000000 1.000000 128 128 128 0.500000
0.325839 0.360552 -0.517314 0.000000 -1.000000 -0.000000 142 144 153 1.000000
0.109545 0.341637 0.516344 0.000000 0.000000 -1.000000 142 144 153 1.000000
0.064746 0.276934 -0.228221 0.000000 1.000000 0.000000 142 144 153 1.000000
-0.220574 0.011354 0.516344 0.000000 -0.000000 1.000000 128 128 128 0.500000
-0.305858 -0.363925 -0.125831 0.000000 -1.000000 -0.000000 255 249 239 1.000000
0.160403 0.276934 0.433732 0.000000 1.000000 0.000000 142 144 153 1.000000
0.469495 0.202966 -0.022080 0.000000 -0.000000 1.000000 142 144 153 1.000000
-0.272787 0.028481 -0.544123 0.000000 -0.000000 1.000000 142 144 153 1.000000
0.095947 -0.363925 -0.271072 0.000000 -1.000000 -0.000000 255 249 239 1.000000
0.449121 0.220873 -0.105044 1.000000 0.000000 0.000000 128 128 128 0.500000
-0.497583 0.276934 0.050311 0.000000 -1.000000 -0.000000 255 249 239 1.000000
-0.170896 0.360552 -0.529899 0.000000 1.000000 0.000000 255 249 239 1.000000
-0.337160 -0.363925 -0.430240 0.000000 1.000000 0.000000 142 144 153 1.000000
0.090025 0.360552 0.186443 0.000000 1.000000 0.000000 255 249 239 1.000000
0.179584 -0.273015 -0.544123 0.000000 -0.000000 1.000000 142 144 153 1.000000
-0.753432 0.360552 0.211278 0.000000 1.000000 0.000000 255 249 239 1.000000
-0.314481 0.276934 -0.080623 0.000000 1.000000 0.000000 142 144 153 1.000000
0.250685 -0.262156 -0.198180 0.000000 -1.000000 -0.000000 142 144 153 1.000000
-0.556477 0.276934 -0.145507 0.000000 1.000000 0.000000 142 144 153 1.000000
0.449121 0.189297 0.015938 -1.000000 0.000000 0.000000 255 249 239 1.000000
-0.048405 -0.019980 0.517765 0.000000 0.000000 -1.000000 128 128 128 0.500000
0.812023 0.286393 -0.146928 1.000000 0.000000 0.000000 255 249 239 1.000000
0.077203 0.288113 0.516344 0.000000 -0.000000 1.000000 255 249 239 1.000000
0.449121 0.036118 -0.350056 -1.000000 0.000000 0.000000 255 249 239 1.000000
-0.598151 -0.262156 -0.163335 0.000000 -1.000000 -0.000000 142 144 153 1.000000
-0.301939 0.360552 0.270703 0.000000 -1.000000 -0.000000 142 144 153 1.000000
-0.016708 -0.064338 0.516344 0.000000 0.000000 -1.000000 128 128 128 0.500000
0.680303 0.360552 0.412566 0.000000 1.000000 0.000000 255 249 239 1.000000
-0.490928 -0.342362 -0.544123 0.000000 0.000000 -1.000000 255 249 239 1.000000
-0.718522 0.360552 -0.055013 0.000000 1.000000 0.000000 255 249 239 1.000000
-0.232675 -0.244361 0.332822 0.000000 -1.000000 -0.000000 255 255 255 1.000000
-0.303922 0.276934 0.144409 0.000000 -1.000000 -0.000000 255 249 239 1.000000
-0.274491 -0.069217 -0.544123 0.000000 -0.000000 1.000000 142 144 153 1.000000
-0.161860 -0.109217 -0.544123 0.000000 -0.000000 1.000000 142 144 153 1.000000
0.017640 -0.363925 -0.437873 0.000000 1.000000 0.000000 142 144 153 1.000000
-0.063742 -0.363925 -0.301325 0.000000 -1.000000 -0.000000 255 249 239 1.000000
-0.775196 -0.036858 0.402722 1.000000 0.000000 0.000000 142 144 153 1.000000
-0.007727 0.276934 -0.348238 0.000000 1.000000 0.000000 142 144 153 1.000000
-0.611345 -0.194840 0.300420 -1.000000 0.000000 0.000000 142 144 153 1.000000
0.449121 0.201020 0.085251 -1.000000 0.000000 0.000000 255 249 239 1.000000
-0.045636 0.276934 -0.228190 0.000000 -1.000000 -0.000000 255 249 239 1.000000
-0.775196 -0.329766 -0.409274 1.000000 0.000000 0.000000 142 144 153 1.000000
-0.762905 -0.314393 0.516344 0.000000 -0.000000 1.000000 255 249 239 1.000000
0.533423 0.360552 0.156738 0.000000 -1.000000 -0.000000 142 144 153 1.000000
0.812023 -0.212166 -0.517030 1.000000 0.000000 0.000000 255 249 239 1.000000
-0.019925 -0.262156 0.247506 0.000000 1.000000 0.000000 255 255 255 1.000000
0.637278 0.360552 -0.248571 0.000000 -1.000000 -0.000000 142 144 153 1.000000
0.421107 0.276934 -0.146502 0.000000 -1.000000 -0.000000 255 249 239 1.000000
-0.611345 -0.155122 -0.144396 -1.000000 0.000000 0.000000 142 144 153 1.000000
0.449121 -0.112426 0.274266 1.000000 0.000000 0.000000 142 144 153 1.000000
-0.775196 -0.098864 0.301287 -1.000000 0.000000 0.000000 255 249 239 1.000000
-0.050645 0.276934 0.459265 0.000000 -1.000000 -0.000000 255 249 239 1.000000
-0.775196 0.130784 0.514629 1.000000 0.000000 0.000000 142 144 153 1.000000
0.138432 0.276934 0.400395 0.000000 -1.000000 -0.000000 255 249 239 1.000000
-0.532735 0.039894 -0.544123 0.000000 -0.000000 1.000000 142 144 153 1.000000
-0.201120 -0.148198 -0.544123 0.000000 -0.000000 1.000000 142 144 153 1.000000
0.197825 -0.363925 0.426158 0.000000 -1.000000 -0.000000 255 249 239 1.000000
-0.067262 0.360552 0.475296 0.000000 1.000000 0.000000 255 249 239 1.000000
-0.278055 -0.363925 -0.507954 0.000000 -1.000000 -0.000000 255 249 239 1.000000
