ply
format ascii 1.0
element vertex 1271
property float x
property float y
property float z
property uchar red
property uchar green
property uchar blue
end_header
-0.016317 0.272848 -0.358261 153 0 76
-0.336900 -0.622867 0.017015 153 0 76
-0.336900 0.247789 -0.002499 153 0 76
0.316471 0.869706 0.122609 153 0 76
0.205681 0.318355 -0.358261 153 0 76
-0.287169 0.869534 0.120586 153 0 76
0.139516 0.418859 0.255053 255 0 0
0.352412 -0.861259 -0.321688 153 0 76
0.356027 0.289826 0.243682 127 127 0
0.006073 -0.168180 0.254858 127 127 0
0.351668 -0.659683 0.234080 127 127 0
0.230920 0.869534 0.173563 153 0 76
0.007241 0.870276 -0.334583 153 0 76
-0.336639 -0.206837 0.225227 127 127 0
-0.207707 0.528408 0.254857 255 0 0
0.351951 0.078907 -0.089452 153 0 76
0.350609 -0.794167 0.248819 127 127 0
-0.295999 -0.126632 -0.358261 153 0 76
0.284325 -0.700950 -0.358261 153 0 76
0.131705 -0.016572 -0.358261 153 0 76
0.327915 -0.451327 0.264977 127 127 0
0.212961 0.524947 -0.358261 153 0 76
-0.335483 -0.914050 0.019518 153 0 76
0.351512 0.528783 0.106825 153 0 76
0.350890 0.404800 -0.345975 153 0 76
-0.243152 0.869638 -0.027593 153 0 76
0.298678 -0.813777 0.266452 127 127 0
0.174385 0.186782 0.254858 127 127 0
0.351475 -0.544772 0.237667 127 127 0
0.164394 -0.826424 -0.358261 153 0 76
-0.139319 -0.118992 0.254858 127 127 0
0.350224 0.053528 -0.350510 153 0 76
-0.336900 -0.475117 0.134394 153 0 76
-0.226671 -0.107817 -0.358261 153 0 76
-0.336900 -0.778529 -0.061982 153 0 76
0.079611 0.619638 0.254858 255 0 0
0.173252 0.870265 -0.335175 153 0 76
0.352407 0.838343 -0.234428 153 0 76
-0.336900 0.610547 0.171870 153 0 76
-0.333853 0.025886 0.250950 127 127 0
-0.190251 0.870534 -0.299692 153 0 76
0.118100 -0.517047 -0.358261 153 0 76
-0.336455 0.620153 0.230887 255 0 0
0.352426 0.379029 0.124030 153 0 76
0.352426 -0.876313 -0.008527 153 0 76
0.030323 -0.678123 0.254858 127 127 0
-0.081068 0.752806 0.255653 255 0 0
-0.241784 -0.334039 0.256625 127 127 0
-0.019895 -0.923648 -0.308331 153 0 76
-0.006216 -0.774710 -0.358261 153 0 76
-0.225343 -0.264671 0.255184 127 127 0
-0.032779 0.446960 0.254859 255 0 0
0.075036 0.869534 0.167917 153 0 76
0.352426 -0.035699 0.116159 153 0 76
0.352426 -0.053638 0.006113 153 0 76
0.352426 0.643902 0.045729 153 0 76
-0.181990 -0.820056 0.255257 127 127 0
-0.336829 -0.656716 -0.330686 153 0 76
0.286764 -0.157195 -0.358261 153 0 76
-0.331354 0.496768 -0.353835 153 0 76
-0.195112 -0.059273 0.254858 127 127 0
-0.336900 0.602698 0.008527 153 0 76
0.352426 -0.143119 0.085238 153 0 76
-0.215892 0.814168 0.273647 255 0 0
-0.336900 -0.252444 -0.162786 153 0 76
-0.336900 -0.093038 -0.169355 153 0 76
-0.139212 0.870534 -0.090366 153 0 76
-0.336793 -0.357335 0.220486 127 127 0
0.351424 0.542959 -0.296282 153 0 76
-0.330848 -0.295064 0.256876 127 127 0
-0.336645 -0.528205 0.225059 127 127 0
-0.336900 0.528040 -0.307352 153 0 76
-0.259725 -0.566311 0.260733 127 127 0
0.352426 -0.601875 -0.104572 153 0 76
0.352394 -0.648289 -0.324194 153 0 76
-0.336900 0.547243 -0.249933 153 0 76
0.144654 0.819546 0.274442 255 0 0
0.054524 -0.547057 -0.358261 153 0 76
-0.045023 0.870534 -0.130200 153 0 76
0.113695 0.512769 0.254858 255 0 0
0.277409 0.869534 -0.051803 153 0 76
-0.101401 0.214614 0.254759 127 127 0
-0.158674 -0.903210 0.274673 127 127 0
-0.336900 0.435839 0.035465 153 0 76
0.160826 -0.563189 -0.358261 153 0 76
0.352426 -0.437475 -0.214198 153 0 76
0.351425 0.036060 -0.243998 153 0 76
-0.106827 -0.900461 -0.358153 153 0 76
0.066606 0.078789 0.254858 127 127 0
0.338676 0.645933 0.261890 255 0 0
0.226183 0.585620 0.254858 255 0 0
-0.110953 -0.229550 -0.358261 153 0 76
-0.336900 0.349511 -0.306958 153 0 76
0.352426 0.765013 0.160614 153 0 76
0.123264 0.246926 0.261673 127 127 0
-0.334825 0.864003 -0.135327 153 0 76
0.318495 0.301160 -0.358261 153 0 76
-0.336900 -0.189143 -0.024600 153 0 76
-0.336900 -0.164855 -0.311575 153 0 76
-0.310511 0.389317 -0.358256 153 0 76
-0.177084 -0.354371 0.254858 127 127 0
0.312238 -0.482311 -0.358261 153 0 76
0.051003 0.416876 0.255499 255 0 0
0.352312 0.552382 0.012096 153 0 76
0.352426 0.809352 -0.103389 153 0 76
0.352426 -0.059572 -0.284401 153 0 76
0.352426 -0.528371 -0.076202 153 0 76
0.226315 -0.741343 -0.358261 153 0 76
0.193977 0.048985 -0.358261 153 0 76
0.163176 0.361480 -0.358261 153 0 76
-0.118446 -0.344073 -0.358261 153 0 76
0.352426 0.338112 -0.033909 153 0 76
-0.336900 0.593223 0.079626 153 0 76
0.065511 -0.839331 -0.358261 153 0 76
-0.282177 -0.923817 0.273805 127 127 0
0.144549 0.869534 0.073453 153 0 76
-0.336900 0.013096 -0.171361 153 0 76
-0.178279 -0.507255 -0.358261 153 0 76
-0.336900 -0.037472 -0.090307 153 0 76
0.197132 -0.798620 0.254857 127 127 0
0.352426 0.607885 -0.161368 153 0 76
0.301474 -0.794061 -0.358261 153 0 76
0.186929 0.653383 0.254858 255 0 0
-0.331772 0.589236 -0.353540 153 0 76
-0.095713 0.186981 -0.358261 153 0 76
0.352426 -0.092497 -0.188827 153 0 76
-0.336900 -0.851117 0.210084 127 127 0
0.352426 -0.526725 -0.302641 153 0 76
0.080383 -0.707065 -0.358261 153 0 76
-0.157855 -0.831493 -0.358261 153 0 76
-0.336900 -0.579778 -0.010337 153 0 76
0.352426 -0.874809 -0.222355 153 0 76
-0.336900 0.810399 -0.203515 153 0 76
-0.336900 -0.628925 0.066691 153 0 76
0.161346 -0.179046 0.254858 127 127 0
-0.063449 0.870534 0.213023 255 0 0
0.267081 0.314606 0.266734 0 255 0
0.352426 -0.891864 0.042845 153 0 76
0.088860 -0.407791 -0.358261 153 0 76
-0.336900 0.230483 -0.253837 153 0 76
0.351425 0.114201 -0.185829 153 0 76
-0.273466 0.346492 -0.358261 153 0 76
-0.310118 -0.740644 0.265501 127 127 0
0.293577 0.869534 -0.151634 153 0 76
-0.336900 0.679870 -0.117299 153 0 76
-0.336900 -0.510711 -0.311224 153 0 76
0.167961 0.869534 0.138519 153 0 76
0.348738 -0.882951 0.242392 153 0 76
-0.336900 -0.439432 0.166537 153 0 76
-0.046639 -0.372296 0.254858 127 127 0
0.058542 -0.914052 0.274536 127 127 0
0.215336 0.847804 -0.358128 153 0 76
0.311996 -0.923646 0.102402 153 0 76
-0.043349 0.298544 0.269627 127 0 127
0.096795 -0.599747 0.254858 127 127 0
-0.336728 -0.900864 0.143027 153 0 76
0.002419 -0.627778 0.254858 127 127 0
-0.153096 -0.252062 -0.358261 153 0 76
0.135244 -0.621667 -0.358261 153 0 76
0.167739 -0.923648 0.064338 153 0 76
0.352426 0.183634 0.206510 127 127 0
-0.252043 0.870534 -0.166458 153 0 76
0.314535 0.335502 0.242392 153 0 76
0.319506 0.090035 0.266430 127 127 0
-0.295888 0.870087 0.220444 255 0 0
-0.315905 -0.220791 -0.358100 153 0 76
0.352426 -0.193387 0.067424 153 0 76
0.189630 0.663816 -0.358261 153 0 76
0.108251 0.149251 -0.358261 153 0 76
-0.099775 -0.385161 0.254858 127 127 0
0.252587 -0.427448 0.255947 127 127 0
-0.336900 -0.257504 0.207688 127 127 0
-0.283956 -0.831581 0.267959 127 127 0
-0.115742 0.081464 -0.358261 153 0 76
0.213028 0.578089 -0.358261 153 0 76
-0.212383 0.398746 -0.358261 153 0 76
0.352426 -0.798431 0.148540 153 0 76
-0.206403 0.245660 0.261235 127 127 0
0.352426 0.390071 0.020041 153 0 76
-0.276825 -0.923648 -0.037523 153 0 76
0.351172 0.424237 0.237181 255 0 0
0.185833 -0.923648 0.161796 153 0 76
0.292769 0.752710 0.265761 255 0 0
-0.139326 0.766972 0.258691 255 0 0
-0.336799 0.201333 -0.335495 153 0 76
0.351425 -0.319104 0.162238 153 0 76
0.352365 -0.236723 -0.328372 153 0 76
0.348593 -0.324372 0.253270 127 127 0
-0.336900 0.419430 0.190117 153 0 76
-0.335969 -0.911847 -0.312386 153 0 76
0.125294 0.870313 -0.147440 153 0 76
0.352426 -0.527150 0.054665 153 0 76
-0.336900 -0.751805 0.005747 153 0 76
-0.104357 -0.603239 -0.358261 153 0 76
0.352426 0.713032 -0.154339 153 0 76
0.140090 0.869534 0.209289 255 0 0
0.352426 -0.884623 -0.171112 153 0 76
-0.336900 -0.127516 0.158325 153 0 76
0.079828 0.865323 0.267427 255 0 0
0.001139 -0.923648 -0.040828 153 0 76
-0.094390 -0.148275 0.254858 127 127 0
-0.336900 0.437980 0.084103 153 0 76
0.323718 -0.564457 -0.358261 153 0 76
-0.137150 -0.862857 0.242392 153 0 76
0.298330 -0.251721 -0.358261 153 0 76
0.288191 -0.923648 -0.192010 153 0 76
-0.336898 0.834664 0.217669 255 0 0
-0.214680 0.870534 -0.217946 153 0 76
-0.336855 0.813374 -0.326689 153 0 76
-0.227595 -0.924216 0.200987 153 0 76
0.352426 -0.684460 -0.035281 153 0 76
0.037929 0.870534 -0.181044 153 0 76
0.137187 -0.776804 -0.358261 153 0 76
-0.022270 -0.582229 -0.358261 153 0 76
-0.149788 0.831674 0.275034 255 0 0
-0.197946 -0.161918 -0.358261 153 0 76
0.352426 -0.665193 -0.135012 153 0 76
0.352425 -0.227756 0.155343 153 0 76
0.303278 0.529452 -0.358261 153 0 76
-0.262126 -0.406827 0.261420 127 127 0
0.352426 -0.167348 -0.246424 153 0 76
0.230097 0.097799 0.254923 127 127 0
0.319903 0.866722 -0.349126 153 0 76
0.080318 -0.310395 -0.358261 153 0 76
0.247754 -0.895864 0.242392 153 0 76
0.352426 0.745682 -0.189517 153 0 76
-0.020917 0.758579 0.256029 255 0 0
-0.336900 0.763379 -0.005063 153 0 76
-0.336899 0.828466 0.069093 153 0 76
0.319134 -0.854671 -0.358261 153 0 76
-0.209918 0.081866 -0.358261 153 0 76
-0.336225 -0.119117 0.236437 127 127 0
0.205900 0.840830 0.274730 255 0 0
0.188182 -0.923648 0.011880 153 0 76
0.351754 -0.479785 0.217560 127 127 0
0.106417 -0.741212 0.254858 127 127 0
0.302529 -0.166242 0.266824 127 127 0
-0.336900 0.689085 -0.314393 153 0 76
0.352374 0.841134 0.102791 153 0 76
0.305927 -0.532265 0.267288 127 127 0
0.226926 -0.858778 -0.358261 153 0 76
-0.336900 -0.155163 -0.192770 153 0 76
0.014109 0.555572 -0.358261 153 0 76
0.052036 -0.923648 0.096439 153 0 76
-0.303140 0.371092 0.242392 153 0 76
0.352122 0.851589 -0.039855 153 0 76
0.163643 0.083291 0.254858 127 127 0
0.352426 -0.566200 -0.245996 153 0 76
0.033667 0.869534 0.143632 153 0 76
0.351425 -0.391537 0.168318 153 0 76
0.001037 -0.535553 0.254858 127 127 0
-0.003103 -0.655220 -0.358261 153 0 76
-0.336900 -0.467128 -0.284976 153 0 76
-0.006154 -0.899651 0.242392 153 0 76
-0.306948 0.870530 -0.246828 153 0 76
-0.155521 -0.516194 0.254858 127 127 0
-0.336900 -0.343237 0.030754 153 0 76
0.351586 -0.558778 0.187700 153 0 76
-0.265136 -0.463763 -0.358261 153 0 76
-0.298353 0.531036 0.266844 255 0 0
0.352426 0.614823 0.081474 153 0 76
-0.336109 -0.310894 -0.342583 153 0 76
-0.336308 -0.441413 0.235412 127 127 0
0.091887 0.278655 -0.358261 153 0 76
-0.085780 -0.712143 0.254858 127 127 0
0.352426 0.527573 -0.026625 153 0 76
-0.012106 -0.404332 0.254858 127 127 0
-0.211705 -0.356414 -0.358261 153 0 76
-0.132092 -0.923648 -0.050679 153 0 76
0.266070 -0.116294 -0.358261 153 0 76
0.244012 0.248792 -0.358261 153 0 76
0.286792 -0.000332 0.264165 127 127 0
0.034859 0.507480 0.254858 255 0 0
0.352426 -0.402562 0.035636 153 0 76
-0.209959 0.869534 0.068236 153 0 76
0.087646 -0.083814 -0.358261 153 0 76
0.351805 0.559394 0.072849 153 0 76
0.352426 -0.458721 -0.018892 153 0 76
-0.336900 0.679953 0.143329 153 0 76
-0.336900 0.018984 0.019662 153 0 76
-0.336900 -0.804702 -0.102765 153 0 76
-0.336900 -0.575316 0.147047 153 0 76
-0.336900 -0.768857 0.214127 127 127 0
0.352426 0.145212 0.071693 153 0 76
0.351489 -0.135361 -0.343370 153 0 76
0.352426 0.050220 0.002597 153 0 76
0.009421 0.696826 0.254858 255 0 0
0.030904 0.591080 0.254858 255 0 0
0.352426 -0.340137 -0.239374 153 0 76
-0.064273 0.828356 0.242392 153 0 76
0.107729 -0.643874 0.254858 127 127 0
-0.024451 0.825295 -0.358261 153 0 76
-0.336900 -0.645132 -0.122196 153 0 76
-0.058594 -0.169716 -0.358261 153 0 76
0.352426 -0.148790 0.209039 127 127 0
-0.336413 0.682917 0.232191 255 0 0
-0.336900 0.237861 0.074030 153 0 76
-0.235915 -0.923648 0.109248 153 0 76
-0.336900 -0.558674 -0.078644 153 0 76
-0.017280 0.089112 -0.358261 153 0 76
0.352426 -0.128916 0.018966 153 0 76
-0.145644 -0.538922 -0.358261 153 0 76
-0.121220 0.551246 0.254858 255 0 0
0.028918 -0.005098 -0.358261 153 0 76
0.352426 -0.169091 -0.026772 153 0 76
-0.336900 -0.656315 0.102632 153 0 76
-0.217317 0.295744 -0.358261 153 0 76
-0.336900 -0.703814 0.070890 153 0 76
-0.336900 0.163119 -0.071562 153 0 76
0.227878 0.869637 0.223347 255 0 0
0.351945 0.005619 -0.062071 153 0 76
-0.164629 0.870534 -0.192589 153 0 76
-0.336900 0.492886 -0.200381 153 0 76
-0.336781 -0.902699 0.235741 127 127 0
-0.336900 0.058984 0.048632 153 0 76
-0.167830 0.870534 0.156822 153 0 76
0.027255 -0.923648 0.011817 153 0 76
0.352426 0.691984 0.153409 153 0 76
-0.310889 0.296667 0.242392 153 0 76
0.352426 -0.211969 -0.215752 153 0 76
0.037374 0.629206 -0.358261 153 0 76
0.203917 0.098214 -0.358261 153 0 76
0.351425 0.282103 -0.226198 153 0 76
0.100787 0.441630 0.254859 255 0 0
0.150525 -0.427465 0.254858 127 127 0
0.345924 -0.921288 -0.251348 153 0 76
0.091229 -0.472462 0.254858 127 127 0
0.196950 0.490940 0.254858 255 0 0
0.352426 0.427031 -0.148982 153 0 76
0.176516 -0.653732 0.254858 127 127 0
0.124907 0.869534 0.016686 153 0 76
0.268182 0.510695 0.258677 255 0 0
0.325154 -0.923640 -0.160770 153 0 76
0.352426 0.735095 0.010643 153 0 76
0.322662 -0.923641 0.058621 153 0 76
-0.228151 0.870534 -0.127632 153 0 76
-0.071651 -0.925406 0.208730 153 0 76
-0.336900 -0.055336 0.169758 153 0 76
-0.100050 -0.513010 -0.358261 153 0 76
0.067864 0.227956 -0.358261 153 0 76
-0.336900 0.690431 -0.073817 153 0 76
-0.336900 0.601210 -0.063957 153 0 76
0.352426 -0.677833 0.125394 153 0 76
0.008155 -0.034960 0.254858 127 127 0
-0.247688 0.648979 -0.358261 153 0 76
0.213879 -0.648567 -0.358261 153 0 76
0.247985 0.735865 -0.358261 153 0 76
-0.337703 0.235736 0.221344 127 127 0
-0.221183 -0.542144 -0.358261 153 0 76
0.352426 -0.224627 0.029891 153 0 76
0.267794 -0.923648 -0.051613 153 0 76
-0.336900 -0.240207 -0.206254 153 0 76
-0.083782 -0.846193 0.261177 127 127 0
0.277923 0.165277 0.261331 127 127 0
-0.227078 -0.051177 -0.358261 153 0 76
-0.106303 -0.923648 -0.314919 153 0 76
0.258445 -0.245660 0.256631 127 127 0
-0.335584 -0.913594 -0.173207 153 0 76
-0.336900 -0.837116 -0.191071 153 0 76
-0.336545 0.550658 0.228140 255 0 0
0.270090 0.870508 -0.321178 153 0 76
-0.045459 0.476235 -0.358261 153 0 76
0.035458 0.104618 -0.358261 153 0 76
0.351425 0.114869 -0.241202 153 0 76
0.319478 0.159003 -0.358261 153 0 76
-0.218718 -0.591051 -0.358261 153 0 76
-0.269933 -0.923648 -0.110809 153 0 76
0.352325 -0.708145 -0.334075 153 0 76
0.314390 0.685689 -0.358261 153 0 76
-0.336900 -0.524664 0.141204 153 0 76
0.124669 -0.923648 -0.209335 153 0 76
0.298112 -0.862934 0.272837 127 127 0
-0.015327 -0.791087 0.254858 127 127 0
0.312694 0.248984 0.267862 127 127 0
0.352426 -0.806053 -0.122429 153 0 76
0.352347 0.788328 -0.313083 153 0 76
0.219323 0.793586 0.268852 255 0 0
-0.104308 -0.930583 0.272695 127 127 0
-0.336900 0.123078 -0.099112 153 0 76
-0.051792 0.870534 0.058829 153 0 76
-0.312961 -0.590201 -0.358185 153 0 76
-0.336900 -0.540726 0.061557 153 0 76
0.071914 -0.158640 0.254858 127 127 0
-0.336900 -0.229063 -0.078090 153 0 76
-0.130552 0.274528 0.268566 127 0 127
-0.301765 -0.901214 -0.358143 153 0 76
-0.238571 0.694190 0.256241 255 0 0
-0.062730 0.484798 0.254858 255 0 0
-0.336900 -0.112543 0.032453 153 0 76
0.008904 -0.316803 0.254858 127 127 0
0.346566 -0.622565 0.257329 127 127 0
-0.336900 -0.742038 0.139239 153 0 76
0.352426 -0.149377 0.140971 153 0 76
0.108775 0.600227 -0.358261 153 0 76
-0.284102 0.241457 0.267519 127 0 127
-0.238978 -0.923648 0.037422 153 0 76
-0.133263 -0.158686 -0.358261 153 0 76
0.352426 0.251240 -0.039228 153 0 76
0.260074 0.429217 -0.358261 153 0 76
-0.038003 0.870534 -0.179650 153 0 76
0.318540 0.829533 0.242392 153 0 76
0.287460 -0.923648 -0.102711 153 0 76
-0.336900 -0.177012 -0.122451 153 0 76
-0.176424 -0.661306 -0.358261 153 0 76
0.352426 0.313439 0.053828 153 0 76
-0.019379 0.373862 0.269526 0 255 0
-0.204060 0.805324 -0.358261 153 0 76
-0.204108 -0.898642 0.274673 127 127 0
0.216522 -0.936651 0.237965 127 127 0
-0.031563 0.562957 -0.358261 153 0 76
-0.243056 0.779602 0.264649 255 0 0
0.352426 0.342210 0.147652 153 0 76
-0.135211 0.869545 0.019689 153 0 76
-0.336900 -0.250390 0.011432 153 0 76
-0.017406 -0.817655 -0.358261 153 0 76
0.322455 0.484956 -0.358261 153 0 76
0.247273 -0.923648 0.023218 153 0 76
0.312516 -0.048861 0.266945 127 127 0
0.010005 -0.717288 0.254858 127 127 0
0.113203 -0.923648 -0.014640 153 0 76
-0.200414 -0.923648 -0.221679 153 0 76
0.352143 0.582132 -0.237146 153 0 76
0.352426 -0.421956 -0.305900 153 0 76
-0.095442 0.870418 -0.326340 153 0 76
-0.326055 -0.812390 -0.357565 153 0 76
-0.336900 -0.277362 -0.057367 153 0 76
-0.029194 0.641886 -0.358261 153 0 76
-0.084298 0.337654 -0.358261 153 0 76
0.168640 0.870534 -0.226288 153 0 76
0.352426 -0.868296 -0.106867 153 0 76
-0.262055 -0.649181 -0.358261 153 0 76
0.081847 -0.309053 0.254858 127 127 0
-0.336900 -0.784345 0.035347 153 0 76
0.352133 -0.906478 -0.068970 153 0 76
-0.071051 -0.923648 0.010290 153 0 76
-0.278232 -0.784253 0.265697 127 127 0
-0.336900 0.642786 -0.139844 153 0 76
0.285941 0.869534 0.085877 153 0 76
-0.232874 0.319916 0.265336 0 255 0
0.205763 -0.923648 -0.316600 153 0 76
-0.196849 -0.923648 0.013533 153 0 76
-0.216407 -0.711592 0.254982 127 127 0
0.351545 0.155643 -0.306965 153 0 76
-0.336900 -0.311743 -0.254261 153 0 76
0.322416 0.869805 0.210839 255 0 0
-0.336892 0.739489 -0.320884 153 0 76
0.351754 0.644064 -0.313851 153 0 76
-0.099436 -0.293352 0.254858 127 127 0
-0.023593 0.177887 -0.358261 153 0 76
-0.336900 0.151488 0.182007 153 0 76
0.013604 -0.256329 0.254858 127 127 0
0.009823 -0.873231 0.273505 127 127 0
0.209152 0.869534 0.052019 153 0 76
0.352426 -0.252122 -0.137175 153 0 76
-0.045532 -0.662887 -0.358261 153 0 76
-0.173362 -0.211704 0.254858 127 127 0
-0.336900 0.234137 0.169893 153 0 76
-0.043449 -0.605202 0.254858 127 127 0
-0.336900 0.252911 -0.167424 153 0 76
-0.336900 0.760226 -0.246917 153 0 76
0.352403 0.044737 0.218135 127 127 0
0.351425 0.370433 -0.264495 153 0 76
-0.336900 0.077879 0.162999 153 0 76
-0.336900 0.102574 0.033725 153 0 76
-0.336900 -0.277798 -0.312287 153 0 76
0.178790 -0.401491 -0.358261 153 0 76
-0.029554 0.043037 -0.358261 153 0 76
-0.057347 0.620244 0.254858 255 0 0
0.187022 -0.723990 -0.358261 153 0 76
-0.045926 -0.054557 -0.358261 153 0 76
-0.048916 0.870534 -0.087427 153 0 76
-0.030440 0.654758 0.254858 255 0 0
-0.030925 0.176582 0.254858 127 127 0
-0.115531 0.793262 -0.358261 153 0 76
-0.336900 -0.569066 -0.189688 153 0 76
0.351425 0.211617 -0.288734 153 0 76
-0.336900 0.726527 -0.159832 153 0 76
0.352426 -0.648793 -0.185284 153 0 76
0.183605 0.869534 -0.074430 153 0 76
-0.336900 -0.709223 -0.125750 153 0 76
0.294843 -0.924398 0.273762 127 127 0
-0.318824 -0.894667 0.273810 127 127 0
0.208876 -0.869284 0.242392 153 0 76
0.348938 0.494640 0.252160 255 0 0
-0.225406 -0.447866 -0.358261 153 0 76
0.351691 -0.389617 0.226465 127 127 0
-0.059830 0.412703 -0.358261 153 0 76
0.352426 0.103562 0.144937 153 0 76
0.192240 0.481775 -0.358261 153 0 76
-0.336900 0.080039 -0.036763 153 0 76
0.208745 -0.031698 0.254858 127 127 0
-0.317094 -0.923544 -0.023322 153 0 76
-0.336900 0.469051 0.008634 153 0 76
-0.231180 0.046716 0.255357 127 127 0
0.352426 0.821618 -0.009484 153 0 76
-0.255792 -0.862402 0.242392 153 0 76
0.169748 -0.035866 -0.358261 153 0 76
0.352426 -0.190097 -0.313923 153 0 76
0.352046 -0.539020 0.147777 153 0 76
-0.265898 -0.739610 -0.358261 153 0 76
-0.006918 0.835362 0.275364 255 0 0
0.352398 0.443260 0.083147 153 0 76
-0.144771 -0.060521 -0.358261 153 0 76
-0.157878 0.525660 -0.358261 153 0 76
-0.336652 -0.064702 0.224836 127 127 0
0.281410 -0.934004 0.233068 127 127 0
0.080047 -0.896451 0.242392 153 0 76
-0.336900 0.161830 -0.264318 153 0 76
-0.336900 0.408029 -0.020912 153 0 76
0.273497 -0.923648 -0.231812 153 0 76
-0.230984 -0.678063 -0.358261 153 0 76
0.139636 0.723351 0.254857 255 0 0
0.218065 -0.539496 0.254858 127 127 0
0.174148 -0.923648 -0.225173 153 0 76
0.021550 0.714480 -0.358261 153 0 76
-0.336900 0.505368 0.204200 255 0 0
0.352040 -0.259219 0.117416 153 0 76
0.304297 -0.628419 -0.358261 153 0 76
0.047304 -0.935103 0.235101 127 127 0
-0.029919 -0.930817 0.226457 127 127 0
-0.336900 -0.031897 0.000733 153 0 76
0.241506 -0.175310 0.255130 127 127 0
-0.188146 0.187974 0.254858 127 127 0
0.105495 -0.910676 0.274673 127 127 0
-0.336900 -0.001831 0.101292 153 0 76
0.352426 0.485750 -0.071291 153 0 76
0.143151 -0.923648 0.111587 153 0 76
0.352426 0.744326 -0.231686 153 0 76
0.075317 0.869534 0.018921 153 0 76
0.352426 -0.260140 -0.046602 153 0 76
0.297879 0.629963 0.266189 255 0 0
0.310339 0.134016 0.267105 127 127 0
-0.336900 -0.164043 0.137322 153 0 76
0.352426 0.658078 -0.216617 153 0 76
0.352426 -0.416878 0.075243 153 0 76
-0.336900 -0.611278 0.172374 153 0 76
-0.336900 0.470392 -0.145314 153 0 76
-0.193177 -0.496880 0.254858 127 127 0
0.135595 0.796946 -0.358261 153 0 76
0.352426 0.241391 0.136004 153 0 76
0.190576 0.157331 -0.358261 153 0 76
0.234788 0.347079 0.266704 0 255 0
0.342946 0.547724 0.259661 255 0 0
0.302568 -0.923648 0.154010 153 0 76
-0.336899 -0.883085 -0.092139 153 0 76
-0.336900 -0.713378 0.022598 153 0 76
0.160628 0.511914 0.254858 255 0 0
-0.047811 0.529206 0.254858 255 0 0
-0.240805 0.829381 -0.358261 153 0 76
0.199477 0.870534 -0.277645 153 0 76
0.352426 -0.377179 -0.090977 153 0 76
0.087376 0.869699 -0.060892 153 0 76
0.352426 -0.038067 0.060356 153 0 76
0.089870 0.064719 -0.358261 153 0 76
-0.336900 0.776446 -0.099551 153 0 76
0.352426 0.818873 0.061719 153 0 76
-0.284728 -0.240528 0.266511 127 127 0
0.158452 0.263230 -0.358261 153 0 76
0.352426 -0.381772 -0.288316 153 0 76
0.352425 0.697732 -0.252912 153 0 76
-0.305267 -0.923643 0.046715 153 0 76
-0.336900 0.237833 -0.296387 153 0 76
-0.045100 0.870534 -0.309843 153 0 76
0.192433 -0.756524 0.254858 127 127 0
-0.212423 0.144013 0.254892 127 127 0
0.352426 -0.774671 -0.310115 153 0 76
-0.139977 -0.581517 -0.358261 153 0 76
-0.336900 -0.679461 -0.002921 153 0 76
-0.336900 -0.865895 0.080349 153 0 76
-0.288794 -0.276013 -0.358261 153 0 76
-0.067971 0.825203 -0.358261 153 0 76
-0.188942 0.419279 0.254958 255 0 0
0.352426 -0.740733 0.056780 153 0 76
0.352426 0.495583 0.010191 153 0 76
0.077148 -0.923648 -0.088969 153 0 76
0.352426 -0.797740 -0.185646 153 0 76
0.333517 0.869605 -0.122278 153 0 76
-0.301009 0.614318 0.266634 255 0 0
0.352426 0.827410 0.161015 153 0 76
-0.336900 0.424355 -0.147363 153 0 76
0.352426 -0.596683 -0.200656 153 0 76
-0.336900 -0.395961 -0.236444 153 0 76
-0.098824 -0.181807 -0.358261 153 0 76
-0.336900 -0.675821 0.159766 153 0 76
-0.206533 -0.313429 -0.358261 153 0 76
-0.037033 -0.922340 0.273781 127 127 0
-0.186431 0.108756 0.254858 127 127 0
-0.336900 0.721319 0.201203 255 0 0
-0.336900 -0.431499 0.007149 153 0 76
-0.229825 0.748806 -0.358261 153 0 76
-0.336900 0.278124 0.083379 153 0 76
-0.336900 0.810583 0.165460 153 0 76
-0.171368 -0.923648 -0.128523 153 0 76
0.233541 0.138943 0.254986 127 127 0
-0.294850 0.484484 0.267120 255 0 0
-0.336900 -0.368709 -0.159150 153 0 76
0.222608 -0.923648 0.092885 153 0 76
-0.163734 0.842019 -0.358203 153 0 76
0.216414 0.869534 0.130377 153 0 76
-0.180088 -0.613651 -0.358261 153 0 76
-0.336900 -0.008281 -0.276260 153 0 76
-0.336900 -0.603666 -0.282031 153 0 76
0.352426 -0.280282 -0.087058 153 0 76
-0.157002 -0.293035 -0.358261 153 0 76
0.101517 0.364575 -0.358261 153 0 76
0.193788 0.442134 0.254859 255 0 0
0.352213 -0.757489 0.225736 127 127 0
0.093223 0.042099 0.254858 127 127 0
-0.336896 -0.845545 -0.320252 153 0 76
0.352398 0.840921 0.202305 255 0 0
-0.336900 0.368834 0.136136 153 0 76
0.352426 -0.757685 0.017136 153 0 76
-0.019674 0.400623 -0.358261 153 0 76
0.224270 -0.218109 -0.358261 153 0 76
0.342012 0.869226 -0.266712 153 0 76
0.352426 0.696758 0.086950 153 0 76
-0.336900 0.523864 0.065206 153 0 76
0.352021 0.678400 0.232735 255 0 0
0.147194 -0.903521 -0.358113 153 0 76
-0.204685 -0.923648 -0.045490 153 0 76
-0.070751 -0.105233 -0.358261 153 0 76
0.352425 -0.231510 0.207343 127 127 0
-0.336900 0.034416 -0.208055 153 0 76
0.352426 -0.836111 -0.016062 153 0 76
0.049687 0.703876 0.254858 255 0 0
-0.336900 0.317568 0.171213 153 0 76
0.035316 0.232926 0.257552 127 127 0
-0.336900 -0.741486 0.098408 153 0 76
0.352202 0.425049 0.154300 153 0 76
0.222450 -0.917071 -0.353269 153 0 76
-0.336900 -0.552429 -0.236718 153 0 76
0.052004 -0.923648 -0.151178 153 0 76
0.351100 -0.179900 0.244113 127 127 0
0.268865 0.831335 0.274239 255 0 0
-0.248301 -0.923648 -0.306825 153 0 76
-0.336491 0.173214 0.229778 127 127 0
-0.336900 0.576968 -0.189581 153 0 76
-0.120741 -0.636376 0.254858 127 127 0
-0.186617 -0.080300 -0.358261 153 0 76
0.199993 -0.261826 -0.358261 153 0 76
-0.032990 -0.448447 0.254858 127 127 0
-0.267956 0.073906 0.263223 127 127 0
-0.055698 -0.737958 -0.358261 153 0 76
-0.336900 -0.487197 -0.191194 153 0 76
0.352426 0.562864 -0.194794 153 0 76
0.135493 0.484882 -0.358261 153 0 76
-0.172465 -0.093076 0.254858 127 127 0
-0.200658 -0.871511 -0.358261 153 0 76
-0.336900 -0.493743 0.059080 153 0 76
-0.034885 0.724311 -0.358261 153 0 76
-0.336900 -0.320410 0.069103 153 0 76
-0.087853 -0.909108 0.242392 153 0 76
0.352426 -0.630645 -0.051510 153 0 76
-0.336900 0.422234 -0.283559 153 0 76
-0.336900 0.418326 -0.085806 153 0 76
0.351739 0.222795 -0.151812 153 0 76
0.352426 -0.541777 -0.035071 153 0 76
0.211818 -0.356577 -0.358261 153 0 76
-0.317422 0.700029 0.263652 255 0 0
-0.336900 0.504914 0.149884 153 0 76
-0.243867 -0.647390 0.257015 127 127 0
0.307376 0.392420 0.267920 0 255 0
0.107028 0.869534 0.096170 153 0 76
-0.012283 0.870534 -0.247340 153 0 76
-0.336900 -0.591160 -0.126576 153 0 76
0.044641 -0.329905 -0.358261 153 0 76
-0.038724 -0.255779 -0.358261 153 0 76
0.197126 0.277556 -0.358261 153 0 76
-0.336900 -0.424297 -0.032605 153 0 76
0.352134 0.627818 0.228387 255 0 0
-0.336900 0.080523 0.118612 153 0 76
0.231659 0.028165 -0.358261 153 0 76
0.351538 -0.313348 0.204049 127 127 0
0.080135 0.743498 0.255144 255 0 0
-0.102588 -0.923648 -0.084510 153 0 76
-0.336900 0.085560 -0.214891 153 0 76
0.352426 -0.196694 -0.090362 153 0 76
0.350931 0.200407 0.245777 127 127 0
0.352426 0.701977 -0.115580 153 0 76
0.063685 0.793971 -0.358261 153 0 76
0.352426 -0.863397 0.120538 153 0 76
0.352426 0.418682 -0.064616 153 0 76
0.071908 -0.923648 0.057439 153 0 76
0.352426 -0.827393 -0.285799 153 0 76
0.324524 0.207075 -0.358261 153 0 76
-0.336900 -0.843576 -0.113003 153 0 76
0.351789 -0.488439 0.147652 153 0 76
-0.336900 -0.811584 -0.271871 153 0 76
-0.336900 0.760292 0.123520 153 0 76
-0.336900 -0.847831 0.168186 153 0 76
0.352425 0.834877 -0.287855 153 0 76
-0.336900 0.291744 -0.187783 153 0 76
0.098234 0.201662 -0.358261 153 0 76
-0.336900 0.578772 0.133151 153 0 76
-0.336900 -0.308809 0.162968 153 0 76
0.352146 -0.040544 -0.172079 153 0 76
-0.061627 -0.836183 -0.358261 153 0 76
0.352426 0.362187 0.087644 153 0 76
-0.336806 0.014622 -0.334287 153 0 76
0.352259 0.128874 0.223894 127 127 0
0.352086 0.439343 -0.200496 153 0 76
0.073612 -0.018234 0.254858 127 127 0
-0.159161 -0.779669 0.254858 127 127 0
-0.028150 0.870470 0.129258 153 0 76
0.343332 0.320611 0.265848 255 0 0
-0.053453 -0.554586 -0.358261 153 0 76
-0.336900 0.750087 0.040505 153 0 76
-0.151274 0.854729 0.242392 153 0 76
0.352426 -0.211221 -0.149251 153 0 76
-0.336900 -0.399334 0.155507 153 0 76
0.114224 -0.923648 -0.170751 153 0 76
-0.024297 -0.201945 -0.358261 153 0 76
0.181826 0.277559 0.268345 127 0 127
-0.116473 0.709273 -0.358261 153 0 76
0.017898 0.423006 -0.358261 153 0 76
0.144324 -0.266443 0.254858 127 127 0
-0.237368 0.869646 0.116247 153 0 76
0.129265 -0.216301 -0.358261 153 0 76
-0.128029 0.417408 0.255380 255 0 0
-0.336835 0.846843 -0.289146 153 0 76
-0.178672 0.236304 -0.358261 153 0 76
0.352426 -0.253125 -0.218867 153 0 76
-0.336900 0.344909 -0.125520 153 0 76
-0.265412 -0.905682 0.242392 153 0 76
0.352826 0.373287 0.210770 255 0 0
-0.209446 0.598322 0.254857 255 0 0
-0.291685 0.815029 0.273318 255 0 0
-0.036066 -0.247727 0.254858 127 127 0
-0.073572 -0.398989 -0.358261 153 0 76
-0.078631 -0.310344 -0.358261 153 0 76
-0.121952 -0.923648 -0.214444 153 0 76
-0.249340 -0.271000 -0.358261 153 0 76
0.327239 -0.897197 0.274504 127 127 0
0.296692 0.869534 0.035177 153 0 76
0.352426 -0.476628 -0.207335 153 0 76
-0.305899 -0.463961 -0.358261 153 0 76
0.108386 0.584033 0.254858 255 0 0
0.352426 0.762655 -0.067796 153 0 76
0.352426 -0.132710 -0.099690 153 0 76
0.235559 0.869534 0.095622 153 0 76
0.321156 0.807389 -0.358261 153 0 76
-0.296324 -0.923640 0.186585 153 0 76
-0.149879 0.044632 -0.358261 153 0 76
0.126244 -0.514671 0.254858 127 127 0
0.270019 -0.489917 -0.358261 153 0 76
0.068471 -0.923648 -0.042852 153 0 76
-0.336900 -0.748761 -0.308956 153 0 76
-0.336900 0.648736 -0.230731 153 0 76
0.351797 0.561489 0.155323 153 0 76
-0.336900 -0.217672 -0.244081 153 0 76
0.059018 0.347563 -0.358261 153 0 76
0.065431 0.833977 0.242392 153 0 76
-0.009761 -0.923648 0.098739 153 0 76
0.351851 0.424394 0.194210 153 0 76
-0.005402 0.359711 -0.358261 153 0 76
0.043525 0.869663 0.250714 255 0 0
-0.336900 0.360430 -0.222242 153 0 76
-0.336900 -0.713035 -0.067495 153 0 76
0.352426 -0.294788 -0.197882 153 0 76
0.097665 -0.188977 0.254858 127 127 0
-0.151198 -0.923648 -0.271064 153 0 76
0.084137 -0.091344 0.254858 127 127 0
0.227644 -0.496773 0.254879 127 127 0
-0.306183 0.835658 0.242392 153 0 76
0.028644 -0.150688 -0.358261 153 0 76
0.334505 -0.383468 -0.358020 153 0 76
0.325334 -0.295058 0.265638 127 127 0
0.287724 0.869534 0.169314 153 0 76
0.271554 0.042998 -0.358261 153 0 76
0.071045 0.523083 0.254858 255 0 0
-0.038405 -0.338525 -0.358261 153 0 76
-0.140928 0.048598 0.254858 127 127 0
-0.323728 0.285265 -0.357872 153 0 76
-0.336900 0.615324 -0.309022 153 0 76
-0.335651 -0.390938 0.240920 127 127 0
0.160368 -0.350348 0.254858 127 127 0
-0.194068 -0.923648 0.128382 153 0 76
-0.336900 -0.015904 -0.199170 153 0 76
-0.276780 -0.456351 0.265620 127 127 0
-0.054700 0.870167 0.006428 153 0 76
0.140336 -0.923648 -0.083944 153 0 76
0.310898 -0.918942 0.211913 76 0 153
-0.336900 0.362720 -0.024913 153 0 76
-0.267443 0.384241 0.266246 0 255 0
-0.260883 0.465785 0.261017 255 0 0
-0.164304 -0.561869 0.254858 127 127 0
-0.170289 0.869993 0.095428 153 0 76
0.064004 -0.838031 0.257976 127 127 0
-0.139437 0.162587 -0.358261 153 0 76
-0.115339 -0.798752 -0.358261 153 0 76
0.350244 -0.476618 -0.350558 153 0 76
0.205466 -0.923648 -0.183182 153 0 76
0.296365 -0.076916 -0.358261 153 0 76
0.093114 -0.923648 -0.240744 153 0 76
-0.252416 0.086060 -0.358261 153 0 76
0.029555 0.142459 0.254858 127 127 0
-0.336900 -0.748292 -0.148255 153 0 76
0.179543 -0.942443 0.250412 127 127 0
-0.267544 -0.191859 -0.358261 153 0 76
-0.336900 0.076963 -0.079502 153 0 76
-0.256490 0.012403 0.259862 127 127 0
-0.054318 -0.087472 0.254858 127 127 0
-0.336900 0.702194 0.069798 153 0 76
0.350982 -0.008454 0.245238 127 127 0
-0.336900 0.288869 -0.238617 153 0 76
-0.315227 -0.681915 -0.358119 153 0 76
0.131283 -0.273823 -0.358261 153 0 76
0.352426 -0.147331 -0.165336 153 0 76
0.039476 0.313292 -0.358261 153 0 76
-0.179770 -0.173282 0.254858 127 127 0
-0.336900 0.320053 0.023433 153 0 76
0.346944 0.825020 0.268644 255 0 0
0.160527 0.841618 0.242392 153 0 76
-0.088936 0.799357 0.271471 255 0 0
-0.335752 -0.815684 0.240134 127 127 0
0.185326 -0.614912 0.254858 127 127 0
-0.213132 -0.861297 0.268408 127 127 0
0.275451 -0.754122 0.260591 127 127 0
0.352172 0.849285 -0.195789 153 0 76
-0.048907 0.408479 0.257389 255 0 0
-0.274439 0.175665 0.265186 127 127 0
0.065089 0.173129 0.254858 127 127 0
0.000400 -0.449015 -0.358261 153 0 76
-0.136705 -0.674588 -0.358261 153 0 76
0.162914 0.025719 -0.358261 153 0 76
0.063315 -0.248520 0.254858 127 127 0
-0.253685 0.544131 0.259107 255 0 0
-0.089319 0.870320 -0.068274 153 0 76
-0.336900 -0.589016 -0.047990 153 0 76
-0.336900 -0.120763 -0.113132 153 0 76
-0.336900 -0.363192 -0.008656 153 0 76
0.352426 -0.374917 -0.007042 153 0 76
0.031822 -0.381640 0.254858 127 127 0
0.352426 -0.131133 -0.219326 153 0 76
-0.221538 -0.923648 -0.187260 153 0 76
0.234678 -0.698164 0.255006 127 127 0
0.238798 -0.618971 -0.358261 153 0 76
-0.336900 -0.784060 -0.195315 153 0 76
-0.334679 -0.917686 0.108064 153 0 76
-0.293387 -0.384266 -0.358261 153 0 76
-0.281421 -0.064739 0.266035 127 127 0
0.352426 -0.701738 0.045941 153 0 76
-0.137445 -0.902543 0.242392 153 0 76
-0.080638 0.129062 0.254858 127 127 0
-0.136000 0.118193 -0.358261 153 0 76
-0.078308 0.314786 0.270652 0 255 0
-0.045562 0.328145 -0.358261 153 0 76
-0.221950 0.492592 0.255107 255 0 0
-0.144371 -0.021979 -0.358261 153 0 76
-0.336900 -0.086182 -0.261343 153 0 76
-0.218592 0.704174 -0.358261 153 0 76
-0.336900 -0.232569 0.128962 153 0 76
0.352426 0.546672 -0.106469 153 0 76
0.213117 0.231103 0.257129 127 127 0
0.065740 -0.448143 -0.358261 153 0 76
-0.125713 -0.714625 0.254858 127 127 0
-0.336900 0.007148 -0.072316 153 0 76
0.352426 -0.750444 -0.103297 153 0 76
-0.094732 -0.223891 0.254858 127 127 0
-0.336221 -0.566725 0.236470 127 127 0
-0.336900 0.441436 -0.319510 153 0 76
0.350485 0.282088 -0.348730 153 0 76
-0.306343 0.208238 -0.358261 153 0 76
0.329556 0.726423 -0.358159 153 0 76
0.085608 -0.675263 0.254858 127 127 0
-0.300572 -0.695403 0.266668 127 127 0
0.321539 0.380454 -0.358261 153 0 76
0.352426 0.396175 -0.126152 153 0 76
-0.336811 -0.024905 -0.333645 153 0 76
0.044953 0.870534 -0.129249 153 0 76
-0.270430 0.870534 -0.262608 153 0 76
-0.227204 -0.893373 0.242392 153 0 76
0.130701 0.684092 0.254858 255 0 0
0.351487 0.499130 0.131101 153 0 76
-0.129621 0.164694 0.254858 127 127 0
0.152713 0.625340 -0.358261 153 0 76
-0.036946 -0.923648 -0.136160 153 0 76
0.352426 -0.463737 -0.243393 153 0 76
-0.100085 -0.794178 0.254858 127 127 0
0.112068 0.282789 0.269996 127 0 127
-0.115766 0.299502 -0.358261 153 0 76
-0.158262 0.701138 -0.358261 153 0 76
-0.336900 -0.848675 -0.237696 153 0 76
-0.206960 0.841321 0.242392 153 0 76
0.256417 0.330097 -0.358261 153 0 76
-0.190080 -0.625332 0.254858 127 127 0
0.073110 -0.761520 0.254858 127 127 0
0.351425 0.281479 -0.276918 153 0 76
-0.336900 -0.412253 0.065183 153 0 76
0.061359 -0.923648 0.133489 153 0 76
-0.336900 0.010933 -0.020992 153 0 76
-0.336900 -0.517448 -0.163039 153 0 76
0.090672 0.870320 -0.121802 153 0 76
-0.178880 0.271130 0.268410 127 0 127
0.001893 0.869917 -0.021304 153 0 76
-0.072019 -0.895270 0.274509 127 127 0
-0.139308 -0.348896 0.254858 127 127 0
-0.336900 0.377933 -0.098078 153 0 76
0.352426 -0.748136 -0.247356 153 0 76
0.151985 -0.923648 -0.144305 153 0 76
-0.285971 0.582900 -0.358261 153 0 76
-0.157561 -0.649230 0.254858 127 127 0
0.352426 -0.120730 -0.267700 153 0 76
0.022732 -0.190460 -0.358261 153 0 76
-0.196239 0.436138 -0.358261 153 0 76
0.352426 -0.594749 -0.007904 153 0 76
0.352426 -0.828185 0.063836 153 0 76
0.034591 -0.923648 -0.218867 153 0 76
0.104903 -0.341302 0.254858 127 127 0
0.193011 -0.923648 -0.080642 153 0 76
0.273122 -0.650519 0.259978 127 127 0
0.347732 -0.002983 -0.353246 153 0 76
0.351885 0.499295 -0.331822 153 0 76
-0.157376 0.330471 -0.358261 153 0 76
0.004055 0.869930 0.059560 153 0 76
-0.086966 -0.640227 -0.358261 153 0 76
0.352426 0.642444 -0.177636 153 0 76
-0.019246 0.870320 0.200738 255 0 0
0.352426 -0.707395 -0.268632 153 0 76
-0.230801 -0.167052 0.255312 127 127 0
0.007114 0.630955 0.254858 255 0 0
-0.094415 0.870534 -0.154813 153 0 76
0.184505 0.199356 -0.358261 153 0 76
0.352426 -0.066009 0.089121 153 0 76
0.121282 -0.923648 -0.304089 153 0 76
0.351947 0.128371 -0.104986 153 0 76
-0.024532 -0.923648 0.141134 153 0 76
-0.336900 0.756128 -0.136261 153 0 76
-0.102415 0.870492 0.092927 153 0 76
-0.336900 -0.824831 -0.037105 153 0 76
-0.132420 -0.923648 0.083404 153 0 76
0.352426 -0.754568 -0.052011 153 0 76
0.351616 -0.008965 -0.102378 153 0 76
-0.336900 -0.694498 -0.280926 153 0 76
-0.276833 0.869534 -0.010561 153 0 76
0.350085 -0.918182 -0.033154 153 0 76
-0.318357 0.869459 0.141818 153 0 76
-0.032647 -0.552476 0.254858 127 127 0
-0.034745 -0.923648 -0.206038 153 0 76
0.352426 0.438123 -0.029581 153 0 76
0.023273 0.870534 -0.233472 153 0 76
0.352426 -0.592174 0.106985 153 0 76
0.338578 -0.082613 -0.357906 153 0 76
0.352426 0.023175 -0.026707 153 0 76
-0.305468 0.665440 -0.358261 153 0 76
-0.119013 -0.591383 0.254858 127 127 0
0.321185 0.869529 -0.028170 153 0 76
0.352426 0.707878 -0.015314 153 0 76
0.352068 0.707869 -0.291312 153 0 76
0.352426 -0.628991 0.137223 153 0 76
0.222041 0.830537 0.242392 153 0 76
0.255695 -0.900268 -0.358155 153 0 76
0.273342 0.277602 0.268433 127 0 127
-0.336878 -0.893373 -0.033767 153 0 76
-0.336833 0.059644 -0.330092 153 0 76
0.023202 0.803064 0.272267 255 0 0
0.197197 -0.479840 -0.358261 153 0 76
-0.076471 -0.923648 0.135639 153 0 76
0.006159 0.787570 -0.358261 153 0 76
0.026247 -0.571749 -0.358261 153 0 76
-0.072479 -0.761639 0.254858 127 127 0
0.352426 0.158910 0.148573 153 0 76
-0.168596 -0.378190 -0.358261 153 0 76
-0.336900 -0.707261 -0.212282 153 0 76
0.162394 -0.891465 0.274637 127 127 0
0.351425 0.082079 -0.269094 153 0 76
-0.292491 -0.121639 0.267304 127 127 0
-0.336900 -0.820061 0.108633 153 0 76
0.324751 -0.923640 -0.106898 153 0 76
0.018944 0.509711 -0.358261 153 0 76
-0.336900 -0.504645 -0.056743 153 0 76
0.097720 -0.923648 0.143902 153 0 76
0.276486 -0.923648 -0.296351 153 0 76
0.351547 -0.004851 -0.229428 153 0 76
0.117447 0.452139 -0.358261 153 0 76
-0.336899 0.828961 -0.119441 153 0 76
-0.168913 -0.028161 0.254858 127 127 0
-0.336900 0.222553 -0.051071 153 0 76
-0.084719 -0.923648 -0.199275 153 0 76
-0.334673 -0.332785 0.248563 127 127 0
-0.336900 -0.463364 -0.057041 153 0 76
0.207648 0.725839 0.254857 255 0 0
0.352090 0.297440 -0.150804 153 0 76
-0.015518 -0.503950 -0.358261 153 0 76
-0.224545 0.524281 -0.358261 153 0 76
0.352426 -0.033938 0.210978 127 127 0
-0.281238 0.775293 -0.358261 153 0 76
0.352205 0.215699 -0.114128 153 0 76
0.237644 0.817975 -0.358261 153 0 76
-0.336900 0.289385 -0.075826 153 0 76
-0.070720 0.870534 0.146948 153 0 76
-0.239217 -0.773285 0.256318 127 127 0
0.352426 0.416545 0.109049 153 0 76
-0.269600 -0.361783 0.263735 127 127 0
0.125276 -0.940912 0.245839 127 127 0
0.202175 -0.183820 0.254858 127 127 0
-0.336131 0.367570 -0.342457 153 0 76
-0.336900 -0.390281 0.104085 153 0 76
-0.061882 0.171766 -0.358261 153 0 76
0.351509 -0.002626 -0.143450 153 0 76
0.352426 0.086384 0.194693 153 0 76
-0.208375 0.870534 -0.258345 153 0 76
-0.304601 0.870530 -0.167640 153 0 76
0.352426 -0.675695 0.010298 153 0 76
0.352340 0.625330 -0.245229 153 0 76
-0.230280 0.212724 -0.358261 153 0 76
0.352426 -0.789298 0.095898 153 0 76
-0.336900 -0.702277 0.209487 127 127 0
-0.336872 0.278228 -0.324002 153 0 76
0.352426 -0.107979 0.072155 153 0 76
-0.336900 -0.775199 0.163466 153 0 76
0.048833 0.664363 -0.358261 153 0 76
0.267019 0.658693 0.258371 255 0 0
0.000828 -0.315368 -0.358261 153 0 76
-0.336900 0.135549 0.090381 153 0 76
-0.197036 0.344351 0.264966 0 255 0
0.352426 -0.081528 0.153303 153 0 76
0.270563 0.849864 0.242392 153 0 76
0.228272 0.869925 -0.194746 153 0 76
0.352426 -0.435262 0.018598 153 0 76
-0.336900 -0.369668 -0.076299 153 0 76
0.209925 -0.826082 -0.358261 153 0 76
0.224608 -0.827642 0.255688 127 127 0
-0.336514 -0.641498 0.229071 127 127 0
0.225879 -0.450609 -0.358261 153 0 76
0.017312 0.187458 -0.358261 153 0 76
-0.036159 0.564085 0.254858 255 0 0
-0.179058 0.027804 0.254858 127 127 0
-0.079121 -0.876290 -0.358261 153 0 76
0.092368 -0.209554 -0.358261 153 0 76
0.060725 0.870534 -0.288998 153 0 76
0.352426 -0.292417 -0.015867 153 0 76
-0.336899 0.832963 -0.156958 153 0 76
0.352426 -0.831363 -0.085626 153 0 76
0.352426 -0.576711 -0.137521 153 0 76
-0.336846 0.449827 0.218863 255 0 0
0.351722 0.354298 -0.198600 153 0 76
0.133796 0.795735 0.242392 153 0 76
0.352088 -0.338678 0.078291 153 0 76
0.352426 -0.351448 -0.161746 153 0 76
0.351425 0.148235 -0.171194 153 0 76
-0.336900 0.123968 -0.138387 153 0 76
-0.081428 -0.259132 -0.358261 153 0 76
-0.286006 -0.878293 0.274228 127 127 0
0.352426 -0.756452 0.158647 153 0 76
0.117719 -0.923648 0.046861 153 0 76
0.272690 -0.510445 0.259864 127 127 0
-0.296466 -0.326905 -0.358261 153 0 76
0.183581 0.568686 0.254858 255 0 0
0.324526 0.869527 -0.173627 153 0 76
-0.229473 -0.489368 0.255277 127 127 0
-0.194733 0.634351 -0.358261 153 0 76
0.352426 0.125892 0.030298 153 0 76
0.156859 -0.923648 -0.014354 153 0 76
-0.336900 0.558641 0.003801 153 0 76
0.010954 -0.923648 -0.285197 153 0 76
-0.205564 -0.438425 0.254857 127 127 0
0.065267 -0.642828 -0.358261 153 0 76
0.352426 -0.741179 -0.017092 153 0 76
0.057258 0.309707 0.269685 0 255 0
0.101790 0.710530 -0.358261 153 0 76
-0.336900 -0.341805 -0.213272 153 0 76
0.206679 0.163712 0.254858 127 127 0
0.328194 0.430367 0.264906 255 0 0
-0.248796 0.869926 0.151100 153 0 76
-0.240972 0.323554 -0.358261 153 0 76
-0.335174 -0.175961 0.244647 127 127 0
0.042507 -0.923648 -0.105817 153 0 76
0.258891 0.779521 0.263357 255 0 0
-0.336900 0.272430 0.161141 153 0 76
0.058066 -0.388243 -0.358261 153 0 76
-0.336900 -0.448907 -0.167828 153 0 76
0.351856 0.606022 -0.329068 153 0 76
-0.334750 -0.500498 -0.350427 153 0 76
-0.049398 0.870534 -0.214286 153 0 76
0.351576 0.857140 0.040368 153 0 76
-0.050996 -0.335576 0.254858 127 127 0
-0.336899 -0.885698 -0.244311 153 0 76
0.066949 -0.923648 -0.307973 153 0 76
0.352426 -0.067607 -0.108007 153 0 76
-0.077848 0.459580 -0.358261 153 0 76
0.267630 0.558557 0.258532 255 0 0
0.352426 -0.091733 0.015518 153 0 76
0.254206 -0.923648 -0.173671 153 0 76
0.351425 0.411341 -0.250948 153 0 76
0.081418 -0.150785 -0.358261 153 0 76
0.352426 0.763990 0.123974 153 0 76
-0.336900 0.245928 -0.087165 153 0 76
0.352092 0.745657 -0.309967 153 0 76
0.201601 0.801874 -0.358261 153 0 76
0.020050 0.038960 0.254858 127 127 0
0.352426 -0.220584 0.117613 153 0 76
-0.336900 -0.824224 0.006782 153 0 76
-0.336900 0.020716 0.061038 153 0 76
-0.021768 0.336965 0.269419 0 255 0
0.155118 -0.706272 0.254858 127 127 0
-0.336900 0.613490 -0.266617 153 0 76
0.306635 -0.130183 0.267378 127 127 0
-0.336900 0.146956 -0.031438 153 0 76
-0.281956 0.583440 0.266198 255 0 0
-0.336900 0.049645 -0.134297 153 0 76
0.308161 0.869533 -0.071045 153 0 76
-0.336900 -0.470622 0.022095 153 0 76
0.351656 0.564099 0.225642 255 0 0
0.034525 -0.882522 -0.358261 153 0 76
0.138529 0.066433 -0.358261 153 0 76
-0.108646 0.019888 0.254858 127 127 0
0.352426 0.755019 -0.149771 153 0 76
-0.082332 0.870534 -0.232149 153 0 76
0.352426 0.097087 0.095698 153 0 76
-0.336900 0.214947 0.102066 153 0 76
-0.072585 -0.024945 -0.358261 153 0 76
-0.302648 -0.923644 -0.282038 153 0 76
-0.263366 0.299892 0.266043 127 0 127
-0.111000 -0.923648 -0.131304 153 0 76
-0.164854 0.870534 -0.274025 153 0 76
0.308954 -0.700454 0.267209 127 127 0
0.351959 0.497523 0.088781 153 0 76
-0.337670 0.754694 0.216480 255 0 0
0.329500 -0.722301 -0.358161 153 0 76
0.351425 0.046271 -0.198926 153 0 76
0.331931 -0.236050 -0.358093 153 0 76
0.351865 0.559969 -0.329905 153 0 76
0.341151 -0.408804 0.260581 127 127 0
-0.258718 -0.511449 -0.358261 153 0 76
-0.155051 0.716039 0.254858 255 0 0
0.111848 0.869534 0.184048 255 0 0
-0.336900 -0.229897 0.184550 153 0 76
0.283224 -0.299515 0.263025 127 127 0
0.299724 0.869743 -0.249453 153 0 76
-0.336900 -0.757133 -0.227403 153 0 76
-0.336900 0.685231 -0.278587 153 0 76
0.352231 0.854894 0.137730 153 0 76
-0.302366 -0.550658 -0.358261 153 0 76
-0.124691 -0.926647 0.216815 153 0 76
-0.181518 -0.265633 0.254858 127 127 0
0.313384 -0.431827 -0.358261 153 0 76
0.109082 0.870534 -0.185533 153 0 76
-0.336900 0.654051 -0.306599 153 0 76
-0.242172 -0.933648 0.232397 127 127 0
0.015192 -0.076485 0.254858 127 127 0
-0.339800 0.272112 0.230423 127 127 0
0.352426 -0.499825 -0.272778 153 0 76
0.140317 0.869534 -0.054499 153 0 76
0.352426 -0.748616 -0.184797 153 0 76
-0.336900 -0.349816 0.185415 153 0 76
-0.271547 -0.614603 -0.358261 153 0 76
-0.336900 0.720652 -0.208820 153 0 76
-0.336900 -0.165370 0.081470 153 0 76
0.352426 -0.622752 -0.259151 153 0 76
0.253276 -0.923648 -0.119874 153 0 76
-0.336900 -0.635771 -0.246422 153 0 76
0.244860 0.866416 -0.350040 153 0 76
0.251178 -0.423200 -0.358261 153 0 76
-0.309084 -0.210137 0.265759 127 127 0
-0.235890 0.163463 -0.358261 153 0 76
0.032659 -0.607206 0.254858 127 127 0
-0.126194 0.870534 0.201792 255 0 0
0.352426 0.638889 -0.040514 153 0 76
-0.316536 -0.578458 0.263876 127 127 0
0.351425 0.063507 -0.121680 153 0 76
0.064634 0.846713 -0.358143 153 0 76
0.129750 -0.365686 -0.358261 153 0 76
0.355678 0.350466 0.248209 255 0 0
-0.336900 0.456056 -0.067346 153 0 76
-0.058574 0.838505 0.278418 255 0 0
-0.123178 0.389009 -0.358261 153 0 76
-0.336900 0.551171 -0.060013 153 0 76
0.172089 0.855858 0.272993 255 0 0
0.205670 -0.923648 -0.113997 153 0 76
-0.336900 -0.432808 -0.317699 153 0 76
0.352426 -0.386828 -0.170409 153 0 76
0.352426 0.654881 -0.105590 153 0 76
-0.336893 -0.080588 -0.320709 153 0 76
-0.336384 0.856335 0.045141 153 0 76
0.275722 0.099506 -0.358261 153 0 76
-0.318747 -0.839089 0.266404 127 127 0
-0.336351 0.095805 0.234084 127 127 0
0.293151 -0.438963 0.265545 127 127 0
-0.336900 0.180891 0.011432 153 0 76
0.026027 -0.211490 0.254858 127 127 0
-0.336900 -0.679306 -0.050890 153 0 76
0.188844 -0.079540 0.254858 127 127 0
0.352426 -0.190222 0.149266 153 0 76
0.009711 -0.099490 -0.358261 153 0 76
-0.219501 0.561967 0.255052 255 0 0
0.352426 0.192818 0.105228 153 0 76
0.352426 -0.210866 -0.004842 153 0 76
0.039874 -0.336460 0.254858 127 127 0
0.352426 -0.132309 -0.040804 153 0 76
0.323877 -0.152003 -0.358261 153 0 76
-0.029335 0.834700 0.242392 153 0 76
-0.334152 0.209435 0.250297 127 127 0
-0.309375 0.869621 0.186459 255 0 0
0.051532 0.149629 -0.358261 153 0 76
-0.336900 -0.409139 -0.101671 153 0 76
-0.336900 -0.595554 0.082576 153 0 76
-0.336900 -0.129489 -0.038808 153 0 76
0.323316 0.271271 0.242392 153 0 76
-0.336900 -0.476362 0.090668 153 0 76
-0.049055 -0.133272 -0.358261 153 0 76
0.352426 -0.067582 -0.051740 153 0 76
0.061198 -0.870281 0.272395 127 127 0
0.146111 0.869534 0.110639 153 0 76
0.001608 0.024471 -0.358261 153 0 76
0.350595 0.458882 0.244401 255 0 0
0.173759 -0.288611 -0.358261 153 0 76
-0.129425 0.870534 -0.189071 153 0 76
0.316133 -0.862689 0.242392 153 0 76
0.263807 -0.923648 0.169911 153 0 76
-0.302678 -0.941795 0.248479 127 127 0
-0.047380 0.255979 -0.358261 153 0 76
0.351560 0.471572 0.166747 153 0 76
0.129096 0.120226 -0.358261 153 0 76
-0.336900 -0.558682 0.017998 153 0 76
0.352426 0.223311 0.043193 153 0 76
0.298055 0.330204 -0.358261 153 0 76
-0.336900 0.357929 0.094679 153 0 76
-0.332773 -0.137449 -0.352835 153 0 76
-0.221407 0.870534 -0.316288 153 0 76
0.285809 0.474324 0.263851 255 0 0
-0.336900 -0.750033 -0.030262 153 0 76
-0.036739 -0.873337 0.273413 127 127 0
0.019539 -0.465950 0.254858 127 127 0
0.352426 -0.457077 -0.164945 153 0 76
-0.052771 -0.696683 0.254858 127 127 0
0.243156 0.870534 -0.288160 153 0 76
-0.282618 -0.321444 0.266286 127 127 0
0.098986 -0.377039 0.254858 127 127 0
-0.123051 0.520168 -0.358261 153 0 76
-0.161424 0.764332 -0.358261 153 0 76
-0.336900 0.629549 -0.041650 153 0 76
0.209137 -0.923648 -0.046254 153 0 76
0.352265 -0.571500 -0.338894 153 0 76
-0.125776 0.864970 0.267816 255 0 0
0.352426 -0.869946 0.209896 127 127 0
0.086590 0.812453 0.273499 255 0 0
0.310500 0.563896 -0.358261 153 0 76
-0.336900 0.798904 -0.249026 153 0 76
-0.159057 -0.864641 0.269875 127 127 0
0.072651 0.397145 -0.358261 153 0 76
0.329478 0.772972 0.267558 255 0 0
0.218959 -0.266540 0.254858 127 127 0
-0.239298 -0.811585 -0.358261 153 0 76
-0.051850 0.523603 -0.358261 153 0 76
-0.336900 0.192702 -0.247511 153 0 76
-0.194530 -0.923648 0.172685 153 0 76
-0.030333 -0.923648 -0.056474 153 0 76
0.352426 0.724258 -0.063524 153 0 76
-0.182850 0.869929 -0.044971 153 0 76
0.352426 0.217408 -0.024613 153 0 76
0.321106 0.372615 0.242392 153 0 76
-0.336833 0.847123 -0.218798 153 0 76
-0.271760 0.026616 -0.358261 153 0 76
-0.248697 -0.921046 -0.346617 153 0 76
0.352426 -0.013247 0.175795 153 0 76
0.287600 0.712485 0.264423 255 0 0
0.352426 -0.395405 -0.055928 153 0 76
-0.335673 -0.746127 0.240749 127 127 0
-0.033304 -0.188132 0.254858 127 127 0
-0.056761 0.253672 0.264130 127 0 127
0.351860 -0.385297 0.111760 153 0 76
0.352426 0.616236 0.008655 153 0 76
0.140779 -0.449470 -0.358261 153 0 76
0.352426 -0.806626 -0.051730 153 0 76
-0.037861 -0.639693 0.254858 127 127 0
0.034219 -0.923648 -0.029582 153 0 76
0.255387 0.870189 -0.249389 153 0 76
-0.072764 -0.705144 -0.358261 153 0 76
0.250413 -0.927043 0.218538 127 127 0
-0.302291 -0.923644 -0.097659 153 0 76
