ply
format ascii 1.0
element vertex 616
property float x
property float y
property float z
property float nx
property float ny
property float nz
property uchar red
property uchar green
property uchar blue
property float opacity
end_header
-0.399549 0.231247 0.276874 1.000000 0.000000 0.000000 196 202 212 1.000000
0.464367 -0.230569 -0.015304 1.000000 0.000000 0.000000 210 216 226 1.000000
-0.065431 -0.660367 0.133770 0.000000 1.000000 0.000000 200 206 216 1.000000
-0.399549 0.031826 -0.174105 -1.000000 0.000000 0.000000 200 206 216 1.000000
0.464367 0.044033 0.237641 -1.000000 0.000000 0.000000 206 212 222 1.000000
0.419428 -0.660367 -0.301654 0.000000 -1.000000 -0.000000 200 206 216 1.000000
0.136356 -0.060947 0.448386 0.000000 -1.000000 -0.000000 202 208 218 1.000000
-0.004964 -0.217454 -0.361683 0.000000 -1.000000 -0.000000 203 209 219 1.000000
-0.435546 -0.171600 -0.483142 1.000000 0.000000 0.000000 205 211 221 1.000000
0.428370 0.140882 0.015843 1.000000 0.000000 0.000000 202 208 218 1.000000
-0.435546 0.039853 0.002551 -1.000000 0.000000 0.000000 202 208 218 1.000000
-0.395838 0.018847 -0.518147 0.000000 -0.000000 1.000000 202 208 218 1.000000
0.191241 0.607335 -0.452667 0.000000 1.000000 0.000000 208 214 224 1.000000
-0.387428 0.542281 -0.518147 0.000000 0.000000 -1.000000 201 207 217 1.000000
0.311523 -0.217454 0.220588 0.000000 -1.000000 -0.000000 200 206 216 1.000000
0.464367 -0.101458 -0.100981 -1.000000 0.000000 0.000000 199 205 215 1.000000
0.008226 0.607335 0.097618 0.000000 1.000000 0.000000 206 212 222 1.000000
0.094327 -0.517390 0.413066 0.000000 -0.000000 1.000000 205 211 221 1.000000
-0.411763 0.582400 -0.518147 0.000000 0.000000 -1.000000 204 210 220 1.000000
-0.300615 0.446134 0.321310 0.000000 -1.000000 -0.000000 206 212 222 1.000000
-0.435546 0.173077 -0.306535 1.000000 0.000000 0.000000 200 206 216 1.000000
0.195213 0.607335 0.237278 0.000000 -1.000000 -0.000000 206 212 222 1.000000
0.464367 0.034891 0.149030 1.000000 0.000000 0.000000 206 212 222 1.000000
-0.221357 0.446134 0.150323 0.000000 1.000000 0.000000 202 208 218 1.000000
-0.026956 0.514301 0.420892 0.000000 0.000000 -1.000000 202 208 218 1.000000
0.189059 0.607335 -0.146172 0.000000 -1.000000 -0.000000 206 212 222 1.000000
-0.020365 -0.660367 -0.387420 0.000000 1.000000 0.000000 198 204 214 1.000000
-0.372699 0.446134 -0.257512 0.000000 -1.000000 -0.000000 200 206 216 1.000000
-0.301238 -0.175071 -0.497802 0.000000 -0.000000 1.000000 202 208 218 1.000000
0.175905 -0.028081 0.817856 0.000000 1.000000 0.000000 200 206 216 1.000000
0.407740 -0.660367 -0.442100 0.000000 -1.000000 -0.000000 195 201 211 1.000000
-0.006933 -0.660367 0.377374 0.000000 -1.000000 -0.000000 212 218 228 1.000000
-0.435546 0.412971 0.235928 1.000000 0.000000 0.000000 204 210 220 1.000000
0.464367 0.323808 0.364039 1.000000 0.000000 0.000000 202 208 218 1.000000
-0.058351 0.587291 0.420892 0.000000 -0.000000 1.000000 153 61 61 1.000000
0.285248 -0.217454 -0.042483 0.000000 -1.000000 -0.000000 206 212 222 1.000000
-0.399549 0.059499 -0.050332 -1.000000 0.000000 0.000000 204 210 220 1.000000
-0.435546 -0.269388 -0.024845 -1.000000 0.000000 0.000000 201 207 217 1.000000
0.203447 0.607335 0.106227 0.000000 -1.000000 -0.000000 202 208 218 1.000000
-0.385302 0.360984 -0.518147 0.000000 -0.000000 1.000000 196 202 212 1.000000
-0.018949 -0.611930 0.413066 0.000000 -0.000000 1.000000 202 208 218 1.000000
0.046217 -0.183648 -0.084233 0.000000 1.000000 0.000000 142 142 142 1.000000
-0.435546 -0.487114 0.016862 1.000000 0.000000 0.000000 207 213 223 1.000000
-0.079102 -0.217454 0.195847 0.000000 -1.000000 -0.000000 204 210 220 1.000000
-0.435546 -0.437968 -0.475443 -1.000000 0.000000 0.000000 189 195 209 1.000000
0.029433 -0.060947 0.607184 0.000000 1.000000 0.000000 255 255 255 1.000000
0.019000 0.607335 -0.150102 0.000000 1.000000 0.000000 207 213 223 1.000000
-0.164590 0.198090 -0.502497 0.000000 0.000000 -1.000000 202 208 218 1.000000
-0.366891 -0.166374 -0.497802 0.000000 0.000000 -1.000000 202 208 218 1.000000
0.225651 0.292245 -0.518147 0.000000 -0.000000 1.000000 206 212 222 1.000000
-0.120207 0.607335 0.384136 0.000000 1.000000 0.000000 201 207 217 1.000000
-0.399549 0.125215 -0.385471 -1.000000 0.000000 0.000000 198 204 214 1.000000
-0.435546 0.524620 0.019801 1.000000 0.000000 0.000000 206 212 222 1.000000
-0.387081 -0.060947 0.608140 0.000000 1.000000 0.000000 255 255 255 1.000000
0.295195 -0.060947 0.415642 0.000000 -1.000000 -0.000000 200 206 216 1.000000
-0.435546 0.482171 -0.032227 1.000000 0.000000 0.000000 206 212 222 1.000000
-0.435546 -0.305429 0.370886 1.000000 0.000000 0.000000 203 209 219 1.000000
0.332088 0.607335 -0.404389 0.000000 -1.000000 -0.000000 208 214 224 1.000000
-0.187120 -0.375854 -0.518147 0.000000 -0.000000 1.000000 200 206 216 1.000000
-0.394854 -0.204607 -0.190602 1.000000 0.000000 0.000000 188 194 204 1.000000
-0.435546 0.536903 -0.159974 -1.000000 0.000000 0.000000 201 207 217 1.000000
-0.150094 -0.112133 -0.518147 0.000000 -0.000000 1.000000 193 199 209 1.000000
-0.291191 -0.660367 0.003902 0.000000 -1.000000 -0.000000 190 196 210 1.000000
-0.223832 -0.103282 -0.497802 0.000000 0.000000 -1.000000 200 206 216 1.000000
-0.122721 -0.660367 -0.133977 0.000000 -1.000000 -0.000000 190 196 206 1.000000
-0.148978 -0.660367 -0.184982 0.000000 1.000000 0.000000 200 206 216 1.000000
0.428370 0.043211 -0.077518 -1.000000 0.000000 0.000000 190 196 206 1.000000
0.272331 -0.028081 0.660577 0.000000 1.000000 0.000000 205 211 221 1.000000
0.259515 0.446134 0.162577 0.000000 -1.000000 -0.000000 202 208 218 1.000000
-0.435546 -0.036928 0.020846 -1.000000 0.000000 0.000000 199 205 215 1.000000
0.254471 -0.660367 0.268571 0.000000 -1.000000 -0.000000 198 204 214 1.000000
0.065095 -0.542789 -0.518147 0.000000 0.000000 -1.000000 206 212 222 1.000000
0.464367 -0.156670 -0.034739 -1.000000 0.000000 0.000000 194 200 210 1.000000
0.188062 -0.242709 -0.518147 0.000000 0.000000 -1.000000 190 196 206 1.000000
0.416891 -0.100074 0.895405 0.000000 -1.000000 -0.000000 210 216 226 1.000000
0.083676 0.446134 -0.235950 0.000000 1.000000 0.000000 201 207 217 1.000000
-0.159303 0.607335 0.084138 0.000000 -1.000000 -0.000000 202 208 218 1.000000
0.167221 -0.028081 0.770371 0.000000 -1.000000 -0.000000 255 255 255 1.000000
0.459672 -0.054786 0.586133 1.000000 0.000000 0.000000 201 207 217 1.000000
0.173076 -0.060947 0.532166 0.000000 1.000000 0.000000 255 255 255 1.000000
-0.021372 -0.394027 0.413066 0.000000 -0.000000 1.000000 204 210 220 1.000000
0.039157 -0.649325 -0.518147 0.000000 -0.000000 1.000000 201 207 217 1.000000
0.232808 0.564403 -0.518147 0.000000 -0.000000 1.000000 202 208 218 1.000000
0.064297 0.306118 -0.502497 0.000000 0.000000 -1.000000 206 212 222 1.000000
-0.394854 -0.138374 0.104053 -1.000000 0.000000 0.000000 206 212 222 1.000000
0.464367 0.502582 0.366757 1.000000 0.000000 0.000000 201 207 217 1.000000
-0.005007 -0.660367 0.332788 0.000000 -1.000000 -0.000000 212 218 228 1.000000
-0.435546 -0.182363 0.027279 -1.000000 0.000000 0.000000 206 212 222 1.000000
0.384204 -0.060947 0.829423 0.000000 1.000000 0.000000 255 255 255 1.000000
-0.084857 0.446134 -0.217265 0.000000 -1.000000 -0.000000 198 204 214 1.000000
-0.251713 0.607335 0.107044 0.000000 -1.000000 -0.000000 196 202 212 1.000000
-0.368772 -0.028081 0.825773 0.000000 1.000000 0.000000 205 211 221 1.000000
-0.399549 0.131085 -0.059529 -1.000000 0.000000 0.000000 201 207 217 1.000000
0.464367 -0.416589 0.051169 -1.000000 0.000000 0.000000 197 203 213 1.000000
0.227372 -0.200349 -0.518147 0.000000 0.000000 -1.000000 192 198 208 1.000000
-0.006108 -0.060947 0.706003 0.000000 1.000000 0.000000 255 255 255 1.000000
0.372918 -0.611974 0.413066 0.000000 -0.000000 1.000000 202 208 218 1.000000
-0.357655 0.532950 0.420892 0.000000 0.000000 -1.000000 200 206 216 1.000000
-0.394854 -0.039897 -0.449697 -1.000000 0.000000 0.000000 191 197 207 1.000000
-0.435546 0.210970 0.376054 -1.000000 0.000000 0.000000 205 211 221 1.000000
0.145500 0.556577 0.441420 0.906604 0.421983 -0.000000 114 114 114 1.000000
-0.391637 0.079602 -0.518147 0.000000 0.000000 -1.000000 206 212 222 1.000000
0.462701 0.283837 0.413066 0.000000 -0.000000 1.000000 205 211 221 1.000000
-0.286873 -0.060947 0.416078 0.000000 -1.000000 -0.000000 204 210 220 1.000000
0.135013 -0.060947 0.714562 0.000000 1.000000 0.000000 255 255 255 1.000000
0.464367 0.575663 0.103577 1.000000 0.000000 0.000000 202 208 218 1.000000
-0.399549 0.039254 0.095025 1.000000 0.000000 0.000000 206 212 222 1.000000
-0.435546 -0.128021 -0.234503 -1.000000 0.000000 0.000000 203 209 219 1.000000
-0.435546 0.303804 -0.333396 -1.000000 0.000000 0.000000 208 214 224 1.000000
0.420084 0.446134 0.160004 0.000000 1.000000 0.000000 196 202 212 1.000000
-0.399549 0.206582 -0.492632 1.000000 0.000000 0.000000 196 202 212 1.000000
-0.086951 -0.660367 -0.482433 0.000000 -1.000000 -0.000000 200 206 216 1.000000
0.324134 -0.660367 -0.431973 0.000000 -1.000000 -0.000000 199 205 215 1.000000
0.464367 -0.066779 0.228785 1.000000 0.000000 0.000000 204 210 220 1.000000
0.464367 -0.623650 0.116250 1.000000 0.000000 0.000000 202 208 218 1.000000
-0.086976 -0.060947 0.618380 0.000000 1.000000 0.000000 255 255 255 1.000000
0.464367 0.272090 -0.351888 -1.000000 0.000000 0.000000 199 205 215 1.000000
-0.190242 -0.660367 -0.171644 0.000000 1.000000 0.000000 185 191 201 1.000000
0.464367 -0.177328 -0.312842 1.000000 0.000000 0.000000 208 214 224 1.000000
-0.399549 0.393118 0.214151 -1.000000 0.000000 0.000000 204 210 220 1.000000
-0.312515 -0.217454 -0.203960 0.000000 1.000000 0.000000 204 210 220 1.000000
-0.392809 -0.100258 -0.497802 0.000000 0.000000 -1.000000 201 207 217 1.000000
0.264069 0.453346 -0.518147 0.000000 -0.000000 1.000000 200 206 216 1.000000
-0.394854 -0.138410 -0.372392 -1.000000 0.000000 0.000000 202 208 218 1.000000
0.291036 -0.217454 0.038514 0.000000 1.000000 0.000000 202 208 218 1.000000
0.330803 0.120861 -0.518147 0.000000 0.000000 -1.000000 199 205 215 1.000000
-0.394854 -0.196495 -0.316865 1.000000 0.000000 0.000000 209 215 225 1.000000
-0.160343 0.073581 -0.518147 0.000000 0.000000 -1.000000 204 210 220 1.000000
-0.399549 0.116205 0.198739 -1.000000 0.000000 0.000000 208 214 224 1.000000
-0.435546 0.255804 -0.190251 -1.000000 0.000000 0.000000 201 207 217 1.000000
-0.435546 -0.483413 0.379535 -1.000000 0.000000 0.000000 210 216 226 1.000000
0.081467 -0.339601 0.413066 0.000000 -0.000000 1.000000 211 217 227 1.000000
0.464367 -0.172865 0.214397 1.000000 0.000000 0.000000 199 205 215 1.000000
0.162803 -0.660367 -0.351696 0.000000 -1.000000 -0.000000 200 206 216 1.000000
0.130284 0.302578 -0.502497 0.000000 0.000000 -1.000000 204 210 220 1.000000
-0.057195 0.607335 0.082062 0.000000 -1.000000 -0.000000 206 212 222 1.000000
-0.435546 0.116689 -0.345623 1.000000 0.000000 0.000000 204 210 220 1.000000
0.279660 -0.396854 0.413066 0.000000 0.000000 -1.000000 207 213 223 1.000000
-0.088293 -0.060947 0.701978 0.000000 -1.000000 -0.000000 205 211 221 1.000000
0.428370 0.221126 -0.074542 1.000000 0.000000 0.000000 190 196 206 1.000000
0.464367 -0.608189 -0.023920 1.000000 0.000000 0.000000 200 206 216 1.000000
-0.402847 0.281608 0.373940 0.000000 0.000000 -1.000000 195 201 211 1.000000
0.199285 -0.028081 0.600534 0.000000 1.000000 0.000000 208 214 224 1.000000
-0.435546 0.042889 0.299771 -1.000000 0.000000 0.000000 199 205 215 1.000000
-0.435546 0.581357 0.116890 -1.000000 0.000000 0.000000 206 212 222 1.000000
0.108648 -0.028081 0.715033 0.000000 1.000000 0.000000 210 216 226 1.000000
0.428370 0.322289 0.303149 -1.000000 0.000000 0.000000 209 215 225 1.000000
0.168872 -0.217454 0.089952 0.000000 1.000000 0.000000 202 208 218 1.000000
-0.165435 0.443811 -0.502497 0.000000 -0.000000 1.000000 201 207 217 1.000000
0.428370 0.424844 -0.204014 1.000000 0.000000 0.000000 207 213 223 1.000000
-0.435546 -0.381130 -0.232687 -1.000000 0.000000 0.000000 201 207 217 1.000000
0.343002 -0.660367 0.403448 0.000000 1.000000 0.000000 201 207 217 1.000000
-0.090005 -0.168508 -0.518147 0.000000 0.000000 -1.000000 193 199 209 1.000000
0.388897 -0.217454 0.117435 0.000000 -1.000000 -0.000000 198 204 214 1.000000
0.464367 -0.625831 -0.351628 -1.000000 0.000000 0.000000 213 219 229 1.000000
0.464367 0.414850 0.227866 1.000000 0.000000 0.000000 200 206 216 1.000000
-0.204570 -0.660367 -0.133182 0.000000 -1.000000 -0.000000 192 198 208 1.000000
-0.435546 0.162718 0.234767 -1.000000 0.000000 0.000000 209 215 225 1.000000
0.464367 0.243196 0.127131 1.000000 0.000000 0.000000 218 224 234 1.000000
0.243775 -0.174972 -0.084023 -0.015781 -0.058725 0.998149 142 142 142 1.000000
-0.435546 -0.469426 -0.018670 1.000000 0.000000 0.000000 202 208 218 1.000000
0.228101 -0.057890 -0.497802 0.000000 -0.000000 1.000000 215 221 231 1.000000
0.401829 -0.028081 0.299410 0.000000 1.000000 0.000000 200 206 216 1.000000
-0.322040 0.607335 0.418426 0.000000 1.000000 0.000000 200 206 216 1.000000
0.464367 0.371560 -0.440035 -1.000000 0.000000 0.000000 198 204 214 1.000000
-0.345964 -0.029646 0.164387 0.000000 -1.000000 -0.000000 196 202 212 1.000000
0.354777 0.595725 -0.518147 0.000000 0.000000 -1.000000 201 207 217 1.000000
0.464367 0.411086 0.372601 -1.000000 0.000000 0.000000 203 209 219 1.000000
0.245096 -0.060947 0.384540 0.000000 -1.000000 -0.000000 208 214 224 1.000000
0.031559 -0.660367 0.092377 0.000000 -1.000000 -0.000000 204 210 220 1.000000
0.087623 -0.028081 0.424830 0.000000 -1.000000 -0.000000 255 255 255 1.000000
-0.413906 -0.230665 -0.518147 0.000000 0.000000 -1.000000 197 203 213 1.000000
-0.350463 -0.060947 0.620551 0.000000 -1.000000 -0.000000 196 202 212 1.000000
0.432829 -0.630244 -0.518147 0.000000 0.000000 -1.000000 198 204 214 1.000000
-0.212273 -0.602044 -0.518147 0.000000 -0.000000 1.000000 206 212 222 1.000000
0.428370 0.026809 -0.410329 -1.000000 0.000000 0.000000 203 209 219 1.000000
0.464367 0.404008 -0.154423 1.000000 0.000000 0.000000 207 213 223 1.000000
-0.435546 0.503602 -0.133930 -1.000000 0.000000 0.000000 203 209 219 1.000000
0.326509 0.446134 -0.374323 0.000000 -1.000000 -0.000000 201 207 217 1.000000
-0.355903 -0.217454 0.027900 0.000000 -1.000000 -0.000000 202 208 218 1.000000
-0.435546 -0.475523 0.197451 1.000000 0.000000 0.000000 209 215 225 1.000000
-0.399549 0.207102 -0.025053 -1.000000 0.000000 0.000000 210 216 226 1.000000
-0.262848 -0.660367 -0.179469 0.000000 -1.000000 -0.000000 195 201 211 1.000000
-0.159870 0.607335 -0.013392 0.000000 1.000000 0.000000 208 214 224 1.000000
-0.395543 -0.060947 0.777021 0.000000 1.000000 0.000000 255 255 255 1.000000
0.039473 -0.060947 0.461508 0.000000 -1.000000 -0.000000 206 212 222 1.000000
-0.021851 -0.217454 -0.145057 0.000000 -1.000000 -0.000000 207 213 223 1.000000
-0.435546 0.553968 -0.327150 1.000000 0.000000 0.000000 190 196 206 1.000000
-0.162442 0.446134 -0.057746 0.000000 -1.000000 -0.000000 198 204 214 1.000000
0.464367 0.101423 0.281498 -1.000000 0.000000 0.000000 200 206 216 1.000000
0.088959 -0.062491 0.369244 0.000000 0.000000 -1.000000 204 210 220 1.000000
-0.277817 -0.660367 0.233589 0.000000 -1.000000 -0.000000 206 212 222 1.000000
-0.435546 0.180150 -0.221481 1.000000 0.000000 0.000000 200 206 216 1.000000
0.343872 0.607335 -0.125863 0.000000 -1.000000 -0.000000 210 216 226 1.000000
0.196182 0.096566 -0.502497 0.000000 -0.000000 1.000000 202 208 218 1.000000
-0.120919 -0.060947 0.479532 0.000000 -1.000000 -0.000000 205 211 221 1.000000
-0.435546 -0.295618 -0.495466 -1.000000 0.000000 0.000000 200 206 216 1.000000
-0.435546 -0.170402 0.120589 1.000000 0.000000 0.000000 210 216 226 1.000000
0.042364 -0.217454 0.000822 0.000000 -1.000000 -0.000000 202 208 218 1.000000
-0.036460 -0.660367 -0.515073 0.000000 1.000000 0.000000 196 202 212 1.000000
0.108427 0.446134 -0.161265 0.000000 -1.000000 -0.000000 197 203 217 1.000000
0.428370 0.089544 -0.436697 -1.000000 0.000000 0.000000 200 206 216 1.000000
0.231205 0.607335 0.052131 0.000000 1.000000 0.000000 202 208 218 1.000000
0.464367 0.155555 -0.403106 -1.000000 0.000000 0.000000 198 204 214 1.000000
-0.297278 -0.565858 -0.518147 0.000000 -0.000000 1.000000 208 214 224 1.000000
0.330366 -0.253567 -0.518147 0.000000 -0.000000 1.000000 197 203 213 1.000000
-0.392224 0.607335 -0.311810 0.000000 -1.000000 -0.000000 208 214 224 1.000000
-0.199035 -0.028081 0.896766 0.000000 1.000000 0.000000 200 206 216 1.000000
-0.365077 -0.028081 0.906956 0.000000 -1.000000 -0.000000 255 255 255 1.000000
0.058038 -0.580786 -0.518147 0.000000 -0.000000 1.000000 200 206 216 1.000000
-0.400518 -0.660367 0.322290 0.000000 -1.000000 -0.000000 204 210 220 1.000000
0.464367 0.003327 -0.113878 1.000000 0.000000 0.000000 199 205 215 1.000000
0.367700 0.446134 0.283087 0.000000 1.000000 0.000000 202 208 218 1.000000
0.423675 -0.089226 0.257074 -1.000000 0.000000 0.000000 213 219 229 1.000000
-0.435546 0.400069 -0.271567 1.000000 0.000000 0.000000 200 206 216 1.000000
-0.250395 -0.217454 -0.039863 0.000000 -1.000000 -0.000000 198 204 214 1.000000
-0.065131 -0.100074 0.876152 0.000000 -1.000000 -0.000000 201 207 217 1.000000
0.026252 -0.060947 0.784773 0.000000 -1.000000 -0.000000 208 214 224 1.000000
-0.399549 -0.007683 0.144070 -1.000000 0.000000 0.000000 195 201 211 1.000000
0.318915 0.446134 0.210856 0.000000 -1.000000 -0.000000 200 206 216 1.000000
-0.024115 -0.217454 -0.443309 0.000000 -1.000000 -0.000000 195 201 211 1.000000
0.395366 -0.660367 -0.093780 0.000000 -1.000000 -0.000000 197 203 213 1.000000
0.164164 0.607335 0.087904 0.000000 -1.000000 -0.000000 202 208 218 1.000000
-0.003046 0.060780 -0.518147 0.000000 -0.000000 1.000000 202 208 218 1.000000
0.402817 -0.029646 0.108586 0.000000 -1.000000 -0.000000 197 203 213 1.000000
-0.435546 0.069891 0.075650 1.000000 0.000000 0.000000 209 215 225 1.000000
0.110518 -0.660367 -0.018317 0.000000 1.000000 0.000000 202 208 222 1.000000
0.362316 -0.660367 0.123735 0.000000 -1.000000 -0.000000 202 208 218 1.000000
-0.435546 -0.253094 -0.146077 -1.000000 0.000000 0.000000 196 202 212 1.000000
0.462552 -0.660367 -0.480242 0.000000 1.000000 0.000000 200 206 216 1.000000
0.135364 0.477484 -0.518147 0.000000 -0.000000 1.000000 204 210 220 1.000000
-0.435546 0.154929 -0.093860 -1.000000 0.000000 0.000000 206 212 222 1.000000
0.464367 0.229735 -0.319163 -1.000000 0.000000 0.000000 200 206 216 1.000000
-0.435546 -0.004004 0.366395 -1.000000 0.000000 0.000000 198 204 214 1.000000
0.420425 0.374635 -0.518147 0.000000 -0.000000 1.000000 201 207 217 1.000000
-0.220075 -0.292652 -0.518147 0.000000 0.000000 -1.000000 202 208 218 1.000000
0.318257 -0.543193 -0.518147 0.000000 0.000000 -1.000000 198 204 214 1.000000
0.147434 0.607335 -0.106528 0.000000 -1.000000 -0.000000 205 211 221 1.000000
-0.399549 0.364558 -0.402952 -1.000000 0.000000 0.000000 198 204 214 1.000000
-0.179483 -0.217454 -0.053754 0.000000 -1.000000 -0.000000 208 214 224 1.000000
-0.159198 -0.060947 0.501240 0.000000 1.000000 0.000000 255 255 255 1.000000
0.464367 -0.562482 0.160249 1.000000 0.000000 0.000000 206 212 222 1.000000
0.033085 -0.217454 -0.306597 0.000000 -1.000000 -0.000000 211 217 227 1.000000
-0.077147 -0.217454 -0.494881 0.000000 -1.000000 -0.000000 199 205 215 1.000000
-0.133511 -0.217454 0.362954 0.000000 -1.000000 -0.000000 198 204 214 1.000000
-0.203868 -0.660367 0.265892 0.000000 -1.000000 -0.000000 204 210 220 1.000000
0.235381 -0.473792 -0.518147 0.000000 0.000000 -1.000000 197 203 213 1.000000
-0.170801 -0.217454 0.295131 0.000000 1.000000 0.000000 204 210 220 1.000000
-0.399549 0.218628 -0.355265 -1.000000 0.000000 0.000000 200 206 216 1.000000
-0.399092 -0.660367 -0.196137 0.000000 1.000000 0.000000 208 214 224 1.000000
0.397529 0.517068 -0.518147 0.000000 -0.000000 1.000000 198 204 214 1.000000
-0.252084 0.446134 -0.221478 0.000000 -1.000000 -0.000000 198 204 214 1.000000
0.464367 0.151551 -0.212204 -1.000000 0.000000 0.000000 206 212 222 1.000000
-0.399549 0.397299 -0.146333 1.000000 0.000000 0.000000 202 208 218 1.000000
0.331197 -0.100074 0.887742 0.000000 1.000000 0.000000 255 255 255 1.000000
0.208962 -0.421499 0.413066 0.000000 -0.000000 1.000000 212 218 228 1.000000
0.018446 -0.173277 0.413066 0.000000 0.000000 -1.000000 206 212 222 1.000000
0.464367 0.567580 0.388826 1.000000 0.000000 0.000000 206 212 222 1.000000
-0.435546 0.154966 0.109015 -1.000000 0.000000 0.000000 207 213 223 1.000000
0.428370 0.074126 -0.243769 1.000000 0.000000 0.000000 204 210 220 1.000000
0.206486 -0.660367 -0.176501 0.000000 -1.000000 -0.000000 194 200 214 1.000000
-0.255107 -0.064682 -0.497802 0.000000 -0.000000 1.000000 201 207 217 1.000000
-0.281258 0.350906 -0.518147 0.000000 -0.000000 1.000000 205 211 221 1.000000
-0.111843 -0.571229 0.413066 0.000000 0.000000 -1.000000 202 208 218 1.000000
0.200207 -0.129371 0.369244 0.000000 -0.000000 1.000000 202 208 218 1.000000
-0.300846 -0.060947 0.704737 0.000000 1.000000 0.000000 255 255 255 1.000000
0.190851 0.607335 0.160687 0.000000 -1.000000 -0.000000 204 210 220 1.000000
0.282320 -0.060947 0.786926 0.000000 -1.000000 -0.000000 206 212 222 1.000000
-0.435546 0.161937 -0.159315 -1.000000 0.000000 0.000000 200 206 216 1.000000
0.464367 0.459318 0.017839 1.000000 0.000000 0.000000 200 206 216 1.000000
0.428370 0.371511 -0.299434 -1.000000 0.000000 0.000000 203 209 219 1.000000
0.396453 0.607335 -0.343504 0.000000 1.000000 0.000000 203 209 219 1.000000
0.440057 0.607335 -0.432966 0.000000 -1.000000 -0.000000 198 204 214 1.000000
0.302521 -0.217454 0.147535 0.000000 -1.000000 -0.000000 198 204 214 1.000000
-0.032396 -0.028081 0.391369 0.000000 -1.000000 -0.000000 255 255 255 1.000000
0.192982 0.607335 0.310421 0.000000 1.000000 0.000000 208 214 224 1.000000
0.101921 -0.463571 0.413066 0.000000 0.000000 -1.000000 204 210 220 1.000000
0.400434 -0.285200 -0.518147 0.000000 -0.000000 1.000000 202 208 218 1.000000
-0.404208 0.408863 -0.518147 0.000000 0.000000 -1.000000 200 206 216 1.000000
-0.394854 -0.151897 -0.085490 1.000000 0.000000 0.000000 199 205 215 1.000000
-0.245303 0.607335 -0.293205 0.000000 1.000000 0.000000 200 206 216 1.000000
0.023280 -0.028081 0.563203 0.000000 -1.000000 -0.000000 255 255 255 1.000000
0.455121 0.607335 0.296717 0.000000 1.000000 0.000000 199 205 215 1.000000
0.459672 -0.073343 0.907102 1.000000 0.000000 0.000000 208 214 224 1.000000
-0.037379 -0.028081 0.900780 0.000000 1.000000 0.000000 202 208 218 1.000000
-0.435546 0.108939 0.346154 -1.000000 0.000000 0.000000 203 209 219 1.000000
-0.435546 -0.019655 -0.174535 -1.000000 0.000000 0.000000 206 212 222 1.000000
0.423675 -0.172897 -0.290286 -1.000000 0.000000 0.000000 200 206 216 1.000000
-0.399549 0.410846 -0.305196 1.000000 0.000000 0.000000 203 209 219 1.000000
-0.103470 0.573047 -0.518147 0.000000 0.000000 -1.000000 206 212 222 1.000000
-0.435546 0.089271 0.185134 1.000000 0.000000 0.000000 208 214 224 1.000000
-0.116968 -0.482488 -0.518147 0.000000 -0.000000 1.000000 207 213 223 1.000000
-0.297749 0.607335 0.242536 0.000000 1.000000 0.000000 206 212 222 1.000000
0.131638 0.402849 -0.086157 -0.015748 0.086651 0.996114 142 142 142 1.000000
0.245468 0.527619 -0.518147 0.000000 -0.000000 1.000000 198 204 214 1.000000
0.082114 -0.660367 -0.077431 0.000000 1.000000 0.000000 198 204 214 1.000000
-0.320723 0.446134 0.027901 0.000000 -1.000000 -0.000000 203 209 219 1.000000
-0.342123 -0.660367 -0.082624 0.000000 -1.000000 -0.000000 203 209 219 1.000000
-0.435546 0.306231 0.350111 1.000000 0.000000 0.000000 207 213 223 1.000000
-0.137623 0.446134 0.011474 0.000000 -1.000000 -0.000000 204 210 220 1.000000
0.464367 0.223431 0.249001 1.000000 0.000000 0.000000 207 213 223 1.000000
0.464022 -0.327917 -0.518147 0.000000 0.000000 -1.000000 203 209 219 1.000000
0.428370 0.097769 -0.305667 -1.000000 0.000000 0.000000 205 211 221 1.000000
0.125481 -0.660367 -0.363682 0.000000 -1.000000 -0.000000 200 206 216 1.000000
0.248735 0.446134 -0.098072 0.000000 -1.000000 -0.000000 197 203 213 1.000000
-0.186174 -0.060947 0.648958 0.000000 -1.000000 -0.000000 202 208 218 1.000000
0.464367 0.328074 -0.411061 -1.000000 0.000000 0.000000 198 204 214 1.000000
-0.038271 0.607335 -0.374094 0.000000 -1.000000 -0.000000 189 195 205 1.000000
0.268005 -0.533174 0.413066 0.000000 0.000000 -1.000000 209 215 225 1.000000
0.464367 -0.419211 -0.439498 -1.000000 0.000000 0.000000 200 206 216 1.000000
0.454527 -0.406392 -0.518147 0.000000 0.000000 -1.000000 204 210 220 1.000000
-0.435546 -0.004545 0.241117 1.000000 0.000000 0.000000 205 211 221 1.000000
0.051917 -0.028081 0.631828 0.000000 -1.000000 -0.000000 255 255 255 1.000000
-0.157390 -0.217454 -0.137231 0.000000 1.000000 0.000000 196 202 212 1.000000
-0.435546 -0.618793 -0.272240 -1.000000 0.000000 0.000000 210 216 226 1.000000
0.464367 0.323051 0.217879 -1.000000 0.000000 0.000000 199 205 215 1.000000
-0.399549 0.046458 -0.132981 -1.000000 0.000000 0.000000 202 208 218 1.000000
0.464367 0.382543 0.204064 1.000000 0.000000 0.000000 196 202 212 1.000000
0.023401 -0.091000 -0.518147 0.000000 -0.000000 1.000000 198 204 214 1.000000
0.210307 0.607335 -0.089191 0.000000 -1.000000 -0.000000 207 213 223 1.000000
-0.435546 -0.259955 -0.101185 -1.000000 0.000000 0.000000 196 202 212 1.000000
-0.348152 0.366818 -0.518147 0.000000 -0.000000 1.000000 198 204 214 1.000000
0.339119 -0.028081 0.645387 0.000000 1.000000 0.000000 193 199 209 1.000000
-0.435546 -0.366100 0.409379 1.000000 0.000000 0.000000 202 208 218 1.000000
0.295439 -0.220307 -0.518147 0.000000 0.000000 -1.000000 198 204 214 1.000000
0.204209 -0.217454 -0.378015 0.000000 1.000000 0.000000 208 214 224 1.000000
-0.435546 -0.334455 -0.155455 -1.000000 0.000000 0.000000 198 204 214 1.000000
0.428370 0.169320 -0.424687 1.000000 0.000000 0.000000 193 199 209 1.000000
-0.135913 -0.660367 -0.472253 0.000000 -1.000000 -0.000000 195 201 211 1.000000
-0.208330 -0.563689 -0.518147 0.000000 -0.000000 1.000000 206 212 222 1.000000
-0.021096 -0.100074 0.883919 0.000000 -1.000000 -0.000000 202 208 218 1.000000
0.426097 -0.660367 0.351028 0.000000 1.000000 0.000000 58 58 58 1.000000
0.035756 0.418380 -0.070944 0.934340 0.000000 -0.356382 142 142 142 1.000000
0.046253 -0.121092 0.413066 0.000000 0.000000 -1.000000 207 213 223 1.000000
-0.196123 -0.108890 0.369244 0.000000 0.000000 -1.000000 198 204 214 1.000000
0.464367 -0.447448 -0.058268 1.000000 0.000000 0.000000 204 210 220 1.000000
-0.435546 0.165942 0.394715 1.000000 0.000000 0.000000 204 210 220 1.000000
-0.429532 -0.028081 0.710669 0.000000 1.000000 0.000000 202 208 218 1.000000
0.272948 -0.028081 0.572220 0.000000 1.000000 0.000000 207 213 223 1.000000
-0.435546 -0.273228 0.282245 1.000000 0.000000 0.000000 202 208 218 1.000000
-0.313244 0.411480 -0.081491 0.015536 -0.184783 0.982657 142 142 142 1.000000
-0.410533 -0.028081 0.871476 0.000000 -1.000000 -0.000000 255 255 255 1.000000
-0.418808 -0.660367 0.241664 0.000000 1.000000 0.000000 206 212 222 1.000000
0.464367 0.510390 0.072063 1.000000 0.000000 0.000000 204 210 220 1.000000
0.038353 0.412328 -0.030562 0.000000 1.000000 0.000000 142 142 142 1.000000
0.352299 -0.028081 0.882860 0.000000 1.000000 0.000000 200 206 216 1.000000
0.167650 0.446134 0.091325 0.000000 -1.000000 -0.000000 194 200 210 1.000000
-0.268039 -0.100074 0.868731 0.000000 -1.000000 -0.000000 196 202 212 1.000000
0.001799 -0.147295 -0.497802 0.000000 0.000000 -1.000000 204 210 220 1.000000
0.423675 -0.088504 0.332884 1.000000 0.000000 0.000000 206 212 222 1.000000
-0.264331 -0.155811 -0.497802 0.000000 0.000000 -1.000000 202 208 218 1.000000
0.336412 0.446134 -0.213144 0.000000 1.000000 0.000000 204 210 220 1.000000
0.428370 0.142425 0.191907 1.000000 0.000000 0.000000 210 216 226 1.000000
-0.435546 -0.318617 0.405943 1.000000 0.000000 0.000000 205 211 221 1.000000
0.201941 0.390542 -0.080793 -0.013550 0.515123 0.857009 142 142 142 1.000000
-0.049906 -0.465722 0.413066 0.000000 0.000000 -1.000000 207 213 223 1.000000
0.458601 0.607335 -0.057706 0.000000 -1.000000 -0.000000 200 206 216 1.000000
-0.252117 -0.038931 0.369244 0.000000 0.000000 -1.000000 193 199 209 1.000000
0.273396 0.446134 -0.222213 0.000000 -1.000000 -0.000000 203 209 219 1.000000
-0.103689 -0.155477 -0.075098 0.000000 1.000000 0.000000 142 142 142 1.000000
-0.435546 0.361720 0.378477 1.000000 0.000000 0.000000 202 208 218 1.000000
-0.317927 0.446134 -0.290473 0.000000 1.000000 0.000000 202 208 218 1.000000
0.047968 -0.420502 -0.518147 0.000000 -0.000000 1.000000 200 206 216 1.000000
0.428370 0.435928 -0.360865 -1.000000 0.000000 0.000000 201 207 217 1.000000
0.055148 -0.072270 0.907793 0.000000 0.371391 -0.928477 255 255 255 1.000000
0.263561 -0.028081 0.473777 0.000000 1.000000 0.000000 206 212 222 1.000000
-0.296572 -0.660367 -0.033116 0.000000 -1.000000 -0.000000 193 199 213 1.000000
0.428370 0.213081 0.222695 -1.000000 0.000000 0.000000 204 210 220 1.000000
0.428370 0.198292 0.296961 -1.000000 0.000000 0.000000 205 211 221 1.000000
-0.262771 -0.660367 0.084158 0.000000 1.000000 0.000000 198 204 214 1.000000
-0.197620 0.607335 0.366547 0.000000 -1.000000 -0.000000 198 204 214 1.000000
0.423675 -0.154139 0.311224 1.000000 0.000000 0.000000 196 202 212 1.000000
-0.375174 -0.689407 0.378341 0.079789 0.000000 -0.996812 255 255 255 1.000000
0.042967 0.165845 -0.502497 0.000000 0.000000 -1.000000 209 215 225 1.000000
0.464367 0.016187 -0.229590 -1.000000 0.000000 0.000000 198 204 214 1.000000
0.464367 -0.120168 0.280860 1.000000 0.000000 0.000000 201 207 217 1.000000
0.380273 -0.028081 0.452393 0.000000 1.000000 0.000000 211 217 227 1.000000
0.090575 0.446134 -0.491192 0.000000 1.000000 0.000000 202 208 218 1.000000
0.200008 0.607335 -0.233227 0.000000 -1.000000 -0.000000 200 206 216 1.000000
0.033420 -0.505832 0.413066 0.000000 0.000000 -1.000000 195 201 211 1.000000
0.154314 0.011023 -0.518147 0.000000 -0.000000 1.000000 206 212 222 1.000000
0.446863 -0.660367 -0.419088 0.000000 -1.000000 -0.000000 198 204 214 1.000000
-0.435546 0.041345 -0.110916 -1.000000 0.000000 0.000000 199 205 215 1.000000
0.426805 0.001556 0.009181 1.000000 0.000000 0.000000 196 202 212 1.000000
-0.122352 -0.039203 -0.518147 0.000000 0.000000 -1.000000 198 204 214 1.000000
0.464367 0.292874 0.290320 1.000000 0.000000 0.000000 206 212 222 1.000000
-0.021540 0.446134 -0.304091 0.000000 1.000000 0.000000 199 205 215 1.000000
-0.244626 -0.060947 0.473518 0.000000 1.000000 0.000000 255 255 255 1.000000
-0.435546 0.055485 0.152609 -1.000000 0.000000 0.000000 208 214 224 1.000000
-0.145027 -0.327978 0.413066 0.000000 -0.000000 1.000000 200 206 216 1.000000
0.310947 -0.076249 -0.518147 0.000000 0.000000 -1.000000 204 210 220 1.000000
0.275126 0.607335 -0.370066 0.000000 -1.000000 -0.000000 206 212 222 1.000000
0.407462 -0.028081 0.490697 0.000000 1.000000 0.000000 211 217 227 1.000000
0.142701 -0.060947 0.403656 0.000000 -1.000000 -0.000000 204 210 220 1.000000
-0.375174 -0.028081 0.390791 0.000000 -1.000000 -0.000000 255 255 255 1.000000
-0.090089 -0.217454 -0.434871 0.000000 1.000000 0.000000 202 208 218 1.000000
0.381511 -0.546527 0.413066 0.000000 0.000000 -1.000000 200 206 216 1.000000
0.028098 -0.660367 0.039820 0.000000 1.000000 0.000000 204 210 220 1.000000
0.358451 -0.475269 -0.518147 0.000000 -0.000000 1.000000 196 202 212 1.000000
0.010677 -0.217454 0.301220 0.000000 -1.000000 -0.000000 209 215 225 1.000000
0.464367 0.009898 -0.296037 1.000000 0.000000 0.000000 200 206 216 1.000000
0.464367 0.605917 -0.479504 -1.000000 0.000000 0.000000 203 209 219 1.000000
0.226691 -0.126305 -0.497802 0.000000 0.000000 -1.000000 211 217 227 1.000000
0.411724 -0.028081 -0.408211 0.000000 1.000000 0.000000 201 207 217 1.000000
-0.289459 -0.606707 0.413066 0.000000 0.000000 -1.000000 194 200 210 1.000000
0.464367 0.465968 -0.364342 1.000000 0.000000 0.000000 204 210 220 1.000000
-0.435546 -0.621705 -0.178067 1.000000 0.000000 0.000000 205 211 221 1.000000
-0.435546 0.508271 -0.482949 -1.000000 0.000000 0.000000 200 206 216 1.000000
0.464367 0.062436 -0.049290 1.000000 0.000000 0.000000 204 210 220 1.000000
-0.064904 0.607335 -0.342961 0.000000 -1.000000 -0.000000 201 207 217 1.000000
-0.399549 0.076897 -0.446456 -1.000000 0.000000 0.000000 197 203 213 1.000000
0.464367 0.526030 0.217928 1.000000 0.000000 0.000000 198 204 214 1.000000
0.464367 -0.339751 -0.431194 -1.000000 0.000000 0.000000 204 210 220 1.000000
-0.105332 -0.440080 0.413066 0.000000 0.000000 -1.000000 206 212 222 1.000000
-0.435546 -0.500850 -0.224132 -1.000000 0.000000 0.000000 206 212 222 1.000000
-0.435546 0.305291 -0.040210 -1.000000 0.000000 0.000000 206 212 222 1.000000
-0.435546 0.381450 0.102726 -1.000000 0.000000 0.000000 206 212 222 1.000000
0.002426 0.370523 -0.047428 -0.130204 -0.974497 0.182762 142 142 142 1.000000
-0.070483 0.446134 0.277591 0.000000 1.000000 0.000000 210 216 226 1.000000
-0.028272 -0.084547 0.369244 0.000000 0.000000 -1.000000 198 204 214 1.000000
-0.357272 0.607335 -0.336424 0.000000 -1.000000 -0.000000 200 206 216 1.000000
0.464367 -0.638290 -0.095695 -1.000000 0.000000 0.000000 202 208 218 1.000000
0.464367 -0.175436 0.255448 -1.000000 0.000000 0.000000 196 202 212 1.000000
-0.161754 -0.550470 -0.518147 0.000000 0.000000 -1.000000 202 208 218 1.000000
-0.360121 -0.028081 -0.163351 0.000000 -1.000000 -0.000000 206 212 222 1.000000
-0.322106 -0.217454 0.367385 0.000000 -1.000000 -0.000000 200 206 216 1.000000
-0.106226 0.607335 -0.197370 0.000000 1.000000 0.000000 196 202 212 1.000000
-0.435546 -0.309620 -0.041958 1.000000 0.000000 0.000000 207 213 223 1.000000
-0.399549 0.157849 -0.122819 -1.000000 0.000000 0.000000 204 210 220 1.000000
0.016413 -0.217454 0.359852 0.000000 -1.000000 -0.000000 199 205 215 1.000000
0.349887 -0.660367 -0.032893 0.000000 -1.000000 -0.000000 200 206 216 1.000000
0.428370 0.146194 0.108159 -1.000000 0.000000 0.000000 207 213 223 1.000000
0.423675 -0.063888 0.153618 1.000000 0.000000 0.000000 214 220 230 1.000000
0.022113 -0.028081 0.515974 0.000000 1.000000 0.000000 205 211 221 1.000000
-0.435546 -0.520069 -0.377662 -1.000000 0.000000 0.000000 191 197 207 1.000000
0.428370 0.291721 -0.109778 1.000000 0.000000 0.000000 206 212 222 1.000000
-0.435546 0.332270 0.071485 -1.000000 0.000000 0.000000 204 210 220 1.000000
-0.435546 -0.335729 0.082918 -1.000000 0.000000 0.000000 208 214 224 1.000000
-0.239600 -0.217454 -0.219876 0.000000 1.000000 0.000000 192 198 208 1.000000
-0.282652 0.567440 0.420892 0.000000 -0.000000 1.000000 153 61 61 1.000000
0.261396 -0.060947 0.709469 0.000000 -1.000000 -0.000000 206 212 222 1.000000
-0.165390 0.446134 0.275448 0.000000 -1.000000 -0.000000 202 208 218 1.000000
-0.218920 0.390583 -0.079922 0.013563 0.513723 0.857849 142 142 142 1.000000
0.103881 -0.063196 0.849719 0.000000 -0.000000 1.000000 255 255 255 1.000000
0.321093 -0.361251 -0.518147 0.000000 -0.000000 1.000000 198 204 214 1.000000
0.286389 -0.060947 0.637765 0.000000 -1.000000 -0.000000 206 212 222 1.000000
-0.435546 0.381574 -0.111509 1.000000 0.000000 0.000000 205 211 221 1.000000
0.254387 0.135804 -0.502497 0.000000 -0.000000 1.000000 212 218 228 1.000000
-0.394854 -0.102588 0.356962 1.000000 0.000000 0.000000 202 208 218 1.000000
0.428370 0.267223 -0.322399 -1.000000 0.000000 0.000000 196 202 212 1.000000
-0.342063 -0.660367 0.252286 0.000000 1.000000 0.000000 205 211 221 1.000000
-0.435546 -0.041873 -0.253310 1.000000 0.000000 0.000000 201 207 217 1.000000
-0.435546 -0.165376 -0.213790 1.000000 0.000000 0.000000 197 203 213 1.000000
-0.214048 -0.614659 0.413066 0.000000 -0.000000 1.000000 210 216 226 1.000000
-0.394854 -0.150612 0.039653 -1.000000 0.000000 0.000000 209 215 225 1.000000
-0.194309 0.446134 -0.479368 0.000000 1.000000 0.000000 207 213 223 1.000000
-0.435546 -0.087702 0.325213 1.000000 0.000000 0.000000 206 212 222 1.000000
0.362597 -0.060947 0.473109 0.000000 -1.000000 -0.000000 200 206 216 1.000000
0.428370 0.109335 0.341335 1.000000 0.000000 0.000000 216 222 232 1.000000
-0.359027 -0.660367 0.127120 0.000000 -1.000000 -0.000000 210 216 226 1.000000
-0.435546 -0.531317 0.320658 1.000000 0.000000 0.000000 204 210 220 1.000000
0.464367 0.348365 0.130494 -1.000000 0.000000 0.000000 203 209 219 1.000000
-0.394854 -0.123224 0.295781 -1.000000 0.000000 0.000000 202 208 218 1.000000
0.390144 -0.060947 0.401835 0.000000 -1.000000 -0.000000 199 205 215 1.000000
0.284507 0.607335 -0.079717 0.000000 1.000000 0.000000 208 214 224 1.000000
0.004916 -0.063160 -0.497802 0.000000 -0.000000 1.000000 209 215 225 1.000000
0.179002 -0.278681 -0.518147 0.000000 -0.000000 1.000000 206 212 222 1.000000
-0.178079 -0.204867 -0.518147 0.000000 -0.000000 1.000000 203 209 219 1.000000
-0.312715 -0.060947 0.506982 0.000000 -1.000000 -0.000000 198 204 214 1.000000
-0.435546 0.173390 -0.374794 1.000000 0.000000 0.000000 202 208 218 1.000000
-0.360596 -0.399918 -0.518147 0.000000 -0.000000 1.000000 200 206 216 1.000000
0.428370 0.124827 0.264154 1.000000 0.000000 0.000000 201 207 217 1.000000
0.414406 0.607335 0.126230 0.000000 -1.000000 -0.000000 197 203 213 1.000000
0.112812 -0.217454 -0.052433 0.000000 1.000000 0.000000 202 208 218 1.000000
0.464367 0.574703 0.211774 1.000000 0.000000 0.000000 205 211 221 1.000000
0.200051 -0.660367 -0.060514 0.000000 -1.000000 -0.000000 195 201 215 1.000000
-0.095208 0.446134 -0.446738 0.000000 -1.000000 -0.000000 194 200 210 1.000000
0.464367 0.296061 -0.473335 1.000000 0.000000 0.000000 189 195 205 1.000000
-0.181785 -0.285045 -0.518147 0.000000 -0.000000 1.000000 202 208 218 1.000000
0.015566 -0.190841 -0.041936 0.041982 -0.000000 0.999118 142 142 142 1.000000
0.399930 -0.217454 -0.104913 0.000000 -1.000000 -0.000000 202 208 218 1.000000
0.248712 -0.217454 0.077830 0.000000 1.000000 0.000000 202 208 218 1.000000
0.464367 -0.440257 -0.132693 1.000000 0.000000 0.000000 203 209 219 1.000000
-0.305505 -0.660367 -0.275957 0.000000 1.000000 0.000000 196 202 212 1.000000
-0.048994 -0.060947 0.604715 0.000000 1.000000 0.000000 255 255 255 1.000000
-0.093255 -0.287960 0.413066 0.000000 -0.000000 1.000000 198 204 214 1.000000
0.046637 0.446134 0.034241 0.000000 1.000000 0.000000 200 206 216 1.000000
0.125598 -0.660367 -0.297121 0.000000 1.000000 0.000000 200 206 216 1.000000
0.188394 -0.660367 -0.138150 0.000000 -1.000000 -0.000000 199 205 219 1.000000
-0.435546 -0.448956 0.047702 -1.000000 0.000000 0.000000 203 209 219 1.000000
0.072124 -0.660367 -0.308678 0.000000 1.000000 0.000000 198 204 214 1.000000
0.378358 -0.660367 -0.291214 0.000000 -1.000000 -0.000000 199 205 215 1.000000
-0.362596 -0.028081 0.656056 0.000000 1.000000 0.000000 194 200 210 1.000000
0.386303 -0.028081 0.523023 0.000000 -1.000000 -0.000000 255 255 255 1.000000
-0.020970 -0.217454 0.368667 0.000000 1.000000 0.000000 196 202 212 1.000000
0.428370 0.351770 -0.391043 1.000000 0.000000 0.000000 204 210 220 1.000000
-0.218779 -0.028081 0.671855 0.000000 -1.000000 -0.000000 255 255 255 1.000000
0.464367 -0.294694 -0.392358 1.000000 0.000000 0.000000 200 206 216 1.000000
0.375332 -0.028081 -0.013711 0.000000 1.000000 0.000000 205 211 221 1.000000
-0.384728 -0.414819 0.413066 0.000000 0.000000 -1.000000 199 205 215 1.000000
0.464367 -0.536656 -0.199868 -1.000000 0.000000 0.000000 205 211 221 1.000000
-0.308338 -0.067894 0.873195 0.000000 0.000000 -1.000000 202 208 218 1.000000
0.464367 -0.627803 0.370973 -1.000000 0.000000 0.000000 198 204 214 1.000000
-0.097473 -0.060947 0.823278 0.000000 1.000000 0.000000 255 255 255 1.000000
0.234212 -0.217454 0.366522 0.000000 1.000000 0.000000 208 214 224 1.000000
-0.399549 0.373372 0.276478 -1.000000 0.000000 0.000000 200 206 216 1.000000
-0.315136 -0.217454 -0.022607 0.000000 -1.000000 -0.000000 201 207 217 1.000000
0.407886 0.048707 -0.518147 0.000000 -0.000000 1.000000 205 211 221 1.000000
-0.399549 0.386592 0.337415 -1.000000 0.000000 0.000000 193 199 209 1.000000
0.464367 0.351288 -0.252732 -1.000000 0.000000 0.000000 203 209 219 1.000000
-0.435546 0.448611 -0.344180 1.000000 0.000000 0.000000 202 208 218 1.000000
-0.435546 -0.179738 0.349569 1.000000 0.000000 0.000000 199 205 215 1.000000
-0.160521 -0.334776 -0.518147 0.000000 0.000000 -1.000000 202 208 218 1.000000
0.464367 -0.106063 0.155605 1.000000 0.000000 0.000000 204 210 220 1.000000
0.428370 0.005893 -0.477753 -1.000000 0.000000 0.000000 202 208 218 1.000000
0.108894 0.446134 0.056436 0.000000 1.000000 0.000000 201 207 217 1.000000
0.428370 0.155029 -0.056846 1.000000 0.000000 0.000000 213 219 229 1.000000
-0.428022 -0.660367 -0.222266 0.000000 1.000000 0.000000 202 208 218 1.000000
0.290192 -0.136367 -0.497802 0.000000 -0.000000 1.000000 212 218 228 1.000000
-0.139562 -0.195445 -0.497802 0.000000 0.000000 -1.000000 199 205 215 1.000000
0.464367 0.227486 0.174498 -1.000000 0.000000 0.000000 201 207 217 1.000000
-0.425111 -0.190072 -0.518147 0.000000 -0.000000 1.000000 209 215 225 1.000000
0.464367 -0.062750 -0.031758 -1.000000 0.000000 0.000000 204 210 220 1.000000
0.426805 -0.023665 0.871605 -1.000000 0.000000 0.000000 255 255 255 1.000000
-0.435546 -0.172082 0.240827 1.000000 0.000000 0.000000 206 212 222 1.000000
-0.375254 0.607335 0.415445 0.000000 1.000000 0.000000 202 208 218 1.000000
-0.435546 0.061652 -0.209086 1.000000 0.000000 0.000000 199 205 215 1.000000
-0.188405 0.336920 -0.502497 0.000000 -0.000000 1.000000 204 210 220 1.000000
-0.399549 0.328949 -0.026899 1.000000 0.000000 0.000000 208 214 224 1.000000
0.104449 0.607335 0.407139 0.000000 1.000000 0.000000 206 212 222 1.000000
-0.399549 0.090494 -0.356216 1.000000 0.000000 0.000000 198 204 214 1.000000
0.428370 0.360489 0.255446 -1.000000 0.000000 0.000000 194 200 210 1.000000
0.428370 0.067101 0.051611 1.000000 0.000000 0.000000 211 217 227 1.000000
-0.394854 -0.051438 -0.298481 -1.000000 0.000000 0.000000 196 202 212 1.000000
-0.030902 -0.660367 -0.321955 0.000000 -1.000000 -0.000000 194 200 210 1.000000
0.464367 -0.286567 -0.145378 1.000000 0.000000 0.000000 196 202 212 1.000000
0.073992 0.446134 0.272219 0.000000 1.000000 0.000000 210 216 226 1.000000
-0.435546 -0.248664 -0.239915 -1.000000 0.000000 0.000000 196 202 212 1.000000
-0.200190 -0.186738 0.369244 0.000000 0.000000 -1.000000 205 211 221 1.000000
-0.132923 -0.028081 0.664271 0.000000 -1.000000 -0.000000 255 255 255 1.000000
0.258360 0.607335 -0.485057 0.000000 1.000000 0.000000 206 212 222 1.000000
-0.234086 -0.060947 0.760877 0.000000 1.000000 0.000000 255 255 255 1.000000
-0.320565 0.446134 -0.187610 0.000000 -1.000000 -0.000000 197 203 213 1.000000
0.464367 0.131026 0.230021 -1.000000 0.000000 0.000000 205 211 221 1.000000
-0.399549 0.214558 0.117629 -1.000000 0.000000 0.000000 205 211 221 1.000000
0.464367 -0.189113 0.374193 -1.000000 0.000000 0.000000 199 205 215 1.000000
0.150692 -0.217454 -0.412623 0.000000 1.000000 0.000000 206 212 222 1.000000
0.017776 0.607335 -0.042383 0.000000 -1.000000 -0.000000 208 214 224 1.000000
0.464367 -0.067945 -0.454749 -1.000000 0.000000 0.000000 194 200 210 1.000000
0.240979 -0.028081 0.710027 0.000000 1.000000 0.000000 206 212 222 1.000000
0.464367 -0.393549 0.243439 1.000000 0.000000 0.000000 199 205 215 1.000000
-0.405204 0.607335 0.270363 0.000000 -1.000000 -0.000000 205 211 221 1.000000
0.001421 -0.028081 0.453448 0.000000 -1.000000 -0.000000 255 255 255 1.000000
0.464367 -0.034528 0.105146 -1.000000 0.000000 0.000000 206 212 222 1.000000
0.200928 -0.660367 0.084324 0.000000 -1.000000 -0.000000 200 206 216 1.000000
-0.435546 0.397784 -0.354727 1.000000 0.000000 0.000000 204 210 220 1.000000
-0.106663 -0.060947 0.757486 0.000000 1.000000 0.000000 255 255 255 1.000000
-0.147658 0.446134 0.095629 0.000000 1.000000 0.000000 197 203 213 1.000000
0.464367 0.550900 0.137021 1.000000 0.000000 0.000000 202 208 218 1.000000
-0.045961 -0.660367 0.001405 0.000000 -1.000000 -0.000000 207 213 223 1.000000
-0.394854 -0.102546 -0.076572 -1.000000 0.000000 0.000000 199 205 215 1.000000
0.413354 -0.060947 0.805244 0.000000 1.000000 0.000000 255 255 255 1.000000
0.087593 0.371017 -0.502497 0.000000 0.000000 -1.000000 202 208 218 1.000000
-0.196441 -0.359966 0.413066 0.000000 0.000000 -1.000000 202 208 218 1.000000
-0.164978 -0.217454 -0.214476 0.000000 1.000000 0.000000 195 201 211 1.000000
-0.268859 -0.660367 -0.448377 0.000000 -1.000000 -0.000000 205 211 221 1.000000
0.164424 -0.217454 0.154800 0.000000 1.000000 0.000000 202 208 218 1.000000
-0.170280 -0.064078 0.869250 0.000000 1.000000 0.000000 255 255 255 1.000000
-0.075386 -0.118471 -0.518147 0.000000 -0.000000 1.000000 196 202 212 1.000000
-0.394854 -0.185972 -0.245901 1.000000 0.000000 0.000000 205 211 221 1.000000
-0.394854 -0.098168 0.106693 -1.000000 0.000000 0.000000 204 210 220 1.000000
-0.394854 -0.034201 -0.495790 1.000000 0.000000 0.000000 200 206 216 1.000000
0.423675 -0.203468 -0.443346 -1.000000 0.000000 0.000000 202 208 218 1.000000
0.304520 0.554094 0.420892 0.000000 -0.000000 1.000000 153 61 61 1.000000
0.180270 0.234188 -0.518147 0.000000 -0.000000 1.000000 208 214 224 1.000000
0.464367 0.131175 -0.027708 1.000000 0.000000 0.000000 208 214 224 1.000000
-0.399549 0.429532 -0.108131 -1.000000 0.000000 0.000000 205 211 221 1.000000
0.373999 -0.029646 -0.468185 0.000000 1.000000 0.000000 202 208 218 1.000000
0.464367 0.058717 -0.449554 -1.000000 0.000000 0.000000 188 194 204 1.000000
0.139643 -0.149035 -0.518147 0.000000 -0.000000 1.000000 210 216 226 1.000000
-0.010605 -0.217454 -0.181190 0.000000 1.000000 0.000000 203 209 219 1.000000
0.464367 0.160928 -0.100327 1.000000 0.000000 0.000000 204 210 220 1.000000
0.464367 0.190287 -0.271143 -1.000000 0.000000 0.000000 200 206 216 1.000000
0.318315 -0.060947 0.387458 0.000000 -1.000000 -0.000000 205 211 221 1.000000
0.374819 0.607335 0.059048 0.000000 -1.000000 -0.000000 201 207 217 1.000000
-0.435546 -0.563517 -0.414134 1.000000 0.000000 0.000000 193 199 209 1.000000
0.162947 -0.217454 -0.289337 0.000000 1.000000 0.000000 211 217 227 1.000000
-0.435546 0.315347 0.131628 1.000000 0.000000 0.000000 206 212 222 1.000000
-0.275228 -0.652167 -0.518147 0.000000 0.000000 -1.000000 209 215 225 1.000000
-0.291955 -0.217454 -0.263141 0.000000 -1.000000 -0.000000 201 207 217 1.000000
-0.028638 -0.538149 0.413066 0.000000 0.000000 -1.000000 200 206 216 1.000000
0.044972 0.446134 0.215821 0.000000 -1.000000 -0.000000 206 212 222 1.000000
-0.220964 0.183270 -0.502497 0.000000 -0.000000 1.000000 200 206 216 1.000000
0.428370 0.169347 -0.236333 -1.000000 0.000000 0.000000 200 206 216 1.000000
-0.296595 -0.469027 -0.518147 0.000000 -0.000000 1.000000 203 209 219 1.000000
-0.403282 -0.660367 -0.452911 0.000000 -1.000000 -0.000000 202 208 218 1.000000
-0.234083 0.446134 -0.059811 0.000000 1.000000 0.000000 188 194 208 1.000000
-0.394854 -0.127906 -0.301771 1.000000 0.000000 0.000000 198 204 214 1.000000
-0.084842 -0.217454 -0.327694 0.000000 -1.000000 -0.000000 192 198 208 1.000000
0.422135 -0.028081 0.719059 0.000000 -1.000000 -0.000000 255 255 255 1.000000
0.218360 -0.217454 -0.156317 0.000000 1.000000 0.000000 205 211 221 1.000000
-0.206887 -0.060947 0.610893 0.000000 1.000000 0.000000 255 255 255 1.000000
-0.367467 0.045986 -0.502497 0.000000 -0.000000 1.000000 200 206 216 1.000000
-0.415202 -0.501446 -0.518147 0.000000 0.000000 -1.000000 202 208 218 1.000000
0.193339 0.446134 0.354122 0.000000 -1.000000 -0.000000 202 208 218 1.000000
-0.167022 -0.217454 0.092892 0.000000 -1.000000 -0.000000 202 208 218 1.000000
-0.330952 0.446134 -0.105433 0.000000 -1.000000 -0.000000 202 208 218 1.000000
-0.435546 0.239732 0.244234 -1.000000 0.000000 0.000000 203 209 219 1.000000
-0.166772 0.002520 -0.518147 0.000000 0.000000 -1.000000 194 200 210 1.000000
0.428370 0.329894 -0.005569 1.000000 0.000000 0.000000 203 209 219 1.000000
-0.213512 0.607335 -0.515424 0.000000 -1.000000 -0.000000 213 219 229 1.000000
-0.147358 -0.060947 0.680569 0.000000 1.000000 0.000000 255 255 255 1.000000
-0.430850 -0.059232 0.641034 1.000000 0.000000 0.000000 255 255 255 1.000000
0.428370 0.432758 0.276892 -1.000000 0.000000 0.000000 204 210 220 1.000000
-0.180828 -0.438570 -0.518147 0.000000 -0.000000 1.000000 201 207 217 1.000000
0.380222 0.446134 -0.308553 0.000000 -1.000000 -0.000000 201 207 217 1.000000
