-0.613621 0.356243 -0.420737 0.500000 0.000000 0.500000
-0.375361 0.598591 0.428694 0.300000 0.600000 0.000000
-0.036703 0.110879 -0.127237 0.300000 0.000000 0.600000
0.153170 -0.377772 0.279919 0.600000 0.300000 0.000000
-0.256681 -0.377772 0.199578 0.600000 0.300000 0.000000
0.628399 -0.352093 0.073873 0.000000 1.000000 0.000000
0.036952 -0.018354 -0.411603 0.500000 0.000000 0.500000
-0.641181 0.653140 0.122570 0.500000 0.500000 0.000000
0.642099 0.300761 0.348543 0.000000 1.000000 0.000000
0.571457 -0.548092 0.314523 0.500000 0.000000 0.500000
-0.398401 -0.216727 -0.420737 0.500000 0.000000 0.500000
0.043155 0.164275 0.428694 0.600000 0.000000 0.300000
0.023929 -0.031150 0.428694 0.600000 0.000000 0.300000
0.628399 0.634697 -0.123791 0.000000 1.000000 0.000000
0.101947 0.493809 0.439540 0.800000 0.200000 0.500000
0.628399 -0.293678 0.208968 0.000000 1.000000 0.000000
-0.654881 -0.154480 0.361391 0.500000 0.500000 0.000000
-0.641181 -0.196089 0.321546 0.500000 0.500000 0.000000
-0.184887 -0.396040 -0.066551 0.600000 0.300000 0.000000
0.016673 -0.438397 0.300823 0.500000 0.000000 0.500000
-0.325479 -0.377772 -0.352665 0.600000 0.300000 0.000000
0.468096 -0.207818 0.445249 0.800000 0.200000 0.500000
0.642099 0.452887 0.007470 0.000000 1.000000 0.000000
0.461299 -0.059032 -0.420737 0.500000 0.000000 0.500000
-0.126036 -0.377772 0.233178 0.600000 0.300000 0.000000
-0.004586 0.403475 -0.420737 0.500000 0.000000 0.500000
-0.510421 -0.157470 0.439540 0.300000 0.600000 0.000000
-0.641181 -0.096087 -0.250979 0.500000 0.500000 0.000000
-0.514947 -0.366989 -0.420737 0.500000 0.000000 0.500000
-0.532816 -0.533748 -0.448138 0.000000 1.000000 0.000000
-0.654881 0.245500 -0.399762 0.500000 0.500000 0.000000
0.621353 0.110879 -0.051668 0.300000 0.000000 0.600000
0.088140 -0.304704 -0.420737 0.500000 0.000000 0.500000
-0.075863 -0.419774 0.300823 0.500000 0.000000 0.500000
0.007310 -0.180882 0.442522 0.800000 0.200000 0.500000
-0.320355 -0.396040 -0.155138 0.600000 0.300000 0.000000
0.642099 -0.536252 -0.045582 0.500000 0.500000 0.000000
0.526882 0.288574 0.439540 0.800000 0.200000 0.500000
0.342867 0.444711 0.439540 0.800000 0.200000 0.500000
0.008549 0.537330 0.453498 0.800000 0.200000 0.500000
0.628399 0.059075 0.128160 0.000000 1.000000 0.000000
-0.144333 0.191089 0.445249 0.300000 0.600000 0.000000
-0.322740 -0.400065 0.428694 0.000000 0.000000 1.000000
0.628399 0.596823 -0.334820 0.000000 1.000000 0.000000
-0.664015 -0.071982 0.403536 0.800000 0.200000 0.500000
0.340411 0.466879 -0.411603 0.500000 0.000000 0.500000
-0.094873 0.424641 -0.411603 0.500000 0.000000 0.500000
-0.278634 0.435970 0.439540 0.300000 0.600000 0.000000
0.402031 0.110879 -0.051204 0.300000 0.000000 0.600000
-0.371371 0.552618 0.445249 0.300000 0.600000 0.000000
0.583435 0.138280 -0.276156 0.300000 0.000000 0.600000
-0.654881 -0.572759 0.217888 0.000000 0.500000 0.500000
0.335127 0.110879 -0.304888 0.300000 0.000000 0.600000
-0.654881 0.100832 -0.226627 0.500000 0.500000 0.000000
-0.654881 -0.495035 -0.199537 0.000000 0.500000 0.500000
-0.641181 0.499760 0.172459 0.500000 0.500000 0.000000
-0.288339 0.574864 -0.411603 0.500000 0.000000 0.500000
0.224977 -0.367064 -0.411603 0.500000 0.000000 0.500000
0.312069 -0.022369 -0.411603 0.500000 0.000000 0.500000
-0.641181 -0.157370 -0.420275 0.500000 0.500000 0.000000
0.535060 -0.396040 -0.316202 0.600000 0.300000 0.000000
0.642099 0.558081 0.116253 0.000000 1.000000 0.000000
0.042156 -0.368639 0.403910 0.000000 0.000000 1.000000
0.642099 0.496184 -0.337952 0.000000 1.000000 0.000000
0.499395 -0.396040 0.008687 0.600000 0.300000 0.000000
0.442528 0.138280 -0.384125 0.300000 0.000000 0.600000
0.313878 0.631198 0.428694 0.800000 0.200000 0.500000
0.295406 -0.396040 -0.250302 0.600000 0.300000 0.000000
0.619606 0.329674 -0.411603 0.500000 0.000000 0.500000
0.617959 -0.143079 0.456095 0.800000 0.200000 0.500000
0.584735 -0.423441 0.421885 0.000000 0.000000 1.000000
0.545400 -0.377772 -0.019553 0.600000 0.300000 0.000000
-0.084990 0.110879 -0.103720 0.300000 0.000000 0.600000
0.412614 -0.551246 -0.420737 0.000000 1.000000 0.000000
-0.641181 -0.276999 0.001069 0.500000 0.500000 0.000000
-0.586906 -0.556085 0.314523 0.500000 0.000000 0.500000
0.642099 -0.032175 -0.135641 0.000000 1.000000 0.000000
0.634838 0.387838 0.454953 0.800000 0.200000 0.500000
0.465244 -0.377772 -0.387700 0.600000 0.300000 0.000000
-0.602970 -0.423441 0.404005 0.000000 0.000000 1.000000
0.310279 0.672279 -0.448138 0.600000 0.000000 0.300000
0.377440 -0.377772 0.285479 0.600000 0.300000 0.000000
-0.531013 0.138280 -0.372616 0.300000 0.000000 0.600000
-0.141349 -0.539796 -0.420737 0.000000 1.000000 0.000000
-0.081683 -0.281083 -0.411603 0.500000 0.000000 0.500000
0.142328 0.204833 0.445249 0.800000 0.200000 0.500000
0.589747 -0.396040 0.366577 0.600000 0.300000 0.000000
0.566948 0.138280 -0.201608 0.300000 0.000000 0.600000
-0.061193 -0.346674 0.403761 0.600000 0.000000 0.300000
0.642099 -0.513143 0.169820 0.500000 0.500000 0.000000
-0.573514 0.196760 0.429652 0.300000 0.600000 0.000000
-0.602790 0.492336 0.456095 0.300000 0.600000 0.000000
0.471601 -0.377772 -0.049392 0.600000 0.300000 0.000000
0.378363 -0.377772 0.223651 0.600000 0.300000 0.000000
0.512287 -0.475912 -0.448138 0.000000 1.000000 0.000000
0.342562 -0.377772 -0.150161 0.600000 0.300000 0.000000
0.227938 -0.396040 -0.341274 0.600000 0.300000 0.000000
0.628399 -0.360619 -0.304944 0.000000 1.000000 0.000000
-0.654881 0.389124 -0.426587 0.500000 0.500000 0.000000
-0.572858 0.102276 0.453730 0.300000 0.600000 0.000000
0.180283 -0.396040 -0.199406 0.600000 0.300000 0.000000
-0.202233 -0.175621 0.445249 0.300000 0.600000 0.000000
-0.641181 0.463072 -0.160964 0.500000 0.500000 0.000000
0.016113 -0.152092 0.428694 0.600000 0.000000 0.300000
0.138396 0.600319 0.456095 0.800000 0.200000 0.500000
0.628399 -0.183241 0.121614 0.000000 1.000000 0.000000
-0.142524 -0.396040 -0.274949 0.600000 0.300000 0.000000
-0.171808 0.138280 -0.219600 0.300000 0.000000 0.600000
-0.137078 -0.377772 -0.397368 0.600000 0.300000 0.000000
-0.185079 -0.346603 0.428694 0.300000 0.600000 0.000000
-0.641181 -0.509720 -0.308253 0.000000 0.500000 0.500000
0.140175 -0.396040 -0.289081 0.600000 0.300000 0.000000
0.642099 0.667551 0.159849 0.000000 1.000000 0.000000
0.642099 -0.270955 0.060464 0.000000 1.000000 0.000000
0.108273 -0.170491 0.439540 0.800000 0.200000 0.500000
-0.237597 0.271298 0.445249 0.300000 0.600000 0.000000
-0.298567 0.285515 0.445249 0.300000 0.600000 0.000000
-0.022294 0.319656 0.401293 0.600000 0.000000 0.300000
0.037338 -0.377772 0.003422 0.600000 0.300000 0.000000
-0.184482 -0.396040 -0.365484 0.600000 0.300000 0.000000
-0.410829 0.414892 0.445249 0.300000 0.600000 0.000000
-0.225902 0.110879 -0.312618 0.300000 0.000000 0.600000
0.627891 0.352701 0.428694 0.300000 0.000000 0.600000
-0.282181 -0.377772 -0.313424 0.600000 0.300000 0.000000
0.068498 -0.423844 -0.420737 0.000000 1.000000 0.000000
-0.594288 -0.137428 -0.420737 0.500000 0.000000 0.500000
-0.463630 0.110879 -0.206902 0.300000 0.000000 0.600000
0.628115 -0.087681 0.456095 0.800000 0.200000 0.500000
-0.147482 -0.048451 -0.420737 0.500000 0.000000 0.500000
0.413659 0.138280 -0.318362 0.300000 0.000000 0.600000
0.642099 0.532274 -0.243325 0.000000 1.000000 0.000000
-0.641181 -0.355338 0.092762 0.500000 0.500000 0.000000
-0.185732 0.653426 -0.420737 0.600000 0.000000 0.300000
0.062617 0.110879 -0.128824 0.300000 0.000000 0.600000
-0.369079 0.110879 -0.339073 0.300000 0.000000 0.600000
0.004606 -0.396040 0.359540 0.600000 0.300000 0.000000
-0.603316 -0.003860 0.428694 0.300000 0.600000 0.000000
-0.608985 -0.396040 0.264767 0.600000 0.300000 0.000000
-0.558133 -0.377772 -0.022275 0.600000 0.300000 0.000000
0.642099 -0.429987 -0.210479 0.500000 0.500000 0.000000
-0.664015 -0.033315 0.427851 0.800000 0.200000 0.500000
0.423430 0.110879 -0.165836 0.300000 0.000000 0.600000
0.610551 0.138280 -0.188422 0.300000 0.000000 0.600000
-0.123446 -0.355924 0.428694 0.300000 0.600000 0.000000
-0.352768 -0.544362 -0.420737 0.000000 1.000000 0.000000
-0.354027 -0.377772 -0.310255 0.600000 0.300000 0.000000
-0.621329 0.329877 0.401293 0.800000 0.200000 0.500000
-0.119801 0.595217 0.428694 0.300000 0.600000 0.000000
0.628399 -0.102771 -0.158060 0.000000 1.000000 0.000000
0.384803 -0.394647 0.401293 0.600000 0.300000 0.000000
-0.251647 -0.396040 0.134963 0.600000 0.300000 0.000000
0.629975 -0.423441 0.131728 0.500000 0.500000 0.000000
-0.636200 -0.396040 -0.247173 0.600000 0.300000 0.000000
-0.584370 0.480144 -0.411603 0.500000 0.000000 0.500000
0.495982 -0.396040 0.290362 0.600000 0.300000 0.000000
-0.537812 0.138280 -0.231208 0.300000 0.000000 0.600000
0.265129 0.576025 -0.411603 0.500000 0.000000 0.500000
-0.235500 0.138280 -0.281312 0.300000 0.000000 0.600000
0.013632 0.375694 0.401293 0.600000 0.000000 0.300000
-0.405669 0.048034 -0.411603 0.500000 0.000000 0.500000
-0.641181 -0.423561 0.137099 0.000000 0.500000 0.500000
0.025517 -0.222971 -0.420737 0.500000 0.000000 0.500000
0.039508 0.411111 0.428694 0.800000 0.200000 0.500000
0.623367 0.099051 0.428694 0.300000 0.000000 0.600000
0.450829 0.110879 -0.274330 0.300000 0.000000 0.600000
-0.654881 0.154349 0.046803 0.500000 0.500000 0.000000
0.100954 0.061241 0.439540 0.800000 0.200000 0.500000
-0.112615 -0.460966 -0.420737 0.000000 1.000000 0.000000
-0.514229 0.138280 -0.098737 0.300000 0.000000 0.600000
-0.298670 0.138280 -0.296010 0.300000 0.000000 0.600000
0.108032 -0.395578 -0.420737 0.500000 0.000000 0.500000
0.216828 0.138280 -0.050825 0.300000 0.000000 0.600000
-0.038989 0.299100 0.428694 0.300000 0.600000 0.000000
0.442471 0.581678 -0.420737 0.500000 0.000000 0.500000
0.642099 -0.390139 0.219748 0.000000 1.000000 0.000000
0.028656 -0.584436 -0.448138 0.000000 1.000000 0.000000
-0.631240 -0.260665 0.456095 0.300000 0.600000 0.000000
-0.436091 0.518726 0.439540 0.300000 0.600000 0.000000
0.621989 0.371798 -0.411603 0.500000 0.000000 0.500000
0.642099 -0.094404 -0.299801 0.000000 1.000000 0.000000
-0.654881 -0.578087 -0.185114 0.000000 0.500000 0.500000
0.188566 0.249154 0.439540 0.800000 0.200000 0.500000
0.642099 0.646457 0.112458 0.000000 1.000000 0.000000
-0.573450 0.059772 0.429790 0.300000 0.600000 0.000000
-0.060778 0.138280 -0.101287 0.300000 0.000000 0.600000
0.276031 0.636618 -0.420737 0.600000 0.000000 0.300000
-0.165821 -0.439898 -0.420737 0.000000 1.000000 0.000000
-0.615196 0.646520 0.428694 0.300000 0.600000 0.000000
-0.654881 0.310406 -0.011035 0.500000 0.500000 0.000000
0.199388 -0.377772 0.029417 0.600000 0.300000 0.000000
-0.039167 -0.167738 0.456095 0.300000 0.600000 0.000000
0.037710 0.548236 0.456095 0.800000 0.200000 0.500000
-0.641181 -0.301832 0.339568 0.500000 0.500000 0.000000
0.053174 -0.377772 0.279181 0.600000 0.300000 0.000000
0.423322 0.467332 0.439540 0.800000 0.200000 0.500000
0.642099 -0.097260 -0.220122 0.000000 1.000000 0.000000
-0.047904 0.364803 0.401293 0.600000 0.000000 0.300000
0.628399 0.231328 -0.409036 0.000000 1.000000 0.000000
-0.641181 0.612521 -0.342637 0.500000 0.500000 0.000000
0.074740 0.008355 0.456095 0.800000 0.200000 0.500000
0.617395 0.110879 -0.298018 0.300000 0.000000 0.600000
-0.495111 0.110879 -0.207677 0.300000 0.000000 0.600000
0.409150 -0.336397 0.456095 0.800000 0.200000 0.500000
0.498087 -0.560645 0.314523 0.500000 0.000000 0.500000
0.174924 -0.524665 -0.420737 0.000000 1.000000 0.000000
-0.641181 -0.005389 0.229674 0.500000 0.500000 0.000000
-0.593695 0.110879 -0.294871 0.300000 0.000000 0.600000
-0.654881 -0.540016 0.231567 0.000000 0.500000 0.500000
-0.108402 0.278010 0.445249 0.300000 0.600000 0.000000
-0.654881 0.393920 -0.082775 0.500000 0.500000 0.000000
-0.657709 0.499259 0.428694 0.800000 0.200000 0.500000
-0.169000 -0.549329 -0.448138 0.000000 1.000000 0.000000
-0.639499 -0.377772 -0.098992 0.600000 0.300000 0.000000
0.642099 0.103266 0.308683 0.000000 1.000000 0.000000
-0.372395 -0.326994 -0.411603 0.500000 0.000000 0.500000
0.323840 -0.396040 -0.037419 0.600000 0.300000 0.000000
0.628399 -0.064997 0.135756 0.000000 1.000000 0.000000
0.600961 -0.396040 -0.043782 0.600000 0.300000 0.000000
-0.407351 -0.252614 0.439540 0.300000 0.600000 0.000000
0.598139 0.450524 0.456095 0.800000 0.200000 0.500000
0.050239 -0.172368 -0.411603 0.500000 0.000000 0.500000
0.078046 0.360238 0.456095 0.800000 0.200000 0.500000
0.637293 0.027323 -0.448138 0.000000 1.000000 0.000000
0.628399 -0.127958 0.268413 0.000000 1.000000 0.000000
0.027114 -0.409740 0.452229 0.800000 0.200000 0.500000
0.628399 -0.145434 0.344165 0.000000 1.000000 0.000000
0.127153 -0.272898 -0.411603 0.500000 0.000000 0.500000
0.347869 0.640566 0.401293 1.000000 0.000000 0.000000
-0.209679 0.110879 -0.168529 0.300000 0.000000 0.600000
0.574037 0.506302 0.456095 0.800000 0.200000 0.500000
0.589363 0.671039 0.401293 1.000000 0.000000 0.000000
-0.641181 0.104324 -0.261361 0.500000 0.500000 0.000000
-0.641181 0.647233 -0.114876 0.500000 0.500000 0.000000
0.080777 -0.377772 -0.283387 0.600000 0.300000 0.000000
-0.258553 0.110879 -0.177847 0.300000 0.000000 0.600000
0.606470 -0.364441 0.401293 0.300000 0.000000 0.600000
-0.641181 0.510173 0.289716 0.500000 0.500000 0.000000
0.102969 -0.377772 -0.028130 0.600000 0.300000 0.000000
0.628399 0.578844 0.060085 0.000000 1.000000 0.000000
-0.654881 -0.367400 0.262276 0.500000 0.500000 0.000000
-0.625900 -0.420121 -0.448138 0.000000 1.000000 0.000000
-0.641181 -0.244635 0.291576 0.500000 0.500000 0.000000
0.642099 -0.412908 -0.274804 0.000000 1.000000 0.000000
-0.654881 0.489600 0.109752 0.500000 0.500000 0.000000
0.217597 0.367495 -0.420737 0.500000 0.000000 0.500000
0.302716 0.110879 -0.372717 0.300000 0.000000 0.600000
-0.420507 -0.584216 -0.448138 0.000000 1.000000 0.000000
-0.345743 0.612997 -0.420737 0.500000 0.000000 0.500000
-0.598421 -0.396040 -0.299097 0.600000 0.300000 0.000000
-0.271117 -0.396040 0.019733 0.600000 0.300000 0.000000
0.628399 0.232374 0.005358 0.000000 1.000000 0.000000
-0.220751 -0.396040 -0.079464 0.600000 0.300000 0.000000
-0.125703 -0.377772 -0.024769 0.600000 0.300000 0.000000
0.642099 0.163873 0.283975 0.000000 1.000000 0.000000
-0.042553 -0.398270 0.428694 0.000000 0.000000 1.000000
-0.389537 0.087626 -0.420737 0.500000 0.000000 0.500000
0.224270 -0.396040 -0.157250 0.600000 0.300000 0.000000
0.019462 0.138280 -0.371490 0.300000 0.000000 0.600000
-0.129235 0.597128 -0.411603 0.500000 0.000000 0.500000
-0.306711 -0.377772 0.135122 0.600000 0.300000 0.000000
-0.610906 0.491463 -0.420737 0.500000 0.000000 0.500000
-0.248485 0.640328 0.428694 1.000000 0.000000 0.000000
0.344622 0.121215 -0.420737 0.500000 0.000000 0.500000
0.078862 0.110879 -0.211248 0.300000 0.000000 0.600000
0.628399 0.439462 -0.065195 0.000000 1.000000 0.000000
0.408793 -0.038592 -0.411603 0.500000 0.000000 0.500000
-0.633650 0.184794 -0.411603 0.500000 0.000000 0.500000
0.128598 0.138280 -0.021816 0.300000 0.000000 0.600000
-0.609213 -0.160469 0.402121 0.800000 0.200000 0.500000
-0.401248 -0.400072 0.401293 0.000000 0.000000 1.000000
-0.220558 -0.396040 0.102529 0.600000 0.300000 0.000000
0.642099 0.345338 -0.295615 0.000000 1.000000 0.000000
0.079775 0.229748 0.456095 0.800000 0.200000 0.500000
-0.500541 -0.368639 0.416063 0.000000 0.000000 1.000000
0.026694 0.629200 0.456095 0.800000 0.200000 0.500000
-0.118777 0.110879 -0.069330 0.300000 0.000000 0.600000
-0.641181 -0.346531 -0.109763 0.500000 0.500000 0.000000
-0.497477 0.110879 -0.090903 0.300000 0.000000 0.600000
-0.641181 -0.328780 0.202189 0.500000 0.500000 0.000000
0.064474 0.141576 0.456095 0.800000 0.200000 0.500000
-0.562007 0.334472 -0.420737 0.500000 0.000000 0.500000
-0.580272 -0.418669 0.314523 0.500000 0.000000 0.500000
-0.641181 0.494668 -0.037949 0.500000 0.500000 0.000000
0.250707 -0.459927 -0.448138 0.000000 1.000000 0.000000
0.628399 0.275240 0.128470 0.000000 1.000000 0.000000
-0.081976 0.603432 0.428694 0.300000 0.600000 0.000000
-0.089707 -0.377772 0.211232 0.600000 0.300000 0.000000
-0.641181 0.209752 -0.139006 0.500000 0.500000 0.000000
0.630101 0.149903 -0.448138 0.000000 1.000000 0.000000
-0.291288 -0.396040 -0.193660 0.600000 0.300000 0.000000
0.624677 0.156946 0.401293 0.300000 0.000000 0.600000
-0.641181 0.581374 -0.191087 0.500000 0.500000 0.000000
-0.558951 -0.513677 -0.420737 0.000000 1.000000 0.000000
-0.481609 -0.377772 -0.090373 0.600000 0.300000 0.000000
0.085230 -0.396040 0.383309 0.600000 0.300000 0.000000
-0.161503 -0.377772 -0.349594 0.600000 0.300000 0.000000
0.642099 0.553749 0.165931 0.000000 1.000000 0.000000
0.033187 0.145967 -0.411603 0.500000 0.000000 0.500000
-0.010402 -0.399488 0.300823 0.500000 0.000000 0.500000
-0.260992 0.658717 -0.448138 0.600000 0.000000 0.300000
-0.481331 -0.396040 0.032934 0.600000 0.300000 0.000000
0.269428 -0.431652 -0.448138 0.000000 1.000000 0.000000
0.124840 -0.070577 0.445249 0.800000 0.200000 0.500000
0.628399 -0.558682 -0.324386 0.500000 0.500000 0.000000
0.628399 -0.321319 0.117751 0.000000 1.000000 0.000000
0.461543 -0.409261 0.401293 0.000000 0.000000 1.000000
-0.654881 -0.587015 -0.222086 0.000000 0.500000 0.500000
-0.463519 -0.377772 0.082636 0.600000 0.300000 0.000000
-0.278290 -0.587847 -0.422089 0.000000 1.000000 0.000000
0.628399 0.096594 0.033237 0.000000 1.000000 0.000000
-0.436641 0.138280 -0.233072 0.300000 0.000000 0.600000
-0.622406 0.110879 -0.143558 0.300000 0.000000 0.600000
0.561137 -0.377772 0.008315 0.600000 0.300000 0.000000
-0.024012 -0.133445 0.428694 0.300000 0.600000 0.000000
-0.009549 -0.561967 0.314523 0.500000 0.000000 0.500000
0.628399 -0.353637 -0.129339 0.000000 1.000000 0.000000
-0.491324 0.650310 0.456095 0.300000 0.600000 0.000000
-0.532837 -0.532353 0.300823 0.500000 0.000000 0.500000
-0.654881 -0.390024 0.394179 0.500000 0.500000 0.000000
-0.654881 -0.494375 -0.017719 0.000000 0.500000 0.500000
0.283620 -0.396040 -0.173768 0.600000 0.300000 0.000000
-0.654881 -0.390711 -0.064898 0.500000 0.500000 0.000000
-0.348387 -0.396040 0.254339 0.600000 0.300000 0.000000
-0.536755 -0.377772 0.292039 0.600000 0.300000 0.000000
-0.654881 0.051064 -0.169008 0.500000 0.500000 0.000000
-0.033723 0.534322 0.428694 0.600000 0.000000 0.300000
-0.654881 0.148187 0.385512 0.500000 0.500000 0.000000
-0.641181 0.270826 0.246119 0.500000 0.500000 0.000000
0.628399 0.591232 0.094880 0.000000 1.000000 0.000000
0.277467 0.110879 -0.035051 0.300000 0.000000 0.600000
-0.334268 0.642979 0.401293 1.000000 0.000000 0.000000
0.524517 -0.352091 0.428694 0.800000 0.200000 0.500000
0.325859 -0.377772 -0.254321 0.600000 0.300000 0.000000
-0.654881 -0.539917 -0.103887 0.000000 0.500000 0.500000
0.640265 -0.552590 0.314523 0.500000 0.500000 0.000000
-0.011191 0.138280 -0.037962 0.300000 0.000000 0.600000
-0.173793 0.138280 -0.141286 0.300000 0.000000 0.600000
0.067003 0.599935 -0.420737 0.500000 0.000000 0.500000
0.356384 -0.565729 0.300823 0.500000 0.000000 0.500000
0.062013 -0.377772 0.166429 0.600000 0.300000 0.000000
0.642099 -0.160080 0.141681 0.000000 1.000000 0.000000
0.642099 0.036745 0.160606 0.000000 1.000000 0.000000
0.224832 0.178138 0.439540 0.800000 0.200000 0.500000
0.361280 0.334752 -0.411603 0.500000 0.000000 0.500000
0.272353 0.110879 -0.225783 0.300000 0.000000 0.600000
0.141451 0.383915 -0.411603 0.500000 0.000000 0.500000
-0.183525 0.077467 -0.411603 0.500000 0.000000 0.500000
-0.598640 0.626931 -0.392146 0.000000 1.000000 0.000000
0.545003 -0.478273 -0.420737 0.000000 1.000000 0.000000
0.522993 -0.050531 -0.420737 0.500000 0.000000 0.500000
-0.641181 -0.086844 -0.353055 0.500000 0.500000 0.000000
-0.213543 0.382556 -0.411603 0.500000 0.000000 0.500000
-0.629433 0.655337 -0.420737 0.600000 0.000000 0.300000
-0.446356 -0.059160 0.445249 0.300000 0.600000 0.000000
0.102559 -0.396040 -0.315954 0.600000 0.300000 0.000000
-0.619448 0.042973 0.456095 0.300000 0.600000 0.000000
-0.654881 -0.349707 -0.381559 0.500000 0.500000 0.000000
0.414999 -0.031777 0.439540 0.800000 0.200000 0.500000
0.642099 -0.530734 -0.113613 0.500000 0.500000 0.000000
0.524953 0.138280 -0.226293 0.300000 0.000000 0.600000
-0.008021 0.311406 -0.420737 0.500000 0.000000 0.500000
0.621929 0.177585 0.428694 0.800000 0.200000 0.500000
-0.641181 0.446023 -0.130280 0.500000 0.500000 0.000000
-0.641181 0.642755 0.239808 0.500000 0.500000 0.000000
0.642099 -0.277505 -0.433396 0.000000 1.000000 0.000000
0.034835 -0.419641 0.401293 0.000000 0.000000 1.000000
0.486345 -0.507204 -0.448138 0.000000 1.000000 0.000000
0.600818 0.081226 0.456095 0.800000 0.200000 0.500000
-0.641181 0.236657 -0.300062 0.500000 0.500000 0.000000
0.048411 0.383732 0.424785 0.600000 0.000000 0.300000
0.582998 0.645198 -0.403173 0.800000 0.200000 0.500000
-0.159396 0.560443 -0.420737 0.500000 0.000000 0.500000
0.601822 0.110879 -0.376729 0.300000 0.000000 0.600000
0.099973 0.586737 0.428694 0.800000 0.200000 0.500000
-0.042034 0.129246 0.428694 0.600000 0.000000 0.300000
-0.392801 0.670173 0.401293 1.000000 0.000000 0.000000
-0.380193 0.498840 -0.411603 0.500000 0.000000 0.500000
0.561701 0.645198 0.370957 0.000000 0.000000 1.000000
-0.654881 0.482505 0.199528 0.500000 0.500000 0.000000
-0.641181 0.598245 -0.129176 0.500000 0.500000 0.000000
0.564481 0.149709 -0.420737 0.500000 0.000000 0.500000
0.185996 -0.396040 -0.005076 0.600000 0.300000 0.000000
-0.093066 -0.313431 0.456095 0.300000 0.600000 0.000000
-0.222514 0.223666 0.439540 0.300000 0.600000 0.000000
-0.387393 -0.532340 -0.448138 0.000000 1.000000 0.000000
-0.257867 -0.377772 0.254377 0.600000 0.300000 0.000000
-0.147546 -0.377772 -0.318169 0.600000 0.300000 0.000000
0.058590 -0.377772 -0.127562 0.600000 0.300000 0.000000
0.642099 0.447686 0.254813 0.000000 1.000000 0.000000
-0.654881 0.403899 -0.037332 0.500000 0.500000 0.000000
-0.583532 0.138280 -0.150002 0.300000 0.000000 0.600000
0.333280 -0.267170 0.439540 0.800000 0.200000 0.500000
-0.620247 0.573975 0.428694 0.300000 0.600000 0.000000
0.642099 -0.270120 0.392723 0.000000 1.000000 0.000000
0.628399 -0.378570 -0.083727 0.000000 1.000000 0.000000
0.328319 -0.396040 0.057486 0.600000 0.300000 0.000000
0.628399 0.604604 0.193125 0.000000 1.000000 0.000000
0.321473 0.110879 -0.265389 0.300000 0.000000 0.600000
0.513846 -0.377772 -0.058208 0.600000 0.300000 0.000000
-0.497741 -0.129620 0.445249 0.300000 0.600000 0.000000
-0.499803 0.059252 -0.420737 0.500000 0.000000 0.500000
-0.221753 -0.402009 0.428694 0.300000 0.600000 0.000000
-0.256757 -0.396040 -0.366066 0.600000 0.300000 0.000000
-0.196561 0.110879 -0.233735 0.300000 0.000000 0.600000
-0.648681 -0.500740 -0.448138 0.000000 0.500000 0.500000
0.073615 0.113759 -0.420737 0.500000 0.000000 0.500000
0.243461 -0.546330 -0.420737 0.000000 1.000000 0.000000
0.394652 -0.092552 -0.411603 0.500000 0.000000 0.500000
0.178763 -0.167860 -0.411603 0.500000 0.000000 0.500000
0.465534 -0.396040 -0.027756 0.600000 0.300000 0.000000
-0.641181 0.144153 -0.155176 0.500000 0.500000 0.000000
-0.575604 0.138280 -0.363284 0.300000 0.000000 0.600000
-0.602283 0.237638 -0.411603 0.500000 0.000000 0.500000
-0.558187 0.561508 -0.411603 0.500000 0.000000 0.500000
0.642099 0.353134 0.210187 0.000000 1.000000 0.000000
0.233696 0.659810 -0.420737 0.600000 0.000000 0.300000
-0.033273 0.586885 0.428694 0.600000 0.000000 0.300000
0.628399 0.159919 -0.048677 0.000000 1.000000 0.000000
0.645131 -0.150634 0.401293 0.300000 0.000000 0.600000
-0.044506 -0.417866 -0.420737 0.000000 1.000000 0.000000
0.002832 0.467848 -0.420737 0.500000 0.000000 0.500000
0.156108 0.649462 0.428694 1.000000 0.000000 0.000000
0.455893 0.230869 0.439540 0.800000 0.200000 0.500000
-0.058348 0.632574 0.456095 0.300000 0.600000 0.000000
0.051879 -0.321472 0.456095 0.800000 0.200000 0.500000
0.300260 -0.377772 0.072668 0.600000 0.300000 0.000000
0.083453 0.326039 0.456095 0.800000 0.200000 0.500000
-0.362886 0.110879 -0.151976 0.300000 0.000000 0.600000
-0.641181 0.510266 -0.243152 0.500000 0.500000 0.000000
-0.275508 0.097812 -0.411603 0.500000 0.000000 0.500000
0.075386 -0.396040 0.188298 0.600000 0.300000 0.000000
-0.654881 -0.387219 0.307680 0.500000 0.500000 0.000000
0.248850 0.110879 -0.266661 0.300000 0.000000 0.600000
0.280305 -0.077850 0.439540 0.800000 0.200000 0.500000
0.628399 0.419004 0.364515 0.000000 1.000000 0.000000
-0.355591 -0.395500 0.428694 0.000000 0.000000 1.000000
-0.276903 0.138280 -0.266862 0.300000 0.000000 0.600000
-0.186865 -0.396040 0.293087 0.600000 0.300000 0.000000
0.436069 0.110879 -0.085443 0.300000 0.000000 0.600000
-0.125548 0.138280 -0.165172 0.300000 0.000000 0.600000
0.213304 0.091744 0.445249 0.800000 0.200000 0.500000
-0.641181 0.152889 0.152883 0.500000 0.500000 0.000000
0.536645 -0.377772 -0.191239 0.600000 0.300000 0.000000
-0.134209 -0.322048 -0.420737 0.500000 0.000000 0.500000
0.345100 -0.333019 0.429483 0.800000 0.200000 0.500000
0.143509 -0.361775 0.428694 0.800000 0.200000 0.500000
-0.097180 0.565992 -0.411603 0.500000 0.000000 0.500000
0.290601 -0.360688 -0.411603 0.500000 0.000000 0.500000
-0.121735 0.540611 -0.420737 0.500000 0.000000 0.500000
-0.625369 -0.403397 0.456095 0.300000 0.600000 0.000000
-0.028814 0.628395 0.428694 0.300000 0.600000 0.000000
-0.641181 0.605459 0.296889 0.500000 0.500000 0.000000
0.184220 0.566148 -0.448138 0.600000 0.000000 0.300000
-0.544894 0.110879 -0.190522 0.300000 0.000000 0.600000
0.519817 0.211994 0.439540 0.800000 0.200000 0.500000
0.642099 0.540082 -0.361768 0.000000 1.000000 0.000000
0.381396 0.110879 -0.217757 0.300000 0.000000 0.600000
-0.455265 -0.530546 -0.448138 0.000000 1.000000 0.000000
-0.534008 -0.377772 -0.385362 0.600000 0.300000 0.000000
-0.338065 -0.388539 0.401293 0.600000 0.300000 0.000000
0.511300 -0.535056 0.314523 0.500000 0.000000 0.500000
-0.316090 -0.396040 0.371049 0.600000 0.300000 0.000000
-0.447212 -0.377772 -0.110564 0.600000 0.300000 0.000000
-0.158243 0.138280 -0.192510 0.300000 0.000000 0.600000
0.229156 -0.396040 -0.061506 0.600000 0.300000 0.000000
0.642099 0.138868 0.352084 0.000000 1.000000 0.000000
0.520764 -0.376367 0.456095 0.800000 0.200000 0.500000
-0.646072 -0.238848 0.401293 0.800000 0.200000 0.500000
-0.362294 -0.474997 0.300823 0.500000 0.000000 0.500000
-0.387383 -0.377772 -0.164630 0.600000 0.300000 0.000000
-0.251167 -0.539995 0.314523 0.500000 0.000000 0.500000
-0.487585 -0.476450 -0.448138 0.000000 1.000000 0.000000
-0.590057 0.138280 -0.118085 0.300000 0.000000 0.600000
0.628399 -0.102617 0.308235 0.000000 1.000000 0.000000
-0.053504 0.462974 0.428694 0.300000 0.600000 0.000000
-0.063123 0.410559 0.495947 0.600000 0.000000 0.300000
0.494815 0.491982 -0.411603 0.500000 0.000000 0.500000
0.259266 -0.335221 0.428694 0.800000 0.200000 0.500000
0.111942 -0.438210 0.300823 0.500000 0.000000 0.500000
-0.641181 0.340058 0.305840 0.500000 0.500000 0.000000
0.628399 0.156640 -0.216974 0.000000 1.000000 0.000000
0.185657 0.387545 0.445249 0.800000 0.200000 0.500000
-0.347247 -0.377772 -0.218809 0.600000 0.300000 0.000000
0.029257 -0.396040 -0.190857 0.600000 0.300000 0.000000
-0.641181 -0.069180 0.005822 0.500000 0.500000 0.000000
0.029596 0.493632 0.456095 0.800000 0.200000 0.500000
-0.030426 -0.377772 -0.362245 0.600000 0.300000 0.000000
-0.654881 -0.133450 0.009616 0.500000 0.500000 0.000000
0.496921 0.610913 0.428694 0.800000 0.200000 0.500000
-0.192057 0.138280 -0.310502 0.300000 0.000000 0.600000
0.600179 0.534868 -0.411603 0.500000 0.000000 0.500000
0.337648 -0.377772 0.377567 0.600000 0.300000 0.000000
-0.452518 -0.377772 -0.222748 0.600000 0.300000 0.000000
0.055772 0.190398 0.428694 0.800000 0.200000 0.500000
0.642099 0.065502 -0.021826 0.000000 1.000000 0.000000
-0.297352 0.599002 0.428694 0.300000 0.600000 0.000000
0.024003 -0.377772 0.199584 0.600000 0.300000 0.000000
-0.212525 -0.396040 -0.371566 0.600000 0.300000 0.000000
-0.241196 0.086541 -0.420737 0.500000 0.000000 0.500000
-0.056038 -0.253556 0.428694 0.300000 0.600000 0.000000
-0.641181 -0.343708 0.140301 0.500000 0.500000 0.000000
-0.431575 -0.396040 -0.016259 0.600000 0.300000 0.000000
0.025543 -0.463153 -0.420737 0.000000 1.000000 0.000000
-0.654881 0.591550 -0.408278 0.500000 0.500000 0.000000
0.387428 -0.452723 0.300823 0.500000 0.000000 0.500000
0.628399 0.261899 -0.246857 0.000000 1.000000 0.000000
-0.059081 -0.409740 0.452169 0.300000 0.600000 0.000000
0.066675 0.645696 0.428694 0.800000 0.200000 0.500000
-0.641181 0.247946 0.277813 0.500000 0.500000 0.000000
0.052396 0.079777 0.456095 0.800000 0.200000 0.500000
-0.147111 -0.377772 0.176201 0.600000 0.300000 0.000000
0.015805 0.262510 0.456095 0.800000 0.200000 0.500000
-0.654881 0.114940 0.314344 0.500000 0.500000 0.000000
0.264231 -0.334089 -0.420737 0.500000 0.000000 0.500000
-0.091317 -0.172794 0.428694 0.300000 0.600000 0.000000
-0.546694 0.145776 -0.420737 0.500000 0.000000 0.500000
0.628399 0.585572 -0.230824 0.000000 1.000000 0.000000
-0.138621 -0.085853 0.445249 0.300000 0.600000 0.000000
0.600447 0.110879 -0.170557 0.300000 0.000000 0.600000
-0.196796 0.272981 0.445249 0.300000 0.600000 0.000000
-0.585866 -0.377772 -0.107134 0.600000 0.300000 0.000000
0.373809 0.110879 -0.185518 0.300000 0.000000 0.600000
-0.194557 -0.553743 0.314523 0.500000 0.000000 0.500000
-0.546065 -0.396040 -0.251260 0.600000 0.300000 0.000000
-0.105561 0.110879 -0.018581 0.300000 0.000000 0.600000
-0.432803 -0.219140 0.445249 0.300000 0.600000 0.000000
-0.624664 -0.032544 0.428694 0.300000 0.600000 0.000000
-0.641181 0.101343 -0.060154 0.500000 0.500000 0.000000
0.508193 0.110879 -0.050509 0.300000 0.000000 0.600000
-0.450316 -0.377772 -0.285116 0.600000 0.300000 0.000000
-0.085647 -0.432170 -0.420737 0.000000 1.000000 0.000000
-0.057103 -0.396040 -0.132656 0.600000 0.300000 0.000000
0.015620 0.110879 -0.022583 0.300000 0.000000 0.600000
0.642099 -0.123814 -0.400977 0.000000 1.000000 0.000000
0.032177 -0.104770 0.428694 0.600000 0.000000 0.300000
0.450788 0.301235 0.445249 0.800000 0.200000 0.500000
0.134873 0.403053 0.439540 0.800000 0.200000 0.500000
-0.641181 -0.154616 0.190058 0.500000 0.500000 0.000000
0.411045 0.597814 -0.420737 0.500000 0.000000 0.500000
0.642099 0.667181 -0.113933 0.000000 1.000000 0.000000
0.642099 -0.008994 0.261779 0.000000 1.000000 0.000000
0.037754 0.045598 0.428694 0.800000 0.200000 0.500000
-0.093220 -0.377772 -0.252940 0.600000 0.300000 0.000000
-0.011045 0.138280 -0.263353 0.300000 0.000000 0.600000
-0.061189 -0.396040 0.189863 0.600000 0.300000 0.000000
-0.641181 0.033418 0.262124 0.500000 0.500000 0.000000
-0.120812 -0.421973 0.428694 0.000000 0.000000 1.000000
-0.233725 -0.423912 -0.448138 0.000000 1.000000 0.000000
0.545942 0.180785 0.439540 0.800000 0.200000 0.500000
0.220588 -0.377772 0.315722 0.600000 0.300000 0.000000
0.299235 -0.376742 0.456095 0.800000 0.200000 0.500000
0.628399 -0.029395 -0.338815 0.000000 1.000000 0.000000
-0.372016 -0.078992 0.445249 0.300000 0.600000 0.000000
0.546256 -0.377772 0.383330 0.600000 0.300000 0.000000
-0.621083 -0.373205 -0.421146 0.000000 1.000000 0.000000
-0.002504 0.357673 0.428694 0.600000 0.000000 0.300000
0.190282 0.641019 -0.420737 0.600000 0.000000 0.300000
0.513755 -0.396040 0.073568 0.600000 0.300000 0.000000
0.153052 -0.396040 -0.316219 0.600000 0.300000 0.000000
0.642099 -0.441331 -0.177687 0.500000 0.500000 0.000000
-0.411472 0.029821 0.445249 0.300000 0.600000 0.000000
0.389309 -0.396040 -0.288890 0.600000 0.300000 0.000000
-0.392492 0.190039 0.445249 0.300000 0.600000 0.000000
-0.567043 0.170544 -0.411603 0.500000 0.000000 0.500000
0.518832 0.458581 0.445249 0.800000 0.200000 0.500000
0.209230 -0.330465 0.449831 0.800000 0.200000 0.500000
0.406743 -0.092693 0.439540 0.800000 0.200000 0.500000
0.576784 0.480699 -0.411603 0.500000 0.000000 0.500000
0.628398 -0.376696 -0.444818 0.000000 1.000000 0.000000
-0.185625 -0.396040 0.160334 0.600000 0.300000 0.000000
0.628399 -0.300862 -0.111044 0.000000 1.000000 0.000000
-0.654881 0.310430 -0.241372 0.500000 0.500000 0.000000
0.059797 -0.117392 0.428694 0.800000 0.200000 0.500000
-0.012568 -0.011719 -0.411603 0.500000 0.000000 0.500000
0.642099 0.304809 0.280954 0.000000 1.000000 0.000000
0.642099 0.257916 0.052085 0.000000 1.000000 0.000000
-0.056841 0.110879 -0.170766 0.300000 0.000000 0.600000
-0.553980 0.110879 -0.327865 0.300000 0.000000 0.600000
-0.047094 -0.370162 -0.411603 0.500000 0.000000 0.500000
0.049586 0.353248 0.476411 0.000000 0.000000 1.000000
-0.099657 -0.377772 0.095604 0.600000 0.300000 0.000000
-0.024873 0.365954 -0.411603 0.500000 0.000000 0.500000
-0.654881 -0.197739 -0.052619 0.500000 0.500000 0.000000
-0.641181 0.592757 0.122787 0.500000 0.500000 0.000000
0.596431 -0.182445 0.401839 0.300000 0.000000 0.600000
-0.193369 -0.381130 0.456095 0.300000 0.600000 0.000000
0.614881 -0.377772 -0.180393 0.600000 0.300000 0.000000
-0.207852 -0.460816 0.314523 0.500000 0.000000 0.500000
-0.654881 -0.301483 -0.416266 0.500000 0.500000 0.000000
-0.088768 -0.498955 0.300823 0.500000 0.000000 0.500000
0.453367 -0.343311 0.456095 0.800000 0.200000 0.500000
-0.120057 -0.159019 -0.411603 0.500000 0.000000 0.500000
0.051956 0.110879 -0.230172 0.300000 0.000000 0.600000
0.217629 -0.535597 0.314523 0.500000 0.000000 0.500000
0.132766 0.138280 -0.319342 0.300000 0.000000 0.600000
0.408510 0.140664 0.445249 0.800000 0.200000 0.500000
-0.654881 -0.470668 0.172812 0.000000 0.500000 0.500000
0.651233 -0.120896 0.424174 0.300000 0.000000 0.600000
0.493691 -0.274749 -0.411603 0.500000 0.000000 0.500000
0.091029 -0.117081 0.445249 0.800000 0.200000 0.500000
-0.206000 -0.396040 0.043351 0.600000 0.300000 0.000000
0.642099 -0.398578 -0.356850 0.000000 1.000000 0.000000
-0.641181 0.570794 -0.121921 0.500000 0.500000 0.000000
0.577034 0.019491 0.456095 0.800000 0.200000 0.500000
-0.382935 0.628703 0.428694 0.300000 0.600000 0.000000
-0.318320 -0.066379 0.445249 0.300000 0.600000 0.000000
-0.641181 -0.221839 0.157638 0.500000 0.500000 0.000000
0.611201 0.407728 0.428694 0.300000 0.000000 0.600000
-0.306795 -0.354193 -0.411603 0.500000 0.000000 0.500000
0.314934 -0.436000 -0.448138 0.000000 1.000000 0.000000
-0.637638 0.672599 0.420269 0.800000 0.200000 0.500000
-0.641181 -0.004638 -0.382658 0.500000 0.500000 0.000000
-0.121823 0.474792 -0.420737 0.500000 0.000000 0.500000
0.628399 0.237319 -0.148448 0.000000 1.000000 0.000000
0.145537 -0.580740 0.314523 0.500000 0.000000 0.500000
0.083593 0.138280 -0.028691 0.300000 0.000000 0.600000
-0.637630 0.371443 0.428694 0.300000 0.600000 0.000000
0.642099 0.610998 -0.241946 0.000000 1.000000 0.000000
0.536321 0.409525 -0.420737 0.500000 0.000000 0.500000
-0.605877 0.163889 0.428694 0.300000 0.600000 0.000000
-0.622092 0.408250 0.456095 0.300000 0.600000 0.000000
-0.302368 0.340842 -0.420737 0.500000 0.000000 0.500000
0.068714 -0.042246 -0.411603 0.500000 0.000000 0.500000
-0.288055 -0.396040 -0.231409 0.600000 0.300000 0.000000
-0.300897 0.138280 -0.243881 0.300000 0.000000 0.600000
-0.028093 -0.377772 0.160836 0.600000 0.300000 0.000000
-0.423630 0.580342 -0.448138 0.600000 0.000000 0.300000
0.410554 0.565280 -0.448138 0.600000 0.000000 0.300000
0.446634 -0.377772 0.177338 0.600000 0.300000 0.000000
0.223141 0.459490 0.439540 0.800000 0.200000 0.500000
-0.641181 -0.198100 -0.281695 0.500000 0.500000 0.000000
0.174958 0.110879 -0.347505 0.300000 0.000000 0.600000
-0.056594 0.052373 0.456095 0.300000 0.600000 0.000000
-0.020091 0.376306 0.440807 0.300000 0.600000 0.000000
0.628399 0.391544 -0.320882 0.000000 1.000000 0.000000
-0.060432 0.060360 0.401293 0.600000 0.000000 0.300000
-0.641181 0.097593 -0.391031 0.500000 0.500000 0.000000
0.517507 0.138280 -0.132532 0.300000 0.000000 0.600000
-0.241133 0.138280 -0.076389 0.300000 0.000000 0.600000
-0.413386 -0.471990 0.300823 0.500000 0.000000 0.500000
0.012614 -0.400839 0.428694 0.000000 0.000000 1.000000
0.050345 -0.377772 -0.285607 0.600000 0.300000 0.000000
0.628399 0.381433 0.120861 0.000000 1.000000 0.000000
-0.134553 -0.574311 -0.420737 0.000000 1.000000 0.000000
-0.092094 0.172313 -0.420737 0.500000 0.000000 0.500000
-0.585100 0.444574 -0.411603 0.500000 0.000000 0.500000
-0.418249 0.138280 -0.307106 0.300000 0.000000 0.600000
0.561594 0.621390 0.428694 1.000000 0.000000 0.000000
-0.654881 0.410607 -0.298217 0.500000 0.500000 0.000000
0.642099 -0.400929 -0.153093 0.000000 1.000000 0.000000
0.439631 -0.446327 -0.420737 0.000000 1.000000 0.000000
0.642099 0.656269 -0.169715 0.000000 1.000000 0.000000
-0.654881 -0.264143 0.130624 0.500000 0.500000 0.000000
0.412223 -0.382044 0.456095 0.800000 0.200000 0.500000
0.243308 -0.500481 0.314523 0.500000 0.000000 0.500000
0.208787 0.619899 0.428694 0.800000 0.200000 0.500000
0.224095 0.138280 -0.346113 0.300000 0.000000 0.600000
-0.419129 0.208771 -0.420737 0.500000 0.000000 0.500000
-0.518300 -0.347335 0.428694 0.300000 0.600000 0.000000
0.022822 -0.377454 -0.420737 0.500000 0.000000 0.500000
-0.641181 -0.151774 0.265571 0.500000 0.500000 0.000000
0.425811 0.506559 -0.411603 0.500000 0.000000 0.500000
-0.314335 0.138280 -0.134651 0.300000 0.000000 0.600000
0.642099 -0.139686 -0.183940 0.000000 1.000000 0.000000
0.628399 0.595740 0.397946 0.000000 1.000000 0.000000
0.551263 0.639071 -0.420737 0.600000 0.000000 0.300000
-0.396802 -0.373205 -0.438870 0.000000 1.000000 0.000000
-0.090934 -0.396040 -0.190536 0.600000 0.300000 0.000000
-0.483653 -0.377772 -0.338896 0.600000 0.300000 0.000000
0.642099 0.314909 -0.116664 0.000000 1.000000 0.000000
-0.627056 -0.377772 0.199461 0.600000 0.300000 0.000000
-0.176257 -0.237884 -0.420737 0.500000 0.000000 0.500000
-0.076944 -0.377772 0.306386 0.600000 0.300000 0.000000
-0.641181 0.395011 0.017231 0.500000 0.500000 0.000000
0.443811 0.110879 -0.353804 0.300000 0.000000 0.600000
0.123092 -0.502511 0.300823 0.500000 0.000000 0.500000
-0.246503 -0.240414 -0.411603 0.500000 0.000000 0.500000
0.320790 0.138280 -0.198322 0.300000 0.000000 0.600000
0.507763 0.138280 -0.285001 0.300000 0.000000 0.600000
-0.097970 0.541240 0.431965 0.300000 0.600000 0.000000
0.587595 -0.400169 -0.448138 0.000000 1.000000 0.000000
0.224099 -0.246523 -0.420737 0.500000 0.000000 0.500000
-0.198637 0.110879 -0.322266 0.300000 0.000000 0.600000
-0.546205 0.380869 0.445249 0.300000 0.600000 0.000000
0.645240 0.343008 0.401293 0.300000 0.000000 0.600000
0.560175 0.138280 -0.028611 0.300000 0.000000 0.600000
0.628399 -0.534475 0.244865 0.500000 0.500000 0.000000
-0.552139 0.138280 -0.160766 0.300000 0.000000 0.600000
-0.070494 0.008584 0.428694 0.300000 0.600000 0.000000
-0.333825 0.671210 0.401293 1.000000 0.000000 0.000000
0.352155 0.110879 -0.027242 0.300000 0.000000 0.600000
0.266100 -0.377772 -0.032030 0.600000 0.300000 0.000000
0.628399 -0.490485 0.123402 0.500000 0.500000 0.000000
0.183053 0.138280 -0.053210 0.300000 0.000000 0.600000
-0.490128 -0.377772 0.207423 0.600000 0.300000 0.000000
0.383859 -0.388553 0.456095 0.800000 0.200000 0.500000
0.642099 -0.154473 -0.060180 0.000000 1.000000 0.000000
0.642099 0.538928 0.343117 0.000000 1.000000 0.000000
0.625788 -0.377772 -0.111810 0.600000 0.300000 0.000000
-0.029659 -0.067217 0.428694 0.300000 0.600000 0.000000
0.019459 -0.039895 0.456095 0.800000 0.200000 0.500000
-0.650141 -0.423441 -0.157721 0.000000 0.500000 0.500000
0.382522 -0.231348 0.439540 0.800000 0.200000 0.500000
0.119644 0.132160 -0.420737 0.500000 0.000000 0.500000
0.036850 0.527966 0.428694 0.600000 0.000000 0.300000
0.118759 0.075801 -0.411603 0.500000 0.000000 0.500000
-0.585627 -0.377772 -0.376693 0.600000 0.300000 0.000000
0.603568 -0.377772 -0.344256 0.600000 0.300000 0.000000
0.168760 -0.396040 -0.140687 0.600000 0.300000 0.000000
-0.414194 -0.103733 -0.411603 0.500000 0.000000 0.500000
-0.402412 -0.396040 0.071494 0.600000 0.300000 0.000000
0.601673 -0.402280 0.456095 0.800000 0.200000 0.500000
0.286720 0.138280 -0.251552 0.300000 0.000000 0.600000
0.522104 -0.378659 0.401293 0.000000 0.000000 1.000000
0.642099 -0.512462 -0.199948 0.500000 0.500000 0.000000
-0.013842 -0.547689 -0.420737 0.000000 1.000000 0.000000
0.180124 0.153200 0.439540 0.800000 0.200000 0.500000
-0.399167 0.110879 -0.219847 0.300000 0.000000 0.600000
-0.620984 0.551950 -0.420737 0.500000 0.000000 0.500000
-0.076671 0.130090 -0.000588 0.300000 0.000000 0.600000
-0.654881 -0.460858 -0.053309 0.000000 0.500000 0.500000
-0.372637 0.138280 -0.254253 0.300000 0.000000 0.600000
-0.654881 -0.265138 0.042718 0.500000 0.500000 0.000000
0.642099 -0.488331 0.185534 0.500000 0.500000 0.000000
-0.412739 -0.377772 0.201494 0.600000 0.300000 0.000000
0.302767 -0.558175 -0.420737 0.000000 1.000000 0.000000
0.167576 -0.396537 0.456095 0.800000 0.200000 0.500000
-0.001387 -0.152129 0.401293 0.600000 0.000000 0.300000
-0.239514 -0.548017 -0.448138 0.000000 1.000000 0.000000
-0.650827 0.291553 0.428694 0.800000 0.200000 0.500000
-0.591766 -0.105904 0.428694 0.300000 0.600000 0.000000
-0.411199 -0.189811 0.445249 0.300000 0.600000 0.000000
-0.641181 -0.275445 -0.159649 0.500000 0.500000 0.000000
-0.022804 0.573675 0.454972 0.300000 0.600000 0.000000
-0.492827 0.090212 0.439540 0.300000 0.600000 0.000000
0.642099 0.163774 -0.113302 0.000000 1.000000 0.000000
-0.630654 0.223557 0.456095 0.300000 0.600000 0.000000
0.112022 -0.396040 0.116096 0.600000 0.300000 0.000000
-0.110099 0.055748 0.445249 0.300000 0.600000 0.000000
-0.641181 -0.574570 -0.243219 0.000000 0.500000 0.500000
0.628399 -0.568075 -0.039751 0.500000 0.500000 0.000000
0.628399 -0.484736 0.219942 0.500000 0.500000 0.000000
-0.654881 -0.560593 0.106226 0.000000 0.500000 0.500000
-0.023019 0.032744 0.428845 0.300000 0.600000 0.000000
0.628399 0.254305 0.315233 0.000000 1.000000 0.000000
0.399253 0.138280 -0.411105 0.300000 0.000000 0.600000
0.073651 0.110879 -0.280199 0.300000 0.000000 0.600000
0.179659 0.672599 -0.444866 0.600000 0.000000 0.300000
-0.245614 -0.206182 -0.411603 0.500000 0.000000 0.500000
-0.654881 -0.477405 0.068885 0.000000 0.500000 0.500000
-0.334707 -0.460982 0.314523 0.500000 0.000000 0.500000
0.642099 0.133373 0.130969 0.000000 1.000000 0.000000
0.642099 0.242665 -0.264944 0.000000 1.000000 0.000000
-0.621659 0.466576 0.401293 0.800000 0.200000 0.500000
0.321772 0.138280 -0.010151 0.300000 0.000000 0.600000
0.642099 0.058276 0.018842 0.000000 1.000000 0.000000
-0.131467 -0.434339 0.300823 0.500000 0.000000 0.500000
-0.654881 -0.490076 -0.133328 0.000000 0.500000 0.500000
0.176849 -0.489474 -0.448138 0.000000 1.000000 0.000000
0.113213 -0.517206 -0.420737 0.000000 1.000000 0.000000
0.515564 0.342531 -0.411603 0.500000 0.000000 0.500000
0.475312 0.451522 0.445249 0.800000 0.200000 0.500000
0.303713 0.223000 0.445249 0.800000 0.200000 0.500000
-0.654881 0.332361 0.220395 0.500000 0.500000 0.000000
0.221294 0.652909 0.456095 0.800000 0.200000 0.500000
0.651233 0.622062 0.407761 0.300000 0.000000 0.600000
0.596925 0.412177 0.456095 0.800000 0.200000 0.500000
-0.271949 -0.396040 -0.082345 0.600000 0.300000 0.000000
0.642099 -0.216967 -0.360931 0.000000 1.000000 0.000000
-0.589492 -0.377772 0.106433 0.600000 0.300000 0.000000
-0.113789 0.138280 -0.289277 0.300000 0.000000 0.600000
-0.483018 0.589037 0.428694 0.300000 0.600000 0.000000
0.568883 0.270989 0.428694 0.800000 0.200000 0.500000
-0.063109 0.138280 -0.243812 0.300000 0.000000 0.600000
-0.314262 -0.377772 -0.389798 0.600000 0.300000 0.000000
0.033571 0.632643 0.401293 1.000000 0.000000 0.000000
0.628399 0.395229 0.057615 0.000000 1.000000 0.000000
0.628399 0.323550 -0.088280 0.000000 1.000000 0.000000
0.100892 -0.174703 -0.411603 0.500000 0.000000 0.500000
-0.200752 -0.543612 -0.420737 0.000000 1.000000 0.000000
0.148102 -0.465941 0.300823 0.500000 0.000000 0.500000
-0.365224 -0.157967 0.445249 0.300000 0.600000 0.000000
0.393395 0.195219 -0.411603 0.500000 0.000000 0.500000
-0.519673 -0.377772 -0.193687 0.600000 0.300000 0.000000
-0.530955 0.105757 -0.420737 0.500000 0.000000 0.500000
-0.124425 0.138280 -0.103153 0.300000 0.000000 0.600000
-0.503906 -0.377772 0.158461 0.600000 0.300000 0.000000
0.223574 -0.396040 0.037170 0.600000 0.300000 0.000000
0.642099 -0.392208 -0.321317 0.000000 1.000000 0.000000
-0.102515 -0.433200 0.314523 0.500000 0.000000 0.500000
0.642099 -0.116654 -0.447806 0.000000 1.000000 0.000000
-0.571393 0.602592 0.428694 0.300000 0.600000 0.000000
-0.200222 -0.377772 -0.340242 0.600000 0.300000 0.000000
-0.180945 -0.378317 -0.420737 0.000000 1.000000 0.000000
0.584181 0.654640 -0.448138 0.600000 0.000000 0.300000
-0.108151 0.217588 -0.411603 0.500000 0.000000 0.500000
0.051948 -0.072669 0.456095 0.800000 0.200000 0.500000
0.651233 -0.236275 0.415755 0.300000 0.000000 0.600000
-0.230366 -0.377772 0.160373 0.600000 0.300000 0.000000
0.628399 0.211273 -0.232612 0.000000 1.000000 0.000000
0.179069 0.321989 -0.420737 0.500000 0.000000 0.500000
0.093008 -0.224771 0.439540 0.800000 0.200000 0.500000
-0.117441 -0.444135 -0.448138 0.000000 1.000000 0.000000
0.549852 -0.440078 -0.420737 0.000000 1.000000 0.000000
-0.473430 0.202617 -0.420737 0.500000 0.000000 0.500000
0.642099 -0.059753 0.045274 0.000000 1.000000 0.000000
0.325401 -0.396040 -0.275479 0.600000 0.300000 0.000000
-0.654881 0.046373 0.177733 0.500000 0.500000 0.000000
0.086912 0.432085 0.449127 0.800000 0.200000 0.500000
-0.322961 -0.573523 -0.448138 0.000000 1.000000 0.000000
0.355618 0.226454 0.445249 0.800000 0.200000 0.500000
-0.521372 0.667898 -0.448138 0.600000 0.000000 0.300000
0.105914 -0.377772 -0.066495 0.600000 0.300000 0.000000
-0.397761 0.476735 0.439540 0.300000 0.600000 0.000000
-0.581426 -0.396040 0.223282 0.600000 0.300000 0.000000
-0.308572 -0.218796 0.439540 0.300000 0.600000 0.000000
-0.462877 0.138280 -0.341311 0.300000 0.000000 0.600000
-0.554186 -0.368639 0.425770 0.000000 0.000000 1.000000
-0.052153 -0.543940 -0.448138 0.000000 1.000000 0.000000
0.642099 0.409705 -0.261579 0.000000 1.000000 0.000000
-0.000130 0.013359 -0.420737 0.500000 0.000000 0.500000
0.506666 -0.396040 0.128987 0.600000 0.300000 0.000000
-0.040218 0.264672 -0.411603 0.500000 0.000000 0.500000
0.016065 0.232108 0.428694 0.600000 0.000000 0.300000
-0.641181 0.403265 -0.010655 0.500000 0.500000 0.000000
-0.272153 0.586139 0.456095 0.300000 0.600000 0.000000
0.598934 -0.325810 0.428694 0.800000 0.200000 0.500000
-0.089906 0.125187 0.428694 0.300000 0.600000 0.000000
-0.641181 0.258008 -0.119583 0.500000 0.500000 0.000000
0.364294 -0.520291 -0.420737 0.000000 1.000000 0.000000
-0.641181 -0.002168 -0.205490 0.500000 0.500000 0.000000
0.628399 0.597012 -0.079338 0.000000 1.000000 0.000000
-0.558698 0.580447 0.451595 0.300000 0.600000 0.000000
0.599732 -0.396040 -0.208297 0.600000 0.300000 0.000000
0.449134 -0.396040 -0.286694 0.600000 0.300000 0.000000
-0.389142 -0.396040 -0.035238 0.600000 0.300000 0.000000
-0.641181 0.347389 0.259995 0.500000 0.500000 0.000000
-0.654881 -0.109355 -0.418408 0.500000 0.500000 0.000000
0.210903 -0.396040 -0.302425 0.600000 0.300000 0.000000
-0.544245 -0.377772 -0.286111 0.600000 0.300000 0.000000
-0.242284 -0.377772 0.083432 0.600000 0.300000 0.000000
-0.536131 0.110879 -0.130740 0.300000 0.000000 0.600000
-0.248243 0.672599 0.424488 1.000000 0.000000 0.000000
-0.654881 -0.221855 0.012495 0.500000 0.500000 0.000000
0.178894 -0.396040 0.394953 0.600000 0.300000 0.000000
0.037804 -0.246932 0.428694 0.800000 0.200000 0.500000
0.599068 -0.184457 -0.411603 0.500000 0.000000 0.500000
0.197285 -0.217540 -0.411603 0.500000 0.000000 0.500000
-0.118690 -0.377772 -0.193572 0.600000 0.300000 0.000000
-0.145398 -0.111143 -0.420737 0.500000 0.000000 0.500000
0.270247 0.672599 0.423729 1.000000 0.000000 0.000000
-0.654881 0.447091 -0.183237 0.500000 0.500000 0.000000
0.308650 0.335491 0.439540 0.800000 0.200000 0.500000
-0.099345 -0.389981 -0.448138 0.000000 1.000000 0.000000
0.276083 -0.391409 -0.420737 0.500000 0.000000 0.500000
-0.352968 0.061072 -0.411603 0.500000 0.000000 0.500000
-0.641181 -0.089019 0.396279 0.500000 0.500000 0.000000
-0.440284 0.156474 -0.411603 0.500000 0.000000 0.500000
0.558016 0.141446 0.449313 0.800000 0.200000 0.500000
-0.641181 0.262543 0.349234 0.500000 0.500000 0.000000
0.564916 -0.165470 0.456095 0.800000 0.200000 0.500000
0.628399 0.591840 -0.270182 0.000000 1.000000 0.000000
-0.641181 -0.182305 0.391690 0.500000 0.500000 0.000000
-0.481806 0.657168 0.401293 1.000000 0.000000 0.000000
