ply
format ascii 1.0
element vertex 1279
property float x
property float y
property float z
property uchar red
property uchar green
property uchar blue
end_header
-0.811780 0.007919 0.021091 76 0 153
0.274021 -0.352661 -0.258383 204 51 127
-0.760196 0.043977 0.199857 76 0 153
-0.878180 0.086970 -0.106192 153 76 0
0.841806 -0.236040 -0.280284 153 0 76
-0.670812 0.332441 -0.015329 0 0 255
-0.000874 0.006450 -0.288297 153 0 76
-0.842122 -0.073038 -0.138146 153 76 0
-0.441542 0.332441 0.046542 0 0 255
-0.428386 0.007919 -0.058061 76 0 153
-0.878180 -0.242007 0.070058 153 76 0
0.924719 -0.245286 0.041507 76 0 153
-0.271690 0.191115 -0.288297 153 0 76
0.088606 0.007919 0.059880 76 0 153
-0.878180 -0.108527 0.274183 153 76 0
0.202358 -0.318224 -0.288297 153 0 76
-0.265029 0.043977 -0.146877 76 0 153
0.856777 0.130380 -0.280284 153 0 76
0.203513 -0.352661 0.061908 204 51 127
0.352596 -0.316603 -0.193422 204 51 127
0.231027 -0.162407 0.318679 0 255 0
-0.362471 0.354476 0.298853 0 255 0
0.346201 0.263713 -0.288297 153 0 76
-0.616211 0.007919 0.191908 76 0 153
0.097916 -0.067217 -0.280284 153 0 76
0.851821 -0.316603 -0.147890 204 51 127
-0.001438 -0.316603 0.127286 204 51 127
-0.618394 0.043977 0.120570 76 0 153
0.772072 0.368499 -0.193176 0 0 255
0.380214 -0.316603 -0.178189 204 51 127
0.299930 0.368499 -0.052728 0 0 255
0.781151 -0.280104 0.282621 0 255 0
-0.219347 -0.316603 -0.081016 204 51 127
0.042542 0.079653 0.318679 0 255 0
-0.099146 0.368499 0.070586 0 0 255
-0.130358 0.007919 -0.269958 76 0 153
0.888661 0.058163 -0.008681 76 0 153
-0.689743 -0.316603 -0.039127 204 51 127
-0.797623 0.043977 0.175428 76 0 153
0.888661 -0.023552 -0.221834 76 0 153
-0.674125 0.332441 0.241510 0 0 255
0.827618 -0.316603 0.074416 204 51 127
-0.659554 0.007919 -0.209917 76 0 153
-0.531453 0.043977 -0.092217 76 0 153
-0.878180 -0.332367 0.244845 153 76 0
0.700738 0.034906 0.318679 0 255 0
-0.203270 0.332441 0.016692 0 0 255
0.454015 -0.352661 -0.003159 204 51 127
0.396863 -0.320562 -0.280284 153 0 76
0.779091 -0.352661 0.247668 204 51 127
-0.285963 0.044054 -0.288297 153 0 76
0.741098 -0.222760 -0.280284 153 0 76
-0.694072 0.332441 -0.175110 0 0 255
-0.329478 0.043977 0.170800 76 0 153
-0.431522 0.027476 0.268599 0 255 0
0.924719 0.091349 0.109772 76 0 153
0.238488 0.007919 0.009003 76 0 153
0.888661 0.231363 -0.302090 76 0 153
0.084229 0.109062 0.282621 0 255 0
0.520518 0.332441 -0.000958 0 0 255
0.070548 -0.221363 0.318679 0 255 0
0.355591 -0.352661 -0.153452 204 51 127
0.275966 -0.316603 0.139130 204 51 127
-0.611342 -0.316603 -0.102351 204 51 127
-0.477887 -0.352661 0.212062 204 51 127
0.063785 0.332441 -0.174582 0 0 255
-0.022961 0.043977 -0.098404 76 0 153
0.910444 0.197699 0.318679 0 255 0
-0.690465 -0.316603 -0.153892 204 51 127
0.161543 0.043977 -0.263503 76 0 153
-0.878180 -0.079052 -0.252789 153 76 0
0.647255 -0.316603 0.110291 204 51 127
-0.438022 -0.104435 -0.280284 153 0 76
0.214650 -0.244536 0.318679 0 255 0
-0.027352 0.332441 -0.115073 0 0 255
-0.651641 -0.206598 0.318679 0 255 0
-0.426137 -0.316603 -0.213834 204 51 127
0.226823 -0.063620 0.282621 0 255 0
-0.528547 0.007919 -0.034373 76 0 153
-0.783499 0.043977 0.136428 76 0 153
-0.493138 0.007919 0.073080 76 0 153
0.372870 -0.120803 0.282621 0 255 0
-0.356778 0.332441 0.199140 0 0 255
0.924719 -0.320096 0.265843 76 0 153
0.335046 0.368499 0.006989 0 0 255
0.815122 -0.149148 0.318679 0 255 0
-0.214557 -0.192183 -0.280284 153 0 76
-0.158046 0.007919 -0.188125 76 0 153
0.829976 0.232695 -0.288297 153 0 76
-0.118686 0.114229 0.318679 0 255 0
0.667669 0.043977 -0.263472 153 0 76
-0.856752 -0.064580 0.282621 0 255 0
-0.244775 0.007919 0.105775 76 0 153
-0.506718 0.043977 -0.039642 76 0 153
0.065074 -0.327872 0.282621 204 51 127
-0.247232 0.368499 0.023345 0 0 255
0.833478 -0.352661 0.024918 204 51 127
-0.543109 -0.030884 -0.288297 153 0 76
-0.842122 -0.164604 -0.172597 153 76 0
0.658409 0.241513 0.318679 0 255 0
-0.312422 0.368499 -0.094391 0 0 255
0.921714 -0.099598 0.294061 76 0 153
0.426140 -0.115453 0.318679 0 255 0
0.714651 -0.352661 -0.038776 204 51 127
0.737546 0.235527 -0.280284 153 0 76
-0.852138 -0.109977 -0.285898 153 76 0
-0.164751 -0.156497 0.318679 0 255 0
0.236646 0.368499 0.102747 0 0 255
-0.164927 0.007919 0.066761 76 0 153
0.141110 0.043977 0.006472 76 0 153
-0.083463 -0.316603 0.205060 204 51 127
-0.149398 -0.053978 0.282621 0 255 0
-0.872305 0.368499 -0.237455 153 76 0
-0.663917 0.332441 -0.101393 0 0 255
-0.703983 0.167583 0.282621 0 255 0
0.218943 0.332441 -0.215852 0 0 255
0.888661 0.286303 0.109394 76 0 153
-0.793028 0.368499 -0.126448 0 0 255
-0.528589 -0.352661 0.100481 204 51 127
0.507807 0.009124 0.268599 76 0 153
0.600199 0.007919 0.034910 76 0 153
0.462996 -0.352661 0.164116 204 51 127
0.115495 -0.316603 -0.163275 204 51 127
-0.476569 -0.088223 0.282621 0 255 0
-0.186980 -0.058918 -0.280284 153 0 76
0.888661 0.238263 0.185787 76 0 153
0.718803 -0.316603 -0.177943 204 51 127
-0.709993 0.007919 -0.084867 76 0 153
-0.175515 0.216419 0.282621 0 255 0
0.849215 0.003734 0.318679 0 255 0
0.686884 -0.331329 0.318679 0 255 0
-0.011265 -0.352661 -0.224418 204 51 127
0.174383 0.278634 0.282621 0 255 0
0.221554 0.178496 0.318679 0 255 0
0.351229 0.007869 0.318679 0 255 0
0.647345 0.332441 -0.026708 0 0 255
0.649465 -0.352661 0.261440 204 51 127
-0.260921 -0.335069 0.282621 0 255 0
0.888661 -0.308789 0.180254 76 0 153
0.652118 -0.303425 -0.280284 153 0 76
0.573803 -0.016623 0.318679 0 255 0
-0.390360 0.368499 -0.078196 0 0 255
0.420923 0.343066 0.318679 0 255 0
-0.456132 0.332441 0.163582 0 0 255
0.149859 -0.088333 -0.280284 153 0 76
0.225527 0.368499 0.243202 0 0 255
-0.619093 -0.352661 -0.119934 204 51 127
0.924719 0.259531 -0.061461 76 0 153
0.798965 0.332441 0.258038 0 0 255
-0.608838 0.043977 0.218937 76 0 153
0.490271 -0.352661 -0.227730 204 51 127
-0.755028 0.043977 -0.091585 76 0 153
0.803453 -0.121744 0.318679 0 255 0
-0.191177 0.120189 0.318679 0 255 0
-0.591492 0.007919 -0.165303 76 0 153
-0.639561 -0.352661 0.021723 204 51 127
-0.626620 0.033505 0.318679 0 255 0
0.840483 -0.320978 0.318679 0 255 0
0.271411 -0.316603 -0.172731 204 51 127
-0.790084 0.286187 0.282621 0 255 0
-0.083893 -0.316603 -0.153414 204 51 127
0.792245 -0.352661 0.066442 204 51 127
0.517434 0.368499 -0.175097 0 0 255
-0.043749 -0.316603 -0.266608 204 51 127
-0.122889 0.176836 0.318679 0 255 0
0.205306 0.007919 -0.194367 76 0 153
0.888661 0.042433 0.033620 76 0 153
0.068691 -0.316603 -0.210078 204 51 127
-0.862141 -0.352661 0.187221 153 76 0
0.373458 0.368499 -0.209764 0 0 255
0.327728 -0.073580 -0.280284 153 0 76
0.789822 -0.352661 0.111279 204 51 127
-0.160254 0.256333 -0.288297 153 0 76
-0.287373 0.332441 -0.114469 0 0 255
-0.225373 0.332441 0.179576 0 0 255
0.443189 0.278551 -0.280284 153 0 76
-0.137011 -0.316603 -0.122534 204 51 127
-0.433552 0.354476 0.314317 0 255 0
0.686466 0.043977 0.264253 76 0 153
0.114694 -0.212195 -0.280284 153 0 76
-0.850840 -0.350614 -0.326358 153 76 0
0.214720 -0.073434 0.318679 0 255 0
-0.381934 0.332441 0.222198 0 0 255
-0.085289 -0.059446 0.318679 0 255 0
0.333599 0.354476 0.294044 0 255 0
0.343656 0.105892 0.318679 0 255 0
-0.078716 0.332441 -0.105969 0 0 255
0.579949 0.332441 -0.234624 0 0 255
0.746898 -0.246727 0.318679 0 255 0
-0.842122 0.162513 0.066356 153 76 0
-0.842122 -0.055068 0.184973 153 76 0
0.924719 0.315170 0.209547 76 0 153
-0.093138 0.332441 0.132050 0 0 255
-0.842122 0.066384 -0.296739 153 76 0
-0.875175 -0.021944 0.312077 0 255 0
-0.842122 0.306726 0.034502 153 76 0
-0.591885 -0.076613 0.318679 0 255 0
0.715798 -0.316603 -0.256253 204 51 127
0.602475 0.043977 0.208120 76 0 153
-0.500015 0.196312 -0.280284 153 0 76
0.364003 0.347488 -0.288297 153 0 76
-0.821096 -0.352661 -0.197370 204 51 127
-0.792973 0.158819 0.318679 0 255 0
-0.781990 0.332441 0.256135 0 0 255
-0.790119 -0.085314 -0.288297 153 0 76
0.632750 0.007919 0.120556 76 0 153
0.921708 0.211514 0.278615 76 0 153
-0.485877 0.007919 0.128378 76 0 153
0.888661 0.209519 -0.134577 76 0 153
-0.774148 -0.352661 -0.133912 204 51 127
-0.878180 0.139277 -0.225083 153 76 0
0.078556 0.043977 -0.035748 76 0 153
0.561879 0.332441 0.031386 0 0 255
0.871854 0.265323 -0.280284 153 0 76
0.634383 0.335749 0.282621 0 255 0
-0.081915 0.368499 -0.024268 0 0 255
-0.004826 0.043977 -0.249432 76 0 153
0.530567 0.137253 0.318679 0 255 0
0.187793 0.368499 0.091144 0 0 255
-0.560238 0.185620 -0.280284 153 0 76
-0.710778 0.368499 -0.145523 0 0 255
-0.753190 -0.352661 0.028049 204 51 127
0.577448 -0.352661 0.073511 204 51 127
0.768655 0.043977 -0.046691 76 0 153
-0.878180 0.061613 0.242199 153 76 0
0.302537 -0.352661 0.260269 204 51 127
-0.178071 0.332441 -0.223525 0 0 255
-0.446530 0.043977 0.201725 76 0 153
-0.178810 0.156470 0.282621 0 255 0
0.550002 -0.316603 0.244131 204 51 127
0.317845 -0.274133 -0.280284 153 0 76
0.075358 0.358234 0.278615 0 0 255
0.798095 -0.316603 -0.219460 204 51 127
-0.878180 -0.102885 0.043570 153 76 0
-0.656691 -0.056616 0.282621 0 255 0
-0.575220 0.368499 -0.034888 0 0 255
-0.210322 0.007919 -0.085321 76 0 153
-0.666242 -0.342163 -0.288297 153 0 76
0.608084 0.144971 -0.280284 153 0 76
0.070597 0.364492 -0.285865 153 0 76
0.865249 -0.316603 0.253885 204 51 127
0.758263 0.368499 -0.163959 0 0 255
-0.652356 -0.176850 0.318679 0 255 0
0.137339 -0.352661 -0.191143 204 51 127
0.426297 -0.269879 0.282621 0 255 0
0.405562 0.075609 0.282621 0 255 0
-0.723387 -0.352661 -0.046356 204 51 127
0.888661 0.019928 0.009099 76 0 153
-0.878180 -0.136499 -0.191022 153 76 0
-0.272124 0.368499 0.085845 0 0 255
-0.842122 -0.265924 -0.166400 153 76 0
0.472177 -0.140722 0.318679 0 255 0
0.741655 0.043977 0.106314 76 0 153
-0.867106 -0.352661 -0.166360 153 76 0
0.701497 0.368499 -0.060035 0 0 255
-0.364003 0.007919 0.075127 76 0 153
0.167130 0.332441 0.235458 0 0 255
0.788562 0.332441 0.087340 0 0 255
-0.842122 0.156382 -0.123836 153 76 0
-0.395873 0.007919 -0.101308 76 0 153
-0.227094 0.052534 0.282621 0 255 0
0.024599 0.368499 0.248176 0 0 255
-0.402082 0.043977 -0.086291 76 0 153
0.924719 -0.261812 -0.299719 76 0 153
-0.133267 -0.252281 0.282621 0 255 0
0.237974 0.035019 0.282621 76 0 153
0.427296 -0.134105 0.282621 0 255 0
-0.759750 -0.087147 0.318679 0 255 0
0.458589 0.332441 0.223151 0 0 255
0.598527 -0.316603 -0.157761 204 51 127
0.198948 -0.269362 0.318679 0 255 0
-0.069129 0.007919 -0.058005 76 0 153
0.018559 0.208163 -0.288297 153 0 76
0.733271 -0.352661 -0.240645 204 51 127
0.669323 0.093219 -0.280284 153 0 76
0.093672 -0.044967 0.282621 0 255 0
0.881227 0.040254 -0.280284 153 0 76
-0.802356 -0.305497 0.318679 0 255 0
-0.202021 0.043977 -0.152770 76 0 153
0.827379 0.368499 0.011694 0 0 255
-0.374608 0.034038 0.318679 0 255 0
-0.748304 0.134794 0.318679 0 255 0
0.128628 0.043977 -0.088656 76 0 153
-0.468917 0.007919 -0.213358 76 0 153
-0.417853 -0.352661 -0.015149 204 51 127
-0.515781 0.043977 -0.235185 76 0 153
0.133289 -0.316603 0.119122 204 51 127
0.888661 0.340179 0.098953 76 0 153
0.327649 -0.352661 0.041794 204 51 127
0.298822 0.043977 -0.171314 76 0 153
-0.303546 -0.089626 0.318679 0 255 0
-0.071808 0.043977 -0.063040 76 0 153
-0.199747 0.007919 0.144567 76 0 153
0.523504 0.043977 -0.017176 76 0 153
0.146780 -0.352661 -0.121744 204 51 127
-0.355321 0.368499 0.056073 0 0 255
0.701231 -0.032493 -0.280284 153 0 76
0.762998 -0.350701 -0.280284 204 51 127
-0.365173 -0.009499 -0.288297 153 0 76
-0.561223 0.128595 -0.288297 153 0 76
-0.317557 -0.352661 0.011184 204 51 127
-0.334848 0.007919 0.134173 76 0 153
-0.255002 -0.215063 0.282621 0 255 0
-0.878180 0.195140 0.217321 153 76 0
-0.564758 0.097235 -0.280284 153 0 76
-0.531952 0.043977 -0.205905 76 0 153
-0.290361 -0.073434 -0.288297 153 0 76
0.618359 0.158138 0.318679 0 255 0
0.861216 0.338083 0.282621 0 255 0
-0.826380 -0.334933 -0.288297 153 0 76
0.888661 0.202944 -0.050727 76 0 153
0.888661 0.210875 0.170729 76 0 153
0.647467 0.344238 -0.288297 153 0 76
0.924719 -0.224741 -0.162705 76 0 153
0.300531 -0.233000 0.318679 0 255 0
0.425816 0.368499 0.025179 0 0 255
0.888661 0.143440 0.176204 76 0 153
0.379293 0.368499 0.049301 0 0 255
0.473754 0.332441 -0.045971 0 0 255
0.543988 0.007919 0.258030 76 0 153
0.421688 -0.352661 0.048288 204 51 127
-0.352672 -0.298014 0.318679 0 255 0
-0.842122 0.354551 -0.318140 153 76 0
0.701509 0.226633 0.318679 0 255 0
-0.281837 -0.316603 -0.121518 204 51 127
0.232481 0.368499 -0.151210 0 0 255
-0.878180 0.003349 -0.284519 153 76 0
0.007440 0.332441 0.116277 0 0 255
0.924719 -0.059091 -0.062711 76 0 153
0.214850 0.363984 -0.288297 153 0 76
0.089285 0.368499 -0.088147 0 0 255
-0.484236 0.329432 0.318679 0 255 0
0.156034 -0.352661 0.148486 204 51 127
0.266575 -0.204239 0.318679 0 255 0
-0.317751 -0.132949 -0.280284 153 0 76
0.826036 0.007919 -0.196652 76 0 153
-0.562272 -0.133003 0.318679 0 255 0
-0.572428 -0.198795 -0.280284 153 0 76
-0.825487 0.216776 -0.280284 153 0 76
0.415420 0.332441 -0.027163 0 0 255
0.432503 0.368499 0.260852 0 0 255
0.822533 0.368499 0.103748 0 0 255
0.500096 0.043977 -0.142064 76 0 153
0.623094 -0.029537 0.318679 0 255 0
0.633550 -0.052896 0.282621 0 255 0
-0.025694 0.368499 -0.029922 0 0 255
0.700271 0.043977 0.023895 76 0 153
-0.559570 0.332441 -0.022121 0 0 255
0.007595 0.368499 -0.124141 0 0 255
-0.666126 0.086859 -0.280284 153 0 76
-0.210963 0.007919 0.086726 76 0 153
0.183372 0.368499 -0.057086 0 0 255
0.115143 0.332441 -0.208774 0 0 255
0.726008 -0.106275 0.282621 0 255 0
-0.062732 -0.352661 -0.156875 204 51 127
0.591948 -0.352661 -0.079533 204 51 127
-0.079126 0.007919 -0.112596 76 0 153
-0.842122 -0.184632 -0.032327 153 76 0
0.704715 -0.016504 0.318679 0 255 0
0.818551 0.043977 -0.066066 76 0 153
0.529638 -0.151351 0.282621 0 255 0
-0.243961 0.320980 -0.280284 153 0 76
-0.493967 0.023731 0.318679 0 255 0
0.924719 0.359852 0.041268 76 0 153
-0.643400 0.275549 0.282621 0 255 0
0.360512 0.368499 -0.158403 0 0 255
0.739330 0.074997 0.282621 0 255 0
-0.878180 0.335643 -0.046994 153 76 0
-0.797201 -0.316603 0.182389 204 51 127
0.145182 -0.135626 0.282621 0 255 0
0.038967 -0.316603 0.166721 204 51 127
-0.341308 0.043977 -0.041181 76 0 153
0.035063 -0.352661 0.251912 204 51 127
0.924719 0.061062 -0.016484 76 0 153
0.430705 0.332441 0.231073 0 0 255
0.886182 0.352416 0.318679 0 255 0
0.482071 -0.352661 0.069715 204 51 127
-0.878180 0.338649 -0.175062 153 76 0
-0.556433 -0.166047 -0.288297 153 0 76
-0.629568 -0.273404 0.282621 0 255 0
-0.686061 0.007919 0.074759 76 0 153
-0.462309 -0.316603 0.073229 204 51 127
0.527357 0.006127 -0.288297 153 0 76
-0.420437 -0.316603 -0.184070 204 51 127
-0.581636 0.368499 0.101110 0 0 255
-0.674388 -0.156026 0.282621 0 255 0
0.062450 -0.213491 0.282621 0 255 0
0.893920 -0.041219 0.282621 76 0 153
0.055411 0.043977 0.261370 76 0 153
-0.611115 0.216933 -0.280284 153 0 76
-0.432491 -0.316603 -0.268209 204 51 127
-0.058137 0.023611 -0.280284 153 0 76
0.924719 -0.324774 -0.188387 76 0 153
0.446723 0.332441 0.137829 0 0 255
-0.133205 0.090636 0.282621 0 255 0
-0.482533 0.368499 -0.070462 0 0 255
-0.007628 0.007919 0.211562 76 0 153
0.826349 -0.249185 0.282621 0 255 0
0.421759 -0.291163 0.318679 0 255 0
-0.560138 -0.316603 0.152189 204 51 127
-0.251519 0.043977 -0.199388 76 0 153
-0.251513 -0.042167 -0.280284 153 0 76
0.414564 -0.352661 0.310291 0 255 0
0.924719 0.254981 0.167130 76 0 153
0.581882 0.007919 0.127161 76 0 153
-0.477714 0.043977 0.168908 76 0 153
0.916380 0.368499 0.182725 76 0 153
-0.441266 0.049163 0.318679 0 255 0
0.359519 0.043977 0.168538 76 0 153
-0.288795 -0.316603 -0.265071 204 51 127
0.679168 0.368499 -0.096124 0 0 255
0.073610 0.336714 -0.288297 0 0 255
-0.844174 -0.035052 0.318679 0 255 0
0.576040 0.324852 -0.288297 153 0 76
0.842456 0.332441 0.114108 0 0 255
0.661838 0.332441 0.236365 0 0 255
0.341633 -0.139042 -0.280284 153 0 76
0.691608 -0.316603 0.095118 204 51 127
0.809627 0.146965 0.282621 0 255 0
-0.423704 0.007919 -0.198103 76 0 153
-0.151433 0.332441 -0.121980 0 0 255
-0.549928 0.332441 -0.182717 0 0 255
0.666294 -0.267436 0.282621 0 255 0
0.237436 -0.282739 0.282621 0 255 0
0.665654 -0.005997 0.282621 0 255 0
-0.842122 -0.171997 -0.121183 153 76 0
0.908362 -0.352661 -0.220179 76 0 153
-0.419549 0.007919 0.220372 76 0 153
0.123141 0.061781 0.318679 0 255 0
-0.087514 0.350398 0.282621 0 0 255
0.924719 -0.016320 0.264213 76 0 153
0.208667 0.007919 0.033223 76 0 153
-0.875175 -0.208509 0.302324 0 255 0
-0.611929 -0.352661 0.261209 204 51 127
-0.684355 0.007919 0.158845 76 0 153
-0.405785 0.368499 -0.174923 0 0 255
0.888661 0.268788 0.257686 76 0 153
-0.594875 -0.316603 -0.263554 204 51 127
0.231397 0.043977 0.250103 76 0 153
-0.291950 0.007919 -0.134082 76 0 153
0.283066 -0.316603 0.256706 204 51 127
-0.326270 0.043977 0.258021 76 0 153
-0.568821 -0.352661 -0.070645 204 51 127
0.780675 0.043977 0.226286 76 0 153
-0.137164 -0.089627 0.318679 0 255 0
0.864768 -0.145248 -0.280284 153 0 76
0.443863 0.043977 -0.181098 76 0 153
-0.839117 0.035632 -0.092987 76 0 153
0.222670 0.242220 0.318679 0 255 0
-0.009075 -0.086032 -0.288297 153 0 76
0.388401 0.368499 -0.105524 0 0 255
0.702572 -0.316603 0.213200 204 51 127
-0.465784 0.007919 0.031525 76 0 153
-0.390145 -0.352661 -0.214152 204 51 127
-0.716828 -0.316603 0.162426 204 51 127
-0.167548 0.007919 -0.143548 76 0 153
-0.871800 0.216842 -0.326358 153 76 0
0.801530 0.228031 0.282621 0 255 0
-0.017991 0.368499 -0.275239 153 0 76
0.616230 -0.316603 -0.250569 204 51 127
0.924719 0.144090 -0.131706 76 0 153
-0.485144 -0.316603 -0.051955 204 51 127
-0.843848 0.222463 0.318679 0 255 0
0.610506 0.212800 0.318679 0 255 0
-0.499471 0.043977 0.030454 76 0 153
0.603031 0.007919 -0.031392 76 0 153
-0.172105 -0.352661 -0.090433 204 51 127
-0.761776 0.298417 -0.288297 153 0 76
-0.842122 0.326376 -0.219502 0 0 255
0.375846 -0.289015 0.282621 0 255 0
0.888661 -0.021786 0.155611 76 0 153
0.415546 -0.352661 0.180378 204 51 127
0.136052 -0.016780 0.318679 0 255 0
-0.319568 -0.004058 0.318679 0 255 0
-0.007701 -0.316603 0.244573 204 51 127
0.068964 0.043977 -0.254118 76 0 153
-0.176256 -0.316603 0.064713 204 51 127
0.390169 0.332441 -0.110449 0 0 255
0.028043 -0.352661 0.317855 0 255 0
-0.540808 0.368499 -0.270148 0 0 255
0.867565 0.007919 -0.161781 76 0 153
-0.719841 -0.316603 0.038639 204 51 127
-0.130270 0.043977 -0.120395 76 0 153
-0.186499 0.043977 0.072972 76 0 153
-0.000599 0.332441 -0.198965 0 0 255
-0.878180 -0.204918 -0.285278 153 76 0
0.888661 -0.174261 0.145437 76 0 153
0.800071 -0.285110 0.318679 0 255 0
0.524928 0.007919 -0.105964 76 0 153
0.613413 0.043977 0.126779 76 0 153
-0.864885 0.143523 0.278615 153 76 0
-0.352229 0.033411 -0.288297 153 0 76
0.823447 0.332441 0.200581 0 0 255
-0.007531 -0.251430 0.318679 0 255 0
-0.480202 0.043977 0.112533 76 0 153
-0.711742 0.043977 -0.119843 76 0 153
0.888661 0.201537 0.245771 76 0 153
0.721720 0.301504 -0.280284 153 0 76
-0.878180 0.258254 0.273216 153 76 0
0.744952 0.155133 -0.280284 153 0 76
-0.878180 0.166225 0.186436 153 76 0
-0.637686 0.007919 0.259899 0 255 0
-0.705723 0.007919 -0.247352 76 0 153
0.772405 0.218332 0.282621 0 255 0
0.924719 -0.097611 -0.189882 76 0 153
-0.842122 0.183998 0.089493 153 76 0
0.631878 0.043977 -0.141219 76 0 153
-0.609322 -0.214874 0.282621 0 255 0
-0.152747 0.007919 0.202332 76 0 153
0.271446 0.298439 -0.288297 153 0 76
0.232033 0.354476 0.303511 0 255 0
-0.566707 -0.255507 -0.280284 153 0 76
0.372590 0.368499 0.272611 0 0 255
0.380634 0.043977 0.217822 76 0 153
0.646948 -0.352661 0.000264 204 51 127
0.888661 -0.054197 -0.058662 76 0 153
-0.186905 0.043977 0.201369 76 0 153
0.924719 -0.225415 0.235336 76 0 153
0.330076 -0.316603 0.078005 204 51 127
-0.823097 -0.316603 0.031953 204 51 127
0.924719 0.195404 -0.218474 76 0 153
-0.443811 -0.352661 0.263326 204 51 127
0.924719 0.115853 0.239936 76 0 153
-0.463156 -0.352661 0.007590 204 51 127
0.924719 0.332984 0.109456 76 0 153
-0.171979 0.007919 0.259276 0 255 0
-0.792709 0.332441 -0.091230 0 0 255
-0.566989 0.010141 0.282621 0 255 0
0.898401 -0.352661 -0.263920 76 0 153
0.336831 0.028111 -0.280284 76 0 153
-0.459945 0.043977 0.135619 76 0 153
0.102246 0.007919 -0.270870 76 0 153
0.563635 -0.352661 -0.187158 204 51 127
-0.296125 -0.352661 -0.182785 204 51 127
-0.062824 0.186119 -0.288297 153 0 76
-0.842122 0.344008 -0.019662 0 0 255
-0.526667 -0.238452 0.318679 0 255 0
0.521898 0.007919 0.041130 76 0 153
-0.459847 0.335628 0.282621 0 255 0
0.515469 0.353197 0.318679 0 255 0
0.100569 -0.143317 0.318679 0 255 0
-0.348722 -0.352661 0.203119 204 51 127
0.870374 -0.352661 0.100657 204 51 127
0.189785 0.368499 -0.201917 0 0 255
0.353817 -0.070254 0.318679 0 255 0
0.424374 0.332441 -0.206960 0 0 255
-0.349992 -0.352661 0.142186 204 51 127
0.370376 0.007919 -0.023920 76 0 153
0.289364 -0.352661 -0.068276 204 51 127
0.081671 -0.335317 -0.288297 204 51 127
-0.807222 -0.352661 0.256554 204 51 127
-0.637750 0.332441 0.216269 0 0 255
0.215027 -0.223834 0.358626 127 127 0
0.340265 0.007919 0.010990 76 0 153
0.693670 0.368499 0.031951 0 0 255
0.410193 0.368499 0.122964 0 0 255
-0.842122 0.106539 -0.215589 153 76 0
-0.009276 -0.352661 0.211900 204 51 127
0.603470 0.007919 0.205539 76 0 153
0.522969 -0.316603 0.117345 204 51 127
-0.867908 -0.127845 -0.326358 153 76 0
0.888661 0.004356 0.185511 76 0 153
0.888661 0.343494 0.247035 76 0 153
0.359522 0.259447 0.318679 0 255 0
-0.336217 0.254186 0.282621 0 255 0
-0.349471 -0.078836 0.318679 0 255 0
-0.161016 -0.352661 -0.209273 204 51 127
0.353277 0.169237 0.282621 0 255 0
0.488624 0.137525 -0.280284 153 0 76
0.532348 -0.037306 0.282621 0 255 0
0.924719 0.053838 0.187625 76 0 153
-0.842122 -0.254023 0.231806 153 76 0
0.557261 -0.352661 -0.102744 204 51 127
-0.258460 -0.316603 0.070603 204 51 127
0.924719 -0.323195 0.000122 76 0 153
0.702120 -0.316603 -0.004209 204 51 127
0.587042 0.043977 -0.115890 76 0 153
0.909657 0.030078 -0.326358 76 0 153
-0.104010 -0.101229 0.282621 0 255 0
0.888661 0.201963 -0.191772 76 0 153
-0.878180 -0.172516 0.270216 153 76 0
0.008290 0.330962 0.318679 0 255 0
0.921714 -0.209336 0.296637 0 255 0
0.352152 0.010093 0.282621 0 255 0
-0.581236 0.368499 0.192902 0 0 255
0.525043 0.007919 0.209613 76 0 153
-0.878180 0.032697 -0.082352 153 76 0
-0.342490 -0.055775 -0.288297 153 0 76
-0.666656 -0.352661 0.246368 204 51 127
0.184510 -0.352661 -0.111463 204 51 127
-0.628414 -0.316603 0.263306 204 51 127
-0.171758 -0.316603 -0.049104 204 51 127
-0.878180 -0.166600 -0.184652 153 76 0
0.615918 -0.352661 -0.244924 204 51 127
0.888661 0.303066 -0.180883 76 0 153
-0.746668 0.368499 0.106009 0 0 255
-0.223208 -0.345774 0.282621 0 255 0
0.756204 -0.065162 0.282621 0 255 0
-0.842122 -0.123535 0.209416 153 76 0
-0.813002 0.332441 -0.056050 0 0 255
-0.878180 0.213011 -0.055951 153 76 0
-0.467633 -0.352661 0.294442 0 255 0
0.497154 -0.313525 0.318679 0 255 0
-0.842122 -0.014489 0.028153 153 76 0
0.785035 0.368499 0.076791 0 0 255
0.580410 0.302912 0.282621 0 255 0
0.054826 0.332441 0.062930 0 0 255
-0.713211 0.332441 -0.068151 0 0 255
-0.442220 0.007919 0.165077 76 0 153
-0.509750 0.366616 0.278615 0 0 255
-0.612078 0.368499 0.270877 0 0 255
-0.875175 -0.034952 0.288236 153 76 0
-0.354344 0.007919 -0.027233 76 0 153
-0.538669 0.189153 0.282621 0 255 0
-0.842122 0.341843 -0.108621 0 0 255
0.495560 -0.208701 0.282621 0 255 0
-0.404046 -0.352661 0.144500 204 51 127
0.924719 0.279502 0.109388 76 0 153
0.311045 -0.092750 -0.288297 153 0 76
-0.625155 0.169213 0.282621 0 255 0
0.888661 -0.323324 -0.210251 76 0 153
0.572729 0.043977 0.211556 76 0 153
-0.535538 0.270772 -0.280284 153 0 76
0.472289 0.332441 0.032954 0 0 255
0.571693 0.332441 0.091457 0 0 255
0.356927 0.043977 -0.098958 76 0 153
-0.319480 0.221997 0.318679 0 255 0
-0.581297 0.043977 0.181481 76 0 153
0.665012 0.169895 -0.280284 153 0 76
0.581723 0.368499 0.120641 0 0 255
-0.875874 0.368499 0.268208 153 76 0
0.924719 -0.144277 -0.211800 76 0 153
0.924719 0.231755 -0.192183 76 0 153
0.566158 0.349914 -0.288297 153 0 76
-0.212342 0.309926 0.318679 0 255 0
-0.414805 -0.191937 -0.288297 153 0 76
-0.442234 -0.352661 -0.098741 204 51 127
-0.470172 -0.323613 0.282621 0 255 0
-0.878180 -0.301426 -0.072978 153 76 0
0.552663 0.043977 -0.066172 76 0 153
-0.239307 0.007919 -0.263225 76 0 153
-0.875175 -0.154950 0.299705 0 255 0
-0.338952 -0.112028 -0.288297 153 0 76
0.888661 -0.300714 0.049559 76 0 153
-0.860468 -0.298416 0.282621 0 255 0
0.888661 0.346543 -0.193360 0 0 255
0.888661 -0.205464 0.236660 76 0 153
0.135776 -0.178445 0.318679 0 255 0
-0.842122 0.164919 0.010166 153 76 0
0.157587 0.332441 -0.080254 0 0 255
0.685123 0.332441 0.209902 0 0 255
0.253586 0.043977 0.229729 76 0 153
0.102332 0.368499 -0.037581 0 0 255
-0.087341 0.332441 -0.002761 0 0 255
-0.878180 -0.270966 -0.021848 153 76 0
0.924719 0.007819 0.110594 76 0 153
-0.309880 -0.184661 -0.288297 153 0 76
-0.793327 0.218073 0.318679 0 255 0
0.822109 -0.316603 0.114889 204 51 127
0.471880 -0.093757 0.282621 0 255 0
0.924719 -0.248808 -0.013330 76 0 153
0.541030 -0.155620 -0.280284 153 0 76
-0.015786 0.117441 0.318679 0 255 0
-0.198143 0.295938 0.282621 0 255 0
0.675304 -0.158650 0.318679 0 255 0
-0.703701 -0.271194 -0.288297 153 0 76
-0.878180 0.159744 -0.085134 153 76 0
-0.031269 -0.269937 0.318679 0 255 0
0.430612 -0.352661 -0.213680 204 51 127
-0.874070 0.368499 -0.089068 153 76 0
0.668631 0.043977 0.110154 76 0 153
-0.186004 -0.316603 -0.250259 204 51 127
0.018057 0.007919 -0.007048 76 0 153
0.122594 -0.352661 0.150626 204 51 127
0.257474 0.263036 0.318679 0 255 0
0.924719 -0.275405 -0.120889 76 0 153
-0.842122 -0.183387 -0.093253 153 76 0
0.332194 -0.352661 0.141852 204 51 127
0.350770 0.311716 0.282621 0 255 0
-0.320872 0.278982 0.318679 0 255 0
-0.878180 -0.217075 0.249359 153 76 0
0.619370 -0.352661 -0.194396 204 51 127
0.871080 0.332441 -0.041229 0 0 255
-0.334241 -0.270482 0.282621 0 255 0
-0.336555 0.069479 0.318679 0 255 0
0.170152 0.007919 -0.206460 76 0 153
-0.820933 -0.316603 -0.093851 204 51 127
-0.617407 0.368499 -0.096303 0 0 255
-0.605778 -0.180608 -0.280284 153 0 76
-0.878180 0.344867 0.115778 153 76 0
-0.691875 -0.316603 -0.100189 204 51 127
0.644374 0.043977 0.073070 76 0 153
0.780347 -0.063492 -0.288297 153 0 76
-0.878180 -0.197652 0.038432 153 76 0
-0.842122 0.216656 0.023442 153 76 0
-0.660837 -0.352661 0.297672 0 255 0
-0.842122 0.340084 -0.268598 153 0 76
0.574196 0.332441 0.007103 0 0 255
0.388554 0.007919 -0.254654 76 0 153
-0.806168 0.332441 -0.273748 153 0 76
0.084709 0.007919 0.154834 76 0 153
0.187587 0.332441 0.181225 0 0 255
0.094926 0.007919 -0.063167 76 0 153
-0.842122 0.301048 -0.302989 153 76 0
-0.842122 -0.182081 -0.152469 153 76 0
0.189159 -0.091778 -0.288297 153 0 76
-0.750113 0.007919 -0.166370 76 0 153
-0.150911 0.368499 -0.206162 0 0 255
-0.586580 0.043977 0.028715 76 0 153
-0.780348 -0.244830 -0.280284 153 0 76
0.924719 -0.332603 0.148059 76 0 153
-0.529837 0.043977 0.163386 76 0 153
-0.165082 -0.352661 0.068313 204 51 127
-0.562629 -0.352661 0.288865 204 51 127
0.720692 0.332441 0.253265 0 0 255
0.793341 -0.316603 0.204047 204 51 127
-0.264419 -0.117886 0.282621 0 255 0
-0.069936 0.319619 0.282621 0 255 0
-0.372547 -0.315773 0.282621 204 51 127
-0.100276 0.007919 -0.201712 76 0 153
-0.294849 0.332441 0.261495 0 0 255
-0.878180 -0.087140 -0.164966 153 76 0
-0.470093 0.368499 0.225792 0 0 255
0.876006 0.007919 0.064769 76 0 153
0.555685 0.128915 0.318679 0 255 0
0.300767 0.293856 -0.288297 153 0 76
0.383777 0.046352 0.282621 0 255 0
0.316668 0.043977 -0.138259 76 0 153
-0.046895 0.043977 -0.215549 76 0 153
0.111416 -0.352661 -0.003801 204 51 127
0.503200 0.043977 -0.192348 76 0 153
0.362955 0.203235 0.318679 0 255 0
-0.733378 0.007919 -0.258479 76 0 153
0.003258 -0.163990 -0.280284 153 0 76
0.771014 -0.260624 -0.288297 153 0 76
0.739597 0.007919 -0.062445 76 0 153
-0.677030 0.025920 0.318679 0 255 0
0.816210 -0.352661 -0.165966 204 51 127
0.888661 0.357893 -0.166268 76 0 153
0.187156 0.110068 0.282621 0 255 0
0.018228 0.299563 -0.280284 153 0 76
0.888661 0.116847 -0.198666 76 0 153
-0.842122 0.268626 -0.193371 153 76 0
-0.842122 -0.284217 -0.300658 153 76 0
-0.660038 0.052066 -0.288297 153 0 76
0.348203 0.007919 -0.222404 76 0 153
0.063395 -0.016945 -0.280284 153 0 76
0.767227 0.028996 -0.280284 153 0 76
0.888661 -0.200437 0.041699 76 0 153
0.125304 -0.348190 -0.288297 204 51 127
-0.266598 -0.220820 -0.288297 153 0 76
0.066380 -0.316603 0.050216 204 51 127
0.924719 -0.126672 0.215017 76 0 153
-0.125806 0.333507 0.282621 0 255 0
0.266269 0.035886 0.318679 0 255 0
-0.010395 0.332441 -0.021321 0 0 255
0.234692 -0.124487 0.282621 0 255 0
-0.164689 -0.352661 -0.160805 204 51 127
-0.737970 -0.325624 0.282621 204 51 127
0.047382 0.065630 0.282621 0 255 0
-0.681330 0.043977 0.154367 76 0 153
-0.582533 -0.316603 -0.047727 204 51 127
0.220852 -0.316603 0.100953 204 51 127
-0.764321 -0.316603 -0.110797 204 51 127
0.924719 -0.238141 0.193468 76 0 153
-0.554692 -0.239770 0.282621 0 255 0
-0.435772 0.007919 -0.097061 76 0 153
0.217117 0.332441 0.098501 0 0 255
-0.578736 0.043977 0.135398 76 0 153
0.292712 0.368499 0.177740 0 0 255
0.640751 0.368499 -0.179984 0 0 255
0.575356 0.332441 -0.055866 0 0 255
0.592065 0.218926 -0.280284 153 0 76
-0.226972 -0.115619 -0.280284 153 0 76
0.306769 -0.301655 0.282621 0 255 0
0.723197 0.141164 0.318679 0 255 0
0.724801 -0.352661 0.197800 204 51 127
-0.679726 -0.309739 0.318679 0 255 0
-0.703589 0.332441 -0.111887 0 0 255
-0.207451 0.007919 -0.111546 76 0 153
-0.430643 0.368499 -0.042155 0 0 255
-0.769532 -0.352661 0.299269 0 255 0
-0.137181 -0.330900 0.278615 204 51 127
0.924719 -0.139001 -0.037763 76 0 153
0.148378 0.368499 -0.167657 0 0 255
0.250900 0.332441 -0.070913 0 0 255
0.915099 0.159005 -0.326358 76 0 153
0.485161 0.043977 -0.104585 76 0 153
-0.008444 0.273482 0.282621 0 255 0
-0.164930 -0.269042 0.318679 0 255 0
-0.188093 0.368499 -0.025518 0 0 255
0.852455 -0.352661 -0.262354 204 51 127
-0.386257 0.007919 0.131521 76 0 153
-0.479869 -0.316603 0.111277 204 51 127
-0.086797 -0.352661 -0.104036 204 51 127
-0.842122 -0.209236 0.030437 153 76 0
0.768143 0.043977 -0.234429 76 0 153
0.924719 0.171263 -0.049539 76 0 153
0.461081 0.043977 -0.155948 76 0 153
0.003584 0.007919 -0.157786 76 0 153
-0.106128 0.368499 -0.243789 0 0 255
0.748407 -0.005819 0.282621 0 255 0
-0.701290 -0.352661 -0.201305 204 51 127
0.888661 -0.154058 0.071785 76 0 153
-0.859021 0.185187 0.282621 0 255 0
0.924719 0.325096 -0.179398 76 0 153
-0.122073 -0.316603 0.206489 204 51 127
-0.374953 0.007919 -0.239408 76 0 153
0.318801 0.368499 0.127576 0 0 255
-0.291389 0.368499 0.111565 0 0 255
0.605375 -0.151598 0.282621 0 255 0
0.888661 0.292171 -0.277704 153 0 76
-0.071466 0.332441 0.047375 0 0 255
0.824034 0.332441 -0.115941 0 0 255
-0.878180 0.227768 0.268562 153 76 0
0.551409 0.332441 0.146657 0 0 255
0.056595 0.261260 -0.288297 153 0 76
0.074194 0.119744 0.318679 0 255 0
-0.427096 0.043977 -0.126966 76 0 153
-0.035390 0.354476 0.306548 0 255 0
-0.489324 -0.254559 -0.288297 153 0 76
0.793949 -0.316603 0.030060 204 51 127
-0.769336 0.368499 0.244900 0 0 255
-0.180122 -0.000913 -0.288297 153 0 76
-0.521435 -0.207340 -0.288297 153 0 76
0.563587 0.007919 0.018013 76 0 153
-0.361252 -0.316603 0.051412 204 51 127
0.050803 -0.044011 -0.280284 153 0 76
0.427968 -0.011002 0.282621 0 255 0
0.853275 -0.352661 -0.199794 204 51 127
0.402918 0.007919 0.223369 76 0 153
-0.756005 0.115561 -0.280284 153 0 76
0.151366 0.007919 0.167377 76 0 153
-0.677607 0.218532 0.318679 0 255 0
-0.500748 0.043977 0.057854 76 0 153
-0.081297 0.007919 -0.012886 76 0 153
-0.579678 -0.003637 0.318679 0 255 0
-0.842122 0.181945 0.147988 153 76 0
0.604760 0.043977 -0.180463 76 0 153
-0.562308 -0.066236 -0.288297 153 0 76
-0.853597 -0.238662 0.278615 153 76 0
-0.318565 0.047070 0.318679 0 255 0
-0.027856 0.368499 -0.087412 0 0 255
-0.842122 -0.180601 0.007539 153 76 0
0.471818 0.354476 0.290781 0 0 255
-0.760586 0.368499 -0.216120 0 0 255
-0.408409 -0.040713 -0.280284 153 0 76
-0.322386 0.354476 0.293641 0 255 0
0.559329 -0.352661 0.124158 204 51 127
-0.090439 -0.316603 0.122366 204 51 127
-0.842122 -0.335521 0.209408 153 76 0
0.507555 0.069792 0.282621 0 255 0
-0.569355 -0.329389 -0.280284 153 0 76
-0.589893 -0.316603 0.179005 204 51 127
-0.372824 -0.316603 -0.064003 204 51 127
0.464920 0.368499 -0.203495 0 0 255
-0.291719 -0.189957 0.318679 0 255 0
-0.878180 0.207196 -0.274782 153 76 0
0.363874 0.043977 -0.210358 76 0 153
0.866367 0.007919 -0.126292 76 0 153
-0.628043 0.088156 -0.280284 153 0 76
-0.154622 -0.198136 -0.288297 153 0 76
0.924719 0.006481 -0.031335 76 0 153
0.218160 0.332441 -0.154280 0 0 255
0.054064 -0.352661 -0.117763 204 51 127
0.690268 -0.296159 0.282621 0 255 0
-0.299810 0.332441 0.093190 0 0 255
0.781678 -0.302227 -0.280284 153 0 76
0.828777 0.329587 0.318679 0 255 0
0.821306 -0.325785 0.278615 0 255 0
0.867576 -0.352661 -0.087587 204 51 127
-0.434867 -0.352661 -0.129621 204 51 127
0.446265 0.140394 0.318679 0 255 0
-0.389717 0.263046 -0.288297 153 0 76
-0.481217 0.043977 0.005240 76 0 153
0.888661 0.310554 -0.253160 76 0 153
-0.568652 0.007919 0.073690 76 0 153
0.888661 -0.080385 0.261368 76 0 153
0.924719 0.200330 -0.071648 76 0 153
0.621234 -0.205701 0.282621 0 255 0
-0.461496 -0.352661 -0.195962 204 51 127
-0.875175 0.277091 0.297493 0 255 0
0.450293 0.332441 0.186897 0 0 255
-0.716345 0.043977 -0.239959 76 0 153
0.888661 -0.291875 0.149842 76 0 153
-0.736913 -0.209635 0.282621 0 255 0
0.921889 0.077906 0.278615 0 255 0
0.691962 0.007919 0.062354 76 0 153
-0.208008 -0.316603 0.155034 204 51 127
0.036002 -0.316603 -0.225800 204 51 127
0.537366 0.346147 -0.280284 0 0 255
0.565282 0.027453 0.318679 0 255 0
-0.205660 0.133873 -0.288297 153 0 76
-0.741576 -0.316603 0.190115 204 51 127
-0.028719 -0.316603 0.112833 204 51 127
0.599747 0.043977 0.159819 76 0 153
-0.652670 0.368499 0.130026 0 0 255
0.864439 0.332441 -0.106707 0 0 255
0.357403 0.332441 0.058794 0 0 255
-0.048445 -0.316603 -0.004687 204 51 127
-0.377892 0.043977 -0.211037 76 0 153
-0.508136 0.019848 0.268599 76 0 153
-0.387484 0.368499 0.148258 0 0 255
-0.615275 -0.316603 0.224714 204 51 127
-0.767097 0.020530 -0.280284 153 0 76
0.285249 0.332441 0.195764 0 0 255
0.069799 0.182484 0.318679 0 255 0
0.834886 0.029247 0.318679 0 255 0
-0.352528 -0.272124 -0.280284 153 0 76
-0.356074 -0.352661 -0.043663 204 51 127
-0.109050 -0.316603 0.044192 204 51 127
-0.011742 0.332441 0.030963 0 0 255
0.768580 0.279603 0.282621 0 255 0
0.695197 -0.338918 0.282621 204 51 127
-0.270134 -0.336472 0.318679 0 255 0
0.085879 0.163798 -0.280284 153 0 76
0.011111 -0.352661 0.029283 204 51 127
-0.272233 -0.352661 -0.093358 204 51 127
0.858729 0.332441 0.052118 0 0 255
0.596766 0.368499 0.197486 0 0 255
0.924719 -0.191868 0.261705 76 0 153
-0.139390 0.368499 -0.100613 0 0 255
-0.481597 -0.101502 -0.280284 153 0 76
-0.842122 -0.331955 -0.078137 153 76 0
0.793539 0.043977 0.055472 76 0 153
0.924719 -0.278912 0.147768 76 0 153
-0.490641 0.007919 -0.263069 76 0 153
0.885382 -0.135843 0.282621 76 0 153
-0.368947 0.146113 0.318679 0 255 0
0.007603 0.368499 -0.229704 0 0 255
0.501553 0.254648 -0.288297 153 0 76
-0.606669 -0.316603 0.075305 204 51 127
0.924719 0.241800 -0.114147 76 0 153
-0.842122 -0.006598 0.248709 153 76 0
-0.878180 -0.239729 -0.182219 153 76 0
0.647801 0.043977 0.011363 76 0 153
0.680998 0.043977 -0.161217 76 0 153
0.405689 0.121317 0.282621 0 255 0
-0.188479 -0.352661 0.162731 204 51 127
-0.561895 -0.008834 -0.280284 153 0 76
-0.809263 0.059547 -0.288297 153 0 76
0.224973 0.105843 -0.288297 153 0 76
-0.381856 -0.352661 -0.245636 204 51 127
-0.612211 -0.294374 0.318679 0 255 0
-0.432901 0.368499 0.077581 0 0 255
-0.341821 -0.141893 0.282621 0 255 0
0.813366 -0.352661 -0.237591 204 51 127
0.740974 0.007919 -0.009710 76 0 153
0.310367 0.069337 -0.280284 153 0 76
-0.524657 0.219318 -0.280284 153 0 76
0.236610 0.094002 0.318679 0 255 0
-0.309865 0.007919 0.020799 76 0 153
0.214788 0.043977 -0.048974 76 0 153
-0.516983 -0.071749 -0.288297 153 0 76
0.654946 0.332441 0.126580 0 0 255
0.755416 0.368072 0.278615 0 0 255
0.174476 0.007919 -0.067495 76 0 153
-0.418194 0.328171 -0.288297 153 0 76
-0.373234 0.043977 -0.182075 76 0 153
-0.878180 -0.120153 -0.213302 153 76 0
0.375837 -0.352661 -0.034212 204 51 127
-0.878180 -0.129189 0.152675 153 76 0
-0.315502 -0.352661 -0.127680 204 51 127
0.414640 -0.074428 -0.288297 153 0 76
-0.343220 0.230751 -0.288297 153 0 76
-0.534732 -0.316603 0.255309 204 51 127
0.606715 -0.352661 0.267258 204 51 127
0.222433 -0.316603 -0.040133 204 51 127
0.401751 -0.005992 0.318679 0 255 0
-0.733435 0.332441 -0.026116 0 0 255
-0.359549 0.090199 -0.280284 153 0 76
-0.240010 0.230990 -0.280284 153 0 76
0.801241 -0.031896 0.282621 0 255 0
-0.878180 0.283031 0.114231 153 76 0
-0.778598 0.130000 0.282621 0 255 0
0.047279 0.332441 0.216653 0 0 255
0.390114 0.368499 0.212023 0 0 255
-0.617510 0.007919 -0.174422 76 0 153
0.355089 0.332441 -0.033324 0 0 255
-0.102021 -0.031794 0.282621 0 255 0
0.129482 -0.271223 -0.288297 153 0 76
0.356571 0.007919 -0.266980 76 0 153
-0.541117 0.007919 0.139239 76 0 153
-0.237778 0.151905 0.282621 0 255 0
0.511488 0.231458 0.318679 0 255 0
-0.878180 -0.276673 -0.130646 153 76 0
-0.842122 0.342934 0.265354 0 0 255
-0.039081 -0.326498 0.318679 0 255 0
0.131962 -0.316603 0.091510 204 51 127
0.609381 0.332441 -0.205670 0 0 255
0.326051 0.368499 -0.096656 0 0 255
-0.759718 0.043977 -0.130633 76 0 153
0.333228 -0.352661 0.221257 204 51 127
0.057351 0.368499 -0.256207 0 0 255
0.186618 0.043977 0.190724 76 0 153
-0.050715 -0.292741 0.282621 0 255 0
-0.425765 0.332441 -0.037486 0 0 255
0.669533 0.306057 -0.280284 153 0 76
-0.842122 -0.298092 -0.011039 153 76 0
0.145624 -0.127279 0.318679 0 255 0
-0.134864 -0.352661 -0.249393 204 51 127
0.496341 0.368499 0.050452 0 0 255
0.924719 -0.069419 0.255343 76 0 153
-0.502306 0.312428 -0.288297 153 0 76
-0.809964 -0.040690 0.318679 0 255 0
0.383085 -0.342683 -0.280284 153 0 76
-0.759180 -0.352661 0.120388 204 51 127
0.694798 -0.174911 0.282621 0 255 0
-0.602848 0.182657 -0.280284 153 0 76
0.888661 0.233902 0.069263 76 0 153
-0.739519 0.064523 -0.280284 153 0 76
-0.582731 0.058916 -0.280284 153 0 76
0.446859 0.156332 0.282621 0 255 0
0.208603 -0.316603 -0.117124 204 51 127
0.547590 -0.179527 -0.288297 153 0 76
0.689893 0.217119 -0.280284 153 0 76
-0.729799 -0.025837 0.282621 0 255 0
-0.554163 -0.210610 0.318679 0 255 0
-0.172133 0.332441 -0.094950 0 0 255
0.406486 0.332441 -0.058446 0 0 255
0.888661 0.179483 -0.100963 76 0 153
0.689115 -0.275545 0.318679 0 255 0
-0.109663 -0.251026 0.318679 0 255 0
-0.697730 -0.352661 0.257005 204 51 127
-0.520248 -0.253643 -0.280284 153 0 76
0.688347 0.170806 0.318679 0 255 0
0.736875 -0.316603 0.022513 204 51 127
-0.024990 0.220207 -0.280284 153 0 76
-0.188921 -0.223120 0.358626 127 127 0
-0.560228 0.145379 0.282621 0 255 0
-0.842122 -0.229594 0.089654 153 76 0
0.171422 0.222121 0.282621 0 255 0
-0.600220 0.007919 -0.122309 76 0 153
-0.768025 0.368499 0.088491 0 0 255
0.717584 -0.316603 0.174453 204 51 127
0.888661 0.237635 0.120601 76 0 153
-0.479047 -0.336681 -0.288297 153 0 76
-0.102911 -0.316603 0.018862 204 51 127
-0.112817 -0.352661 0.183943 204 51 127
-0.689304 -0.017183 -0.280284 153 0 76
-0.158102 0.088062 0.318679 0 255 0
0.750895 0.332441 -0.084209 0 0 255
0.831884 0.368499 0.158405 0 0 255
-0.648842 0.043977 0.258835 76 0 153
0.592453 0.121752 -0.288297 153 0 76
0.469530 0.033678 0.318679 0 255 0
-0.190277 -0.008327 0.282621 0 255 0
-0.829275 -0.352661 -0.091841 153 76 0
0.738412 0.072391 -0.280284 153 0 76
-0.400817 -0.173680 0.318679 0 255 0
0.375913 -0.178142 -0.288297 153 0 76
0.715370 0.043977 -0.250098 76 0 153
-0.477948 0.332441 -0.113117 0 0 255
0.285527 -0.352661 -0.201324 204 51 127
0.335936 0.043977 0.081918 76 0 153
-0.878180 -0.032914 0.095609 153 76 0
0.660460 -0.352661 0.120777 204 51 127
0.545622 -0.316603 0.051528 204 51 127
0.001420 -0.304897 -0.280284 153 0 76
-0.842122 0.266322 -0.256658 153 76 0
0.924719 0.021601 0.160856 76 0 153
0.095345 0.062062 -0.280284 153 0 76
0.801548 0.043977 0.106090 76 0 153
0.924719 -0.026960 0.118824 76 0 153
0.332142 -0.352661 -0.237296 204 51 127
0.738738 0.368499 0.158903 0 0 255
-0.047518 -0.316603 0.204577 204 51 127
-0.842122 0.218382 0.121140 153 76 0
-0.842122 -0.234486 -0.018925 153 76 0
-0.743655 -0.352661 -0.240125 204 51 127
-0.298718 -0.316603 -0.060337 204 51 127
-0.267605 0.368499 -0.134492 0 0 255
-0.588403 0.043977 0.084156 76 0 153
0.924719 -0.025355 -0.044019 76 0 153
-0.100615 0.055348 -0.288297 153 0 76
0.468984 -0.350562 0.318679 0 255 0
-0.878180 -0.229507 0.043695 153 76 0
0.731457 -0.352661 0.298253 0 255 0
0.866974 0.043977 -0.026396 76 0 153
-0.247738 0.275840 0.282621 0 255 0
0.646880 0.007919 0.235192 76 0 153
-0.808119 0.043977 -0.257580 76 0 153
-0.527888 -0.352661 0.132123 204 51 127
0.924719 0.247018 0.007263 76 0 153
-0.394600 0.368499 0.190100 0 0 255
-0.684867 0.263914 0.318679 0 255 0
0.924719 -0.039074 -0.300308 76 0 153
-0.693040 -0.237502 0.282621 0 255 0
0.924719 -0.061209 -0.202117 76 0 153
0.593669 -0.246651 0.282621 0 255 0
-0.397843 0.368499 0.230030 0 0 255
0.878486 0.007919 -0.207794 76 0 153
0.189530 0.272425 0.318679 0 255 0
0.348978 0.368499 0.070873 0 0 255
-0.357876 -0.316603 -0.225417 204 51 127
0.307100 0.007919 -0.257134 76 0 153
-0.595084 -0.114894 0.282621 0 255 0
0.037404 -0.316603 0.258934 204 51 127
0.517883 -0.080883 0.318679 0 255 0
-0.262922 -0.352661 0.079048 204 51 127
0.178782 0.043977 -0.008970 76 0 153
0.689728 0.132974 -0.288297 153 0 76
-0.685675 0.332441 0.067269 0 0 255
0.904336 -0.331829 0.318679 0 255 0
0.020286 -0.326556 0.278615 204 51 127
-0.479234 0.368499 0.186581 0 0 255
-0.290530 -0.316603 -0.177632 204 51 127
0.924719 -0.078853 0.139448 76 0 153
-0.153520 -0.283315 -0.280284 153 0 76
0.685937 0.332441 0.154800 0 0 255
0.138816 0.007919 -0.031867 76 0 153
-0.437430 0.043977 -0.207679 76 0 153
-0.598367 0.168129 0.318679 0 255 0
-0.046450 -0.010284 -0.288297 153 0 76
0.045117 0.007919 -0.031314 76 0 153
-0.842122 0.203602 -0.219821 153 76 0
0.924719 0.128086 -0.264910 76 0 153
0.534516 0.007919 0.159348 76 0 153
-0.842122 -0.211985 -0.279083 153 0 76
-0.250067 -0.316603 -0.116552 204 51 127
-0.303087 0.007919 -0.026845 76 0 153
-0.878180 0.278168 0.225446 153 76 0
0.720868 -0.316603 -0.065492 204 51 127
-0.853854 0.011956 0.282621 0 255 0
0.064458 -0.068058 -0.280284 153 0 76
-0.269480 -0.272866 -0.280284 153 0 76
-0.575855 0.007919 0.174814 76 0 153
0.373445 0.192804 0.282621 0 255 0
-0.632409 0.265874 0.318679 0 255 0
-0.693840 0.368499 -0.267506 0 0 255
-0.498575 0.332441 -0.067533 0 0 255
0.463914 -0.316603 -0.184587 204 51 127
0.911523 0.337316 -0.326358 76 0 153
-0.196357 -0.316603 -0.095350 204 51 127
-0.878180 0.052533 -0.306825 153 76 0
0.042575 -0.080973 0.282621 0 255 0
-0.450250 -0.230027 -0.288297 153 0 76
0.840569 -0.014946 -0.288297 153 0 76
-0.401115 0.007919 -0.258677 76 0 153
-0.655710 0.043977 -0.108623 76 0 153
-0.842122 -0.005070 0.094749 76 0 153
0.093947 0.043977 -0.172068 76 0 153
0.924719 -0.021747 -0.256994 76 0 153
-0.411930 0.178864 0.282621 0 255 0
-0.599406 -0.352661 -0.017424 204 51 127
-0.415311 -0.143356 0.282621 0 255 0
0.483511 -0.042059 0.318679 0 255 0
0.423975 0.007919 0.010637 76 0 153
0.394850 0.332441 -0.156637 0 0 255
-0.488869 0.332441 -0.197069 0 0 255
0.748161 -0.316603 -0.116752 204 51 127
-0.842122 0.341449 0.071101 153 76 0
-0.012762 0.258274 0.318679 0 255 0
-0.774196 0.007919 0.175458 76 0 153
0.883304 0.186488 0.318679 0 255 0
0.553207 0.332441 0.234717 0 0 255
-0.027493 0.007919 0.129668 76 0 153
0.913560 0.368499 -0.284882 76 0 153
-0.494104 0.332441 0.207626 0 0 255
0.833432 -0.184044 0.282621 0 255 0
0.316751 0.180846 0.318679 0 255 0
-0.266012 -0.170843 -0.280284 153 0 76
0.055293 -0.352661 0.099382 204 51 127
-0.418086 -0.214857 0.318679 0 255 0
0.007236 0.143731 0.282621 0 255 0
0.647028 0.007919 -0.040769 76 0 153
-0.842122 0.093424 -0.079597 153 76 0
-0.839117 0.015466 -0.112280 153 76 0
-0.748352 -0.316603 0.091152 204 51 127
0.013451 -0.041394 -0.280284 153 0 76
0.377395 0.043977 0.086728 76 0 153
-0.375677 -0.123263 0.282621 0 255 0
-0.618358 -0.352661 -0.258597 204 51 127
0.420175 0.332441 0.261654 0 0 255
0.924719 0.162555 -0.245247 76 0 153
-0.519963 -0.352661 0.191169 204 51 127
0.804745 0.307982 0.282621 0 255 0
0.924719 -0.236253 0.065664 76 0 153
-0.175283 -0.316603 0.199695 204 51 127
-0.422439 0.368499 -0.129139 0 0 255
0.613810 -0.352661 -0.032186 204 51 127
-0.821872 0.007919 0.065714 76 0 153
0.512238 0.332441 0.114915 0 0 255
0.615485 0.368499 -0.170074 0 0 255
0.504437 0.137690 0.282621 0 255 0
0.805931 0.121451 0.282621 0 255 0
-0.673835 -0.316603 0.156159 204 51 127
0.323304 0.215250 0.282621 0 255 0
-0.627750 0.332441 -0.072150 0 0 255
-0.794125 -0.152142 0.282621 0 255 0
0.888661 0.343151 -0.064539 76 0 153
-0.233389 -0.352661 -0.039830 204 51 127
0.266420 0.007919 -0.122893 76 0 153
-0.711963 -0.352661 -0.022005 204 51 127
0.877412 0.222485 0.282621 0 255 0
0.924719 0.119311 0.270539 76 0 153
-0.649491 -0.352661 0.066036 204 51 127
-0.842122 -0.236878 -0.097410 153 76 0
-0.588818 -0.316603 -0.178812 204 51 127
0.862101 0.352542 -0.280284 153 0 76
-0.711715 -0.281297 0.282621 0 255 0
0.924719 0.334258 0.266636 76 0 153
0.629126 -0.093303 0.282621 0 255 0
0.863123 0.043977 -0.081779 76 0 153
0.480881 -0.241827 0.282621 0 255 0
0.142330 0.141064 -0.288297 153 0 76
-0.657022 -0.278992 0.282621 0 255 0
0.163379 0.289998 -0.280284 153 0 76
-0.541170 0.368499 0.002687 0 0 255
-0.757925 -0.352661 -0.071040 204 51 127
-0.817914 0.368499 0.200683 0 0 255
-0.068307 -0.316603 -0.125029 204 51 127
-0.842122 0.123815 0.274105 153 76 0
-0.643800 0.332441 0.269176 0 0 255
-0.016301 -0.129013 0.318679 0 255 0
-0.044388 0.129052 0.318679 0 255 0
-0.484829 0.368499 0.095744 0 0 255
-0.008910 0.043977 0.033768 76 0 153
0.888661 0.023598 -0.140002 76 0 153
-0.615018 0.043977 -0.200919 76 0 153
0.762640 -0.089994 -0.288297 153 0 76
-0.315438 0.235569 -0.280284 153 0 76
-0.025288 0.043977 -0.265023 76 0 153
-0.125586 -0.352661 -0.128205 204 51 127
-0.196840 -0.352661 0.030404 204 51 127
0.668387 0.332441 0.261238 0 0 255
0.888661 0.315767 -0.118041 76 0 153
-0.685934 0.007919 -0.263782 76 0 153
-0.459025 0.162531 0.282621 0 255 0
0.815355 0.043977 -0.098234 76 0 153
0.147166 -0.352661 0.295313 0 255 0
0.050414 0.007919 0.254945 76 0 153
-0.842122 -0.055618 -0.093621 153 76 0
-0.701691 0.007919 -0.177174 76 0 153
-0.182173 -0.352661 -0.026640 204 51 127
-0.703003 -0.352661 0.036118 204 51 127
0.411838 0.332441 0.186133 0 0 255
-0.553751 0.217179 0.318679 0 255 0
0.458047 -0.352661 0.288824 0 255 0
0.866840 0.332441 -0.202779 0 0 255
-0.811066 0.332441 0.128774 0 0 255
-0.759837 -0.108252 0.282621 0 255 0
0.888661 0.300704 -0.304301 76 0 153
-0.659604 -0.110004 -0.288297 153 0 76
0.318744 0.168370 0.282621 0 255 0
0.693559 -0.352661 -0.024106 204 51 127
-0.100568 0.332441 -0.270078 0 0 255
-0.842122 -0.119812 0.147651 153 76 0
0.144640 0.043977 0.097440 76 0 153
-0.203431 -0.316603 0.002797 204 51 127
0.583427 -0.352661 0.217030 204 51 127
-0.110308 0.368499 0.093721 0 0 255
0.156978 -0.132302 -0.280284 153 0 76
-0.878180 0.182336 0.243315 153 76 0
0.260152 0.043977 -0.140396 76 0 153
0.789001 0.332441 -0.160105 0 0 255
0.924719 0.280883 -0.275104 76 0 153
0.755986 -0.113311 0.318679 0 255 0
0.047104 -0.352661 -0.050424 204 51 127
0.730775 0.277875 0.282621 0 255 0
0.031966 0.007919 -0.156046 76 0 153
0.517162 0.068820 -0.288297 153 0 76
0.642496 -0.165776 0.318679 0 255 0
0.924719 -0.120844 -0.287620 76 0 153
0.412589 -0.316603 -0.044855 204 51 127
-0.449712 0.203871 -0.288297 153 0 76
-0.486194 -0.352661 0.172884 204 51 127
-0.328441 0.332441 -0.132607 0 0 255
-0.842122 0.030769 0.148919 76 0 153
-0.313673 -0.316603 -0.102815 204 51 127
0.267985 0.043977 -0.036557 76 0 153
-0.269980 -0.316603 -0.068707 204 51 127
0.924719 -0.203671 -0.207761 76 0 153
-0.486421 -0.036971 0.282621 0 255 0
0.924719 -0.121973 0.249933 76 0 153
0.476121 0.332441 0.083451 0 0 255
0.924719 0.164394 -0.189866 76 0 153
0.534831 -0.316603 -0.067778 204 51 127
0.924719 0.345035 -0.125929 76 0 153
