-0.273632 -0.095754 -0.014272 0.300000 0.600000 0.000000
0.212660 -0.758202 -0.172678 0.300000 0.600000 0.000000
-0.188742 -0.085308 0.198370 0.300000 0.600000 0.000000
0.232480 0.067086 -0.145154 0.300000 0.600000 0.000000
0.152805 -0.088816 0.226512 0.300000 0.600000 0.000000
0.166961 0.453002 -0.217962 0.300000 0.600000 0.000000
-0.255079 0.404675 0.100916 0.300000 0.600000 0.000000
0.271785 -0.675922 0.024710 0.300000 0.600000 0.000000
-0.273331 0.082626 -0.019270 0.300000 0.600000 0.000000
-0.266517 0.552120 -0.059614 0.300000 0.600000 0.000000
-0.264651 -0.053752 -0.072928 0.300000 0.600000 0.000000
-0.258488 -0.001061 -0.091521 0.300000 0.600000 0.000000
0.107358 -0.272002 0.250627 0.300000 0.600000 0.000000
0.210068 -0.224909 -0.174753 0.300000 0.600000 0.000000
-0.274340 0.480249 0.001790 0.300000 0.600000 0.000000
-0.034003 -0.756001 -0.272829 0.300000 0.600000 0.000000
0.083767 0.988932 -0.016385 0.300000 0.000000 0.600000
0.164632 0.588381 -0.197505 0.600000 0.000000 0.300000
-0.233903 -0.020234 -0.143872 0.300000 0.600000 0.000000
0.268341 -0.499044 0.051717 0.300000 0.600000 0.000000
-0.163256 -0.467639 0.218735 0.300000 0.600000 0.000000
0.260551 0.506462 0.080486 0.300000 0.600000 0.000000
0.238429 -0.806087 0.005583 0.300000 0.600000 0.000000
0.150501 0.039048 -0.229029 0.300000 0.600000 0.000000
-0.215102 0.306846 -0.171799 0.300000 0.600000 0.000000
-0.101854 -0.535671 -0.255958 0.300000 0.600000 0.000000
0.035575 -0.462162 -0.272514 0.300000 0.600000 0.000000
0.077692 0.407763 0.261742 0.300000 0.600000 0.000000
0.239539 0.006378 0.130571 0.300000 0.600000 0.000000
-0.274415 -0.491326 -0.001000 0.300000 0.600000 0.000000
0.131741 0.136909 -0.241131 0.300000 0.600000 0.000000
0.242986 0.594438 0.072183 0.600000 0.000000 0.300000
0.087447 0.818910 -0.089397 0.600000 0.000000 0.300000
-0.017191 -0.022928 -0.274548 0.300000 0.600000 0.000000
-0.271466 -0.707961 0.038353 0.300000 0.600000 0.000000
0.185663 -0.533472 -0.202653 0.300000 0.600000 0.000000
0.254550 -0.466828 -0.102075 0.300000 0.600000 0.000000
-0.016208 0.913543 -0.101697 0.300000 0.000000 0.600000
0.206907 0.351152 0.178234 0.300000 0.600000 0.000000
-0.223818 0.194965 0.158212 0.300000 0.600000 0.000000
-0.141613 0.786551 -0.025268 0.600000 0.000000 0.300000
0.059863 -0.644053 -0.268263 0.300000 0.600000 0.000000
-0.253368 0.060362 -0.106148 0.300000 0.600000 0.000000
-0.270175 -0.244626 0.044812 0.300000 0.600000 0.000000
0.004036 -0.045877 -0.274736 0.300000 0.600000 0.000000
0.067172 -0.786239 0.263250 0.300000 0.600000 0.000000
-0.133495 -0.784256 -0.240175 0.300000 0.600000 0.000000
-0.145684 0.345330 0.230206 0.300000 0.600000 0.000000
0.178569 0.715555 -0.043921 0.600000 0.000000 0.300000
0.080761 -0.806114 0.033940 0.300000 0.600000 0.000000
0.271845 0.222948 0.023960 0.300000 0.600000 0.000000
-0.076429 -0.806114 0.187859 0.300000 0.600000 0.000000
0.214789 -0.803898 0.157020 0.300000 0.600000 0.000000
-0.274068 -0.739663 0.011961 0.300000 0.600000 0.000000
0.149772 0.483758 -0.229514 0.300000 0.600000 0.000000
-0.235608 0.595200 -0.096032 0.600000 0.000000 0.300000
0.197838 0.203483 0.188248 0.300000 0.600000 0.000000
0.273204 -0.235373 -0.006711 0.300000 0.600000 0.000000
-0.032077 -0.584417 0.270734 0.300000 0.600000 0.000000
0.018655 0.734350 0.171324 0.600000 0.000000 0.300000
-0.230368 0.633325 -0.026898 0.600000 0.000000 0.300000
-0.005147 -0.806114 0.031628 0.300000 0.600000 0.000000
-0.142787 -0.806114 0.041719 0.300000 0.600000 0.000000
0.135338 0.589661 -0.218603 0.600000 0.000000 0.300000
0.049271 -0.806114 -0.207790 0.300000 0.600000 0.000000
0.236987 -0.012538 -0.137139 0.300000 0.600000 0.000000
-0.106923 -0.806114 0.039559 0.300000 0.600000 0.000000
-0.000163 -0.279571 0.272857 0.300000 0.600000 0.000000
-0.222395 -0.784954 0.159850 0.300000 0.600000 0.000000
0.216016 0.071681 -0.168634 0.300000 0.600000 0.000000
0.118010 0.282310 0.245252 0.300000 0.600000 0.000000
-0.150073 -0.707574 -0.231080 0.300000 0.600000 0.000000
-0.137951 -0.148190 -0.238099 0.300000 0.600000 0.000000
0.225598 0.171961 -0.155906 0.300000 0.600000 0.000000
-0.177403 -0.149464 0.208062 0.300000 0.600000 0.000000
-0.207519 0.103581 -0.181307 0.300000 0.600000 0.000000
0.155939 -0.040605 -0.225408 0.300000 0.600000 0.000000
-0.232049 -0.631934 -0.146657 0.300000 0.600000 0.000000
-0.079498 0.995766 -0.037038 0.300000 0.000000 0.600000
0.211921 -0.274751 -0.172524 0.300000 0.600000 0.000000
0.137242 0.346392 0.235793 0.300000 0.600000 0.000000
-0.042799 0.467888 0.269163 0.300000 0.600000 0.000000
0.088592 0.668166 0.191201 0.600000 0.000000 0.300000
0.048389 0.750803 -0.157686 0.600000 0.000000 0.300000
-0.268567 0.224064 -0.058127 0.300000 0.600000 0.000000
0.269910 -0.643052 0.042426 0.300000 0.600000 0.000000
0.183777 0.510701 -0.204571 0.300000 0.600000 0.000000
0.269177 0.241591 0.046766 0.300000 0.600000 0.000000
0.113762 0.108459 -0.250265 0.300000 0.600000 0.000000
0.053436 -0.806114 0.059034 0.300000 0.600000 0.000000
-0.088402 -0.806114 0.067790 0.300000 0.600000 0.000000
0.234572 0.233211 -0.141767 0.300000 0.600000 0.000000
0.024729 0.861722 0.098093 0.600000 0.000000 0.300000
-0.014722 -0.562606 -0.274616 0.300000 0.600000 0.000000
-0.131076 -0.203823 -0.241505 0.300000 0.600000 0.000000
0.236177 0.550523 -0.137102 0.300000 0.600000 0.000000
-0.148869 -0.205838 0.228378 0.300000 0.600000 0.000000
-0.244160 0.477746 -0.127029 0.300000 0.600000 0.000000
-0.062095 -0.608962 0.265465 0.300000 0.600000 0.000000
0.272915 -0.245742 0.007954 0.300000 0.600000 0.000000
0.168930 -0.053317 0.214066 0.300000 0.600000 0.000000
-0.269883 -0.177766 -0.050502 0.300000 0.600000 0.000000
0.011192 -0.578499 -0.274307 0.300000 0.600000 0.000000
0.028032 -0.806000 0.236709 0.300000 0.600000 0.000000
-0.235584 -0.691642 0.140151 0.300000 0.600000 0.000000
-0.270412 0.461497 0.043624 0.300000 0.600000 0.000000
0.162205 -0.007305 0.219841 0.300000 0.600000 0.000000
0.261067 0.242589 -0.083821 0.300000 0.600000 0.000000
-0.257745 -0.382086 -0.093719 0.300000 0.600000 0.000000
0.206870 -0.142397 -0.178605 0.300000 0.600000 0.000000
0.250524 0.220083 -0.110278 0.300000 0.600000 0.000000
-0.264553 0.129741 -0.073298 0.300000 0.600000 0.000000
-0.037480 0.867094 -0.091127 0.600000 0.000000 0.300000
0.040603 -0.806114 -0.088844 0.300000 0.600000 0.000000
-0.219854 0.012910 -0.164971 0.300000 0.600000 0.000000
0.094979 0.973145 -0.035175 0.300000 0.000000 0.600000
-0.018797 0.162098 -0.274505 0.300000 0.600000 0.000000
0.106417 0.846331 0.020003 0.600000 0.000000 0.300000
-0.180875 0.655812 -0.125440 0.600000 0.000000 0.300000
0.113892 -0.381238 0.247396 0.300000 0.600000 0.000000
0.269981 -0.362705 0.042010 0.300000 0.600000 0.000000
-0.237187 0.382394 0.137063 0.300000 0.600000 0.000000
0.265547 0.428183 -0.064968 0.300000 0.600000 0.000000
-0.194959 0.000234 -0.194198 0.300000 0.600000 0.000000
0.089219 0.911932 0.038870 0.300000 0.000000 0.600000
0.271124 -0.106640 0.028661 0.300000 0.600000 0.000000
0.175385 0.628535 -0.156412 0.600000 0.000000 0.300000
-0.101521 0.872890 0.011958 0.600000 0.000000 0.300000
-0.023148 0.995766 0.043223 0.300000 0.000000 0.600000
-0.185498 0.577058 -0.190153 0.600000 0.000000 0.300000
-0.255511 0.335532 0.100008 0.300000 0.600000 0.000000
0.192154 -0.757578 0.192502 0.300000 0.600000 0.000000
0.123639 0.323420 0.242521 0.300000 0.600000 0.000000
-0.061358 0.988932 0.054279 0.300000 0.000000 0.600000
0.246848 0.492642 -0.117709 0.300000 0.600000 0.000000
-0.256867 0.590275 -0.005626 0.600000 0.000000 0.300000
-0.185066 0.433929 0.202111 0.300000 0.600000 0.000000
-0.233569 0.616708 -0.063571 0.600000 0.000000 0.300000
0.134737 -0.326091 0.236951 0.300000 0.600000 0.000000
0.187905 -0.237617 -0.200368 0.300000 0.600000 0.000000
0.068020 0.878819 0.075059 0.600000 0.000000 0.300000
0.273137 -0.656954 -0.012664 0.300000 0.600000 0.000000
0.088379 0.605831 -0.231747 0.600000 0.000000 0.300000
0.003978 0.835238 -0.115960 0.600000 0.000000 0.300000
0.269006 -0.424748 0.047784 0.300000 0.600000 0.000000
0.186176 0.266188 0.198881 0.300000 0.600000 0.000000
0.123612 0.117840 0.242290 0.300000 0.600000 0.000000
-0.174484 -0.806114 -0.080909 0.300000 0.600000 0.000000
0.254586 -0.805742 -0.042052 0.300000 0.600000 0.000000
-0.064483 -0.680318 0.264833 0.300000 0.600000 0.000000
0.270110 -0.705829 -0.042471 0.300000 0.600000 0.000000
0.068468 0.447724 0.263396 0.300000 0.600000 0.000000
0.268311 0.011956 0.050812 0.300000 0.600000 0.000000
0.232656 0.240372 0.142132 0.300000 0.600000 0.000000
0.112031 -0.239887 0.248305 0.300000 0.600000 0.000000
-0.006559 -0.148174 -0.274839 0.300000 0.600000 0.000000
-0.271796 -0.065320 0.036337 0.300000 0.600000 0.000000
0.269507 -0.068014 0.042839 0.300000 0.600000 0.000000
-0.022794 -0.806114 0.216564 0.300000 0.600000 0.000000
-0.212768 -0.806114 0.100359 0.300000 0.600000 0.000000
-0.184899 -0.500823 0.202282 0.300000 0.600000 0.000000
0.112689 0.206676 0.247990 0.300000 0.600000 0.000000
0.230600 0.510210 0.145219 0.300000 0.600000 0.000000
-0.262452 -0.514819 0.080196 0.300000 0.600000 0.000000
-0.271544 -0.795204 -0.000599 0.300000 0.600000 0.000000
0.199668 -0.186951 0.186310 0.300000 0.600000 0.000000
0.262100 0.566740 0.056484 0.600000 0.000000 0.300000
-0.220623 -0.081053 -0.163822 0.300000 0.600000 0.000000
-0.163165 -0.538921 -0.221994 0.300000 0.600000 0.000000
0.273054 -0.312761 -0.010081 0.300000 0.600000 0.000000
-0.184927 -0.806114 0.152320 0.300000 0.600000 0.000000
0.238086 -0.714469 -0.135043 0.300000 0.600000 0.000000
-0.185669 -0.160354 -0.202367 0.300000 0.600000 0.000000
-0.268677 -0.682100 -0.057626 0.300000 0.600000 0.000000
0.008300 -0.009110 0.272630 0.300000 0.600000 0.000000
0.200082 0.180891 -0.186987 0.300000 0.600000 0.000000
0.192155 0.366015 -0.196046 0.300000 0.600000 0.000000
-0.084895 -0.324735 0.258992 0.300000 0.600000 0.000000
0.271500 -0.638959 -0.032664 0.300000 0.600000 0.000000
0.137072 0.069907 -0.237869 0.300000 0.600000 0.000000
0.200460 -0.366915 -0.186658 0.300000 0.600000 0.000000
-0.248283 0.343309 -0.118305 0.300000 0.600000 0.000000
-0.139233 -0.488089 0.234720 0.300000 0.600000 0.000000
-0.260669 -0.677857 0.086715 0.300000 0.600000 0.000000
0.261029 0.480817 -0.083958 0.300000 0.600000 0.000000
-0.274326 0.218881 0.002336 0.300000 0.600000 0.000000
-0.040603 0.988932 0.054496 0.300000 0.000000 0.600000
-0.230480 -0.471350 0.148542 0.300000 0.600000 0.000000
0.114542 0.242879 0.247074 0.300000 0.600000 0.000000
0.043763 -0.207729 -0.271335 0.300000 0.600000 0.000000
0.268647 -0.299648 0.049908 0.300000 0.600000 0.000000
-0.078648 0.749825 0.143623 0.600000 0.000000 0.300000
0.182555 0.017140 -0.205241 0.300000 0.600000 0.000000
0.272415 0.096370 0.016308 0.300000 0.600000 0.000000
0.096398 0.070626 -0.256906 0.300000 0.600000 0.000000
-0.262864 -0.058230 0.078690 0.300000 0.600000 0.000000
0.223725 -0.314811 0.154942 0.300000 0.600000 0.000000
0.083192 0.879751 0.043711 0.600000 0.000000 0.300000
-0.262933 0.256516 0.078437 0.300000 0.600000 0.000000
-0.227181 0.155828 0.153474 0.300000 0.600000 0.000000
0.259893 0.557513 -0.079063 0.300000 0.600000 0.000000
-0.209259 -0.754431 -0.179297 0.300000 0.600000 0.000000
-0.115639 -0.314804 0.247706 0.300000 0.600000 0.000000
0.254448 0.139904 0.098447 0.300000 0.600000 0.000000
-0.079971 -0.373126 -0.263524 0.300000 0.600000 0.000000
0.215669 -0.534215 0.167434 0.300000 0.600000 0.000000
0.267221 0.028824 -0.056909 0.300000 0.600000 0.000000
0.168807 -0.806114 0.044802 0.300000 0.600000 0.000000
0.033229 -0.334989 0.270672 0.300000 0.600000 0.000000
0.051784 0.499723 0.267005 0.300000 0.600000 0.000000
0.227356 0.487026 -0.153998 0.300000 0.600000 0.000000
-0.229614 0.436198 -0.150313 0.300000 0.600000 0.000000
0.017134 -0.507222 0.272393 0.300000 0.600000 0.000000
0.271195 0.072622 0.032074 0.300000 0.600000 0.000000
-0.211795 0.314023 0.172744 0.300000 0.600000 0.000000
0.147512 0.698312 -0.126180 0.600000 0.000000 0.300000
0.273027 -0.623068 -0.016652 0.300000 0.600000 0.000000
-0.234738 0.428568 0.141541 0.300000 0.600000 0.000000
0.099777 -0.806114 0.135538 0.300000 0.600000 0.000000
-0.099103 -0.619349 0.254071 0.300000 0.600000 0.000000
0.259394 -0.191032 0.082172 0.300000 0.600000 0.000000
0.242959 0.114421 0.124576 0.300000 0.600000 0.000000
0.038782 -0.806114 -0.176027 0.300000 0.600000 0.000000
-0.273458 -0.174316 -0.017160 0.300000 0.600000 0.000000
-0.267876 -0.712304 -0.060739 0.300000 0.600000 0.000000
0.027935 0.739764 -0.168817 0.600000 0.000000 0.300000
-0.109334 -0.461007 0.250284 0.300000 0.600000 0.000000
0.100286 -0.028936 -0.255591 0.300000 0.600000 0.000000
-0.062658 0.830070 -0.102136 0.600000 0.000000 0.300000
-0.273271 -0.721717 -0.020271 0.300000 0.600000 0.000000
0.272792 -0.504167 0.010013 0.300000 0.600000 0.000000
-0.083738 -0.740432 -0.262486 0.300000 0.600000 0.000000
-0.187869 -0.050355 0.199115 0.300000 0.600000 0.000000
-0.073930 -0.161263 0.262679 0.300000 0.600000 0.000000
0.271361 -0.134395 0.026205 0.300000 0.600000 0.000000
-0.088542 0.529902 -0.261163 0.300000 0.600000 0.000000
-0.075672 0.730853 -0.159953 0.600000 0.000000 0.300000
0.222760 0.181547 0.156993 0.300000 0.600000 0.000000
0.011374 -0.258959 -0.274297 0.300000 0.600000 0.000000
0.087299 0.102123 0.259113 0.300000 0.600000 0.000000
0.271637 0.037465 -0.031487 0.300000 0.600000 0.000000
-0.197040 -0.805977 0.173179 0.300000 0.600000 0.000000
-0.005633 -0.751939 0.272565 0.300000 0.600000 0.000000
0.057907 0.799448 0.121355 0.600000 0.000000 0.300000
-0.144925 0.711517 -0.119175 0.600000 0.000000 0.300000
0.234011 -0.458286 -0.142576 0.300000 0.600000 0.000000
0.255038 -0.733104 0.096703 0.300000 0.600000 0.000000
-0.008361 0.749022 -0.165585 0.600000 0.000000 0.300000
-0.162637 -0.806114 -0.133897 0.300000 0.600000 0.000000
0.221147 -0.138328 -0.161170 0.300000 0.600000 0.000000
0.131961 0.283500 0.238333 0.300000 0.600000 0.000000
0.271232 -0.299298 -0.032102 0.300000 0.600000 0.000000
0.215279 -0.718549 -0.169522 0.300000 0.600000 0.000000
0.043117 0.238890 0.269078 0.300000 0.600000 0.000000
-0.237542 -0.041410 -0.138219 0.300000 0.600000 0.000000
0.158272 0.646345 -0.159344 0.600000 0.000000 0.300000
0.072808 0.950071 -0.067000 0.300000 0.000000 0.600000
-0.177938 -0.652055 0.207812 0.300000 0.600000 0.000000
-0.030364 -0.802520 0.262865 0.300000 0.600000 0.000000
0.093287 -0.802118 -0.254005 0.300000 0.600000 0.000000
0.270430 -0.670705 0.039352 0.300000 0.600000 0.000000
-0.022977 0.617542 0.238496 0.600000 0.000000 0.300000
0.025611 0.622439 0.234933 0.600000 0.000000 0.300000
-0.178507 -0.554517 -0.208668 0.300000 0.600000 0.000000
-0.029962 0.593589 -0.253435 0.600000 0.000000 0.300000
-0.172623 0.566725 0.205020 0.300000 0.600000 0.000000
0.271138 -0.039188 0.030242 0.300000 0.600000 0.000000
-0.270000 -0.462244 0.045685 0.300000 0.600000 0.000000
0.205554 -0.581925 -0.180766 0.300000 0.600000 0.000000
-0.098967 -0.017016 0.254062 0.300000 0.600000 0.000000
0.010513 -0.116991 -0.274348 0.300000 0.600000 0.000000
-0.104651 0.809845 -0.079115 0.600000 0.000000 0.300000
-0.167890 -0.177742 -0.217962 0.300000 0.600000 0.000000
0.073919 0.782361 0.124155 0.600000 0.000000 0.300000
-0.000929 -0.615580 0.272521 0.300000 0.600000 0.000000
0.230482 -0.800837 0.132783 0.300000 0.600000 0.000000
-0.124678 -0.451442 0.243156 0.300000 0.600000 0.000000
0.157439 -0.320840 -0.224409 0.300000 0.600000 0.000000
-0.053704 0.708642 -0.181618 0.600000 0.000000 0.300000
-0.209113 0.580123 -0.160559 0.600000 0.000000 0.300000
-0.248994 0.127727 -0.116802 0.300000 0.600000 0.000000
-0.194972 0.121185 0.191869 0.300000 0.600000 0.000000
-0.189437 0.259420 0.197663 0.300000 0.600000 0.000000
-0.022670 0.995766 0.025141 0.300000 0.000000 0.600000
-0.163805 0.244017 -0.221525 0.300000 0.600000 0.000000
0.211865 0.241669 -0.173684 0.300000 0.600000 0.000000
0.127180 0.168507 -0.243922 0.300000 0.600000 0.000000
0.008026 -0.695856 -0.274497 0.300000 0.600000 0.000000
0.263831 0.087835 -0.073158 0.300000 0.600000 0.000000
0.210126 0.063337 0.175027 0.300000 0.600000 0.000000
0.272747 -0.396310 0.010761 0.300000 0.600000 0.000000
0.123527 -0.060557 -0.245661 0.300000 0.600000 0.000000
-0.101312 -0.549252 0.253380 0.300000 0.600000 0.000000
-0.272473 0.171027 -0.030327 0.300000 0.600000 0.000000
-0.001294 0.649915 -0.222998 0.600000 0.000000 0.300000
0.010271 -0.578509 0.272561 0.300000 0.600000 0.000000
-0.238832 -0.806088 0.070492 0.300000 0.600000 0.000000
0.202949 0.438847 0.182760 0.300000 0.600000 0.000000
-0.246987 -0.482666 0.117278 0.300000 0.600000 0.000000
0.197091 -0.610081 -0.190489 0.300000 0.600000 0.000000
-0.116385 -0.699814 -0.248773 0.300000 0.600000 0.000000
-0.198559 -0.188221 -0.190665 0.300000 0.600000 0.000000
0.100576 0.961893 -0.009630 0.300000 0.000000 0.600000
-0.098752 0.162115 0.254232 0.300000 0.600000 0.000000
0.269456 0.010650 -0.045740 0.300000 0.600000 0.000000
0.083273 -0.806114 0.017782 0.300000 0.600000 0.000000
0.264923 -0.261601 -0.067137 0.300000 0.600000 0.000000
-0.265207 0.152983 -0.070825 0.300000 0.600000 0.000000
0.270957 -0.159403 -0.034471 0.300000 0.600000 0.000000
0.268861 -0.133507 -0.047452 0.300000 0.600000 0.000000
-0.232807 0.549714 0.142907 0.300000 0.600000 0.000000
-0.021324 0.107730 -0.274300 0.300000 0.600000 0.000000
-0.236792 0.036994 -0.139442 0.300000 0.600000 0.000000
-0.213920 0.408101 0.170303 0.300000 0.600000 0.000000
0.173382 -0.286190 0.209750 0.300000 0.600000 0.000000
-0.042664 -0.090406 -0.271507 0.300000 0.600000 0.000000
-0.274121 -0.586106 0.009971 0.300000 0.600000 0.000000
-0.202135 -0.717760 -0.187149 0.300000 0.600000 0.000000
0.107085 0.628414 -0.208609 0.600000 0.000000 0.300000
-0.245265 0.442432 0.120757 0.300000 0.600000 0.000000
0.212992 -0.806114 -0.069953 0.300000 0.600000 0.000000
0.085125 -0.061558 -0.260727 0.300000 0.600000 0.000000
-0.075742 0.555832 -0.262420 0.300000 0.600000 0.000000
-0.239043 0.555485 -0.133030 0.600000 0.000000 0.300000
-0.054970 -0.650881 -0.269045 0.300000 0.600000 0.000000
-0.238712 0.062136 0.133988 0.300000 0.600000 0.000000
-0.273291 0.182038 0.023420 0.300000 0.600000 0.000000
0.181674 -0.224535 -0.206441 0.300000 0.600000 0.000000
-0.206294 -0.001920 -0.182723 0.300000 0.600000 0.000000
0.272300 -0.553584 0.018241 0.300000 0.600000 0.000000
-0.099966 -0.806114 0.091375 0.300000 0.600000 0.000000
-0.206029 -0.595298 -0.183029 0.300000 0.600000 0.000000
-0.272744 -0.334323 -0.026949 0.300000 0.600000 0.000000
0.030702 0.866501 -0.096779 0.600000 0.000000 0.300000
0.263306 -0.534857 0.072179 0.300000 0.600000 0.000000
0.179845 0.216271 0.204511 0.300000 0.600000 0.000000
0.269070 -0.770367 0.047398 0.300000 0.600000 0.000000
0.070409 -0.064063 -0.265479 0.300000 0.600000 0.000000
0.266025 -0.261756 0.061874 0.300000 0.600000 0.000000
0.221905 -0.211871 -0.160137 0.300000 0.600000 0.000000
0.260637 -0.139870 0.078953 0.300000 0.600000 0.000000
0.100439 -0.305498 0.254015 0.300000 0.600000 0.000000
-0.274149 0.158063 0.008950 0.300000 0.600000 0.000000
-0.037957 0.538165 0.269927 0.300000 0.600000 0.000000
0.243852 0.413030 0.123459 0.300000 0.600000 0.000000
0.021851 0.995766 -0.036118 0.300000 0.000000 0.600000
-0.265753 -0.112326 0.066452 0.300000 0.600000 0.000000
0.162119 -0.140674 -0.221293 0.300000 0.600000 0.000000
0.262080 -0.350749 -0.080143 0.300000 0.600000 0.000000
-0.209649 0.155160 -0.178847 0.300000 0.600000 0.000000
0.251843 -0.667567 -0.107611 0.300000 0.600000 0.000000
-0.212582 -0.371138 -0.175419 0.300000 0.600000 0.000000
0.001561 0.887868 -0.101272 0.300000 0.000000 0.600000
-0.094822 0.932057 -0.030950 0.300000 0.000000 0.600000
-0.152719 0.767948 0.020826 0.600000 0.000000 0.300000
0.173033 -0.113925 -0.213462 0.300000 0.600000 0.000000
-0.051003 -0.095155 0.268147 0.300000 0.600000 0.000000
-0.185187 0.563312 0.196546 0.300000 0.600000 0.000000
0.226633 0.085975 0.151175 0.300000 0.600000 0.000000
-0.127023 -0.229029 0.242324 0.300000 0.600000 0.000000
-0.150222 -0.761104 -0.230989 0.300000 0.600000 0.000000
0.273193 0.073733 -0.010617 0.300000 0.600000 0.000000
0.045090 0.988932 -0.053768 0.300000 0.000000 0.600000
-0.185434 -0.057556 -0.202575 0.300000 0.600000 0.000000
-0.201926 0.243012 -0.187355 0.300000 0.600000 0.000000
-0.053026 0.084412 0.267676 0.300000 0.600000 0.000000
0.271322 -0.746051 0.030493 0.300000 0.600000 0.000000
0.270477 -0.460853 0.039073 0.300000 0.600000 0.000000
-0.233814 -0.217050 -0.144006 0.300000 0.600000 0.000000
0.273341 0.052565 -0.005210 0.300000 0.600000 0.000000
-0.273917 0.542605 0.017559 0.300000 0.600000 0.000000
-0.222697 -0.806114 -0.005868 0.300000 0.600000 0.000000
0.254226 0.449856 -0.102793 0.300000 0.600000 0.000000
0.038284 -0.719396 -0.272260 0.300000 0.600000 0.000000
0.147452 0.200922 0.229942 0.300000 0.600000 0.000000
-0.210675 -0.436810 -0.177661 0.300000 0.600000 0.000000
0.004715 -0.479607 0.272497 0.300000 0.600000 0.000000
0.089401 0.299192 -0.259272 0.300000 0.600000 0.000000
0.199386 -0.466174 -0.187879 0.300000 0.600000 0.000000
0.168942 -0.200666 -0.216585 0.300000 0.600000 0.000000
0.115272 -0.110934 -0.249567 0.300000 0.600000 0.000000
0.267327 0.177144 -0.056381 0.300000 0.600000 0.000000
-0.112926 0.745382 -0.125003 0.600000 0.000000 0.300000
0.270145 -0.558649 0.041038 0.300000 0.600000 0.000000
-0.208869 -0.351938 0.176072 0.300000 0.600000 0.000000
0.251898 -0.688849 -0.107500 0.300000 0.600000 0.000000
0.136623 -0.150320 -0.238143 0.300000 0.600000 0.000000
0.264305 -0.191706 -0.070389 0.300000 0.600000 0.000000
0.038534 -0.444826 0.269994 0.300000 0.600000 0.000000
0.265871 -0.104774 -0.062614 0.300000 0.600000 0.000000
-0.249728 -0.501316 0.111737 0.300000 0.600000 0.000000
0.070383 -0.161985 0.263341 0.300000 0.600000 0.000000
0.147163 -0.796645 -0.228623 0.300000 0.600000 0.000000
0.026273 0.839199 -0.110478 0.600000 0.000000 0.300000
0.098547 -0.806114 -0.141726 0.300000 0.600000 0.000000
0.247826 -0.183584 -0.114979 0.300000 0.600000 0.000000
0.126818 -0.529732 -0.244103 0.300000 0.600000 0.000000
0.108059 0.336324 0.250095 0.300000 0.600000 0.000000
0.267695 0.457313 0.055547 0.300000 0.600000 0.000000
0.214086 -0.629318 -0.170960 0.300000 0.600000 0.000000
-0.273990 -0.015684 0.014862 0.300000 0.600000 0.000000
-0.269116 0.125710 -0.055031 0.300000 0.600000 0.000000
0.253152 -0.315848 -0.104964 0.300000 0.600000 0.000000
0.210215 -0.398014 0.174490 0.300000 0.600000 0.000000
0.207710 -0.445199 -0.178087 0.300000 0.600000 0.000000
0.261616 -0.673746 -0.081830 0.300000 0.600000 0.000000
-0.147595 0.326014 -0.232589 0.300000 0.600000 0.000000
0.271879 0.004200 -0.029402 0.300000 0.600000 0.000000
-0.196710 -0.697119 -0.192481 0.300000 0.600000 0.000000
0.119675 0.043367 0.244427 0.300000 0.600000 0.000000
-0.087002 -0.004864 0.258099 0.300000 0.600000 0.000000
-0.012916 -0.535803 -0.274665 0.300000 0.600000 0.000000
-0.136782 -0.714825 0.235722 0.300000 0.600000 0.000000
0.053443 -0.180897 -0.269699 0.300000 0.600000 0.000000
0.256966 -0.649931 0.091001 0.300000 0.600000 0.000000
0.271470 -0.114440 -0.031492 0.300000 0.600000 0.000000
-0.269415 -0.370602 0.048612 0.300000 0.600000 0.000000
0.273430 -0.213127 -0.001626 0.300000 0.600000 0.000000
-0.195555 0.627606 -0.132578 0.600000 0.000000 0.300000
0.090033 0.830890 0.074919 0.600000 0.000000 0.300000
0.247334 -0.478420 -0.116726 0.300000 0.600000 0.000000
0.007266 0.421716 -0.274543 0.300000 0.600000 0.000000
0.225729 0.472979 0.152534 0.300000 0.600000 0.000000
0.052866 -0.049177 -0.269797 0.300000 0.600000 0.000000
0.267035 0.485767 0.058057 0.300000 0.600000 0.000000
0.190476 -0.033030 -0.197279 0.300000 0.600000 0.000000
0.178926 0.672387 0.106444 0.600000 0.000000 0.300000
0.128978 -0.431853 0.239740 0.300000 0.600000 0.000000
-0.064462 -0.302300 0.265184 0.300000 0.600000 0.000000
0.272650 0.465055 0.012385 0.300000 0.600000 0.000000
0.039954 -0.607443 0.269710 0.300000 0.600000 0.000000
-0.273934 -0.298524 0.016969 0.300000 0.600000 0.000000
-0.058121 0.317136 0.266195 0.300000 0.600000 0.000000
-0.225526 -0.331361 0.155805 0.300000 0.600000 0.000000
0.231741 -0.280952 0.143262 0.300000 0.600000 0.000000
0.017868 0.815614 -0.126371 0.600000 0.000000 0.300000
0.142847 0.402648 0.232744 0.300000 0.600000 0.000000
-0.260654 -0.402197 0.086771 0.300000 0.600000 0.000000
0.028494 -0.243883 0.271220 0.300000 0.600000 0.000000
-0.050186 -0.806114 0.136871 0.300000 0.600000 0.000000
0.260981 0.366196 -0.084135 0.300000 0.600000 0.000000
-0.271839 -0.588505 -0.038245 0.300000 0.600000 0.000000
-0.110245 -0.803708 -0.240162 0.300000 0.600000 0.000000
0.130845 0.267712 -0.241679 0.300000 0.600000 0.000000
0.192628 -0.437090 0.192783 0.300000 0.600000 0.000000
0.115862 0.704187 -0.152222 0.600000 0.000000 0.300000
0.230379 0.317924 0.145550 0.300000 0.600000 0.000000
-0.095916 0.294515 -0.258316 0.300000 0.600000 0.000000
0.220502 -0.201016 0.159783 0.300000 0.600000 0.000000
0.268829 -0.409139 0.048832 0.300000 0.600000 0.000000
0.107375 0.014072 0.250618 0.300000 0.600000 0.000000
0.146261 -0.351934 0.230666 0.300000 0.600000 0.000000
0.211930 -0.305956 0.172080 0.300000 0.600000 0.000000
-0.142244 0.760145 0.070114 0.600000 0.000000 0.300000
0.124740 -0.257549 0.242024 0.300000 0.600000 0.000000
0.171985 -0.477818 0.211008 0.300000 0.600000 0.000000
0.262620 -0.765322 0.074439 0.300000 0.600000 0.000000
-0.136989 0.478481 0.236083 0.300000 0.600000 0.000000
-0.233992 -0.180623 -0.143739 0.300000 0.600000 0.000000
-0.184427 0.138054 -0.203459 0.300000 0.600000 0.000000
0.140028 0.313129 -0.236003 0.300000 0.600000 0.000000
0.033215 0.618615 -0.238463 0.600000 0.000000 0.300000
0.219952 0.528930 0.161209 0.300000 0.600000 0.000000
0.157603 0.428903 0.223052 0.300000 0.600000 0.000000
-0.104445 -0.145097 0.252258 0.300000 0.600000 0.000000
0.169744 -0.336936 0.213051 0.300000 0.600000 0.000000
-0.122003 0.667644 0.172676 0.600000 0.000000 0.300000
0.121385 0.814367 -0.037460 0.600000 0.000000 0.300000
-0.193195 0.277034 -0.195750 0.300000 0.600000 0.000000
-0.265203 0.516836 0.069077 0.300000 0.600000 0.000000
-0.213732 -0.269156 -0.173766 0.300000 0.600000 0.000000
0.131291 -0.592662 -0.241406 0.300000 0.600000 0.000000
0.240700 0.211033 -0.130056 0.300000 0.600000 0.000000
-0.126087 0.808960 -0.037202 0.600000 0.000000 0.300000
0.213822 -0.056288 -0.171278 0.300000 0.600000 0.000000
0.268777 0.337603 0.049136 0.300000 0.600000 0.000000
-0.239098 0.198264 0.133209 0.300000 0.600000 0.000000
0.246227 0.473567 0.118439 0.300000 0.600000 0.000000
0.271005 -0.612188 0.034452 0.300000 0.600000 0.000000
0.042347 0.924278 -0.089135 0.300000 0.000000 0.600000
0.200517 0.375827 -0.186593 0.300000 0.600000 0.000000
0.030745 0.243935 -0.272900 0.300000 0.600000 0.000000
-0.273995 0.057164 0.014690 0.300000 0.600000 0.000000
-0.215501 -0.134507 -0.171225 0.300000 0.600000 0.000000
-0.104030 -0.205771 -0.254881 0.300000 0.600000 0.000000
0.191127 0.669870 -0.087836 0.600000 0.000000 0.300000
-0.004004 -0.406420 0.272663 0.300000 0.600000 0.000000
0.045584 0.159698 -0.271027 0.300000 0.600000 0.000000
-0.185026 0.096934 0.201935 0.300000 0.600000 0.000000
0.234191 -0.524449 0.139828 0.300000 0.600000 0.000000
0.119802 0.562633 0.241350 0.600000 0.000000 0.300000
0.026595 -0.806114 -0.197034 0.300000 0.600000 0.000000
-0.059802 0.335985 0.265783 0.300000 0.600000 0.000000
0.100406 0.582614 -0.240718 0.600000 0.000000 0.300000
0.268226 0.105401 -0.051888 0.300000 0.600000 0.000000
0.000312 -0.806114 0.224859 0.300000 0.600000 0.000000
0.019792 -0.630747 -0.273776 0.300000 0.600000 0.000000
-0.047808 0.995766 -0.060486 0.300000 0.000000 0.600000
-0.233513 -0.234157 -0.144458 0.300000 0.600000 0.000000
-0.260802 0.577126 -0.044514 0.600000 0.000000 0.300000
-0.168916 0.632937 -0.160124 0.600000 0.000000 0.300000
-0.010897 -0.806114 0.120053 0.300000 0.600000 0.000000
-0.266023 0.271798 -0.067740 0.300000 0.600000 0.000000
0.156162 -0.781565 -0.224999 0.300000 0.600000 0.000000
0.172279 -0.114962 0.211156 0.300000 0.600000 0.000000
0.211181 0.561144 0.168583 0.300000 0.600000 0.000000
0.241721 -0.116933 0.127315 0.300000 0.600000 0.000000
-0.155579 0.412882 0.223672 0.300000 0.600000 0.000000
0.130339 0.076942 0.239113 0.300000 0.600000 0.000000
-0.131135 -0.019159 0.239965 0.300000 0.600000 0.000000
-0.071600 0.834931 0.089362 0.600000 0.000000 0.300000
0.228193 0.198189 0.148743 0.300000 0.600000 0.000000
0.264711 -0.394208 -0.068256 0.300000 0.600000 0.000000
-0.173646 -0.273266 0.211184 0.300000 0.600000 0.000000
0.228602 -0.749484 -0.151529 0.300000 0.600000 0.000000
0.159716 -0.806114 -0.086305 0.300000 0.600000 0.000000
-0.048830 -0.672566 0.268234 0.300000 0.600000 0.000000
-0.272398 -0.106512 0.031142 0.300000 0.600000 0.000000
-0.231984 -0.677735 0.146068 0.300000 0.600000 0.000000
0.094034 0.160190 0.256469 0.300000 0.600000 0.000000
-0.254305 -0.603537 -0.103822 0.300000 0.600000 0.000000
-0.273689 0.414954 0.019980 0.300000 0.600000 0.000000
-0.109823 -0.754054 -0.252017 0.300000 0.600000 0.000000
0.192127 0.044015 0.193557 0.300000 0.600000 0.000000
-0.174020 0.185493 0.211305 0.300000 0.600000 0.000000
-0.202672 -0.129397 0.183118 0.300000 0.600000 0.000000
0.272601 -0.179106 -0.020267 0.300000 0.600000 0.000000
-0.181044 0.699945 -0.069597 0.600000 0.000000 0.300000
0.076251 0.664122 -0.200341 0.600000 0.000000 0.300000
0.007759 0.447908 -0.274514 0.300000 0.600000 0.000000
-0.233347 -0.488075 0.143828 0.300000 0.600000 0.000000
0.143100 0.631127 -0.183686 0.600000 0.000000 0.300000
-0.124563 -0.332089 -0.244729 0.300000 0.600000 0.000000
0.262518 -0.592032 0.074740 0.300000 0.600000 0.000000
-0.111440 0.385019 0.249437 0.300000 0.600000 0.000000
-0.239163 -0.325591 -0.135573 0.300000 0.600000 0.000000
0.092251 -0.320967 0.257255 0.300000 0.600000 0.000000
-0.271789 0.547836 -0.030215 0.300000 0.600000 0.000000
0.136761 -0.041637 0.236069 0.300000 0.600000 0.000000
-0.068490 0.359239 0.263650 0.300000 0.600000 0.000000
-0.262160 -0.200318 0.081263 0.300000 0.600000 0.000000
-0.033776 -0.214029 -0.272856 0.300000 0.600000 0.000000
-0.021242 -0.806114 0.034812 0.300000 0.600000 0.000000
0.206480 -0.111368 -0.179594 0.300000 0.600000 0.000000
-0.263560 -0.174673 -0.076704 0.300000 0.600000 0.000000
0.094889 -0.076402 0.256211 0.300000 0.600000 0.000000
0.224731 -0.692818 -0.157127 0.300000 0.600000 0.000000
0.200728 -0.806114 0.036073 0.300000 0.600000 0.000000
0.266494 -0.073405 -0.058823 0.300000 0.600000 0.000000
-0.272342 0.449078 0.031619 0.300000 0.600000 0.000000
-0.132170 -0.700317 -0.240963 0.300000 0.600000 0.000000
0.191893 -0.396876 -0.196313 0.300000 0.600000 0.000000
0.263911 -0.559697 -0.072775 0.300000 0.600000 0.000000
0.034126 0.033046 -0.272630 0.300000 0.600000 0.000000
-0.037591 -0.118584 -0.272413 0.300000 0.600000 0.000000
0.215660 -0.548585 -0.168576 0.300000 0.600000 0.000000
0.146412 0.464464 0.230348 0.300000 0.600000 0.000000
0.081473 0.432956 0.260624 0.300000 0.600000 0.000000
0.188078 -0.791929 -0.199637 0.300000 0.600000 0.000000
-0.085282 0.706536 -0.170461 0.600000 0.000000 0.300000
0.263433 0.043737 0.071383 0.300000 0.600000 0.000000
0.254124 -0.158104 0.097317 0.300000 0.600000 0.000000
-0.209765 0.669677 0.021197 0.600000 0.000000 0.300000
-0.199279 0.485243 -0.189957 0.300000 0.600000 0.000000
0.271277 0.292886 -0.034594 0.300000 0.600000 0.000000
-0.129064 -0.618477 0.241008 0.300000 0.600000 0.000000
-0.047419 -0.806114 -0.217498 0.300000 0.600000 0.000000
-0.008628 -0.349053 0.272385 0.300000 0.600000 0.000000
0.273350 0.395890 -0.004887 0.300000 0.600000 0.000000
-0.203946 -0.653545 -0.185370 0.300000 0.600000 0.000000
-0.272707 0.204352 -0.027400 0.300000 0.600000 0.000000
0.265082 -0.114925 0.064791 0.300000 0.600000 0.000000
0.229060 -0.353597 0.147095 0.300000 0.600000 0.000000
0.011878 -0.804846 0.247930 0.300000 0.600000 0.000000
-0.182834 -0.485901 -0.204860 0.300000 0.600000 0.000000
0.261755 -0.176049 -0.081322 0.300000 0.600000 0.000000
-0.058477 -0.287845 -0.268338 0.300000 0.600000 0.000000
-0.258638 0.574182 0.062585 0.600000 0.000000 0.300000
0.187605 -0.742854 0.196707 0.300000 0.600000 0.000000
-0.080064 0.990212 -0.062555 0.300000 0.000000 0.600000
0.273288 0.146617 -0.007151 0.300000 0.600000 0.000000
-0.219648 -0.237885 0.163715 0.300000 0.600000 0.000000
-0.166685 -0.806114 0.066095 0.300000 0.600000 0.000000
-0.238436 -0.709890 0.134544 0.300000 0.600000 0.000000
-0.154209 0.204959 -0.228356 0.300000 0.600000 0.000000
0.255999 -0.349619 0.093852 0.300000 0.600000 0.000000
-0.255293 0.478461 0.100482 0.300000 0.600000 0.000000
0.100401 0.989171 -0.008622 0.300000 0.000000 0.600000
-0.212025 0.530600 -0.176101 0.300000 0.600000 0.000000
-0.026026 0.823657 -0.120260 0.600000 0.000000 0.300000
0.155493 0.521746 0.224388 0.300000 0.600000 0.000000
-0.020487 0.777038 -0.148419 0.600000 0.000000 0.300000
-0.070224 0.517914 0.263388 0.300000 0.600000 0.000000
0.241125 -0.461401 -0.129245 0.300000 0.600000 0.000000
0.161913 -0.619180 0.220048 0.300000 0.600000 0.000000
-0.190012 0.440562 -0.198549 0.300000 0.600000 0.000000
-0.273391 0.270670 0.022559 0.300000 0.600000 0.000000
-0.006440 0.375128 0.272416 0.300000 0.600000 0.000000
-0.087446 0.986665 0.052210 0.300000 0.000000 0.600000
-0.263368 -0.797305 -0.069872 0.300000 0.600000 0.000000
0.253311 -0.552879 -0.104642 0.300000 0.600000 0.000000
0.270540 0.104109 0.038697 0.300000 0.600000 0.000000
0.074012 -0.806114 -0.055914 0.300000 0.600000 0.000000
-0.264894 0.446005 0.070553 0.300000 0.600000 0.000000
-0.185509 -0.208065 0.201661 0.300000 0.600000 0.000000
0.267788 0.275514 -0.054078 0.300000 0.600000 0.000000
0.226812 -0.408293 -0.153621 0.300000 0.600000 0.000000
-0.146474 0.211152 0.230224 0.300000 0.600000 0.000000
-0.029534 0.705064 -0.189103 0.600000 0.000000 0.300000
0.100750 -0.119029 0.253892 0.300000 0.600000 0.000000
-0.136834 0.234394 0.236474 0.300000 0.600000 0.000000
0.204225 -0.114292 0.181492 0.300000 0.600000 0.000000
0.069934 -0.071378 0.263593 0.300000 0.600000 0.000000
-0.141144 -0.133523 -0.236515 0.300000 0.600000 0.000000
0.095504 -0.363614 0.255967 0.300000 0.600000 0.000000
0.273111 -0.033470 0.004690 0.300000 0.600000 0.000000
0.062657 -0.457998 -0.267526 0.300000 0.600000 0.000000
-0.069574 0.756595 -0.146071 0.600000 0.000000 0.300000
0.239574 0.609407 -0.051527 0.600000 0.000000 0.300000
0.041028 -0.065930 0.269495 0.300000 0.600000 0.000000
0.184636 -0.055545 0.200296 0.300000 0.600000 0.000000
0.209894 0.054283 -0.175933 0.300000 0.600000 0.000000
0.252628 0.251498 -0.106022 0.300000 0.600000 0.000000
-0.051512 0.988932 -0.007743 0.300000 0.000000 0.600000
0.191190 -0.628212 0.193644 0.300000 0.600000 0.000000
-0.093166 0.610754 -0.227419 0.600000 0.000000 0.300000
-0.134425 0.655627 -0.174100 0.600000 0.000000 0.300000
-0.243591 0.492743 -0.128232 0.300000 0.600000 0.000000
-0.107102 -0.213256 0.251186 0.300000 0.600000 0.000000
0.218705 -0.041354 0.163055 0.300000 0.600000 0.000000
0.273086 -0.522189 -0.014527 0.300000 0.600000 0.000000
-0.232599 -0.088961 0.145058 0.300000 0.600000 0.000000
-0.144217 -0.804524 0.221398 0.300000 0.600000 0.000000
-0.186169 -0.806114 0.006639 0.300000 0.600000 0.000000
-0.181272 -0.318196 0.205340 0.300000 0.600000 0.000000
-0.111737 0.751056 0.119055 0.600000 0.000000 0.300000
-0.182399 0.718010 0.017528 0.600000 0.000000 0.300000
-0.132197 0.699483 0.140586 0.600000 0.000000 0.300000
-0.051578 0.561824 -0.266531 0.300000 0.600000 0.000000
-0.269096 -0.486658 0.050210 0.300000 0.600000 0.000000
0.271689 -0.731450 0.025915 0.300000 0.600000 0.000000
0.269202 -0.797080 -0.020301 0.300000 0.600000 0.000000
-0.050288 -0.465643 0.268058 0.300000 0.600000 0.000000
-0.019584 -0.429926 -0.274483 0.300000 0.600000 0.000000
-0.110976 0.001820 -0.251448 0.300000 0.600000 0.000000
0.205551 -0.806114 0.000853 0.300000 0.600000 0.000000
-0.262923 0.062109 0.078474 0.300000 0.600000 0.000000
-0.067609 -0.031226 -0.266425 0.300000 0.600000 0.000000
0.210365 -0.806114 0.059939 0.300000 0.600000 0.000000
-0.021569 -0.708581 0.271576 0.300000 0.600000 0.000000
0.012317 0.278159 -0.274240 0.300000 0.600000 0.000000
0.095002 0.781876 0.110123 0.600000 0.000000 0.300000
-0.064677 0.146335 0.264856 0.300000 0.600000 0.000000
-0.082241 0.642986 -0.211503 0.600000 0.000000 0.300000
0.043966 0.747208 0.158527 0.600000 0.000000 0.300000
-0.087769 0.790081 0.110117 0.600000 0.000000 0.300000
-0.245651 -0.120439 0.119978 0.300000 0.600000 0.000000
0.268676 -0.313764 -0.047941 0.300000 0.600000 0.000000
-0.273508 -0.467564 0.021548 0.300000 0.600000 0.000000
-0.110229 -0.599258 0.249925 0.300000 0.600000 0.000000
0.139569 -0.623626 0.234309 0.300000 0.600000 0.000000
-0.235553 0.109971 -0.141395 0.300000 0.600000 0.000000
-0.229794 -0.796849 -0.146543 0.300000 0.600000 0.000000
0.055996 0.706485 -0.181748 0.600000 0.000000 0.300000
0.132224 -0.501620 -0.240835 0.300000 0.600000 0.000000
0.187823 0.659543 0.105918 0.600000 0.000000 0.300000
-0.012562 -0.043693 0.272148 0.300000 0.600000 0.000000
0.270854 0.179248 0.036341 0.300000 0.600000 0.000000
-0.067601 -0.119448 -0.266427 0.300000 0.600000 0.000000
-0.108224 0.464420 0.250734 0.300000 0.600000 0.000000
-0.026187 -0.612090 -0.273736 0.300000 0.600000 0.000000
-0.263625 -0.282792 0.075908 0.300000 0.600000 0.000000
-0.021760 0.995766 -0.087292 0.300000 0.000000 0.600000
0.251300 0.418078 -0.108708 0.300000 0.600000 0.000000
0.251247 0.040586 -0.108815 0.300000 0.600000 0.000000
-0.175161 -0.515446 0.210772 0.300000 0.600000 0.000000
-0.069714 0.275174 -0.265984 0.300000 0.600000 0.000000
0.255956 0.309760 0.093987 0.300000 0.600000 0.000000
0.029333 -0.794701 0.265798 0.300000 0.600000 0.000000
0.138089 0.785733 0.037441 0.600000 0.000000 0.300000
-0.220286 0.367294 0.162981 0.300000 0.600000 0.000000
0.008289 -0.806114 -0.098694 0.300000 0.600000 0.000000
-0.072782 -0.536276 0.262639 0.300000 0.600000 0.000000
-0.117480 -0.000219 0.246835 0.300000 0.600000 0.000000
0.262369 -0.494570 0.075175 0.300000 0.600000 0.000000
-0.257013 -0.209490 0.096211 0.300000 0.600000 0.000000
-0.192059 0.633798 0.128072 0.600000 0.000000 0.300000
0.094782 0.931146 0.022512 0.300000 0.000000 0.600000
-0.171421 0.731993 0.036124 0.600000 0.000000 0.300000
0.174576 -0.343189 -0.212584 0.300000 0.600000 0.000000
0.106752 0.435964 0.250741 0.300000 0.600000 0.000000
0.203035 -0.459719 0.182999 0.300000 0.600000 0.000000
-0.055065 -0.483798 -0.269026 0.300000 0.600000 0.000000
-0.263513 0.310452 0.076314 0.300000 0.600000 0.000000
-0.140649 -0.123854 0.233652 0.300000 0.600000 0.000000
0.200163 -0.394324 0.185849 0.300000 0.600000 0.000000
0.037061 -0.310545 0.270228 0.300000 0.600000 0.000000
0.128764 -0.806114 0.128317 0.300000 0.600000 0.000000
-0.142247 -0.054351 -0.235843 0.300000 0.600000 0.000000
-0.253747 -0.556831 0.103610 0.300000 0.600000 0.000000
-0.272405 -0.271223 0.031076 0.300000 0.600000 0.000000
-0.227496 0.640114 0.010242 0.600000 0.000000 0.300000
0.271857 0.124676 -0.029588 0.300000 0.600000 0.000000
-0.223406 -0.592096 0.158791 0.300000 0.600000 0.000000
-0.263518 0.509067 -0.076827 0.300000 0.600000 0.000000
-0.224870 -0.351145 0.156729 0.300000 0.600000 0.000000
-0.256716 0.218957 0.096961 0.300000 0.600000 0.000000
0.038882 0.451159 -0.272159 0.300000 0.600000 0.000000
-0.255005 -0.342078 -0.101826 0.300000 0.600000 0.000000
-0.040872 0.981013 -0.090945 0.300000 0.000000 0.600000
-0.027820 -0.806114 -0.170963 0.300000 0.600000 0.000000
-0.267458 -0.420888 -0.062318 0.300000 0.600000 0.000000
-0.153729 0.431747 0.224957 0.300000 0.600000 0.000000
-0.136695 0.385220 0.236391 0.300000 0.600000 0.000000
0.150180 0.100892 0.228265 0.300000 0.600000 0.000000
-0.208096 -0.150756 -0.180640 0.300000 0.600000 0.000000
-0.234350 0.361516 0.142180 0.300000 0.600000 0.000000
-0.224653 -0.041428 -0.157765 0.300000 0.600000 0.000000
-0.154543 -0.570373 -0.228118 0.300000 0.600000 0.000000
0.002729 -0.200056 -0.274814 0.300000 0.600000 0.000000
-0.064782 -0.214888 0.265099 0.300000 0.600000 0.000000
0.270736 -0.322586 0.037536 0.300000 0.600000 0.000000
0.171722 -0.540628 -0.214655 0.300000 0.600000 0.000000
-0.192049 -0.629607 -0.196757 0.300000 0.600000 0.000000
0.096094 0.877889 0.032951 0.600000 0.000000 0.300000
0.237285 -0.201693 0.134890 0.300000 0.600000 0.000000
0.247089 0.331858 -0.117222 0.300000 0.600000 0.000000
-0.011519 0.179430 -0.274704 0.300000 0.600000 0.000000
0.050365 0.988932 -0.036950 0.300000 0.000000 0.600000
0.010675 0.995766 0.077352 0.300000 0.000000 0.600000
0.035704 -0.234437 -0.272503 0.300000 0.600000 0.000000
-0.274276 -0.421976 -0.003564 0.300000 0.600000 0.000000
-0.104194 0.026901 0.252359 0.300000 0.600000 0.000000
0.054213 -0.693571 0.266519 0.300000 0.600000 0.000000
0.117653 -0.501581 -0.248440 0.300000 0.600000 0.000000
-0.096724 -0.806114 0.166265 0.300000 0.600000 0.000000
0.238586 -0.204318 -0.133647 0.300000 0.600000 0.000000
-0.222332 0.121152 -0.161254 0.300000 0.600000 0.000000
-0.207978 0.667596 -0.042558 0.600000 0.000000 0.300000
-0.052801 0.250493 0.267586 0.300000 0.600000 0.000000
0.107679 0.709086 0.152386 0.600000 0.000000 0.300000
0.183165 -0.789753 0.200000 0.300000 0.600000 0.000000
-0.004369 0.988932 -0.051378 0.300000 0.000000 0.600000
0.025522 0.887868 -0.098975 0.300000 0.000000 0.600000
0.240804 0.205933 0.128812 0.300000 0.600000 0.000000
-0.272113 0.032455 0.033603 0.300000 0.600000 0.000000
0.154067 -0.806114 0.148887 0.300000 0.600000 0.000000
-0.150601 -0.471712 -0.230759 0.300000 0.600000 0.000000
-0.107045 0.577727 -0.242211 0.600000 0.000000 0.300000
0.160978 -0.135623 0.220712 0.300000 0.600000 0.000000
-0.116800 0.676973 -0.171486 0.600000 0.000000 0.300000
0.216314 -0.014253 0.166385 0.300000 0.600000 0.000000
0.272139 -0.588039 -0.027157 0.300000 0.600000 0.000000
0.261346 -0.284406 0.077831 0.300000 0.600000 0.000000
-0.117139 -0.440596 -0.248400 0.300000 0.600000 0.000000
-0.154357 0.607800 -0.193847 0.600000 0.000000 0.300000
-0.036265 0.032208 0.270399 0.300000 0.600000 0.000000
-0.115459 -0.273180 -0.249231 0.300000 0.600000 0.000000
-0.050260 -0.584968 0.268063 0.300000 0.600000 0.000000
0.243868 0.575981 -0.101770 0.600000 0.000000 0.300000
0.050065 -0.411332 -0.270270 0.300000 0.600000 0.000000
0.271181 0.309245 -0.035421 0.300000 0.600000 0.000000
0.248878 -0.683992 0.112725 0.300000 0.600000 0.000000
-0.250497 0.385696 -0.113276 0.300000 0.600000 0.000000
-0.255945 -0.695110 -0.099045 0.300000 0.600000 0.000000
-0.177749 0.450801 0.208291 0.300000 0.600000 0.000000
0.250874 -0.213576 0.106617 0.300000 0.600000 0.000000
0.006619 0.995766 -0.012636 0.300000 0.000000 0.600000
-0.154470 0.392591 -0.228170 0.300000 0.600000 0.000000
0.022590 0.753358 -0.161574 0.600000 0.000000 0.300000
-0.272475 0.345343 -0.030302 0.300000 0.600000 0.000000
-0.211550 0.488679 -0.176650 0.300000 0.600000 0.000000
-0.274190 0.243661 0.007409 0.300000 0.600000 0.000000
0.233911 0.399041 0.140248 0.300000 0.600000 0.000000
-0.172591 -0.618755 0.211624 0.300000 0.600000 0.000000
-0.101210 -0.350225 -0.256219 0.300000 0.600000 0.000000
0.170423 -0.497969 0.212433 0.300000 0.600000 0.000000
-0.191169 -0.199097 -0.197532 0.300000 0.600000 0.000000
-0.088423 0.361546 0.257429 0.300000 0.600000 0.000000
0.246487 0.437967 -0.118438 0.300000 0.600000 0.000000
-0.064187 -0.059020 -0.267142 0.300000 0.600000 0.000000
-0.101733 0.336279 -0.256009 0.300000 0.600000 0.000000
-0.270676 0.170649 -0.045815 0.300000 0.600000 0.000000
-0.274207 0.447008 0.006780 0.300000 0.600000 0.000000
-0.211223 0.475541 0.173395 0.300000 0.600000 0.000000
0.261615 0.161710 -0.081835 0.300000 0.600000 0.000000
0.262343 0.224453 -0.079193 0.300000 0.600000 0.000000
0.029048 0.281500 -0.273036 0.300000 0.600000 0.000000
-0.206521 0.195445 0.178742 0.300000 0.600000 0.000000
0.075797 0.084932 0.262262 0.300000 0.600000 0.000000
-0.205478 -0.710428 0.179928 0.300000 0.600000 0.000000
-0.166451 -0.782602 0.216175 0.300000 0.600000 0.000000
-0.061402 0.734719 0.160799 0.600000 0.000000 0.300000
0.201297 -0.498070 -0.185706 0.300000 0.600000 0.000000
0.270960 -0.452879 -0.037319 0.300000 0.600000 0.000000
0.018801 0.137378 -0.273852 0.300000 0.600000 0.000000
-0.104495 0.796879 0.088296 0.600000 0.000000 0.300000
-0.215839 0.207387 -0.170739 0.300000 0.600000 0.000000
0.271381 -0.481369 0.029762 0.300000 0.600000 0.000000
-0.168253 -0.481596 -0.217646 0.300000 0.600000 0.000000
-0.116383 0.830658 -0.024482 0.600000 0.000000 0.300000
0.011440 0.169058 0.272545 0.300000 0.600000 0.000000
-0.229105 -0.680435 -0.151076 0.300000 0.600000 0.000000
-0.190604 0.251348 -0.198028 0.300000 0.600000 0.000000
-0.235743 0.357736 -0.141109 0.300000 0.600000 0.000000
0.267610 -0.250844 -0.053267 0.300000 0.600000 0.000000
0.011579 0.643860 0.223801 0.600000 0.000000 0.300000
-0.194164 0.662547 -0.093499 0.600000 0.000000 0.300000
-0.249662 0.598492 0.032749 0.600000 0.000000 0.300000
-0.265324 -0.171374 0.068501 0.300000 0.600000 0.000000
0.271453 -0.423207 0.028859 0.300000 0.600000 0.000000
-0.100227 0.975147 -0.021368 0.300000 0.000000 0.600000
0.225672 0.634004 -0.048133 0.600000 0.000000 0.300000
-0.246257 -0.080887 -0.122592 0.300000 0.600000 0.000000
-0.053282 -0.600608 -0.269383 0.300000 0.600000 0.000000
-0.193503 0.032896 0.193526 0.300000 0.600000 0.000000
0.264718 0.397704 0.066831 0.300000 0.600000 0.000000
-0.238694 -0.806096 -0.001741 0.300000 0.600000 0.000000
-0.066983 -0.628227 -0.266556 0.300000 0.600000 0.000000
0.244891 -0.240180 -0.120910 0.300000 0.600000 0.000000
0.203631 -0.431300 0.182530 0.300000 0.600000 0.000000
0.063727 0.109746 -0.267243 0.300000 0.600000 0.000000
0.145479 -0.010145 -0.232373 0.300000 0.600000 0.000000
-0.181311 0.589443 0.181215 0.600000 0.000000 0.300000
-0.242013 -0.276972 -0.130920 0.300000 0.600000 0.000000
0.059330 0.853758 0.085980 0.600000 0.000000 0.300000
-0.058159 0.033717 0.266843 0.300000 0.600000 0.000000
0.171305 -0.529541 0.211628 0.300000 0.600000 0.000000
0.249618 -0.489390 0.110890 0.300000 0.600000 0.000000
0.177333 -0.305007 0.206275 0.300000 0.600000 0.000000
0.271423 -0.768710 0.029231 0.300000 0.600000 0.000000
-0.190578 -0.405534 -0.198050 0.300000 0.600000 0.000000
-0.197308 -0.171939 0.189215 0.300000 0.600000 0.000000
-0.024750 0.350821 -0.273903 0.300000 0.600000 0.000000
-0.208309 0.298528 0.176709 0.300000 0.600000 0.000000
-0.227299 -0.451167 -0.153790 0.300000 0.600000 0.000000
0.243393 0.325640 0.124429 0.300000 0.600000 0.000000
-0.220275 -0.061174 -0.164345 0.300000 0.600000 0.000000
0.076310 -0.806114 -0.088091 0.300000 0.600000 0.000000
-0.128391 0.628620 0.195846 0.600000 0.000000 0.300000
0.197696 -0.550428 0.187697 0.300000 0.600000 0.000000
-0.127738 0.813482 -0.008291 0.600000 0.000000 0.300000
-0.241696 -0.208727 -0.131438 0.300000 0.600000 0.000000
-0.158891 -0.806114 -0.096516 0.300000 0.600000 0.000000
0.067251 0.734727 0.157727 0.600000 0.000000 0.300000
0.271642 -0.583111 0.026497 0.300000 0.600000 0.000000
0.229083 -0.502575 -0.150227 0.300000 0.600000 0.000000
0.067298 -0.325562 -0.266300 0.300000 0.600000 0.000000
-0.106812 -0.310805 -0.253507 0.300000 0.600000 0.000000
0.156815 0.736912 -0.069838 0.600000 0.000000 0.300000
0.266023 -0.144344 -0.061354 0.300000 0.600000 0.000000
0.064247 0.581933 -0.253693 0.600000 0.000000 0.300000
0.122380 0.771914 -0.089943 0.600000 0.000000 0.300000
-0.080032 0.382235 -0.263507 0.300000 0.600000 0.000000
0.081608 -0.786463 0.260411 0.300000 0.600000 0.000000
-0.267768 0.090882 -0.061147 0.300000 0.600000 0.000000
-0.102352 0.246227 0.253054 0.300000 0.600000 0.000000
0.225437 -0.228949 -0.155400 0.300000 0.600000 0.000000
-0.273886 0.356127 0.018280 0.300000 0.600000 0.000000
-0.086774 0.382162 0.257996 0.300000 0.600000 0.000000
-0.145433 -0.806114 0.175252 0.300000 0.600000 0.000000
-0.121201 -0.187320 0.245076 0.300000 0.600000 0.000000
-0.146502 -0.656374 0.229119 0.300000 0.600000 0.000000
-0.141508 -0.782118 0.232908 0.300000 0.600000 0.000000
