ply
format ascii 1.0
element vertex 637
property float x
property float y
property float z
property float nx
property float ny
property float nz
property uchar red
property uchar green
property uchar blue
property float opacity
end_header
-0.522715 -0.740503 0.085268 0.000000 -1.000000 -0.000000 52 52 52 1.000000
0.501132 -0.044185 0.402358 0.000000 -0.000000 1.000000 52 52 52 1.000000
0.524653 0.231596 -0.126853 1.000000 0.000000 0.000000 52 52 52 1.000000
0.583288 0.425740 0.311213 1.000000 0.000000 0.000000 52 52 52 1.000000
0.079200 0.557836 0.093116 0.000000 1.000000 0.000000 226 226 226 1.000000
0.414619 0.628532 -0.435280 0.000000 0.000000 -1.000000 226 226 226 1.000000
-0.558349 0.252905 0.402358 0.000000 0.000000 -1.000000 52 52 52 1.000000
0.483319 0.366068 0.451611 0.000000 -0.000000 1.000000 108 108 108 1.000000
-0.053738 -0.164657 0.451611 0.000000 -0.000000 1.000000 71 71 71 1.000000
-0.203147 0.031894 -0.435280 0.000000 0.000000 -1.000000 52 52 52 1.000000
-0.562936 -0.740503 0.374650 0.000000 -1.000000 -0.000000 52 52 52 1.000000
0.583288 0.100843 -0.074667 -1.000000 0.000000 0.000000 52 52 52 1.000000
0.146307 -0.200542 -0.435280 0.000000 -0.000000 1.000000 52 52 52 1.000000
-0.303476 -0.740503 0.133177 0.000000 1.000000 0.000000 255 255 255 1.000000
0.354217 -0.554904 -0.385022 0.000000 -0.000000 1.000000 52 52 52 1.000000
-0.555626 -0.651005 0.402358 0.000000 -0.000000 1.000000 52 52 52 1.000000
-0.067748 0.166464 0.451611 0.000000 -0.000000 1.000000 68 68 68 1.000000
0.189594 -0.248520 -0.435280 0.000000 0.000000 -1.000000 52 52 52 1.000000
0.434349 -0.690245 0.294847 0.000000 1.000000 0.000000 52 52 52 1.000000
0.422785 0.599718 -0.060112 0.000000 0.992649 0.121027 226 226 226 1.000000
-0.142993 -0.690245 -0.067026 0.000000 1.000000 0.000000 52 52 52 1.000000
0.291411 0.357640 0.045971 0.000000 1.000000 0.000000 52 52 52 1.000000
0.310886 0.212917 -0.385022 0.000000 -0.000000 1.000000 52 52 52 1.000000
0.239598 -0.475370 0.451611 0.000000 0.000000 -1.000000 52 52 52 1.000000
-0.589405 -0.179237 0.263613 -1.000000 0.000000 0.000000 52 52 52 1.000000
-0.530771 -0.517448 0.383370 1.000000 0.000000 0.000000 52 52 52 1.000000
0.138639 -0.025236 0.402358 0.000000 0.000000 -1.000000 87 87 87 1.000000
0.035860 -0.740503 -0.340110 0.000000 1.000000 0.000000 255 255 255 1.000000
-0.156673 0.496864 0.402358 0.000000 -0.000000 1.000000 52 52 52 1.000000
-0.569382 -0.006041 0.451611 0.000000 -0.000000 1.000000 117 117 117 1.000000
0.131980 0.557836 0.325058 0.000000 -1.000000 -0.000000 226 226 226 1.000000
-0.589405 0.260448 -0.310906 -1.000000 0.000000 0.000000 52 52 52 1.000000
0.377648 0.357509 -0.385022 0.000000 0.000000 -1.000000 52 52 52 1.000000
0.524653 -0.476514 -0.202145 1.000000 0.000000 0.000000 52 52 52 1.000000
-0.589405 -0.483790 0.058427 -1.000000 0.000000 0.000000 52 52 52 1.000000
-0.589405 -0.226823 0.118749 -1.000000 0.000000 0.000000 52 52 52 1.000000
0.487546 -0.029353 -0.435280 0.000000 -0.000000 1.000000 52 52 52 1.000000
-0.461787 0.357025 -0.435280 0.000000 0.000000 -1.000000 52 52 52 1.000000
0.524653 -0.677487 0.120464 -1.000000 0.000000 0.000000 52 52 52 1.000000
0.131571 -0.740503 -0.345568 0.000000 -1.000000 -0.000000 52 52 52 1.000000
0.168481 -0.690245 0.150702 0.000000 -1.000000 -0.000000 52 52 52 1.000000
0.024325 0.057990 0.451611 0.000000 0.000000 -1.000000 52 52 52 1.000000
-0.011043 0.557836 0.223505 0.000000 1.000000 0.000000 52 52 52 1.000000
-0.257089 -0.509581 -0.385022 0.000000 -0.000000 1.000000 52 52 52 1.000000
0.524653 -0.334447 -0.189353 -1.000000 0.000000 0.000000 52 52 52 1.000000
0.442278 0.357640 -0.051144 0.000000 1.000000 0.000000 52 52 52 1.000000
0.053173 0.397265 0.451611 0.000000 0.000000 -1.000000 52 52 52 1.000000
-0.060890 -0.104466 0.451611 0.000000 -0.000000 1.000000 71 71 71 1.000000
0.562710 -0.362328 -0.435280 0.000000 0.000000 -1.000000 52 52 52 1.000000
-0.488260 0.627213 -0.435280 0.000000 0.000000 -1.000000 226 226 226 1.000000
0.124828 0.348024 0.451611 0.000000 -0.000000 1.000000 74 74 74 1.000000
0.177181 0.668451 -0.385022 0.000000 0.000000 -1.000000 226 226 226 1.000000
0.054908 0.357640 0.202063 0.000000 -1.000000 -0.000000 52 52 52 1.000000
-0.191480 0.126660 -0.385022 0.000000 -0.000000 1.000000 52 52 52 1.000000
0.311112 -0.740503 -0.160544 0.000000 1.000000 0.000000 255 255 255 1.000000
0.438692 0.090749 0.451611 0.000000 0.000000 -1.000000 52 52 52 1.000000
-0.325387 -0.568487 0.451611 0.000000 -0.000000 1.000000 94 94 94 1.000000
0.583288 0.575541 -0.298072 1.000000 0.000000 0.000000 226 226 226 1.000000
-0.211976 -0.346175 -0.435280 0.000000 -0.000000 1.000000 52 52 52 1.000000
0.524653 -0.106219 -0.087753 -1.000000 0.000000 0.000000 52 52 52 1.000000
0.387211 0.157728 0.451611 0.000000 -0.000000 1.000000 98 98 98 1.000000
0.364947 0.044991 0.402358 0.000000 -0.000000 1.000000 52 52 52 1.000000
-0.530771 0.157992 -0.342560 -1.000000 0.000000 0.000000 52 52 52 1.000000
0.397734 -0.449002 0.402358 0.000000 0.000000 -1.000000 77 77 77 1.000000
0.362641 0.658211 -0.435280 0.000000 -0.000000 1.000000 226 226 226 1.000000
-0.343597 0.357640 0.297388 0.000000 1.000000 0.000000 52 52 52 1.000000
-0.589405 0.049663 0.122356 -1.000000 0.000000 0.000000 52 52 52 1.000000
0.583288 -0.217042 -0.218406 -1.000000 0.000000 0.000000 52 52 52 1.000000
0.050434 0.357640 0.085786 0.000000 1.000000 0.000000 52 52 52 1.000000
0.583288 0.481902 -0.047433 1.000000 0.000000 0.000000 52 52 52 1.000000
-0.331645 -0.740503 -0.402523 0.000000 -1.000000 -0.000000 52 52 52 1.000000
-0.589405 -0.273430 -0.167489 -1.000000 0.000000 0.000000 52 52 52 1.000000
0.040213 0.557836 0.402666 0.000000 0.999999 -0.001592 226 226 226 1.000000
-0.544306 0.548247 -0.435280 0.000000 0.000000 -1.000000 52 52 52 1.000000
-0.117561 -0.690245 -0.011315 0.000000 1.000000 0.000000 52 52 52 1.000000
0.341170 -0.430448 0.402358 0.000000 0.000000 -1.000000 76 76 76 1.000000
-0.530771 -0.383721 -0.062723 1.000000 0.000000 0.000000 52 52 52 1.000000
0.583288 -0.611801 -0.040666 1.000000 0.000000 0.000000 52 52 52 1.000000
-0.519838 0.557836 -0.065837 0.000000 -1.000000 -0.000000 226 226 226 1.000000
-0.379977 0.267689 0.468345 0.238694 0.022623 -0.970831 240 240 240 1.000000
-0.530771 0.138096 -0.218271 1.000000 0.000000 0.000000 52 52 52 1.000000
-0.187954 -0.648892 0.451611 0.000000 -0.000000 1.000000 81 81 81 1.000000
-0.458318 0.599718 -0.077438 0.000000 -0.993418 -0.114543 226 226 226 1.000000
0.252312 -0.189604 -0.435280 0.000000 -0.000000 1.000000 52 52 52 1.000000
-0.419754 0.190597 0.451611 0.000000 -0.000000 1.000000 104 104 104 1.000000
0.524653 0.312252 0.180701 1.000000 0.000000 0.000000 52 52 52 1.000000
-0.091640 0.383405 0.451611 0.000000 0.000000 -1.000000 52 52 52 1.000000
-0.310235 -0.226640 0.451611 0.000000 -0.000000 1.000000 94 94 94 1.000000
-0.589405 -0.216376 0.367552 1.000000 0.000000 0.000000 52 52 52 1.000000
0.271773 0.050462 0.402358 0.000000 -0.000000 1.000000 52 52 52 1.000000
0.139655 -0.534496 0.451611 0.000000 0.000000 -1.000000 52 52 52 1.000000
-0.530771 0.051133 -0.021417 1.000000 0.000000 0.000000 52 52 52 1.000000
0.583288 0.161927 -0.359411 1.000000 0.000000 0.000000 52 52 52 1.000000
0.022744 0.039591 0.402358 0.000000 -0.000000 1.000000 52 52 52 1.000000
0.088588 -0.690245 -0.151477 0.000000 -1.000000 -0.000000 52 52 52 1.000000
-0.377213 -0.291757 0.451611 0.000000 0.000000 -1.000000 52 52 52 1.000000
-0.450736 -0.506232 0.402358 0.000000 -0.000000 1.000000 52 52 52 1.000000
-0.291388 -0.543497 0.402358 0.000000 -0.000000 1.000000 52 52 52 1.000000
-0.581587 -0.216106 0.433660 1.000000 0.000000 0.000000 52 52 52 1.000000
0.583288 0.004150 -0.241787 -1.000000 0.000000 0.000000 52 52 52 1.000000
-0.451359 0.557836 -0.404739 0.000000 1.000000 0.000000 52 52 52 1.000000
0.475163 0.357640 0.375799 0.000000 -1.000000 -0.000000 52 52 52 1.000000
-0.074017 -0.740503 -0.217320 0.000000 1.000000 0.000000 255 255 255 1.000000
-0.589405 0.373024 0.056917 1.000000 0.000000 0.000000 52 52 52 1.000000
0.524653 -0.586610 -0.242785 -1.000000 0.000000 0.000000 52 52 52 1.000000
-0.553929 0.557836 0.266965 0.000000 1.000000 0.000000 52 52 52 1.000000
0.168848 -0.053633 -0.385022 0.000000 -0.000000 1.000000 52 52 52 1.000000
0.524653 0.181946 -0.164462 -1.000000 0.000000 0.000000 52 52 52 1.000000
-0.530771 -0.241348 0.085643 -1.000000 0.000000 0.000000 52 52 52 1.000000
0.369414 -0.690245 0.206354 0.000000 1.000000 0.000000 52 52 52 1.000000
-0.157727 0.557836 0.034731 0.000000 1.000000 0.000000 226 226 226 1.000000
-0.032144 0.557836 -0.044710 0.000000 -1.000000 -0.000000 226 226 226 1.000000
0.135208 0.212157 -0.435280 0.000000 -0.000000 1.000000 52 52 52 1.000000
-0.250257 -0.740503 0.009492 0.000000 -1.000000 -0.000000 52 52 52 1.000000
-0.077702 0.277143 -0.435280 0.000000 0.000000 -1.000000 52 52 52 1.000000
0.347621 0.411332 0.451611 0.000000 -0.000000 1.000000 94 94 94 1.000000
-0.589405 -0.064683 -0.192759 -1.000000 0.000000 0.000000 52 52 52 1.000000
-0.347730 -0.690245 -0.117282 0.000000 1.000000 0.000000 52 52 52 1.000000
-0.473201 -0.444769 -0.385022 0.000000 0.000000 -1.000000 52 52 52 1.000000
0.536479 -0.426832 -0.435280 0.000000 0.000000 -1.000000 52 52 52 1.000000
0.006883 0.143944 -0.435280 0.000000 -0.000000 1.000000 52 52 52 1.000000
0.524653 -0.419410 -0.154239 1.000000 0.000000 0.000000 52 52 52 1.000000
-0.520302 -0.701981 -0.435280 0.000000 -0.000000 1.000000 52 52 52 1.000000
0.040385 -0.017944 0.451611 0.000000 -0.000000 1.000000 70 70 70 1.000000
0.583288 0.048862 0.156132 -1.000000 0.000000 0.000000 52 52 52 1.000000
-0.530771 0.215126 0.287248 -1.000000 0.000000 0.000000 52 52 52 1.000000
-0.530771 0.162144 0.371733 1.000000 0.000000 0.000000 52 52 52 1.000000
0.524653 -0.200519 -0.216396 -1.000000 0.000000 0.000000 52 52 52 1.000000
0.462542 -0.377582 0.402358 0.000000 -0.000000 1.000000 52 52 52 1.000000
-0.589405 0.296446 0.243577 -1.000000 0.000000 0.000000 52 52 52 1.000000
-0.532755 -0.363300 0.451611 0.000000 0.000000 -1.000000 52 52 52 1.000000
-0.345485 -0.704986 0.402358 0.000000 0.000000 -1.000000 52 52 52 1.000000
-0.183954 0.357640 0.004749 0.000000 1.000000 0.000000 52 52 52 1.000000
0.182848 0.557836 0.461170 0.000000 -0.952735 0.303802 226 226 226 1.000000
0.074510 -0.740503 -0.203128 0.000000 -1.000000 -0.000000 52 52 52 1.000000
-0.499017 0.357640 0.019953 0.000000 -1.000000 -0.000000 52 52 52 1.000000
0.223863 0.357640 0.134811 0.000000 1.000000 0.000000 52 52 52 1.000000
-0.589405 -0.276486 0.078385 1.000000 0.000000 0.000000 52 52 52 1.000000
-0.366710 -0.032940 -0.435280 0.000000 0.000000 -1.000000 52 52 52 1.000000
0.339251 0.557836 -0.074135 0.000000 -1.000000 -0.000000 52 52 52 1.000000
-0.534113 0.599718 -0.002819 0.000000 -0.989802 -0.142450 226 226 226 1.000000
0.012681 -0.740503 0.081218 0.000000 1.000000 0.000000 255 255 255 1.000000
-0.334890 -0.429191 -0.385022 0.000000 0.000000 -1.000000 52 52 52 1.000000
-0.589405 -0.474204 -0.225199 -1.000000 0.000000 0.000000 52 52 52 1.000000
-0.530771 0.241193 -0.048418 1.000000 0.000000 0.000000 52 52 52 1.000000
0.027603 0.599718 0.158827 0.000000 -0.979279 -0.202515 226 226 226 1.000000
0.175380 -0.059697 0.402358 0.000000 0.000000 -1.000000 83 83 83 1.000000
0.129745 -0.652018 -0.385022 0.000000 0.000000 -1.000000 52 52 52 1.000000
0.403419 0.591394 0.473862 0.000000 0.573737 0.819040 226 226 226 1.000000
0.524653 -0.609909 0.349899 -1.000000 0.000000 0.000000 52 52 52 1.000000
-0.518017 -0.163055 0.402358 0.000000 0.000000 -1.000000 151 151 151 1.000000
-0.478999 0.357640 0.159936 0.000000 -1.000000 -0.000000 52 52 52 1.000000
0.583288 -0.638207 0.311016 -1.000000 0.000000 0.000000 52 52 52 1.000000
0.016591 -0.435691 0.451611 0.000000 0.000000 -1.000000 52 52 52 1.000000
-0.023790 -0.148405 -0.435280 0.000000 -0.000000 1.000000 52 52 52 1.000000
-0.167217 -0.574002 -0.435280 0.000000 0.000000 -1.000000 52 52 52 1.000000
0.318865 0.349380 0.402358 0.000000 -0.000000 1.000000 52 52 52 1.000000
0.416773 -0.690245 -0.341769 0.000000 1.000000 0.000000 52 52 52 1.000000
-0.077974 0.599718 0.290026 0.000000 -0.968115 -0.250505 226 226 226 1.000000
-0.530771 0.239094 -0.369075 -1.000000 0.000000 0.000000 52 52 52 1.000000
0.583288 -0.665549 0.266135 1.000000 0.000000 0.000000 52 52 52 1.000000
-0.589405 -0.248934 0.021248 -1.000000 0.000000 0.000000 52 52 52 1.000000
-0.589405 -0.404858 -0.130513 -1.000000 0.000000 0.000000 52 52 52 1.000000
0.265922 -0.086277 0.451611 0.000000 -0.000000 1.000000 86 86 86 1.000000
-0.002259 -0.690245 -0.146879 0.000000 -1.000000 -0.000000 52 52 52 1.000000
-0.285168 -0.727177 -0.435280 0.000000 0.000000 -1.000000 52 52 52 1.000000
0.121942 -0.687728 0.451611 0.000000 -0.000000 1.000000 75 75 75 1.000000
0.524653 0.345191 0.144077 -1.000000 0.000000 0.000000 52 52 52 1.000000
0.583288 -0.157972 -0.287418 1.000000 0.000000 0.000000 52 52 52 1.000000
0.081724 -0.612771 -0.385022 0.000000 0.000000 -1.000000 52 52 52 1.000000
-0.107069 0.683481 -0.434324 0.000000 1.000000 0.000000 226 226 226 1.000000
0.583288 -0.599809 0.093841 -1.000000 0.000000 0.000000 52 52 52 1.000000
-0.355762 0.599718 0.053806 0.000000 0.986531 0.163573 226 226 226 1.000000
-0.589405 0.460406 0.401845 -1.000000 0.000000 0.000000 52 52 52 1.000000
0.436985 0.468366 0.402358 0.000000 0.000000 -1.000000 80 80 80 1.000000
-0.491825 -0.176058 -0.385022 0.000000 0.000000 -1.000000 52 52 52 1.000000
0.145322 0.357640 0.194188 0.000000 -1.000000 -0.000000 52 52 52 1.000000
0.583288 0.113894 -0.125814 -1.000000 0.000000 0.000000 52 52 52 1.000000
-0.530771 0.000911 0.178884 1.000000 0.000000 0.000000 52 52 52 1.000000
-0.493673 -0.446430 -0.435280 0.000000 0.000000 -1.000000 52 52 52 1.000000
0.338172 -0.740503 -0.074618 0.000000 1.000000 0.000000 255 255 255 1.000000
0.524653 -0.500604 -0.342840 1.000000 0.000000 0.000000 52 52 52 1.000000
0.277169 0.224081 -0.435280 0.000000 0.000000 -1.000000 52 52 52 1.000000
-0.313767 -0.740503 0.040507 0.000000 1.000000 0.000000 255 255 255 1.000000
0.176350 0.249191 0.504836 0.099597 0.456234 0.884269 255 255 255 1.000000
0.524653 -0.220038 -0.104119 1.000000 0.000000 0.000000 52 52 52 1.000000
0.456408 -0.740503 0.229535 0.000000 -1.000000 -0.000000 52 52 52 1.000000
0.223468 -0.597234 -0.435280 0.000000 -0.000000 1.000000 52 52 52 1.000000
-0.098761 0.357640 0.368677 0.000000 -1.000000 -0.000000 52 52 52 1.000000
-0.530771 0.086952 -0.360247 -1.000000 0.000000 0.000000 52 52 52 1.000000
-0.275639 -0.690245 0.042472 0.000000 1.000000 0.000000 52 52 52 1.000000
0.583288 -0.359041 0.134345 1.000000 0.000000 0.000000 52 52 52 1.000000
-0.589405 -0.526855 0.161867 -1.000000 0.000000 0.000000 52 52 52 1.000000
-0.328025 0.599718 -0.284313 0.000000 -0.999305 -0.037263 226 226 226 1.000000
-0.239852 0.050253 0.402358 0.000000 0.000000 -1.000000 124 124 124 1.000000
-0.398065 -0.740503 -0.304783 0.000000 -1.000000 -0.000000 52 52 52 1.000000
-0.230631 -0.690245 -0.118353 0.000000 -1.000000 -0.000000 52 52 52 1.000000
-0.212777 0.361938 0.450912 0.039770 0.999209 0.000000 152 152 152 1.000000
0.360717 0.498674 -0.435280 0.000000 0.000000 -1.000000 52 52 52 1.000000
-0.589405 -0.562402 0.205203 -1.000000 0.000000 0.000000 52 52 52 1.000000
0.270050 0.599718 -0.374888 0.000000 -0.999993 -0.003732 226 226 226 1.000000
0.487791 -0.116357 0.402358 0.000000 -0.000000 1.000000 52 52 52 1.000000
-0.589405 0.472145 0.027748 1.000000 0.000000 0.000000 52 52 52 1.000000
0.583288 -0.695573 -0.176533 -1.000000 0.000000 0.000000 52 52 52 1.000000
0.456733 0.557836 0.150778 0.000000 -1.000000 -0.000000 226 226 226 1.000000
0.583288 -0.491322 -0.344850 1.000000 0.000000 0.000000 52 52 52 1.000000
-0.453927 -0.198978 -0.385022 0.000000 -0.000000 1.000000 52 52 52 1.000000
0.052819 -0.080438 0.402358 0.000000 0.000000 -1.000000 93 93 93 1.000000
-0.589405 -0.488578 0.226079 1.000000 0.000000 0.000000 52 52 52 1.000000
-0.059548 0.357640 0.190868 0.000000 1.000000 0.000000 52 52 52 1.000000
0.583288 -0.523937 -0.224604 1.000000 0.000000 0.000000 52 52 52 1.000000
-0.097951 -0.155897 0.451611 0.000000 -0.000000 1.000000 68 68 68 1.000000
-0.530771 -0.291398 -0.240144 -1.000000 0.000000 0.000000 52 52 52 1.000000
0.524653 0.356687 0.072893 -1.000000 0.000000 0.000000 52 52 52 1.000000
-0.327324 -0.740503 0.230126 0.000000 1.000000 0.000000 255 255 255 1.000000
-0.568187 0.599718 0.386095 0.000000 -0.958527 -0.285000 226 226 226 1.000000
0.575470 -0.503546 0.440021 -1.000000 0.000000 0.000000 52 52 52 1.000000
-0.306565 0.306539 -0.385022 0.000000 -0.000000 1.000000 52 52 52 1.000000
-0.589405 -0.733425 -0.287796 1.000000 0.000000 0.000000 52 52 52 1.000000
0.207124 0.355199 0.451611 0.000000 -0.000000 1.000000 81 81 81 1.000000
0.492331 -0.740503 0.326417 0.000000 -1.000000 -0.000000 52 52 52 1.000000
0.147843 0.599718 -0.146044 0.000000 0.996044 0.088864 226 226 226 1.000000
0.524653 -0.659200 -0.198517 -1.000000 0.000000 0.000000 52 52 52 1.000000
0.524653 0.034559 0.027794 1.000000 0.000000 0.000000 52 52 52 1.000000
-0.580669 0.599718 0.448299 0.000000 0.951716 0.306981 226 226 226 1.000000
0.583288 -0.565642 -0.303704 1.000000 0.000000 0.000000 52 52 52 1.000000
0.378379 0.511669 0.402358 0.000000 0.000000 -1.000000 52 52 52 1.000000
-0.589405 0.400825 -0.247533 1.000000 0.000000 0.000000 52 52 52 1.000000
0.145174 0.492979 -0.435280 0.000000 0.000000 -1.000000 52 52 52 1.000000
-0.105352 -0.666260 -0.385022 0.000000 0.000000 -1.000000 52 52 52 1.000000
0.408143 -0.740503 0.114216 0.000000 1.000000 0.000000 255 255 255 1.000000
-0.323746 0.163966 -0.435280 0.000000 0.000000 -1.000000 52 52 52 1.000000
-0.191695 -0.690245 -0.275769 0.000000 1.000000 0.000000 52 52 52 1.000000
-0.118037 0.563134 0.470048 0.000000 -0.741665 0.670770 226 226 226 1.000000
0.364589 0.353994 0.451611 0.000000 0.000000 -1.000000 52 52 52 1.000000
0.583288 -0.180288 0.155439 -1.000000 0.000000 0.000000 52 52 52 1.000000
0.466645 -0.226158 -0.385022 0.000000 -0.000000 1.000000 52 52 52 1.000000
-0.581587 0.346827 0.433073 -1.000000 0.000000 0.000000 159 159 159 1.000000
0.583288 0.010339 -0.110058 -1.000000 0.000000 0.000000 52 52 52 1.000000
0.054202 0.599718 0.311677 0.000000 -0.966056 -0.258332 226 226 226 1.000000
-0.197078 -0.402665 0.402358 0.000000 -0.000000 1.000000 52 52 52 1.000000
0.500169 -0.740503 0.278254 0.000000 1.000000 0.000000 255 255 255 1.000000
0.408307 -0.367555 0.402358 0.000000 -0.000000 1.000000 52 52 52 1.000000
-0.134339 0.599718 0.314115 0.000000 -0.965820 -0.259212 226 226 226 1.000000
-0.552908 0.088877 -0.435280 0.000000 0.000000 -1.000000 52 52 52 1.000000
0.250787 -0.592698 0.451611 0.000000 0.000000 -1.000000 52 52 52 1.000000
0.187693 -0.690245 0.267934 0.000000 -1.000000 -0.000000 52 52 52 1.000000
-0.481890 -0.701401 0.451611 0.000000 -0.000000 1.000000 108 108 108 1.000000
0.524653 0.237117 -0.307044 -1.000000 0.000000 0.000000 52 52 52 1.000000
-0.589405 -0.634564 0.197895 -1.000000 0.000000 0.000000 52 52 52 1.000000
-0.452493 0.599718 -0.206094 0.000000 -0.997792 -0.066413 226 226 226 1.000000
0.431062 -0.690245 0.054051 0.000000 1.000000 0.000000 52 52 52 1.000000
0.481164 0.599718 0.117277 0.000000 0.982331 0.187153 226 226 226 1.000000
0.405461 0.241138 -0.385022 0.000000 0.000000 -1.000000 52 52 52 1.000000
-0.589405 -0.692979 -0.395962 1.000000 0.000000 0.000000 52 52 52 1.000000
-0.589405 -0.050177 0.193494 1.000000 0.000000 0.000000 52 52 52 1.000000
0.583288 -0.711431 0.233102 1.000000 0.000000 0.000000 52 52 52 1.000000
-0.297254 0.357640 0.297243 0.000000 -1.000000 -0.000000 52 52 52 1.000000
0.202302 0.357640 -0.311416 0.000000 1.000000 0.000000 52 52 52 1.000000
-0.112713 -0.740503 0.145858 0.000000 -1.000000 -0.000000 52 52 52 1.000000
0.048097 0.639653 -0.435280 0.000000 0.000000 -1.000000 226 226 226 1.000000
-0.129137 0.357640 0.155306 0.000000 1.000000 0.000000 52 52 52 1.000000
-0.589405 -0.212848 -0.202381 1.000000 0.000000 0.000000 52 52 52 1.000000
-0.037758 0.021484 -0.435280 0.000000 0.000000 -1.000000 52 52 52 1.000000
0.583288 -0.483635 0.374339 1.000000 0.000000 0.000000 52 52 52 1.000000
0.524653 -0.634471 0.286464 1.000000 0.000000 0.000000 52 52 52 1.000000
-0.099919 0.357640 0.213742 0.000000 1.000000 0.000000 52 52 52 1.000000
0.255858 0.599718 -0.246759 0.000000 0.998686 0.051241 226 226 226 1.000000
0.524653 -0.534499 -0.107342 1.000000 0.000000 0.000000 52 52 52 1.000000
0.204655 0.599718 0.208995 0.000000 0.975281 0.220968 226 226 226 1.000000
-0.081243 -0.526698 -0.385022 0.000000 -0.000000 1.000000 52 52 52 1.000000
-0.412986 0.262546 -0.435280 0.000000 -0.000000 1.000000 52 52 52 1.000000
0.471527 0.357640 -0.361753 0.000000 1.000000 0.000000 52 52 52 1.000000
-0.530771 -0.097711 -0.099684 -1.000000 0.000000 0.000000 52 52 52 1.000000
0.583288 0.298634 0.019016 1.000000 0.000000 0.000000 52 52 52 1.000000
-0.530771 0.148266 0.320254 1.000000 0.000000 0.000000 52 52 52 1.000000
0.237373 0.599718 -0.302321 0.000000 0.999533 0.030574 226 226 226 1.000000
0.403806 0.599718 0.291279 0.000000 0.967998 0.250958 226 226 226 1.000000
0.436829 -0.690245 -0.110273 0.000000 -1.000000 -0.000000 52 52 52 1.000000
0.394600 0.557836 -0.145487 0.000000 -1.000000 -0.000000 52 52 52 1.000000
-0.064494 -0.460509 -0.435280 0.000000 0.000000 -1.000000 52 52 52 1.000000
-0.042687 0.357640 0.250417 0.000000 -1.000000 -0.000000 52 52 52 1.000000
0.490696 0.264643 0.455466 -0.285505 0.261687 -0.921958 255 255 255 1.000000
-0.240874 0.206486 -0.435280 0.000000 0.000000 -1.000000 52 52 52 1.000000
0.148032 -0.526320 0.402358 0.000000 0.000000 -1.000000 87 87 87 1.000000
0.583288 0.584793 0.081036 1.000000 0.000000 0.000000 226 226 226 1.000000
0.583288 -0.706668 0.006035 1.000000 0.000000 0.000000 52 52 52 1.000000
-0.285256 0.329272 0.451611 0.000000 -0.000000 1.000000 90 90 90 1.000000
0.301622 0.646869 -0.385022 0.000000 -0.000000 1.000000 226 226 226 1.000000
0.221060 0.294182 -0.385022 0.000000 -0.000000 1.000000 52 52 52 1.000000
0.524653 0.092729 -0.148120 1.000000 0.000000 0.000000 52 52 52 1.000000
-0.403528 -0.690245 0.090610 0.000000 1.000000 0.000000 52 52 52 1.000000
-0.000555 0.357640 -0.280222 0.000000 1.000000 0.000000 52 52 52 1.000000
-0.511747 0.058991 -0.385022 0.000000 -0.000000 1.000000 52 52 52 1.000000
0.323369 -0.515801 -0.385022 0.000000 0.000000 -1.000000 52 52 52 1.000000
-0.589405 0.483517 -0.104432 -1.000000 0.000000 0.000000 52 52 52 1.000000
0.196033 0.557836 0.055775 0.000000 1.000000 0.000000 52 52 52 1.000000
0.019262 0.384817 0.402358 0.000000 -0.000000 1.000000 52 52 52 1.000000
0.048353 0.357640 -0.115581 0.000000 1.000000 0.000000 52 52 52 1.000000
-0.357218 -0.673453 0.451611 0.000000 0.000000 -1.000000 52 52 52 1.000000
-0.020159 -0.636496 -0.435280 0.000000 -0.000000 1.000000 52 52 52 1.000000
0.445407 -0.141864 -0.385022 0.000000 0.000000 -1.000000 52 52 52 1.000000
-0.187404 -0.655471 -0.435280 0.000000 0.000000 -1.000000 52 52 52 1.000000
-0.097383 0.085220 -0.435280 0.000000 0.000000 -1.000000 52 52 52 1.000000
-0.144181 -0.038728 -0.385022 0.000000 0.000000 -1.000000 52 52 52 1.000000
-0.139036 -0.287514 0.402358 0.000000 0.000000 -1.000000 115 115 115 1.000000
0.490424 -0.416006 -0.385022 0.000000 -0.000000 1.000000 52 52 52 1.000000
-0.073935 0.357640 0.269064 0.000000 1.000000 0.000000 52 52 52 1.000000
-0.348552 0.258502 -0.435280 0.000000 0.000000 -1.000000 52 52 52 1.000000
0.449778 0.557836 0.111565 0.000000 1.000000 0.000000 226 226 226 1.000000
0.067125 0.192591 0.451611 0.000000 -0.000000 1.000000 69 69 69 1.000000
0.263961 0.557836 -0.297276 0.000000 1.000000 0.000000 52 52 52 1.000000
-0.565436 0.683481 -0.411340 0.000000 1.000000 0.000000 226 226 226 1.000000
-0.326062 0.557836 -0.240994 0.000000 1.000000 0.000000 226 226 226 1.000000
-0.023681 0.357640 0.143155 0.000000 -1.000000 -0.000000 52 52 52 1.000000
-0.105866 -0.054682 0.451611 0.000000 0.000000 -1.000000 52 52 52 1.000000
-0.530771 -0.320534 -0.315785 1.000000 0.000000 0.000000 52 52 52 1.000000
-0.581587 0.156082 0.450969 1.000000 0.000000 0.000000 52 52 52 1.000000
-0.530771 -0.443794 0.037919 -1.000000 0.000000 0.000000 52 52 52 1.000000
-0.162852 0.557836 0.239617 0.000000 1.000000 0.000000 52 52 52 1.000000
-0.181250 0.512134 0.451611 0.000000 0.000000 -1.000000 52 52 52 1.000000
-0.382646 0.113887 -0.385022 0.000000 0.000000 -1.000000 52 52 52 1.000000
-0.175242 0.141581 0.451611 0.000000 -0.000000 1.000000 79 79 79 1.000000
0.124333 0.557836 -0.265442 0.000000 1.000000 0.000000 52 52 52 1.000000
0.171013 -0.618678 0.402358 0.000000 0.000000 -1.000000 83 83 83 1.000000
0.472400 0.146612 0.402358 0.000000 -0.000000 1.000000 52 52 52 1.000000
0.524653 0.105115 0.284905 -1.000000 0.000000 0.000000 52 52 52 1.000000
-0.086901 -0.276851 0.451611 0.000000 0.000000 -1.000000 52 52 52 1.000000
-0.530771 -0.303289 0.086807 1.000000 0.000000 0.000000 52 52 52 1.000000
0.003696 0.530755 0.451611 0.000000 -0.000000 1.000000 67 67 67 1.000000
0.575470 0.470997 0.432489 -1.000000 0.000000 0.000000 52 52 52 1.000000
0.161459 0.605529 -0.435280 0.000000 -0.000000 1.000000 226 226 226 1.000000
0.296074 -0.690245 0.249699 0.000000 1.000000 0.000000 52 52 52 1.000000
0.346377 0.599718 0.020841 0.000000 -0.988490 -0.151284 226 226 226 1.000000
0.583288 -0.573702 -0.228172 -1.000000 0.000000 0.000000 52 52 52 1.000000
-0.025765 -0.740503 0.347048 0.000000 1.000000 0.000000 255 255 255 1.000000
-0.317855 -0.466174 0.451611 0.000000 -0.000000 1.000000 94 94 94 1.000000
-0.283385 -0.740503 -0.009972 0.000000 1.000000 0.000000 255 255 255 1.000000
0.549966 0.583199 -0.435280 0.000000 -0.000000 1.000000 226 226 226 1.000000
-0.361650 0.557836 0.170051 0.000000 -1.000000 -0.000000 52 52 52 1.000000
-0.129780 0.520890 0.451611 0.000000 0.000000 -1.000000 52 52 52 1.000000
-0.182930 0.372954 0.451611 0.000000 -0.000000 1.000000 78 78 78 1.000000
0.583288 -0.147851 -0.038825 -1.000000 0.000000 0.000000 52 52 52 1.000000
0.057577 0.310416 0.451611 0.000000 -0.000000 1.000000 69 69 69 1.000000
0.289344 -0.740503 -0.200535 0.000000 -1.000000 -0.000000 52 52 52 1.000000
0.583288 -0.673519 0.164962 -1.000000 0.000000 0.000000 52 52 52 1.000000
0.583288 -0.664327 0.009360 1.000000 0.000000 0.000000 52 52 52 1.000000
0.194401 -0.195695 0.451611 0.000000 -0.000000 1.000000 80 80 80 1.000000
-0.328344 -0.690245 0.057708 0.000000 -1.000000 -0.000000 52 52 52 1.000000
-0.530771 -0.617644 0.007720 -1.000000 0.000000 0.000000 52 52 52 1.000000
0.524653 -0.261870 0.142984 1.000000 0.000000 0.000000 52 52 52 1.000000
0.405666 0.557836 0.273482 0.000000 1.000000 0.000000 52 52 52 1.000000
-0.506535 -0.690245 -0.332549 0.000000 1.000000 0.000000 52 52 52 1.000000
0.251948 -0.740503 0.304822 0.000000 -1.000000 -0.000000 52 52 52 1.000000
0.583288 0.402543 -0.184860 -1.000000 0.000000 0.000000 52 52 52 1.000000
0.423270 0.574349 -0.435280 0.000000 0.000000 -1.000000 226 226 226 1.000000
-0.542875 0.599718 0.342236 0.000000 0.963048 0.269329 226 226 226 1.000000
0.583288 0.139606 -0.207027 1.000000 0.000000 0.000000 52 52 52 1.000000
0.583288 -0.451326 0.287045 1.000000 0.000000 0.000000 52 52 52 1.000000
0.130740 -0.690245 -0.222309 0.000000 1.000000 0.000000 52 52 52 1.000000
0.524653 0.082414 -0.027143 -1.000000 0.000000 0.000000 52 52 52 1.000000
-0.063708 -0.201019 -0.435280 0.000000 -0.000000 1.000000 52 52 52 1.000000
0.470815 0.599718 -0.020700 0.000000 -0.990741 -0.135768 226 226 226 1.000000
-0.181710 0.599718 0.213538 0.000000 0.974902 0.222633 226 226 226 1.000000
-0.589405 -0.044245 -0.297549 -1.000000 0.000000 0.000000 52 52 52 1.000000
-0.589405 -0.528255 0.228239 -1.000000 0.000000 0.000000 52 52 52 1.000000
-0.129875 0.357640 0.025217 0.000000 -1.000000 -0.000000 52 52 52 1.000000
-0.427981 -0.690245 -0.179587 0.000000 1.000000 0.000000 52 52 52 1.000000
0.524653 0.254940 0.095092 1.000000 0.000000 0.000000 52 52 52 1.000000
-0.589405 0.135826 -0.163156 1.000000 0.000000 0.000000 52 52 52 1.000000
0.387806 0.357640 -0.084201 0.000000 -1.000000 -0.000000 52 52 52 1.000000
0.583288 -0.104205 0.062820 -1.000000 0.000000 0.000000 52 52 52 1.000000
-0.530771 0.051142 -0.333176 1.000000 0.000000 0.000000 52 52 52 1.000000
-0.284969 -0.690245 -0.235329 0.000000 -1.000000 -0.000000 52 52 52 1.000000
0.524653 0.210342 0.287994 -1.000000 0.000000 0.000000 52 52 52 1.000000
-0.589405 0.437190 0.069800 -1.000000 0.000000 0.000000 52 52 52 1.000000
0.067975 -0.418220 -0.435280 0.000000 -0.000000 1.000000 52 52 52 1.000000
-0.074541 -0.503327 0.451611 0.000000 -0.000000 1.000000 73 73 73 1.000000
-0.530771 0.124120 0.090379 1.000000 0.000000 0.000000 52 52 52 1.000000
0.040665 -0.740503 0.331532 0.000000 1.000000 0.000000 255 255 255 1.000000
0.199860 0.186077 -0.385022 0.000000 -0.000000 1.000000 52 52 52 1.000000
-0.477176 0.060716 0.451611 0.000000 -0.000000 1.000000 108 108 108 1.000000
0.417013 0.357640 -0.274316 0.000000 1.000000 0.000000 52 52 52 1.000000
-0.589405 0.506749 0.002786 -1.000000 0.000000 0.000000 52 52 52 1.000000
0.492433 0.357640 -0.044307 0.000000 1.000000 0.000000 52 52 52 1.000000
-0.167258 0.599718 0.312641 0.000000 -0.965963 -0.258680 226 226 226 1.000000
-0.098015 0.357640 0.313956 0.000000 1.000000 0.000000 52 52 52 1.000000
0.204949 0.156035 0.402358 0.000000 0.000000 -1.000000 81 81 81 1.000000
0.097677 -0.161945 0.402358 0.000000 0.000000 -1.000000 91 91 91 1.000000
0.583288 -0.624530 -0.266715 1.000000 0.000000 0.000000 52 52 52 1.000000
0.549655 0.545271 0.427950 0.000000 -1.000000 -0.000000 52 52 52 1.000000
-0.401126 -0.359564 0.402358 0.000000 0.000000 -1.000000 142 142 142 1.000000
-0.219877 -0.353028 0.451611 0.000000 0.000000 -1.000000 52 52 52 1.000000
-0.366244 -0.455006 0.402358 0.000000 0.000000 -1.000000 138 138 138 1.000000
0.325350 0.289269 0.402358 0.000000 -0.000000 1.000000 52 52 52 1.000000
0.309649 -0.740503 -0.308468 0.000000 -1.000000 -0.000000 52 52 52 1.000000
0.119254 -0.080422 -0.435280 0.000000 -0.000000 1.000000 52 52 52 1.000000
-0.409872 0.064971 -0.385022 0.000000 0.000000 -1.000000 52 52 52 1.000000
0.132854 -0.430862 0.402358 0.000000 0.000000 -1.000000 89 89 89 1.000000
0.307859 0.357640 0.336701 0.000000 -1.000000 -0.000000 52 52 52 1.000000
-0.018980 0.652050 -0.435280 0.000000 0.000000 -1.000000 226 226 226 1.000000
-0.589405 -0.396661 -0.276392 -1.000000 0.000000 0.000000 52 52 52 1.000000
0.360976 0.557836 0.079625 0.000000 1.000000 0.000000 52 52 52 1.000000
0.198903 -0.634586 -0.385022 0.000000 0.000000 -1.000000 52 52 52 1.000000
-0.530771 -0.389396 0.168552 -1.000000 0.000000 0.000000 52 52 52 1.000000
0.319605 -0.740503 0.324433 0.000000 1.000000 0.000000 255 255 255 1.000000
-0.479161 -0.194936 -0.435280 0.000000 0.000000 -1.000000 52 52 52 1.000000
0.583288 -0.254504 0.245458 1.000000 0.000000 0.000000 52 52 52 1.000000
-0.564471 0.557836 -0.240940 0.000000 1.000000 0.000000 226 226 226 1.000000
-0.589405 0.129279 0.232359 -1.000000 0.000000 0.000000 52 52 52 1.000000
-0.581587 -0.662137 0.410987 1.000000 0.000000 0.000000 52 52 52 1.000000
0.004801 -0.690245 0.104187 0.000000 -1.000000 -0.000000 52 52 52 1.000000
-0.503309 -0.740503 -0.402641 0.000000 1.000000 0.000000 255 255 255 1.000000
0.289651 0.599718 -0.301785 0.000000 -0.999526 -0.030774 226 226 226 1.000000
0.583288 0.421194 -0.088607 -1.000000 0.000000 0.000000 52 52 52 1.000000
-0.148694 -0.034070 0.451611 0.000000 -0.000000 1.000000 76 76 76 1.000000
0.284093 -0.459164 -0.435280 0.000000 0.000000 -1.000000 52 52 52 1.000000
-0.530771 -0.054167 0.152178 1.000000 0.000000 0.000000 52 52 52 1.000000
0.524653 0.214046 0.033935 -1.000000 0.000000 0.000000 52 52 52 1.000000
0.317202 -0.740503 -0.266944 0.000000 1.000000 0.000000 255 255 255 1.000000
0.182842 -0.740503 -0.415589 0.000000 1.000000 0.000000 255 255 255 1.000000
0.223815 0.013820 0.451611 0.000000 0.000000 -1.000000 52 52 52 1.000000
0.575470 -0.197267 0.421487 -1.000000 0.000000 0.000000 52 52 52 1.000000
0.435416 0.599718 -0.109038 0.000000 -0.994711 -0.102714 226 226 226 1.000000
-0.530771 -0.043208 -0.338914 -1.000000 0.000000 0.000000 52 52 52 1.000000
-0.097953 0.557836 -0.297560 0.000000 1.000000 0.000000 52 52 52 1.000000
-0.589405 -0.320485 0.384937 1.000000 0.000000 0.000000 52 52 52 1.000000
-0.459074 -0.462533 0.402358 0.000000 0.000000 -1.000000 145 145 145 1.000000
-0.560223 -0.170529 0.451611 0.000000 0.000000 -1.000000 52 52 52 1.000000
-0.589406 0.593169 -0.271009 -1.000000 0.000000 0.000000 226 226 226 1.000000
-0.044151 0.647150 -0.385022 0.000000 0.000000 -1.000000 226 226 226 1.000000
-0.026706 -0.258302 -0.435280 0.000000 0.000000 -1.000000 52 52 52 1.000000
-0.142842 -0.512213 0.402358 0.000000 0.000000 -1.000000 115 115 115 1.000000
-0.132896 -0.677484 -0.435280 0.000000 -0.000000 1.000000 52 52 52 1.000000
0.194398 0.557836 0.418821 0.000000 0.996314 -0.085782 226 226 226 1.000000
-0.319415 -0.668155 -0.435280 0.000000 -0.000000 1.000000 52 52 52 1.000000
-0.180972 -0.444158 0.402358 0.000000 0.000000 -1.000000 118 118 118 1.000000
0.293940 0.266022 0.451611 0.000000 -0.000000 1.000000 89 89 89 1.000000
-0.020190 0.357640 0.319396 0.000000 -1.000000 -0.000000 52 52 52 1.000000
-0.589405 -0.025202 0.350273 1.000000 0.000000 0.000000 52 52 52 1.000000
0.212478 -0.690245 -0.032491 0.000000 -1.000000 -0.000000 52 52 52 1.000000
0.370755 0.357640 0.129319 0.000000 -1.000000 -0.000000 52 52 52 1.000000
0.583288 0.326994 -0.197063 -1.000000 0.000000 0.000000 52 52 52 1.000000
-0.557535 -0.543195 0.402358 0.000000 0.000000 -1.000000 52 52 52 1.000000
-0.530771 0.007620 0.261598 -1.000000 0.000000 0.000000 52 52 52 1.000000
-0.530771 0.250710 0.382893 1.000000 0.000000 0.000000 52 52 52 1.000000
-0.589405 0.144024 0.393696 1.000000 0.000000 0.000000 52 52 52 1.000000
-0.466242 -0.137989 -0.435280 0.000000 0.000000 -1.000000 52 52 52 1.000000
0.120762 -0.740503 0.205740 0.000000 -1.000000 -0.000000 52 52 52 1.000000
-0.278427 -0.631990 -0.435280 0.000000 -0.000000 1.000000 52 52 52 1.000000
0.033534 0.599718 0.011006 0.000000 0.989045 0.147613 226 226 226 1.000000
0.264165 0.456012 0.451611 0.000000 -0.000000 1.000000 84 84 84 1.000000
0.474331 0.599718 0.031854 0.000000 -0.987853 -0.155392 226 226 226 1.000000
0.544594 0.457514 0.402358 0.000000 0.000000 -1.000000 52 52 52 1.000000
-0.330241 0.171419 -0.385022 0.000000 0.000000 -1.000000 52 52 52 1.000000
0.543143 0.166722 -0.435280 0.000000 -0.000000 1.000000 52 52 52 1.000000
-0.394367 0.557836 0.101480 0.000000 1.000000 0.000000 226 226 226 1.000000
0.045807 -0.472844 -0.435280 0.000000 -0.000000 1.000000 52 52 52 1.000000
-0.314616 0.271733 0.402358 0.000000 0.000000 -1.000000 130 130 130 1.000000
-0.126870 -0.690245 -0.333742 0.000000 1.000000 0.000000 52 52 52 1.000000
-0.248352 -0.511438 0.402358 0.000000 -0.000000 1.000000 52 52 52 1.000000
0.130276 -0.247505 -0.385022 0.000000 0.000000 -1.000000 52 52 52 1.000000
-0.403916 0.649969 -0.385022 0.000000 -0.000000 1.000000 226 226 226 1.000000
0.443854 0.557836 -0.244034 0.000000 -1.000000 -0.000000 226 226 226 1.000000
-0.464494 -0.558456 0.451611 0.000000 0.000000 -1.000000 52 52 52 1.000000
0.524653 0.098963 0.039785 -1.000000 0.000000 0.000000 52 52 52 1.000000
0.061968 0.590852 0.474037 0.000000 0.553139 0.833089 226 226 226 1.000000
-0.476455 -0.220227 0.451611 0.000000 -0.000000 1.000000 107 107 107 1.000000
0.453243 -0.648895 0.402358 0.000000 -0.000000 1.000000 52 52 52 1.000000
-0.233426 -0.162537 -0.385022 0.000000 0.000000 -1.000000 52 52 52 1.000000
-0.312002 0.357640 0.248088 0.000000 -1.000000 -0.000000 52 52 52 1.000000
-0.161322 0.357640 -0.352389 0.000000 -1.000000 -0.000000 52 52 52 1.000000
0.524653 -0.264555 -0.015249 1.000000 0.000000 0.000000 52 52 52 1.000000
0.425382 0.557836 0.391743 0.000000 1.000000 0.000000 52 52 52 1.000000
0.524653 -0.158147 0.159208 -1.000000 0.000000 0.000000 52 52 52 1.000000
-0.342511 0.557836 -0.033235 0.000000 1.000000 0.000000 52 52 52 1.000000
-0.253432 0.036672 0.451611 0.000000 -0.000000 1.000000 85 85 85 1.000000
-0.530771 0.281602 0.064935 -1.000000 0.000000 0.000000 52 52 52 1.000000
0.583288 -0.551732 0.244131 -1.000000 0.000000 0.000000 52 52 52 1.000000
-0.589405 -0.226107 0.215574 1.000000 0.000000 0.000000 52 52 52 1.000000
0.475532 -0.740503 -0.014183 0.000000 -1.000000 -0.000000 52 52 52 1.000000
-0.454958 0.089226 0.402358 0.000000 0.000000 -1.000000 142 142 142 1.000000
-0.412369 0.599718 0.461487 0.000000 0.950213 0.311601 226 226 226 1.000000
0.363502 0.357640 -0.239058 0.000000 -1.000000 -0.000000 52 52 52 1.000000
-0.108403 0.119082 0.402358 0.000000 0.000000 -1.000000 111 111 111 1.000000
0.111469 -0.388978 -0.385022 0.000000 -0.000000 1.000000 52 52 52 1.000000
-0.092292 0.545271 0.430394 0.000000 -1.000000 -0.000000 52 52 52 1.000000
-0.465629 0.557836 -0.238640 0.000000 -1.000000 -0.000000 52 52 52 1.000000
0.079754 -0.690245 -0.254049 0.000000 -1.000000 -0.000000 52 52 52 1.000000
0.088596 0.357640 -0.163340 0.000000 1.000000 0.000000 52 52 52 1.000000
0.524653 0.067112 -0.203066 -1.000000 0.000000 0.000000 52 52 52 1.000000
0.583288 0.374692 0.161078 -1.000000 0.000000 0.000000 52 52 52 1.000000
-0.052745 0.123711 -0.435280 0.000000 0.000000 -1.000000 52 52 52 1.000000
0.278603 -0.153785 0.451611 0.000000 -0.000000 1.000000 90 90 90 1.000000
0.460172 0.557836 0.012138 0.000000 1.000000 0.000000 226 226 226 1.000000
0.446834 0.599718 0.126802 0.000000 -0.981652 -0.190680 226 226 226 1.000000
-0.542873 -0.740503 0.163083 0.000000 -1.000000 -0.000000 52 52 52 1.000000
0.583288 -0.020121 -0.316094 1.000000 0.000000 0.000000 52 52 52 1.000000
-0.450012 -0.739179 -0.435280 0.000000 -0.000000 1.000000 52 52 52 1.000000
-0.589405 -0.537403 0.275458 1.000000 0.000000 0.000000 52 52 52 1.000000
-0.124302 -0.107745 0.402358 0.000000 -0.000000 1.000000 52 52 52 1.000000
0.524653 -0.004700 -0.242178 -1.000000 0.000000 0.000000 52 52 52 1.000000
0.011275 0.114675 -0.435280 0.000000 -0.000000 1.000000 52 52 52 1.000000
0.583288 0.209622 -0.050233 -1.000000 0.000000 0.000000 52 52 52 1.000000
-0.530771 0.176734 -0.106304 -1.000000 0.000000 0.000000 52 52 52 1.000000
-0.008290 0.286468 -0.385022 0.000000 -0.000000 1.000000 52 52 52 1.000000
-0.228135 0.426667 -0.435280 0.000000 -0.000000 1.000000 52 52 52 1.000000
-0.530771 -0.482477 -0.354161 1.000000 0.000000 0.000000 52 52 52 1.000000
-0.292369 -0.690245 -0.264816 0.000000 -1.000000 -0.000000 52 52 52 1.000000
-0.295401 -0.506680 0.451611 0.000000 -0.000000 1.000000 91 91 91 1.000000
0.420423 0.557836 -0.399857 0.000000 1.000000 0.000000 226 226 226 1.000000
0.171124 0.357294 -0.385022 0.000000 0.000000 -1.000000 52 52 52 1.000000
-0.494903 0.357640 -0.035194 0.000000 1.000000 0.000000 52 52 52 1.000000
-0.565710 -0.521056 -0.435280 0.000000 -0.000000 1.000000 52 52 52 1.000000
0.583288 0.187734 -0.339481 -1.000000 0.000000 0.000000 52 52 52 1.000000
-0.186507 -0.429770 -0.385022 0.000000 0.000000 -1.000000 52 52 52 1.000000
0.270491 0.357640 0.373302 0.000000 1.000000 0.000000 52 52 52 1.000000
-0.310972 -0.740503 0.000081 0.000000 1.000000 0.000000 255 255 255 1.000000
0.179752 0.557836 -0.231754 0.000000 -1.000000 -0.000000 226 226 226 1.000000
-0.023773 0.352541 0.402358 0.000000 -0.000000 1.000000 52 52 52 1.000000
-0.511229 -0.503155 0.402358 0.000000 0.000000 -1.000000 152 152 152 1.000000
-0.505826 0.599718 0.210425 0.000000 0.975162 0.221492 226 226 226 1.000000
0.073981 0.480778 0.451611 0.000000 -0.000000 1.000000 2 2 2 0.660000
0.527913 -0.030281 0.402358 0.000000 0.000000 -1.000000 83 83 83 1.000000
0.560330 -0.740503 -0.233800 0.000000 1.000000 0.000000 255 255 255 1.000000
-0.154274 -0.531313 -0.385022 0.000000 -0.000000 1.000000 52 52 52 1.000000
-0.589405 0.169550 -0.335983 1.000000 0.000000 0.000000 52 52 52 1.000000
-0.445540 -0.740503 -0.003078 0.000000 1.000000 0.000000 255 255 255 1.000000
0.207631 0.575837 -0.435280 0.000000 -0.000000 1.000000 226 226 226 1.000000
-0.589405 -0.342359 -0.160357 -1.000000 0.000000 0.000000 52 52 52 1.000000
0.013300 -0.227746 0.402358 0.000000 -0.000000 1.000000 52 52 52 1.000000
-0.018381 0.357640 -0.124112 0.000000 1.000000 0.000000 52 52 52 1.000000
-0.197503 -0.042211 -0.385022 0.000000 -0.000000 1.000000 52 52 52 1.000000
-0.253804 -0.008598 -0.385022 0.000000 0.000000 -1.000000 52 52 52 1.000000
0.583288 -0.732456 0.291765 -1.000000 0.000000 0.000000 52 52 52 1.000000
-0.540678 -0.122586 0.451611 0.000000 0.000000 -1.000000 52 52 52 1.000000
0.420515 0.557836 -0.345578 0.000000 1.000000 0.000000 52 52 52 1.000000
0.387102 -0.690245 0.038953 0.000000 1.000000 0.000000 52 52 52 1.000000
0.318174 -0.573828 -0.435280 0.000000 -0.000000 1.000000 52 52 52 1.000000
-0.530771 -0.408628 -0.291423 -1.000000 0.000000 0.000000 52 52 52 1.000000
-0.356564 0.180855 -0.435280 0.000000 0.000000 -1.000000 52 52 52 1.000000
0.273387 0.072137 -0.435280 0.000000 -0.000000 1.000000 52 52 52 1.000000
0.524653 -0.309654 0.235881 1.000000 0.000000 0.000000 52 52 52 1.000000
0.112966 -0.200922 0.451611 0.000000 -0.000000 1.000000 75 75 75 1.000000
0.541365 -0.678205 0.402358 0.000000 0.000000 -1.000000 52 52 52 1.000000
-0.039018 0.165914 -0.435280 0.000000 0.000000 -1.000000 52 52 52 1.000000
-0.077751 0.377368 -0.435280 0.000000 0.000000 -1.000000 52 52 52 1.000000
0.313598 0.138217 -0.385022 0.000000 0.000000 -1.000000 52 52 52 1.000000
0.480065 0.055188 -0.385022 0.000000 -0.000000 1.000000 52 52 52 1.000000
-0.253405 0.004172 -0.435280 0.000000 -0.000000 1.000000 52 52 52 1.000000
0.524653 -0.218252 -0.335207 1.000000 0.000000 0.000000 52 52 52 1.000000
0.068674 0.184988 0.402358 0.000000 -0.000000 1.000000 52 52 52 1.000000
0.524653 0.356668 -0.095433 -1.000000 0.000000 0.000000 52 52 52 1.000000
-0.308216 -0.030028 0.402358 0.000000 0.000000 -1.000000 129 129 129 1.000000
0.029664 -0.740503 -0.290735 0.000000 1.000000 0.000000 255 255 255 1.000000
0.284656 0.606831 -0.435280 0.000000 -0.000000 1.000000 226 226 226 1.000000
-0.589405 -0.625055 -0.297000 -1.000000 0.000000 0.000000 52 52 52 1.000000
0.329610 -0.690245 -0.359486 0.000000 1.000000 0.000000 52 52 52 1.000000
-0.589405 -0.126726 -0.318359 1.000000 0.000000 0.000000 52 52 52 1.000000
0.312921 0.557836 -0.257166 0.000000 -1.000000 -0.000000 52 52 52 1.000000
-0.589405 0.300017 -0.150482 1.000000 0.000000 0.000000 52 52 52 1.000000
0.440890 -0.326144 0.451611 0.000000 0.000000 -1.000000 52 52 52 1.000000
0.524653 -0.351682 -0.162971 -1.000000 0.000000 0.000000 52 52 52 1.000000
0.346908 -0.398221 0.451611 0.000000 -0.000000 1.000000 95 95 95 1.000000
-0.006953 0.357640 0.377152 0.000000 -1.000000 -0.000000 52 52 52 1.000000
0.116645 -0.690245 -0.061621 0.000000 -1.000000 -0.000000 52 52 52 1.000000
0.044541 -0.740503 -0.380515 0.000000 -1.000000 -0.000000 52 52 52 1.000000
-0.411347 -0.711679 -0.435280 0.000000 0.000000 -1.000000 52 52 52 1.000000
0.583288 0.101279 -0.366903 -1.000000 0.000000 0.000000 52 52 52 1.000000
-0.265600 0.557836 -0.118863 0.000000 -1.000000 -0.000000 226 226 226 1.000000
0.524653 -0.561292 0.275562 1.000000 0.000000 0.000000 52 52 52 1.000000
-0.549679 0.190380 -0.435280 0.000000 0.000000 -1.000000 52 52 52 1.000000
-0.366737 0.599718 0.166026 0.000000 -0.978726 -0.205170 226 226 226 1.000000
-0.530771 0.053130 -0.160264 1.000000 0.000000 0.000000 52 52 52 1.000000
0.583288 0.219484 0.255544 1.000000 0.000000 0.000000 52 52 52 1.000000
0.295717 -0.053534 -0.385022 0.000000 -0.000000 1.000000 52 52 52 1.000000
-0.257024 0.357640 -0.010786 0.000000 -1.000000 -0.000000 52 52 52 1.000000
-0.254380 0.324903 0.451611 0.000000 0.000000 -1.000000 52 52 52 1.000000
-0.314204 0.599718 -0.258525 0.000000 -0.998902 -0.046858 226 226 226 1.000000
-0.046110 -0.069930 -0.435280 0.000000 -0.000000 1.000000 52 52 52 1.000000
0.524653 -0.288039 0.065655 -1.000000 0.000000 0.000000 52 52 52 1.000000
-0.202808 0.231686 -0.385022 0.000000 -0.000000 1.000000 52 52 52 1.000000
-0.589405 -0.381096 -0.249992 -1.000000 0.000000 0.000000 52 52 52 1.000000
0.376203 -0.690245 -0.172007 0.000000 1.000000 0.000000 52 52 52 1.000000
0.289494 -0.740503 0.322354 0.000000 1.000000 0.000000 255 255 255 1.000000
-0.206923 -0.740503 -0.298793 0.000000 -1.000000 -0.000000 52 52 52 1.000000
0.575470 -0.020773 0.424220 -1.000000 0.000000 0.000000 52 52 52 1.000000
0.524653 -0.592247 -0.025071 -1.000000 0.000000 0.000000 52 52 52 1.000000
0.175737 -0.096012 -0.435280 0.000000 -0.000000 1.000000 52 52 52 1.000000
0.297069 0.545271 0.418631 0.000000 1.000000 0.000000 90 90 90 1.000000
0.061272 -0.050261 -0.385022 0.000000 0.000000 -1.000000 52 52 52 1.000000
-0.151297 0.357640 -0.098004 0.000000 1.000000 0.000000 52 52 52 1.000000
-0.530771 -0.668843 0.320053 1.000000 0.000000 0.000000 52 52 52 1.000000
0.053101 0.110267 -0.435280 0.000000 0.000000 -1.000000 52 52 52 1.000000
-0.152918 0.122676 0.402358 0.000000 -0.000000 1.000000 52 52 52 1.000000
0.130655 0.388983 0.451611 0.000000 0.000000 -1.000000 52 52 52 1.000000
0.425417 0.259136 0.476088 -0.264383 0.245875 -0.932549 255 255 255 1.000000
-0.297080 -0.306845 -0.435280 0.000000 0.000000 -1.000000 52 52 52 1.000000
0.524653 -0.639120 0.010390 1.000000 0.000000 0.000000 52 52 52 1.000000
-0.170531 0.357640 0.272703 0.000000 1.000000 0.000000 52 52 52 1.000000
-0.537130 -0.669110 0.451611 0.000000 -0.000000 1.000000 113 113 113 1.000000
0.459506 -0.152910 -0.435280 0.000000 -0.000000 1.000000 52 52 52 1.000000
-0.130569 0.645807 -0.435280 0.000000 0.000000 -1.000000 226 226 226 1.000000
-0.347722 -0.690245 -0.366964 0.000000 -1.000000 -0.000000 52 52 52 1.000000
-0.581587 0.262432 0.417262 1.000000 0.000000 0.000000 52 52 52 1.000000
-0.128918 -0.690245 0.049219 0.000000 1.000000 0.000000 52 52 52 1.000000
-0.393778 0.357640 0.235394 0.000000 -1.000000 -0.000000 52 52 52 1.000000
0.320185 -0.740503 -0.006546 0.000000 1.000000 0.000000 255 255 255 1.000000
0.455844 0.063067 0.451611 0.000000 0.000000 -1.000000 52 52 52 1.000000
-0.315941 -0.690245 -0.181492 0.000000 1.000000 0.000000 52 52 52 1.000000
0.583288 0.146340 -0.410166 -1.000000 0.000000 0.000000 52 52 52 1.000000
0.583288 -0.610466 0.171912 1.000000 0.000000 0.000000 52 52 52 1.000000
0.002924 0.544538 -0.435280 0.000000 -0.000000 1.000000 52 52 52 1.000000
0.108129 -0.009835 -0.385022 0.000000 -0.000000 1.000000 52 52 52 1.000000
-0.462907 -0.740503 0.329153 0.000000 -1.000000 -0.000000 52 52 52 1.000000
-0.278149 0.357640 -0.197943 0.000000 1.000000 0.000000 52 52 52 1.000000
-0.430089 -0.740503 0.384796 0.000000 -1.000000 -0.000000 52 52 52 1.000000
0.314312 0.079213 -0.435280 0.000000 -0.000000 1.000000 52 52 52 1.000000
0.552911 0.618503 -0.385022 0.000000 0.000000 -1.000000 226 226 226 1.000000
0.260258 -0.740503 -0.080395 0.000000 -1.000000 -0.000000 52 52 52 1.000000
-0.531896 0.557836 0.016587 0.000000 1.000000 0.000000 52 52 52 1.000000
0.303886 -0.571373 0.402358 0.000000 -0.000000 1.000000 52 52 52 1.000000
0.137051 0.545271 0.425930 0.000000 -1.000000 -0.000000 52 52 52 1.000000
-0.211249 -0.690245 0.341705 0.000000 1.000000 0.000000 52 52 52 1.000000
0.527805 0.557836 -0.114070 0.000000 -1.000000 -0.000000 52 52 52 1.000000
-0.589405 -0.384995 0.029133 -1.000000 0.000000 0.000000 52 52 52 1.000000
-0.299880 0.557836 -0.098909 0.000000 1.000000 0.000000 52 52 52 1.000000
-0.589405 0.521683 0.259448 -1.000000 0.000000 0.000000 52 52 52 1.000000
-0.589405 0.450868 0.140689 -1.000000 0.000000 0.000000 52 52 52 1.000000
-0.163053 -0.740503 0.371172 0.000000 -1.000000 -0.000000 52 52 52 1.000000
-0.482459 0.405660 0.451611 0.000000 0.000000 -1.000000 52 52 52 1.000000
0.390701 0.423884 0.402358 0.000000 0.000000 -1.000000 52 52 52 1.000000
-0.098715 -0.457565 0.402358 0.000000 -0.000000 1.000000 52 52 52 1.000000
-0.108638 0.557836 -0.408808 0.000000 -1.000000 -0.000000 52 52 52 1.000000
0.032764 -0.690245 0.332018 0.000000 1.000000 0.000000 52 52 52 1.000000
-0.149298 0.557836 -0.315969 0.000000 -1.000000 -0.000000 226 226 226 1.000000
-0.352202 -0.540344 0.402358 0.000000 0.000000 -1.000000 134 134 134 1.000000
