ply
format ascii 1.0
element vertex 1252
property float x
property float y
property float z
property uchar red
property uchar green
property uchar blue
end_header
0.356556 0.529870 -0.309343 127 127 0
0.502229 -0.663939 -0.150281 127 127 0
0.376200 0.127026 0.377500 127 127 0
-0.505451 -0.537190 -0.137659 127 127 0
0.450198 0.533150 -0.146136 127 127 0
0.052011 0.624836 -0.434668 127 127 0
-0.262869 -0.322476 -0.450105 127 127 0
-0.480116 -0.759725 -0.143626 127 127 0
0.456128 -0.788454 -0.153227 127 127 0
-0.428655 0.644993 0.099786 127 127 0
-0.200813 -0.810819 -0.166281 127 127 0
-0.420646 -0.432875 0.316961 127 127 0
-0.396399 0.504066 -0.268253 127 127 0
0.173450 -0.810819 0.400109 127 127 0
-0.116723 0.860216 0.453236 0 255 0
-0.176321 0.904389 -0.338299 0 255 0
0.416305 0.745141 0.059388 127 127 0
-0.345753 -0.748155 0.381179 127 127 0
0.067856 0.739322 -0.406456 127 127 0
-0.320464 0.271056 0.419809 127 127 0
0.351880 -0.638501 -0.383346 127 127 0
0.344976 -0.810819 -0.144364 127 127 0
0.095326 -0.689678 -0.507973 127 127 0
-0.268387 0.153015 -0.445873 127 127 0
-0.397987 0.888249 0.220024 0 255 0
-0.284276 -0.312712 0.447577 127 127 0
0.155408 0.580116 0.439467 127 127 0
0.352201 0.429155 -0.362097 127 127 0
0.514388 0.103299 -0.102216 127 127 0
-0.312355 -0.653765 -0.412135 127 127 0
0.080501 0.883388 -0.439667 0 255 0
0.381447 -0.603974 -0.356767 127 127 0
-0.220999 -0.694868 0.480409 127 127 0
0.513094 0.349692 0.125940 127 127 0
0.032032 -0.061412 -0.516724 127 127 0
0.488037 -0.536822 -0.184544 127 127 0
0.250400 -0.810819 0.265266 127 127 0
0.476467 -0.004826 0.226373 127 127 0
0.132404 0.901770 0.420611 0 255 0
-0.418468 0.904089 0.062507 0 255 0
-0.367305 0.228510 -0.369970 127 127 0
0.079696 0.662959 0.432720 127 127 0
0.441686 -0.536676 -0.278261 127 127 0
0.139932 0.294634 0.515754 127 127 0
-0.127289 0.268701 0.517814 127 127 0
-0.320490 -0.223764 -0.405893 127 127 0
-0.151169 -0.738337 -0.484372 127 127 0
0.003145 0.174793 0.534422 127 127 0
-0.097012 -0.437938 -0.507904 127 127 0
-0.264566 0.291754 -0.448805 127 127 0
-0.473844 0.360783 -0.213966 127 127 0
0.143808 -0.727113 0.506338 127 127 0
-0.280423 -0.050968 -0.436637 127 127 0
0.210593 0.387982 -0.468692 127 127 0
-0.418723 -0.788412 0.251417 127 127 0
-0.204037 -0.810819 -0.328586 127 127 0
0.518080 -0.717107 -0.039957 127 127 0
-0.186249 -0.305479 0.495738 127 127 0
0.059294 -0.810819 -0.415113 127 127 0
-0.433736 -0.262357 0.299902 127 127 0
0.180654 0.120288 0.498887 127 127 0
-0.444560 0.014562 0.285797 127 127 0
-0.357964 -0.810819 0.050623 127 127 0
-0.123662 0.186437 0.518292 127 127 0
0.509266 -0.706151 -0.123393 127 127 0
-0.391775 -0.644212 -0.340692 127 127 0
-0.175758 -0.810819 0.074576 127 127 0
0.482032 -0.230288 0.212938 127 127 0
0.383716 0.390296 -0.346689 127 127 0
-0.488294 -0.558300 -0.179080 127 127 0
0.142420 0.072254 0.514724 127 127 0
-0.193383 0.023530 -0.478887 127 127 0
-0.080672 -0.810819 -0.044126 127 127 0
-0.416631 -0.330352 0.322194 127 127 0
0.142570 -0.567836 -0.500766 127 127 0
0.357978 -0.302843 -0.378667 127 127 0
0.333345 -0.662606 0.411465 127 127 0
-0.304043 -0.377800 0.432409 127 127 0
0.095317 -0.244509 -0.508392 127 127 0
0.273924 0.693764 -0.316344 127 127 0
0.514122 -0.197315 -0.104237 127 127 0
-0.290603 0.618641 -0.332047 127 127 0
-0.521538 0.135153 -0.032665 127 127 0
0.467527 0.071845 0.247957 127 127 0
-0.371764 0.249039 0.380444 127 127 0
0.455835 -0.175704 -0.259822 127 127 0
0.495579 0.177906 -0.166336 127 127 0
-0.468061 -0.107668 -0.227926 127 127 0
0.067674 -0.810819 -0.004084 127 127 0
0.457171 -0.122805 0.271976 127 127 0
-0.029114 0.904389 -0.212917 0 255 0
0.523303 0.355200 -0.034501 127 127 0
-0.212518 -0.810819 -0.203884 127 127 0
0.361926 0.655418 0.250811 127 127 0
-0.161120 0.904389 -0.226030 0 255 0
-0.521424 -0.570710 -0.033532 127 127 0
-0.509121 0.035218 -0.126981 127 127 0
0.106529 0.152172 -0.506916 127 127 0
-0.168621 0.778404 0.412052 0 255 0
-0.360065 -0.810819 -0.025972 127 127 0
-0.075789 -0.810819 0.326281 127 127 0
-0.446639 -0.521378 -0.269191 127 127 0
0.524893 0.004460 0.036321 127 127 0
-0.068308 -0.810819 -0.086410 127 127 0
0.050338 0.904389 -0.300049 0 255 0
0.483885 -0.722162 0.193161 127 127 0
0.169843 -0.062533 -0.489469 127 127 0
-0.327438 -0.684241 -0.400303 127 127 0
0.525210 -0.372217 -0.020014 127 127 0
0.457676 -0.459655 -0.257422 127 127 0
-0.090860 0.043630 -0.508714 127 127 0
0.281636 -0.155042 -0.437246 127 127 0
0.445327 0.885543 -0.080628 0 255 0
-0.216202 0.251034 0.483331 127 127 0
-0.402099 0.012550 0.341133 127 127 0
0.173301 0.809724 -0.417080 0 255 0
0.308753 -0.511814 -0.416439 127 127 0
0.350973 -0.810819 -0.076877 127 127 0
0.275472 -0.593059 0.455872 127 127 0
0.384982 0.742661 -0.159882 127 127 0
-0.366669 0.087765 0.384354 127 127 0
0.435044 -0.810819 -0.087810 127 127 0
0.516695 -0.064212 -0.084690 127 127 0
-0.120980 0.161422 -0.504749 127 127 0
0.063824 -0.672412 0.526434 127 127 0
0.377096 0.903953 0.207475 0 255 0
-0.009240 0.231996 -0.519460 127 127 0
-0.377976 0.772058 -0.171951 127 127 0
0.522457 -0.113267 -0.040923 127 127 0
-0.018476 0.831425 -0.452274 0 255 0
-0.378424 0.562706 -0.261117 127 127 0
-0.138886 0.901935 -0.402679 0 255 0
0.044776 0.904389 -0.216772 0 255 0
0.148745 0.648907 0.418604 127 127 0
-0.109990 0.904389 -0.311961 0 255 0
0.516731 0.106836 0.098313 127 127 0
-0.492867 -0.485201 -0.168038 127 127 0
-0.155174 0.263815 -0.494714 127 127 0
0.164214 -0.372186 -0.491801 127 127 0
0.517578 0.386667 -0.053595 127 127 0
-0.006096 -0.810819 0.311969 127 127 0
0.519655 0.402232 0.013883 127 127 0
-0.350807 0.551350 -0.303026 127 127 0
0.212934 -0.114664 0.485516 127 127 0
-0.510396 0.393668 0.089782 127 127 0
0.102714 -0.046156 -0.507418 127 127 0
0.146956 0.730987 0.399574 127 127 0
0.296177 0.904389 -0.150504 0 255 0
0.218265 0.011597 0.483308 127 127 0
0.410378 0.824034 0.215015 0 255 0
0.520924 -0.458291 -0.052573 127 127 0
-0.426357 0.893038 -0.126947 0 255 0
-0.213564 0.772580 -0.358505 127 127 0
0.371840 -0.059605 -0.368031 127 127 0
-0.194714 0.305430 -0.478336 127 127 0
-0.501044 -0.083403 0.162194 127 127 0
0.424251 -0.810819 0.086542 127 127 0
0.335715 0.446559 0.381683 127 127 0
-0.081724 -0.510522 -0.509917 127 127 0
-0.025894 0.789337 0.457951 0 255 0
-0.116330 -0.810819 0.150498 127 127 0
-0.522682 0.144085 0.037870 127 127 0
-0.050798 0.470143 -0.484066 127 127 0
-0.245910 0.528085 -0.402555 127 127 0
-0.371212 0.686706 0.218572 127 127 0
-0.125751 0.072176 0.518017 127 127 0
0.490741 -0.450642 0.191912 127 127 0
-0.521922 -0.710870 0.018898 127 127 0
0.139548 -0.679356 -0.501997 127 127 0
-0.229831 0.904389 0.307797 0 255 0
-0.083531 0.081065 0.523575 127 127 0
-0.345382 -0.484371 -0.386793 127 127 0
0.371977 -0.221952 0.381821 127 127 0
-0.010624 -0.393030 -0.519278 127 127 0
-0.270481 0.381833 0.456083 127 127 0
0.285704 0.704407 0.316944 127 127 0
-0.465902 -0.307441 -0.233139 127 127 0
0.520105 -0.177982 0.072687 127 127 0
0.113569 0.741573 -0.399508 127 127 0
0.321075 0.904389 0.087231 0 255 0
0.154857 0.904389 0.286589 0 255 0
-0.423034 0.600554 -0.150990 127 127 0
0.382776 -0.106264 0.368930 127 127 0
0.379777 -0.238604 -0.358943 127 127 0
-0.297108 0.575575 -0.344278 127 127 0
-0.442783 -0.788923 -0.179506 127 127 0
0.351523 0.272050 -0.383620 127 127 0
0.224368 -0.507072 -0.466884 127 127 0
-0.363538 0.363576 -0.372861 127 127 0
-0.019299 -0.754344 -0.499786 127 127 0
-0.444573 0.573126 0.135626 127 127 0
0.522151 -0.232912 -0.043248 127 127 0
-0.023331 0.230463 0.531501 127 127 0
-0.513567 -0.107595 -0.093209 127 127 0
0.513393 -0.089034 -0.109777 127 127 0
-0.082375 0.623465 -0.430845 127 127 0
0.070613 0.904389 0.170853 0 255 0
-0.299968 0.030267 -0.421640 127 127 0
0.332322 0.555210 -0.326941 127 127 0
-0.450825 0.583220 0.081539 127 127 0
-0.166248 -0.599856 0.504022 127 127 0
0.447951 -0.527413 0.283992 127 127 0
-0.278392 0.696611 0.324132 127 127 0
0.177647 -0.810819 -0.412619 127 127 0
0.065443 0.357595 -0.512325 127 127 0
-0.327597 0.405518 0.402784 127 127 0
0.119010 0.400328 0.511586 127 127 0
-0.307685 0.383314 -0.413047 127 127 0
-0.133017 0.904389 -0.257561 0 255 0
0.269667 -0.414268 -0.446431 127 127 0
0.460083 -0.752180 -0.207457 127 127 0
0.093422 0.078457 -0.508641 127 127 0
-0.359179 0.122927 0.390101 127 127 0
-0.125656 -0.810819 0.278590 127 127 0
-0.230027 0.477291 -0.429142 127 127 0
-0.507584 -0.192644 0.146405 127 127 0
0.450802 0.843091 0.098005 0 255 0
-0.462302 0.211296 0.255725 127 127 0
0.413421 0.239820 0.328993 127 127 0
-0.260311 0.666507 0.350045 127 127 0
-0.285859 0.904389 -0.151699 0 255 0
-0.000681 -0.077393 0.534483 127 127 0
0.262858 0.871112 -0.368508 0 255 0
0.207676 0.457969 -0.445867 127 127 0
0.363362 0.457085 -0.338407 127 127 0
-0.226441 0.904389 -0.046626 0 255 0
-0.407063 0.403467 0.320678 127 127 0
0.066954 -0.021602 -0.512126 127 127 0
-0.132944 -0.703295 -0.501321 127 127 0
-0.414639 -0.630665 -0.310894 127 127 0
-0.175882 0.119914 -0.486136 127 127 0
-0.113466 -0.393495 -0.505738 127 127 0
0.523184 -0.311199 -0.035407 127 127 0
0.412730 -0.246285 0.329893 127 127 0
0.467721 0.260071 -0.233592 127 127 0
0.060531 0.697483 -0.410300 127 127 0
0.175222 -0.810819 -0.280327 127 127 0
0.354307 0.830827 -0.284696 0 255 0
0.328133 0.202542 0.415464 127 127 0
-0.482129 0.314857 0.207858 127 127 0
0.027803 0.107683 -0.517280 127 127 0
-0.523640 0.027162 0.030590 127 127 0
-0.520235 -0.170221 -0.042564 127 127 0
0.511264 -0.745577 0.031857 127 127 0
-0.068909 -0.101715 -0.511604 127 127 0
-0.362057 0.298127 -0.373997 127 127 0
0.488848 0.011962 -0.182586 127 127 0
0.104716 0.796408 -0.437937 0 255 0
-0.402435 0.357100 0.340694 127 127 0
-0.278847 -0.810819 -0.159953 127 127 0
-0.307711 -0.725354 0.421107 127 127 0
-0.254934 0.732618 0.338185 127 127 0
0.276967 0.787055 0.361095 0 255 0
0.080462 0.116951 0.524243 127 127 0
-0.405422 -0.561298 -0.322906 127 127 0
-0.267517 0.302860 0.460437 127 127 0
0.444262 -0.259181 0.288800 127 127 0
-0.492199 -0.227446 0.183547 127 127 0
0.014268 -0.125018 -0.519062 127 127 0
-0.158570 -0.786935 0.463793 127 127 0
-0.489392 0.230093 -0.176430 127 127 0
-0.030919 -0.810819 -0.085887 127 127 0
0.403311 0.899850 0.176790 0 255 0
-0.057876 -0.422767 0.526953 127 127 0
-0.439015 0.265603 0.293023 127 127 0
0.201531 -0.232475 -0.476343 127 127 0
-0.050210 -0.175917 -0.514066 127 127 0
0.023601 0.629339 0.450863 127 127 0
0.473687 -0.534728 -0.219189 127 127 0
-0.293480 -0.183713 -0.426618 127 127 0
-0.311384 -0.578535 -0.412880 127 127 0
-0.029825 -0.810819 -0.212671 127 127 0
0.133214 0.904389 0.010658 0 255 0
0.336976 0.904389 0.158233 0 255 0
0.496238 0.473890 -0.003684 127 127 0
-0.465735 -0.259254 0.247438 127 127 0
0.377960 0.856417 -0.253871 0 255 0
0.314471 0.904389 -0.196879 0 255 0
0.115593 -0.790284 -0.462249 127 127 0
-0.411944 0.738088 -0.063372 127 127 0
-0.016629 0.169412 -0.518487 127 127 0
0.244518 0.082042 -0.458537 127 127 0
-0.482441 -0.054888 0.207107 127 127 0
-0.500061 -0.608720 -0.150671 127 127 0
0.528723 0.309648 0.007228 127 127 0
-0.119760 0.731969 0.410008 127 127 0
0.425776 -0.007976 0.312891 127 127 0
0.317523 0.904389 0.243657 0 255 0
-0.054727 0.861403 0.461398 0 255 0
0.489161 -0.762965 0.132388 127 127 0
-0.007996 0.904389 0.389298 0 255 0
-0.160668 -0.283610 0.506334 127 127 0
0.388278 0.186092 -0.347864 127 127 0
-0.368796 -0.768171 0.341532 127 127 0
0.093811 -0.134977 -0.508590 127 127 0
-0.136894 0.904214 0.405785 0 255 0
-0.428488 0.332620 0.306741 127 127 0
0.385834 0.544734 -0.263441 127 127 0
0.431077 -0.175985 -0.292088 127 127 0
0.438667 0.246817 -0.282196 127 127 0
0.483049 -0.303455 0.210482 127 127 0
-0.096224 -0.544533 -0.508008 127 127 0
-0.521607 -0.254317 -0.032143 127 127 0
-0.480294 -0.695912 0.209716 127 127 0
0.005274 0.904389 -0.258280 0 255 0
0.394966 -0.122358 -0.339149 127 127 0
0.515017 -0.280934 0.111338 127 127 0
-0.075478 -0.810819 0.043430 127 127 0
0.474117 0.532276 -0.029793 127 127 0
0.463394 -0.348418 -0.244038 127 127 0
-0.079938 0.903276 0.427560 0 255 0
-0.281958 0.892881 0.352306 0 255 0
0.038343 0.041414 -0.515893 127 127 0
-0.091078 -0.707306 -0.506126 127 127 0
0.077886 0.272599 0.524583 127 127 0
0.315085 -0.665164 -0.411580 127 127 0
0.252594 -0.520053 0.469088 127 127 0
0.361740 0.698383 -0.214765 127 127 0
-0.052924 0.308962 0.527605 127 127 0
0.077213 -0.390574 0.524671 127 127 0
-0.245255 0.583652 -0.380835 127 127 0
0.298761 0.125613 0.438002 127 127 0
0.527254 -0.358652 0.018389 127 127 0
0.486982 -0.448958 -0.187092 127 127 0
0.130394 0.904389 -0.103406 0 255 0
0.187492 0.904389 0.227204 0 255 0
-0.211215 -0.536656 -0.471501 127 127 0
-0.367805 0.189584 -0.369587 127 127 0
-0.392774 0.875314 -0.229608 0 255 0
0.275152 -0.810819 -0.218364 127 127 0
-0.346087 -0.368053 -0.386252 127 127 0
0.343929 -0.152494 0.403343 127 127 0
-0.461655 -0.639364 0.257288 127 127 0
-0.410373 -0.055592 -0.316454 127 127 0
0.152228 0.378575 -0.496098 127 127 0
-0.515420 -0.195429 0.093032 127 127 0
0.378561 0.608742 -0.239562 127 127 0
-0.189552 0.886271 -0.402790 0 255 0
-0.257920 0.630180 -0.352511 127 127 0
0.366389 0.437520 0.358553 127 127 0
-0.138677 -0.324406 -0.501547 127 127 0
0.325629 0.763012 0.271502 127 127 0
0.475672 -0.129674 0.228293 127 127 0
-0.266513 -0.810819 0.087052 127 127 0
-0.255804 0.571801 0.391376 127 127 0
0.065372 0.904389 0.409319 0 255 0
-0.324082 -0.546596 0.417032 127 127 0
0.260214 0.095042 0.465932 127 127 0
-0.402789 0.638108 0.182628 127 127 0
0.527817 -0.570010 0.014109 127 127 0
-0.356912 -0.182845 -0.377945 127 127 0
0.486171 0.399454 0.184025 127 127 0
0.074917 0.175073 0.524974 127 127 0
-0.389386 0.904389 -0.067892 0 255 0
0.299368 -0.201494 -0.423640 127 127 0
-0.054397 0.694523 0.425686 127 127 0
0.038338 0.169129 -0.515893 127 127 0
0.358470 0.592027 -0.274456 127 127 0
-0.449406 0.614087 0.017291 127 127 0
0.457766 0.794623 0.000146 0 255 0
-0.120684 0.456547 0.493111 127 127 0
-0.400859 0.137523 0.342748 127 127 0
0.480301 -0.532476 0.217117 127 127 0
0.103529 0.831611 -0.441341 0 255 0
-0.191994 -0.617925 -0.479462 127 127 0
0.515710 -0.338499 -0.092175 127 127 0
-0.146779 0.904389 -0.181702 0 255 0
-0.517380 -0.453636 -0.064244 127 127 0
-0.521193 0.287382 0.049180 127 127 0
0.330199 -0.268462 0.413878 127 127 0
0.237051 -0.473965 0.475526 127 127 0
0.119748 -0.566296 0.519071 127 127 0
-0.445821 0.441209 -0.228081 127 127 0
0.227439 -0.229599 0.479508 127 127 0
0.447653 0.498222 -0.181238 127 127 0
0.309232 -0.413061 0.429967 127 127 0
-0.062775 0.021692 -0.512412 127 127 0
0.126252 -0.291861 0.518215 127 127 0
0.091720 -0.343619 0.522761 127 127 0
-0.443481 0.270555 -0.273306 127 127 0
-0.178327 -0.810819 0.190967 127 127 0
-0.005643 0.904389 -0.374787 0 255 0
-0.321009 0.904389 -0.037555 0 255 0
0.280435 -0.720048 -0.431519 127 127 0
0.072133 0.904389 -0.373866 0 255 0
-0.201748 0.904389 0.003766 0 255 0
-0.523846 0.080753 -0.015133 127 127 0
0.315145 0.496543 -0.363582 127 127 0
-0.229088 0.315834 0.477993 127 127 0
0.479070 -0.768335 -0.137509 127 127 0
0.170973 -0.810819 0.220096 127 127 0
-0.014379 0.498373 0.493723 127 127 0
-0.319066 0.576551 0.340934 127 127 0
-0.519374 -0.322816 -0.049104 127 127 0
-0.423537 0.774254 -0.063308 0 255 0
0.402853 0.255935 -0.328870 127 127 0
-0.480148 0.487980 -0.076410 127 127 0
-0.296556 0.134405 0.438154 127 127 0
0.390753 -0.194899 -0.344639 127 127 0
0.502033 -0.056751 -0.150754 127 127 0
-0.327037 0.904389 0.008658 0 255 0
-0.020358 -0.810819 0.370212 127 127 0
-0.379074 0.708592 0.183196 127 127 0
0.185854 0.504153 -0.439046 127 127 0
0.461999 -0.282097 -0.247406 127 127 0
-0.011530 -0.124180 0.533054 127 127 0
-0.047545 -0.502794 -0.514417 127 127 0
0.277368 -0.810819 0.139800 127 127 0
0.458342 0.083964 -0.256234 127 127 0
-0.218086 -0.500765 0.482550 127 127 0
-0.398043 -0.357402 -0.332523 127 127 0
0.086488 -0.810819 0.167953 127 127 0
-0.312344 0.317975 0.426039 127 127 0
0.406463 -0.168132 0.338060 127 127 0
0.108113 -0.810819 -0.222248 127 127 0
0.141699 -0.252323 0.515022 127 127 0
-0.350995 -0.810819 -0.146937 127 127 0
-0.522336 -0.647468 -0.026601 127 127 0
0.478008 -0.725539 -0.191028 127 127 0
0.124504 -0.369832 -0.504549 127 127 0
-0.512735 -0.647053 -0.099532 127 127 0
0.163841 0.581724 -0.421526 127 127 0
-0.087344 -0.752549 -0.491805 127 127 0
0.150150 -0.637395 -0.497626 127 127 0
-0.413336 0.458785 0.283674 127 127 0
0.144732 0.837939 0.442972 0 255 0
0.514082 0.366764 -0.104540 127 127 0
0.405304 0.772637 -0.118194 0 255 0
-0.515503 0.249701 -0.078505 127 127 0
0.213403 -0.603994 0.485321 127 127 0
0.219157 0.815806 -0.398248 0 255 0
0.400029 -0.537790 -0.332550 127 127 0
0.320799 0.636536 0.314249 127 127 0
-0.183649 0.375207 0.496815 127 127 0
-0.036027 0.904389 0.363090 0 255 0
-0.128496 -0.263797 -0.503760 127 127 0
0.484835 -0.053822 -0.192275 127 127 0
0.089397 -0.810819 0.346052 127 127 0
0.412816 0.332023 -0.315885 127 127 0
0.073117 0.354332 0.525210 127 127 0
0.181307 0.013002 -0.484720 127 127 0
0.380416 -0.010606 -0.358109 127 127 0
0.396827 -0.437041 0.350619 127 127 0
-0.048103 0.087000 -0.514343 127 127 0
-0.186859 0.904389 0.356897 0 255 0
0.423421 -0.365838 -0.302064 127 127 0
-0.419749 0.287791 -0.304234 127 127 0
-0.298533 -0.810819 -0.105947 127 127 0
-0.399619 -0.591623 0.344365 127 127 0
-0.210658 0.058945 -0.471731 127 127 0
0.310166 0.092807 0.429250 127 127 0
-0.509590 0.092134 0.137312 127 127 0
0.356836 0.059283 0.393439 127 127 0
0.400115 0.002811 -0.332438 127 127 0
-0.202802 0.904389 0.068670 0 255 0
0.112191 0.904389 -0.377601 0 255 0
0.498937 -0.172375 0.172126 127 127 0
-0.151127 0.075168 -0.496390 127 127 0
-0.231311 0.904389 -0.098214 0 255 0
0.523983 0.067816 0.043229 127 127 0
0.419374 -0.647075 -0.307339 127 127 0
-0.486190 -0.531630 0.198054 127 127 0
0.285983 0.904389 -0.228637 0 255 0
-0.443058 -0.417138 -0.273857 127 127 0
-0.418114 0.682966 0.087559 127 127 0
-0.359182 0.629908 0.265066 127 127 0
0.493325 0.241162 0.185674 127 127 0
-0.505729 -0.426329 0.150883 127 127 0
-0.318761 -0.353557 -0.407219 127 127 0
-0.237274 -0.662059 0.474603 127 127 0
-0.060228 0.562937 -0.453130 127 127 0
-0.383242 -0.810819 -0.157353 127 127 0
-0.450092 0.596746 -0.040332 127 127 0
0.515250 -0.626826 -0.095671 127 127 0
-0.505589 0.090068 -0.137325 127 127 0
0.363349 0.790435 -0.262310 0 255 0
-0.370001 -0.190327 0.381798 127 127 0
-0.135741 0.500106 0.474258 127 127 0
0.213121 0.704544 -0.358688 127 127 0
-0.156555 -0.810819 -0.118883 127 127 0
0.289527 -0.810819 -0.098860 127 127 0
0.388412 -0.810819 -0.196325 127 127 0
-0.372132 -0.078661 0.380162 127 127 0
0.339953 0.241697 0.406394 127 127 0
0.370082 -0.810819 -0.114683 127 127 0
0.449383 0.403682 -0.254133 127 127 0
-0.234372 -0.810819 0.351686 127 127 0
0.519602 0.093167 -0.062610 127 127 0
0.223622 0.660570 -0.368215 127 127 0
-0.373261 0.314253 0.378715 127 127 0
0.342620 -0.219607 0.404348 127 127 0
-0.083062 -0.270230 -0.509741 127 127 0
0.197845 0.904389 0.100482 0 255 0
0.246049 0.904389 0.061767 0 255 0
0.287162 0.430057 0.425538 127 127 0
-0.416664 0.031986 -0.308255 127 127 0
-0.524261 0.005488 -0.011984 127 127 0
0.519960 -0.106908 0.073787 127 127 0
-0.207175 -0.698476 -0.471788 127 127 0
-0.486301 -0.073715 -0.183892 127 127 0
-0.524406 -0.216931 -0.010883 127 127 0
-0.362304 -0.549221 -0.373808 127 127 0
0.241214 -0.787286 -0.416156 127 127 0
-0.248101 0.135382 0.470118 127 127 0
-0.252493 -0.810819 0.288581 127 127 0
0.489251 -0.734648 -0.156107 127 127 0
-0.000846 -0.004831 0.534461 127 127 0
0.438782 0.130292 0.295941 127 127 0
-0.177801 0.145763 0.499237 127 127 0
0.190295 0.772644 -0.370892 127 127 0
0.528712 0.067295 0.006588 127 127 0
0.034652 0.779806 0.447586 0 255 0
-0.169994 0.547620 0.443754 127 127 0
-0.170263 0.731857 0.389089 127 127 0
0.302691 0.368013 -0.421090 127 127 0
0.520039 0.309395 0.073192 127 127 0
-0.439213 0.536690 -0.164877 127 127 0
0.224303 0.193918 0.480807 127 127 0
0.393279 0.323193 0.355243 127 127 0
0.263502 -0.810819 0.309113 127 127 0
-0.382993 0.697318 -0.167436 127 127 0
-0.075632 0.904389 0.017561 0 255 0
0.286697 0.211305 0.447259 127 127 0
0.515350 -0.130725 -0.094912 127 127 0
0.410862 0.369372 0.332328 127 127 0
0.373531 -0.810819 0.237982 127 127 0
0.393721 -0.810819 0.022176 127 127 0
0.342049 0.151634 -0.390890 127 127 0
-0.372509 -0.253040 0.379695 127 127 0
-0.022138 -0.246576 -0.517762 127 127 0
-0.236158 -0.810819 0.049289 127 127 0
-0.420744 0.628886 -0.133029 127 127 0
0.437308 0.806717 0.149046 0 255 0
0.152960 -0.186832 -0.496462 127 127 0
-0.294708 0.658396 -0.312999 127 127 0
-0.498992 -0.006162 0.167148 127 127 0
0.275574 -0.810819 -0.280537 127 127 0
0.262467 0.904389 -0.081818 0 255 0
0.397783 0.668376 -0.160569 127 127 0
-0.241852 -0.810819 -0.062056 127 127 0
0.195393 -0.810819 0.317670 127 127 0
0.487847 -0.652929 0.198899 127 127 0
0.136705 -0.810819 0.082565 127 127 0
-0.520376 -0.218596 0.055383 127 127 0
-0.490825 -0.339317 -0.172968 127 127 0
0.191847 -0.810819 0.119986 127 127 0
-0.174084 0.078626 0.500777 127 127 0
0.240554 -0.810819 -0.112343 127 127 0
-0.191440 0.668646 0.393310 127 127 0
0.106098 0.904389 0.398240 0 255 0
0.381525 -0.779684 -0.300399 127 127 0
-0.510945 -0.348141 0.127023 127 127 0
0.283996 0.012622 -0.435435 127 127 0
-0.514019 -0.498291 -0.089773 127 127 0
0.101512 0.904389 -0.057356 0 255 0
-0.524123 0.342475 0.026928 127 127 0
-0.185451 0.904389 -0.159233 0 255 0
0.357704 0.904389 -0.129102 0 255 0
-0.353529 -0.810819 0.238324 127 127 0
0.472559 0.193479 0.235807 127 127 0
0.124804 -0.810819 0.118913 127 127 0
0.264496 0.904389 -0.005903 0 255 0
0.429221 -0.757004 -0.262242 127 127 0
0.519370 0.235968 0.078274 127 127 0
0.039166 0.295974 -0.515784 127 127 0
0.188083 -0.273039 0.495809 127 127 0
-0.499841 -0.577134 0.165098 127 127 0
-0.102722 0.904389 -0.189087 0 255 0
0.520259 -0.639968 0.071521 127 127 0
0.183909 0.904389 -0.078315 0 255 0
-0.506390 0.337522 0.149287 127 127 0
0.453793 -0.810819 -0.021355 127 127 0
0.203886 0.063034 0.489264 127 127 0
0.489442 -0.077032 0.195050 127 127 0
-0.506143 -0.047150 -0.135989 127 127 0
-0.261871 -0.750685 -0.430217 127 127 0
-0.137754 0.544875 0.458050 127 127 0
0.148514 -0.730846 -0.489217 127 127 0
-0.432822 -0.018445 0.301093 127 127 0
0.026856 -0.592523 -0.517405 127 127 0
0.215518 -0.571954 -0.470550 127 127 0
0.451134 0.361705 0.279844 127 127 0
0.033207 -0.810819 -0.066988 127 127 0
-0.515473 0.325032 -0.078728 127 127 0
-0.044149 -0.810819 -0.158664 127 127 0
0.493260 0.258088 -0.171935 127 127 0
0.521775 -0.687383 0.057506 127 127 0
-0.060812 0.534702 0.475984 127 127 0
-0.512737 0.270389 0.113409 127 127 0
0.327699 0.345910 0.415797 127 127 0
0.505498 0.020169 -0.142391 127 127 0
0.191117 -0.782876 0.454837 127 127 0
0.350085 0.904389 -0.056841 0 255 0
0.359304 0.772585 0.230967 0 255 0
0.333235 -0.398745 -0.397653 127 127 0
-0.051611 -0.810819 -0.360204 127 127 0
0.164606 0.444605 -0.468296 127 127 0
0.463677 -0.651166 0.257250 127 127 0
-0.319155 -0.751367 -0.385876 127 127 0
0.252233 0.289462 -0.455342 127 127 0
0.346083 -0.224355 -0.387795 127 127 0
0.523856 -0.023397 -0.030301 127 127 0
0.068154 -0.264194 -0.511968 127 127 0
-0.526139 -0.517251 0.011610 127 127 0
-0.014878 0.079010 0.532614 127 127 0
0.242943 -0.471266 -0.459190 127 127 0
0.362573 0.904389 0.137019 0 255 0
-0.094225 -0.162341 -0.508271 127 127 0
0.059805 -0.619526 0.526963 127 127 0
-0.255437 0.606098 0.377942 127 127 0
-0.192514 0.617196 -0.396637 127 127 0
0.239206 0.672325 0.365453 127 127 0
0.493047 -0.501911 -0.172449 127 127 0
0.169017 -0.330744 0.503707 127 127 0
-0.453920 -0.382268 -0.259702 127 127 0
0.352958 0.902161 -0.242896 0 255 0
0.089492 0.771574 0.417503 127 127 0
0.171620 0.348795 0.502629 127 127 0
0.504420 -0.157082 -0.144993 127 127 0
0.411469 0.440637 -0.284285 127 127 0
0.469546 0.237939 0.243081 127 127 0
-0.206175 0.124860 -0.473589 127 127 0
0.326977 -0.489472 0.416351 127 127 0
0.136469 0.234356 0.516870 127 127 0
0.055772 -0.022329 0.527494 127 127 0
0.312917 0.850163 -0.330802 0 255 0
0.515332 -0.156992 0.108939 127 127 0
-0.375933 0.794106 0.260655 0 255 0
0.238807 -0.810819 0.136018 127 127 0
0.466714 -0.587277 -0.236022 127 127 0
0.261202 0.058761 0.465523 127 127 0
0.191409 0.230451 0.494432 127 127 0
0.436294 0.541163 0.186955 127 127 0
-0.146983 -0.351425 0.512002 127 127 0
0.197831 0.107212 -0.477876 127 127 0
-0.334799 -0.031524 0.408809 127 127 0
0.073631 0.603691 0.452484 127 127 0
0.458613 0.831479 -0.024785 0 255 0
-0.367612 -0.651934 -0.369734 127 127 0
-0.319011 0.742911 -0.263616 127 127 0
0.017120 0.872333 -0.451909 0 255 0
0.179315 -0.621589 -0.485545 127 127 0
-0.524840 0.336563 -0.007581 127 127 0
-0.346495 0.455340 0.368359 127 127 0
0.467759 -0.410374 0.247396 127 127 0
-0.199145 -0.183873 -0.476500 127 127 0
-0.009427 0.616541 -0.442665 127 127 0
-0.476282 0.011669 0.221974 127 127 0
-0.384374 -0.801334 -0.261495 127 127 0
0.414121 -0.212662 0.328080 127 127 0
0.413079 -0.374677 0.329439 127 127 0
-0.500626 -0.760130 -0.027987 127 127 0
-0.485298 -0.003982 -0.186311 127 127 0
0.482376 0.073400 0.212108 127 127 0
0.433380 0.340074 0.302981 127 127 0
-0.364887 0.725641 -0.203550 127 127 0
0.461303 -0.774328 0.184132 127 127 0
-0.507065 -0.293160 -0.133763 127 127 0
-0.238298 -0.493532 -0.460282 127 127 0
-0.158289 0.744444 -0.380153 127 127 0
0.026986 0.359393 -0.517388 127 127 0
-0.351024 -0.286433 0.396359 127 127 0
-0.408457 0.904389 -0.008437 0 255 0
-0.294253 0.169281 -0.426025 127 127 0
-0.447258 -0.613626 -0.268384 127 127 0
0.341282 -0.052327 -0.391478 127 127 0
0.020331 0.307651 0.532160 127 127 0
-0.451289 0.819149 0.079067 0 255 0
0.271369 0.435066 -0.421757 127 127 0
0.144297 -0.372997 0.513946 127 127 0
0.358747 0.699969 0.231735 127 127 0
-0.471987 -0.791461 -0.070762 127 127 0
0.456044 0.477677 0.191908 127 127 0
0.390440 0.012354 0.358942 127 127 0
0.418411 0.183285 -0.308594 127 127 0
-0.392890 -0.404682 0.353134 127 127 0
-0.122274 0.739215 -0.395071 127 127 0
-0.098667 -0.027906 -0.507687 127 127 0
0.138027 0.259530 -0.502647 127 127 0
-0.430563 -0.061629 -0.290141 127 127 0
-0.203703 0.903544 -0.369620 0 255 0
0.404041 0.489552 0.282368 127 127 0
0.326965 -0.135525 -0.402465 127 127 0
-0.509660 -0.520495 0.136782 127 127 0
-0.226809 0.904389 0.110349 0 255 0
0.007059 0.772562 -0.416159 0 255 0
-0.266785 0.463190 -0.412488 127 127 0
-0.448963 -0.484290 -0.266162 127 127 0
0.096410 0.572416 -0.445597 127 127 0
0.275627 0.904389 0.156727 0 255 0
0.145487 -0.810819 -0.347796 127 127 0
-0.438512 -0.801985 0.170058 127 127 0
0.281660 -0.098371 -0.437228 127 127 0
-0.085735 0.624177 0.444071 127 127 0
-0.520297 -0.092428 0.055987 127 127 0
0.509470 -0.396120 -0.132800 127 127 0
-0.521028 0.189094 -0.036539 127 127 0
0.147216 0.904389 -0.363221 0 255 0
-0.130913 -0.810819 -0.098428 127 127 0
0.498599 -0.762869 0.061092 127 127 0
0.363540 -0.480571 -0.374399 127 127 0
0.195483 -0.810819 0.002315 127 127 0
0.478783 -0.790204 0.056895 127 127 0
-0.525550 -0.323925 0.016086 127 127 0
0.450563 0.581146 -0.089915 127 127 0
-0.282958 -0.512758 0.448588 127 127 0
-0.157906 0.336846 0.507478 127 127 0
-0.512766 -0.574020 -0.099294 127 127 0
0.423169 0.518062 0.237795 127 127 0
-0.064264 0.904389 -0.344467 0 255 0
-0.510132 -0.596033 0.133200 127 127 0
-0.048778 0.904389 0.248286 0 255 0
-0.267867 0.803416 -0.362550 0 255 0
-0.514749 0.178048 0.098130 127 127 0
0.232944 0.904389 -0.050352 0 255 0
-0.009605 0.904389 -0.134601 0 255 0
0.388986 -0.801194 -0.258340 127 127 0
0.410509 -0.759351 0.298424 127 127 0
-0.265954 -0.679951 -0.447688 127 127 0
-0.468339 -0.088922 0.241150 127 127 0
0.299146 0.106734 -0.423811 127 127 0
-0.112975 -0.809243 0.455670 127 127 0
0.253040 -0.402417 0.468903 127 127 0
0.336487 0.098248 -0.395157 127 127 0
0.289664 -0.810819 -0.159490 127 127 0
0.331184 -0.602290 -0.399227 127 127 0
-0.212868 -0.810819 0.194058 127 127 0
0.460414 0.000638 -0.251231 127 127 0
0.015956 0.003480 -0.518840 127 127 0
-0.059509 0.120237 -0.512842 127 127 0
0.351585 0.737828 -0.223780 127 127 0
-0.202518 -0.440191 0.488999 127 127 0
-0.320704 0.274033 -0.405729 127 127 0
0.335456 0.003723 -0.395949 127 127 0
0.509467 -0.722075 -0.094913 127 127 0
0.517985 -0.393225 -0.074896 127 127 0
0.409455 -0.304460 -0.320266 127 127 0
-0.474765 -0.118595 0.225638 127 127 0
-0.067382 -0.810819 0.109899 127 127 0
-0.333954 0.904389 -0.097998 0 255 0
-0.239520 0.215828 -0.459777 127 127 0
0.504621 -0.295413 -0.144508 127 127 0
0.511930 0.138468 -0.120887 127 127 0
0.491073 -0.022674 0.191111 127 127 0
-0.407494 0.679626 -0.122952 127 127 0
0.269132 -0.256747 -0.446841 127 127 0
0.507902 0.411318 0.081075 127 127 0
0.086848 0.630309 -0.428330 127 127 0
-0.208232 -0.431903 -0.472736 127 127 0
-0.349469 -0.471609 0.397552 127 127 0
0.129619 0.015554 -0.503876 127 127 0
0.239389 -0.051633 0.474558 127 127 0
0.149705 0.524228 0.461022 127 127 0
-0.249634 0.867159 -0.377629 0 255 0
0.314579 0.783805 -0.314699 0 255 0
-0.092459 -0.699445 0.520996 127 127 0
0.525342 -0.508416 -0.019012 127 127 0
-0.336953 -0.071502 -0.393260 127 127 0
-0.060551 0.904389 0.294435 0 255 0
-0.475160 0.421741 -0.173390 127 127 0
-0.058865 -0.706124 -0.510598 127 127 0
-0.011030 0.531950 -0.469523 127 127 0
-0.290346 -0.440674 0.442919 127 127 0
0.288841 -0.223463 0.445613 127 127 0
0.044531 0.660879 0.438015 127 127 0
0.290129 0.667910 0.328144 127 127 0
0.379639 -0.265621 0.373019 127 127 0
0.164036 0.012672 0.505770 127 127 0
0.166125 -0.313741 -0.491009 127 127 0
-0.319011 -0.810819 -0.071556 127 127 0
-0.460237 -0.082521 -0.246816 127 127 0
0.088786 0.217611 -0.509252 127 127 0
0.058322 -0.201077 0.527158 127 127 0
0.487271 -0.375526 -0.186393 127 127 0
0.233742 -0.304428 0.476897 127 127 0
-0.153002 0.904389 0.034754 0 255 0
-0.362292 0.503710 0.326782 127 127 0
0.114783 0.904389 0.223136 0 255 0
0.165529 -0.247439 -0.491256 127 127 0
-0.474409 0.182223 0.226498 127 127 0
0.006383 0.032772 0.533996 127 127 0
-0.031746 -0.232512 0.530393 127 127 0
-0.395282 -0.810819 -0.011388 127 127 0
0.385334 0.811242 0.258072 0 255 0
0.284490 -0.313017 -0.435056 127 127 0
-0.298080 0.904389 0.271040 0 255 0
-0.414055 0.817283 -0.187397 0 255 0
0.188536 0.904389 -0.013778 0 255 0
-0.469410 0.311733 0.238565 127 127 0
-0.360267 -0.111161 -0.375371 127 127 0
0.165076 -0.810819 -0.155149 127 127 0
-0.301009 0.430966 0.413009 127 127 0
0.329351 -0.721610 -0.393443 127 127 0
-0.522437 -0.510872 -0.025832 127 127 0
0.304340 0.904389 0.212347 0 255 0
-0.131996 -0.810819 -0.162578 127 127 0
-0.398530 0.230188 -0.331889 127 127 0
0.407041 0.752671 0.120524 127 127 0
0.211288 0.594962 -0.397327 127 127 0
0.341630 0.493353 -0.344535 127 127 0
0.304651 0.778518 0.327738 0 255 0
-0.291181 0.475625 0.402691 127 127 0
0.442706 -0.297038 0.290828 127 127 0
0.415703 -0.421986 -0.312122 127 127 0
0.506567 0.139616 0.153705 127 127 0
0.349245 -0.787136 -0.332557 127 127 0
0.074645 0.845942 -0.445144 0 255 0
0.373924 -0.695647 0.378900 127 127 0
0.522662 0.269749 0.053267 127 127 0
0.468597 -0.492829 -0.231478 127 127 0
0.173274 0.661084 -0.390367 127 127 0
-0.516143 0.357399 0.087537 127 127 0
0.480929 -0.245037 -0.201706 127 127 0
0.481055 0.472893 -0.121432 127 127 0
0.486359 -0.177707 -0.188595 127 127 0
0.139669 0.131586 -0.501967 127 127 0
-0.327528 0.904389 0.246114 0 255 0
0.523777 -0.558987 -0.030899 127 127 0
-0.480760 -0.044609 -0.197269 127 127 0
0.050133 -0.784939 -0.475690 127 127 0
0.287112 0.244859 0.446941 127 127 0
0.314471 -0.536458 0.425947 127 127 0
0.058329 -0.810819 0.284550 127 127 0
0.420362 0.746073 -0.014672 127 127 0
-0.344900 0.778378 0.277526 0 255 0
-0.347161 -0.810819 0.113519 127 127 0
0.128307 -0.027139 -0.504049 127 127 0
0.187703 0.569819 0.429626 127 127 0
-0.179521 0.458446 0.470430 127 127 0
0.405091 -0.351224 -0.325953 127 127 0
-0.115676 0.095964 -0.505447 127 127 0
0.243225 0.122909 0.472969 127 127 0
-0.072668 -0.333781 0.525005 127 127 0
-0.332503 0.000965 -0.396675 127 127 0
-0.144701 0.904389 0.344794 0 255 0
-0.461019 -0.542466 0.258822 127 127 0
0.512834 -0.632045 0.127914 127 127 0
0.043204 -0.086170 0.529149 127 127 0
0.476094 -0.499720 0.227274 127 127 0
0.161069 -0.810819 0.052409 127 127 0
0.456574 0.423449 0.235586 127 127 0
0.314348 0.524176 0.367039 127 127 0
0.266449 0.130360 -0.448900 127 127 0
-0.434318 -0.353168 -0.285249 127 127 0
0.453278 0.286915 0.277050 127 127 0
-0.321831 -0.425395 -0.404864 127 127 0
0.208173 -0.657805 0.487488 127 127 0
0.432974 -0.810091 -0.148889 127 127 0
0.330785 -0.569136 -0.399533 127 127 0
-0.134433 -0.759941 0.494210 127 127 0
0.399754 -0.736385 0.329745 127 127 0
-0.058998 0.901676 -0.421622 0 255 0
-0.402718 -0.437382 -0.326430 127 127 0
0.041691 -0.795371 0.481079 127 127 0
0.517008 0.180067 0.096214 127 127 0
0.434361 0.777593 -0.056199 0 255 0
0.440918 -0.717813 0.285503 127 127 0
0.159709 0.206183 0.507562 127 127 0
-0.280344 0.072705 0.450594 127 127 0
-0.288677 0.904389 -0.091670 0 255 0
0.126442 0.696390 -0.397641 127 127 0
0.466030 -0.085069 -0.237674 127 127 0
-0.497906 -0.204391 -0.155874 127 127 0
-0.187190 -0.115815 -0.481452 127 127 0
0.215146 0.079685 -0.470704 127 127 0
-0.228345 -0.280217 0.478301 127 127 0
-0.163348 0.904389 0.096220 0 255 0
0.245839 -0.758795 0.449571 127 127 0
-0.392074 0.649797 -0.184908 127 127 0
0.105178 0.296864 0.520990 127 127 0
-0.123779 0.680208 -0.403470 127 127 0
0.333526 0.038912 -0.397429 127 127 0
0.091958 0.421886 0.508249 127 127 0
-0.235659 0.012993 0.475272 127 127 0
-0.451685 -0.746392 -0.229673 127 127 0
0.497149 -0.223170 -0.162547 127 127 0
0.356495 0.398637 -0.371006 127 127 0
-0.511553 -0.254147 0.122401 127 127 0
0.471024 -0.295778 0.239514 127 127 0
-0.440090 0.050018 0.291621 127 127 0
-0.060030 -0.483721 0.526669 127 127 0
-0.240119 0.448110 0.448879 127 127 0
-0.416305 0.777327 -0.128453 0 255 0
-0.313521 -0.810819 0.007239 127 127 0
-0.228563 0.836829 -0.393521 0 255 0
-0.033389 0.904389 -0.095026 0 255 0
0.503358 -0.599700 0.161452 127 127 0
0.279226 0.819019 0.370550 0 255 0
-0.279564 0.861057 0.368751 0 255 0
-0.443477 0.884213 -0.085674 0 255 0
0.247694 0.860100 0.394745 0 255 0
0.521573 0.057550 -0.047643 127 127 0
0.227347 0.417625 -0.451573 127 127 0
0.036960 -0.234910 -0.516075 127 127 0
-0.342778 0.611165 -0.282316 127 127 0
-0.097992 -0.810819 -0.334790 127 127 0
0.144314 -0.124110 -0.500043 127 127 0
0.032081 -0.716123 -0.512432 127 127 0
0.414831 0.690037 -0.096652 127 127 0
0.105941 -0.780823 0.485463 127 127 0
-0.425768 0.785525 0.146346 0 255 0
0.151112 0.613012 -0.416054 127 127 0
0.080440 0.241005 0.524246 127 127 0
0.514142 -0.513753 0.117982 127 127 0
0.460066 -0.627843 -0.252072 127 127 0
-0.440986 0.617189 0.073703 127 127 0
0.188594 -0.810819 0.034715 127 127 0
-0.379590 -0.810819 -0.206997 127 127 0
-0.484017 0.166198 -0.189404 127 127 0
-0.516578 0.121698 0.084237 127 127 0
-0.125524 0.402634 0.509726 127 127 0
-0.269128 -0.534852 -0.445305 127 127 0
0.040623 0.544619 -0.461837 127 127 0
-0.405555 0.743165 0.119264 127 127 0
-0.327915 -0.062223 0.414091 127 127 0
0.521145 0.156705 -0.050889 127 127 0
0.409774 -0.083067 -0.319850 127 127 0
-0.517458 0.130332 -0.063652 127 127 0
-0.387082 0.083861 -0.346808 127 127 0
-0.229536 0.904389 0.175380 0 255 0
-0.298366 0.599476 0.347650 127 127 0
-0.472001 -0.497400 0.232309 127 127 0
0.010175 -0.810819 0.457318 127 127 0
0.058169 0.904389 -0.168305 0 255 0
0.039578 -0.094681 -0.515730 127 127 0
-0.461115 -0.211995 0.258592 127 127 0
-0.322090 -0.810819 -0.176082 127 127 0
0.145657 -0.488004 0.513383 127 127 0
0.362119 0.904389 -0.173498 0 255 0
-0.241000 0.904389 -0.247131 0 255 0
0.036607 0.904389 0.378713 0 255 0
0.524318 0.136516 0.040686 127 127 0
0.384463 0.904389 -0.066092 0 255 0
-0.342344 -0.156712 -0.389124 127 127 0
0.522399 -0.081709 -0.041366 127 127 0
-0.403678 -0.268298 0.339074 127 127 0
0.330353 0.806699 0.329204 0 255 0
0.208473 0.098707 0.487364 127 127 0
0.349891 -0.810819 0.087213 127 127 0
0.261338 -0.810819 0.197506 127 127 0
0.101641 -0.410246 0.521455 127 127 0
-0.515440 0.191601 -0.078983 127 127 0
-0.316629 0.377621 0.422356 127 127 0
-0.480573 -0.443589 0.211615 127 127 0
-0.091387 -0.424372 0.522541 127 127 0
-0.338613 -0.341957 0.405883 127 127 0
0.281527 -0.600444 -0.437330 127 127 0
-0.342944 0.789283 -0.285033 0 255 0
-0.425676 0.530009 -0.203096 127 127 0
-0.283897 -0.016250 -0.433971 127 127 0
0.485119 -0.610277 -0.191590 127 127 0
0.297019 0.270471 -0.425443 127 127 0
-0.381874 0.000199 -0.353594 127 127 0
-0.146793 -0.417611 0.512081 127 127 0
0.333775 -0.353960 -0.397239 127 127 0
0.356077 0.604441 0.285001 127 127 0
0.263679 -0.810819 0.382386 127 127 0
-0.435047 0.783363 -0.094587 0 255 0
0.449509 0.341486 -0.268066 127 127 0
0.302862 0.053684 0.434855 127 127 0
0.325755 0.212358 -0.403393 127 127 0
-0.100156 0.889774 -0.432578 0 255 0
-0.425908 0.500532 0.240871 127 127 0
-0.239604 -0.096735 0.473637 127 127 0
-0.291381 -0.079543 -0.428229 127 127 0
-0.435707 0.231145 -0.283438 127 127 0
0.063738 0.899287 0.440279 0 255 0
-0.519069 -0.035488 0.065315 127 127 0
0.093572 0.904389 -0.169338 0 255 0
-0.275207 -0.793911 -0.382222 127 127 0
0.288124 -0.468534 0.446164 127 127 0
-0.491924 0.142425 0.184211 127 127 0
0.119307 0.904389 0.163494 0 255 0
0.413803 0.300666 -0.314599 127 127 0
0.031195 -0.810819 0.370322 127 127 0
-0.167614 0.154922 -0.489561 127 127 0
0.230252 -0.728633 -0.456183 127 127 0
-0.397806 0.037984 -0.332831 127 127 0
-0.491637 0.463891 0.061587 127 127 0
0.376693 0.844962 0.269419 0 255 0
-0.144186 -0.713991 0.509010 127 127 0
0.458758 -0.377747 -0.255231 127 127 0
0.076689 0.836756 0.458771 0 255 0
0.365031 -0.425808 -0.373255 127 127 0
-0.345128 0.738536 0.243476 127 127 0
-0.397441 0.251299 0.347203 127 127 0
-0.222694 -0.810819 0.113319 127 127 0
0.229141 0.434808 0.458825 127 127 0
0.246103 0.253270 -0.457881 127 127 0
0.458513 0.828491 0.039436 0 255 0
0.202978 -0.810819 -0.302465 127 127 0
0.017229 0.904389 -0.296474 0 255 0
-0.130063 0.210436 -0.503553 127 127 0
-0.404025 -0.152431 0.338622 127 127 0
-0.321592 0.150928 -0.405047 127 127 0
-0.078717 0.801160 -0.442782 0 255 0
-0.418547 0.677354 -0.084012 127 127 0
0.394628 0.835946 -0.232149 0 255 0
-0.107311 -0.810819 0.061919 127 127 0
0.525291 -0.627650 0.033298 127 127 0
-0.021364 -0.073728 -0.517864 127 127 0
-0.354835 0.044246 -0.379539 127 127 0
-0.005664 -0.350758 -0.519931 127 127 0
-0.181051 -0.250505 -0.483995 127 127 0
0.509515 -0.246128 0.146588 127 127 0
0.432173 -0.808981 0.168259 127 127 0
-0.336720 -0.139766 0.407335 127 127 0
-0.130445 -0.180003 0.517399 127 127 0
0.416664 -0.264066 -0.310870 127 127 0
-0.364374 -0.322705 -0.372220 127 127 0
-0.369519 -0.504178 0.382167 127 127 0
-0.107380 0.498390 -0.467577 127 127 0
-0.192318 -0.324372 -0.479328 127 127 0
-0.046189 -0.290791 0.528491 127 127 0
0.127406 -0.667175 0.518063 127 127 0
-0.001588 -0.810819 -0.375642 127 127 0
-0.153620 0.904389 -0.080333 0 255 0
0.125351 -0.701368 0.516706 127 127 0
0.291290 -0.399094 -0.429839 127 127 0
-0.512721 -0.736092 0.034775 127 127 0
-0.361966 -0.004006 0.387963 127 127 0
-0.072043 0.904389 -0.258156 0 255 0
0.058890 0.904389 -0.069226 0 255 0
0.010924 0.491680 -0.482687 127 127 0
-0.297229 0.093017 -0.423742 127 127 0
-0.061309 -0.810819 0.298667 127 127 0
-0.219724 0.426873 0.464619 127 127 0
0.513950 -0.700661 0.107694 127 127 0
0.426610 0.353427 -0.297908 127 127 0
0.203451 0.307338 0.489444 127 127 0
-0.468062 -0.789396 -0.114730 127 127 0
-0.467522 0.515671 0.118901 127 127 0
0.109809 0.275486 -0.506484 127 127 0
0.129197 0.439518 -0.483808 127 127 0
-0.254135 -0.810819 0.170542 127 127 0
0.316731 -0.457851 -0.410317 127 127 0
0.151517 -0.086534 -0.497060 127 127 0
-0.331711 0.695436 0.266717 127 127 0
-0.331801 0.511344 0.357239 127 127 0
-0.319271 0.904389 0.071133 0 255 0
-0.112186 0.904389 0.114527 0 255 0
-0.343932 0.601745 0.299618 127 127 0
-0.314514 0.638211 0.318952 127 127 0
0.444816 0.212213 -0.274182 127 127 0
-0.137628 -0.600032 -0.501982 127 127 0
-0.427643 0.331522 -0.293947 127 127 0
-0.215465 -0.810819 -0.364891 127 127 0
0.234207 -0.810819 -0.324335 127 127 0
-0.079129 0.244062 0.524155 127 127 0
-0.404112 0.700616 0.127612 127 127 0
0.123316 0.514741 0.474407 127 127 0
-0.459439 0.373029 -0.248742 127 127 0
-0.474577 0.514535 -0.054177 127 127 0
-0.082782 0.840968 -0.443808 0 255 0
0.023491 0.904389 -0.033929 0 255 0
0.495248 -0.297771 0.181033 127 127 0
0.480680 0.158118 -0.202307 127 127 0
0.379311 0.129157 -0.359551 127 127 0
0.477494 0.509426 -0.059679 127 127 0
-0.269603 -0.176959 0.458836 127 127 0
0.409043 0.786956 -0.180923 0 255 0
0.479236 -0.796231 0.009608 127 127 0
-0.245388 0.904389 -0.297813 0 255 0
0.171092 0.160506 -0.488951 127 127 0
-0.427379 -0.466448 -0.294292 127 127 0
0.386677 -0.365640 0.363847 127 127 0
-0.458219 0.867262 0.025208 0 255 0
-0.217971 0.521904 -0.418816 127 127 0
-0.229810 0.904389 0.240574 0 255 0
0.322297 -0.059973 0.419942 127 127 0
-0.410049 0.653429 0.152397 127 127 0
0.159116 -0.792520 0.458990 127 127 0
-0.322685 0.904389 -0.206146 0 255 0
-0.061082 0.462485 0.499058 127 127 0
0.150365 -0.810819 0.148202 127 127 0
0.088154 -0.635951 -0.509335 127 127 0
0.370883 -0.741634 -0.350287 127 127 0
-0.435117 -0.734091 0.282398 127 127 0
-0.524733 -0.165187 0.022293 127 127 0
0.423243 0.898123 0.136416 0 255 0
0.483951 -0.351504 0.208305 127 127 0
0.194037 0.205322 -0.479447 127 127 0
0.096294 -0.084170 -0.508263 127 127 0
-0.370771 -0.025222 -0.367311 127 127 0
-0.390463 0.401216 -0.329590 127 127 0
0.090049 0.523310 0.476045 127 127 0
0.450478 -0.741665 -0.242976 127 127 0
0.152123 0.833939 -0.426015 0 255 0
-0.402428 -0.697896 -0.324815 127 127 0
-0.137950 -0.595531 0.515744 127 127 0
0.120027 -0.620425 -0.505139 127 127 0
-0.211561 -0.810819 0.004562 127 127 0
0.034178 -0.141449 0.530337 127 127 0
-0.172272 -0.810819 -0.392046 127 127 0
0.253025 -0.264349 0.468910 127 127 0
-0.384910 -0.039234 0.363534 127 127 0
-0.037479 -0.810819 0.400995 127 127 0
0.436928 -0.390541 0.298358 127 127 0
0.519476 -0.134073 -0.063573 127 127 0
0.470562 0.470369 0.162917 127 127 0
-0.460795 -0.598048 0.259363 127 127 0
-0.331044 0.506166 -0.345994 127 127 0
-0.190070 -0.810819 -0.105538 127 127 0
-0.311068 0.782547 -0.314060 0 255 0
0.518241 -0.219269 0.086844 127 127 0
-0.400703 0.828120 -0.219630 0 255 0
-0.403489 0.272359 -0.325426 127 127 0
0.403092 0.782678 0.198533 0 255 0
0.414030 0.894649 -0.156791 0 255 0
-0.123840 0.041403 0.518268 127 127 0
0.241203 -0.002965 -0.459910 127 127 0
-0.044257 0.904389 -0.284705 0 255 0
0.492332 -0.770891 -0.055667 127 127 0
-0.109265 0.298697 0.520187 127 127 0
0.137724 0.904389 0.090585 0 255 0
0.230199 0.048802 0.478364 127 127 0
-0.229191 -0.610946 0.477951 127 127 0
-0.036126 -0.140250 -0.515920 127 127 0
-0.054368 -0.810819 -0.018434 127 127 0
0.523726 0.226968 -0.031291 127 127 0
0.052549 0.515680 -0.469527 127 127 0
0.012823 -0.810819 -0.024918 127 127 0
0.370569 0.904389 0.105507 0 255 0
0.174140 -0.091315 0.501585 127 127 0
0.138074 -0.048683 0.516524 127 127 0
-0.237224 0.903127 0.364038 0 255 0
0.367683 -0.159533 0.385116 127 127 0
0.456765 -0.059511 -0.258610 127 127 0
0.448386 0.624057 0.016046 127 127 0
-0.049409 0.858163 -0.448202 0 255 0
-0.037270 -0.611159 -0.515770 127 127 0
-0.315009 -0.089251 0.423994 127 127 0
0.442443 -0.780140 -0.204201 127 127 0
0.528723 -0.141930 0.007228 127 127 0
-0.222175 0.904389 0.044515 0 255 0
-0.487229 -0.148740 -0.181650 127 127 0
-0.448607 -0.380287 0.280522 127 127 0
0.065849 -0.304146 0.526167 127 127 0
0.111242 -0.460876 -0.506295 127 127 0
-0.137195 0.784968 -0.419795 0 255 0
0.468311 -0.613243 0.246063 127 127 0
0.475310 -0.190067 -0.215271 127 127 0
0.467441 0.539501 0.076840 127 127 0
0.011452 0.904389 0.251012 0 255 0
-0.458160 -0.742988 0.231929 127 127 0
0.021429 0.904389 -0.355688 0 255 0
-0.235176 -0.106255 -0.461576 127 127 0
-0.418140 0.739050 -0.016309 127 127 0
-0.245793 -0.061920 0.471074 127 127 0
0.064257 -0.810598 -0.446783 127 127 0
0.526648 -0.243229 -0.009089 127 127 0
0.506630 0.426298 0.054322 127 127 0
-0.428915 -0.544725 0.306185 127 127 0
0.257099 0.904389 -0.218301 0 255 0
0.383485 0.904389 0.048170 0 255 0
-0.347323 0.030787 0.399199 127 127 0
0.168198 0.051300 0.504046 127 127 0
0.170086 -0.595860 0.503264 127 127 0
-0.231127 0.876132 0.403775 0 255 0
0.450117 0.888708 0.042079 0 255 0
0.446834 0.014152 0.285449 127 127 0
0.020751 0.693540 0.430694 127 127 0
0.202972 -0.369776 0.489642 127 127 0
-0.439538 0.838779 -0.125876 0 255 0
0.207018 -0.050409 0.487966 127 127 0
0.320076 0.696080 0.284160 127 127 0
-0.487825 -0.713164 0.184506 127 127 0
-0.519517 -0.138812 -0.048018 127 127 0
0.278005 0.033638 0.453929 127 127 0
-0.145152 -0.484425 0.512761 127 127 0
-0.413203 -0.803848 0.225585 127 127 0
-0.052406 -0.657943 -0.513777 127 127 0
-0.190861 -0.578656 -0.479932 127 127 0
-0.423314 0.900531 0.118984 0 255 0
-0.460949 0.547982 -0.076394 127 127 0
0.244033 -0.216666 -0.458738 127 127 0
0.381298 -0.300708 -0.356960 127 127 0
-0.478071 0.093758 -0.203760 127 127 0
-0.047348 -0.810819 0.078138 127 127 0
0.497825 -0.710806 0.166403 127 127 0
-0.374750 0.901556 -0.214781 0 255 0
0.311977 0.154744 -0.413965 127 127 0
0.421871 0.638263 0.141275 127 127 0
-0.519294 -0.608686 -0.049708 127 127 0
-0.269505 -0.188151 -0.445015 127 127 0
-0.231428 -0.389306 -0.463128 127 127 0
0.082695 0.695917 0.421779 127 127 0
-0.059467 -0.662950 0.526743 127 127 0
-0.526248 -0.580029 0.003115 127 127 0
-0.286921 -0.362221 -0.431651 127 127 0
0.438108 0.433301 0.267287 127 127 0
0.485908 -0.113895 -0.189684 127 127 0
-0.467937 -0.699485 0.238472 127 127 0
-0.520302 -0.562361 0.055950 127 127 0
-0.474155 0.510793 0.080372 127 127 0
-0.515043 0.316669 0.095895 127 127 0
0.252436 0.904389 -0.115771 0 255 0
-0.270425 0.515671 -0.388708 127 127 0
0.372024 0.667715 -0.217346 127 127 0
-0.413670 0.436485 -0.280965 127 127 0
-0.477362 -0.579338 -0.205473 127 127 0
0.307500 -0.256402 -0.417400 127 127 0
0.287612 -0.765804 -0.401600 127 127 0
-0.511733 -0.138477 -0.107137 127 127 0
0.524231 -0.622639 -0.027450 127 127 0
0.192559 0.336089 -0.480059 127 127 0
0.293452 -0.258088 0.442075 127 127 0
0.003790 0.475631 0.502658 127 127 0
0.389280 0.707181 0.163401 127 127 0
0.043102 0.904389 0.295960 0 255 0
0.527830 0.115282 -0.000117 127 127 0
0.074396 0.904389 -0.010979 0 255 0
0.044773 0.794294 -0.444786 0 255 0
0.528306 0.244716 0.010392 127 127 0
-0.250249 -0.458354 -0.455332 127 127 0
0.518177 -0.510206 0.087336 127 127 0
-0.303704 0.300122 -0.418773 127 127 0
-0.093525 -0.810819 -0.104386 127 127 0
0.296592 0.614525 -0.330637 127 127 0
0.394978 0.904389 -0.110946 0 255 0
0.471743 -0.024943 -0.223881 127 127 0
-0.233746 0.072461 0.476064 127 127 0
-0.175095 -0.144453 0.500358 127 127 0
0.176937 0.904389 -0.140741 0 255 0
0.063630 -0.515245 0.526460 127 127 0
-0.523099 -0.047592 -0.020805 127 127 0
-0.356013 0.335059 0.392531 127 127 0
-0.273506 0.184688 -0.441945 127 127 0
-0.137258 -0.810819 0.410632 127 127 0
-0.172900 0.580103 0.431395 127 127 0
-0.443758 -0.775000 -0.206448 127 127 0
0.382673 0.291046 -0.355169 127 127 0
-0.203552 0.740660 0.375300 127 127 0
0.183980 0.904389 0.164026 0 255 0
-0.254612 -0.723241 0.460761 127 127 0
-0.091524 -0.810819 -0.210394 127 127 0
-0.220936 -0.206726 -0.467474 127 127 0
0.009811 -0.647574 0.533545 127 127 0
-0.016984 -0.435295 0.532336 127 127 0
0.357150 -0.797957 -0.305382 127 127 0
-0.136454 0.408526 -0.491516 127 127 0
-0.140642 0.845121 -0.429939 0 255 0
-0.462679 -0.799647 0.092787 127 127 0
-0.147624 -0.291458 -0.497841 127 127 0
-0.012668 -0.792506 -0.473531 127 127 0
-0.021523 0.904389 -0.316791 0 255 0
-0.231492 0.367343 -0.463102 127 127 0
-0.251552 0.814438 0.390245 0 255 0
0.477858 -0.076386 0.223014 127 127 0
-0.015119 0.345385 0.532582 127 127 0
0.454725 0.846639 0.068210 0 255 0
-0.482213 -0.208128 0.207657 127 127 0
