ply
format ascii 1.0
element vertex 1271
property float x
property float y
property float z
property uchar red
property uchar green
property uchar blue
end_header
0.110755 0.346509 -0.317141 76 0 153
0.592429 -0.268830 0.402378 127 0 127
-0.720529 0.381513 0.130700 76 0 153
0.082057 0.280665 0.402378 127 0 127
0.284680 0.403391 0.452792 127 0 127
0.831674 0.250961 0.307021 76 153 0
0.385786 0.272419 0.454884 127 0 127
0.836049 0.392939 0.427377 127 0 127
0.127756 -0.388583 -0.051341 153 76 0
0.830441 -0.130048 0.402378 153 0 76
0.831674 0.011157 0.283019 76 153 0
0.312135 -0.295698 -0.402722 76 0 153
-0.217815 -0.353578 0.224659 153 76 0
-0.425203 -0.388583 -0.118737 153 76 0
-0.313236 -0.388583 -0.000705 153 76 0
0.384187 -0.353578 -0.145457 153 76 0
-0.733365 0.346509 -0.315717 76 0 153
0.298102 0.117863 0.402378 127 0 127
0.266317 0.381513 0.201179 76 0 153
0.003690 -0.388583 -0.277030 153 76 0
-0.778526 -0.354702 -0.278213 153 0 76
0.016799 0.416517 -0.421956 255 0 0
-0.053139 0.346509 -0.304227 76 0 153
-0.071047 -0.388583 0.324608 153 76 0
-0.726020 -0.268573 0.352771 204 51 127
0.749582 -0.360295 0.349871 153 0 76
0.047472 -0.316180 0.402378 127 0 127
0.612790 0.098674 -0.402722 76 0 153
0.185924 0.381513 0.329441 76 0 153
0.831674 0.324646 -0.290152 76 153 0
-0.495888 -0.269684 0.454884 127 0 127
-0.295294 0.348130 0.454884 127 0 127
0.830821 -0.423586 -0.110775 76 153 0
-0.539238 0.346509 -0.103251 76 0 153
-0.145529 0.051940 -0.376469 76 0 153
-0.102914 0.381513 -0.106999 76 0 153
-0.534523 0.143058 -0.376469 76 0 153
0.796669 -0.237378 0.185067 76 153 0
-0.484710 0.346509 0.079497 76 0 153
-0.359595 0.102151 -0.376469 76 0 153
0.482233 0.346509 0.120616 76 0 153
-0.467419 0.315842 0.349871 127 127 0
0.372227 0.160076 -0.376469 76 0 153
0.585022 0.286350 -0.402722 255 0 0
0.694424 -0.097373 0.402378 127 0 127
0.831674 0.330939 -0.050198 76 153 0
-0.673189 -0.353578 0.111578 153 76 0
-0.798400 -0.100680 -0.437727 153 0 76
0.722286 0.311504 0.352944 127 127 0
0.063788 -0.053190 0.402378 127 0 127
0.508961 0.381513 -0.332759 76 0 153
-0.701079 -0.353578 0.243230 153 76 0
-0.778526 0.153683 0.330571 153 0 76
-0.460778 -0.388583 0.153185 153 76 0
0.079363 0.346509 -0.074170 76 0 153
-0.137646 0.381513 0.046425 76 0 153
-0.669664 -0.319221 0.454884 127 0 127
0.831674 0.111818 0.078717 76 153 0
-0.399655 0.115863 0.402378 127 0 127
-0.831033 -0.412371 0.390653 204 51 127
-0.778526 0.107800 -0.321560 153 0 76
-0.541950 -0.413082 -0.437727 0 0 255
-0.093662 0.339423 0.402378 127 0 127
0.831674 0.002546 -0.300070 76 153 0
-0.640345 0.400076 0.402378 127 127 0
-0.019982 -0.388583 0.053608 153 76 0
0.729527 0.051907 -0.402722 76 0 153
0.089875 0.318926 0.535832 0 127 127
0.134935 0.270596 -0.437727 255 0 0
0.426425 -0.318574 0.352253 0 255 0
0.493953 0.381513 -0.108175 76 0 153
-0.778526 -0.302816 -0.081714 153 0 76
-0.724829 -0.197420 0.454884 127 0 127
-0.813531 0.015482 -0.090599 153 0 76
-0.206609 -0.333273 0.454884 127 0 127
0.519111 0.256852 0.454884 127 0 127
0.475594 0.003672 0.402378 127 0 127
0.717518 0.346509 -0.197013 76 0 153
-0.796200 -0.423586 -0.024868 153 0 76
0.121152 0.167516 0.428631 127 0 127
0.712205 -0.353578 0.161715 153 76 0
-0.233405 -0.132265 -0.376469 76 0 153
-0.279093 0.346509 -0.157043 76 0 153
-0.342372 0.283387 -0.376469 76 0 153
-0.791357 0.168902 -0.437727 153 0 76
0.700937 0.416517 -0.429186 255 0 0
-0.411916 0.293322 0.454884 127 0 127
0.831674 -0.094585 0.043689 76 153 0
0.341820 0.299126 -0.376469 76 0 153
0.831674 -0.292873 -0.024057 76 153 0
0.034178 0.411061 0.402378 127 127 0
-0.595616 0.381513 -0.327211 76 0 153
0.696591 0.083212 0.454884 127 0 127
0.455929 0.311504 0.365361 127 127 0
0.478683 -0.388583 -0.357336 153 76 0
0.146026 -0.272183 0.454884 127 0 127
0.530679 -0.388583 0.130184 153 76 0
-0.676608 -0.388583 -0.211694 153 76 0
-0.724517 0.381513 0.311364 76 0 153
-0.813531 -0.138565 0.169933 153 0 76
-0.813531 -0.299168 0.126356 153 0 76
0.277895 -0.092607 -0.402722 76 0 153
0.595342 -0.353578 -0.158354 153 76 0
-0.297495 0.381513 0.151052 76 0 153
0.692091 0.381513 0.261672 76 0 153
-0.726020 -0.026142 0.350167 204 51 127
0.395761 -0.388583 -0.030971 153 76 0
-0.700819 -0.404428 -0.437727 0 0 255
-0.587376 0.346509 0.148755 76 0 153
-0.778526 0.296296 -0.216453 153 0 76
-0.510032 -0.086245 0.402378 127 0 127
-0.147001 0.381513 0.284563 76 0 153
0.402467 0.416517 0.369249 127 127 0
-0.185875 -0.353578 -0.081844 153 76 0
0.790171 -0.303521 -0.437727 0 0 255
0.364055 -0.388583 0.270681 153 76 0
0.822143 0.107650 0.454884 127 0 127
-0.559813 -0.388583 0.077474 153 76 0
-0.704023 -0.168157 -0.376469 76 0 153
0.286451 0.346509 0.001518 76 0 153
-0.306826 0.051297 0.428631 127 0 127
-0.454377 0.317971 -0.402722 76 0 153
0.529769 0.176001 -0.376469 76 0 153
-0.359721 -0.353578 -0.358459 153 76 0
-0.327955 -0.334766 0.349871 0 255 0
0.095131 0.346509 0.097904 76 0 153
0.220207 0.101398 -0.376469 76 0 153
0.379005 -0.154727 0.428631 127 0 127
-0.654593 0.109570 0.402378 127 0 127
-0.813531 0.166170 -0.027182 153 0 76
0.796669 0.224134 -0.330018 76 153 0
-0.589449 0.044084 -0.376469 76 0 153
0.546362 -0.297698 -0.376469 76 0 153
0.796669 -0.126132 0.152314 76 153 0
-0.510075 -0.353578 -0.313457 153 76 0
0.449385 0.364054 -0.437727 255 0 0
0.796669 -0.329807 0.092004 76 153 0
0.831674 -0.218838 -0.233545 76 153 0
-0.813531 0.362138 -0.102323 153 0 76
0.343330 -0.388583 0.148973 153 76 0
-0.083600 0.071747 0.402378 127 0 127
-0.778526 0.184805 -0.210137 153 0 76
0.255491 0.334345 -0.437727 255 0 0
0.228219 -0.388583 -0.189107 153 76 0
0.017984 -0.423587 0.397027 0 255 0
0.247109 -0.420659 -0.402722 0 0 255
0.579468 -0.388583 -0.310038 153 76 0
0.148963 -0.353578 0.213331 153 76 0
-0.402621 -0.058483 -0.402722 76 0 153
-0.813531 0.058258 0.128027 153 0 76
0.519997 -0.173629 -0.376469 76 0 153
0.086648 -0.353578 -0.341189 153 76 0
-0.537596 0.416517 0.365286 127 127 0
-0.203167 0.311504 0.354340 127 127 0
-0.033599 -0.242001 0.402378 127 0 127
0.386935 0.346509 0.195433 76 0 153
0.201351 -0.353578 -0.293850 153 76 0
-0.068303 -0.317110 -0.437727 0 0 255
0.226776 -0.423587 0.371380 0 255 0
0.589415 0.363132 0.454884 127 0 127
-0.538874 0.244509 0.402378 127 0 127
0.796669 0.102457 -0.083638 76 153 0
-0.654160 -0.094932 0.454884 127 0 127
-0.598863 -0.404596 0.454884 127 0 127
0.796669 0.239303 0.087102 76 153 0
-0.148305 -0.318574 0.357058 0 255 0
0.750040 -0.216138 0.349871 153 0 76
0.242156 -0.343314 0.454884 127 0 127
-0.778526 -0.192677 -0.069685 153 0 76
0.216171 -0.236736 -0.437727 0 0 255
-0.569572 -0.311042 -0.402722 76 0 153
-0.423032 -0.334956 0.402378 127 0 127
0.831674 -0.123582 -0.349264 76 153 0
0.744163 0.001378 0.355145 153 0 76
-0.813531 0.161394 0.084980 153 0 76
0.742474 0.317361 -0.437727 255 0 0
0.422861 -0.368498 0.454884 127 0 127
0.212380 0.346509 0.102213 76 0 153
0.071389 0.346509 0.302567 76 0 153
0.350038 -0.289276 0.454884 127 0 127
0.831674 -0.051797 -0.142844 76 153 0
-0.557167 -0.388583 -0.043790 153 76 0
0.518695 0.416283 0.349871 127 127 0
-0.506437 -0.409837 0.349871 0 255 0
-0.163788 -0.388583 0.137638 153 76 0
0.732342 0.282926 0.454884 127 0 127
0.640476 -0.012646 0.454884 127 0 127
0.268856 0.007275 0.402378 127 0 127
0.381354 0.057839 0.428631 127 0 127
-0.234196 0.410822 -0.402722 255 0 0
0.379945 -0.062490 -0.402722 76 0 153
-0.721653 0.038224 0.454884 127 0 127
0.761176 -0.318142 0.454884 127 0 127
-0.032329 -0.388583 -0.166491 153 76 0
-0.455612 0.403391 0.450695 127 0 127
0.834091 -0.423586 0.350163 153 0 76
-0.813531 -0.314534 0.302011 153 0 76
0.796669 -0.195745 -0.437129 76 153 0
-0.831033 0.411058 0.369623 204 51 127
-0.117531 0.312737 -0.402722 255 0 0
-0.813531 0.080160 0.263949 153 0 76
-0.778526 0.245178 0.279007 153 0 76
0.224405 0.381513 -0.079769 76 0 153
0.030082 -0.353578 0.203478 153 76 0
0.538347 0.157054 0.402378 127 0 127
-0.255424 -0.278010 -0.376469 76 0 153
-0.393404 0.381513 -0.192205 76 0 153
-0.019157 -0.126017 0.402378 127 0 127
-0.387043 -0.423587 0.361425 0 255 0
0.796669 -0.322006 -0.253121 76 153 0
0.433396 0.381513 -0.011335 76 0 153
-0.363662 0.314892 0.349871 127 127 0
0.097395 -0.261642 -0.437727 0 0 255
0.797799 -0.423586 0.140674 76 153 0
-0.503361 0.346509 0.244856 76 0 153
-0.813531 -0.149054 -0.227686 153 0 76
-0.813531 -0.301768 -0.370442 153 0 76
0.123564 0.381513 -0.216162 76 0 153
0.796669 0.298583 -0.141427 76 153 0
-0.346075 -0.289647 -0.437727 0 0 255
-0.333678 -0.388583 0.261815 153 76 0
-0.089502 -0.186815 -0.402722 76 0 153
-0.147083 -0.410460 0.412518 127 0 127
0.405068 0.381513 -0.346974 76 0 153
0.425363 -0.421017 0.349871 0 255 0
-0.740901 0.302565 0.454884 127 0 127
-0.047811 -0.011708 -0.402722 76 0 153
0.065989 -0.388583 -0.132943 153 76 0
0.831674 -0.368742 -0.370572 76 153 0
-0.778526 -0.337285 0.038200 153 0 76
-0.074492 0.346509 -0.204299 76 0 153
0.665951 -0.423587 0.355732 0 255 0
-0.525772 0.381513 -0.200583 76 0 153
0.796669 -0.283749 0.275895 76 153 0
-0.726614 -0.132996 0.349871 204 51 127
0.604136 0.346509 -0.314134 76 0 153
0.748176 -0.353578 -0.161978 153 76 0
0.319993 0.346509 -0.183486 76 0 153
0.822701 0.416517 0.179802 76 153 0
0.605518 -0.353578 -0.031559 153 76 0
-0.593268 -0.113753 -0.402722 76 0 153
-0.079246 -0.417878 -0.437727 0 0 255
0.555157 -0.353578 0.322675 153 76 0
-0.813531 0.342631 0.125709 153 0 76
-0.813531 -0.029871 -0.364975 153 0 76
0.626023 -0.155588 0.451461 127 0 127
-0.253618 0.381513 0.048783 76 0 153
0.387147 -0.353578 -0.333980 153 76 0
0.796669 0.414151 -0.259951 76 153 0
0.796669 0.098598 -0.266832 76 153 0
0.015239 0.177051 -0.376469 76 0 153
0.849176 -0.026338 0.374481 153 0 76
-0.318284 0.381513 -0.050474 76 0 153
0.282682 -0.109101 0.402378 127 0 127
-0.813531 0.318234 -0.380512 153 0 76
-0.778526 0.320555 -0.013257 153 0 76
0.457822 -0.098708 0.402378 127 0 127
-0.228504 0.193365 0.404866 127 0 127
0.589042 0.346509 -0.095207 76 0 153
-0.248933 -0.353578 0.100162 153 76 0
-0.164083 -0.343556 -0.437727 0 0 255
0.480468 0.346509 -0.201061 76 0 153
-0.475979 0.381513 -0.013020 76 0 153
0.741675 -0.388583 -0.317999 153 76 0
0.139923 -0.418548 -0.437727 0 0 255
-0.145153 0.381513 -0.314334 76 0 153
0.817229 -0.235564 0.454884 127 0 127
0.831674 0.053056 -0.431684 76 153 0
-0.390208 -0.353578 0.066012 153 76 0
0.658442 -0.320004 0.349871 0 255 0
-0.728811 -0.388583 -0.095586 153 76 0
0.614027 -0.353578 0.175528 153 76 0
-0.077633 0.346509 0.219250 76 0 153
-0.788687 -0.199520 -0.437727 153 0 76
0.796669 0.075865 0.209191 76 153 0
0.525400 -0.388583 0.032072 153 76 0
0.059128 -0.164859 -0.376469 76 0 153
-0.479350 0.058660 0.402378 127 0 127
-0.654950 0.208158 -0.437727 255 0 0
-0.512455 0.216949 -0.437727 255 0 0
-0.346235 -0.109609 0.428631 127 0 127
-0.313624 0.206491 -0.429660 255 0 0
0.176563 -0.195549 0.402378 127 0 127
-0.778526 -0.091140 0.266714 153 0 76
0.169717 -0.353578 0.037920 153 76 0
-0.479916 -0.353578 -0.191425 153 76 0
0.092566 0.055041 -0.376469 76 0 153
-0.813531 0.257736 0.173481 153 0 76
-0.720930 0.381513 -0.184225 76 0 153
-0.335200 -0.353578 -0.222278 153 76 0
-0.696061 0.346509 0.225173 76 0 153
0.171388 0.318843 0.402378 127 0 127
0.684566 0.381513 0.164629 76 0 153
-0.778526 -0.056610 0.131508 153 0 76
0.761529 0.415082 0.349871 153 0 76
-0.390511 -0.248523 0.445080 127 0 127
-0.136991 0.167773 0.428631 127 0 127
-0.235084 -0.181667 0.402378 127 0 127
0.378000 0.368847 0.454884 127 0 127
-0.180257 -0.006532 0.402378 127 0 127
0.651154 0.416517 0.359257 127 127 0
-0.004340 0.268105 0.454884 127 0 127
-0.831033 -0.054047 0.378811 204 51 127
-0.802972 0.416517 -0.299658 153 0 76
0.551892 0.024824 -0.402722 76 0 153
0.392987 -0.388583 -0.233706 153 76 0
-0.582642 -0.388583 0.296897 153 76 0
-0.732423 0.068848 0.349871 204 51 127
-0.593124 -0.353578 -0.264918 153 76 0
-0.726206 0.022926 -0.402722 76 0 153
0.526350 -0.174715 0.428631 127 0 127
-0.778526 0.138543 -0.110924 153 0 76
0.614781 -0.146997 -0.376469 76 0 153
-0.665666 -0.278822 -0.376469 76 0 153
-0.025162 -0.008408 0.428631 127 0 127
-0.282894 0.411192 0.349871 127 127 0
-0.541919 -0.037930 -0.376469 76 0 153
-0.778526 -0.365443 0.191074 153 0 76
-0.616096 0.346509 -0.048785 76 0 153
0.743039 -0.049364 -0.402722 76 0 153
0.849176 0.329556 0.355312 153 0 76
-0.778526 -0.023493 -0.168460 153 0 76
0.796669 -0.052776 0.215589 76 153 0
-0.398796 0.381513 -0.362228 76 0 153
0.327231 0.206698 0.402378 127 0 127
-0.230531 -0.388583 -0.194770 153 76 0
-0.605999 0.330883 0.349871 127 127 0
0.074877 0.345120 -0.437727 255 0 0
-0.778526 -0.157570 0.085507 153 0 76
-0.112865 0.139368 -0.376469 76 0 153
-0.817906 -0.162629 0.441947 127 0 127
0.831674 0.030253 0.032069 76 153 0
0.750540 0.208159 0.402378 153 0 76
0.269570 -0.191566 -0.376469 76 0 153
-0.237336 0.049438 -0.402722 76 0 153
0.732681 0.381513 -0.006511 76 0 153
-0.456221 0.213039 0.440499 127 0 127
0.737424 -0.388583 0.049636 153 76 0
0.796669 0.415298 -0.067396 76 153 0
-0.406554 0.381513 0.288396 76 0 153
0.849176 0.184747 0.382051 153 0 76
0.170165 -0.388583 0.299526 153 76 0
-0.405517 -0.150857 -0.402722 76 0 153
-0.778526 -0.056396 -0.044246 153 0 76
-0.083062 -0.388583 -0.013914 153 76 0
0.831674 0.197095 -0.115307 76 153 0
-0.028238 -0.388583 -0.363622 153 76 0
-0.740725 -0.345877 0.402378 127 0 127
0.069545 -0.353578 0.011059 153 76 0
-0.012482 0.381513 -0.090187 76 0 153
0.547040 -0.329127 0.454884 127 0 127
-0.713853 -0.353578 -0.353511 153 76 0
0.175876 -0.353578 -0.122671 153 76 0
-0.727909 0.381513 0.032980 76 0 153
0.734070 0.139285 -0.376469 76 0 153
0.831674 0.156387 0.289821 76 153 0
0.683998 -0.423587 -0.421300 0 0 255
-0.737475 0.217768 0.402378 204 51 127
-0.190470 -0.423118 -0.402722 0 0 255
0.796669 0.322543 0.051272 76 153 0
0.568707 0.346509 0.093856 76 0 153
0.391268 -0.252341 -0.376469 76 0 153
-0.214283 0.223809 -0.437727 255 0 0
-0.166178 -0.388583 -0.264230 153 76 0
0.668899 -0.288325 0.454884 127 0 127
-0.607880 0.199710 0.442313 127 0 127
-0.096261 0.266578 0.454884 127 0 127
0.192998 -0.353578 0.135083 153 76 0
0.290952 -0.318574 0.381589 0 255 0
-0.607880 -0.245906 0.452692 127 0 127
0.654188 0.280507 0.402378 127 0 127
-0.813531 -0.250330 -0.275866 153 0 76
0.718258 -0.250414 -0.437727 0 0 255
0.831674 0.317187 0.242042 76 153 0
0.655935 0.344032 -0.402722 76 0 153
-0.232129 0.381513 -0.294016 76 0 153
-0.677453 0.292287 -0.376469 76 0 153
0.282365 0.311504 0.400437 127 127 0
-0.018709 0.311504 0.354394 127 127 0
0.277531 -0.388583 0.307647 153 76 0
-0.315477 -0.109496 -0.402722 76 0 153
0.430910 -0.353578 0.169184 153 76 0
0.831674 0.329428 -0.379290 76 153 0
-0.139125 -0.353578 0.265224 153 76 0
0.394453 0.219955 -0.437727 255 0 0
0.761048 -0.388583 0.266321 153 76 0
-0.813531 0.029937 -0.298418 153 0 76
0.552803 0.381513 0.260522 76 0 153
0.138023 -0.078962 -0.402722 76 0 153
-0.735879 0.303054 0.349871 204 51 127
0.246991 0.416517 -0.407089 255 0 0
-0.734539 0.359832 -0.402722 255 0 0
-0.113293 -0.272724 -0.376469 76 0 153
0.755691 0.381513 0.111036 76 0 153
0.516559 -0.353330 -0.437727 0 0 255
0.031606 0.155818 0.402378 127 0 127
0.211193 0.131822 0.402378 127 0 127
0.114243 0.416517 0.366945 127 127 0
0.625880 0.346509 -0.014041 76 0 153
-0.805848 0.071868 0.454884 127 0 127
0.024525 0.381513 -0.283768 76 0 153
0.847022 0.093400 0.349871 153 0 76
-0.817906 0.190137 0.429937 127 0 127
0.179655 0.314240 -0.376469 76 0 153
-0.822029 -0.237651 0.349871 204 51 127
0.507863 -0.353578 -0.157439 153 76 0
0.488176 0.086266 0.428631 127 0 127
-0.748284 0.217275 -0.376469 76 0 153
0.796669 -0.086153 0.334778 76 153 0
0.047848 0.381513 0.208537 76 0 153
-0.152912 0.352989 0.464563 0 127 127
-0.181441 0.346509 -0.140106 76 0 153
-0.748966 -0.353578 -0.179033 153 76 0
-0.813531 -0.014648 0.303536 153 0 76
-0.110668 0.381513 0.128848 76 0 153
0.067830 0.350810 0.454884 127 0 127
-0.792280 0.416517 0.165758 153 0 76
-0.053177 0.381513 -0.385095 76 0 153
0.079180 0.346509 0.012273 76 0 153
0.334633 -0.353578 0.048277 153 76 0
-0.509370 -0.353578 0.254725 153 76 0
0.627694 -0.300773 -0.437727 0 0 255
-0.329611 -0.421285 -0.402722 0 0 255
0.796669 0.135792 -0.436657 76 153 0
-0.455412 0.108818 -0.376469 76 0 153
0.412905 0.381513 -0.146338 76 0 153
-0.087827 -0.388583 -0.100572 153 76 0
-0.765012 -0.388583 0.331618 153 76 0
-0.531905 0.346509 -0.378012 76 0 153
0.250557 0.416517 0.374043 127 127 0
-0.672758 -0.342517 0.349871 0 255 0
0.672438 -0.388583 -0.141693 153 76 0
0.088878 -0.347017 -0.437727 0 0 255
0.068119 -0.380786 0.454884 127 0 127
0.584533 0.208129 -0.437727 255 0 0
-0.523144 -0.213561 -0.432775 0 0 255
-0.799805 0.416517 0.290096 153 0 76
-0.475802 -0.371545 -0.402722 0 0 255
0.599525 -0.371549 0.402378 0 255 0
0.752202 -0.410461 0.442256 127 0 127
0.375746 0.381513 0.275862 76 0 153
-0.019640 -0.322481 0.349871 0 255 0
0.100691 -0.423587 0.376533 0 255 0
0.654068 0.381513 -0.254673 76 0 153
0.372010 0.311504 0.380478 127 127 0
-0.156488 -0.117584 0.428631 127 0 127
0.796669 -0.242867 -0.096046 76 153 0
-0.232676 -0.327025 0.349871 0 255 0
0.559512 -0.388583 -0.226952 153 76 0
0.768100 0.346509 0.290608 76 0 153
0.153364 0.346509 -0.115676 76 0 153
-0.295852 -0.334113 0.454884 127 0 127
0.304578 -0.353578 -0.178402 153 76 0
0.145832 0.249747 0.448589 127 0 127
0.831674 -0.207318 0.288288 76 153 0
-0.074125 -0.388583 -0.243016 153 76 0
-0.278595 0.311075 -0.437727 255 0 0
-0.396740 -0.388583 -0.039217 153 76 0
-0.626022 0.381513 -0.126444 76 0 153
-0.648589 -0.388583 -0.124496 153 76 0
0.658866 0.145069 0.402378 127 0 127
0.711850 0.268382 -0.376469 76 0 153
-0.510161 0.381513 0.168632 76 0 153
0.316048 -0.388583 -0.365392 153 76 0
0.796669 0.143574 -0.194759 76 153 0
-0.171334 -0.028670 -0.402722 76 0 153
-0.813531 -0.422821 -0.312841 153 0 76
0.326518 0.346509 -0.288809 76 0 153
0.796669 -0.367038 -0.041505 76 153 0
-0.397444 0.022443 -0.376469 76 0 153
-0.778526 -0.223553 0.144016 153 0 76
0.503338 0.228864 -0.437727 255 0 0
-0.813531 0.337963 0.326145 153 0 76
0.135253 -0.018451 0.428631 127 0 127
-0.500143 -0.353578 -0.106160 153 76 0
-0.222276 0.381513 0.233131 76 0 153
0.135470 -0.345788 0.402378 127 0 127
0.191126 0.346509 -0.278280 76 0 153
0.525964 0.350204 0.402378 127 0 127
0.376048 -0.336168 -0.437727 0 0 255
-0.271833 0.254223 0.454884 127 0 127
0.440629 -0.001988 -0.402722 76 0 153
-0.087817 -0.353578 0.086298 153 76 0
0.796669 0.401621 -0.343010 76 153 0
-0.403327 -0.388583 0.216836 153 76 0
-0.626455 0.337470 0.454884 127 0 127
-0.059290 0.403391 0.442117 127 0 127
-0.813531 -0.152644 -0.006276 153 0 76
-0.008571 -0.388583 0.135469 153 76 0
-0.297787 0.147192 0.428631 127 0 127
0.249470 0.346509 0.274107 76 0 153
-0.264436 -0.223331 -0.437727 0 0 255
0.831674 0.244892 0.198733 76 153 0
-0.778526 -0.183200 0.291706 153 0 76
0.515725 0.314021 -0.437727 255 0 0
-0.183406 0.356215 -0.437727 255 0 0
-0.744272 -0.091000 -0.376469 76 0 153
-0.079467 0.416517 0.356915 127 127 0
0.503893 -0.318574 0.385280 0 255 0
0.072947 0.206491 -0.426492 255 0 0
0.295038 0.153243 -0.402722 76 0 153
0.549312 -0.353578 0.227388 153 76 0
0.796669 -0.153300 -0.159081 76 153 0
0.241919 -0.353578 -0.006716 153 76 0
-0.020072 -0.353578 0.271248 153 76 0
0.796669 -0.010262 -0.203803 76 153 0
-0.257318 -0.410460 0.441649 127 0 127
-0.599915 0.191910 -0.376469 76 0 153
0.029849 -0.353578 -0.205818 153 76 0
0.352030 -0.227011 0.402378 127 0 127
0.099073 0.093723 0.402378 127 0 127
0.796669 -0.410386 -0.194119 76 153 0
-0.189278 -0.261964 0.402378 127 0 127
0.796669 -0.147209 -0.007342 76 153 0
-0.065063 0.234978 -0.376469 76 0 153
0.011572 0.381513 0.063362 76 0 153
0.395765 0.080159 -0.376469 76 0 153
-0.683098 -0.404574 0.454884 127 0 127
0.442419 -0.353578 -0.089285 153 76 0
-0.415408 0.381513 0.102234 76 0 153
0.634446 0.183866 -0.376469 76 0 153
-0.778526 -0.004826 0.069386 153 0 76
0.156890 0.222615 -0.376469 76 0 153
0.627024 -0.388583 -0.375372 153 76 0
0.449463 -0.144209 -0.402722 76 0 153
-0.716980 -0.388583 0.048194 153 76 0
0.659644 -0.221393 0.402378 127 0 127
-0.640895 -0.325122 -0.437727 0 0 255
-0.065763 -0.415485 0.402378 0 255 0
0.646920 -0.246537 -0.376469 76 0 153
-0.107160 0.346509 -0.019466 76 0 153
-0.023739 -0.125147 -0.402722 76 0 153
-0.615336 -0.388583 0.017761 153 76 0
0.831674 -0.261215 0.115451 76 153 0
0.774472 -0.105984 0.454884 127 0 127
0.836049 -0.322437 0.417985 127 0 127
-0.571674 0.346509 -0.256906 76 0 153
0.459687 0.327959 0.454884 127 0 127
0.253430 -0.011094 -0.402722 76 0 153
0.576633 -0.081776 -0.402722 76 0 153
0.456004 0.160481 -0.402722 76 0 153
-0.563747 -0.332935 0.454884 127 0 127
-0.108770 -0.275760 0.454884 127 0 127
-0.667485 -0.229921 0.402378 127 0 127
-0.787746 -0.423586 -0.237515 153 0 76
-0.378393 0.365496 0.454884 127 0 127
-0.349118 0.346509 0.240441 76 0 153
0.031679 0.011146 -0.402722 76 0 153
-0.247412 -0.353578 -0.028241 153 76 0
-0.831033 0.121273 0.392530 204 51 127
0.000201 -0.315241 -0.376469 76 0 153
-0.813531 -0.102231 -0.326103 153 0 76
0.584475 0.241291 0.402378 127 0 127
-0.771227 -0.396529 0.454884 127 0 127
-0.290491 0.381513 -0.347213 76 0 153
-0.492271 -0.318574 0.368144 0 255 0
-0.472552 0.381513 -0.126934 76 0 153
-0.069846 0.346509 0.066456 76 0 153
-0.661166 0.346509 0.092321 76 0 153
0.032702 -0.257350 0.452796 127 0 127
0.036234 0.346509 -0.362829 76 0 153
-0.813531 -0.194699 -0.146567 153 0 76
-0.813531 0.159943 0.260274 153 0 76
0.525643 0.381513 0.176114 76 0 153
-0.742534 0.099847 -0.402722 76 0 153
0.290052 -0.362506 -0.437727 0 0 255
0.645073 0.381513 -0.174732 76 0 153
-0.817906 0.346152 0.436365 127 0 127
-0.423880 0.416517 -0.427723 255 0 0
-0.583606 0.076165 0.402378 127 0 127
0.831674 0.019392 -0.104353 76 153 0
0.549093 -0.002087 0.428631 127 0 127
-0.723652 0.359750 0.402378 127 127 0
0.145858 -0.264320 -0.376469 76 0 153
0.623115 0.346509 0.272521 76 0 153
-0.394188 -0.284030 -0.376469 76 0 153
-0.655336 0.346509 -0.274826 76 0 153
-0.778526 0.239840 -0.006644 153 0 76
-0.639569 0.324233 -0.437727 255 0 0
-0.320896 -0.186182 0.402378 127 0 127
0.325698 0.381513 -0.369254 76 0 153
-0.521331 -0.158786 0.428631 127 0 127
-0.797795 -0.337796 -0.437727 153 0 76
0.831674 -0.084935 -0.063514 76 153 0
-0.683913 0.180150 0.454884 127 0 127
0.452181 0.219292 0.441507 127 0 127
-0.553970 0.346509 -0.000887 76 0 153
0.765122 0.206491 -0.415864 255 0 0
0.361135 0.346509 0.022639 76 0 153
0.301887 0.381513 -0.107770 76 0 153
0.831674 0.248337 -0.053260 76 153 0
0.085731 0.273926 -0.376469 76 0 153
0.757690 0.381513 0.202810 76 0 153
0.278390 0.381513 0.124809 76 0 153
0.247151 -0.353578 -0.364449 153 76 0
-0.158676 -0.152514 -0.402722 76 0 153
-0.813531 0.298803 -0.147737 153 0 76
0.304833 -0.227329 -0.437727 0 0 255
-0.239307 0.401205 0.454884 127 0 127
0.332945 -0.353578 -0.071284 153 76 0
-0.813531 -0.311012 -0.219282 153 0 76
0.796669 -0.193579 -0.305947 76 153 0
0.814655 0.047410 0.402378 153 0 76
-0.524337 -0.015358 0.428631 127 0 127
0.762967 -0.237528 -0.376469 76 0 153
-0.440685 -0.388583 -0.333704 153 76 0
0.265785 0.381513 -0.241220 76 0 153
0.755079 -0.160256 0.402378 127 0 127
-0.520857 0.381513 -0.304827 76 0 153
-0.046604 0.314958 -0.437727 255 0 0
-0.467332 0.226351 -0.376469 76 0 153
0.803573 0.312699 0.454884 127 0 127
0.117437 -0.108781 0.402378 127 0 127
0.675424 -0.388583 -0.007771 153 76 0
0.756466 -0.353578 -0.384338 153 76 0
0.133909 -0.388583 -0.285851 153 76 0
-0.403614 -0.353578 -0.187958 153 76 0
-0.778526 0.053913 0.201346 153 0 76
-0.367444 0.196336 -0.376469 76 0 153
-0.573632 -0.182703 -0.376469 76 0 153
0.458978 0.346509 -0.274278 76 0 153
-0.831033 -0.337562 0.375888 204 51 127
-0.267100 0.235029 -0.376469 76 0 153
-0.571831 0.372710 -0.437727 255 0 0
-0.327977 -0.388583 -0.289521 153 76 0
-0.487585 0.285006 0.454884 127 0 127
0.444526 0.381513 0.064609 76 0 153
-0.192616 -0.353578 -0.327710 153 76 0
0.739554 0.346509 -0.119443 76 0 153
0.796669 0.346848 -0.224701 76 153 0
-0.755139 -0.353578 0.108606 153 76 0
-0.778526 0.396697 -0.043313 153 0 76
0.390529 0.316112 -0.437727 255 0 0
0.831674 0.172971 -0.264968 76 153 0
0.470710 -0.413665 -0.437727 0 0 255
-0.284610 -0.353578 -0.367506 153 76 0
-0.472705 0.139442 0.402378 127 0 127
0.525032 -0.258863 -0.437727 0 0 255
0.673055 0.034184 0.402378 127 0 127
-0.771439 0.004202 0.402378 127 0 127
-0.081937 -0.158675 0.428631 127 0 127
0.831674 -0.186058 0.122770 76 153 0
-0.641272 -0.388583 0.191273 153 76 0
0.540012 0.346509 -0.273627 76 0 153
0.325516 0.416517 0.365901 127 127 0
0.279027 -0.353578 0.131106 153 76 0
-0.488631 0.381513 0.319636 76 0 153
0.796669 0.087994 0.294153 76 153 0
0.059255 0.220724 0.441738 127 0 127
-0.173401 0.238322 -0.376469 76 0 153
-0.256610 0.346509 -0.228625 76 0 153
0.796669 0.088603 0.000480 76 153 0
-0.018109 0.224172 -0.437727 255 0 0
-0.695775 -0.388583 -0.284148 153 76 0
0.796669 -0.028530 0.062646 76 153 0
0.729289 0.381513 -0.262955 76 0 153
-0.734404 -0.281768 0.454884 127 0 127
0.217550 0.345406 0.454884 127 0 127
-0.554180 0.381513 0.086330 76 0 153
0.831674 0.263961 0.020763 76 153 0
-0.534316 -0.388583 -0.228886 153 76 0
-0.276138 -0.353578 0.177186 153 76 0
0.319851 0.217027 -0.437727 255 0 0
-0.367652 -0.361077 -0.437727 0 0 255
-0.547597 -0.228463 0.402378 127 0 127
-0.580215 0.278341 0.454884 127 0 127
0.796669 0.062707 0.124237 76 153 0
-0.813531 -0.002405 -0.230487 153 0 76
-0.306751 0.293445 0.402378 127 0 127
-0.219322 -0.205157 -0.376469 76 0 153
-0.202545 0.381513 0.103708 76 0 153
-0.004707 -0.321608 0.454884 127 0 127
0.527181 -0.256991 0.451454 127 0 127
0.744163 -0.280494 0.386126 153 0 76
-0.550943 -0.388583 -0.368402 153 76 0
-0.809668 0.240591 -0.437727 153 0 76
-0.383006 0.291796 -0.437727 255 0 0
0.831674 0.175100 0.116946 76 153 0
-0.416086 -0.386532 0.454884 127 0 127
-0.336226 0.381513 -0.126054 76 0 153
-0.405253 0.346509 0.001977 76 0 153
0.209163 -0.087727 -0.376469 76 0 153
-0.813531 -0.323941 -0.146689 153 0 76
0.831674 -0.213275 -0.034778 76 153 0
0.772199 -0.054276 0.402378 153 0 76
-0.778526 0.067812 -0.134723 153 0 76
-0.386708 -0.213561 -0.436530 0 0 255
-0.682142 -0.231043 -0.437727 0 0 255
0.204992 0.346509 0.180322 76 0 153
0.661597 0.339256 0.454884 127 0 127
0.666752 -0.353578 -0.312415 153 76 0
0.796669 -0.233617 -0.170730 76 153 0
-0.302037 -0.022017 0.428631 127 0 127
0.372157 -0.368670 0.349871 0 255 0
0.313019 0.263048 0.454884 127 0 127
-0.778526 -0.282107 -0.011403 153 0 76
0.468455 -0.225734 -0.376469 76 0 153
-0.107844 0.313939 0.509601 0 127 127
0.447143 -0.325286 -0.376469 76 0 153
0.831674 -0.356489 0.320860 76 153 0
0.831674 0.047223 -0.358694 76 153 0
-0.152623 -0.388583 0.336049 153 76 0
0.079756 0.381513 -0.138462 76 0 153
0.831674 -0.319737 0.159401 76 153 0
0.401348 -0.213667 -0.437727 0 0 255
-0.813531 -0.364882 -0.064909 153 0 76
0.760234 0.380400 -0.402722 255 0 0
-0.030680 0.128011 0.428631 127 0 127
0.584743 -0.353578 0.084209 153 76 0
0.101842 -0.388583 0.169838 153 76 0
0.122030 0.381513 -0.381178 76 0 153
-0.492147 0.362683 0.402378 127 127 0
0.448121 -0.388583 -0.180469 153 76 0
0.515176 0.346509 0.328890 76 0 153
0.720160 -0.053845 0.454884 127 0 127
-0.352290 -0.388583 -0.113542 153 76 0
-0.813531 0.346672 -0.255705 153 0 76
0.796669 -0.076376 -0.302112 76 153 0
0.536817 0.103609 -0.376469 76 0 153
-0.054776 -0.353578 -0.303618 153 76 0
0.266791 0.279204 -0.376469 76 0 153
-0.234322 -0.052852 -0.376469 76 0 153
0.746293 0.081067 0.402378 127 0 127
-0.623514 -0.418427 0.349871 0 255 0
-0.579200 0.403391 0.448836 127 0 127
-0.473762 -0.388583 0.073169 153 76 0
-0.698888 -0.068062 0.402378 127 0 127
0.130355 0.381513 0.279865 76 0 153
0.687750 -0.091481 -0.376469 76 0 153
0.225384 -0.273820 -0.376469 76 0 153
0.459263 -0.353578 0.298374 153 76 0
0.796669 -0.158139 0.339524 76 153 0
0.622062 -0.065953 0.402378 127 0 127
0.849176 0.408127 0.358097 153 0 76
-0.813531 0.333437 0.048476 153 0 76
0.104210 -0.015269 -0.402722 76 0 153
0.796669 -0.015258 -0.366687 76 153 0
0.702132 -0.353578 0.233049 153 76 0
0.831674 -0.072380 0.119723 76 153 0
-0.587233 -0.095034 0.428631 127 0 127
-0.778526 0.083918 -0.064187 153 0 76
-0.650014 0.044058 0.454884 127 0 127
0.074955 0.017807 0.402378 127 0 127
-0.598494 0.123604 -0.402722 76 0 153
0.459789 -0.388583 0.001568 153 76 0
-0.317769 0.403391 0.412127 127 0 127
-0.661843 0.346509 0.307700 76 0 153
-0.789390 -0.029615 -0.437727 153 0 76
-0.807200 0.269625 0.454884 127 0 127
0.575096 -0.423587 0.359848 0 255 0
-0.172667 0.283711 -0.437727 255 0 0
-0.018257 -0.402450 0.454884 127 0 127
0.796669 -0.128475 -0.413091 76 153 0
0.551743 0.344663 -0.376469 76 0 153
-0.303097 -0.423587 0.357435 0 255 0
-0.668975 0.065418 -0.402722 76 0 153
-0.247312 0.353686 0.402378 127 0 127
0.060800 -0.277758 -0.376469 76 0 153
-0.455530 0.416517 0.372119 127 127 0
-0.184109 -0.302378 -0.376469 76 0 153
0.764569 -0.388583 0.194846 153 76 0
-0.823515 0.205261 0.349871 204 51 127
0.190472 0.391153 0.402378 127 0 127
-0.781081 -0.212811 0.402378 204 51 127
0.750438 0.354095 0.402378 153 0 76
-0.748794 0.381513 -0.249594 76 0 153
0.584143 0.292348 0.454884 127 0 127
0.659011 0.044626 -0.402722 76 0 153
0.796669 -0.317000 -0.337092 76 153 0
-0.003005 0.353240 0.454884 127 0 127
0.504523 0.391950 -0.402722 255 0 0
0.664555 0.346509 0.331506 76 0 153
0.849176 -0.202831 0.400833 153 0 76
-0.471607 -0.045457 -0.376469 76 0 153
-0.665598 -0.155960 0.402378 127 0 127
0.722047 -0.322282 -0.437727 0 0 255
0.030329 -0.295326 -0.437727 0 0 255
-0.813531 0.171565 -0.277768 153 0 76
-0.808460 0.416517 0.097041 153 0 76
-0.546251 -0.376751 0.402378 127 0 127
-0.813531 0.229177 -0.167922 153 0 76
-0.392832 -0.353578 0.153929 153 76 0
0.831674 -0.167381 0.197467 76 153 0
-0.365623 -0.324623 0.454884 127 0 127
-0.660467 0.381513 -0.354602 76 0 153
-0.533693 -0.254443 -0.376469 76 0 153
-0.311809 -0.353578 0.068559 153 76 0
0.849176 0.263727 0.380141 153 0 76
0.440379 -0.182766 0.402378 127 0 127
0.831674 0.358456 -0.114926 76 153 0
-0.010095 0.346509 0.243715 76 0 153
-0.535001 -0.353578 0.140598 153 76 0
0.180051 -0.388583 -0.359110 153 76 0
-0.315090 -0.353578 -0.061423 153 76 0
-0.074075 -0.308226 0.402378 127 0 127
0.066525 0.346509 -0.239961 76 0 153
0.267288 -0.410460 0.431847 127 0 127
0.436641 -0.388583 -0.288450 153 76 0
-0.778526 -0.252901 0.297207 153 0 76
-0.203185 0.381513 0.326110 76 0 153
0.013546 -0.388583 -0.011674 153 76 0
-0.247150 -0.388583 -0.092340 153 76 0
0.575321 0.416517 0.390709 127 127 0
0.836049 -0.074243 0.447361 127 0 127
-0.445600 -0.084610 0.428631 127 0 127
-0.297602 0.084540 -0.402722 76 0 153
0.598349 0.381513 0.041595 76 0 153
0.029522 -0.353578 0.087592 153 76 0
0.796669 0.247901 -0.257724 76 153 0
-0.769913 -0.231504 -0.376469 76 0 153
0.697245 0.169486 0.454884 127 0 127
0.395002 0.227950 0.402378 127 0 127
0.545370 -0.388583 -0.376509 153 76 0
-0.388001 0.381513 -0.262858 76 0 153
0.435494 0.346509 -0.088995 76 0 153
0.363618 0.229926 -0.376469 76 0 153
-0.125187 0.403391 0.420948 127 0 127
0.255800 -0.353578 -0.242012 153 76 0
-0.459441 -0.243249 0.402378 127 0 127
0.268649 0.174662 0.428631 127 0 127
0.426547 0.381513 0.141968 76 0 153
0.089025 -0.333269 0.349871 0 255 0
-0.418604 0.337719 0.402378 127 0 127
0.320968 -0.423587 -0.428558 0 0 255
-0.778526 -0.120654 -0.069518 153 0 76
0.796669 -0.347068 -0.113284 76 153 0
0.025780 0.381513 -0.032168 76 0 153
-0.594763 -0.388583 0.140293 153 76 0
-0.181867 0.113079 -0.376469 76 0 153
-0.813531 -0.010804 -0.006185 153 0 76
-0.279602 -0.353578 0.304484 153 76 0
0.304980 -0.388583 -0.003156 153 76 0
0.458479 0.381513 0.349663 76 0 153
-0.767546 0.096308 0.402378 204 51 127
-0.778526 0.414590 -0.145466 153 0 76
-0.114170 0.002011 0.428631 127 0 127
-0.556338 0.346509 0.305033 76 0 153
0.178400 0.348656 -0.437727 255 0 0
0.735857 -0.353578 -0.248524 153 76 0
0.312741 -0.353578 0.223987 153 76 0
-0.690911 0.389267 0.454884 127 0 127
-0.778526 0.080293 -0.258769 153 0 76
0.203621 -0.022382 0.428631 127 0 127
0.574126 -0.407426 0.454884 127 0 127
0.164975 0.381513 0.137170 76 0 153
-0.163535 0.381513 -0.036278 76 0 153
0.796669 0.168858 0.058453 76 153 0
0.181540 0.151347 -0.402722 76 0 153
0.762173 0.250424 0.349871 153 0 76
0.707035 -0.349887 0.402378 0 255 0
-0.283399 0.346509 -0.003354 76 0 153
0.355085 0.150179 0.428631 127 0 127
-0.098348 -0.246599 -0.437727 0 0 255
0.307572 0.290427 -0.437727 255 0 0
-0.463652 -0.209332 -0.376469 76 0 153
-0.648324 0.381513 0.149283 76 0 153
0.544569 0.381513 -0.153658 76 0 153
0.602864 -0.388583 -0.089793 153 76 0
-0.262434 0.381513 -0.089229 76 0 153
-0.582547 0.346509 -0.165215 76 0 153
-0.230844 0.030445 0.428631 127 0 127
0.648140 -0.365561 -0.437727 0 0 255
-0.135946 0.320248 0.349871 127 127 0
0.796669 -0.326925 0.024162 76 153 0
-0.778526 0.291143 -0.284155 153 0 76
0.473663 0.346509 0.207416 76 0 153
-0.764014 0.346509 0.196427 76 0 153
0.646670 0.258024 -0.402722 76 0 153
-0.346279 0.346509 -0.330966 76 0 153
0.178469 0.192555 0.402378 127 0 127
-0.469783 0.346509 -0.343153 76 0 153
-0.526228 0.314870 -0.437727 255 0 0
-0.545684 0.311504 0.394355 127 127 0
0.240240 0.381513 0.051261 76 0 153
-0.113320 0.227267 0.402378 127 0 127
-0.674101 0.381513 -0.014544 76 0 153
0.831674 -0.257936 -0.409587 76 153 0
-0.457636 -0.423587 0.398767 0 255 0
0.069177 -0.388583 -0.248433 153 76 0
-0.778526 0.043726 -0.354731 153 0 76
0.460695 0.346509 -0.364742 76 0 153
0.419200 0.357943 0.402378 127 127 0
-0.078080 0.047197 -0.376469 76 0 153
-0.406672 0.238765 0.402378 127 0 127
-0.778526 -0.155644 -0.284995 153 0 76
0.011805 0.308732 0.532542 0 127 127
-0.778526 -0.148712 -0.394599 153 0 76
0.333252 0.346509 0.145134 76 0 153
-0.764026 -0.353578 0.274057 153 76 0
0.130637 0.346509 0.345400 76 0 153
0.486902 0.346509 -0.039005 76 0 153
0.622615 -0.353578 -0.261571 153 76 0
-0.813531 0.122045 0.149534 153 0 76
-0.614794 0.123298 0.454884 127 0 127
-0.756367 0.416517 0.387199 204 51 127
-0.282689 0.327847 0.349871 127 127 0
-0.656410 -0.022840 0.454884 127 0 127
0.831674 -0.140552 -0.284117 76 153 0
0.108934 -0.252956 0.402378 127 0 127
0.796669 -0.423165 -0.334776 76 153 0
0.429902 -0.298515 0.454884 127 0 127
-0.291809 0.346509 0.091246 76 0 153
-0.376087 0.183094 0.428631 127 0 127
0.183978 0.223012 -0.437727 255 0 0
-0.737162 0.346509 -0.129486 76 0 153
-0.813531 -0.266931 -0.427571 153 0 76
0.055979 -0.353578 -0.076823 153 76 0
-0.769835 0.245446 0.349871 204 51 127
0.308394 -0.038535 -0.376469 76 0 153
-0.813531 -0.318104 0.222643 153 0 76
-0.813531 -0.242038 -0.097920 153 0 76
-0.763524 -0.114585 0.402378 127 0 127
-0.173707 0.381513 -0.374688 76 0 153
-0.617312 -0.356554 0.402378 0 255 0
-0.813531 0.140409 -0.167729 153 0 76
-0.804584 0.351344 -0.437727 153 0 76
0.511121 0.381513 0.060984 76 0 153
-0.212367 -0.373928 0.402378 0 255 0
-0.382635 0.047004 0.402378 127 0 127
-0.778526 0.104728 0.084683 153 0 76
-0.813531 0.104525 -0.405200 153 0 76
-0.318908 -0.290793 0.402378 127 0 127
-0.524689 0.272572 -0.376469 76 0 153
-0.620640 -0.353578 0.246487 153 76 0
0.695737 -0.353578 0.091342 153 76 0
0.794467 -0.170220 0.454884 127 0 127
0.097498 -0.321259 0.454884 127 0 127
-0.235160 -0.388583 0.042211 153 76 0
0.122307 0.311468 0.454884 127 0 127
0.516247 -0.353578 -0.315316 153 76 0
0.831674 0.047642 -0.044321 76 153 0
-0.813531 0.205424 -0.375277 153 0 76
0.831674 0.002590 0.202314 76 153 0
-0.778526 -0.259758 0.086149 153 0 76
-0.029644 0.381513 -0.245633 76 0 153
0.831674 0.116982 0.170853 76 153 0
0.831674 -0.061641 0.271059 76 153 0
0.639140 0.416517 -0.405501 255 0 0
-0.191522 -0.353578 -0.154404 153 76 0
-0.638507 -0.195639 -0.376469 76 0 153
-0.239048 0.277538 0.402378 127 0 127
0.062296 0.107654 -0.402722 76 0 153
-0.652791 -0.125363 -0.376469 76 0 153
-0.726365 -0.131431 0.454884 127 0 127
-0.524237 0.083377 -0.402722 76 0 153
0.831674 0.408177 0.105793 76 153 0
-0.286767 0.346509 0.215599 76 0 153
-0.813531 -0.420161 0.179561 153 0 76
-0.559513 -0.353578 0.015662 153 76 0
-0.072231 0.346509 0.338429 76 0 153
0.638116 0.381513 0.109025 76 0 153
0.489944 -0.353578 0.092032 153 76 0
0.831674 0.203243 -0.389175 76 153 0
-0.039807 0.136124 -0.376469 76 0 153
0.774615 -0.423586 0.381788 153 0 76
-0.813531 0.351414 -0.323690 153 0 76
0.716291 -0.148894 0.454884 127 0 127
0.045228 0.381513 0.129360 76 0 153
-0.050683 0.280116 0.402378 127 0 127
0.772944 0.346509 -0.309710 76 0 153
-0.778526 -0.152073 0.233979 153 0 76
-0.681332 -0.388583 0.295051 153 76 0
0.613943 -0.319590 -0.376469 76 0 153
0.598929 0.148535 0.428631 127 0 127
-0.159626 -0.353578 0.194595 153 76 0
-0.675424 0.346509 -0.152707 76 0 153
0.324431 0.362149 0.402378 127 127 0
0.763238 0.391058 0.454884 127 0 127
0.410132 0.002786 0.402378 127 0 127
0.831674 -0.038729 0.008275 76 153 0
-0.474906 -0.388583 -0.056952 153 76 0
0.042273 -0.381226 0.349871 0 255 0
-0.641511 -0.292241 0.402378 127 0 127
0.328370 0.013945 0.428631 127 0 127
0.265247 0.053193 -0.402722 76 0 153
-0.778526 0.005625 0.151479 153 0 76
-0.778526 -0.351001 -0.344455 153 0 76
-0.167234 0.346509 0.229851 76 0 153
0.836049 0.171180 0.449169 127 0 127
-0.325165 -0.298055 -0.376469 76 0 153
-0.716531 -0.388583 0.190385 153 76 0
-0.605984 -0.423587 -0.431099 0 0 255
0.439874 -0.349618 -0.437727 0 0 255
-0.604930 -0.024468 -0.402722 76 0 153
0.155781 -0.388583 0.091157 153 76 0
0.831674 0.283929 -0.213926 76 153 0
0.676564 0.207790 0.402378 127 0 127
0.155251 0.096144 -0.376469 76 0 153
0.222649 -0.154830 -0.402722 76 0 153
-0.265232 0.093942 0.402378 127 0 127
-0.300008 -0.376614 0.402378 127 0 127
-0.338917 0.346509 -0.198633 76 0 153
0.584494 -0.351975 -0.437727 0 0 255
0.218719 -0.256817 0.447928 127 0 127
-0.464780 0.346509 -0.181233 76 0 153
-0.560154 0.381513 0.220143 76 0 153
0.831674 0.332588 0.106359 76 153 0
0.213931 0.346509 -0.019311 76 0 153
-0.027360 -0.360003 0.402378 0 255 0
-0.370294 0.381513 0.148964 76 0 153
-0.740412 -0.353578 -0.036300 153 76 0
0.705005 -0.003802 -0.376469 76 0 153
0.776187 0.286182 0.402378 153 0 76
0.220284 -0.373086 -0.437727 0 0 255
0.831674 -0.404046 0.270141 76 153 0
0.129255 0.346509 -0.028907 76 0 153
0.204870 0.381513 -0.357393 76 0 153
-0.723782 0.206491 -0.435307 255 0 0
-0.473665 -0.340184 0.454884 127 0 127
-0.128461 0.346509 -0.249552 76 0 153
-0.699221 0.253203 0.454884 127 0 127
0.796669 -0.392965 0.078466 76 153 0
0.220174 0.280274 -0.437727 255 0 0
0.831674 0.142217 -0.046722 76 153 0
-0.813531 0.287491 -0.067663 153 0 76
0.208512 -0.353578 0.261167 153 76 0
-0.602923 0.396959 0.349871 127 127 0
-0.697670 0.103109 0.454884 127 0 127
-0.362736 0.249747 0.448349 127 0 127
0.805604 0.350804 -0.437727 76 153 0
0.321170 -0.360471 0.454884 127 0 127
-0.813531 -0.390119 0.049887 153 0 76
0.693079 -0.027043 0.402378 127 0 127
0.163701 -0.388583 -0.181390 153 76 0
0.831674 0.277579 -0.337799 76 153 0
0.316442 0.381513 -0.043384 76 0 153
-0.059180 0.299907 -0.376469 76 0 153
0.495472 -0.353578 0.171072 153 76 0
0.796669 0.375589 -0.004353 76 153 0
-0.743548 0.416517 -0.431684 255 0 0
-0.726020 -0.206114 0.369893 204 51 127
-0.649129 -0.189144 0.454884 127 0 127
-0.057698 0.319519 0.454884 127 0 127
-0.778526 0.049973 0.308508 153 0 76
0.585818 -0.209421 -0.376469 76 0 153
-0.524838 -0.340859 -0.437727 0 0 255
-0.813531 -0.079973 -0.186675 153 0 76
0.234657 0.072151 0.402378 127 0 127
0.054140 -0.118737 0.402378 127 0 127
-0.085299 -0.388583 0.141831 153 76 0
-0.813531 -0.105895 0.110402 153 0 76
0.354836 -0.336435 0.402378 127 0 127
-0.789851 -0.423586 -0.088538 153 0 76
-0.072390 -0.388583 0.259808 153 76 0
-0.815790 -0.350632 0.454884 127 0 127
-0.605384 -0.353578 -0.067034 153 76 0
-0.757281 0.346509 0.091821 76 0 153
0.485977 -0.388583 0.344882 153 76 0
-0.749334 -0.388583 -0.399327 153 76 0
0.602568 0.346323 -0.437727 255 0 0
0.337310 0.106630 -0.376469 76 0 153
-0.813531 -0.047397 -0.101492 153 0 76
0.296712 -0.052726 0.428631 127 0 127
-0.813531 -0.374653 0.125775 153 0 76
-0.424592 -0.302643 -0.437727 0 0 255
0.216125 -0.153055 0.428631 127 0 127
0.285117 -0.296266 0.454884 127 0 127
0.646035 -0.388583 0.132995 153 76 0
-0.002381 -0.351225 -0.437727 0 0 255
-0.433958 -0.382130 0.349871 0 255 0
0.607824 -0.388583 0.315372 153 76 0
0.736481 0.346509 0.061459 76 0 153
0.397920 -0.397802 0.402378 0 255 0
-0.813531 0.406222 0.224822 153 0 76
-0.457113 0.346509 0.149998 76 0 153
0.100710 -0.388583 0.235268 153 76 0
0.670511 0.102187 -0.376469 76 0 153
0.831674 -0.279686 -0.215527 76 153 0
0.804017 -0.365402 -0.437727 76 153 0
-0.183908 0.346509 0.020983 76 0 153
-0.751927 0.304135 -0.376469 76 0 153
-0.636361 -0.353578 -0.177296 153 76 0
0.831674 -0.251787 0.024104 76 153 0
-0.480423 0.346509 -0.074782 76 0 153
-0.510972 -0.353578 0.318833 153 76 0
0.784790 -0.362438 0.402378 153 0 76
-0.241107 -0.283986 -0.437727 0 0 255
0.681285 0.297940 -0.437727 255 0 0
-0.813531 0.196426 0.032397 153 0 76
0.301185 -0.164418 0.428631 127 0 127
-0.374764 -0.057494 0.402378 127 0 127
0.600119 -0.200434 0.404836 127 0 127
0.796669 0.192704 0.251887 76 153 0
-0.511343 -0.388583 0.190901 153 76 0
-0.045454 0.346509 -0.148328 76 0 153
0.161688 -0.268453 -0.437727 0 0 255
0.831674 0.119802 0.237785 76 153 0
-0.175776 0.356837 0.402378 127 127 0
-0.696735 0.416517 0.355807 127 127 0
0.521505 0.289408 -0.376469 76 0 153
0.328513 0.381513 -0.235604 76 0 153
0.797680 0.148919 0.402378 127 0 127
0.692166 -0.353578 -0.192591 153 76 0
-0.478722 0.170295 -0.402722 76 0 153
0.029246 0.340450 0.402378 127 0 127
-0.453593 -0.221793 -0.437727 0 0 255
-0.691336 0.021386 0.402378 127 0 127
0.783186 -0.229112 0.402378 153 0 76
0.163884 -0.423587 0.371257 0 255 0
-0.308783 0.146411 -0.402722 76 0 153
0.796669 -0.295257 0.209624 76 153 0
0.327631 0.352252 -0.437727 255 0 0
0.373209 -0.000085 -0.402722 76 0 153
0.599526 -0.388583 0.020188 153 76 0
-0.778526 -0.102380 0.332436 153 0 76
-0.343265 -0.353578 0.210691 153 76 0
0.619502 -0.338738 0.454884 127 0 127
-0.747776 -0.306190 -0.376469 76 0 153
-0.203669 -0.388583 0.274633 153 76 0
0.415621 0.346509 0.309142 76 0 153
-0.764327 -0.423586 0.383533 204 51 127
0.117601 -0.353578 -0.150765 153 76 0
-0.778526 -0.201604 -0.235894 153 0 76
-0.778526 -0.150248 -0.175799 153 0 76
-0.106001 -0.241791 0.402378 127 0 127
-0.229651 -0.256817 0.449925 127 0 127
0.321672 -0.388583 -0.129416 153 76 0
0.293973 0.346509 0.063640 76 0 153
-0.338549 0.381513 0.346482 76 0 153
0.512401 -0.388583 0.288302 153 76 0
-0.289535 -0.166295 -0.402722 76 0 153
-0.070207 0.410364 -0.437727 255 0 0
0.783705 0.286311 -0.402722 255 0 0
0.788400 0.341947 0.349871 153 0 76
-0.140878 -0.353578 -0.011404 153 76 0
-0.778155 -0.291074 0.402378 204 51 127
-0.813531 -0.311187 -0.308983 153 0 76
0.831674 -0.184448 -0.387004 76 153 0
0.796669 0.162445 -0.322320 76 153 0
-0.242662 0.310618 0.454884 127 0 127
0.629257 -0.388583 -0.203042 153 76 0
0.622613 0.361909 0.402378 127 0 127
0.249107 -0.353578 -0.132577 153 76 0
0.822241 -0.423586 -0.043046 76 153 0
0.723352 0.149113 0.402378 127 0 127
-0.334985 0.346509 -0.393434 76 0 153
-0.778526 0.229539 0.120975 153 0 76
-0.477793 -0.423587 -0.436456 0 0 255
0.179046 -0.273937 0.402378 127 0 127
0.121106 0.319925 -0.402722 255 0 0
0.569530 0.381513 0.320270 76 0 153
0.458820 -0.357633 0.402378 127 0 127
-0.276601 -0.388583 0.228333 153 76 0
-0.726020 0.166366 0.369723 204 51 127
0.005177 -0.200434 0.427029 127 0 127
0.831674 -0.362162 -0.306993 76 153 0
-0.537039 0.211898 -0.376469 76 0 153
0.335884 0.381513 0.228491 76 0 153
0.831674 -0.048970 -0.245674 76 153 0
0.342007 -0.097295 0.428631 127 0 127
0.734667 0.256022 -0.437727 255 0 0
-0.018038 -0.063932 0.402378 127 0 127
0.797788 -0.296102 0.349871 153 0 76
0.191913 -0.388583 -0.243785 153 76 0
-0.813531 0.216178 0.219223 153 0 76
0.259139 0.341571 -0.376469 76 0 153
0.626023 0.055424 0.451603 127 0 127
0.203360 0.048157 -0.402722 76 0 153
-0.778526 0.388932 -0.368905 153 0 76
0.412641 -0.353578 0.255940 153 76 0
0.213571 0.311504 0.358041 127 127 0
-0.158769 -0.216475 -0.376469 76 0 153
0.710602 -0.353578 0.294047 153 76 0
0.831674 -0.159389 0.062908 76 153 0
0.740478 0.323259 -0.376469 76 0 153
-0.778526 0.230056 -0.251831 153 0 76
-0.246907 0.346509 0.151461 76 0 153
-0.192588 0.176335 -0.376469 76 0 153
0.300849 0.333146 0.454884 127 0 127
0.151475 0.112112 0.428631 127 0 127
0.185107 -0.353578 -0.030033 153 76 0
-0.408164 0.346509 -0.312703 76 0 153
-0.513149 0.381513 0.038002 76 0 153
0.133067 -0.213561 -0.424665 0 0 255
0.155672 0.346509 0.059368 76 0 153
0.526573 -0.353578 -0.022467 153 76 0
-0.127310 -0.332336 -0.376469 76 0 153
-0.052350 -0.278570 -0.376469 76 0 153
-0.184524 0.346509 -0.274143 76 0 153
-0.459442 -0.388583 0.249520 153 76 0
0.189667 0.346509 0.261159 76 0 153
0.420322 -0.051519 0.428631 127 0 127
-0.008684 0.381513 -0.340488 76 0 153
-0.778526 0.348066 -0.174483 153 0 76
-0.287857 -0.127729 0.428631 127 0 127
-0.811400 0.133456 0.454884 127 0 127
0.458302 0.293214 -0.437727 255 0 0
-0.764682 0.276167 0.402378 204 51 127
0.687525 0.358864 0.402378 127 127 0
-0.813531 -0.199030 0.195403 153 0 76
-0.144130 0.380719 0.349871 127 127 0
-0.518330 0.193365 0.434740 127 0 127
0.113357 -0.388583 0.035095 153 76 0
-0.059331 0.346509 -0.057324 76 0 153
-0.209066 0.346509 -0.338314 76 0 153
0.752182 -0.388583 -0.109181 153 76 0
-0.443970 -0.326636 -0.376469 76 0 153
-0.144598 0.085745 0.402378 127 0 127
0.088890 -0.114997 -0.402722 76 0 153
-0.406572 0.157707 -0.402722 76 0 153
-0.603858 -0.388583 -0.215087 153 76 0
0.533221 0.289733 0.402378 127 0 127
-0.403899 -0.388583 -0.382222 153 76 0
-0.778526 0.123728 -0.214638 153 0 76
0.007486 -0.388583 -0.116259 153 76 0
-0.702806 -0.298318 0.402378 127 0 127
-0.198411 -0.065995 0.402378 127 0 127
0.689393 -0.209916 -0.402722 76 0 153
0.831674 -0.364717 -0.174501 76 153 0
-0.828158 -0.109985 0.402378 204 51 127
0.388785 -0.353578 0.020716 153 76 0
0.796669 -0.025633 0.329783 76 153 0
-0.428537 -0.299563 0.454884 127 0 127
0.693894 -0.169581 0.402378 127 0 127
0.454875 0.412594 0.402378 127 127 0
0.404222 -0.258025 0.402378 127 0 127
-0.226074 -0.388583 0.144180 153 76 0
-0.168740 -0.353578 0.088308 153 76 0
-0.675632 -0.353578 -0.082980 153 76 0
0.719429 0.200395 -0.376469 76 0 153
0.296116 0.225836 -0.376469 76 0 153
-0.119112 -0.353578 -0.279479 153 76 0
0.496462 -0.018007 -0.376469 76 0 153
-0.219761 -0.353578 -0.244117 153 76 0
0.580430 0.155630 -0.402722 76 0 153
-0.100900 -0.366154 0.402378 0 255 0
0.796669 -0.264406 -0.271761 76 153 0
-0.130541 0.290670 0.402378 127 0 127
0.796669 -0.086729 -0.007207 76 153 0
-0.813531 -0.272218 0.180461 153 0 76
0.247484 -0.388583 -0.311126 153 76 0
-0.025699 -0.353578 -0.234056 153 76 0
0.208827 -0.353578 0.197566 153 76 0
0.688781 -0.388583 -0.356417 153 76 0
0.665671 -0.105201 0.454884 127 0 127
-0.461879 -0.032751 0.402378 127 0 127
0.716949 0.026407 0.454884 127 0 127
0.197132 -0.348864 0.402378 0 255 0
-0.425592 0.346509 0.243088 76 0 153
0.022391 0.383776 0.349871 127 127 0
0.445282 0.265075 0.402378 127 0 127
-0.366494 -0.355917 0.402378 0 255 0
-0.410224 0.345567 -0.437727 255 0 0
-0.658850 0.204495 -0.376469 76 0 153
0.582473 0.232174 -0.376469 76 0 153
0.630136 -0.219774 0.454884 127 0 127
-0.028495 -0.179161 -0.376469 76 0 153
0.781352 0.071050 0.349871 153 0 76
0.831674 0.253843 0.133876 76 153 0
-0.696841 0.346509 -0.231223 76 0 153
0.506308 0.207995 0.402378 127 0 127
0.332007 -0.094226 -0.376469 76 0 153
-0.466925 0.375692 -0.437727 255 0 0
0.758311 0.381513 -0.164634 76 0 153
0.625780 0.381513 -0.062900 76 0 153
0.035570 -0.388583 -0.327970 153 76 0
-0.482569 -0.367962 0.402378 0 255 0
-0.171612 0.245300 0.402378 127 0 127
0.376990 -0.388583 -0.092259 153 76 0
0.059159 0.311504 0.356252 127 127 0
-0.446286 0.381513 0.049479 76 0 153
0.579753 -0.318574 0.364764 0 255 0
-0.741454 0.346509 0.265693 76 0 153
0.374212 -0.388583 0.097572 153 76 0
-0.613380 -0.265684 -0.402722 76 0 153
0.239169 -0.067858 0.402378 127 0 127
0.831674 0.381773 0.227805 76 153 0
0.831674 -0.142872 -0.213211 76 153 0
-0.778526 -0.061775 0.199455 153 0 76
0.267393 0.381513 -0.156740 76 0 153
0.525985 -0.116385 -0.402722 76 0 153
