ply
format ascii 1.0
element vertex 1247
property float x
property float y
property float z
property uchar red
property uchar green
property uchar blue
end_header
0.505075 0.571644 0.054437 0 127 127
-0.497059 0.594443 0.083195 0 127 127
0.444717 -0.253602 0.303486 0 127 127
0.018106 0.924787 0.374176 153 0 76
0.485537 -0.698695 -0.234280 0 127 127
-0.320766 -0.293783 0.442019 0 127 127
-0.166086 0.278244 -0.523379 0 127 127
-0.540850 -0.817641 -0.103090 0 127 127
0.306701 0.505595 -0.441468 0 127 127
-0.479549 0.139877 0.274177 0 127 127
0.478504 -0.746947 0.248295 0 127 127
-0.053274 -0.180931 -0.533562 0 127 127
0.096244 -0.485414 0.533090 0 127 127
0.411706 0.208569 0.346507 0 127 127
-0.428261 -0.736958 0.333099 0 127 127
0.246260 0.924787 -0.019016 153 0 76
-0.217211 0.924787 0.008131 153 0 76
-0.330439 0.636853 -0.315867 0 127 127
0.081849 -0.817151 -0.201704 0 127 127
-0.247252 0.599812 0.432356 0 127 127
0.534538 0.168098 -0.057284 0 127 127
0.252153 0.584153 0.437952 0 127 127
-0.433089 -0.480312 -0.321769 0 127 127
0.529098 -0.307316 -0.098603 0 127 127
0.251274 -0.462506 -0.482981 0 127 127
-0.506204 0.292343 -0.188856 0 127 127
-0.538367 -0.414143 0.118978 0 127 127
0.150170 -0.092809 0.521895 0 127 127
0.216417 -0.829831 0.493691 0 127 127
-0.337583 -0.008501 -0.419864 0 127 127
-0.133721 -0.749349 0.529781 0 127 127
-0.024845 0.596446 -0.499304 0 127 127
-0.372015 -0.833587 -0.401385 0 127 127
0.172604 0.198699 -0.505077 0 127 127
-0.236808 0.030541 0.480630 0 127 127
0.266507 -0.808735 -0.476671 0 127 127
-0.213966 -0.816991 -0.062567 0 127 127
0.242159 0.776865 -0.295571 153 0 76
0.424772 0.248552 -0.332444 0 127 127
0.299114 -0.822238 0.019001 0 127 127
0.277628 0.822848 0.260257 153 0 76
0.355203 -0.519658 0.393908 0 127 127
0.311683 0.478474 -0.147498 0 127 127
-0.305128 0.313654 0.454018 0 127 127
0.538511 -0.569320 0.024143 0 127 127
-0.490808 -0.148162 0.248384 0 127 127
-0.283176 0.917703 -0.272076 153 0 76
-0.250933 0.860169 0.295344 153 0 76
0.520477 -0.081721 0.086871 0 127 127
0.007946 0.477491 0.349211 0 127 127
-0.228963 -0.396983 -0.497335 0 127 127
0.288231 0.469021 0.193253 0 127 127
-0.552324 0.116040 0.012968 0 127 127
-0.069725 -0.265017 0.538206 0 127 127
-0.291799 0.469021 0.202235 0 127 127
0.445276 -0.446198 -0.305723 0 127 127
-0.343875 0.487693 -0.099575 0 127 127
-0.379498 0.380180 -0.399230 0 127 127
0.011640 0.924787 -0.128979 153 0 76
-0.288262 -0.548733 0.466960 0 127 127
0.201521 -0.208072 -0.503590 0 127 127
-0.531732 -0.559115 -0.098094 0 127 127
-0.383057 0.749363 -0.084441 153 0 76
0.523523 0.331696 0.137989 0 127 127
-0.535504 0.350313 0.140480 0 127 127
0.234040 0.333467 0.476665 0 127 127
0.511779 -0.055799 -0.170926 0 127 127
-0.115099 -0.827428 -0.360632 0 127 127
0.015787 0.924787 0.124002 153 0 76
0.363423 -0.032097 0.387601 0 127 127
0.012443 -0.435543 -0.547087 0 127 127
-0.419665 -0.235329 -0.355184 0 127 127
-0.396921 -0.829798 0.102228 0 127 127
-0.037475 0.064301 -0.545417 0 127 127
0.269506 -0.303122 0.471882 0 127 127
0.363287 0.714621 -0.082466 153 0 76
0.540529 -0.823319 -0.011775 0 127 127
-0.151555 0.469021 -0.335417 0 127 127
0.236992 -0.825552 0.253961 0 127 127
0.096491 0.473551 -0.337294 0 127 127
0.034559 -0.832246 -0.542061 0 127 127
-0.060434 0.706403 0.336381 153 0 76
-0.213242 -0.827809 0.316244 0 127 127
-0.534309 -0.645499 0.143366 0 127 127
0.520135 0.397359 -0.093550 0 127 127
-0.113712 0.718684 -0.327176 153 0 76
-0.529385 -0.338732 -0.158219 0 127 127
-0.449799 -0.501145 0.312948 0 127 127
0.035944 0.378468 -0.543993 0 127 127
0.482488 -0.457546 0.213352 0 127 127
-0.487177 0.079741 -0.260117 0 127 127
0.304681 -0.827179 -0.204928 0 127 127
-0.317789 -0.622332 -0.447268 0 127 127
-0.322791 0.733472 0.127965 153 0 76
-0.025932 0.044130 0.543971 0 127 127
0.213959 0.114305 0.495472 0 127 127
0.454746 -0.229264 -0.293381 0 127 127
-0.105775 0.466369 0.533460 0 127 127
0.365300 -0.627749 -0.401342 0 127 127
-0.477880 -0.689867 -0.279316 0 127 127
0.132768 -0.641645 -0.521471 0 127 127
0.507023 0.113298 0.179444 0 127 127
-0.537886 -0.210055 0.048387 0 127 127
-0.008393 -0.811562 -0.007541 0 127 127
0.313923 0.669104 0.119578 0 127 127
-0.485348 0.510633 -0.251905 0 127 127
0.399940 0.416918 0.361841 0 127 127
0.021739 -0.831587 0.419121 0 127 127
0.155664 -0.005823 -0.522584 0 127 127
0.373933 0.619246 -0.283186 0 127 127
-0.538240 0.442906 -0.048658 0 127 127
0.527808 -0.288076 0.105435 0 127 127
-0.255139 -0.183254 -0.486493 0 127 127
-0.112569 -0.464348 0.522790 0 127 127
-0.403473 0.471078 0.373101 0 127 127
0.104233 0.484272 0.531038 0 127 127
-0.356689 -0.829731 -0.201044 0 127 127
-0.320697 0.192015 -0.432821 0 127 127
-0.397475 -0.017240 0.365218 0 127 127
0.135908 0.680635 0.309905 76 153 0
0.350285 -0.720724 0.397682 0 127 127
0.452999 0.437012 -0.281348 0 127 127
0.079976 -0.683290 0.535231 0 127 127
0.086643 0.668849 -0.341373 76 153 0
0.428313 0.583260 0.264264 0 127 127
0.325403 0.924787 -0.194316 153 0 76
-0.355854 0.924787 0.139894 153 0 76
-0.175146 -0.816770 0.124553 0 127 127
-0.411316 0.616735 0.252250 0 127 127
-0.270830 0.529030 -0.469416 0 127 127
0.340560 -0.309841 -0.420326 0 127 127
0.485680 0.584154 -0.135987 0 127 127
0.517758 -0.533029 -0.156493 0 127 127
0.132821 0.924787 -0.275646 153 0 76
-0.213555 -0.150511 0.500752 0 127 127
-0.450356 -0.319822 0.296301 0 127 127
0.488671 0.115243 -0.226715 0 127 127
-0.529813 0.004984 0.154220 0 127 127
0.303004 0.314220 -0.449143 0 127 127
0.364562 0.868463 0.108209 153 0 76
0.409663 -0.822325 -0.352135 0 127 127
0.142275 0.530073 -0.517174 0 127 127
0.325883 0.119513 -0.419371 0 127 127
-0.181425 0.197380 0.514060 0 127 127
0.120163 -0.829175 -0.375706 0 127 127
-0.387615 0.924457 -0.049818 153 0 76
-0.297045 -0.756922 0.458163 0 127 127
-0.225620 0.671817 0.270709 76 153 0
-0.452413 0.315554 0.293620 0 127 127
-0.014542 0.610590 0.484414 0 127 127
-0.227231 -0.777723 -0.488926 0 127 127
-0.354436 0.150284 0.403967 0 127 127
-0.169934 0.469021 0.342418 0 127 127
0.342697 0.488217 0.026502 0 127 127
0.133315 -0.815026 0.096829 0 127 127
0.105831 -0.278939 0.531827 0 127 127
0.476113 -0.049587 0.254066 0 127 127
-0.183691 -0.026178 -0.516087 0 127 127
-0.483759 0.607748 -0.097581 0 127 127
0.231362 -0.611553 0.488264 0 127 127
-0.122324 0.447858 -0.524471 0 127 127
0.187874 0.924787 0.144316 153 0 76
-0.153622 0.924787 0.169177 153 0 76
-0.319429 0.469021 -0.265942 0 127 127
-0.156396 0.924787 -0.149413 153 0 76
0.175211 0.469021 0.331329 0 127 127
-0.083508 -0.815653 -0.171067 0 127 127
-0.458684 -0.080137 -0.304334 0 127 127
-0.551705 0.277094 -0.020637 0 127 127
-0.272101 0.754148 -0.216804 76 153 0
0.212045 0.571947 -0.274621 0 127 127
-0.375419 0.469021 0.060089 0 127 127
-0.495415 0.476971 0.235914 0 127 127
-0.438163 0.239196 -0.331077 0 127 127
0.013352 0.218005 -0.537193 0 127 127
0.436126 -0.834972 0.120287 0 127 127
-0.553186 -0.052668 0.006417 0 127 127
-0.357269 0.621619 0.009562 0 127 127
-0.546738 -0.796237 0.055400 0 127 127
0.165713 0.924787 0.311387 153 0 76
-0.498009 -0.832271 0.225463 0 127 127
0.162264 -0.815405 -0.065331 0 127 127
0.506322 0.266455 -0.184100 0 127 127
-0.016949 -0.116049 0.535379 0 127 127
0.471817 -0.836437 -0.153426 0 127 127
0.528214 -0.705379 0.102358 0 127 127
0.450510 0.469021 0.159600 0 127 127
-0.363292 -0.368486 -0.412352 0 127 127
0.139002 -0.350563 -0.518996 0 127 127
0.348676 -0.184650 0.411132 0 127 127
0.460000 -0.597507 0.283569 0 127 127
-0.158126 0.864238 -0.354710 153 0 76
-0.194083 0.127153 -0.501293 0 127 127
0.536263 -0.161744 -0.044179 0 127 127
0.286149 0.655025 0.287751 0 127 127
-0.056536 -0.607228 0.530167 0 127 127
0.529613 -0.413941 0.017482 0 127 127
0.243710 -0.458719 0.483149 0 127 127
0.531774 -0.685586 -0.078278 0 127 127
-0.393497 -0.169959 0.370401 0 127 127
-0.397326 -0.829208 -0.052346 0 127 127
-0.538742 0.041093 -0.119100 0 127 127
-0.255201 0.456101 0.480476 0 127 127
-0.095454 -0.326593 -0.528009 0 127 127
0.381469 -0.370595 0.385912 0 127 127
0.538470 0.016038 -0.027419 0 127 127
-0.524836 0.193105 0.140909 0 127 127
-0.028564 0.571544 -0.351087 0 127 127
0.090659 0.820528 -0.376542 153 0 76
-0.131220 0.924787 0.359391 153 0 76
-0.350421 -0.831810 0.244897 0 127 127
-0.322209 0.630054 -0.151882 76 153 0
0.215009 0.619938 -0.421042 0 127 127
-0.550698 -0.409854 -0.028286 0 127 127
-0.124784 -0.500224 -0.533922 0 127 127
0.183429 0.374398 -0.511084 0 127 127
0.374057 0.859824 -0.059059 153 0 76
0.373202 -0.844552 0.305126 0 127 127
-0.192800 -0.344094 0.498859 0 127 127
-0.354137 -0.434021 0.404196 0 127 127
-0.256469 -0.829263 -0.307368 0 127 127
-0.072313 0.924787 -0.007121 153 0 76
-0.154196 0.627561 -0.440701 0 127 127
-0.255920 0.383937 -0.475679 0 127 127
0.056630 0.780625 0.378057 153 0 76
0.157926 0.924787 -0.133847 153 0 76
0.081474 0.160225 0.535034 0 127 127
0.081192 -0.129671 -0.538036 0 127 127
-0.172742 0.341381 0.507167 0 127 127
-0.511768 -0.282173 0.172458 0 127 127
0.459861 0.318028 0.267830 0 127 127
0.276267 0.680638 -0.195290 76 153 0
0.083387 0.924787 -0.005231 153 0 76
0.338946 0.105290 0.418598 0 127 127
0.265563 -0.086514 -0.465657 0 127 127
-0.492854 -0.827490 -0.246181 0 127 127
-0.537961 -0.540420 0.047813 0 127 127
0.309035 0.469021 -0.288990 0 127 127
-0.389612 -0.609471 0.389192 0 127 127
-0.542250 -0.675590 -0.018199 0 127 127
-0.490784 -0.221115 -0.226082 0 127 127
0.437734 0.072946 0.312587 0 127 127
0.152593 -0.829807 0.366844 0 127 127
0.256402 -0.832170 -0.338250 0 127 127
-0.401837 0.524777 -0.364717 0 127 127
0.531632 0.296742 0.002147 0 127 127
0.005605 0.469021 -0.442056 0 127 127
-0.199758 0.592108 -0.293519 0 127 127
-0.461495 -0.347173 -0.284750 0 127 127
-0.067439 0.924787 -0.255512 153 0 76
-0.406593 0.101225 -0.372220 0 127 127
-0.000293 -0.387436 0.545799 0 127 127
-0.459727 0.378007 -0.287054 0 127 127
-0.500684 -0.470867 -0.202182 0 127 127
0.256010 -0.016436 0.478054 0 127 127
-0.389062 0.815546 0.035859 153 0 76
0.004960 -0.582794 -0.548073 0 127 127
0.441644 -0.582756 -0.294536 0 127 127
0.502389 -0.183886 0.190630 0 127 127
-0.122700 -0.832750 0.418774 0 127 127
-0.100915 -0.841435 -0.527553 0 127 127
-0.353874 0.862847 -0.166773 153 0 76
0.526735 0.435977 0.050085 0 127 127
0.121651 0.614789 0.463049 0 127 127
0.354318 -0.489199 -0.397553 0 127 127
0.514869 -0.578406 0.160501 0 127 127
-0.481479 -0.628855 0.270907 0 127 127
0.104215 0.339327 0.522265 0 127 127
-0.327482 0.581293 0.136186 0 127 127
-0.006623 -0.791449 0.546513 0 127 127
0.479870 -0.341168 -0.222637 0 127 127
0.301920 0.459306 0.447010 0 127 127
0.257786 -0.609032 -0.480284 0 127 127
0.456180 0.002448 -0.291512 0 127 127
-0.540354 0.175157 -0.106850 0 127 127
0.133910 -0.508134 -0.531096 0 127 127
-0.130895 -0.037599 0.530153 0 127 127
-0.315606 -0.489321 -0.448944 0 127 127
-0.307176 -0.078685 0.440231 0 127 127
0.338061 0.584158 -0.064681 0 127 127
0.364050 -0.180374 -0.390085 0 127 127
-0.188787 -0.633375 0.500521 0 127 127
0.346030 0.300959 0.413163 0 127 127
0.406448 0.653340 0.027792 0 127 127
-0.520288 -0.676366 -0.154854 0 127 127
0.006337 -0.822495 -0.311799 0 127 127
0.498949 -0.185676 -0.176576 0 127 127
-0.415601 -0.603615 -0.360480 0 127 127
-0.360661 -0.839512 0.376839 0 127 127
-0.533862 0.468845 0.078952 0 127 127
0.112552 0.034565 0.521167 0 127 127
-0.506012 -0.520647 0.186355 0 127 127
0.028827 0.612850 0.346462 0 127 127
-0.355735 -0.138552 -0.418152 0 127 127
0.376175 0.395519 -0.379856 0 127 127
0.361672 0.551770 0.377673 0 127 127
-0.100947 0.584000 0.337595 0 127 127
0.053378 -0.256875 -0.541698 0 127 127
0.087028 0.105356 -0.527493 0 127 127
-0.041845 0.924787 0.238543 153 0 76
-0.534041 -0.219184 -0.080557 0 127 127
0.528963 0.207847 0.096663 0 127 127
0.422459 0.119528 -0.335458 0 127 127
-0.004797 -0.709412 -0.549023 0 127 127
0.313309 -0.825744 0.149724 0 127 127
-0.149522 0.794275 0.355308 153 0 76
0.327796 0.796076 -0.197843 153 0 76
0.151763 -0.770822 -0.513710 0 127 127
-0.481467 0.013586 0.270936 0 127 127
-0.431298 0.618274 -0.214138 0 127 127
0.418711 0.469021 -0.072740 0 127 127
-0.138803 0.581538 0.493019 0 127 127
-0.514457 0.418692 -0.168931 0 127 127
0.320967 -0.842643 0.418604 0 127 127
0.402677 -0.830770 -0.049773 0 127 127
0.182322 0.798758 0.336610 153 0 76
-0.205830 -0.820217 -0.192004 0 127 127
0.233888 -0.172379 0.476728 0 127 127
0.230908 0.087211 -0.491417 0 127 127
0.334586 0.754410 0.030800 76 153 0
-0.057324 -0.057930 -0.533028 0 127 127
-0.006054 0.393481 0.536782 0 127 127
0.435078 0.625560 0.149401 0 127 127
-0.272299 -0.819941 0.045136 0 127 127
-0.002504 0.741937 -0.388808 153 0 76
0.483304 -0.330339 0.211381 0 127 127
0.426667 -0.134955 0.327009 0 127 127
-0.091458 -0.822690 0.300976 0 127 127
0.400124 0.520265 -0.353361 0 127 127
0.276666 0.214968 0.466388 0 127 127
0.252182 0.898761 -0.287881 153 0 76
-0.208590 -0.578470 -0.495284 0 127 127
-0.330204 0.619042 0.346431 0 127 127
0.090813 0.627719 -0.454900 0 127 127
0.317900 0.924787 0.204346 153 0 76
-0.015720 -0.832095 -0.430148 0 127 127
0.217854 0.469021 -0.367299 0 127 127
-0.536877 -0.122589 0.130300 0 127 127
0.088274 0.924787 0.219402 153 0 76
0.294729 0.469021 0.323009 0 127 127
-0.332963 0.826600 0.204227 153 0 76
-0.387136 -0.717145 -0.381657 0 127 127
-0.384526 0.263919 0.380878 0 127 127
-0.273675 0.924787 -0.104750 153 0 76
-0.054386 -0.813144 0.101838 0 127 127
0.218530 0.559824 0.266679 0 127 127
0.096686 -0.841779 0.517409 0 127 127
-0.061321 0.165323 0.529537 0 127 127
0.117122 -0.819090 0.223398 0 127 127
-0.295537 0.469021 0.320481 0 127 127
0.523293 0.087697 0.065482 0 127 127
0.471617 -0.111951 -0.267886 0 127 127
-0.494070 -0.416716 0.240510 0 127 127
0.423805 -0.465068 0.314820 0 127 127
-0.286459 -0.297968 -0.471309 0 127 127
-0.222103 0.548360 0.273408 0 127 127
0.172029 0.241407 0.512840 0 127 127
-0.215334 -0.838478 0.489525 0 127 127
0.416156 -0.702765 -0.327753 0 127 127
-0.494198 -0.580519 -0.243166 0 127 127
0.338648 0.770393 0.170770 153 0 76
0.519437 -0.423532 -0.097738 0 127 127
0.467127 0.463069 0.274281 0 127 127
-0.142457 0.082462 0.528630 0 127 127
0.164147 -0.377511 0.505615 0 127 127
0.472262 0.206897 0.238038 0 127 127
0.412080 -0.332358 -0.333064 0 127 127
0.524242 0.054935 -0.135492 0 127 127
0.191488 -0.822285 -0.235603 0 127 127
-0.056794 0.310974 -0.533098 0 127 127
0.506143 0.466481 -0.184533 0 127 127
-0.126572 -0.813343 0.010634 0 127 127
-0.225222 0.779667 -0.318038 153 0 76
-0.245985 -0.444265 0.487319 0 127 127
0.189572 -0.717307 0.495084 0 127 127
0.245383 -0.349051 -0.474932 0 127 127
0.186332 0.469021 0.453909 0 127 127
-0.493858 0.191837 -0.243989 0 127 127
0.282029 -0.822005 -0.094292 0 127 127
0.110553 0.291274 -0.534171 0 127 127
-0.497684 -0.023385 -0.209425 0 127 127
-0.162673 -0.236143 -0.524793 0 127 127
0.395643 0.644156 -0.167451 0 127 127
-0.547369 -0.322280 0.050607 0 127 127
-0.082244 0.469021 0.416025 0 127 127
0.317423 0.597177 -0.377573 0 127 127
0.458276 0.554138 -0.248377 0 127 127
-0.095015 0.190676 -0.537841 0 127 127
0.532445 0.499904 -0.052372 0 127 127
-0.304246 0.469021 -0.382032 0 127 127
0.342398 -0.752909 -0.406699 0 127 127
-0.535818 0.547897 -0.013059 0 127 127
0.323898 0.551860 0.115043 0 127 127
-0.285740 0.081905 -0.459644 0 127 127
0.052816 -0.823220 0.312765 0 127 127
-0.265847 0.140599 0.468602 0 127 127
0.526983 -0.470641 0.111704 0 127 127
-0.002307 0.506392 0.542034 0 127 127
0.517426 0.004263 0.154327 0 127 127
-0.320693 0.661995 0.211372 0 127 127
0.297930 0.014765 -0.440821 0 127 127
-0.050802 0.833443 0.380449 153 0 76
-0.279550 -0.822726 0.155283 0 127 127
-0.414536 0.469021 -0.180351 0 127 127
-0.010900 0.490659 -0.547497 0 127 127
0.042228 -0.015920 -0.543166 0 127 127
0.463495 0.328357 -0.262169 0 127 127
-0.009771 -0.507419 0.536324 0 127 127
0.015404 -0.813214 -0.116481 0 127 127
-0.403108 0.469021 0.180150 0 127 127
0.411555 -0.845682 -0.246594 0 127 127
0.079122 -0.173071 0.535344 0 127 127
-0.256129 0.626985 -0.393643 0 127 127
0.180927 0.674703 -0.289070 76 153 0
0.388405 -0.620789 0.376873 0 127 127
-0.399779 0.655891 0.107782 0 127 127
-0.251441 0.924787 0.114220 153 0 76
-0.494884 -0.718498 0.213219 0 127 127
-0.337114 0.043898 0.429474 0 127 127
-0.150560 -0.129699 -0.529810 0 127 127
-0.275899 0.278332 -0.477893 0 127 127
-0.302961 -0.188132 0.443465 0 127 127
0.531642 -0.260226 0.002068 0 127 127
-0.527848 0.521660 -0.142876 0 127 127
-0.272681 -0.078483 -0.479226 0 127 127
0.275458 0.211943 -0.458064 0 127 127
-0.549257 0.372726 0.036261 0 127 127
-0.485472 0.571054 0.185996 0 127 127
-0.172080 0.541111 -0.505919 0 127 127
-0.175412 0.657334 0.362721 0 127 127
0.291238 0.574030 -0.188068 0 127 127
0.220352 0.731376 0.255853 153 0 76
0.124841 0.575699 0.322586 0 127 127
-0.111214 -0.163194 0.522968 0 127 127
0.080323 0.469021 0.425425 0 127 127
-0.054258 0.652936 -0.412815 0 127 127
0.494381 -0.445533 -0.212928 0 127 127
-0.304245 -0.653457 0.442480 0 127 127
-0.288405 0.924787 0.220054 153 0 76
-0.541229 0.344325 -0.100210 0 127 127
-0.488349 0.236314 0.228996 0 127 127
-0.376991 0.373249 0.398876 0 127 127
0.342276 0.924787 0.023035 153 0 76
-0.171900 0.924787 -0.258312 153 0 76
0.089023 0.924787 -0.370962 153 0 76
0.138268 -0.585142 0.526825 0 127 127
0.444605 -0.361354 0.303631 0 127 127
0.531114 -0.184997 0.080331 0 127 127
-0.388789 -0.845468 -0.298149 0 127 127
-0.192781 0.469021 -0.430026 0 127 127
-0.250628 -0.845078 -0.414741 0 127 127
0.032380 0.924787 -0.230795 153 0 76
-0.492371 -0.845482 -0.016424 0 127 127
-0.439176 0.469021 -0.055247 0 127 127
0.417995 -0.704477 0.322390 0 127 127
0.222196 0.467901 -0.495026 0 127 127
-0.388835 -0.336494 0.376478 0 127 127
0.290217 -0.223154 -0.446739 0 127 127
-0.316599 0.524515 0.434815 0 127 127
-0.417377 0.091698 0.339281 0 127 127
0.357530 0.650827 0.214872 0 127 127
0.216670 0.648950 0.363356 0 127 127
-0.441050 -0.835092 -0.144324 0 127 127
-0.292634 0.543737 -0.202332 0 127 127
-0.139194 -0.746326 -0.532025 0 127 127
0.483012 -0.841482 0.212086 0 127 127
-0.259955 0.657288 -0.244921 76 153 0
-0.440562 0.535803 0.305190 0 127 127
-0.444510 -0.094146 0.319840 0 127 127
-0.316144 -0.757200 -0.446051 0 127 127
-0.165691 -0.247642 0.510088 0 127 127
0.228477 -0.704710 -0.492424 0 127 127
-0.087559 0.924787 0.093295 153 0 76
0.392155 0.469021 -0.207911 0 127 127
-0.334230 0.924787 0.035341 153 0 76
-0.264279 0.760700 0.236321 76 153 0
-0.390260 0.714918 0.026764 153 0 76
0.278729 -0.758296 0.460768 0 127 127
0.176535 -0.109501 -0.513939 0 127 127
0.123918 0.577038 -0.325934 0 127 127
-0.092402 0.642700 0.428610 0 127 127
-0.243283 -0.678964 -0.491403 0 127 127
-0.539363 0.094933 0.111413 0 127 127
-0.162697 -0.820189 0.223726 0 127 127
-0.294875 -0.822717 -0.120908 0 127 127
0.123177 0.469021 -0.440460 0 127 127
-0.130181 -0.821122 -0.262118 0 127 127
-0.369769 0.281438 -0.407383 0 127 127
-0.078495 0.805576 -0.379769 153 0 76
0.429168 0.641350 -0.068656 0 127 127
-0.098401 -0.841382 0.516700 0 127 127
0.038339 -0.031583 0.540713 0 127 127
-0.447631 0.418109 0.299853 0 127 127
-0.437456 0.016066 -0.331998 0 127 127
-0.107994 0.267184 0.533168 0 127 127
0.276045 0.653299 -0.305543 0 127 127
-0.455153 0.638544 0.005276 0 127 127
-0.437390 -0.841679 0.302809 0 127 127
-0.536788 -0.315544 -0.059689 0 127 127
0.530345 -0.825419 0.086171 0 127 127
0.532501 -0.585662 -0.072755 0 127 127
0.352513 0.242820 -0.398938 0 127 127
0.301700 -0.092277 0.434962 0 127 127
-0.096093 -0.367519 0.524959 0 127 127
-0.342458 -0.235851 -0.416123 0 127 127
0.173501 0.861258 -0.343229 153 0 76
-0.088325 0.469021 -0.413730 0 127 127
0.475599 0.209584 -0.258273 0 127 127
0.504635 -0.634507 -0.162847 0 127 127
0.091060 -0.812752 0.001406 0 127 127
0.178394 -0.844066 -0.453915 0 127 127
0.146432 0.764719 -0.310250 76 153 0
0.284515 0.924787 0.112675 153 0 76
-0.181916 0.924787 0.262480 153 0 76
0.104331 0.876100 0.368915 153 0 76
0.283032 0.587294 0.195796 0 127 127
0.378982 -0.269746 0.373234 0 127 127
0.484754 -0.658987 0.207879 0 127 127
0.286074 0.409631 -0.449918 0 127 127
0.314553 -0.402761 -0.428065 0 127 127
0.435147 0.469021 0.047547 0 127 127
-0.351325 0.720366 -0.172928 153 0 76
-0.132559 0.056075 -0.523124 0 127 127
-0.544260 0.261446 0.074220 0 127 127
0.313446 -0.616776 0.438165 0 127 127
-0.173065 -0.539074 0.517523 0 127 127
-0.436993 0.216555 0.313716 0 127 127
0.519509 0.169921 -0.152265 0 127 127
0.295901 0.924787 -0.102869 153 0 76
-0.443034 -0.224666 0.305844 0 127 127
0.312828 -0.424481 0.426424 0 127 127
0.496556 0.370593 -0.182352 0 127 127
-0.026535 -0.698171 0.543892 0 127 127
-0.272653 -0.842504 0.413421 0 127 127
-0.497684 0.373965 0.231785 0 127 127
-0.488941 -0.839083 0.124962 0 127 127
-0.221865 0.494693 -0.276556 0 127 127
0.529787 0.283310 -0.093369 0 127 127
0.498440 0.550653 0.152899 0 127 127
0.044351 -0.588126 0.539921 0 127 127
-0.164917 -0.845644 -0.457693 0 127 127
-0.400273 0.656740 -0.095337 0 127 127
-0.369156 -0.710241 0.403210 0 127 127
0.219730 -0.819550 0.136224 0 127 127
-0.529858 -0.464213 -0.112326 0 127 127
0.214002 0.283545 -0.498420 0 127 127
0.372660 0.045493 -0.383478 0 127 127
0.220049 0.924787 0.233911 153 0 76
0.530695 -0.721072 0.009263 0 127 127
-0.551217 -0.145297 -0.024339 0 127 127
0.363581 0.469021 0.258406 0 127 127
0.003901 -0.336773 -0.548212 0 127 127
0.486553 0.393952 0.203536 0 127 127
0.514299 -0.376724 0.133802 0 127 127
-0.122358 -0.814006 -0.083475 0 127 127
0.507082 -0.747583 -0.156942 0 127 127
-0.498711 0.080374 0.203982 0 127 127
-0.348814 0.580286 -0.076748 0 127 127
0.039619 -0.813149 0.103067 0 127 127
-0.116568 0.607274 -0.334090 0 127 127
-0.422126 -0.412442 0.333092 0 127 127
0.528202 -0.494562 -0.031165 0 127 127
0.245659 -0.833369 0.358753 0 127 127
-0.521969 0.115220 -0.176122 0 127 127
0.531299 -0.076167 -0.081890 0 127 127
-0.018912 0.477347 -0.352358 0 127 127
0.367740 0.469021 0.113663 0 127 127
0.374813 -0.830096 -0.137987 0 127 127
-0.498746 -0.067488 0.203897 0 127 127
-0.544805 -0.702112 0.070078 0 127 127
0.412696 0.301036 0.345217 0 127 127
0.197651 -0.253962 0.502228 0 127 127
-0.077440 -0.421407 -0.530380 0 127 127
-0.176261 0.369851 -0.519165 0 127 127
-0.267542 0.233482 0.478390 0 127 127
-0.381756 -0.520667 -0.385969 0 127 127
0.388886 -0.833694 0.200724 0 127 127
0.473554 0.040385 0.234920 0 127 127
-0.434310 -0.765526 -0.320178 0 127 127
0.209088 0.477102 -0.276889 0 127 127
0.508052 -0.087983 0.176959 0 127 127
0.415904 -0.120202 -0.344001 0 127 127
0.098444 0.924787 0.084616 153 0 76
0.331164 -0.842799 -0.414780 0 127 127
0.341707 0.589819 0.034027 0 127 127
-0.536710 0.020725 0.057314 0 127 127
-0.382288 -0.517614 0.382595 0 127 127
0.232222 0.924787 -0.203211 153 0 76
-0.076642 0.924787 -0.097805 153 0 76
0.083820 -0.843654 -0.466693 0 127 127
0.428074 -0.019853 0.325176 0 127 127
0.337488 -0.834756 -0.297849 0 127 127
-0.402568 -0.055313 -0.377465 0 127 127
-0.218134 -0.724266 0.488470 0 127 127
0.077702 0.457309 -0.528721 0 127 127
-0.329314 0.574737 -0.399042 0 127 127
-0.510282 -0.769598 -0.179543 0 127 127
0.173812 0.924787 0.034209 153 0 76
-0.449927 -0.169474 -0.299826 0 127 127
0.209601 -0.817089 0.024962 0 127 127
-0.171218 0.469021 0.432143 0 127 127
0.178184 0.550258 0.490923 0 127 127
0.303439 -0.682276 -0.448809 0 127 127
-0.370616 0.837996 0.123390 153 0 76
-0.238048 -0.489226 -0.493572 0 127 127
-0.192502 0.695437 -0.289658 76 153 0
-0.369519 0.469021 0.270153 0 127 127
0.504495 -0.771813 0.160221 0 127 127
0.486716 -0.795328 -0.231434 0 127 127
0.283225 -0.535955 0.461355 0 127 127
-0.281421 0.578630 0.213981 0 127 127
0.448704 -0.834983 0.031935 0 127 127
-0.533896 -0.039760 -0.081659 0 127 127
-0.530504 -0.760903 0.135996 0 127 127
0.038208 0.701139 0.337682 76 153 0
0.496016 0.587945 -0.043477 0 127 127
-0.237216 0.924787 -0.187057 153 0 76
-0.225860 -0.063723 0.485165 0 127 127
-0.006165 -0.816808 -0.214869 0 127 127
0.013967 -0.294469 0.534146 0 127 127
0.067936 0.563104 0.512433 0 127 127
-0.488445 -0.121590 -0.231731 0 127 127
0.060188 0.568589 -0.513395 0 127 127
-0.308784 0.837872 -0.238704 153 0 76
0.198798 -0.818899 -0.147619 0 127 127
-0.096463 0.376366 0.534686 0 127 127
-0.220745 0.757320 0.318508 153 0 76
0.395463 -0.410387 -0.370641 0 127 127
0.290258 -0.532700 -0.446708 0 127 127
-0.413095 0.469021 -0.297530 0 127 127
0.272825 0.678731 0.196811 76 153 0
-0.049310 0.399822 -0.534083 0 127 127
0.005610 0.839645 -0.387739 153 0 76
0.347346 0.192516 0.412153 0 127 127
-0.215984 0.211566 -0.492221 0 127 127
-0.510399 -0.193184 0.175763 0 127 127
0.153017 0.411908 0.520614 0 127 127
-0.408030 0.587999 -0.304590 0 127 127
-0.357276 0.514317 -0.012478 0 127 127
-0.253390 -0.257691 0.484252 0 127 127
0.117284 -0.822281 -0.281578 0 127 127
-0.459594 0.469021 0.033522 0 127 127
-0.297936 -0.380338 0.459537 0 127 127
-0.008620 0.469021 0.462174 0 127 127
-0.183154 -0.323809 -0.505820 0 127 127
0.297168 0.613610 0.370050 0 127 127
0.494533 0.028974 -0.212562 0 127 127
-0.312639 -0.822394 -0.031373 0 127 127
0.178361 -0.512767 0.499728 0 127 127
-0.426272 -0.395986 -0.346574 0 127 127
0.085139 -0.712543 -0.533640 0 127 127
0.500103 -0.271894 -0.173789 0 127 127
0.072364 0.254476 0.526458 0 127 127
0.174948 -0.427440 -0.504107 0 127 127
0.232439 0.469021 0.263510 0 127 127
-0.541076 -0.498519 -0.027119 0 127 127
0.420377 0.334808 -0.338173 0 127 127
0.332867 0.387757 0.411047 0 127 127
-0.382433 0.839946 -0.089183 153 0 76
-0.457147 0.145357 -0.306336 0 127 127
-0.330622 0.493825 0.128605 0 127 127
-0.397148 0.185340 -0.384529 0 127 127
0.358171 0.614530 0.309520 0 127 127
0.217835 0.554177 -0.475389 0 127 127
0.524491 -0.002109 0.056387 0 127 127
0.083887 -0.361303 0.534716 0 127 127
-0.181363 0.498971 0.511345 0 127 127
-0.540014 -0.766223 -0.035184 0 127 127
0.388194 -0.801649 0.377149 0 127 127
0.036131 0.924787 0.290990 153 0 76
-0.550599 0.042139 -0.029031 0 127 127
0.084451 0.656543 0.393626 0 127 127
-0.482890 0.297932 -0.270466 0 127 127
-0.353880 0.651488 -0.235502 0 127 127
-0.427046 0.322193 -0.345565 0 127 127
0.351806 0.855364 -0.141969 153 0 76
-0.481145 0.469021 0.145525 0 127 127
0.203438 -0.537568 -0.492306 0 127 127
0.475149 -0.137727 0.256393 0 127 127
0.321975 0.643918 -0.122651 76 153 0
0.506404 0.259424 0.180938 0 127 127
-0.384768 -0.251016 0.392909 0 127 127
-0.039330 -0.502365 -0.545172 0 127 127
0.233613 -0.011217 -0.490297 0 127 127
0.338350 0.493132 -0.062488 0 127 127
-0.304285 0.397367 0.442449 0 127 127
0.483431 -0.534275 -0.239364 0 127 127
-0.013206 -0.202322 0.535871 0 127 127
-0.100742 0.924787 -0.367765 153 0 76
0.360369 -0.827439 0.076803 0 127 127
0.377231 0.827098 0.031982 153 0 76
0.136810 -0.256035 -0.530394 0 127 127
0.011787 0.924787 0.039925 153 0 76
-0.050678 -0.827839 0.374411 0 127 127
0.520456 -0.622217 0.087030 0 127 127
0.094388 0.195438 -0.536299 0 127 127
-0.503228 -0.387744 -0.221365 0 127 127
0.117080 -0.758315 0.527098 0 127 127
0.091358 0.472325 0.336455 0 127 127
0.520288 -0.805201 -0.091276 0 127 127
0.395933 -0.258666 -0.370028 0 127 127
0.518913 -0.224049 -0.101720 0 127 127
-0.539593 0.258836 -0.112634 0 127 127
0.007433 0.924787 -0.045305 153 0 76
0.309019 0.027795 0.429346 0 127 127
0.003703 0.666360 -0.352735 76 153 0
-0.008868 0.655728 0.407602 0 127 127
0.306392 0.736385 -0.140725 76 153 0
-0.159224 0.924787 -0.065872 153 0 76
-0.299081 -0.406905 -0.449407 0 127 127
-0.047420 -0.037066 0.531367 0 127 127
0.062685 0.750796 -0.337425 76 153 0
0.390065 -0.558686 -0.361755 0 127 127
0.418474 0.493610 0.335061 0 127 127
-0.175261 0.657450 -0.365382 0 127 127
-0.467192 -0.264036 -0.293246 0 127 127
-0.215265 0.046959 -0.492519 0 127 127
0.410857 -0.550952 0.331694 0 127 127
0.008834 0.135164 -0.537787 0 127 127
0.336975 0.666421 -0.015623 76 153 0
0.439289 -0.794831 0.310560 0 127 127
0.530839 0.380276 -0.011131 0 127 127
-0.538222 -0.453022 0.045831 0 127 127
-0.034814 -0.787059 -0.544832 0 127 127
-0.139323 0.717300 0.313603 153 0 76
-0.541757 0.199905 0.018982 0 127 127
0.475361 0.120203 0.255883 0 127 127
-0.090437 -0.816432 0.184173 0 127 127
0.486620 -0.541804 0.228700 0 127 127
-0.412561 -0.834058 0.182946 0 127 127
-0.231268 0.869245 -0.313398 153 0 76
-0.531061 -0.255492 -0.154171 0 127 127
0.148433 -0.845031 0.450251 0 127 127
-0.493001 -0.242054 0.243091 0 127 127
-0.426421 -0.651286 0.327495 0 127 127
0.152260 0.924787 -0.049862 153 0 76
-0.119783 -0.664994 0.531615 0 127 127
0.392082 0.125225 0.356161 0 127 127
0.093526 -0.431156 -0.536413 0 127 127
-0.084402 0.522982 -0.531436 0 127 127
-0.040447 -0.268121 -0.545025 0 127 127
0.514798 0.424241 0.130013 0 127 127
-0.317280 0.469021 -0.174486 0 127 127
-0.088766 0.503364 0.340196 0 127 127
-0.269216 -0.826389 0.248494 0 127 127
0.240910 0.416759 0.484309 0 127 127
0.376913 0.780920 -0.037361 153 0 76
0.339817 0.469021 -0.372025 0 127 127
-0.323721 0.340249 -0.442717 0 127 127
-0.166321 0.924787 0.073753 153 0 76
0.527975 0.161720 0.029920 0 127 127
0.190294 0.027989 0.494785 0 127 127
0.048668 -0.506585 -0.532543 0 127 127
0.270456 0.500532 -0.215152 0 127 127
0.043401 0.083700 0.530271 0 127 127
0.528904 -0.342862 -0.025828 0 127 127
-0.518484 -0.366758 0.181569 0 127 127
-0.083748 -0.573398 -0.539325 0 127 127
-0.532717 -0.054203 0.087644 0 127 127
0.327292 -0.318520 0.415325 0 127 127
-0.469354 -0.769571 0.271881 0 127 127
0.001057 -0.120961 -0.538811 0 127 127
-0.378635 0.547648 0.376667 0 127 127
0.258241 0.758965 -0.218783 76 153 0
0.030675 0.298209 -0.544687 0 127 127
-0.021727 -0.845370 0.485373 0 127 127
-0.411366 -0.315139 -0.350080 0 127 127
0.289740 -0.228252 0.444140 0 127 127
0.367605 0.725948 0.100863 153 0 76
0.381667 0.168616 -0.388619 0 127 127
-0.542016 -0.583268 -0.019982 0 127 127
0.539689 0.095785 -0.018162 0 127 127
-0.154260 0.781465 -0.356311 153 0 76
0.329789 -0.112857 -0.416375 0 127 127
0.049021 0.552950 -0.346769 0 127 127
-0.157223 -0.421479 -0.527050 0 127 127
-0.349897 0.544407 0.065557 0 127 127
-0.259810 0.469021 0.391797 0 127 127
0.315477 -0.829426 0.231219 0 127 127
0.254598 -0.381324 0.468149 0 127 127
-0.515217 0.277133 0.164131 0 127 127
0.153602 -0.184374 0.509983 0 127 127
0.298032 0.858899 -0.236632 153 0 76
0.208994 0.638392 0.273996 0 127 127
0.539837 -0.107041 0.014067 0 127 127
-0.537050 -0.624587 0.054732 0 127 127
-0.064922 0.550112 0.520861 0 127 127
0.031398 0.924787 -0.310011 153 0 76
0.170385 0.656114 -0.366511 0 127 127
-0.225729 0.469363 0.270626 0 127 127
-0.202729 0.458053 -0.507725 0 127 127
0.225426 -0.093853 0.480233 0 127 127
-0.503223 -0.299053 -0.221379 0 127 127
-0.284392 -0.826491 -0.233716 0 127 127
-0.334349 0.230901 0.431596 0 127 127
-0.547209 -0.126230 0.051818 0 127 127
0.141548 0.109018 0.525466 0 127 127
0.216928 0.865232 0.311967 153 0 76
0.475990 -0.247038 0.229039 0 127 127
-0.373293 -0.826956 0.027448 0 127 127
-0.346828 0.116676 -0.424986 0 127 127
-0.346692 0.696023 -0.035564 153 0 76
-0.232408 0.469021 -0.349826 0 127 127
0.082990 0.924787 -0.096684 153 0 76
0.263191 -0.682898 0.475080 0 127 127
-0.027229 0.558309 0.348297 0 127 127
0.441071 0.388874 0.295168 0 127 127
0.323335 0.844663 0.200690 153 0 76
-0.528992 -0.495799 0.115938 0 127 127
0.540492 -0.645297 -0.012058 0 127 127
0.111489 0.752263 0.328116 76 153 0
-0.181694 0.863884 0.341982 153 0 76
-0.288579 0.452197 -0.457466 0 127 127
-0.413007 -0.131210 -0.363860 0 127 127
-0.168846 0.418135 0.519271 0 127 127
-0.021024 0.753258 0.384370 153 0 76
-0.368046 -0.091468 0.393524 0 127 127
0.441560 -0.780813 -0.294645 0 127 127
0.513435 -0.383744 -0.166928 0 127 127
-0.384391 -0.441486 -0.396163 0 127 127
-0.065667 0.924787 0.312429 153 0 76
-0.257396 0.640765 0.362317 0 127 127
0.369644 -0.111698 0.395043 0 127 127
0.161485 -0.824072 0.286839 0 127 127
-0.332383 0.741093 0.204983 153 0 76
-0.487520 0.434110 -0.240045 0 127 127
-0.095207 -0.540287 0.534851 0 127 127
-0.379595 0.457592 -0.398587 0 127 127
-0.514249 -0.592730 -0.169435 0 127 127
-0.426942 -0.573628 0.326815 0 127 127
-0.292443 0.924787 -0.029822 153 0 76
0.475987 -0.615497 -0.232012 0 127 127
0.277145 0.135395 0.453804 0 127 127
0.521719 0.282772 0.077437 0 127 127
0.382959 0.039994 0.368051 0 127 127
-0.238345 0.381219 0.488536 0 127 127
0.371087 0.317678 -0.396901 0 127 127
-0.330189 0.924787 -0.206083 153 0 76
-0.240783 0.534068 0.477062 0 127 127
0.200108 -0.284232 -0.493685 0 127 127
0.050566 -0.644107 -0.532293 0 127 127
0.474493 0.533825 0.228227 0 127 127
-0.487157 0.570773 -0.185380 0 127 127
0.526493 -0.144281 -0.118392 0 127 127
0.298999 0.748536 0.232406 153 0 76
-0.233239 0.301941 0.482109 0 127 127
-0.356951 0.924787 -0.119719 153 0 76
-0.444054 -0.556696 -0.307480 0 127 127
-0.104938 0.587571 -0.496445 0 127 127
0.086218 -0.572775 -0.527600 0 127 127
-0.541728 -0.709852 -0.089819 0 127 127
-0.478845 -0.548150 0.251943 0 127 127
0.020627 0.649314 -0.425988 0 127 127
-0.471686 0.469021 -0.124030 0 127 127
-0.280149 -0.561257 -0.476133 0 127 127
-0.191078 -0.830099 -0.362452 0 127 127
0.362966 0.785137 -0.115027 153 0 76
-0.097093 0.521668 -0.342065 0 127 127
-0.502409 0.361454 -0.223343 0 127 127
-0.221419 0.593519 -0.451944 0 127 127
-0.508944 0.155541 0.204602 0 127 127
0.246850 0.469021 0.381546 0 127 127
0.161183 0.083678 -0.520298 0 127 127
-0.479272 -0.432188 -0.277502 0 127 127
-0.170341 0.591568 0.308851 0 127 127
-0.087342 -0.835335 -0.453644 0 127 127
0.533506 0.361894 0.062158 0 127 127
-0.426963 0.412209 -0.345673 0 127 127
0.071574 0.416586 0.536337 0 127 127
-0.313527 -0.833552 0.318464 0 127 127
0.018050 0.199700 0.543384 0 127 127
-0.453092 -0.834392 0.046701 0 127 127
-0.527361 -0.572180 0.128329 0 127 127
0.439197 0.469021 -0.149326 0 127 127
0.519746 -0.544247 0.092426 0 127 127
-0.311707 -0.839984 -0.357106 0 127 127
-0.400111 0.644442 0.181991 0 127 127
-0.521911 0.220024 -0.176261 0 127 127
0.343053 0.469021 0.385008 0 127 127
0.081964 -0.813277 -0.081849 0 127 127
0.308537 0.533977 0.427518 0 127 127
0.109890 0.371052 -0.534258 0 127 127
-0.203223 0.121482 0.505032 0 127 127
-0.544267 -0.264173 -0.002884 0 127 127
-0.268020 -0.001381 -0.470667 0 127 127
-0.048656 -0.812387 -0.070759 0 127 127
0.104625 0.924787 -0.206406 153 0 76
-0.262658 0.156496 -0.472888 0 127 127
-0.047458 0.924787 0.163803 153 0 76
0.379570 -0.447825 0.372468 0 127 127
0.051465 0.537886 0.343482 0 127 127
-0.528559 0.525950 0.126560 0 127 127
0.149146 -0.658744 0.522319 0 127 127
0.534530 -0.349389 0.054381 0 127 127
-0.540783 -0.267463 0.100633 0 127 127
0.256832 -0.845175 -0.411524 0 127 127
-0.531666 -0.383167 -0.098595 0 127 127
-0.196949 -0.835366 0.416525 0 127 127
0.401765 -0.202876 0.343543 0 127 127
0.153426 0.442130 -0.513021 0 127 127
-0.306921 -0.467920 0.452642 0 127 127
0.135137 -0.180451 -0.520597 0 127 127
0.105072 -0.059921 -0.534893 0 127 127
0.260690 -0.158891 -0.479081 0 127 127
0.249399 0.355323 -0.483758 0 127 127
-0.196017 -0.815922 0.035243 0 127 127
-0.344135 0.791600 -0.190285 153 0 76
-0.511793 -0.601291 0.197723 0 127 127
0.527387 0.492864 0.096764 0 127 127
0.024770 0.846790 0.382252 153 0 76
0.181330 -0.826712 -0.317407 0 127 127
-0.520529 -0.182729 -0.154274 0 127 127
-0.063410 0.924787 -0.170020 153 0 76
0.476700 -0.845499 -0.040369 0 127 127
0.475654 -0.040187 -0.232814 0 127 127
-0.423261 -0.671785 -0.334577 0 127 127
0.533880 0.512290 0.019790 0 127 127
-0.543507 -0.629747 -0.082900 0 127 127
-0.485445 -0.511025 -0.264297 0 127 127
-0.221597 -0.261851 -0.489896 0 127 127
0.337782 0.654673 -0.225120 0 127 127
-0.382430 0.763002 0.086238 153 0 76
-0.494808 -0.326613 0.238729 0 127 127
0.541335 0.224762 -0.005659 0 127 127
0.045751 -0.829073 -0.390993 0 127 127
-0.546250 0.117916 -0.062067 0 127 127
0.408341 0.447503 -0.337937 0 127 127
-0.508451 -0.842256 -0.174850 0 127 127
-0.179568 -0.413851 0.514830 0 127 127
0.198909 0.724396 0.324948 153 0 76
0.416965 -0.631659 -0.342618 0 127 127
0.241784 0.517972 0.477150 0 127 127
-0.018474 -0.821850 0.298890 0 127 127
0.477642 0.469021 -0.016117 0 127 127
-0.157022 -0.103150 0.513679 0 127 127
-0.411444 0.167894 0.362932 0 127 127
0.073493 -0.094601 0.536085 0 127 127
-0.170297 0.018949 0.508180 0 127 127
0.025660 -0.188849 -0.535572 0 127 127
-0.172017 -0.685235 -0.510433 0 127 127
0.321703 0.545558 -0.123308 0 127 127
-0.479744 -0.005989 -0.276888 0 127 127
0.108303 -0.824237 -0.534467 0 127 127
0.463470 0.073345 -0.282012 0 127 127
0.249968 0.632749 -0.241852 76 153 0
-0.468677 -0.698071 0.288344 0 127 127
0.127409 -0.815883 -0.141049 0 127 127
-0.039047 -0.639332 -0.545210 0 127 127
0.225330 0.924787 -0.090355 153 0 76
-0.167801 0.621373 0.440988 0 127 127
0.069041 -0.361588 -0.529861 0 127 127
0.519738 -0.004295 -0.095450 0 127 127
-0.096950 0.025233 0.534621 0 127 127
0.369787 0.923447 -0.091494 153 0 76
0.526406 -0.485895 0.041838 0 127 127
-0.099712 0.117988 -0.537223 0 127 127
0.365899 0.469021 0.186964 0 127 127
-0.062625 -0.821165 -0.285451 0 127 127
-0.344146 0.461821 0.411863 0 127 127
0.296584 -0.831871 0.300089 0 127 127
-0.336409 0.663839 0.141697 76 153 0
0.447501 0.249029 0.299858 0 127 127
-0.366152 -0.640252 -0.397943 0 127 127
-0.271487 0.724396 -0.281612 153 0 76
0.503228 -0.250485 0.163281 0 127 127
-0.289203 -0.818953 -0.469203 0 127 127
0.451402 0.626298 0.080092 0 127 127
-0.113113 -0.014371 -0.525684 0 127 127
0.480120 -0.179552 -0.247358 0 127 127
-0.502990 0.046316 -0.196615 0 127 127
-0.491138 -0.756504 -0.247607 0 127 127
0.459048 -0.304481 -0.287774 0 127 127
0.505097 0.183229 0.158767 0 127 127
-0.511223 -0.450074 0.173774 0 127 127
0.466852 -0.384805 -0.277605 0 127 127
0.171640 0.319500 0.513001 0 127 127
-0.334183 -0.589629 0.431724 0 127 127
-0.387574 0.652301 -0.167614 0 127 127
0.411793 -0.492574 -0.349359 0 127 127
-0.543451 0.158296 0.080360 0 127 127
-0.051206 0.633560 0.345141 0 127 127
0.510553 -0.506524 0.170922 0 127 127
-0.067566 0.714621 -0.380467 153 0 76
-0.162090 0.535841 -0.315234 0 127 127
0.272142 -0.821231 0.084213 0 127 127
0.432393 0.149457 0.303626 0 127 127
-0.054212 0.908234 0.380000 153 0 76
0.157359 0.509601 -0.312082 0 127 127
-0.529018 -0.341934 0.115745 0 127 127
0.168640 0.171609 0.503754 0 127 127
-0.261858 0.656167 -0.315342 0 127 127
0.197899 0.924787 -0.324319 153 0 76
-0.539895 0.373698 -0.036088 0 127 127
0.236494 0.702257 -0.255860 76 153 0
0.517521 0.465104 -0.112292 0 127 127
-0.252854 -0.617210 0.473984 0 127 127
-0.463488 -0.623773 -0.298073 0 127 127
-0.304545 0.652798 0.290550 0 127 127
0.273346 0.143254 -0.471900 0 127 127
0.193029 -0.608136 -0.507107 0 127 127
0.260566 0.063086 0.465677 0 127 127
-0.329931 0.688297 -0.113691 76 153 0
0.144402 0.591050 -0.481057 0 127 127
-0.422834 -0.840878 -0.221044 0 127 127
0.455278 -0.670637 0.273802 0 127 127
0.339097 0.674345 0.053846 76 153 0
0.415269 0.566271 -0.302573 0 127 127
0.040514 0.053511 -0.533617 0 127 127
-0.207677 -0.108403 -0.495662 0 127 127
0.232744 -0.844788 0.426453 0 127 127
-0.540423 0.508517 -0.072505 0 127 127
0.165719 0.638597 0.409976 0 127 127
-0.350977 0.764361 -0.003009 76 153 0
0.369056 0.795395 0.094076 153 0 76
0.152959 -0.446686 0.520740 0 127 127
-0.327361 -0.824490 0.102319 0 127 127
-0.393552 0.877891 0.001756 153 0 76
0.280807 0.896404 0.256115 153 0 76
-0.364257 -0.827824 -0.125533 0 127 127
-0.192724 0.924787 -0.330336 153 0 76
-0.551798 0.478412 0.012288 0 127 127
0.239255 -0.818712 -0.039412 0 127 127
0.153888 -0.817611 0.163315 0 127 127
-0.107162 0.358946 -0.536242 0 127 127
-0.049669 0.469021 -0.493891 0 127 127
-0.020248 -0.838869 -0.499247 0 127 127
0.459978 -0.655502 -0.286563 0 127 127
0.041522 -0.443182 0.540294 0 127 127
0.314837 -0.599930 -0.440063 0 127 127
-0.077679 -0.714239 -0.530349 0 127 127
0.414003 -0.001039 -0.346478 0 127 127
-0.210678 0.924787 0.325772 153 0 76
0.289719 0.282317 0.456372 0 127 127
0.038182 0.329134 0.540734 0 127 127
-0.342150 0.685535 0.067093 76 153 0
-0.415154 0.332206 0.358098 0 127 127
-0.184778 -0.817077 -0.125387 0 127 127
0.440699 0.182875 -0.311687 0 127 127
-0.134908 -0.597559 0.529624 0 127 127
0.431790 0.607866 -0.213903 0 127 127
-0.046223 -0.826887 -0.366295 0 127 127
0.489948 -0.115359 -0.198305 0 127 127
0.047414 -0.748973 0.539518 0 127 127
-0.455131 0.620193 0.147964 0 127 127
0.133582 0.716086 -0.359764 153 0 76
-0.517829 -0.524287 -0.160790 0 127 127
0.142557 0.469021 0.392162 0 127 127
-0.107299 0.741569 0.372798 153 0 76
-0.122259 -0.813984 0.079460 0 127 127
-0.372334 0.044687 -0.393199 0 127 127
-0.520333 0.421965 0.177105 0 127 127
-0.350015 -0.780565 0.410821 0 127 127
-0.275379 -0.128766 0.475144 0 127 127
-0.388496 0.590438 0.323610 0 127 127
0.015585 0.924787 0.200692 153 0 76
-0.419312 0.469021 0.113008 0 127 127
-0.042755 0.333554 0.531981 0 127 127
0.478752 -0.388489 0.247697 0 127 127
0.276576 0.567121 -0.436399 0 127 127
0.430472 -0.837230 0.257261 0 127 127
0.194418 0.469021 -0.432232 0 127 127
0.519011 0.117496 -0.100971 0 127 127
-0.148639 0.924787 0.005377 153 0 76
0.267689 0.924787 0.046172 153 0 76
-0.216048 0.313388 -0.492194 0 127 127
-0.062337 -0.755361 0.529403 0 127 127
-0.110080 0.924787 0.243955 153 0 76
0.090089 -0.832072 0.415511 0 127 127
0.387771 0.469021 -0.276212 0 127 127
-0.481553 -0.054767 0.270729 0 127 127
-0.082505 -0.098797 0.526748 0 127 127
0.330806 -0.824749 -0.046523 0 127 127
-0.323815 -0.691147 -0.430429 0 127 127
-0.326822 0.761618 -0.121197 76 153 0
0.381280 -0.699607 -0.389080 0 127 127
-0.496561 0.305770 0.234496 0 127 127
0.105928 -0.032995 0.531815 0 127 127
-0.037355 -0.444520 0.542467 0 127 127
-0.176978 -0.818459 -0.518868 0 127 127
-0.255823 -0.328621 0.472754 0 127 127
0.534972 -0.750288 -0.053988 0 127 127
0.471774 0.616538 0.015776 0 127 127
-0.150779 -0.568132 -0.529720 0 127 127
-0.018055 0.112166 0.535233 0 127 127
0.054143 0.621934 0.464641 0 127 127
0.202653 0.730051 -0.325886 153 0 76
-0.290823 -0.007456 0.464995 0 127 127
0.513134 0.522979 -0.147442 0 127 127
-0.332873 -0.077158 -0.435694 0 127 127
-0.113969 0.655756 0.332201 76 153 0
-0.438788 0.020896 0.327298 0 127 127
-0.325994 0.509763 -0.435098 0 127 127
-0.406837 -0.790302 0.368936 0 127 127
-0.532509 -0.149328 -0.092194 0 127 127
-0.534104 -0.020504 -0.146826 0 127 127
-0.465718 -0.836598 -0.077980 0 127 127
-0.367287 -0.298412 -0.409287 0 127 127
-0.123078 0.924787 -0.208292 153 0 76
-0.293367 -0.137632 -0.453792 0 127 127
-0.252848 0.582433 -0.252781 0 127 127
0.159112 -0.702895 -0.510666 0 127 127
0.444972 -0.512047 -0.290199 0 127 127
0.106557 0.040816 -0.524922 0 127 127
0.046394 -0.235575 0.539652 0 127 127
-0.136212 -0.827595 0.351115 0 127 127
0.261339 0.529998 0.224067 0 127 127
0.274268 -0.290332 -0.458977 0 127 127
0.287055 0.373839 0.458416 0 127 127
0.475678 -0.249823 -0.232756 0 127 127
-0.531814 0.401703 0.094504 0 127 127
0.440780 -0.066696 -0.311583 0 127 127
0.075939 -0.815806 0.170287 0 127 127
-0.232821 -0.513849 0.482282 0 127 127
-0.457207 0.076172 0.287373 0 127 127
-0.083105 -0.120963 -0.539409 0 127 127
0.053102 0.469021 -0.388445 0 127 127
-0.158620 -0.809471 0.513017 0 127 127
-0.446165 0.532787 -0.302521 0 127 127
0.480623 0.491126 -0.242390 0 127 127
-0.383445 0.910242 0.078525 153 0 76
0.410742 -0.200247 -0.334808 0 127 127
0.206857 -0.320763 0.487924 0 127 127
-0.063551 0.651154 -0.346481 76 153 0
0.400928 0.562139 0.321616 0 127 127
0.322213 -0.045176 -0.422188 0 127 127
0.443342 -0.187693 0.289358 0 127 127
-0.099495 0.259649 -0.537252 0 127 127
0.516894 0.134896 0.114089 0 127 127
-0.538872 0.458248 -0.116546 0 127 127
-0.342976 -0.555268 -0.427942 0 127 127
-0.548324 0.212257 -0.046314 0 127 127
0.494754 0.461606 0.209063 0 127 127
-0.532123 0.540653 0.061576 0 127 127
0.519505 -0.497127 -0.097221 0 127 127
0.528459 0.217417 -0.103459 0 127 127
-0.496749 -0.651079 -0.211683 0 127 127
0.419850 -0.635943 0.319973 0 127 127
0.524318 -0.143786 0.131950 0 127 127
0.450123 -0.522149 0.280521 0 127 127
0.374221 0.469021 -0.127715 0 127 127
-0.291110 0.816975 0.258771 153 0 76
0.415778 -0.315072 0.341201 0 127 127
-0.097790 -0.235592 -0.537476 0 127 127
-0.392266 0.044901 0.387155 0 127 127
0.312064 0.924787 -0.035760 153 0 76
0.539332 -0.049721 -0.020873 0 127 127
-0.191390 -0.176275 -0.502408 0 127 127
0.151316 0.924787 0.199619 153 0 76
0.330186 0.184819 -0.428285 0 127 127
-0.418722 -0.821031 -0.356414 0 127 127
-0.054061 0.924787 -0.321131 153 0 76
0.176978 -0.036573 0.500300 0 127 127
-0.180129 0.276286 0.514597 0 127 127
-0.480722 -0.482412 0.247411 0 127 127
0.041541 0.469021 0.510000 0 127 127
-0.346488 0.469021 -0.331440 0 127 127
-0.293435 0.693274 -0.189002 76 153 0
0.486982 0.328085 0.202500 0 127 127
0.446984 0.507568 -0.296552 0 127 127
0.095762 0.924787 0.154004 153 0 76
-0.231364 0.924787 0.187314 153 0 76
0.375671 0.350765 0.377549 0 127 127
0.257527 -0.827611 -0.272713 0 127 127
-0.324204 0.559850 -0.147064 0 127 127
0.540047 -0.194600 0.012473 0 127 127
-0.355308 -0.017526 0.415514 0 127 127
0.349678 -0.241894 -0.413329 0 127 127
0.012822 -0.645779 0.544072 0 127 127
-0.516839 -0.414600 -0.163182 0 127 127
-0.158987 0.182970 -0.526320 0 127 127
-0.348073 0.621546 0.079416 0 127 127
-0.123378 0.144510 0.521367 0 127 127
0.289854 0.081358 -0.459234 0 127 127
0.206195 -0.808458 -0.501654 0 127 127
0.523768 0.067446 0.136128 0 127 127
-0.445253 -0.160761 0.318871 0 127 127
-0.121586 -0.300925 0.521603 0 127 127
0.281394 -0.741291 -0.465565 0 127 127
0.525210 -0.769417 0.052617 0 127 127
-0.259399 0.924787 0.282494 153 0 76
-0.351048 -0.151819 0.418783 0 127 127
-0.219282 -0.821016 0.191631 0 127 127
0.235106 0.778660 0.298018 153 0 76
-0.195945 -0.824725 -0.283990 0 127 127
0.195236 0.924787 -0.257474 153 0 76
-0.043237 -0.325155 0.531918 0 127 127
0.379384 -0.828281 0.010788 0 127 127
0.091060 0.924787 0.328076 153 0 76
0.329156 0.469021 -0.223406 0 127 127
-0.058912 -0.818739 0.242485 0 127 127
0.051579 -0.819540 -0.259008 0 127 127
-0.227759 -0.842398 -0.484596 0 127 127
0.305331 -0.469693 -0.447358 0 127 127
0.344733 0.538716 -0.014002 0 127 127
0.153351 0.469021 -0.372859 0 127 127
0.215867 0.924787 0.085962 153 0 76
-0.343956 -0.828109 0.180643 0 127 127
0.381324 0.254050 0.386081 0 127 127
-0.314909 0.104415 0.434297 0 127 127
-0.460414 0.570240 -0.250866 0 127 127
0.056830 -0.819047 0.246604 0 127 127
0.378461 0.658768 0.102607 0 127 127
0.097594 0.633109 0.333872 0 127 127
0.330547 0.364209 -0.415793 0 127 127
-0.389613 0.805230 -0.034640 153 0 76
0.487755 0.414366 -0.228925 0 127 127
-0.446643 0.083205 -0.320026 0 127 127
0.279254 0.469021 -0.347557 0 127 127
-0.411218 0.404108 0.351189 0 127 127
-0.047464 0.764404 -0.341054 76 153 0
0.032531 -0.768185 -0.535136 0 127 127
0.466245 -0.307502 0.275431 0 127 127
-0.335299 -0.521534 0.430867 0 127 127
-0.449451 0.624238 -0.152589 0 127 127
-0.453103 -0.842505 -0.295687 0 127 127
0.342236 -0.551791 -0.406824 0 127 127
0.499917 -0.841330 0.149950 0 127 127
-0.286977 -0.234856 -0.458696 0 127 127
-0.420229 -0.276964 0.335564 0 127 127
-0.237822 -0.819114 0.106548 0 127 127
-0.386521 -0.186595 -0.382313 0 127 127
0.517907 -0.655751 0.153166 0 127 127
-0.141768 0.533562 0.320687 0 127 127
-0.328697 0.412944 -0.426683 0 127 127
0.152670 0.632858 -0.427714 0 127 127
-0.356361 0.314805 0.414706 0 127 127
-0.240423 0.608013 0.259350 76 153 0
-0.515514 0.479076 -0.189997 0 127 127
-0.130138 0.469021 -0.464768 0 127 127
0.446859 0.594935 0.204346 0 127 127
0.515374 0.341844 -0.128598 0 127 127
-0.066125 0.868135 -0.381397 153 0 76
-0.403420 0.469021 -0.112573 0 127 127
-0.320073 0.578053 0.400399 0 127 127
-0.115693 0.658012 -0.387941 0 127 127
0.525295 0.332561 -0.053243 0 127 127
0.316775 -0.488337 0.435611 0 127 127
-0.308000 0.532290 0.179342 0 127 127
0.508341 -0.464879 -0.153902 0 127 127
0.322830 -0.776652 0.418749 0 127 127
-0.156140 -0.823667 0.288510 0 127 127
-0.020390 0.003491 -0.537891 0 127 127
-0.504945 0.595613 0.015501 0 127 127
-0.336803 -0.352637 0.417498 0 127 127
0.377220 0.714621 -0.005795 153 0 76
0.249800 0.636822 -0.370631 0 127 127
-0.400222 0.659213 -0.019025 0 127 127
