ply
format ascii 1.0
element vertex 1278
property float x
property float y
property float z
property uchar red
property uchar green
property uchar blue
end_header
0.001957 -0.284293 -0.226693 76 153 0
-0.095559 0.768652 0.545576 255 0 0
-0.098597 0.087204 -0.189414 255 0 0
-0.003808 0.786328 0.259192 255 0 0
-0.100523 0.779193 0.036525 255 0 0
-0.190227 -0.831116 -0.225935 0 127 127
0.031922 -0.209397 -0.133153 76 153 0
-0.187629 -0.860143 -0.241666 0 127 127
0.000793 0.209513 -0.249520 255 0 0
0.343611 -0.438586 -0.210220 153 0 76
0.003378 0.613659 -0.150055 255 0 0
-0.018369 0.279670 0.747226 255 0 0
0.020041 0.231636 -0.208067 255 0 0
-0.004148 0.867472 0.196708 255 0 0
-0.095182 0.645493 0.650052 255 0 0
0.004169 0.427442 -0.156556 255 0 0
-0.077834 0.783687 0.310455 255 0 0
-0.055625 -0.781477 -0.106892 76 153 0
-0.071452 -0.104745 -0.262273 255 0 0
-0.050333 0.833297 0.048419 255 0 0
-0.103681 0.071023 -0.203143 255 0 0
0.007796 0.462562 0.735527 255 0 0
-0.132633 -0.367755 -0.281785 76 153 0
-0.119913 -0.487440 -0.298182 76 153 0
-0.093097 0.787490 0.164374 255 0 0
0.060762 -0.848628 -0.155074 0 127 127
-0.076581 0.852820 0.180972 255 0 0
-0.064490 -0.169257 -0.308139 76 153 0
0.343611 -0.549455 -0.205132 153 0 76
-0.098129 0.853920 0.215751 255 0 0
0.012197 0.636440 -0.096610 255 0 0
-0.159032 -0.851341 -0.161780 0 127 127
-0.073908 -0.424170 -0.110929 76 153 0
0.266581 -0.427603 -0.137091 153 0 76
0.008187 0.674458 0.657033 255 0 0
-0.085564 0.814539 0.526411 255 0 0
-0.070056 0.697222 -0.109173 255 0 0
-0.086508 -0.262166 -0.320449 76 153 0
-0.129245 -0.831853 -0.096426 0 127 127
0.012942 0.789825 0.046275 255 0 0
-0.135193 -0.837229 -0.333671 0 127 127
-0.140498 -0.697043 -0.162270 76 153 0
-0.104687 0.275516 0.793200 255 0 0
-0.011829 0.753668 0.368660 255 0 0
0.255390 -0.509821 -0.240048 153 0 76
-0.087908 0.276914 -0.173582 255 0 0
0.018156 0.820795 0.156788 255 0 0
-0.051399 -0.181433 -0.155645 255 0 0
0.007650 -0.745751 -0.318305 76 153 0
0.001757 -0.378241 -0.205835 76 153 0
0.001682 0.872983 0.221537 255 0 0
0.011511 0.789718 0.464203 255 0 0
-0.003960 0.732106 0.477668 255 0 0
0.151734 -0.564723 -0.300158 153 0 76
0.264127 -0.491239 -0.254941 153 0 76
-0.112965 -0.224210 -0.131634 76 153 0
0.316487 -0.532222 -0.207453 153 0 76
-0.058687 0.360516 0.720875 255 0 0
0.019952 0.749567 0.537581 255 0 0
0.009119 0.795574 0.093977 255 0 0
-0.095688 0.720163 0.581581 255 0 0
0.033345 -0.507276 -0.303988 153 0 76
-0.058838 -0.440980 -0.220660 76 153 0
0.162083 -0.586109 -0.181970 153 0 76
-0.002517 0.048699 -0.253892 255 0 0
0.008015 -0.184785 -0.188544 255 0 0
-0.007370 -0.255329 -0.245880 76 153 0
0.188869 -0.537679 -0.117272 153 0 76
0.283439 -0.399471 -0.172699 153 0 76
0.103278 -0.843895 -0.186742 0 127 127
-0.086809 0.639656 0.703044 255 0 0
-0.066774 0.717329 0.652558 255 0 0
0.006651 0.730402 0.078393 255 0 0
-0.012534 0.697405 0.005454 255 0 0
0.260731 -0.596509 -0.182671 153 0 76
0.203347 -0.398281 -0.175599 153 0 76
-0.067584 0.556393 -0.229043 255 0 0
0.011462 0.795796 0.127960 255 0 0
0.333598 -0.553245 -0.287912 153 0 76
0.019805 0.219874 -0.227549 255 0 0
0.030741 -0.453727 -0.110855 153 0 76
-0.110512 -0.481944 -0.129173 76 153 0
-0.017271 0.171433 -0.275511 255 0 0
0.142478 -0.404278 -0.162883 153 0 76
0.069299 -0.700918 -0.235559 76 153 0
-0.017222 -0.316358 -0.254877 76 153 0
0.015690 -0.568010 -0.203198 76 153 0
-0.019469 0.630574 0.737634 255 0 0
0.052700 -0.815085 -0.156089 76 153 0
0.305416 -0.400113 -0.263589 153 0 76
-0.081085 0.524877 0.773950 255 0 0
0.056470 -0.601103 -0.161480 76 153 0
-0.047325 -0.716976 -0.329682 76 153 0
0.062652 -0.545643 -0.314660 153 0 76
-0.127095 -0.848628 -0.314021 0 127 127
0.060894 -0.815085 -0.251028 0 127 127
-0.084895 0.093301 -0.263771 255 0 0
-0.140173 -0.815085 -0.111329 0 127 127
0.017667 0.723406 -0.059497 255 0 0
-0.088796 -0.815085 -0.245137 0 127 127
-0.105249 0.524936 -0.179651 255 0 0
0.063034 -0.325029 -0.178245 76 153 0
-0.033105 -0.509090 -0.104704 76 153 0
0.266987 -0.334877 -0.198741 153 0 76
-0.074528 -0.076498 -0.174655 255 0 0
0.234559 -0.600884 -0.208322 153 0 76
-0.089432 0.752638 0.497313 255 0 0
0.332665 -0.600102 -0.205057 153 0 76
-0.036840 -0.337943 -0.172931 76 153 0
-0.092111 0.741061 0.097543 255 0 0
0.255303 -0.444626 -0.126074 153 0 76
0.015690 -0.543752 -0.232410 153 0 76
0.017382 0.090957 -0.238739 255 0 0
-0.086991 -0.259950 -0.218513 76 153 0
-0.046228 0.539982 0.800873 255 0 0
0.017325 0.836790 0.346333 255 0 0
-0.190252 -0.859368 -0.207914 0 127 127
-0.125227 -0.183298 -0.291545 76 153 0
0.014688 0.326272 -0.190668 255 0 0
0.264447 -0.365145 -0.199560 153 0 76
-0.018155 0.691070 0.548185 255 0 0
-0.028544 0.100093 -0.269448 255 0 0
-0.094003 0.808859 0.207404 255 0 0
-0.088286 0.560562 -0.124407 255 0 0
0.057429 -0.401428 -0.227770 76 153 0
-0.105119 0.687291 0.620842 255 0 0
0.011269 0.692531 -0.045114 255 0 0
-0.091643 0.804944 0.299689 255 0 0
-0.036240 0.722066 0.484604 255 0 0
0.016995 -0.535549 -0.114551 153 0 76
-0.145422 -0.823916 -0.247890 0 127 127
0.261990 -0.290835 -0.233636 153 0 76
0.015690 -0.502573 -0.284014 153 0 76
-0.081522 0.796025 0.561600 255 0 0
-0.077927 0.540398 0.678768 255 0 0
0.020451 0.825405 0.246743 255 0 0
-0.027386 0.863353 0.135692 255 0 0
0.015690 -0.479128 -0.252355 153 0 76
-0.018276 0.346276 -0.264215 255 0 0
-0.040975 0.753942 0.367083 255 0 0
-0.013379 -0.815085 -0.158885 0 127 127
0.232073 -0.428233 -0.136891 153 0 76
-0.009076 0.000684 -0.163919 255 0 0
-0.026118 0.236584 0.750098 255 0 0
0.038403 -0.315887 -0.296527 76 153 0
-0.117982 -0.815085 -0.110264 0 127 127
0.051369 -0.659157 -0.154367 76 153 0
-0.080591 0.702079 -0.001590 255 0 0
-0.028699 0.771775 0.271317 255 0 0
0.098931 -0.502746 -0.124540 153 0 76
-0.081656 0.678755 -0.022928 255 0 0
-0.121795 -0.822595 -0.143232 0 127 127
-0.120728 -0.719682 -0.296410 76 153 0
0.015690 -0.444322 -0.237079 153 0 76
0.005867 -0.646326 -0.319650 76 153 0
0.333598 -0.441727 -0.184610 153 0 76
-0.074739 0.772988 -0.031771 255 0 0
-0.084373 0.284566 0.838446 255 0 0
-0.104806 0.345293 0.782942 255 0 0
-0.099539 -0.680566 -0.121899 76 153 0
0.221733 -0.476693 -0.328152 153 0 76
-0.038166 -0.591271 -0.104442 76 153 0
0.125832 -0.581747 -0.244521 153 0 76
0.002699 0.412604 0.742624 255 0 0
0.059750 -0.415592 -0.301780 153 0 76
-0.053751 0.837436 0.501111 255 0 0
0.006194 0.304792 0.819559 255 0 0
0.015690 -0.443003 -0.183877 76 153 0
-0.035436 -0.017159 -0.155053 255 0 0
-0.066253 0.276992 0.747912 255 0 0
-0.081224 0.786852 0.018791 255 0 0
0.009748 0.128112 -0.232951 255 0 0
-0.067888 0.178542 -0.274776 255 0 0
0.012186 0.778820 0.493926 255 0 0
-0.062001 0.688499 0.016044 255 0 0
-0.012150 -0.394756 -0.230261 76 153 0
-0.133522 -0.783966 -0.281408 76 153 0
0.020248 0.811103 0.388957 255 0 0
-0.002685 0.144462 -0.254293 255 0 0
0.271933 -0.313482 -0.197517 153 0 76
0.001872 0.312778 -0.171966 255 0 0
-0.094824 -0.007801 -0.205722 255 0 0
-0.104201 0.182951 -0.224479 255 0 0
0.069173 -0.793436 -0.201792 76 153 0
-0.089951 0.270434 0.807644 255 0 0
-0.010777 0.603751 -0.175915 255 0 0
0.310247 -0.511397 -0.179845 153 0 76
0.153748 -0.405658 -0.272015 153 0 76
-0.092738 -0.058680 -0.254326 255 0 0
0.020683 0.742966 0.570527 255 0 0
-0.041697 0.754100 0.625499 255 0 0
0.305230 -0.407006 -0.157557 153 0 76
-0.036762 0.833350 0.097568 255 0 0
-0.073275 0.270035 -0.260646 255 0 0
0.103539 -0.468365 -0.325935 153 0 76
-0.124405 -0.748922 -0.292060 76 153 0
0.265952 -0.599915 -0.202999 153 0 76
0.173522 -0.527543 -0.125106 153 0 76
0.011360 0.344075 -0.222206 255 0 0
-0.023055 0.861934 0.179492 255 0 0
-0.026023 -0.661336 -0.329025 76 153 0
0.073930 -0.464120 -0.108680 153 0 76
0.294521 -0.442928 -0.116152 153 0 76
-0.044542 0.362059 0.836065 255 0 0
-0.022056 0.420979 -0.141042 255 0 0
-0.065448 0.772852 -0.047980 255 0 0
-0.082578 0.726142 -0.074345 255 0 0
-0.114608 -0.345096 -0.303177 76 153 0
0.009223 0.297985 -0.203885 255 0 0
-0.029614 0.856882 0.417020 255 0 0
-0.092340 0.786558 0.067266 255 0 0
0.017956 0.515236 0.760051 255 0 0
0.017648 0.476682 -0.211910 255 0 0
0.020954 -0.165979 -0.223596 255 0 0
-0.004632 0.623360 -0.169376 255 0 0
0.069312 -0.683699 -0.205820 76 153 0
-0.092086 0.385832 -0.171181 255 0 0
-0.065522 0.225424 -0.158826 255 0 0
-0.021546 -0.815085 -0.297250 0 127 127
-0.090503 0.808842 0.236923 255 0 0
0.247227 -0.491978 -0.240923 153 0 76
-0.030396 -0.120417 -0.165285 255 0 0
-0.090251 0.746120 0.528667 255 0 0
-0.008364 -0.676525 -0.110247 76 153 0
-0.025910 -0.151820 -0.156886 255 0 0
-0.045399 -0.469792 -0.105007 76 153 0
-0.042943 -0.815085 -0.349887 0 127 127
-0.054547 0.262674 0.745257 255 0 0
0.006977 0.202005 -0.177248 255 0 0
0.070054 -0.784309 -0.227426 76 153 0
-0.056676 -0.815085 -0.206694 0 127 127
-0.100010 0.297827 0.766355 255 0 0
-0.094975 0.699322 -0.093000 255 0 0
-0.003229 0.648545 -0.149265 255 0 0
-0.105852 -0.506880 -0.125764 76 153 0
-0.084374 -0.709848 -0.112605 76 153 0
-0.039705 0.811656 0.039259 255 0 0
-0.065355 -0.236410 -0.179336 76 153 0
0.188913 -0.588277 -0.252501 153 0 76
0.112180 -0.400068 -0.151097 153 0 76
-0.140827 -0.860143 -0.111683 0 127 127
0.253910 -0.367676 -0.220270 153 0 76
-0.069947 0.750054 0.142975 255 0 0
0.086163 -0.848628 -0.234537 0 127 127
-0.019608 -0.481174 -0.329261 76 153 0
-0.056221 0.560280 0.778305 255 0 0
0.009862 0.508077 0.777590 255 0 0
-0.096424 0.830412 0.408223 255 0 0
-0.137768 -0.474109 -0.274881 76 153 0
0.009329 0.305588 0.763119 255 0 0
-0.064202 -0.828999 -0.365036 0 127 127
-0.094605 0.272901 0.827942 255 0 0
-0.132268 -0.285126 -0.150579 76 153 0
-0.053577 0.872263 0.162302 255 0 0
0.006614 -0.622435 -0.115873 76 153 0
0.028649 -0.804759 -0.155222 0 127 127
0.002283 0.749413 0.596942 255 0 0
0.001981 0.784834 0.032551 255 0 0
0.094488 -0.860143 -0.244624 0 127 127
0.000866 0.795868 0.290039 255 0 0
0.004135 0.626460 0.734281 255 0 0
-0.030191 0.622565 -0.045444 255 0 0
0.013287 0.861768 0.270276 255 0 0
0.316360 -0.572120 -0.276659 153 0 76
0.252110 -0.511344 -0.316476 153 0 76
-0.093186 0.179543 -0.200323 255 0 0
0.279010 -0.474624 -0.116851 153 0 76
-0.026109 0.590878 0.767569 255 0 0
-0.020067 0.556371 -0.087683 255 0 0
-0.103760 0.572077 -0.164464 255 0 0
-0.097627 0.675471 -0.035090 255 0 0
-0.101986 0.260760 0.775543 255 0 0
0.005220 -0.189856 -0.319763 76 153 0
-0.051644 0.506132 -0.237597 255 0 0
-0.009815 0.813796 0.046103 255 0 0
-0.072843 0.847353 0.158967 255 0 0
0.286886 -0.391051 -0.209361 153 0 76
-0.017285 -0.118623 -0.264912 255 0 0
-0.073170 -0.183243 -0.111022 76 153 0
-0.062749 0.743488 0.394998 255 0 0
-0.038833 0.434500 0.830979 255 0 0
0.283378 -0.263875 -0.234711 153 0 76
0.343611 -0.539746 -0.146184 153 0 76
-0.093495 0.459464 -0.208483 255 0 0
-0.006048 0.319935 0.743564 255 0 0
-0.103499 0.321850 0.773649 255 0 0
0.204705 -0.567733 -0.283047 153 0 76
-0.082101 -0.336699 -0.196689 76 153 0
0.069443 -0.377751 -0.209442 153 0 76
-0.114074 -0.426119 -0.303753 76 153 0
0.304412 -0.567999 -0.297330 153 0 76
0.017817 0.432379 0.787989 255 0 0
-0.104897 0.104945 -0.213120 255 0 0
0.020886 -0.815085 -0.310156 0 127 127
-0.077348 -0.815085 -0.343784 0 127 127
0.333598 -0.528989 -0.240712 153 0 76
-0.067847 0.846438 0.404417 255 0 0
-0.103951 0.778505 0.457875 255 0 0
-0.145553 -0.500741 -0.174134 76 153 0
-0.015389 0.709425 0.068854 255 0 0
0.003569 0.793123 0.540797 255 0 0
0.038559 -0.209364 -0.296136 76 153 0
-0.056807 0.508740 -0.132571 255 0 0
0.283052 -0.570112 -0.280499 153 0 76
0.003005 0.577713 0.682721 255 0 0
-0.026189 0.742296 -0.099953 255 0 0
-0.095610 0.821585 0.303398 255 0 0
0.240979 -0.464764 -0.238240 153 0 76
0.102748 -0.565472 -0.273810 153 0 76
0.343611 -0.394266 -0.221226 153 0 76
-0.033698 0.737564 0.668524 255 0 0
-0.095551 0.600471 0.708058 255 0 0
-0.005297 0.771064 0.316276 255 0 0
0.030004 -0.231060 -0.131568 76 153 0
0.055734 -0.542658 -0.118550 153 0 76
0.017556 0.433390 -0.177044 255 0 0
-0.077566 -0.166468 -0.257678 255 0 0
-0.089103 0.170415 -0.242960 255 0 0
-0.186839 -0.843387 -0.190980 0 127 127
-0.089580 -0.144680 -0.242801 255 0 0
0.008225 0.798238 0.201015 255 0 0
-0.154132 -0.414624 -0.223184 76 153 0
-0.001696 0.607767 0.628528 255 0 0
0.005002 0.437197 -0.223578 255 0 0
-0.085774 -0.169257 -0.123167 76 153 0
-0.013467 0.533089 -0.224161 255 0 0
-0.129511 -0.505042 -0.147189 76 153 0
-0.038474 0.113943 -0.280374 255 0 0
0.181772 -0.506051 -0.107684 153 0 76
-0.072887 0.852232 0.367001 255 0 0
0.000097 -0.218799 -0.113538 76 153 0
-0.100681 0.233042 -0.241009 255 0 0
0.035725 -0.169257 -0.203809 76 153 0
0.011319 0.113369 -0.250637 255 0 0
-0.090082 0.758332 0.106463 255 0 0
-0.065846 0.677065 0.562422 255 0 0
0.015132 0.470153 0.781609 255 0 0
-0.005891 0.643463 0.713003 255 0 0
0.014332 0.865276 0.249510 255 0 0
-0.046615 0.659534 0.736461 255 0 0
0.241169 -0.576970 -0.288132 153 0 76
0.315499 -0.463711 -0.254941 153 0 76
0.343611 -0.428757 -0.295123 153 0 76
-0.087283 0.678371 -0.102689 255 0 0
0.000703 0.703407 0.644650 255 0 0
0.254402 -0.174050 -0.213228 153 0 76
0.343611 -0.473606 -0.269187 153 0 76
-0.134326 -0.220579 -0.278337 76 153 0
-0.014766 0.396724 0.719704 255 0 0
-0.153978 -0.488573 -0.225708 76 153 0
-0.012233 0.320025 0.842760 255 0 0
-0.069925 0.391925 -0.161815 255 0 0
-0.093993 0.503710 -0.199380 255 0 0
-0.091727 0.262295 -0.196703 255 0 0
-0.049942 0.422593 0.823862 255 0 0
-0.084754 0.753791 0.463934 255 0 0
-0.142067 -0.815085 -0.292367 0 127 127
0.224575 -0.444857 -0.126004 153 0 76
-0.103497 -0.793742 -0.124531 76 153 0
-0.009049 -0.285399 -0.186179 76 153 0
-0.039884 0.146365 -0.271355 255 0 0
0.004978 0.772661 0.405655 255 0 0
-0.053441 0.704421 0.690837 255 0 0
0.069742 -0.740783 -0.218340 76 153 0
-0.089109 0.648647 -0.059580 255 0 0
-0.067520 0.878567 0.314519 255 0 0
-0.082645 0.351504 0.831754 255 0 0
-0.088306 0.720639 0.059832 255 0 0
0.018018 0.624354 0.704169 255 0 0
-0.075320 0.409940 0.815936 255 0 0
-0.019097 0.432990 0.827506 255 0 0
-0.022216 0.792305 0.600376 255 0 0
-0.085746 -0.214120 -0.248187 255 0 0
-0.095042 0.608059 -0.081038 255 0 0
0.171447 -0.589930 -0.196014 153 0 76
-0.045897 0.749402 0.170239 255 0 0
0.014081 0.712878 0.551996 255 0 0
-0.151825 -0.594665 -0.191221 76 153 0
0.001802 -0.710513 -0.321459 76 153 0
0.012328 0.764685 0.058875 255 0 0
0.063225 -0.357475 -0.178772 76 153 0
-0.105370 0.792063 0.438267 255 0 0
-0.082148 0.801605 0.254868 255 0 0
-0.033938 0.547013 -0.101797 255 0 0
-0.080446 -0.815085 -0.185047 0 127 127
0.022190 -0.178527 -0.126002 76 153 0
-0.011214 0.591751 0.759235 255 0 0
-0.011082 0.561356 -0.208104 255 0 0
0.024469 -0.587566 -0.126433 76 153 0
-0.024648 0.366087 0.720298 255 0 0
-0.043437 -0.036576 -0.154110 255 0 0
-0.050892 -0.562075 -0.105982 76 153 0
-0.103188 -0.815085 -0.086143 0 127 127
0.020020 0.495649 0.733622 255 0 0
-0.171007 -0.831277 -0.291014 0 127 127
-0.069777 -0.394756 -0.224802 76 153 0
-0.018147 -0.080393 -0.158486 255 0 0
-0.087360 0.760950 0.124575 255 0 0
0.172255 -0.462808 -0.120256 153 0 76
0.220937 -0.400134 -0.149317 153 0 76
0.011209 0.100186 -0.225416 255 0 0
-0.087260 -0.195506 -0.196359 255 0 0
0.106838 -0.819881 -0.209182 0 127 127
-0.043640 0.432015 -0.140370 255 0 0
-0.119168 -0.857250 -0.133253 0 127 127
-0.082408 0.159816 -0.181642 255 0 0
0.333598 -0.503963 -0.148316 153 0 76
0.018286 -0.471822 -0.130088 153 0 76
-0.009992 0.589801 -0.081628 255 0 0
-0.082575 -0.346815 -0.112835 76 153 0
0.342978 -0.447538 -0.115729 153 0 76
0.089650 -0.528133 -0.322533 153 0 76
0.011258 -0.815085 -0.191852 0 127 127
0.030260 -0.382198 -0.303456 76 153 0
-0.092500 0.224705 -0.198489 255 0 0
-0.083094 0.248652 0.748896 255 0 0
0.008792 -0.064613 -0.254518 255 0 0
-0.002200 0.262173 0.763265 255 0 0
0.186338 -0.483700 -0.328745 153 0 76
0.010864 0.603886 0.742079 255 0 0
-0.004338 0.238829 0.847816 0 255 0
0.021560 0.486668 0.747643 255 0 0
0.136384 -0.392961 -0.255445 153 0 76
0.284980 -0.504292 -0.318302 153 0 76
-0.092602 0.796307 0.341813 255 0 0
-0.083562 0.483688 0.715177 255 0 0
-0.055134 0.816178 0.573865 255 0 0
-0.071753 0.730984 0.635213 255 0 0
-0.052759 0.674123 -0.153088 255 0 0
0.234428 -0.534544 -0.319385 153 0 76
-0.008771 0.673306 -0.005824 255 0 0
-0.051002 -0.251903 -0.173934 76 153 0
-0.022728 0.595389 0.624767 255 0 0
-0.095262 -0.161141 -0.213441 255 0 0
0.163185 -0.533479 -0.309403 153 0 76
-0.049209 0.580794 0.773082 255 0 0
-0.058444 -0.010130 -0.268987 255 0 0
-0.089031 -0.292153 -0.318967 76 153 0
-0.061028 0.094310 -0.267987 255 0 0
-0.061138 0.413785 -0.142876 255 0 0
0.043789 -0.835788 -0.149805 0 127 127
-0.035960 -0.047488 -0.270780 255 0 0
-0.009123 0.205779 -0.175093 255 0 0
0.011184 0.150040 -0.209149 255 0 0
-0.016768 0.749572 -0.070886 255 0 0
0.333598 -0.418332 -0.192338 153 0 76
-0.113193 -0.220848 -0.303687 76 153 0
-0.104338 0.403215 0.769985 255 0 0
-0.014528 -0.242983 -0.109011 76 153 0
0.013684 0.602028 -0.087563 255 0 0
-0.037549 -0.815085 -0.145672 0 127 127
0.139970 -0.386548 -0.172325 153 0 76
-0.002002 -0.815085 -0.220918 0 127 127
-0.081813 0.299579 0.741127 255 0 0
-0.015623 0.020336 -0.159815 255 0 0
0.020544 -0.108244 -0.208174 255 0 0
-0.042632 0.073501 -0.271595 255 0 0
-0.104369 0.674236 0.641738 255 0 0
0.256267 -0.245815 -0.227280 153 0 76
-0.073033 0.776592 0.206929 255 0 0
0.051854 -0.404984 -0.291253 153 0 76
0.050610 -0.563732 -0.301806 153 0 76
-0.025591 0.669515 0.702972 255 0 0
-0.058074 -0.495421 -0.107564 76 153 0
0.007158 -0.344458 -0.319095 76 153 0
-0.029228 -0.166558 -0.269720 255 0 0
-0.084394 0.419699 -0.155094 255 0 0
0.020827 0.023605 -0.208921 255 0 0
-0.038937 0.885207 0.318732 255 0 0
0.284088 -0.520476 -0.313564 153 0 76
-0.127840 -0.802459 -0.164123 0 127 127
-0.105324 -0.741533 -0.125594 76 153 0
-0.035563 0.612821 -0.181096 255 0 0
0.218031 -0.592176 -0.217003 153 0 76
0.015690 -0.450647 -0.252437 153 0 76
0.009258 0.799891 0.335686 255 0 0
-0.095784 0.470678 -0.194952 255 0 0
-0.081905 -0.465800 -0.112501 76 153 0
-0.105452 0.522910 0.737046 255 0 0
0.048973 -0.815085 -0.231669 0 127 127
-0.011452 0.804113 0.559663 255 0 0
-0.099303 -0.815085 -0.178102 0 127 127
0.018405 -0.111742 -0.234471 255 0 0
0.009592 -0.311235 -0.317670 76 153 0
-0.104437 -0.037799 -0.207823 255 0 0
0.002621 0.765709 -0.056257 255 0 0
-0.086426 0.255521 0.773131 255 0 0
-0.089951 -0.815085 -0.148272 0 127 127
0.006930 0.813249 0.258130 255 0 0
0.164471 -0.397752 -0.262127 153 0 76
0.025363 -0.563172 -0.127280 76 153 0
-0.095698 0.454665 -0.226618 255 0 0
-0.096119 0.360675 0.749995 255 0 0
-0.149251 -0.599231 -0.248847 76 153 0
-0.128945 -0.455455 -0.146356 76 153 0
-0.035661 0.428318 -0.252969 255 0 0
-0.153023 -0.437801 -0.199551 76 153 0
-0.052992 0.742658 0.145316 255 0 0
0.015608 -0.722979 -0.313545 76 153 0
-0.133360 -0.309482 -0.280335 76 153 0
0.151011 -0.464421 -0.117314 153 0 76
-0.045010 -0.815085 -0.083869 0 127 127
0.046748 -0.183413 -0.148203 76 153 0
-0.052821 0.799329 -0.031370 255 0 0
0.333598 -0.518397 -0.283319 153 0 76
-0.056238 -0.815085 -0.114009 0 127 127
-0.093822 -0.806714 -0.302538 0 127 127
-0.109923 -0.777775 -0.307381 76 153 0
-0.081449 0.743569 0.612384 255 0 0
-0.161630 -0.815085 -0.227429 0 127 127
-0.134675 -0.607971 -0.153849 76 153 0
0.067386 -0.405273 -0.175151 153 0 76
-0.058532 -0.616677 -0.327880 76 153 0
-0.071149 0.014611 -0.161694 255 0 0
0.019358 0.625557 -0.122300 255 0 0
0.041562 -0.786402 -0.174806 0 127 127
0.100678 -0.845806 -0.263694 0 127 127
-0.074298 0.756471 0.623538 255 0 0
0.059512 -0.364005 -0.266380 76 153 0
-0.012503 0.045514 -0.161734 255 0 0
0.053412 -0.815085 -0.311014 0 127 127
0.013074 -0.818065 -0.293776 0 127 127
0.250193 -0.440786 -0.318168 153 0 76
-0.081799 0.776557 0.353858 255 0 0
-0.037634 -0.746439 -0.104469 76 153 0
-0.154304 -0.842260 -0.119367 0 127 127
0.221569 -0.501180 -0.115853 153 0 76
-0.164571 -0.820228 -0.135287 0 127 127
0.027427 -0.359923 -0.129005 76 153 0
0.203407 -0.494216 -0.318583 153 0 76
-0.093100 -0.566930 -0.316622 76 153 0
0.029613 -0.859191 -0.135666 0 127 127
-0.039665 0.834918 0.476024 255 0 0
-0.059250 0.816539 0.059656 255 0 0
0.049230 -0.421832 -0.127987 153 0 76
0.069774 -0.223277 -0.201507 76 153 0
-0.005043 0.753935 0.432174 255 0 0
-0.094687 0.678282 -0.057676 255 0 0
-0.023765 0.668848 0.553270 255 0 0
0.003834 0.239685 -0.188448 255 0 0
0.007637 -0.694563 -0.116099 76 153 0
0.330707 -0.394283 -0.242425 153 0 76
-0.068712 -0.776146 -0.326314 76 153 0
-0.060051 -0.362047 -0.327307 76 153 0
0.024179 -0.310968 -0.126669 76 153 0
0.017423 0.614590 0.717861 255 0 0
-0.091427 0.716026 -0.064687 255 0 0
-0.049615 -0.801107 -0.105736 76 153 0
-0.013093 0.366933 0.837725 255 0 0
-0.079500 0.841569 0.389839 255 0 0
-0.148761 -0.364224 -0.252393 76 153 0
-0.073484 0.475489 -0.245215 255 0 0
-0.078863 0.248487 -0.178187 255 0 0
-0.075625 -0.151488 -0.270346 255 0 0
-0.079249 0.372151 0.741222 255 0 0
0.047667 -0.804487 -0.259257 0 127 127
-0.072857 -0.169257 -0.142311 76 153 0
0.343611 -0.522715 -0.210249 153 0 76
0.004109 -0.169257 -0.301598 76 153 0
-0.104229 0.309525 -0.207693 255 0 0
-0.102511 0.669986 0.612543 255 0 0
-0.063312 -0.185118 -0.326699 76 153 0
-0.020596 0.723771 0.112039 255 0 0
-0.047055 -0.169257 -0.324169 76 153 0
0.066817 -0.737714 -0.243359 76 153 0
-0.133262 -0.815085 -0.264402 0 127 127
0.001423 0.487462 0.700919 255 0 0
-0.090434 0.369143 0.821632 255 0 0
-0.076965 -0.164578 -0.176253 255 0 0
-0.030283 -0.708935 -0.329741 76 153 0
-0.084182 0.271893 0.746826 255 0 0
0.033536 -0.295216 -0.301131 76 153 0
0.005858 0.766150 0.174805 255 0 0
0.125549 -0.439585 -0.138816 153 0 76
-0.043179 0.320214 0.723137 255 0 0
-0.025799 0.450314 0.708395 255 0 0
-0.067612 0.726265 0.471966 255 0 0
-0.008984 0.857073 0.382549 255 0 0
-0.083580 0.833215 0.148599 255 0 0
-0.105257 0.459351 0.756633 255 0 0
0.253929 -0.520282 -0.180348 153 0 76
-0.104686 -0.081021 -0.225825 255 0 0
0.286132 -0.167182 -0.202176 153 0 76
0.021309 0.372589 0.782198 255 0 0
-0.046059 0.476615 -0.244124 255 0 0
0.015690 -0.426328 -0.235663 153 0 76
-0.088841 -0.529257 -0.318941 76 153 0
0.055209 -0.169257 -0.211642 76 153 0
-0.029617 0.697024 0.677459 255 0 0
0.015231 -0.473052 -0.327998 153 0 76
0.007565 -0.260911 -0.318678 76 153 0
-0.017504 0.758831 0.173981 255 0 0
-0.009254 0.009034 -0.271087 255 0 0
-0.151099 -0.202308 -0.189849 76 153 0
-0.005577 0.154906 -0.166319 255 0 0
0.087862 -0.422613 -0.127513 153 0 76
-0.151922 -0.295442 -0.233387 76 153 0
0.016822 -0.611702 -0.313491 76 153 0
0.281254 -0.221843 -0.235753 153 0 76
-0.104436 0.147726 -0.208056 255 0 0
0.293253 -0.242810 -0.218536 153 0 76
-0.057295 -0.472987 -0.209179 76 153 0
0.005079 0.455356 0.785266 255 0 0
-0.047098 0.770480 0.608847 255 0 0
0.227054 -0.522381 -0.121980 153 0 76
-0.007289 0.555129 0.683755 255 0 0
-0.074288 -0.815085 -0.093374 0 127 127
-0.060323 0.510565 0.679025 255 0 0
-0.033586 0.728252 0.648341 255 0 0
-0.012464 0.778869 0.247450 255 0 0
-0.050841 0.594760 0.635654 255 0 0
-0.105187 0.653095 -0.089217 255 0 0
0.051672 -0.215948 -0.154805 76 153 0
-0.000945 0.884217 0.251650 255 0 0
-0.074262 -0.181529 -0.266542 76 153 0
-0.068082 0.732645 0.490719 255 0 0
-0.017162 0.262526 0.736308 255 0 0
0.042493 -0.541053 -0.289894 153 0 76
-0.082360 0.756656 -0.051710 255 0 0
-0.023540 0.815259 0.057074 255 0 0
0.327333 -0.459396 -0.314606 153 0 76
0.009484 0.775686 0.356488 255 0 0
-0.037829 0.753652 -0.075518 255 0 0
0.333598 -0.548937 -0.135256 153 0 76
-0.105054 0.368268 0.778026 255 0 0
-0.053987 0.612072 0.619757 255 0 0
-0.091402 -0.124778 -0.196543 255 0 0
-0.004352 0.362306 0.730993 255 0 0
0.248650 -0.512322 -0.197137 153 0 76
-0.018032 0.421692 0.709385 255 0 0
0.047439 -0.785531 -0.244514 0 127 127
-0.086397 0.709761 0.636096 255 0 0
0.049039 -0.344821 -0.151190 76 153 0
0.118098 -0.520179 -0.323914 153 0 76
-0.033984 -0.520086 -0.232743 153 0 76
0.257159 -0.497021 -0.115770 153 0 76
0.093068 -0.590152 -0.267735 153 0 76
-0.037433 0.537487 0.787347 255 0 0
0.009337 0.386929 -0.194204 255 0 0
-0.090925 0.760315 -0.011094 255 0 0
-0.012986 0.073077 -0.161404 255 0 0
0.017539 -0.815085 -0.271451 0 127 127
0.190915 -0.589264 -0.168339 153 0 76
-0.092934 0.801865 0.326400 255 0 0
-0.050922 0.857040 0.112725 255 0 0
-0.038980 0.862920 0.173815 255 0 0
0.343611 -0.429459 -0.267497 153 0 76
0.054686 -0.447916 -0.139200 153 0 76
-0.095792 0.128409 -0.214784 255 0 0
-0.021633 -0.561186 -0.328285 76 153 0
-0.034143 -0.181433 -0.155908 76 153 0
0.051191 -0.469646 -0.130844 153 0 76
0.050350 -0.623653 -0.152978 76 153 0
0.015690 -0.412262 -0.207665 76 153 0
-0.017515 0.310342 -0.264952 255 0 0
-0.040844 0.805292 0.022010 255 0 0
0.035075 -0.807481 -0.282702 0 127 127
-0.082071 -0.216152 -0.112947 76 153 0
0.025893 -0.474473 -0.304585 153 0 76
0.276487 -0.527216 -0.236732 153 0 76
0.006557 -0.106613 -0.177292 255 0 0
0.069271 -0.613986 -0.235646 76 153 0
-0.096581 0.315621 0.803570 255 0 0
-0.080732 0.236704 0.829364 0 255 0
0.142281 -0.416898 -0.144850 153 0 76
0.333598 -0.493331 -0.294292 153 0 76
0.140985 -0.590892 -0.198834 153 0 76
0.125832 -0.524010 -0.128484 153 0 76
-0.087064 0.531565 -0.143967 255 0 0
-0.042556 0.496702 0.815817 255 0 0
-0.132283 -0.815085 -0.195488 0 127 127
-0.041751 0.847735 0.425879 255 0 0
-0.146591 -0.848628 -0.267214 0 127 127
0.307804 -0.512322 -0.199841 153 0 76
-0.051026 -0.848628 -0.092656 0 127 127
-0.067982 0.753489 0.363017 255 0 0
0.007660 0.250177 0.800270 255 0 0
-0.022899 0.641906 -0.021845 255 0 0
-0.023353 0.499934 -0.135156 255 0 0
-0.075474 -0.860143 -0.362794 0 127 127
-0.090379 -0.042227 -0.257092 255 0 0
-0.182647 -0.843489 -0.264258 0 127 127
0.005927 0.422849 0.794571 255 0 0
-0.116008 -0.583853 -0.302345 76 153 0
0.004871 -0.205202 -0.191334 255 0 0
-0.044965 -0.021365 -0.271228 255 0 0
-0.043989 0.890519 0.245256 255 0 0
0.007638 0.687608 0.564318 255 0 0
-0.085702 0.088390 -0.248307 255 0 0
0.014761 0.506429 -0.156115 255 0 0
-0.094530 0.135436 -0.182346 255 0 0
-0.017980 0.334886 0.736896 255 0 0
-0.082176 -0.222784 -0.234931 255 0 0
-0.014819 -0.715859 -0.108642 76 153 0
0.189948 -0.390262 -0.241797 153 0 76
-0.128020 -0.222117 -0.144857 76 153 0
-0.083565 -0.124238 -0.169628 255 0 0
-0.047436 0.483750 -0.135681 255 0 0
0.118453 -0.564034 -0.161088 153 0 76
-0.017404 0.825889 0.530774 255 0 0
0.343611 -0.445496 -0.277164 153 0 76
-0.033947 -0.848628 -0.338610 0 127 127
-0.056532 -0.279896 -0.107419 76 153 0
0.282578 -0.465207 -0.199794 153 0 76
-0.096457 -0.162976 -0.249765 255 0 0
0.295472 -0.463532 -0.254941 153 0 76
-0.006838 -0.623561 -0.324612 76 153 0
-0.029559 -0.235893 -0.260619 76 153 0
-0.028941 -0.522698 -0.205843 76 153 0
-0.083367 0.807175 0.044515 255 0 0
0.061300 -0.583476 -0.214136 76 153 0
-0.091461 0.292446 -0.178212 255 0 0
-0.109004 -0.241795 -0.128748 76 153 0
-0.079178 -0.804220 -0.130451 0 127 127
-0.036167 0.087387 -0.164249 255 0 0
-0.170424 -0.860143 -0.193175 0 127 127
-0.048143 -0.251876 -0.329417 76 153 0
-0.162137 -0.815085 -0.189832 0 127 127
-0.098311 0.811113 0.104952 255 0 0
-0.091660 0.689540 0.564131 255 0 0
-0.037936 -0.350702 -0.104454 76 153 0
0.001618 -0.529969 -0.257271 153 0 76
-0.053396 0.540636 0.668523 255 0 0
-0.117867 -0.804288 -0.133571 76 153 0
-0.047185 -0.396029 -0.105396 76 153 0
-0.139417 -0.475225 -0.160211 76 153 0
-0.153403 -0.710001 -0.211355 76 153 0
0.015093 0.063665 -0.190573 255 0 0
0.010769 0.580909 -0.151597 255 0 0
-0.112144 -0.253892 -0.304439 76 153 0
0.020172 0.276029 0.802135 255 0 0
0.059327 -0.757581 -0.266473 76 153 0
-0.104619 0.791445 0.419752 255 0 0
-0.029341 0.377594 -0.271008 255 0 0
0.010612 -0.047355 -0.229486 255 0 0
0.008664 -0.126761 -0.234668 255 0 0
-0.140264 -0.197694 -0.161731 76 153 0
-0.008547 0.735282 -0.075008 255 0 0
-0.018630 0.153576 -0.276218 255 0 0
0.296548 -0.481237 -0.179845 153 0 76
0.069761 -0.683862 -0.234105 76 153 0
-0.014346 0.870694 0.298485 255 0 0
-0.097025 -0.848628 -0.114640 0 127 127
-0.051459 0.881671 0.186965 255 0 0
-0.127014 -0.792295 -0.144856 76 153 0
0.035624 -0.559323 -0.273428 76 153 0
-0.132361 -0.845393 -0.157040 0 127 127
0.068203 -0.226125 -0.239108 76 153 0
0.012114 -0.253715 -0.118152 76 153 0
-0.095760 -0.216180 -0.219692 255 0 0
-0.028058 -0.860143 -0.085515 0 127 127
-0.002734 -0.857552 -0.323961 0 127 127
0.011096 0.240384 0.761967 255 0 0
0.015690 -0.535839 -0.218351 76 153 0
-0.102899 0.444409 -0.183000 255 0 0
-0.027943 0.595034 -0.057395 255 0 0
-0.076636 -0.540383 -0.324725 76 153 0
-0.000063 0.777986 0.006174 255 0 0
0.007648 -0.548858 -0.318640 76 153 0
-0.038989 -0.804802 -0.316707 0 127 127
-0.078321 -0.594122 -0.111555 76 153 0
-0.045079 0.758287 0.200327 255 0 0
-0.130855 -0.697010 -0.149355 76 153 0
-0.032461 -0.355923 -0.173776 76 153 0
-0.112614 -0.842352 -0.300735 0 127 127
-0.017396 0.688745 0.694264 255 0 0
-0.039470 -0.840423 -0.107949 0 127 127
0.062420 -0.173919 -0.257603 76 153 0
0.018236 0.778609 0.148602 255 0 0
-0.150213 -0.640008 -0.245696 76 153 0
-0.066280 0.035017 -0.275500 255 0 0
-0.079982 0.780886 0.284187 255 0 0
-0.010198 0.238197 0.757854 255 0 0
0.289644 -0.259074 -0.205609 153 0 76
0.149747 -0.509407 -0.319196 153 0 76
-0.057358 0.116261 -0.166279 255 0 0
0.331177 -0.587150 -0.186326 153 0 76
-0.140751 -0.677930 -0.271783 76 153 0
0.233694 -0.551066 -0.123917 153 0 76
-0.099477 0.595571 0.671127 255 0 0
0.343611 -0.563906 -0.275277 153 0 76
-0.104294 -0.054370 -0.227678 255 0 0
-0.025967 0.235827 -0.278152 255 0 0
-0.097387 0.401398 -0.234108 255 0 0
0.060255 -0.728074 -0.263693 76 153 0
-0.153723 -0.390993 -0.225034 76 153 0
0.333598 -0.503286 -0.316108 153 0 76
-0.092076 -0.352732 -0.317250 76 153 0
-0.002993 0.472917 -0.153823 255 0 0
0.335897 -0.404711 -0.145120 153 0 76
-0.102536 0.386444 0.763180 255 0 0
0.159608 -0.481559 -0.328282 153 0 76
-0.082272 0.577668 -0.186714 255 0 0
-0.076599 0.240766 -0.258628 255 0 0
-0.087821 -0.815085 -0.214496 0 127 127
-0.059905 0.861670 0.152014 255 0 0
-0.098568 0.820817 0.430747 255 0 0
0.045653 -0.177576 -0.286574 76 153 0
-0.031525 -0.860143 -0.106580 0 127 127
0.011840 0.590390 0.703991 255 0 0
0.038302 -0.169257 -0.160672 76 153 0
-0.017367 0.869933 0.352833 255 0 0
-0.103683 0.815256 0.153609 255 0 0
-0.004006 0.284668 0.754664 255 0 0
-0.089123 -0.169257 -0.316247 76 153 0
0.102515 -0.569700 -0.168605 153 0 76
0.343611 -0.600238 -0.217109 153 0 76
-0.051617 0.557208 -0.232299 255 0 0
0.083845 -0.439629 -0.296816 153 0 76
0.014757 0.486434 -0.159887 255 0 0
-0.094081 -0.190897 -0.229200 255 0 0
-0.024588 -0.578159 -0.328783 76 153 0
0.064687 -0.847803 -0.239397 0 127 127
-0.148144 -0.845899 -0.237009 0 127 127
0.021090 0.039080 -0.215760 255 0 0
-0.057243 0.271016 0.840968 255 0 0
0.010616 0.341363 -0.183506 255 0 0
0.092783 -0.845468 -0.279726 0 127 127
0.002467 0.745273 -0.052596 255 0 0
-0.152468 -0.339690 -0.196981 76 153 0
0.017430 0.832045 0.175895 255 0 0
0.007498 0.355592 0.822087 255 0 0
0.201536 -0.431504 -0.313340 153 0 76
0.016798 -0.556218 -0.159020 76 153 0
0.215294 -0.541338 -0.305805 153 0 76
-0.037152 0.240914 -0.154836 255 0 0
0.273649 -0.560106 -0.131050 153 0 76
-0.001169 0.747377 0.109823 255 0 0
0.330131 -0.461504 -0.179845 153 0 76
-0.019986 0.498649 -0.245320 255 0 0
-0.035734 0.496697 -0.254484 255 0 0
0.067937 -0.856929 -0.184804 0 127 127
0.246399 -0.546950 -0.313406 153 0 76
-0.014336 0.406569 -0.260596 255 0 0
-0.086686 -0.380370 -0.217249 76 153 0
-0.089348 0.557813 0.700109 255 0 0
-0.092123 0.553933 -0.184662 255 0 0
0.322706 -0.512322 -0.233512 153 0 76
0.218980 -0.387156 -0.219126 153 0 76
-0.155723 -0.860143 -0.210484 0 127 127
-0.041082 -0.200703 -0.104290 76 153 0
-0.075947 0.108646 -0.175865 255 0 0
-0.071885 0.381190 -0.264244 255 0 0
-0.074366 0.718122 0.515766 255 0 0
-0.015512 -0.407980 -0.327148 76 153 0
-0.104249 0.252022 0.788739 255 0 0
-0.075185 0.198671 -0.175469 255 0 0
-0.092541 -0.533315 -0.117320 76 153 0
0.130751 -0.511187 -0.116415 153 0 76
-0.033172 0.878322 0.295767 255 0 0
-0.087369 0.277103 -0.245103 255 0 0
0.053315 -0.798736 -0.179359 0 127 127
0.080242 -0.443764 -0.114871 153 0 76
0.024864 -0.568605 -0.260385 153 0 76
0.098113 -0.553548 -0.287043 153 0 76
-0.004305 -0.785047 -0.309247 0 127 127
-0.021735 -0.850810 -0.365595 0 127 127
-0.151938 -0.380399 -0.193513 76 153 0
-0.067819 0.499371 -0.243473 255 0 0
0.011895 0.541807 -0.164913 255 0 0
0.012536 0.236775 0.828480 0 255 0
0.103763 -0.386874 -0.262171 153 0 76
-0.094563 -0.755038 -0.315596 76 153 0
0.318324 -0.511873 -0.254941 153 0 76
-0.014934 -0.804812 -0.307520 0 127 127
-0.068534 0.438182 0.705816 255 0 0
-0.041634 0.881782 0.221805 255 0 0
0.204777 -0.457822 -0.110420 153 0 76
0.343611 -0.558655 -0.259679 153 0 76
-0.066964 0.408965 0.834298 255 0 0
-0.148109 -0.409183 -0.180355 76 153 0
-0.102070 0.738487 0.543238 255 0 0
-0.102695 -0.818865 -0.289360 0 127 127
0.100808 -0.830097 -0.260732 0 127 127
-0.008152 0.198537 -0.259319 255 0 0
-0.040488 0.091443 -0.280733 255 0 0
-0.116160 -0.455132 -0.302540 76 153 0
0.057202 -0.241701 -0.163225 76 153 0
-0.021596 0.160363 -0.167311 255 0 0
-0.103770 0.785124 0.518503 255 0 0
-0.024121 0.669357 -0.152824 255 0 0
0.261638 -0.449617 -0.190830 153 0 76
0.007934 0.543458 -0.214652 255 0 0
0.015690 -0.472279 -0.192115 153 0 76
0.002653 0.524854 -0.209925 255 0 0
-0.078834 0.603763 0.630200 255 0 0
0.343611 -0.433985 -0.250726 153 0 76
-0.051513 0.842357 0.121734 255 0 0
0.010703 -0.208914 -0.207086 76 153 0
-0.042401 0.288591 -0.163185 255 0 0
-0.087886 0.215958 -0.260629 255 0 0
-0.051852 -0.153236 -0.270143 255 0 0
-0.052129 0.626586 -0.189916 255 0 0
-0.015039 -0.316350 -0.181420 76 153 0
0.050243 -0.430467 -0.284051 153 0 76
-0.134219 -0.548148 -0.153209 76 153 0
-0.002593 0.705659 0.037547 255 0 0
-0.042501 -0.203012 -0.330427 76 153 0
-0.093710 -0.150133 -0.181562 255 0 0
0.143084 -0.576028 -0.268383 153 0 76
-0.154175 -0.358471 -0.221689 76 153 0
-0.016481 -0.545134 -0.107768 76 153 0
-0.149287 -0.239888 -0.182635 76 153 0
-0.015352 0.838417 0.431480 255 0 0
0.343611 -0.397706 -0.173347 153 0 76
0.230560 -0.401953 -0.168473 153 0 76
0.012330 0.437476 -0.197178 255 0 0
-0.061234 0.181301 -0.167139 255 0 0
0.058284 -0.333380 -0.269853 76 153 0
0.065246 -0.740287 -0.184361 76 153 0
0.254091 -0.226144 -0.221776 153 0 76
-0.053790 0.718166 0.676942 255 0 0
0.039022 -0.264053 -0.295608 76 153 0
0.004282 0.615503 -0.080726 255 0 0
0.011616 0.762765 0.420018 255 0 0
-0.042717 0.460667 -0.263100 255 0 0
-0.087369 -0.085425 -0.246526 255 0 0
0.136547 -0.479683 -0.106452 153 0 76
0.011078 0.548984 0.716976 255 0 0
0.173763 -0.443829 -0.307161 153 0 76
-0.038999 -0.776726 -0.330424 76 153 0
0.234668 -0.458505 -0.120721 153 0 76
-0.087523 -0.829251 -0.316863 0 127 127
-0.002992 0.412405 -0.240836 255 0 0
-0.052880 -0.336941 -0.261019 76 153 0
-0.017925 0.780146 -0.056446 255 0 0
-0.020439 0.829162 0.096509 255 0 0
-0.153540 -0.647516 -0.210331 76 153 0
0.016673 0.730354 0.032992 255 0 0
0.044033 -0.236337 -0.288829 76 153 0
-0.102848 0.818626 0.238897 255 0 0
-0.141007 -0.169257 -0.218015 76 153 0
-0.025164 0.126285 -0.268857 255 0 0
0.067940 -0.577628 -0.287383 153 0 76
0.003036 -0.548738 -0.252536 153 0 76
0.011819 0.558226 -0.161914 255 0 0
0.260865 -0.471657 -0.328132 153 0 76
0.094680 -0.815085 -0.269074 0 127 127
-0.027451 -0.317737 -0.105433 76 153 0
-0.089207 0.758000 -0.028071 255 0 0
-0.154454 -0.321669 -0.219257 76 153 0
-0.004519 0.750749 0.128572 255 0 0
-0.064712 0.708442 0.043403 255 0 0
-0.057972 0.825236 0.081035 255 0 0
0.343611 -0.548162 -0.166974 153 0 76
0.277729 -0.512217 -0.179845 153 0 76
0.154421 -0.590025 -0.231524 153 0 76
0.292311 -0.527216 -0.235976 153 0 76
-0.024148 0.661888 0.728877 255 0 0
0.209000 -0.580713 -0.173533 153 0 76
0.283687 -0.440793 -0.127604 153 0 76
0.330020 -0.481610 -0.318304 153 0 76
0.335558 -0.445348 -0.320143 153 0 76
-0.036068 -0.047715 -0.164192 255 0 0
0.021380 0.766623 0.542694 255 0 0
-0.085094 0.270669 0.768289 255 0 0
0.008789 0.749425 -0.031519 255 0 0
-0.065622 0.551540 -0.104717 255 0 0
-0.085351 0.711304 -0.098321 255 0 0
-0.075850 -0.815085 -0.278241 0 127 127
0.087005 -0.860143 -0.191826 0 127 127
-0.030229 0.813651 0.554633 255 0 0
0.280774 -0.394838 -0.277173 153 0 76
-0.075560 0.339579 -0.164999 255 0 0
-0.097997 0.804285 0.503290 255 0 0
-0.035106 0.652103 -0.022436 255 0 0
-0.049257 -0.158202 -0.155231 255 0 0
0.007328 -0.502594 -0.105838 153 0 76
-0.000215 0.802989 0.524195 255 0 0
-0.018767 -0.844894 -0.070131 0 127 127
-0.091362 0.542450 -0.123576 255 0 0
0.036979 -0.815182 -0.268647 0 127 127
0.007193 0.370834 -0.233278 255 0 0
-0.009708 0.734675 0.495683 255 0 0
0.333598 -0.478249 -0.125148 153 0 76
-0.142762 -0.788153 -0.199776 0 127 127
0.013554 -0.815085 -0.101389 0 127 127
-0.045878 0.521045 0.793110 255 0 0
-0.108941 -0.815085 -0.333639 0 127 127
-0.084465 -0.614648 -0.321161 76 153 0
0.012287 0.718855 -0.035415 255 0 0
-0.088161 0.587208 -0.083855 255 0 0
-0.037896 -0.785047 -0.315682 76 153 0
0.287359 -0.596731 -0.184861 153 0 76
-0.087373 -0.025250 -0.188141 255 0 0
0.301891 -0.384340 -0.253143 153 0 76
-0.048201 0.198726 -0.270582 255 0 0
-0.119853 -0.563873 -0.297979 76 153 0
-0.137372 -0.822595 -0.211477 0 127 127
-0.103687 -0.541358 -0.310576 76 153 0
-0.083992 0.085320 -0.183721 255 0 0
-0.130895 -0.345120 -0.148729 76 153 0
-0.099053 0.852945 0.296097 255 0 0
0.119327 -0.580291 -0.283672 153 0 76
0.086198 -0.385241 -0.258483 153 0 76
-0.017421 0.744657 0.640299 255 0 0
-0.028550 0.249921 0.733605 255 0 0
-0.019779 -0.198880 -0.265737 255 0 0
-0.057227 0.315186 -0.157134 255 0 0
0.333598 -0.426781 -0.178763 153 0 76
-0.144411 -0.526268 -0.171307 76 153 0
0.018756 0.781596 0.405887 255 0 0
-0.027940 0.348918 -0.276392 255 0 0
0.014691 0.425433 -0.227620 255 0 0
0.200928 -0.395257 -0.156608 153 0 76
-0.153962 -0.737022 -0.230002 76 153 0
0.246119 -0.385290 -0.252891 153 0 76
0.010733 -0.375926 -0.117925 76 153 0
0.016407 0.842064 0.330681 255 0 0
-0.027162 0.815875 0.012032 255 0 0
-0.012945 -0.144241 -0.161658 255 0 0
-0.061908 0.867559 0.328679 255 0 0
-0.182738 -0.818372 -0.174261 0 127 127
-0.132847 -0.256529 -0.280754 76 153 0
-0.032642 0.847425 0.493859 255 0 0
0.002873 0.384096 0.750051 255 0 0
0.190201 -0.594262 -0.224458 153 0 76
-0.094724 0.827568 0.340068 255 0 0
-0.005683 0.663284 0.586363 255 0 0
0.343611 -0.586368 -0.225946 153 0 76
-0.049115 -0.555808 -0.329396 76 153 0
-0.050710 0.864019 0.130215 255 0 0
0.047118 -0.281921 -0.284757 76 153 0
-0.085933 0.338976 0.815890 255 0 0
0.254932 -0.592218 -0.261317 153 0 76
-0.014545 0.727020 0.087107 255 0 0
0.010005 0.086588 -0.252701 255 0 0
0.088742 -0.501996 -0.327915 153 0 76
-0.138659 -0.860143 -0.311714 0 127 127
-0.146871 -0.504721 -0.256573 76 153 0
0.008208 0.520462 0.717309 255 0 0
-0.095789 0.781479 0.491405 255 0 0
-0.068112 -0.815085 -0.174667 0 127 127
-0.003258 0.503429 0.793972 255 0 0
0.162146 -0.589743 -0.166518 153 0 76
-0.030162 -0.745961 -0.329721 76 153 0
0.332316 -0.593294 -0.259974 153 0 76
-0.095435 0.666892 -0.083704 255 0 0
-0.089085 0.739867 -0.053424 255 0 0
0.190891 -0.378229 -0.215207 153 0 76
-0.095579 0.746062 -0.002038 255 0 0
-0.108638 -0.815085 -0.161357 0 127 127
-0.085670 -0.251667 -0.113627 76 153 0
-0.055279 -0.815085 -0.228774 0 127 127
-0.054275 0.667316 0.725179 255 0 0
-0.154034 -0.707970 -0.229784 76 153 0
-0.074612 0.758880 0.157751 255 0 0
-0.049518 0.863193 0.359739 255 0 0
-0.150727 -0.860143 -0.301105 0 127 127
-0.093089 -0.474520 -0.316748 76 153 0
-0.068492 0.692089 -0.001137 255 0 0
-0.005210 0.687593 0.684438 255 0 0
-0.102730 0.137373 -0.233741 255 0 0
0.003010 0.817832 0.509222 255 0 0
-0.118290 -0.171467 -0.300359 76 153 0
-0.079137 0.659956 -0.128782 255 0 0
0.048589 -0.761195 -0.282806 76 153 0
-0.043441 0.367039 -0.275697 255 0 0
0.080747 -0.403818 -0.255936 153 0 76
0.034894 -0.815085 -0.238570 0 127 127
0.189648 -0.538571 -0.309396 153 0 76
-0.071803 0.289501 -0.261529 255 0 0
-0.103880 0.816093 0.389848 255 0 0
-0.043399 0.325767 0.849477 255 0 0
0.281520 -0.405366 -0.222160 153 0 76
0.009003 0.131813 -0.179976 255 0 0
-0.145960 -0.733780 -0.257126 76 153 0
0.020582 -0.079650 -0.207650 255 0 0
-0.093468 0.767296 0.477283 255 0 0
0.020594 0.795022 0.387208 255 0 0
-0.029462 0.869338 0.150008 255 0 0
-0.000440 -0.130807 -0.251102 255 0 0
-0.100523 0.465645 0.730932 255 0 0
0.055082 -0.456698 -0.300428 153 0 76
-0.072122 0.316111 -0.271980 255 0 0
-0.091865 0.256772 0.834079 255 0 0
0.007923 -0.169257 -0.144037 76 153 0
0.054771 -0.243394 -0.274438 76 153 0
-0.026455 -0.495975 -0.329462 153 0 76
-0.019332 -0.295486 -0.178529 76 153 0
0.020979 -0.839693 -0.128737 0 127 127
-0.149304 -0.850303 -0.181597 0 127 127
0.006592 0.033523 -0.257308 255 0 0
-0.031849 0.300017 -0.155985 255 0 0
-0.102824 -0.282838 -0.310338 76 153 0
-0.061241 0.769994 0.228665 255 0 0
-0.064948 -0.586030 -0.108825 76 153 0
-0.091678 0.493377 0.724962 255 0 0
-0.058515 -0.692618 -0.327920 76 153 0
-0.019564 -0.562973 -0.107112 76 153 0
0.011159 0.712602 -0.049856 255 0 0
-0.069873 0.291365 -0.160623 255 0 0
0.250937 -0.404810 -0.162579 153 0 76
-0.100500 0.253054 -0.241664 255 0 0
0.343611 -0.465710 -0.147044 153 0 76
0.293048 -0.429822 -0.134946 153 0 76
0.017522 0.336558 0.764975 255 0 0
-0.128505 -0.291548 -0.287397 76 153 0
0.021465 0.625324 -0.105048 255 0 0
-0.075000 -0.060819 -0.270764 255 0 0
-0.056074 0.647764 -0.028004 255 0 0
-0.022403 0.633084 0.601863 255 0 0
0.000778 -0.590816 -0.321492 76 153 0
-0.077527 0.731865 0.110987 255 0 0
-0.041406 -0.815085 -0.187247 0 127 127
-0.040052 0.526897 -0.243713 255 0 0
0.163572 -0.579440 -0.263022 153 0 76
-0.099581 0.830442 0.381602 255 0 0
-0.090175 0.003065 -0.176901 255 0 0
-0.078768 0.530243 -0.118187 255 0 0
0.001997 0.176218 -0.171789 255 0 0
0.017414 -0.577907 -0.234150 76 153 0
-0.076055 0.744619 0.420223 255 0 0
0.007455 0.493542 0.724150 255 0 0
-0.093909 0.674162 0.583659 255 0 0
-0.066210 0.842013 0.133866 255 0 0
-0.062616 -0.369066 -0.108704 76 153 0
-0.069572 0.212019 -0.273793 255 0 0
-0.083687 0.625645 -0.164414 255 0 0
0.000993 0.828176 0.415082 255 0 0
0.020153 0.451104 -0.203603 255 0 0
0.011129 0.795623 0.170122 255 0 0
-0.018168 -0.848628 -0.099178 0 127 127
-0.052789 0.492805 0.800728 255 0 0
-0.154229 -0.544352 -0.222282 76 153 0
-0.032271 0.443924 -0.249233 255 0 0
0.003383 -0.851879 -0.358292 0 127 127
-0.037570 0.513553 -0.126453 255 0 0
-0.095380 0.338068 0.750968 255 0 0
-0.134663 -0.331257 -0.278551 76 153 0
0.291682 -0.337301 -0.209491 153 0 76
-0.007197 0.256109 -0.165355 255 0 0
-0.068910 0.148199 -0.170951 255 0 0
0.005488 0.227135 0.755964 0 255 0
-0.000171 0.378417 -0.256692 255 0 0
0.057182 -0.815085 -0.171093 0 127 127
-0.104358 -0.114801 -0.228141 255 0 0
0.019964 0.804404 0.139660 255 0 0
0.076644 -0.439387 -0.137920 153 0 76
0.021400 0.757271 0.036770 255 0 0
0.015690 -0.416700 -0.181978 153 0 76
0.006162 0.824383 0.398651 255 0 0
-0.023400 0.695047 -0.132603 255 0 0
0.078507 -0.815085 -0.227121 0 127 127
-0.096640 -0.663679 -0.314609 76 153 0
-0.052673 0.779659 -0.041979 255 0 0
0.021424 0.822312 0.217253 255 0 0
0.093547 -0.486209 -0.122858 153 0 76
-0.002192 0.844982 0.172721 255 0 0
-0.032724 -0.102646 -0.164837 255 0 0
-0.036412 -0.815085 -0.270632 0 127 127
-0.167503 -0.815085 -0.267581 0 127 127
-0.067519 -0.042316 -0.170255 255 0 0
-0.072253 0.009132 -0.261762 255 0 0
-0.002372 0.450590 0.710104 255 0 0
0.003176 0.708082 -0.008625 255 0 0
0.130445 -0.590837 -0.265754 153 0 76
-0.039350 0.312577 -0.271259 255 0 0
0.061071 -0.372916 -0.172825 76 153 0
0.064886 -0.612922 -0.183365 76 153 0
0.263868 -0.464969 -0.234603 153 0 76
-0.086029 -0.242173 -0.207966 76 153 0
0.143477 -0.449639 -0.123950 153 0 76
-0.078054 0.228783 -0.177575 255 0 0
0.008639 -0.159817 -0.199276 255 0 0
0.003379 0.788583 0.556839 255 0 0
0.000798 0.076844 -0.170736 255 0 0
-0.128003 -0.453283 -0.288963 76 153 0
0.328726 -0.474897 -0.107517 153 0 76
-0.001281 0.715265 0.059989 255 0 0
-0.088697 0.009425 -0.244191 255 0 0
0.081511 -0.600947 -0.203453 153 0 76
0.035921 -0.674430 -0.135813 76 153 0
-0.068985 0.385768 0.721914 255 0 0
0.215139 -0.405009 -0.272681 153 0 76
0.254970 -0.475565 -0.254941 153 0 76
-0.033662 0.787678 0.590980 255 0 0
-0.056275 -0.345256 -0.174823 76 153 0
0.205557 -0.462648 -0.326262 153 0 76
-0.149252 -0.249961 -0.247886 76 153 0
0.006307 0.260431 0.780811 255 0 0
-0.056791 0.669650 -0.000619 255 0 0
-0.102382 0.698734 -0.032147 255 0 0
0.289021 -0.527344 -0.123338 153 0 76
0.017236 -0.425613 -0.121210 76 153 0
-0.086111 0.487939 -0.218806 255 0 0
-0.066346 -0.249096 -0.109544 76 153 0
-0.043426 -0.581857 -0.330296 76 153 0
-0.133185 -0.169257 -0.197583 76 153 0
0.020319 0.443263 0.754089 255 0 0
0.304969 -0.508904 -0.117983 153 0 76
0.190915 -0.397966 -0.270562 153 0 76
-0.143383 -0.234490 -0.265042 76 153 0
0.100625 -0.513199 -0.108518 153 0 76
-0.026345 -0.524573 -0.329078 76 153 0
-0.069084 0.464940 -0.146854 255 0 0
-0.152557 -0.815085 -0.147294 0 127 127
-0.063118 0.270715 -0.167616 255 0 0
-0.046052 -0.419863 -0.329792 76 153 0
-0.100514 0.021003 -0.194243 255 0 0
-0.005843 0.870671 0.276050 255 0 0
-0.046514 0.718095 -0.102553 255 0 0
-0.095867 0.825220 0.211471 255 0 0
0.072784 -0.398943 -0.193016 153 0 76
-0.005954 -0.278847 -0.111320 76 153 0
-0.095784 0.827861 0.281735 255 0 0
-0.072632 0.648858 -0.156898 255 0 0
-0.014071 0.191061 -0.160605 255 0 0
-0.078236 0.326334 0.837835 255 0 0
-0.088251 0.047240 -0.259777 255 0 0
0.248789 -0.491560 -0.179845 153 0 76
-0.082488 0.472821 -0.155888 255 0 0
-0.012181 0.756361 0.400564 255 0 0
-0.009161 -0.052920 -0.174682 255 0 0
-0.033483 0.840425 0.449032 255 0 0
-0.079866 0.771887 0.320217 255 0 0
-0.079361 -0.197845 -0.323841 76 153 0
0.251703 -0.470381 -0.194740 153 0 76
0.018328 0.599652 0.725800 255 0 0
-0.027296 0.542761 0.666759 255 0 0
0.017800 0.269411 -0.200763 255 0 0
0.005354 0.594532 -0.181005 255 0 0
0.031631 -0.578652 -0.225324 76 153 0
-0.122202 -0.601572 -0.138399 76 153 0
0.008781 0.389228 -0.227054 255 0 0
0.023321 -0.693210 -0.308978 76 153 0
-0.026733 0.297061 0.734594 255 0 0
-0.052830 0.307930 0.725424 255 0 0
-0.096498 0.634935 -0.063517 255 0 0
-0.079989 0.520343 -0.231853 255 0 0
-0.084603 0.716237 0.546144 255 0 0
0.253905 -0.334047 -0.214469 153 0 76
-0.001372 0.688691 0.663177 255 0 0
0.309663 -0.483203 -0.240923 153 0 76
-0.106954 -0.785047 -0.290882 0 127 127
-0.073954 0.601090 0.767858 255 0 0
0.296884 -0.395987 -0.179550 153 0 76
-0.030407 -0.477128 -0.230575 76 153 0
-0.063262 0.621608 0.746896 255 0 0
-0.015519 0.382455 0.837453 255 0 0
-0.001720 0.717062 0.636507 255 0 0
0.017753 0.547037 -0.191828 255 0 0
-0.006102 0.434430 -0.249605 255 0 0
0.264579 -0.417414 -0.289059 153 0 76
-0.028729 0.234289 -0.165922 255 0 0
0.008552 0.553741 -0.138410 255 0 0
0.333598 -0.432905 -0.155099 153 0 76
-0.048276 0.853753 0.460070 255 0 0
-0.092597 0.241003 0.758317 255 0 0
-0.090330 0.292840 0.811861 255 0 0
0.125832 -0.397575 -0.185762 153 0 76
-0.024246 -0.232959 -0.328391 76 153 0
-0.044396 -0.224805 -0.262373 76 153 0
-0.129537 -0.658396 -0.286458 76 153 0
0.240979 -0.511291 -0.247270 153 0 76
-0.049421 0.692856 0.540563 255 0 0
-0.111222 -0.848628 -0.314738 0 127 127
0.008513 -0.127303 -0.198949 255 0 0
-0.014137 0.817560 0.512478 255 0 0
-0.049199 0.286218 -0.270401 255 0 0
0.008737 0.581825 0.668443 255 0 0
-0.012008 0.618646 -0.058014 255 0 0
0.021456 0.832573 0.276718 255 0 0
-0.065222 0.758710 0.174065 255 0 0
0.229825 -0.383487 -0.185891 153 0 76
-0.053337 0.730496 0.665844 255 0 0
0.015690 -0.461897 -0.148287 153 0 76
0.018809 0.330169 -0.204992 255 0 0
-0.053111 0.751413 0.646048 255 0 0
-0.182207 -0.815085 -0.251950 0 127 127
-0.077638 0.316808 -0.177423 255 0 0
-0.023508 -0.268204 -0.328391 76 153 0
-0.100223 0.114304 -0.241563 255 0 0
-0.057259 0.464383 0.703120 255 0 0
-0.048845 0.702285 0.038706 255 0 0
-0.037978 0.556228 0.781309 255 0 0
-0.041667 0.602751 -0.206335 255 0 0
0.139393 -0.556422 -0.306298 153 0 76
