ply
format ascii 1.0
element vertex 1270
property float x
property float y
property float z
property uchar red
property uchar green
property uchar blue
end_header
0.618995 0.119688 0.255284 153 0 76
-0.723815 -0.220130 -0.212549 76 153 0
-0.539922 0.134299 0.061258 204 51 127
0.750035 -0.236473 0.291315 76 0 153
0.682355 -0.571207 -0.224148 76 153 0
-0.294459 0.433748 0.278482 76 0 153
-0.781187 -0.513102 0.244902 153 0 76
-0.751656 0.199566 -0.212549 76 0 153
-0.365545 0.337758 -0.224148 76 153 0
0.721782 0.464771 0.301681 76 0 153
0.605864 -0.543658 -0.212549 76 153 0
0.157640 0.382450 -0.212549 76 153 0
0.151708 0.344196 -0.224148 76 153 0
0.599234 0.437162 -0.224148 76 153 0
0.422557 -0.453391 -0.143759 0 0 255
-0.554074 -0.067622 -0.212549 76 153 0
0.449275 0.278105 0.279702 76 0 153
0.217688 -0.303505 -0.224148 76 153 0
0.366778 0.134299 -0.095206 204 51 127
0.407942 0.320535 0.288349 76 0 153
-0.472461 -0.453391 0.181273 0 0 255
0.443261 0.401089 0.300603 76 0 153
0.648926 0.111101 0.114386 204 51 127
0.079558 -0.453391 0.088939 0 0 255
0.219401 -0.183008 -0.224148 76 153 0
0.139319 0.462010 0.278482 76 0 153
0.170017 0.287557 -0.224148 76 153 0
-0.497966 0.134299 -0.067257 204 51 127
-0.277931 0.151754 -0.212549 76 153 0
0.438611 0.433528 -0.212549 76 153 0
0.236247 0.111101 0.233380 204 51 127
-0.542743 0.111101 -0.035902 204 51 127
-0.647818 -0.430193 -0.145305 0 0 255
-0.153574 0.302093 -0.224148 76 153 0
-0.733310 -0.320175 0.285402 153 0 76
-0.064000 0.094993 -0.212549 76 153 0
-0.511534 -0.430193 -0.145418 0 0 255
-0.056554 0.221603 0.295188 76 153 0
0.008231 -0.453391 0.102492 0 0 255
-0.663247 -0.430193 -0.128701 0 0 255
0.743540 0.217581 0.186182 127 0 127
-0.607094 -0.021362 -0.224148 76 153 0
-0.430439 0.274780 -0.212549 76 153 0
-0.023116 -0.091994 -0.224148 76 153 0
0.600597 0.135585 0.337329 153 76 0
-0.783188 0.321771 0.131438 0 127 127
-0.267802 -0.453391 0.041953 0 0 255
0.336936 0.111101 0.029876 204 51 127
0.750035 -0.427603 -0.215264 76 153 0
0.417064 0.358724 -0.224148 76 153 0
0.538028 -0.453391 0.221782 0 0 255
-0.735856 -0.300633 -0.224148 76 153 0
0.743541 0.438472 -0.133164 127 0 127
0.035502 0.470525 0.255284 76 0 153
0.718486 -0.497249 0.244373 76 0 153
0.303226 0.098802 -0.224148 76 153 0
-0.750123 0.414705 -0.209486 76 0 153
0.708734 0.103368 -0.106291 255 0 0
0.335117 0.254539 -0.212549 76 153 0
-0.251249 -0.430193 -0.121963 0 0 255
0.646684 -0.086767 -0.212549 76 153 0
-0.773321 0.435073 0.162227 153 0 76
-0.501523 -0.127476 -0.224148 76 153 0
0.748994 -0.086465 -0.212549 76 153 0
0.539521 0.416629 0.278482 76 0 153
0.419029 -0.430193 -0.061981 0 0 255
-0.758237 -0.525413 -0.224148 76 153 0
-0.708566 0.181601 0.295918 76 153 0
-0.420096 0.434296 0.278482 76 0 153
0.058102 -0.430193 -0.088330 0 0 255
0.526231 0.111101 0.179989 204 51 127
0.249663 -0.430193 -0.195756 0 0 255
-0.628758 -0.453391 -0.045082 0 0 255
-0.618322 0.350656 0.279702 76 153 0
-0.274635 -0.580059 -0.212549 76 153 0
-0.198448 -0.096951 -0.212549 76 153 0
0.281237 -0.453391 -0.024022 0 0 255
0.154304 0.103368 0.265694 153 0 76
-0.783188 0.334336 -0.119534 0 127 127
-0.790026 0.139020 -0.063818 0 127 127
-0.104495 0.312667 -0.212549 76 153 0
-0.790023 0.433651 0.079163 0 127 127
0.750035 -0.080217 0.269935 76 0 153
0.048116 0.141079 0.295548 153 76 0
-0.591098 0.118537 0.293124 76 153 0
0.169843 0.111101 -0.119083 204 51 127
0.329024 0.111101 -0.040484 204 51 127
0.197863 0.392389 -0.212549 76 153 0
-0.225332 0.134822 0.278482 76 153 0
-0.138254 -0.430193 -0.018098 0 0 255
0.651123 0.136170 -0.212549 76 153 0
0.021809 0.363973 -0.212549 76 153 0
0.589989 -0.334581 -0.212549 76 153 0
-0.646837 -0.511321 -0.224148 76 153 0
0.172207 -0.008352 -0.224148 76 153 0
0.551540 0.134299 0.165590 204 51 127
-0.761526 -0.512756 0.301681 153 0 76
-0.789457 0.108798 0.301681 153 0 76
-0.762127 0.394603 -0.212549 76 153 0
-0.225158 0.134299 0.127747 204 51 127
-0.621644 0.109168 0.290043 76 153 0
0.105162 0.111101 -0.088448 204 51 127
-0.241341 -0.453391 -0.157140 0 0 255
0.293053 0.134299 -0.129647 204 51 127
-0.133317 0.358583 -0.224148 76 153 0
0.043962 0.134299 0.217206 204 51 127
0.672707 0.275746 0.247454 76 0 153
0.340342 0.183712 -0.224148 76 153 0
0.239642 0.305628 -0.212549 76 153 0
-0.755109 -0.453391 0.095918 0 0 255
0.355552 0.092198 -0.212549 76 153 0
-0.074585 0.332588 -0.224148 76 153 0
-0.761647 0.103368 -0.024791 204 51 127
0.369886 -0.536123 -0.224148 76 153 0
-0.605483 0.111101 -0.148541 204 51 127
0.149717 0.162953 0.278482 76 0 153
0.667419 -0.453391 0.105680 0 0 255
-0.575550 -0.592581 -0.222133 76 153 0
-0.790296 0.115491 0.040075 0 127 127
0.234830 -0.215159 -0.224148 76 153 0
-0.419106 0.069343 -0.224148 76 153 0
-0.592339 0.238587 0.279702 76 153 0
-0.790023 0.270050 0.174853 0 127 127
-0.071171 0.111101 -0.033351 204 51 127
-0.082859 -0.406879 -0.224148 76 153 0
0.019831 0.330687 -0.224148 76 153 0
0.155716 0.099926 -0.212549 76 153 0
-0.065245 -0.119141 -0.224148 76 153 0
0.410187 0.447076 0.255284 76 0 153
0.566219 -0.453391 -0.030430 0 0 255
-0.681611 -0.135004 -0.224148 76 153 0
-0.101646 0.134299 -0.157733 204 51 127
0.618881 -0.001929 -0.224148 76 153 0
0.542949 -0.196118 -0.212549 76 153 0
0.726836 0.432449 -0.182693 153 0 76
-0.213020 -0.430193 0.022228 0 0 255
0.555234 -0.091755 -0.224148 76 153 0
-0.686530 0.320378 -0.212549 76 153 0
0.131464 0.111101 -0.025017 204 51 127
0.379890 -0.430193 -0.054944 0 0 255
0.546424 0.178355 0.295859 76 0 153
0.468533 0.468742 0.282511 76 0 153
-0.087187 -0.453391 0.060637 0 0 255
0.696966 0.458807 -0.224148 76 153 0
0.750035 -0.383156 0.253479 76 0 153
-0.436703 0.128022 0.278482 153 0 76
0.252512 0.432506 -0.224148 76 153 0
-0.326104 0.111101 0.033267 204 51 127
-0.611282 0.173886 -0.212549 76 153 0
-0.173899 0.212576 -0.212549 76 153 0
0.466640 -0.304249 -0.224148 76 153 0
-0.171015 -0.170908 -0.212549 76 153 0
0.723396 0.238685 0.301681 76 0 153
-0.666763 0.134299 -0.165648 204 51 127
0.223294 -0.267814 -0.224148 76 153 0
0.726836 0.472802 -0.145928 0 0 255
-0.339740 0.134299 0.020141 204 51 127
0.736703 0.244883 0.104010 127 0 127
-0.750123 0.297393 0.199077 153 76 0
0.616495 0.035835 -0.212549 76 153 0
0.043338 -0.453391 0.119703 0 0 255
0.067461 -0.222066 -0.212549 76 153 0
0.152653 0.048729 -0.224148 76 153 0
0.700374 0.256964 0.301681 76 0 153
-0.367066 -0.430193 0.085270 0 0 255
0.626310 0.378456 0.271598 127 127 0
0.001833 0.422663 0.278482 76 0 153
0.453147 0.111101 0.221004 204 51 127
-0.265693 0.195380 0.288349 76 153 0
-0.258482 -0.430193 0.018476 0 0 255
-0.118894 -0.536370 -0.212549 76 153 0
0.737488 0.219064 -0.212549 76 153 0
0.750035 -0.120990 0.286120 76 0 153
-0.359598 -0.443368 -0.212549 76 153 0
0.254344 -0.391947 -0.224148 76 153 0
-0.092069 -0.453391 0.126323 0 0 255
-0.709666 -0.062149 -0.212549 76 153 0
-0.192909 0.151214 0.278482 76 153 0
0.257596 0.072425 -0.224148 76 153 0
-0.657822 0.115442 -0.224148 76 153 0
0.744272 0.403561 0.216202 127 0 127
-0.011579 0.415625 0.295714 76 0 153
0.233115 0.134299 -0.041009 204 51 127
-0.692722 -0.453391 -0.078411 0 0 255
-0.135736 0.450747 0.295193 76 153 0
0.713041 0.010163 0.227460 76 0 153
-0.648051 0.280049 0.278482 76 153 0
-0.136880 0.134299 0.236812 204 51 127
-0.623589 0.111101 0.044904 204 51 127
0.043370 -0.430193 0.184503 0 0 255
0.212933 0.134299 -0.107814 204 51 127
-0.790519 0.241868 0.168195 0 127 127
0.075668 0.111101 0.153209 204 51 127
-0.687017 0.180134 -0.212549 76 153 0
0.728056 0.346721 -0.113189 127 0 127
0.290380 -0.430193 0.024329 0 0 255
-0.048400 0.134299 -0.042739 204 51 127
0.443434 -0.022806 -0.224148 76 153 0
0.736703 0.278836 0.090238 127 0 127
-0.782485 0.109168 -0.036240 0 127 127
0.188015 -0.348964 -0.212549 76 153 0
-0.155556 0.356139 -0.212549 76 153 0
-0.162772 -0.112455 -0.224148 76 153 0
-0.280476 0.410627 0.299337 76 153 0
-0.225485 -0.453391 0.119928 0 0 255
0.749515 0.405947 0.021482 127 0 127
-0.773810 0.399555 -0.035956 0 127 127
-0.750123 0.335987 0.213529 153 76 0
0.097099 0.453557 0.278482 76 0 153
0.389830 0.134299 -0.159329 204 51 127
0.726836 0.424664 0.166699 127 0 127
-0.058247 -0.453391 -0.039639 0 0 255
0.200976 0.427452 -0.212549 76 153 0
-0.199881 -0.453391 0.018013 0 0 255
-0.098200 0.458342 0.278482 76 0 153
-0.622450 0.120116 0.255284 153 0 76
0.507914 -0.301711 -0.212549 76 153 0
-0.108548 -0.430193 0.210974 0 0 255
-0.786781 0.474541 0.246164 153 0 76
0.321557 -0.051736 -0.224148 76 153 0
0.159953 -0.221984 -0.212549 76 153 0
-0.057707 0.414893 0.278482 76 153 0
0.726836 0.167111 -0.170920 153 0 76
0.732372 0.191317 -0.212549 76 153 0
0.708771 -0.261880 -0.212549 76 153 0
-0.605977 -0.453391 -0.012284 0 0 255
-0.145565 0.462366 -0.224148 76 153 0
0.243691 -0.453391 0.024865 0 0 255
0.090269 -0.453391 0.037118 0 0 255
0.736958 -0.394234 -0.212549 76 153 0
-0.231418 0.448017 0.255284 76 0 153
-0.086556 0.411290 -0.224148 76 153 0
-0.631501 -0.453391 -0.122650 0 0 255
0.169272 -0.447534 0.255284 0 0 255
0.341184 -0.430193 -0.077922 0 0 255
0.194188 -0.585148 -0.224148 76 153 0
0.614508 -0.430193 0.090168 0 0 255
0.443989 0.343322 0.288349 76 0 153
-0.172057 0.111101 0.050219 204 51 127
-0.602110 -0.159265 -0.212549 76 153 0
0.644498 0.278998 0.255284 127 127 0
-0.599715 0.364626 0.288349 76 153 0
0.250792 0.134299 -0.166781 204 51 127
-0.089026 0.123087 0.295195 76 153 0
-0.036035 0.279978 0.294557 76 153 0
0.514539 -0.070651 -0.224148 76 153 0
-0.750123 0.123640 0.078222 204 51 127
0.666907 0.282547 0.281251 76 0 153
-0.055146 0.194186 0.255284 153 76 0
0.177398 0.138459 0.337331 153 76 0
-0.493249 0.150713 -0.212549 76 153 0
0.580551 -0.415124 -0.212549 76 153 0
-0.077674 0.194624 0.296691 76 153 0
0.742526 0.161733 -0.195132 127 0 127
0.132505 0.262671 -0.212549 76 153 0
0.256290 0.111101 -0.165267 204 51 127
-0.537912 -0.453391 0.120483 0 0 255
0.055338 0.408737 0.300055 76 0 153
0.731655 0.256908 0.224353 76 0 153
0.360025 0.122150 0.278482 153 0 76
0.588779 0.111101 -0.074290 204 51 127
0.163552 0.134299 0.226667 204 51 127
0.728600 0.131570 -0.195086 127 0 127
0.133907 -0.382055 -0.224148 76 153 0
-0.415554 0.354588 0.279702 76 153 0
-0.029320 -0.453391 -0.127877 0 0 255
0.703638 0.161076 0.195063 76 0 153
-0.619305 0.130129 -0.224148 76 153 0
0.260758 -0.453391 0.083445 0 0 255
0.627244 -0.430193 0.107481 0 0 255
0.004350 0.386378 0.278482 153 76 0
-0.395924 -0.453391 0.214149 0 0 255
-0.376687 0.134299 -0.029179 204 51 127
0.135134 -0.200850 -0.212549 76 153 0
-0.052445 -0.451568 0.255284 0 0 255
-0.773321 0.107959 0.113940 204 51 127
0.405454 -0.377006 -0.212549 76 153 0
-0.633820 0.029530 -0.224148 76 153 0
0.097865 0.160692 0.297357 76 0 153
0.377368 -0.453391 0.250728 0 0 255
0.711313 -0.453391 -0.054348 0 0 255
-0.731206 -0.546500 -0.212549 76 153 0
-0.518369 -0.375521 -0.212549 76 153 0
0.336591 -0.592581 -0.217606 76 153 0
-0.750123 0.446405 0.157591 153 0 76
0.606921 0.240417 0.278482 76 0 153
-0.519818 0.197505 -0.212549 76 153 0
-0.525709 -0.453391 -0.109978 0 0 255
0.536324 0.126713 0.295193 76 0 153
0.098693 0.143841 0.331961 153 76 0
0.437172 0.121360 -0.212549 76 153 0
-0.536113 0.394187 0.279702 76 153 0
0.345331 -0.453391 0.067888 0 0 255
0.105160 0.207297 0.288349 76 0 153
-0.532513 -0.075577 -0.224148 76 153 0
-0.750123 0.451549 0.074834 153 0 76
-0.015870 0.205770 0.278576 76 0 153
0.503782 -0.351820 -0.224148 76 153 0
0.551755 0.133528 -0.212549 76 153 0
-0.619426 0.133250 0.278482 153 0 76
0.031742 -0.370145 -0.212549 76 153 0
0.580485 0.289309 0.288349 76 0 153
0.660968 -0.340613 -0.212549 76 153 0
-0.272380 -0.430193 0.161201 0 0 255
-0.462346 0.097012 -0.212549 76 153 0
-0.162127 -0.517631 -0.224148 76 153 0
-0.472779 0.453189 0.295194 76 153 0
-0.154446 0.096295 -0.212549 76 153 0
-0.740586 0.111101 0.018708 204 51 127
-0.773321 0.429222 0.036804 153 0 76
0.163475 -0.430193 -0.188969 0 0 255
-0.773321 0.111093 -0.132893 204 51 127
0.236512 0.210278 -0.212549 76 153 0
0.743550 0.122508 -0.172691 127 0 127
0.094251 -0.260466 -0.212549 76 153 0
-0.367101 0.125447 -0.224148 76 153 0
-0.785388 -0.199974 0.234464 153 0 76
0.283411 -0.266805 -0.212549 76 153 0
0.731192 -0.564627 -0.224148 76 153 0
-0.462208 -0.430193 -0.002739 0 0 255
-0.711510 -0.492409 -0.212549 76 153 0
0.672707 0.399380 0.243662 76 0 153
-0.518244 -0.212438 -0.224148 76 153 0
0.069112 0.455445 0.278482 76 0 153
-0.770396 0.440421 0.224353 153 0 76
0.582861 0.323253 -0.224148 76 153 0
0.549229 -0.430193 0.123331 0 0 255
0.736703 0.217480 0.142984 127 0 127
-0.769517 0.108049 -0.212549 76 0 153
0.702142 -0.330245 -0.212549 76 153 0
-0.245561 -0.214933 -0.224148 76 153 0
0.066359 0.368390 0.279702 76 0 153
0.657168 0.459765 -0.224148 76 153 0
-0.657567 0.134299 -0.118709 204 51 127
0.728056 0.346608 0.085609 127 0 127
-0.441223 -0.441120 0.255284 0 0 255
-0.055307 -0.453391 -0.070246 0 0 255
0.240965 -0.100576 -0.212549 76 153 0
0.401107 -0.430193 -0.097737 0 0 255
0.435220 -0.561058 -0.224148 76 153 0
0.699094 0.077111 0.301681 76 0 153
0.539733 0.428198 0.295450 76 0 153
0.253427 -0.453391 0.109561 0 0 255
-0.411449 0.087494 -0.212549 76 153 0
-0.781738 0.170914 -0.224148 76 153 0
-0.145441 0.286088 0.279702 76 153 0
0.109123 -0.430193 0.064392 0 0 255
-0.490712 -0.037308 -0.212549 76 153 0
-0.323213 -0.453391 0.016166 0 0 255
0.624529 -0.096207 -0.212549 76 153 0
-0.717523 0.275212 -0.212549 76 153 0
-0.477926 -0.403728 -0.212549 76 153 0
-0.796519 -0.514101 0.282352 153 0 76
-0.668223 -0.453391 0.152441 0 0 255
-0.119478 0.195648 -0.212549 76 153 0
-0.508427 -0.314204 -0.212549 76 153 0
0.307742 0.111722 0.295918 76 0 153
0.301863 0.004635 -0.212549 76 153 0
0.698704 -0.280793 -0.212549 76 153 0
0.258959 0.131137 0.295191 76 0 153
0.342045 0.448858 0.255284 76 0 153
-0.651858 0.111101 0.087028 204 51 127
0.487776 0.111101 -0.126198 204 51 127
0.242479 0.351772 -0.224148 76 153 0
-0.697616 -0.303321 -0.224148 76 153 0
-0.528639 0.437777 -0.212549 76 153 0
0.714490 -0.136902 0.232362 76 0 153
-0.503945 0.279151 -0.212549 76 153 0
0.487912 0.134299 -0.063470 204 51 127
-0.455629 0.176836 -0.212549 76 153 0
0.431156 0.222961 -0.224148 76 153 0
0.644770 0.065455 -0.224148 76 153 0
-0.796519 0.172421 0.273468 153 0 76
-0.783188 0.199004 -0.082083 0 127 127
0.530083 0.029056 -0.212549 76 153 0
-0.040948 0.415756 -0.212549 76 153 0
-0.743296 -0.276151 0.301681 153 0 76
-0.102478 -0.430193 -0.015438 0 0 255
0.705311 0.149765 -0.061423 255 0 0
0.419671 -0.453391 -0.076906 0 0 255
0.321909 -0.453391 0.026621 0 0 255
0.721818 -0.430193 0.122971 0 0 255
-0.769602 0.176371 0.301681 153 0 76
0.070077 -0.430193 0.234857 0 0 255
-0.084392 0.134299 0.204048 204 51 127
-0.790281 0.373508 -0.162437 0 127 127
-0.790029 0.444650 -0.170596 0 127 127
0.045473 0.319694 -0.212549 76 153 0
-0.759120 0.373651 0.224353 153 0 76
-0.283268 -0.041319 -0.224148 76 153 0
0.632710 -0.453391 0.165259 0 0 255
0.395640 0.335772 -0.224148 76 153 0
-0.648899 0.111101 0.148165 204 51 127
0.548691 -0.456401 -0.224148 76 153 0
-0.324018 0.196652 0.288349 76 153 0
0.021537 0.108312 0.255284 153 0 76
0.046179 0.165949 -0.212549 76 153 0
-0.120397 -0.453391 -0.002094 0 0 255
-0.311260 0.419737 0.278482 76 153 0
0.515692 -0.223763 -0.224148 76 153 0
0.326127 0.252664 0.288349 76 0 153
-0.779290 0.121083 0.224353 153 0 76
0.560010 0.132609 0.255284 204 51 127
-0.466501 0.113448 0.278482 153 0 76
0.616458 0.160906 0.278482 76 0 153
0.657249 -0.430193 0.165061 0 0 255
0.425877 0.111101 -0.049262 204 51 127
-0.490932 0.426188 -0.224148 76 153 0
-0.123253 0.166599 0.278482 76 153 0
-0.287417 -0.453391 -0.125677 0 0 255
0.478343 0.328174 -0.212549 76 153 0
0.480963 0.134299 0.165052 204 51 127
-0.555727 0.111101 -0.049051 204 51 127
-0.782691 -0.035314 -0.224148 76 153 0
-0.773321 -0.443994 0.112976 0 0 255
-0.773321 0.116510 -0.112694 0 127 127
-0.585337 -0.430193 0.231481 0 0 255
0.287096 0.139434 0.337069 153 76 0
-0.575714 0.149903 -0.224148 76 153 0
-0.452774 0.194566 -0.224148 76 153 0
0.730859 0.053603 0.226012 76 0 153
-0.558716 -0.430193 0.142446 0 0 255
0.491394 -0.429675 -0.212549 76 153 0
0.732764 -0.443799 -0.212549 76 153 0
0.076493 0.422789 -0.224148 76 153 0
0.204733 0.111101 -0.042748 204 51 127
-0.287134 -0.430193 0.034292 0 0 255
0.108135 -0.158195 -0.224148 76 153 0
0.159053 0.312730 -0.212549 76 153 0
0.051549 0.354938 0.298573 76 0 153
0.490106 0.149569 0.255284 153 0 76
0.634482 0.245440 -0.212549 76 153 0
-0.260956 0.111101 0.200923 204 51 127
0.736703 0.195897 -0.006444 127 0 127
0.711173 -0.371449 -0.212549 76 153 0
-0.423957 -0.529874 -0.224148 76 153 0
-0.678426 0.401834 0.278482 76 153 0
0.744204 0.381579 0.174726 127 0 127
-0.365137 -0.181940 -0.224148 76 153 0
-0.050264 -0.123390 -0.212549 76 153 0
-0.498992 -0.500061 -0.224148 76 153 0
-0.243992 0.459308 0.294545 76 153 0
0.093597 -0.513901 -0.212549 76 153 0
-0.786217 0.399555 -0.099375 0 127 127
-0.141495 0.369297 0.288349 76 153 0
-0.669285 0.111101 0.011177 204 51 127
0.726836 0.169376 0.181282 76 0 153
0.703638 0.125864 -0.167798 153 0 76
-0.657911 0.111101 0.165177 204 51 127
0.736703 0.266849 -0.108607 127 0 127
-0.783188 0.358096 -0.089461 0 127 127
0.347248 0.134299 -0.163828 204 51 127
-0.137832 -0.097748 -0.224148 76 153 0
0.669321 0.342499 -0.212549 76 153 0
-0.719191 0.230592 0.247687 153 0 76
0.522912 -0.038883 -0.212549 76 153 0
-0.774977 0.468661 0.023176 0 127 127
0.439216 0.203989 0.279702 76 0 153
-0.667462 -0.453391 0.089497 0 0 255
-0.750123 0.457279 -0.038337 153 0 76
-0.305304 0.195473 0.288349 76 153 0
0.013109 -0.020458 -0.224148 76 153 0
0.672669 0.134299 -0.024749 204 51 127
0.382611 0.365719 -0.212549 76 153 0
-0.151906 -0.441981 0.255284 0 0 255
-0.774541 0.189264 0.113084 0 127 127
0.728056 0.331880 -0.125266 127 0 127
-0.796519 0.286447 0.238082 153 0 76
-0.520783 -0.539998 -0.212549 76 153 0
0.571196 0.462496 -0.224148 76 153 0
-0.013218 -0.430193 -0.099415 0 0 255
0.703638 0.468451 -0.181526 153 0 76
0.719651 0.103368 -0.004097 255 0 0
-0.276325 0.111101 0.135654 204 51 127
-0.043432 -0.453391 0.156434 0 0 255
0.726836 -0.449245 0.095595 0 0 255
0.576898 -0.572544 -0.212549 76 153 0
0.498228 0.142636 -0.224148 76 153 0
-0.295104 0.111101 -0.071198 204 51 127
-0.409998 -0.453391 0.026031 0 0 255
-0.685537 -0.112479 -0.224148 76 153 0
-0.021914 0.474541 0.271231 76 0 153
0.355675 0.180231 -0.212549 76 153 0
0.035376 -0.453391 0.201433 0 0 255
-0.713392 0.215575 0.286964 76 153 0
-0.694325 0.111101 0.161065 204 51 127
0.750035 -0.501755 -0.217333 76 153 0
0.507375 -0.167148 -0.212549 76 153 0
0.098826 -0.378309 -0.212549 76 153 0
-0.458106 -0.430193 -0.210148 0 0 255
0.743545 0.131629 0.146494 127 0 127
0.578576 -0.430193 -0.122103 0 0 255
0.116942 -0.453391 0.140676 0 0 255
-0.571030 0.111101 0.055859 204 51 127
-0.618061 -0.361569 -0.224148 76 153 0
-0.044740 0.111101 -0.122100 204 51 127
0.373915 -0.381351 -0.224148 76 153 0
-0.766154 -0.042245 0.229207 153 0 76
0.153549 0.013037 -0.212549 76 153 0
0.105656 0.111101 -0.010730 204 51 127
-0.796519 0.244657 0.271146 153 0 76
0.726836 0.147476 -0.165192 127 0 127
-0.140226 -0.414044 -0.212549 76 153 0
-0.498506 -0.421686 -0.212549 76 153 0
-0.796519 0.213818 0.283758 153 0 76
-0.051924 -0.430524 -0.212549 0 0 255
-0.336219 0.134299 -0.046515 204 51 127
-0.750369 0.322061 -0.224148 76 153 0
-0.596809 0.134299 -0.006754 204 51 127
0.625130 0.199301 -0.212549 76 153 0
0.743545 0.445838 0.046470 127 0 127
-0.555844 -0.138691 -0.212549 76 153 0
0.231828 0.474541 -0.216794 76 153 0
-0.288530 0.286162 0.288349 76 153 0
0.743970 0.215839 -0.194308 127 0 127
-0.774541 0.246477 0.072369 0 127 127
0.715939 0.428145 0.087600 0 0 255
-0.643378 0.431134 -0.212549 76 153 0
-0.295091 -0.091077 -0.212549 76 153 0
-0.750123 0.159490 -0.210187 76 0 153
-0.027301 0.111101 -0.184007 204 51 127
0.499475 -0.453391 -0.154903 0 0 255
-0.759570 -0.433468 0.255284 0 0 255
-0.119319 -0.108800 -0.212549 76 153 0
0.662336 0.111101 -0.012955 204 51 127
0.376006 0.401354 -0.224148 76 153 0
-0.796167 0.213256 0.147616 0 127 127
0.009225 0.397590 0.295189 76 0 153
-0.163975 -0.385769 -0.212549 76 153 0
-0.280906 -0.430193 0.141778 0 0 255
-0.784071 -0.166425 -0.212549 76 153 0
-0.101021 -0.430193 0.171609 0 0 255
0.508621 -0.430193 0.003966 0 0 255
-0.534161 -0.024584 -0.224148 76 153 0
0.097884 0.058408 -0.212549 76 153 0
0.404813 -0.430193 -0.033971 0 0 255
0.253769 -0.121217 -0.212549 76 153 0
0.703638 0.464564 0.127839 0 0 255
-0.270853 -0.561161 -0.212549 76 153 0
0.255018 0.383132 -0.224148 76 153 0
-0.332610 0.267534 -0.224148 76 153 0
0.428212 -0.453391 -0.186837 0 0 255
0.749185 0.381681 -0.127725 127 0 127
-0.117320 0.323914 -0.224148 76 153 0
0.703701 0.103368 0.046118 255 0 0
0.726836 0.431442 -0.035786 0 0 255
0.488406 0.111101 0.105387 204 51 127
0.617131 0.271604 -0.212549 76 153 0
0.235418 0.452185 -0.224148 76 153 0
-0.324173 0.303189 -0.212549 76 153 0
-0.035422 0.359682 0.295400 76 153 0
-0.336128 -0.440667 -0.212549 0 0 255
-0.735841 -0.477423 -0.212549 76 153 0
0.665325 0.106289 -0.224148 76 153 0
0.498714 -0.453391 0.078333 0 0 255
-0.557580 0.418293 -0.212549 76 153 0
0.659645 0.111101 0.070827 204 51 127
-0.361511 0.134299 0.067768 204 51 127
-0.643365 0.111101 -0.107378 204 51 127
0.277839 -0.430193 -0.050452 0 0 255
-0.762035 0.428145 -0.081646 153 0 76
0.731501 -0.345428 -0.224148 76 153 0
-0.660657 0.468621 0.294665 76 153 0
-0.489786 -0.430193 0.151144 0 0 255
0.233465 -0.332450 -0.212549 76 153 0
0.504615 0.111101 0.238265 204 51 127
-0.231094 -0.430193 -0.083000 0 0 255
-0.604051 -0.453391 0.142127 0 0 255
-0.179504 -0.061529 -0.224148 76 153 0
-0.169808 -0.231586 -0.212549 76 153 0
-0.035423 -0.289067 -0.212549 76 153 0
0.254291 0.111101 0.182669 204 51 127
-0.461959 -0.453391 0.087321 0 0 255
-0.639318 -0.430193 0.246204 0 0 255
0.744251 0.424577 0.157333 127 0 127
0.605313 -0.430193 -0.175536 0 0 255
0.033162 0.134299 0.017023 204 51 127
-0.051777 -0.335540 -0.212549 76 153 0
-0.564797 0.111101 -0.112951 204 51 127
0.330098 -0.574824 -0.212549 76 153 0
0.726836 0.378401 0.198053 127 0 127
0.703638 0.141206 -0.209958 153 0 76
0.328460 0.291361 -0.224148 76 153 0
-0.167786 0.464588 0.295918 76 153 0
0.338842 0.190890 0.288349 76 0 153
-0.005464 0.041326 -0.212549 76 153 0
-0.012134 0.111101 0.238631 204 51 127
0.276857 0.399555 0.294042 76 0 153
0.080470 0.160651 -0.224148 76 153 0
0.625838 0.167853 -0.224148 76 153 0
-0.664545 -0.453391 -0.049506 0 0 255
0.726836 0.428861 0.042989 127 0 127
0.627560 0.111101 -0.136440 204 51 127
-0.510104 -0.471671 -0.224148 76 153 0
-0.694172 -0.430193 0.244472 0 0 255
-0.226461 0.110486 0.255284 153 0 76
-0.261278 0.420352 0.296642 76 153 0
-0.360547 -0.390291 -0.224148 76 153 0
-0.435824 -0.038469 -0.212549 76 153 0
-0.773321 0.454062 0.164502 153 0 76
0.726836 0.290915 0.156992 127 0 127
-0.535136 0.111101 -0.072167 204 51 127
0.439479 0.023769 -0.224148 76 153 0
0.625820 0.134299 0.225956 204 51 127
0.231044 -0.578669 -0.212549 76 153 0
-0.773321 0.384527 -0.181482 76 0 153
0.726836 0.111823 -0.120562 255 0 0
-0.044221 -0.381607 -0.212549 76 153 0
0.728056 0.248945 0.124457 127 0 127
-0.711163 0.417813 0.255284 76 153 0
-0.438064 0.368116 0.288349 76 153 0
-0.236124 -0.453391 0.006964 0 0 255
0.704185 0.035163 -0.224148 76 153 0
0.204335 0.134299 -0.067344 204 51 127
-0.168014 -0.415781 -0.212549 76 153 0
-0.425697 0.134299 -0.133588 204 51 127
0.626310 0.144636 0.261695 127 127 0
-0.007706 -0.145755 -0.224148 76 153 0
-0.372402 0.134299 -0.157240 204 51 127
0.668994 0.145570 -0.224148 76 153 0
-0.705322 0.134299 -0.167370 204 51 127
-0.098923 -0.491704 -0.212549 76 153 0
0.610632 0.134299 -0.040270 204 51 127
-0.305702 0.178328 0.297525 76 153 0
0.474700 -0.453391 -0.030829 0 0 255
0.630689 0.110991 -0.212549 76 153 0
0.699207 0.234673 -0.212549 76 153 0
-0.796519 0.381448 0.271977 153 0 76
0.188709 0.282471 0.279702 76 0 153
-0.512115 0.134299 -0.110359 204 51 127
-0.359536 0.387974 0.288349 76 153 0
-0.403597 0.303830 -0.224148 76 153 0
0.598114 0.331355 0.299046 76 0 153
-0.402459 -0.364795 -0.224148 127 127 0
-0.212980 -0.051934 -0.212549 76 153 0
-0.352054 -0.430193 -0.137216 0 0 255
0.668700 0.134299 -0.141172 204 51 127
0.263078 -0.453391 0.014821 0 0 255
-0.029363 0.233763 0.279556 76 153 0
-0.721902 -0.453391 -0.095629 0 0 255
0.258230 0.407493 0.278482 76 0 153
-0.710433 0.134299 -0.091776 204 51 127
-0.499043 -0.346110 -0.224148 127 127 0
0.713562 -0.017019 -0.212549 76 153 0
0.384901 0.111101 -0.078315 204 51 127
-0.052744 0.377491 0.278482 76 153 0
0.711083 -0.366700 0.240022 76 0 153
0.742531 -0.533418 0.301681 76 0 153
0.705150 -0.430193 -0.118214 0 0 255
0.728056 0.198089 -0.040572 127 0 127
0.426130 -0.270470 -0.212549 76 153 0
-0.286320 -0.453391 0.061870 0 0 255
0.675294 -0.154861 -0.212549 76 153 0
0.750035 0.443218 0.232318 76 0 153
-0.397566 -0.326131 -0.212549 76 153 0
-0.326383 0.134299 -0.067257 204 51 127
-0.711949 -0.204698 -0.212549 76 153 0
0.536812 0.134299 0.091364 204 51 127
-0.554743 -0.005557 -0.224148 76 153 0
-0.097781 -0.412221 -0.212549 76 153 0
0.148097 0.167780 0.299504 76 0 153
0.610467 -0.453391 -0.067727 0 0 255
-0.773321 0.353054 -0.150236 0 127 127
-0.611083 0.318344 0.279702 76 153 0
0.262049 -0.453391 -0.029439 0 0 255
0.681555 -0.162075 0.255114 76 0 153
0.096226 0.250563 -0.224148 76 153 0
-0.593213 -0.453391 0.088484 0 0 255
-0.278219 -0.421223 -0.212549 76 153 0
-0.730723 -0.242594 0.248560 153 0 76
-0.352910 0.322895 -0.224148 76 153 0
0.737999 -0.572371 0.301681 76 0 153
0.418296 0.107506 0.278482 153 0 76
0.529857 -0.430193 -0.113031 0 0 255
0.234399 0.432800 -0.224148 76 153 0
-0.536962 0.134299 0.148443 204 51 127
0.066766 0.134299 0.179079 204 51 127
0.463125 -0.453391 0.170226 0 0 255
0.174784 -0.052840 -0.212549 76 153 0
0.435571 -0.453391 0.194629 0 0 255
-0.287314 0.167794 -0.212549 76 153 0
-0.380833 0.263147 0.279702 76 153 0
-0.435503 0.426278 0.295658 76 153 0
-0.045157 -0.572842 -0.212549 76 153 0
-0.776091 -0.222678 -0.212549 76 153 0
0.196811 -0.430193 -0.036837 0 0 255
-0.280249 -0.430193 0.213430 0 0 255
0.283537 0.025493 -0.212549 76 153 0
-0.559745 -0.584902 -0.212549 76 153 0
0.554048 -0.156600 -0.212549 76 153 0
0.213055 0.072285 -0.224148 76 153 0
0.082755 0.111101 0.019910 204 51 127
0.750035 -0.199666 0.297675 76 0 153
-0.324472 -0.430193 0.074196 0 0 255
0.703638 0.127538 -0.071938 255 0 0
0.074469 0.134299 -0.040485 204 51 127
0.370562 -0.453391 -0.188918 0 0 255
0.719843 -0.092151 0.230870 76 0 153
0.465858 -0.025044 -0.224148 76 153 0
-0.695347 0.437951 -0.212549 76 153 0
-0.686867 0.111101 -0.010791 204 51 127
0.703638 0.453849 -0.047808 0 0 255
0.411891 0.148959 0.295390 76 0 153
0.080277 -0.430193 -0.090316 0 0 255
0.402632 0.400502 0.300017 76 0 153
0.230093 -0.453391 -0.017988 0 0 255
0.303593 0.456097 0.255284 76 0 153
-0.267759 0.111101 -0.032933 204 51 127
-0.333353 -0.453391 -0.019635 0 0 255
0.118549 0.111101 -0.195115 204 51 127
-0.491863 0.134299 0.172740 204 51 127
0.437108 0.134299 0.236783 204 51 127
-0.703768 0.310556 0.294856 76 153 0
-0.207548 0.427346 0.295519 76 153 0
-0.667129 -0.012251 -0.212549 76 153 0
-0.281545 -0.154096 -0.224148 76 153 0
-0.622962 0.111101 0.076025 204 51 127
0.599633 -0.453391 -0.032596 0 0 255
-0.726238 0.111101 0.045679 204 51 127
0.505580 0.427109 -0.224148 76 153 0
-0.617790 -0.127536 -0.212549 76 153 0
0.743586 0.249623 0.212005 127 0 127
0.461752 0.426146 -0.212549 76 153 0
-0.023668 -0.430193 -0.160863 0 0 255
-0.796519 -0.236382 0.241904 153 0 76
0.289970 0.134299 -0.173421 204 51 127
-0.701272 0.401361 0.255284 76 153 0
0.065925 0.225102 0.288349 76 0 153
-0.527606 0.111101 0.006161 204 51 127
-0.612335 0.134299 0.030171 204 51 127
-0.406991 -0.280810 -0.212549 76 153 0
-0.546245 -0.430578 0.255284 0 0 255
-0.596059 -0.430193 -0.046390 0 0 255
0.414518 -0.139352 -0.212549 76 153 0
0.214981 0.134299 0.253644 204 51 127
0.053602 0.456373 0.255284 76 0 153
-0.694993 0.236883 0.255284 76 153 0
0.152398 -0.296986 -0.224148 76 153 0
0.696154 0.134299 -0.111608 204 51 127
0.127087 -0.402276 -0.212549 76 153 0
-0.794342 0.316757 -0.212549 76 153 0
-0.790030 0.131657 0.026352 0 127 127
0.221367 0.338783 0.288349 76 0 153
0.187612 0.111101 0.154476 204 51 127
0.382759 -0.441046 -0.224148 76 153 0
-0.034350 0.267753 0.278482 76 153 0
-0.740896 -0.469296 0.243442 153 0 76
0.211127 0.134299 0.063744 204 51 127
0.622153 0.111101 0.032923 204 51 127
-0.450876 -0.508220 -0.224148 76 153 0
-0.726427 0.111101 0.149141 204 51 127
-0.454101 0.134299 0.214892 204 51 127
0.373140 0.430557 -0.224148 76 153 0
0.602709 0.134299 0.135186 204 51 127
0.698543 0.069695 -0.224148 76 153 0
-0.100740 0.111101 0.211899 204 51 127
0.451970 0.315531 -0.212549 76 153 0
-0.732814 -0.453391 -0.163448 0 0 255
-0.022589 0.401602 0.255284 153 76 0
-0.113881 -0.073110 -0.224148 76 153 0
0.708018 0.474541 0.055816 0 0 255
0.562767 -0.263798 -0.224148 76 153 0
0.320109 0.138192 0.295187 76 0 153
-0.118751 -0.203494 -0.212549 76 153 0
-0.718341 -0.430193 -0.062818 0 0 255
-0.734154 0.134299 0.118648 204 51 127
-0.159521 0.134299 0.229363 204 51 127
0.663933 -0.495078 -0.224148 76 153 0
-0.145840 -0.333111 -0.224148 76 153 0
0.080582 0.358628 -0.212549 76 153 0
-0.213819 -0.430193 -0.146630 0 0 255
-0.636646 0.128087 0.278482 76 153 0
-0.669845 0.470557 -0.212549 76 153 0
-0.773321 0.443025 0.145242 153 0 76
-0.003557 0.322400 -0.224148 76 153 0
0.384595 0.117378 0.255284 204 51 127
0.706562 -0.411535 -0.212549 76 153 0
0.742442 0.116283 0.163861 127 0 127
0.259440 0.295168 -0.212549 76 153 0
-0.074761 -0.453391 0.228418 0 0 255
-0.637044 -0.453391 0.251989 0 0 255
-0.124243 -0.058365 -0.224148 76 153 0
-0.115419 -0.511533 -0.224148 76 153 0
-0.738914 0.111101 -0.097213 204 51 127
0.703638 0.468474 0.037066 0 0 255
-0.227069 0.111101 0.211399 204 51 127
-0.456725 0.216701 -0.212549 76 153 0
0.509165 0.107386 0.255284 153 0 76
-0.530165 -0.430193 0.158986 0 0 255
-0.159416 -0.453391 0.167855 0 0 255
0.250602 0.445080 0.295190 76 0 153
-0.784887 0.191982 -0.202883 0 127 127
0.465305 0.186888 -0.212549 76 153 0
0.397423 0.111101 -0.123895 204 51 127
0.728056 0.260277 -0.015323 127 0 127
-0.139749 -0.286616 -0.224148 76 153 0
0.653916 0.187662 0.278482 127 127 0
-0.391072 -0.430193 0.032658 0 0 255
0.327898 -0.283514 -0.212549 76 153 0
0.426287 0.428145 0.267903 76 0 153
0.691322 0.012032 -0.224148 76 153 0
0.743538 0.402958 0.182316 127 0 127
0.122437 0.181496 -0.224148 76 153 0
-0.461327 0.134299 -0.192522 204 51 127
0.744889 0.157026 0.124884 127 0 127
-0.441423 0.435120 0.278482 76 0 153
0.213242 -0.430193 -0.100051 0 0 255
0.120312 0.255494 -0.224148 76 153 0
0.304152 0.353619 -0.212549 76 153 0
0.407904 0.120417 0.255284 153 0 76
-0.618742 0.464430 0.255284 76 0 153
-0.719191 0.172017 0.226220 153 0 76
-0.703355 -0.430193 0.228019 0 0 255
0.678329 0.060298 -0.224148 76 153 0
-0.272947 0.395265 0.288349 76 153 0
-0.009241 -0.079583 -0.224148 76 153 0
0.410214 0.176485 -0.224148 76 153 0
-0.410800 0.052851 -0.224148 76 153 0
-0.442677 0.459488 -0.224148 76 153 0
0.115997 0.012451 -0.212549 76 153 0
0.023623 0.111101 -0.068703 204 51 127
0.060029 -0.453391 -0.128112 0 0 255
-0.764449 -0.298817 -0.212549 76 153 0
0.659337 -0.430193 -0.166568 0 0 255
0.538605 -0.430193 0.082048 0 0 255
-0.377591 0.190586 0.279702 76 153 0
-0.651771 0.330984 -0.212549 76 153 0
-0.688316 0.134299 0.061869 204 51 127
0.016983 0.252388 0.278482 153 76 0
0.641506 0.468742 0.284249 76 0 153
-0.696641 -0.142352 -0.212549 76 153 0
0.743743 0.148949 -0.105425 127 0 127
0.070713 0.032495 -0.224148 76 153 0
-0.582811 0.134299 0.005479 204 51 127
-0.739298 -0.443318 -0.224148 76 153 0
-0.636767 0.111101 0.010732 204 51 127
0.106378 0.391868 -0.212549 76 153 0
0.131804 0.275472 0.279702 76 0 153
-0.343444 -0.498617 -0.212549 76 153 0
0.688175 0.257042 -0.212549 76 153 0
0.546763 -0.453391 0.135333 0 0 255
-0.700733 0.341143 0.295196 76 153 0
0.730886 -0.066160 -0.224148 76 153 0
0.099014 -0.111384 -0.224148 76 153 0
-0.606388 -0.498915 -0.212549 76 153 0
0.547988 -0.287674 -0.224148 76 153 0
0.541866 0.347832 0.288349 76 0 153
-0.242389 0.343579 -0.212549 76 153 0
0.726836 0.417000 -0.117739 127 0 127
0.585780 -0.470821 -0.224148 76 153 0
0.007942 -0.547697 -0.224148 76 153 0
0.583148 0.116300 0.293980 76 0 153
-0.717965 -0.454287 -0.224148 76 153 0
0.626404 0.009415 -0.212549 76 153 0
-0.750123 0.161574 0.179468 153 76 0
0.695491 0.111101 -0.022162 204 51 127
-0.620124 0.457704 -0.224148 76 153 0
-0.259161 -0.240618 -0.212549 76 153 0
0.672691 -0.183489 -0.224148 76 153 0
-0.025676 -0.123297 -0.212549 76 153 0
-0.356003 -0.138617 -0.212549 76 153 0
-0.245456 -0.384287 -0.224148 76 153 0
0.612058 -0.430193 -0.116408 0 0 255
-0.666769 0.116230 0.294421 76 153 0
0.208828 -0.407389 -0.212549 76 153 0
-0.662852 -0.551109 -0.212549 76 153 0
0.688333 -0.365419 0.281412 76 0 153
-0.553900 -0.430193 0.192334 0 0 255
0.719075 0.149765 0.092831 255 0 0
-0.038908 0.300987 -0.212549 76 153 0
0.050693 -0.453391 -0.044480 0 0 255
0.750035 -0.331149 0.248442 76 0 153
-0.324463 -0.461397 -0.224148 76 153 0
-0.102453 0.446308 0.255284 76 0 153
0.648206 0.131102 0.278482 76 0 153
0.491243 0.115532 0.295416 76 0 153
-0.783188 0.325578 0.089003 0 127 127
0.726719 0.474541 -0.061951 0 0 255
-0.528813 -0.349665 -0.212549 76 153 0
0.680979 -0.144788 0.260723 76 0 153
0.306398 -0.430193 0.009259 0 0 255
0.218212 -0.153963 -0.224148 76 153 0
-0.794042 0.166876 -0.104699 0 127 127
0.652151 0.295111 -0.212549 76 153 0
0.653322 0.134299 0.007007 204 51 127
-0.590136 0.415305 0.278482 76 153 0
-0.432367 0.111101 -0.068264 204 51 127
0.452821 0.451985 -0.212549 76 153 0
0.710469 -0.124553 -0.212549 76 153 0
0.525631 0.190570 0.288349 76 0 153
-0.123906 0.098548 -0.224148 76 153 0
0.726836 0.400292 -0.035791 127 0 127
0.624295 0.111101 0.223830 204 51 127
-0.113451 0.249985 -0.212549 76 153 0
0.604917 -0.210053 -0.224148 76 153 0
0.256138 0.049082 -0.212549 76 153 0
-0.240251 0.289052 0.288349 76 153 0
-0.138001 0.134299 0.091415 204 51 127
-0.531204 0.047282 -0.224148 76 153 0
-0.441585 0.102609 -0.224148 76 153 0
0.214267 0.124024 0.295195 76 0 153
-0.042767 0.206525 0.295195 76 153 0
-0.145633 0.406246 0.278482 76 153 0
-0.167207 0.317690 0.279702 76 153 0
-0.763075 0.045251 -0.224148 76 153 0
-0.251445 0.149279 0.255284 153 0 76
-0.215078 0.179754 -0.212549 76 153 0
-0.523652 0.252111 -0.224148 76 153 0
-0.425891 -0.430193 -0.000497 0 0 255
0.464862 -0.055645 -0.224148 76 153 0
0.243373 -0.453391 0.073101 0 0 255
0.439329 -0.320830 -0.224148 76 153 0
0.728056 0.396857 0.029965 127 0 127
0.703638 0.240876 0.191729 76 0 153
-0.584788 -0.453391 0.199777 0 0 255
-0.295021 0.134299 -0.199820 204 51 127
0.352331 0.323932 -0.212549 76 153 0
-0.413192 0.101366 -0.224148 76 153 0
-0.348398 0.130731 0.278482 153 0 76
0.610119 -0.256638 -0.212549 76 153 0
0.046473 0.253502 -0.224148 76 153 0
0.012904 0.050508 -0.224148 76 153 0
0.221920 0.464057 0.278482 76 0 153
-0.134004 0.071983 -0.224148 76 153 0
-0.756008 -0.484902 -0.212549 76 153 0
0.355033 0.134299 -0.033969 204 51 127
-0.790022 0.145868 -0.047387 0 127 127
-0.743565 -0.187492 0.301681 153 0 76
-0.572712 -0.009212 -0.212549 76 153 0
0.013977 -0.414043 -0.224148 76 153 0
-0.242930 0.111101 -0.152798 204 51 127
0.508207 -0.268753 -0.224148 76 153 0
0.166689 0.134299 -0.109538 204 51 127
0.227574 0.111101 0.052074 204 51 127
-0.355815 0.134299 -0.163750 204 51 127
0.241429 0.124887 0.278482 153 0 76
-0.230895 0.445094 0.278482 76 0 153
-0.146715 -0.044041 -0.212549 76 153 0
-0.699003 0.173691 -0.224148 76 153 0
-0.344492 0.434022 -0.224148 76 153 0
0.054702 -0.488464 -0.212549 76 153 0
0.302404 -0.478393 -0.212549 76 153 0
0.363889 0.288656 0.288349 76 0 153
0.241270 -0.408082 -0.212549 76 153 0
-0.389746 -0.174488 -0.212549 76 153 0
-0.067334 -0.039568 -0.224148 76 153 0
-0.750123 0.469893 0.007577 153 0 76
-0.598492 -0.203711 -0.224148 76 153 0
0.389536 -0.010835 -0.212549 76 153 0
0.021437 0.111101 0.130077 204 51 127
-0.415641 -0.026176 -0.224148 76 153 0
0.364652 0.443860 0.255284 76 0 153
-0.601876 0.276777 -0.212549 76 153 0
-0.179897 -0.334764 -0.224148 76 153 0
0.744272 0.111395 0.195465 127 0 127
0.727714 0.468313 0.126030 127 0 127
-0.788703 0.459372 0.127510 0 127 127
0.575141 -0.453391 -0.137154 0 0 255
0.726836 0.257716 0.189343 127 0 127
0.441120 0.184995 -0.224148 76 153 0
0.095867 -0.430193 -0.069896 0 0 255
0.604275 0.042610 -0.224148 76 153 0
-0.672795 0.108185 0.260076 76 153 0
0.362021 -0.437055 -0.224148 76 153 0
-0.790023 0.417389 -0.168251 0 127 127
-0.354480 -0.446825 0.255284 0 0 255
0.459500 0.117323 0.278482 153 0 76
0.012106 -0.430193 0.003135 0 0 255
0.723707 0.128417 0.177956 76 0 153
-0.070569 0.203846 -0.212549 76 153 0
0.084646 0.072713 -0.224148 76 153 0
-0.560634 -0.448549 0.255284 0 0 255
0.555360 -0.472350 -0.212549 76 153 0
0.726836 0.127091 0.024327 127 0 127
-0.579880 0.377078 -0.224148 76 153 0
0.703638 0.473498 -0.080343 0 0 255
-0.060762 0.317579 -0.212549 76 153 0
0.477457 -0.430193 -0.169247 0 0 255
0.123331 -0.344991 -0.224148 76 153 0
-0.053972 0.153558 0.278482 76 153 0
-0.783905 0.304820 0.141634 0 127 127
-0.764734 -0.462947 0.301681 153 0 76
-0.617102 -0.540670 -0.212549 76 153 0
-0.435099 -0.438439 -0.212549 76 153 0
-0.650619 -0.331891 -0.212549 76 153 0
-0.107215 0.078477 -0.212549 76 153 0
0.284689 0.134299 0.141328 204 51 127
0.692125 -0.516883 -0.212549 76 153 0
0.736703 0.290268 -0.036186 127 0 127
-0.674917 0.274867 0.295283 76 153 0
-0.701603 0.474541 -0.218265 76 153 0
-0.156691 0.369507 -0.224148 76 153 0
-0.570838 0.111101 -0.136886 204 51 127
-0.705691 -0.419978 -0.212549 76 153 0
-0.745106 -0.389956 -0.212549 76 153 0
-0.750123 0.235782 -0.181386 76 0 153
-0.395010 0.430639 0.295253 76 153 0
0.736703 0.210819 0.117845 127 0 127
-0.325088 -0.430193 0.217162 0 0 255
-0.654705 0.111101 0.233696 204 51 127
-0.241512 -0.430193 0.027366 0 0 255
-0.767851 0.428145 -0.049051 153 0 76
0.407311 -0.430193 -0.014053 0 0 255
-0.490193 0.037320 -0.212549 76 153 0
0.674286 0.056009 0.261636 76 0 153
-0.399248 0.205497 -0.212549 76 153 0
-0.790030 0.234077 0.189608 0 127 127
-0.545590 0.111101 -0.094526 204 51 127
0.703638 0.317092 0.196182 76 0 153
-0.436562 0.111101 -0.164680 204 51 127
0.736703 0.196738 0.019235 127 0 127
0.726836 -0.445420 0.066846 0 0 255
-0.332874 -0.430193 -0.165483 0 0 255
-0.133443 -0.026545 -0.224148 76 153 0
-0.184662 0.420697 0.278482 76 153 0
-0.014861 0.362885 -0.224148 76 153 0
-0.608478 0.111101 -0.194241 204 51 127
-0.790030 0.318702 0.188915 0 127 127
-0.750123 0.397454 0.193123 153 76 0
-0.174503 -0.076005 -0.212549 76 153 0
0.119003 0.457639 -0.212549 76 153 0
0.027887 -0.167589 -0.212549 76 153 0
-0.480557 -0.167118 -0.212549 76 153 0
-0.591905 0.405737 -0.212549 76 153 0
-0.640593 0.134299 0.230587 204 51 127
0.479899 -0.065021 -0.224148 76 153 0
-0.729233 -0.104612 -0.224148 76 153 0
-0.519785 -0.453391 0.127362 0 0 255
0.323513 0.398177 0.279702 76 0 153
-0.047199 -0.051173 -0.224148 76 153 0
0.480105 0.127630 0.278482 76 0 153
0.465609 -0.226028 -0.212549 76 153 0
-0.793301 0.190781 -0.224148 76 153 0
0.591184 0.141933 -0.224148 76 153 0
-0.386041 0.134299 -0.063597 204 51 127
-0.014037 0.177122 0.278482 153 76 0
-0.730706 0.363382 0.301681 153 0 76
-0.135261 -0.430193 0.252208 0 0 255
0.732041 0.242961 -0.212549 76 153 0
-0.521851 0.395533 -0.212549 76 153 0
0.503253 -0.318767 -0.212549 76 153 0
0.049709 0.111101 0.030629 204 51 127
0.325272 0.111101 -0.023208 204 51 127
-0.740965 0.111101 -0.133237 204 51 127
-0.552573 -0.453391 -0.018709 0 0 255
0.216718 0.433520 0.278482 76 0 153
-0.122028 0.111101 0.157108 204 51 127
-0.239581 0.427162 0.295534 76 153 0
0.501868 -0.395213 -0.212549 76 153 0
0.662874 -0.453391 -0.043960 0 0 255
-0.625978 0.353224 -0.212549 76 153 0
0.041310 -0.257261 -0.224148 76 153 0
0.744189 0.161022 -0.151427 127 0 127
0.152247 0.203478 0.288349 76 0 153
0.459399 -0.430193 0.183434 0 0 255
-0.501239 -0.453391 0.105346 0 0 255
0.069719 -0.508301 -0.224148 76 153 0
-0.405578 0.189858 -0.224148 76 153 0
-0.773321 0.454871 0.105359 0 127 127
-0.794624 0.408727 0.224353 153 0 76
-0.620456 -0.453391 -0.065291 0 0 255
0.182480 0.462411 0.278482 76 0 153
0.461281 0.318672 0.279702 76 0 153
0.459979 -0.114797 -0.212549 76 153 0
-0.598574 0.130939 0.334269 153 0 76
-0.098922 -0.138835 -0.224148 76 153 0
-0.293610 -0.430193 -0.000087 0 0 255
-0.284481 -0.456691 -0.224148 76 153 0
-0.358318 0.308487 0.288349 76 153 0
0.728056 0.374234 -0.029911 127 0 127
0.189350 0.150186 -0.212549 76 153 0
-0.004260 0.021568 -0.224148 76 153 0
-0.676114 -0.350586 -0.224148 127 127 0
0.044546 0.415722 0.278482 76 0 153
0.314307 0.160127 -0.212549 76 153 0
-0.271713 -0.544728 -0.224148 76 153 0
0.450998 0.067026 -0.224148 76 153 0
0.003642 -0.430193 0.197670 0 0 255
0.680810 0.167652 0.224353 76 0 153
-0.550742 0.111447 0.278482 76 153 0
-0.626940 -0.182355 -0.212549 76 153 0
-0.117622 0.308959 0.279702 76 153 0
0.362097 -0.430193 0.221258 0 0 255
0.080399 0.471545 0.255284 76 0 153
0.108186 -0.436616 -0.212549 0 0 255
-0.417379 -0.453391 0.148255 0 0 255
0.728056 0.208159 0.030955 127 0 127
-0.669595 0.361118 0.278482 76 153 0
-0.429424 0.149685 -0.212549 76 153 0
0.629644 0.072180 -0.212549 76 153 0
0.535621 0.134299 0.194792 204 51 127
0.493162 0.134299 -0.086934 204 51 127
-0.736756 0.474541 0.266565 153 0 76
0.196730 0.405610 -0.224148 76 153 0
-0.395353 0.019933 -0.224148 76 153 0
-0.141039 0.111101 -0.021909 204 51 127
-0.254845 -0.029180 -0.224148 76 153 0
0.211894 0.195096 0.288349 76 0 153
-0.263307 0.111101 -0.056396 204 51 127
-0.557101 -0.291901 -0.224148 76 153 0
0.173479 -0.430193 0.202156 0 0 255
-0.499891 -0.402349 -0.224148 127 127 0
-0.673487 0.118086 -0.212549 76 153 0
0.655304 0.417809 0.255284 127 127 0
-0.617182 0.125412 0.295194 76 153 0
-0.408190 -0.127256 -0.224148 76 153 0
-0.309655 0.383872 0.288349 76 153 0
-0.796519 -0.551788 0.254537 153 0 76
-0.200938 0.130802 0.295191 76 153 0
-0.344117 -0.255657 -0.224148 76 153 0
-0.768775 0.410756 0.177956 153 76 0
0.158240 0.116280 -0.224148 76 153 0
-0.095259 -0.048482 -0.212549 76 153 0
-0.678900 0.095502 -0.224148 76 153 0
-0.580867 -0.519573 -0.224148 76 153 0
-0.088537 0.130268 0.332185 153 0 76
0.306898 -0.453391 -0.194917 0 0 255
0.132918 -0.435831 -0.212549 0 0 255
-0.709949 0.134299 -0.057004 204 51 127
-0.316909 -0.206549 -0.224148 76 153 0
0.658846 0.455955 0.278482 127 127 0
-0.342143 -0.135164 -0.224148 76 153 0
-0.790403 0.168816 0.210047 0 127 127
0.618375 0.134299 -0.204348 204 51 127
-0.011673 0.276947 0.295762 76 0 153
0.355892 -0.390067 -0.212549 76 153 0
-0.077556 -0.537103 -0.224148 76 153 0
0.519363 -0.536796 -0.224148 76 153 0
-0.072622 0.149765 0.278082 153 0 76
0.434234 -0.430193 -0.025817 0 0 255
0.697388 0.134299 0.027649 204 51 127
0.308737 -0.432021 -0.224148 76 153 0
-0.791081 0.422334 -0.115841 0 127 127
0.094598 0.299891 -0.224148 76 153 0
-0.629473 0.161500 0.297571 76 153 0
-0.049184 0.053372 -0.224148 76 153 0
-0.300077 -0.453391 0.152745 0 0 255
-0.494904 0.111101 0.164849 204 51 127
0.435278 -0.131799 -0.224148 76 153 0
-0.526117 -0.525678 -0.224148 76 153 0
-0.109568 -0.453391 -0.202010 0 0 255
-0.790033 0.124700 0.187758 0 127 127
-0.001853 0.393600 -0.224148 76 153 0
-0.656068 0.285842 -0.212549 76 153 0
0.743542 0.143597 0.190646 127 0 127
-0.642918 -0.103935 -0.212549 76 153 0
0.072012 -0.430193 0.128787 0 0 255
0.678749 -0.430193 -0.037890 0 0 255
-0.263774 -0.282325 -0.224148 76 153 0
-0.019886 -0.381708 -0.224148 76 153 0
0.275371 -0.487800 -0.224148 76 153 0
-0.085194 0.285347 0.278482 76 153 0
-0.273881 0.237199 0.279702 76 153 0
0.323107 -0.009769 -0.212549 76 153 0
-0.610204 -0.256689 -0.224148 76 153 0
-0.063300 0.246143 0.278482 153 76 0
0.010196 -0.453391 -0.058558 0 0 255
0.114161 -0.453391 -0.133380 0 0 255
0.647028 0.308735 0.278482 76 0 153
0.373439 0.338954 -0.212549 76 153 0
-0.790746 0.466808 -0.105587 0 127 127
-0.363441 0.446824 0.295191 76 153 0
-0.758118 0.032484 -0.212549 76 153 0
0.120417 0.139881 0.278482 76 0 153
-0.181539 0.283258 0.288349 76 153 0
-0.592198 0.134299 0.194016 204 51 127
0.672707 0.150711 0.276117 127 127 0
0.650834 -0.175904 -0.212549 76 153 0
-0.011041 -0.430193 -0.194729 0 0 255
0.423846 -0.469578 -0.212549 76 153 0
-0.489401 -0.453391 -0.016658 0 0 255
0.497073 0.111101 0.059600 204 51 127
0.626310 0.331252 0.272499 127 127 0
0.139709 -0.491232 -0.212549 76 153 0
0.252849 -0.453391 -0.132120 0 0 255
-0.150333 -0.430193 -0.125594 0 0 255
0.672707 0.169467 0.275274 127 127 0
0.736703 0.378028 0.030613 127 0 127
-0.661917 0.202719 -0.212549 76 153 0
0.726836 0.115294 -0.066953 255 0 0
0.390008 -0.453391 -0.196412 0 0 255
0.005646 -0.584416 -0.224148 76 153 0
0.542433 -0.228202 -0.212549 76 153 0
0.746628 -0.147398 -0.212549 76 153 0
-0.403883 -0.345199 -0.224148 76 153 0
-0.336211 0.111101 0.011186 204 51 127
0.090626 -0.427721 -0.224148 76 153 0
-0.365025 0.261587 -0.224148 76 153 0
0.607478 0.452235 0.278482 76 0 153
-0.576956 0.199550 0.288349 76 153 0
-0.056768 -0.453391 -0.141339 0 0 255
0.672707 0.266128 0.283067 76 0 153
0.740751 0.392629 0.149366 127 0 127
0.645225 0.122582 0.295195 76 0 153
0.144077 0.111101 -0.156430 204 51 127
-0.489113 0.383631 0.279702 76 153 0
-0.755394 0.450470 0.301681 153 0 76
0.008500 -0.453391 -0.204179 0 0 255
-0.400637 0.111101 0.132528 204 51 127
-0.780877 0.145807 0.224353 153 0 76
-0.446696 0.089171 -0.212549 76 153 0
0.474324 -0.082821 -0.212549 76 153 0
-0.131473 0.230744 0.279702 76 153 0
-0.786506 0.468742 -0.146015 0 127 127
0.702911 -0.430193 -0.076179 0 0 255
0.539488 0.111101 0.253853 204 51 127
-0.221253 0.322448 -0.212549 76 153 0
0.193864 -0.058215 -0.212549 76 153 0
-0.227937 -0.153043 -0.224148 76 153 0
0.614483 -0.429113 -0.212549 76 153 0
0.726836 0.204665 -0.152612 127 0 127
0.057416 0.423035 -0.224148 76 153 0
-0.475584 0.280374 0.288349 76 153 0
0.087093 0.111101 -0.060557 204 51 127
-0.597769 0.334843 -0.212549 76 153 0
-0.783188 0.277255 0.060162 0 127 127
0.409930 0.111101 0.074733 204 51 127
0.145354 0.402621 0.278482 76 0 153
-0.665552 0.069168 -0.212549 76 153 0
0.750035 -0.296141 0.239348 76 0 153
0.274436 -0.151782 -0.224148 76 153 0
0.703364 -0.189263 -0.212549 76 153 0
-0.150570 -0.401264 -0.224148 76 153 0
-0.774541 0.396633 -0.133009 0 127 127
0.541964 0.266242 -0.224148 76 153 0
0.550341 0.134299 -0.081022 204 51 127
0.673652 0.233913 0.301681 76 0 153
-0.342563 0.111101 0.196818 204 51 127
0.706265 -0.165034 0.301681 76 0 153
0.626310 0.164345 0.264464 127 127 0
-0.424482 -0.310269 -0.224148 76 153 0
-0.614336 0.428303 -0.212549 76 153 0
-0.750123 0.130008 0.199035 153 76 0
0.575281 0.222862 0.279702 76 0 153
0.126056 -0.125115 -0.212549 76 153 0
-0.350434 -0.430193 0.201018 0 0 255
-0.203478 -0.293263 -0.212549 76 153 0
0.750035 0.451194 0.296795 76 0 153
0.184238 -0.205551 -0.224148 76 153 0
0.726836 0.348929 -0.195169 153 0 76
-0.170816 -0.561730 -0.224148 76 153 0
-0.093084 0.191688 -0.212549 76 153 0
-0.420973 -0.453391 0.084761 0 0 255
0.352203 0.350934 0.279702 76 0 153
0.743540 0.141261 0.022046 127 0 127
0.271579 -0.214236 -0.212549 76 153 0
0.715361 -0.453391 -0.071325 0 0 255
-0.171612 -0.453391 0.075205 0 0 255
0.726836 0.442102 -0.166934 127 0 127
0.736703 0.292307 0.101327 127 0 127
-0.524253 0.134299 0.133673 204 51 127
-0.274680 0.474541 -0.222948 76 153 0
-0.673609 0.275498 -0.212549 76 153 0
0.734328 0.095609 0.301681 76 0 153
-0.116047 0.111101 -0.036998 204 51 127
-0.207028 0.302523 0.288349 76 153 0
0.473361 0.239554 -0.212549 76 153 0
-0.217861 -0.567596 -0.224148 76 153 0
0.041742 0.110851 0.278482 153 0 76
0.195330 0.111101 -0.108487 204 51 127
-0.072024 0.170226 0.295730 76 153 0
-0.362465 0.103368 0.269578 153 0 76
-0.796519 -0.131564 0.249465 153 0 76
0.349420 0.427266 -0.224148 76 153 0
-0.190438 -0.430193 -0.066200 0 0 255
-0.609941 -0.430836 0.255284 0 0 255
0.232249 -0.453391 -0.210148 0 0 255
0.348438 0.163267 -0.224148 76 153 0
0.532871 0.132198 0.325492 153 76 0
-0.372808 0.134299 -0.199204 204 51 127
