ply
format ascii 1.0
element vertex 1263
property float x
property float y
property float z
property uchar red
property uchar green
property uchar blue
end_header
0.230924 0.288172 -0.038131 0 127 127
-0.423860 -0.376108 0.050315 255 0 0
-0.669729 0.138254 -0.195200 0 127 127
-0.455411 0.239430 0.194002 255 0 0
-0.417010 -0.029512 -0.078523 76 153 0
0.769688 -0.401660 -0.224152 153 0 76
-0.380837 -0.407876 -0.164001 76 0 153
-0.438456 -0.054412 -0.313121 76 153 0
0.152400 0.363131 0.277037 0 127 127
-0.431978 -0.197634 0.259191 204 51 127
0.620994 -0.258819 0.307968 76 0 153
-0.647520 0.202504 0.294120 255 0 0
0.560491 0.202504 0.052733 153 0 76
-0.455411 -0.449335 -0.058837 204 51 127
-0.602502 -0.493543 -0.064637 204 51 127
-0.740559 -0.347703 -0.204965 127 127 0
-0.632558 -0.407876 -0.181564 0 127 127
-0.782018 0.153685 0.062646 153 76 0
0.770704 -0.305963 -0.189037 153 0 76
0.792159 0.363131 0.268775 0 127 127
0.753832 -0.116485 -0.226382 153 0 76
-0.615103 0.288172 -0.372789 0 127 127
-0.782018 0.139962 0.130953 153 76 0
0.069918 0.363131 0.083707 0 127 127
0.430635 0.363131 0.034870 0 127 127
-0.633082 0.138254 0.052055 0 127 127
0.690390 0.240409 0.115308 0 0 255
0.690390 -0.434784 0.248257 153 0 76
0.444097 0.244043 -0.204852 0 0 255
-0.675445 -0.493543 0.217912 204 51 127
0.613563 0.363131 -0.322641 0 127 127
0.515353 0.288172 0.124795 0 0 255
0.171497 0.298880 0.243501 127 127 0
0.020409 0.288172 0.296945 127 127 0
0.717136 0.138254 0.104435 153 0 76
0.479068 0.096457 0.307968 153 76 0
-0.574120 -0.407876 0.222768 0 127 127
0.713497 0.363131 -0.058331 0 127 127
0.196343 0.288172 0.430040 127 127 0
0.622953 -0.095748 0.329385 127 0 127
-0.468564 0.288172 -0.015581 0 127 127
-0.385806 -0.067635 0.000669 153 76 0
-0.732424 0.363131 0.081395 0 127 127
-0.517500 -0.407876 -0.209382 255 0 0
0.363783 -0.377396 0.031342 76 0 153
-0.749893 0.087962 -0.157340 127 0 127
-0.525562 0.316845 0.436469 0 127 127
0.649761 -0.493543 -0.174723 153 0 76
0.205545 0.264459 -0.282066 76 153 0
-0.742161 0.288172 -0.182114 0 127 127
-0.735013 -0.248675 -0.215674 153 76 0
0.770704 -0.248116 -0.076380 153 0 76
0.447421 0.143745 -0.313121 76 153 0
-0.637913 -0.029512 0.096602 76 153 0
0.305322 0.363131 0.227862 0 127 127
0.595264 -0.376108 -0.148298 255 0 0
0.510475 0.288172 -0.072172 0 0 255
0.081627 0.363131 -0.126018 0 127 127
-0.735276 0.288172 -0.314984 0 127 127
0.484310 -0.493543 -0.311650 153 0 76
-0.578008 -0.033473 -0.313121 0 127 127
0.596628 0.288172 -0.376555 0 127 127
0.340120 0.288172 -0.038545 0 127 127
-0.158343 0.363131 0.403798 0 127 127
-0.699288 0.363131 -0.144839 0 127 127
-0.446485 0.288172 -0.379652 0 127 127
-0.348541 0.288172 0.266165 0 127 127
-0.126647 -0.019098 -0.282066 76 153 0
-0.614095 -0.029512 0.000468 76 153 0
-0.654902 0.288172 0.178329 255 0 0
-0.388969 0.288172 0.010784 0 127 127
-0.482441 0.202504 -0.113413 255 0 0
0.470815 0.062306 -0.204965 204 51 127
0.671390 -0.407876 -0.198306 153 0 76
0.444097 -0.226618 -0.295820 76 153 0
0.524815 -0.376108 0.012937 255 0 0
-0.130432 0.340643 0.206574 0 127 127
0.808197 0.288172 0.138911 0 127 127
-0.730361 0.187042 -0.226382 153 76 0
0.439170 0.138254 0.265986 153 0 76
-0.782018 -0.023027 -0.173893 153 76 0
0.284689 -0.253638 -0.282066 76 153 0
0.715680 -0.029512 0.140003 0 0 255
-0.440504 0.363131 -0.017673 0 127 127
-0.717728 0.033135 0.329385 0 255 0
0.007735 0.333924 0.125925 0 127 127
-0.633818 -0.398634 -0.313121 0 127 127
-0.458142 0.363131 -0.069100 0 127 127
0.109077 0.177578 -0.313121 76 153 0
-0.740670 -0.026642 -0.226382 0 127 127
-0.592697 -0.207985 0.109119 204 51 127
-0.424624 -0.104739 -0.226382 0 127 127
-0.420607 0.202504 -0.220524 76 0 153
0.194014 0.340643 0.364865 127 127 0
-0.375233 0.080181 -0.282066 76 153 0
-0.431231 0.363131 0.109907 0 127 127
0.406353 0.363131 -0.113395 0 127 127
0.555853 -0.493543 -0.014488 153 0 76
0.412862 -0.187485 -0.282066 76 153 0
0.013466 0.288172 -0.283896 0 127 127
-0.782018 -0.379644 -0.165728 153 76 0
-0.421639 0.138254 0.133564 0 127 127
-0.477062 0.202504 0.283124 255 0 0
-0.392320 -0.214946 -0.313121 76 153 0
0.395909 0.057418 -0.039503 76 0 153
0.444097 0.001923 -0.265083 153 0 76
0.395909 -0.111027 0.116244 0 127 127
-0.259362 -0.081448 -0.313121 76 153 0
-0.519661 0.288172 -0.270082 0 127 127
-0.224628 -0.029515 -0.313121 76 153 0
0.738578 0.002166 -0.161038 153 0 76
-0.516205 -0.459931 -0.313121 204 51 127
-0.512102 0.262282 0.329385 255 0 0
0.390931 0.288172 0.001436 0 127 127
-0.447914 -0.275947 -0.313121 0 127 127
-0.412753 -0.376108 0.222908 76 0 153
0.632732 -0.029512 -0.017190 0 0 255
0.474297 -0.407876 0.146631 255 0 0
0.577905 -0.029512 0.175225 0 0 255
-0.701705 0.098627 -0.267146 0 127 127
-0.448749 -0.220498 -0.313121 76 153 0
-0.455411 0.246120 0.073458 255 0 0
0.558663 -0.028219 -0.226382 204 51 127
-0.455643 -0.062708 -0.210251 153 0 76
0.521215 0.363131 -0.286581 0 127 127
0.770704 -0.276933 0.006558 153 0 76
0.738578 -0.100752 0.032516 76 153 0
-0.477576 -0.376108 -0.189465 127 0 127
0.543584 -0.197634 -0.194981 153 0 76
0.127457 0.288172 0.085356 0 127 127
0.048620 0.132677 -0.313121 76 153 0
0.411685 0.288172 0.283724 0 127 127
-0.537084 -0.386459 0.289317 0 127 127
0.534705 -0.096183 -0.313121 153 0 76
-0.068493 -0.125802 -0.313121 76 153 0
0.609740 -0.493543 0.155109 153 0 76
0.395909 -0.148597 0.267074 0 127 127
0.363783 0.000715 0.212991 76 0 153
-0.455411 -0.393715 -0.286942 0 127 127
-0.680796 -0.342443 -0.204965 127 0 127
-0.679282 -0.029512 0.156929 76 153 0
0.251978 0.363131 0.316277 0 127 127
0.484618 -0.132997 -0.204965 153 0 76
-0.860901 0.348066 -0.197821 0 127 127
0.382710 -0.407876 0.124762 76 0 153
-0.404038 0.191719 0.329385 76 0 153
0.594998 0.202504 0.315351 0 0 255
0.673873 -0.493543 -0.056125 153 0 76
0.405886 -0.029512 0.153223 0 0 255
0.162806 0.288172 0.336264 127 127 0
-0.546817 -0.407876 0.013209 0 127 127
0.183157 0.288172 0.000224 0 127 127
-0.749893 -0.081734 0.026934 76 0 153
-0.385806 -0.355193 0.148082 0 255 0
0.770704 -0.215295 0.216414 153 0 76
0.175650 0.185614 -0.313121 76 153 0
-0.607885 -0.127317 -0.313121 0 127 127
0.167110 0.340643 0.165863 0 127 127
-0.607075 -0.376108 0.098182 0 127 127
-0.412498 0.202504 0.190306 76 0 153
0.544492 0.202504 0.146439 153 0 76
0.363783 0.014812 0.038662 76 0 153
-0.571927 0.157254 -0.313121 255 0 0
-0.750044 -0.241181 0.174004 127 127 0
-0.464466 0.202504 0.119601 255 0 0
-0.701705 -0.433780 -0.165151 204 51 127
-0.774257 -0.115502 -0.226382 153 76 0
-0.706321 0.202504 -0.065537 255 0 0
0.395909 -0.243309 0.004126 153 0 76
-0.793960 0.363131 0.048523 0 127 127
0.395909 -0.006904 -0.038451 76 0 153
0.738578 -0.292302 0.179565 204 51 127
-0.578676 -0.493543 0.243264 204 51 127
0.604591 0.363131 -0.057676 0 127 127
-0.465355 -0.493543 -0.139401 204 51 127
0.660116 -0.217902 -0.313121 153 0 76
-0.547800 -0.197634 0.197499 204 51 127
0.405542 0.288172 0.386504 0 127 127
0.246909 0.363131 -0.035658 0 127 127
0.008974 0.340643 0.255668 0 127 127
-0.368844 0.288172 0.394531 0 127 127
0.618936 0.241928 0.329385 0 0 255
0.367493 0.288172 0.059905 0 127 127
-0.405748 0.202504 -0.165427 76 0 153
0.588366 -0.080629 -0.313121 153 0 76
0.444097 -0.435445 0.035206 153 0 76
0.825416 0.288172 -0.089425 0 127 127
-0.023379 0.363131 -0.112398 0 127 127
-0.741688 0.363131 -0.367818 0 127 127
-0.107397 0.288172 -0.337527 0 127 127
-0.246597 0.321717 0.321335 127 127 0
0.156714 0.288172 0.385259 127 127 0
0.586402 -0.407876 0.169037 153 0 76
0.545442 -0.407876 0.237250 255 0 0
-0.648594 -0.094802 -0.313121 0 127 127
-0.730258 0.202504 0.145064 255 0 0
0.444097 0.238389 0.152598 0 0 255
0.770704 -0.030873 0.327447 153 76 0
-0.130280 0.335056 -0.420205 0 127 127
-0.782018 -0.022995 -0.073603 153 76 0
0.395909 -0.304636 -0.050928 153 0 76
-0.760601 -0.115664 0.118126 76 0 153
-0.020213 -0.003099 -0.282066 76 153 0
-0.701489 -0.480650 0.329385 204 51 127
0.705953 0.363131 -0.214680 0 127 127
-0.579642 0.202504 0.220506 0 127 127
0.120710 -0.187525 -0.313121 76 153 0
0.409731 0.138254 0.118889 76 0 153
-0.464971 0.138254 0.037615 0 127 127
0.488695 -0.029512 0.103027 0 0 255
-0.268567 0.302274 -0.420076 0 127 127
-0.204297 0.363131 -0.204125 0 127 127
0.798466 0.288172 -0.282139 0 127 127
-0.306287 -0.099254 -0.313121 76 153 0
0.753542 0.288172 -0.024189 0 127 127
0.098532 0.358314 -0.411312 0 127 127
0.385200 -0.302802 -0.145941 153 0 76
-0.452631 0.363131 -0.183916 0 127 127
0.680081 0.363131 0.007674 0 127 127
0.537093 -0.062553 0.329385 127 0 127
-0.042036 0.363131 0.320170 0 127 127
-0.010343 0.210134 -0.282066 76 153 0
-0.555061 -0.248091 0.329385 255 0 0
-0.782018 -0.404171 -0.055639 153 76 0
-0.517459 0.363131 -0.343507 0 127 127
0.058787 -0.057896 -0.313121 76 153 0
0.469840 0.032219 -0.313121 153 0 76
-0.659807 -0.493543 0.014921 204 51 127
-0.578778 0.162813 -0.226382 0 127 127
-0.782018 0.073113 0.002214 153 76 0
-0.409661 0.138254 -0.095005 0 127 127
0.738578 0.073663 0.040017 153 0 76
0.455158 0.202504 0.286217 0 0 255
0.430731 0.138254 -0.162388 153 0 76
0.738578 -0.161456 0.256444 76 153 0
0.850588 0.343899 0.097178 0 127 127
-0.424544 -0.397168 0.108847 0 127 127
-0.487844 0.112994 0.307968 0 255 0
0.742106 -0.407876 0.278491 153 0 76
0.200840 0.363131 -0.342557 0 127 127
-0.749893 0.088590 -0.073569 127 0 127
-0.623627 -0.207985 0.009265 204 51 127
0.395909 0.056986 0.189111 76 0 153
0.707372 -0.207985 0.249676 76 0 153
0.770704 0.003455 0.136053 153 0 76
-0.407223 -0.063179 0.157029 153 76 0
-0.618779 -0.407876 0.020736 0 127 127
0.484507 0.288172 -0.140642 0 0 255
0.424739 -0.207985 -0.029741 76 0 153
0.083063 0.340643 0.175942 0 127 127
0.363783 -0.331166 0.147380 76 0 153
0.496505 -0.407876 0.286921 153 0 76
-0.166473 0.363131 -0.010662 0 127 127
0.490664 0.138254 0.216580 153 0 76
-0.699957 0.138254 0.261813 0 127 127
-0.749893 -0.154934 -0.152446 76 0 153
0.457249 -0.207985 -0.131955 76 0 153
-0.312404 0.288172 -0.257172 0 127 127
-0.741674 0.202504 -0.103446 153 76 0
-0.781457 0.199511 -0.016109 153 76 0
-0.375098 -0.293044 0.005985 76 0 153
0.590697 -0.493543 0.084981 153 0 76
-0.754114 0.363131 0.345641 0 127 127
0.336551 0.288172 -0.341190 0 127 127
-0.666050 0.288172 -0.183721 255 0 0
0.004465 0.363131 -0.012598 0 127 127
0.785806 0.288172 0.189959 0 127 127
-0.749893 -0.146180 -0.018539 153 76 0
-0.782018 0.101161 0.207951 153 76 0
0.421374 -0.324129 -0.226382 153 0 76
0.582545 -0.029512 -0.170214 0 0 255
0.770704 0.108488 0.031943 153 0 76
0.770704 0.020577 0.205816 153 0 76
0.664851 0.356777 -0.413315 0 127 127
0.163562 0.288172 -0.394916 0 127 127
-0.616314 -0.493543 -0.192063 204 51 127
-0.489925 0.288172 0.170587 0 127 127
-0.184545 -0.132190 -0.282066 76 153 0
0.392095 -0.062708 0.232923 0 127 127
-0.523287 0.288172 -0.166874 0 127 127
0.657866 -0.197634 -0.060763 76 0 153
-0.701705 0.258458 0.120049 255 0 0
0.615834 0.288172 0.072007 0 127 127
0.491755 -0.358991 -0.226382 153 0 76
0.410182 -0.407876 -0.223490 153 0 76
0.494565 -0.070198 -0.226382 153 0 76
0.690390 -0.462568 0.046674 153 0 76
-0.747743 -0.019160 0.015586 127 0 127
0.108774 0.007635 -0.282066 76 153 0
0.395909 -0.123224 0.043184 0 127 127
-0.480097 -0.316392 -0.215674 0 127 127
0.721154 -0.207985 0.012185 76 0 153
-0.246597 0.320253 0.407643 127 127 0
-0.464497 -0.197634 0.166262 204 51 127
-0.672446 0.202504 0.021693 255 0 0
-0.707276 -0.068847 -0.204965 153 0 76
0.367284 -0.407876 0.271330 76 0 153
-0.216008 0.363131 -0.325369 0 127 127
0.420767 0.097832 0.307968 153 76 0
0.608601 0.363131 -0.179149 0 127 127
-0.399813 -0.256913 -0.215674 76 0 153
-0.357565 0.363131 0.350724 0 127 127
0.593676 -0.407876 0.019434 255 0 0
0.668752 -0.019160 0.292634 153 76 0
-0.068125 0.106516 -0.282066 76 153 0
0.464809 0.138254 -0.082711 153 0 76
0.525420 0.233055 0.329385 0 0 255
-0.701705 -0.432077 0.160053 204 51 127
0.637109 0.202504 0.282724 153 0 76
-0.375098 -0.243277 0.226925 76 0 153
-0.314769 0.363131 -0.214965 0 127 127
-0.661149 0.180166 -0.226382 153 76 0
-0.145076 0.054219 -0.282066 76 153 0
-0.633267 0.288172 0.245768 255 0 0
-0.285384 0.363131 0.151490 0 127 127
0.239948 0.288172 0.303420 0 127 127
0.638988 -0.376108 -0.034186 255 0 0
0.177317 0.363131 -0.117712 0 127 127
-0.782018 0.161931 0.273980 153 76 0
0.395909 0.056167 0.047754 76 0 153
-0.630674 0.051551 0.329385 0 255 0
0.690390 -0.439332 0.294809 153 0 76
0.590131 0.363131 0.036536 0 127 127
0.232805 0.363131 -0.202578 0 127 127
0.738578 -0.064851 -0.097382 76 153 0
0.602540 0.288172 -0.010969 0 127 127
-0.190227 0.288172 0.246892 127 127 0
0.468313 0.009482 0.307968 153 76 0
0.395909 -0.297597 0.062100 153 0 76
-0.407223 -0.106500 0.019866 153 76 0
0.346146 0.340449 -0.420205 0 127 127
0.528659 -0.376108 -0.127023 255 0 0
-0.396515 -0.289939 0.299442 0 255 0
0.770704 -0.177712 -0.177037 153 0 76
-0.819068 0.288172 -0.124359 0 127 127
0.730465 -0.219367 0.329385 76 0 153
0.477131 0.202504 0.034274 0 0 255
0.621646 -0.038317 0.329385 153 76 0
0.713647 0.288172 -0.122180 0 127 127
0.447292 -0.376108 0.085336 255 0 0
-0.082118 0.363131 -0.062467 0 127 127
0.632532 -0.197634 -0.003242 76 0 153
0.770704 0.162795 -0.185885 153 0 76
0.851017 0.337196 -0.153475 0 127 127
0.207002 0.363131 0.194557 0 127 127
-0.396515 -0.177551 -0.118903 153 76 0
-0.375098 -0.362034 -0.073899 76 0 153
-0.782018 -0.158598 -0.108219 153 76 0
0.393827 0.131804 -0.313121 76 153 0
-0.487844 0.000148 -0.313121 0 127 127
-0.640145 -0.207985 -0.041802 204 51 127
-0.862331 0.334240 0.165784 0 127 127
-0.290270 0.363131 -0.256900 0 127 127
0.738578 0.078620 0.115949 153 0 76
-0.472542 0.363131 0.180823 0 127 127
-0.709869 -0.015416 0.329385 0 255 0
-0.455411 0.085971 -0.248599 0 127 127
-0.105681 0.288172 0.390206 127 127 0
0.596265 -0.178773 -0.226382 153 0 76
-0.558283 -0.324447 -0.313121 0 127 127
-0.790010 0.363131 -0.056268 0 127 127
0.556763 0.363131 -0.148280 0 127 127
-0.212225 0.243457 -0.282066 0 255 0
0.271905 0.363131 0.011696 0 127 127
-0.542031 0.202504 0.112785 0 127 127
0.329255 0.288172 0.141816 0 127 127
-0.745819 0.138254 -0.141369 153 76 0
-0.403562 0.363131 -0.168172 0 127 127
0.013744 0.288172 -0.024759 0 127 127
-0.782018 -0.119656 -0.151366 153 76 0
0.759995 -0.222186 -0.206038 153 0 76
0.485104 0.363131 -0.372114 0 127 127
-0.782018 0.027238 0.308665 153 76 0
0.122642 0.288172 -0.065907 0 127 127
0.738578 -0.241209 0.187738 153 0 76
-0.713493 -0.376108 -0.004802 0 127 127
-0.418363 0.288172 0.304068 0 127 127
0.513802 -0.425279 0.329385 153 0 76
-0.486930 -0.407876 -0.008257 0 127 127
0.516816 -0.387619 -0.313121 153 0 76
0.711908 0.288172 0.353747 0 127 127
-0.559935 0.202504 -0.133101 0 127 127
-0.375098 0.178477 0.173332 76 0 153
-0.550302 -0.264847 -0.226382 127 0 127
-0.779971 0.288172 -0.329275 0 127 127
0.627452 -0.019160 -0.077596 0 0 255
0.363783 0.098378 -0.105205 76 0 153
0.250452 0.150670 -0.313121 76 153 0
-0.541054 -0.040378 0.329385 76 0 153
0.662938 -0.407876 -0.102355 153 0 76
-0.375098 0.137539 -0.192735 76 0 153
-0.375098 0.017091 0.275538 76 0 153
-0.385806 -0.031882 0.221920 76 0 153
-0.281606 -0.241733 -0.313121 76 153 0
-0.616465 -0.207985 -0.127623 204 51 127
0.638577 -0.355057 0.329385 76 0 153
-0.497442 0.212592 0.329385 0 127 127
-0.375098 0.122250 0.042300 76 0 153
-0.749893 -0.313737 0.207043 127 127 0
0.079092 -0.275743 -0.282066 76 153 0
-0.114053 0.308518 0.293378 127 127 0
0.026629 -0.184353 -0.282066 76 153 0
0.660126 -0.376108 0.232100 153 0 76
0.246911 0.288172 0.386244 0 127 127
0.676227 -0.294219 -0.313121 153 0 76
0.634662 -0.455048 0.329385 153 0 76
0.383506 0.048859 -0.282066 76 153 0
-0.701705 0.257034 -0.299640 255 0 0
0.479307 0.202504 0.203844 0 0 255
0.513297 0.363131 0.083148 0 127 127
0.720021 -0.019160 0.217069 0 0 255
0.058787 0.288172 -0.162469 0 127 127
-0.553694 0.050902 0.307968 0 255 0
0.770704 -0.152317 0.130314 153 0 76
-0.435611 0.288172 0.103796 0 127 127
0.361369 0.288172 0.217969 0 127 127
0.664437 0.202504 0.113197 153 0 76
0.421377 0.288172 -0.277849 0 127 127
-0.397759 -0.129487 -0.282066 76 153 0
0.690390 0.245928 0.281201 0 0 255
0.770704 0.079678 0.074907 153 0 76
-0.776639 0.288172 0.402283 0 127 127
-0.564240 0.288172 0.199052 255 0 0
0.803485 0.363131 -0.207171 0 127 127
-0.773586 -0.407876 0.055278 153 76 0
-0.367054 0.363131 -0.033800 0 127 127
0.469016 -0.019160 0.024919 0 0 255
-0.716384 0.138254 -0.021959 0 127 127
0.076403 0.242415 -0.313121 0 255 0
-0.481055 -0.397168 0.225771 0 127 127
0.703786 -0.197634 -0.123058 76 0 153
0.559195 0.068690 0.329385 153 76 0
-0.760601 -0.344689 0.279088 153 76 0
-0.205307 0.363131 0.353830 0 127 127
0.469096 0.288172 0.034316 0 127 127
0.377829 0.202504 -0.112928 76 0 153
0.551905 -0.397168 -0.199637 255 0 0
0.363783 0.178928 0.262377 76 0 153
-0.530535 -0.019160 -0.172649 76 153 0
0.770704 0.052945 -0.050075 153 0 76
-0.407223 -0.301104 -0.188496 0 255 0
-0.692351 -0.270096 -0.215674 127 0 127
0.690390 0.262879 -0.030768 0 0 255
0.580662 0.363131 0.206068 0 127 127
-0.438342 0.239932 -0.313121 76 153 0
-0.665666 -0.493543 -0.143368 204 51 127
0.296075 -0.093518 -0.313121 76 153 0
-0.782018 -0.028444 0.269066 153 76 0
-0.501178 -0.470247 0.329385 204 51 127
-0.556531 0.138254 0.002702 0 127 127
0.716051 -0.235292 -0.215674 0 0 255
0.377601 0.295831 -0.417804 0 127 127
0.722444 -0.166438 0.329385 127 0 127
0.309447 0.170497 -0.282066 76 153 0
-0.749893 0.027819 -0.042511 127 0 127
0.391171 -0.029512 0.305831 153 76 0
0.607253 -0.197634 0.145705 76 0 153
-0.377758 -0.406190 0.329385 76 0 153
-0.300891 0.053129 -0.313121 76 153 0
-0.586136 -0.381053 -0.313121 0 127 127
0.533535 -0.407876 0.186629 153 0 76
0.449523 0.340002 -0.420205 0 127 127
0.807648 0.288172 0.387550 0 127 127
0.170557 0.060673 -0.313121 76 153 0
0.245888 0.330678 -0.420205 0 127 127
0.403652 -0.029512 -0.193667 0 0 255
-0.739376 -0.057365 0.329385 0 255 0
0.759995 -0.298377 -0.101126 204 51 127
-0.774599 0.288172 0.097774 0 127 127
0.690390 0.266844 -0.229700 0 127 127
0.325903 -0.229332 -0.313121 76 153 0
-0.749893 -0.351855 0.122850 127 127 0
-0.731225 0.202504 0.254165 153 76 0
-0.417412 -0.197634 0.097816 153 76 0
0.498598 -0.376108 -0.035302 255 0 0
-0.511329 0.288172 -0.350636 0 127 127
-0.184859 0.363131 -0.100531 0 127 127
-0.598631 0.363131 0.262478 0 127 127
0.769970 0.199851 -0.087054 153 0 76
-0.776997 -0.379046 0.329385 255 0 0
-0.401614 0.202504 -0.077278 76 0 153
-0.648983 0.262405 0.329385 255 0 0
-0.469125 -0.376108 0.045247 0 127 127
0.778822 0.363131 0.109415 0 127 127
-0.625592 0.157499 -0.313121 0 127 127
0.739703 -0.304311 -0.226382 153 0 76
-0.749893 0.054552 0.184538 127 0 127
0.679017 0.069814 -0.313121 153 0 76
0.425863 0.138254 -0.111300 76 0 153
0.851017 0.309437 -0.418138 0 127 127
-0.407223 -0.069025 -0.098824 153 76 0
-0.036518 0.251291 -0.282066 0 255 0
-0.375098 -0.107763 0.100227 76 0 153
0.736463 0.202504 -0.182558 153 0 76
-0.696916 0.288172 -0.368475 0 127 127
-0.730753 -0.019160 0.104293 76 153 0
-0.455411 0.252933 -0.152221 255 0 0
-0.782018 -0.225095 -0.170624 153 76 0
-0.250061 0.288172 0.071672 0 127 127
-0.507403 0.138254 -0.115870 0 127 127
-0.560172 0.202504 -0.186843 0 127 127
-0.692178 -0.178699 0.329385 76 0 153
-0.755935 0.363131 -0.220385 0 127 127
0.530483 0.363131 0.366201 0 127 127
0.295005 0.299426 0.436469 0 127 127
0.410195 0.202504 0.215400 76 0 153
-0.692622 0.327634 -0.420205 0 127 127
-0.752946 -0.207985 0.294136 76 0 153
-0.407223 0.064357 -0.118293 127 127 0
0.578876 -0.318573 -0.226382 153 0 76
0.395909 -0.323742 0.287090 76 0 153
-0.624302 0.288172 -0.044655 0 127 127
0.437463 0.363131 0.225911 0 127 127
0.217458 0.175787 -0.282066 76 153 0
0.444097 -0.330258 -0.268328 153 0 76
0.458420 -0.449251 -0.313121 153 0 76
0.390612 0.114931 -0.226382 204 51 127
0.770704 -0.245373 0.109629 153 0 76
-0.749893 -0.304234 0.117268 127 127 0
-0.375098 -0.224953 0.077214 76 0 153
-0.455411 -0.437054 0.270080 204 51 127
-0.496509 -0.376108 0.268479 0 127 127
0.770704 -0.308461 0.328465 76 0 153
-0.455411 -0.453884 0.089850 204 51 127
-0.375098 0.031469 -0.010821 76 0 153
-0.489464 -0.493543 -0.277018 204 51 127
-0.020368 0.288172 0.071577 0 127 127
-0.862331 0.340565 0.313342 0 127 127
0.406116 -0.197634 -0.080929 76 0 153
-0.607165 -0.407876 0.182893 0 127 127
-0.437410 0.202504 -0.110847 255 0 0
0.140845 0.288172 0.178749 127 127 0
-0.611988 -0.407876 0.259006 0 127 127
0.690465 0.363131 -0.375008 0 127 127
0.440362 -0.125683 -0.282066 76 153 0
-0.413718 0.363131 0.380986 0 127 127
0.770704 0.010446 0.003508 153 0 76
0.770704 -0.018554 -0.090988 153 0 76
-0.005573 -0.084251 -0.313121 76 153 0
0.395909 -0.075559 -0.158064 0 127 127
-0.407223 -0.142851 0.286738 76 0 153
-0.083838 0.027841 -0.282066 76 153 0
0.770704 -0.110529 0.083714 153 0 76
0.578245 0.202504 -0.008348 153 0 76
0.487092 -0.207985 -0.211532 153 0 76
-0.182805 0.363131 -0.361816 0 127 127
-0.620073 0.363131 -0.086837 0 127 127
-0.658936 -0.446508 0.329385 204 51 127
0.379498 0.288172 -0.295375 0 127 127
0.377744 0.363131 0.366877 0 127 127
0.654691 -0.029512 0.213614 0 0 255
0.673404 0.138254 0.170658 153 0 76
-0.545425 -0.376108 -0.158973 0 127 127
0.759155 0.288172 0.107845 0 127 127
-0.423155 -0.019160 0.302688 0 255 0
0.690390 0.151821 -0.256267 153 0 76
0.613193 0.001504 -0.313121 153 0 76
0.395909 0.023205 0.274545 76 0 153
0.785393 0.363131 -0.255510 0 127 127
-0.375098 -0.114836 -0.182781 76 0 153
-0.407223 -0.321639 -0.046838 76 0 153
0.092665 0.304316 0.314580 127 127 0
-0.396515 -0.246965 0.003640 0 255 0
0.222730 0.334655 0.115216 0 127 127
-0.224737 -0.197674 -0.313121 76 153 0
0.444097 -0.490526 0.252304 153 0 76
-0.385806 0.042733 0.127019 76 0 153
-0.310788 -0.226725 -0.282066 76 153 0
0.176000 0.327528 0.436469 127 127 0
0.514745 -0.019160 0.272622 0 0 255
-0.701705 -0.454607 -0.230746 204 51 127
0.781563 0.288172 -0.378282 0 127 127
0.163348 0.127014 -0.313121 76 153 0
-0.455411 -0.448293 -0.214073 204 51 127
-0.323732 0.330610 -0.420205 0 127 127
0.230737 0.288172 -0.202364 0 127 127
0.644675 0.196894 -0.313121 153 0 76
0.628196 0.266647 -0.313121 0 0 255
-0.385806 -0.195645 0.010176 153 76 0
0.727151 0.192703 0.329385 153 0 76
-0.436891 0.363131 -0.343689 0 127 127
0.297528 0.288172 -0.257983 0 127 127
-0.701705 -0.483830 0.104422 204 51 127
-0.528842 -0.114804 0.329385 76 0 153
0.363783 -0.290281 0.234867 76 0 153
0.590982 0.288172 -0.226949 0 127 127
-0.071034 0.363131 -0.238132 0 127 127
-0.407063 0.363131 0.036817 0 127 127
-0.455411 0.158902 -0.259301 76 153 0
0.559727 -0.133136 -0.313121 153 0 76
-0.795720 0.288172 -0.383115 0 127 127
-0.048617 0.167255 -0.282066 76 153 0
-0.747585 -0.197634 0.090937 204 51 127
-0.691908 -0.386459 0.285328 0 127 127
-0.421177 -0.367730 -0.226382 76 0 153
0.449651 -0.493543 0.081151 153 0 76
-0.725452 0.138254 -0.181021 0 127 127
-0.297215 0.226352 -0.313121 76 153 0
0.096045 0.340468 0.125925 0 127 127
-0.609681 -0.338318 -0.204965 0 127 127
0.469246 0.202504 -0.126514 0 0 255
0.373035 -0.077288 -0.313121 76 153 0
-0.594959 0.363131 0.348455 0 127 127
0.412604 -0.207985 0.156208 76 0 153
-0.625284 0.363131 0.384608 0 127 127
0.592019 0.288172 0.276727 0 127 127
0.056463 0.340643 0.318778 0 127 127
0.565520 0.138254 0.289589 153 0 76
0.570429 -0.207985 -0.069054 76 0 153
-0.682662 0.202504 0.146395 255 0 0
0.332314 0.348618 0.434810 0 127 127
0.395909 -0.253438 -0.115555 153 0 76
-0.642092 0.225479 -0.313121 255 0 0
-0.693382 -0.458470 -0.313121 204 51 127
0.549101 -0.019160 -0.133348 0 0 255
0.481811 -0.167866 0.307968 127 0 127
0.763334 -0.407876 0.065685 153 0 76
0.000269 0.288172 0.380862 127 127 0
-0.155845 0.288172 -0.261178 0 127 127
0.587911 0.114455 -0.204965 204 51 127
0.770704 -0.047703 0.104322 153 0 76
0.021013 -0.024856 -0.282066 76 153 0
-0.375098 -0.381596 0.002699 76 0 153
-0.497933 0.363131 0.011295 0 127 127
-0.460309 -0.000118 -0.204965 0 127 127
-0.458960 0.139080 0.329385 0 255 0
0.363783 -0.183126 0.157061 76 0 153
-0.407223 -0.077175 0.084313 153 76 0
0.726140 -0.207985 -0.035526 76 0 153
0.385200 -0.280211 -0.185161 153 0 76
-0.407223 -0.011325 -0.117948 127 127 0
0.662657 -0.311191 -0.226382 153 0 76
0.206391 -0.245149 -0.313121 76 153 0
0.647787 0.202504 0.191724 0 0 255
0.770704 -0.266571 -0.142513 153 0 76
0.363783 -0.117029 0.262806 76 0 153
0.363783 -0.094624 0.151307 76 0 153
0.434097 0.193238 -0.226382 153 0 76
0.648104 -0.132804 -0.313121 153 0 76
-0.407223 0.095683 -0.078029 127 127 0
0.592253 0.202504 -0.144699 153 0 76
-0.782018 0.163293 -0.197247 153 76 0
0.363783 -0.144772 -0.052607 76 0 153
0.731366 -0.335405 0.307968 204 51 127
0.224280 -0.015147 -0.282066 76 153 0
0.770704 0.109357 -0.157919 153 0 76
-0.615821 -0.055085 -0.226382 0 127 127
0.488073 -0.407876 0.194045 153 0 76
-0.749893 -0.347575 -0.001433 127 127 0
-0.479172 0.363131 -0.148498 0 127 127
0.235825 0.288172 -0.380182 0 127 127
-0.186815 -0.258241 -0.282066 76 153 0
0.444097 -0.427261 0.119523 153 0 76
-0.553318 0.138254 0.300425 0 127 127
0.444097 0.274632 0.216518 0 127 127
-0.417947 -0.407876 -0.140037 76 0 153
0.507888 -0.207985 0.250038 76 0 153
0.679744 0.138254 0.227606 153 0 76
-0.782018 -0.328537 -0.111871 153 76 0
0.770704 -0.163628 0.287659 153 0 76
-0.274460 -0.157377 -0.313121 76 153 0
-0.140988 0.363131 0.314123 0 127 127
-0.739562 0.202504 0.000453 153 76 0
-0.749893 -0.241370 0.225981 127 127 0
0.541611 -0.019160 -0.048814 0 0 255
-0.006336 0.288172 0.210497 127 127 0
0.637714 -0.407876 0.160011 255 0 0
0.374492 -0.006476 -0.166813 76 0 153
0.389311 -0.407876 0.176632 76 0 153
-0.701705 0.255473 -0.016131 255 0 0
0.478432 0.015653 -0.226382 204 51 127
-0.541437 0.360393 0.424562 0 127 127
-0.451686 0.320165 0.436469 0 127 127
-0.672714 -0.407876 0.053782 0 127 127
-0.410552 0.202504 0.240975 76 0 153
0.225670 -0.082317 -0.282066 76 153 0
0.621956 0.138254 -0.119189 153 0 76
0.738578 -0.361856 0.040224 204 51 127
0.770704 -0.358991 -0.112644 153 0 76
0.604571 -0.376108 -0.086955 255 0 0
-0.517087 0.202504 -0.048486 0 127 127
-0.629849 0.288172 -0.278245 0 127 127
0.527341 -0.407876 -0.069428 153 0 76
0.363783 -0.270455 0.141425 76 0 153
-0.455411 0.031466 -0.278890 0 127 127
-0.529749 -0.407876 0.189223 0 127 127
0.851017 0.320306 0.006127 0 127 127
0.015532 0.288172 -0.329647 0 127 127
-0.704014 -0.315355 0.307968 255 0 0
-0.589889 -0.376108 -0.177442 0 127 127
-0.732995 -0.397168 0.169452 0 127 127
-0.664929 -0.098235 0.307968 76 0 153
0.450945 -0.376108 0.225689 255 0 0
-0.770998 -0.144535 0.329385 76 0 153
-0.246597 0.324438 0.226399 0 127 127
-0.740925 -0.197634 -0.116014 204 51 127
0.669979 -0.407876 -0.034270 153 0 76
-0.407223 0.094239 0.184206 127 127 0
0.400947 0.036507 -0.226382 204 51 127
-0.619217 0.288172 0.073096 255 0 0
-0.326090 0.363131 0.013682 0 127 127
0.452630 0.202504 0.128804 76 0 153
-0.407223 -0.131274 -0.109245 153 76 0
-0.328998 0.096841 -0.313121 76 153 0
0.277695 0.363131 -0.095557 0 127 127
0.624901 -0.493543 0.023251 153 0 76
-0.552104 0.288172 0.013626 0 127 127
-0.549779 0.288172 0.262873 0 127 127
-0.506605 -0.071601 0.329385 76 0 153
0.722286 0.099940 -0.215674 153 0 76
0.486198 -0.493543 0.302564 153 0 76
0.770704 -0.043177 -0.179772 153 0 76
0.709742 -0.376108 -0.051656 204 51 127
-0.193728 0.028826 -0.313121 76 153 0
-0.266301 0.363131 0.294546 0 127 127
-0.094014 0.324294 0.125925 127 127 0
0.363783 0.055284 -0.009503 76 0 153
-0.679105 0.363131 0.278578 0 127 127
-0.646037 0.170119 0.329385 0 127 127
-0.562389 0.363131 0.185330 0 127 127
0.408736 -0.376108 -0.021000 153 0 76
-0.094622 0.295402 -0.417517 0 127 127
-0.796678 0.363131 0.260738 0 127 127
0.395909 -0.318991 0.242355 153 0 76
-0.771310 -0.319124 -0.183829 127 127 0
-0.782018 -0.145538 0.064099 153 76 0
-0.862331 0.309207 0.121372 0 127 127
0.499036 -0.207985 -0.076598 76 0 153
0.396493 -0.365514 -0.204965 76 0 153
0.731721 0.138254 -0.041582 153 0 76
0.427084 -0.029512 0.109360 0 0 255
0.506167 0.288172 -0.240782 0 127 127
-0.602907 -0.376108 -0.102514 0 127 127
0.252061 0.031020 -0.282066 76 153 0
0.363783 -0.027191 0.102855 76 0 153
-0.638522 0.090347 0.307968 0 255 0
-0.560152 0.288172 -0.064885 0 127 127
0.652128 0.363131 0.267826 0 127 127
-0.579702 0.202504 0.303544 0 127 127
0.770704 -0.299685 0.043800 153 0 76
0.088929 0.088754 -0.313121 76 153 0
0.690390 -0.137164 -0.266184 153 0 76
-0.030114 -0.059379 -0.282066 76 153 0
-0.782018 0.058379 0.269253 153 76 0
-0.456514 -0.429160 0.329385 204 51 127
0.396619 0.202504 -0.015331 76 0 153
0.770704 -0.011995 0.074105 153 0 76
0.680049 -0.386459 0.296085 76 0 153
0.099550 0.318932 0.436469 127 127 0
0.374492 -0.365403 -0.100027 153 0 76
0.196038 0.335507 -0.420205 0 127 127
-0.536773 0.138254 0.075615 0 127 127
0.624273 -0.383459 -0.313121 153 0 76
0.738578 0.112982 0.288199 153 0 76
-0.554891 0.138254 -0.085757 0 127 127
0.759995 -0.167835 0.064935 153 0 76
0.597673 0.288172 0.132357 0 0 255
-0.683404 -0.117994 -0.204965 153 0 76
0.395037 -0.062708 0.078792 0 127 127
-0.204598 0.340643 0.153811 0 127 127
0.363783 0.146325 -0.153535 76 0 153
0.730919 -0.029512 -0.190983 153 0 76
-0.117598 0.288172 0.348349 127 127 0
0.667728 -0.197634 -0.174127 153 0 76
0.811510 0.288172 -0.336712 0 127 127
-0.456549 0.090834 -0.313121 76 153 0
0.292824 -0.050151 -0.313121 76 153 0
0.158040 -0.103166 -0.282066 76 153 0
0.596556 -0.407876 0.287802 255 0 0
0.739827 -0.241181 0.268022 204 51 127
-0.769559 0.303667 -0.420168 0 127 127
-0.749352 0.288172 0.311695 0 127 127
-0.375098 -0.302138 0.058453 76 0 153
0.351330 -0.011438 -0.282066 76 153 0
-0.421465 -0.160358 -0.313121 76 153 0
0.395909 -0.370356 0.247711 153 0 76
-0.667519 0.288172 0.012261 0 127 127
-0.604578 0.288172 0.283523 0 127 127
0.735740 0.288172 0.390025 0 127 127
-0.701705 -0.476248 -0.126485 204 51 127
0.149122 0.340643 0.211205 0 127 127
0.444097 0.095196 -0.248787 153 0 76
-0.517716 -0.150693 -0.313121 0 127 127
0.439853 -0.291241 -0.204965 0 0 255
0.770704 -0.133041 -0.017980 153 0 76
0.534928 0.363131 0.310780 0 127 127
-0.290902 0.288172 0.352596 0 127 127
0.690390 -0.453769 -0.147516 153 0 76
-0.052444 0.288172 -0.236441 0 127 127
-0.490301 0.288172 0.126397 255 0 0
-0.352174 0.363131 0.276516 0 127 127
-0.782018 0.184136 -0.090650 153 76 0
0.571461 -0.376108 0.142891 255 0 0
-0.654950 0.363131 -0.058160 0 127 127
0.522130 0.055948 0.307968 153 76 0
-0.444299 0.363131 -0.270650 0 127 127
0.590212 -0.342650 -0.313121 153 0 76
0.395909 0.017975 -0.115166 76 0 153
-0.657526 -0.376108 -0.123454 0 127 127
0.674006 0.288172 0.200124 0 127 127
-0.771310 -0.183093 -0.011685 153 76 0
0.475351 -0.207797 0.329385 127 0 127
-0.542988 -0.207985 -0.179115 204 51 127
-0.030900 0.340643 0.186286 0 127 127
0.606079 0.138254 -0.053573 153 0 76
-0.421876 -0.407876 0.251934 0 127 127
0.408748 0.363131 -0.055775 0 127 127
-0.558433 -0.194446 -0.226382 0 127 127
0.576816 -0.407876 0.077724 153 0 76
0.770704 -0.091665 0.172431 153 0 76
0.000642 0.308518 0.160085 127 127 0
-0.455411 0.246661 -0.044550 255 0 0
0.455505 -0.100298 -0.215674 153 0 76
0.063408 0.288172 0.219781 127 127 0
-0.288320 0.122555 -0.313121 76 153 0
0.752226 0.335940 -0.420205 0 127 127
0.417520 0.288172 -0.372478 0 127 127
0.444097 -0.441906 0.273770 153 0 76
0.364982 -0.407876 -0.155587 76 0 153
-0.407223 -0.197576 0.294489 204 51 127
0.591948 0.363131 -0.359940 0 127 127
0.444097 0.225839 -0.068224 0 0 255
-0.235809 0.330288 -0.420205 0 127 127
-0.273186 0.288172 0.307092 0 127 127
0.738578 -0.296656 0.223010 204 51 127
-0.488732 -0.207985 -0.008035 204 51 127
0.762707 0.363131 0.066408 0 127 127
0.737434 0.138254 -0.166013 153 0 76
0.505177 0.202504 0.304074 153 0 76
-0.749893 -0.000689 0.206657 127 0 127
-0.595476 0.363131 0.120310 0 127 127
-0.650362 -0.207985 0.288724 76 0 153
0.472347 0.288172 0.126300 0 127 127
0.585173 -0.176126 -0.313121 153 0 76
0.507157 -0.292379 -0.226382 0 0 255
-0.363384 0.246064 -0.282066 76 153 0
-0.535335 -0.322789 -0.204965 127 0 127
0.770704 -0.126969 0.322008 153 0 76
-0.543927 0.307723 -0.420205 0 127 127
0.001523 -0.140489 -0.282066 76 153 0
-0.281618 -0.022066 -0.313121 76 153 0
-0.416604 0.138254 0.322318 0 255 0
0.690390 -0.283315 -0.266154 153 0 76
-0.606762 0.363131 0.217368 0 127 127
-0.330083 0.152105 -0.313121 76 153 0
0.698410 0.362783 0.416619 0 127 127
0.050510 0.295104 0.393981 127 127 0
-0.599405 -0.142071 -0.226382 153 0 76
-0.663762 -0.407876 0.229680 0 127 127
-0.749893 -0.105120 0.246700 76 0 153
0.580187 0.288172 0.215499 0 127 127
0.342737 0.288172 0.331345 0 127 127
0.404647 -0.165595 0.329385 127 0 127
-0.026962 -0.206886 -0.313121 76 153 0
-0.657402 -0.029512 -0.099801 76 153 0
-0.231264 0.288172 0.157931 127 127 0
-0.375098 -0.312320 0.329084 76 0 153
0.395909 -0.338126 0.003812 153 0 76
-0.862331 0.314496 0.216469 0 127 127
-0.469999 -0.253635 0.329385 255 0 0
0.654400 -0.275023 0.329385 76 0 153
0.586146 0.019338 0.329385 153 76 0
0.495364 0.138254 0.101639 153 0 76
0.363783 -0.274881 -0.021659 76 0 153
0.770704 -0.343943 0.112125 204 51 127
-0.474373 0.139990 -0.313121 0 127 127
-0.506421 -0.356024 0.307968 255 0 0
-0.612109 0.363131 -0.386821 0 127 127
0.770704 0.052419 0.149405 153 0 76
0.486952 0.245581 -0.313121 0 0 255
0.750095 0.318557 0.436469 0 127 127
0.770704 0.039755 -0.197553 153 0 76
0.738578 -0.341693 -0.191105 204 51 127
-0.571967 -0.493543 -0.129663 204 51 127
0.738578 0.102906 0.243874 153 0 76
0.508671 -0.407876 -0.147525 255 0 0
-0.561548 0.288172 -0.295204 255 0 0
0.444889 -0.351588 0.307968 76 0 153
0.610790 0.202504 0.224683 153 0 76
-0.772566 0.202504 0.286898 153 76 0
0.635613 0.075097 -0.226382 204 51 127
0.066727 0.186376 -0.313121 76 153 0
-0.415155 0.057652 0.329385 0 255 0
0.454683 -0.493543 0.174237 153 0 76
0.552633 0.003727 -0.313121 153 0 76
-0.407223 0.107214 -0.032061 127 127 0
-0.658808 -0.407876 0.149992 0 127 127
-0.782018 -0.368604 0.152263 153 76 0
-0.488808 0.051333 -0.204965 0 127 127
-0.717385 -0.376108 0.101809 0 127 127
0.690749 -0.376108 -0.108446 255 0 0
0.411868 -0.113286 -0.215674 153 0 76
-0.618363 0.315396 0.436469 0 127 127
-0.503471 0.202504 -0.201633 255 0 0
0.581409 -0.241632 0.329385 76 0 153
-0.375098 0.072170 -0.045163 76 0 153
-0.533987 -0.419113 -0.313121 204 51 127
-0.633573 0.288172 -0.332680 0 127 127
0.363783 -0.330166 -0.064951 153 0 76
-0.385806 -0.344576 0.232547 76 0 153
-0.340353 0.355133 0.430965 0 127 127
0.818146 0.363131 0.303996 0 127 127
-0.375098 -0.082908 0.230710 76 0 153
-0.153246 0.288172 -0.017242 0 127 127
-0.203676 0.278355 -0.313121 76 153 0
0.622781 0.048630 0.329385 153 76 0
-0.077963 0.228458 -0.282066 76 153 0
-0.471932 0.062808 0.307968 0 255 0
-0.375098 0.037909 -0.095409 76 0 153
-0.375098 -0.298530 0.122890 0 255 0
0.516862 -0.493543 0.224198 153 0 76
-0.407223 -0.288854 -0.098155 0 255 0
-0.407223 -0.136758 0.182706 153 76 0
0.738578 0.098149 -0.007459 153 0 76
-0.749893 -0.067305 0.178137 76 0 153
-0.017384 0.329315 -0.420205 0 127 127
0.464905 -0.259972 -0.226382 0 0 255
-0.606095 0.138254 0.229909 0 127 127
-0.595664 0.138254 -0.073957 0 127 127
-0.496290 -0.493543 -0.103706 204 51 127
-0.685160 0.302496 0.436469 0 127 127
0.660578 -0.407876 0.261966 255 0 0
0.083761 0.288172 -0.379062 0 127 127
-0.782018 0.062990 0.046213 153 76 0
-0.375098 -0.205566 -0.192766 76 0 153
0.715293 0.075090 0.307968 153 76 0
-0.375098 -0.019060 0.182468 76 0 153
-0.781607 0.071027 0.329385 0 255 0
-0.750147 -0.241181 0.093445 127 127 0
0.656171 0.363131 0.180324 0 127 127
0.637764 -0.407770 -0.226382 153 0 76
-0.681211 -0.197634 -0.042448 204 51 127
0.770704 -0.301628 0.133088 153 0 76
-0.620122 0.300197 -0.419681 0 127 127
0.459639 -0.046220 0.318676 127 0 127
-0.407223 -0.325673 0.074038 0 255 0
-0.764394 0.288172 -0.221240 0 127 127
0.770704 -0.331491 -0.058224 153 0 76
0.690390 -0.480484 -0.094123 153 0 76
-0.673287 0.005101 -0.204965 0 127 127
-0.749893 0.054035 -0.120730 127 0 127
0.115495 -0.111969 -0.282066 76 153 0
0.363783 -0.311225 0.091456 76 0 153
-0.782018 -0.141371 0.187673 153 76 0
0.673236 0.288172 0.426684 0 127 127
0.770704 0.059638 0.298174 153 0 76
-0.862331 0.330210 -0.331813 0 127 127
-0.771310 -0.008949 0.080922 153 76 0
0.363783 -0.169200 0.085886 76 0 153
-0.467559 -0.407876 -0.153716 0 127 127
0.259808 -0.180014 -0.313121 76 153 0
-0.449948 -0.407876 -0.030408 0 127 127
0.299216 0.288172 -0.309264 0 255 0
0.363783 -0.226550 -0.034200 76 0 153
0.607151 -0.071878 -0.204965 153 0 76
0.851017 0.304874 -0.338491 0 127 127
-0.412279 0.251668 -0.282066 0 255 0
0.627688 0.288172 0.027834 0 127 127
-0.407223 -0.093208 -0.025171 153 76 0
-0.592057 -0.376108 -0.050437 0 127 127
0.064992 -0.168965 -0.313121 76 153 0
-0.383390 -0.407876 0.200181 76 0 153
0.506839 0.010477 0.329385 153 76 0
-0.604815 -0.407876 0.070523 0 127 127
-0.526561 0.202504 0.153162 0 127 127
0.396755 0.363131 -0.258870 0 127 127
0.197402 0.308518 0.136504 127 127 0
0.738578 0.053180 -0.121711 153 0 76
-0.375098 -0.219305 -0.071320 76 0 153
0.770704 -0.222206 -0.027417 153 0 76
0.653257 -0.045794 -0.226382 153 0 76
-0.361442 0.363131 -0.293350 0 127 127
-0.631074 -0.019160 0.187795 76 153 0
-0.269117 0.288172 -0.020963 0 127 127
-0.546110 -0.493543 0.039021 204 51 127
-0.644138 0.363131 -0.149197 0 127 127
-0.242898 0.363131 -0.176992 0 127 127
0.348050 0.363131 -0.263387 0 127 127
-0.771310 -0.168707 0.150000 153 76 0
-0.492090 -0.493543 0.228805 204 51 127
0.553601 -0.407876 -0.110431 153 0 76
-0.597099 -0.100955 0.307968 76 0 153
0.770704 0.144093 0.318520 153 0 76
0.254963 0.288172 0.079812 0 127 127
-0.455411 -0.423498 0.037065 76 0 153
0.706449 -0.376108 0.164966 255 0 0
0.395909 0.042997 0.113849 76 0 153
-0.628876 -0.407876 -0.119190 0 127 127
0.385200 -0.372020 0.295842 76 0 153
0.524426 0.138254 0.298471 153 0 76
0.589159 -0.197634 -0.012562 76 0 153
0.377958 0.202904 -0.313121 76 153 0
-0.375098 -0.130598 0.262019 76 0 153
-0.690399 -0.019160 0.251881 76 153 0
-0.782018 -0.097743 0.048795 153 76 0
-0.197769 0.363131 0.050596 0 127 127
0.369616 -0.105838 0.329385 127 0 127
0.303174 0.011807 -0.313121 76 153 0
-0.591399 -0.376108 0.157318 0 127 127
-0.407223 -0.368623 -0.044767 0 255 0
0.395909 0.068504 -0.141835 76 0 153
-0.666487 -0.407876 -0.156340 0 127 127
-0.469613 -0.029512 0.296950 76 153 0
0.593907 -0.019160 0.292575 0 0 255
-0.782018 -0.296821 -0.047219 127 127 0
0.395909 -0.183076 0.018362 0 127 127
0.749287 -0.363801 0.184727 204 51 127
-0.407223 0.039818 0.215451 76 0 153
-0.490967 -0.204825 -0.313121 0 127 127
0.319161 0.066704 -0.313121 76 153 0
-0.590485 0.030777 0.307968 0 255 0
0.042316 0.340643 0.393788 0 127 127
0.475132 -0.407876 0.062507 153 0 76
-0.154773 0.363131 0.136795 0 127 127
-0.682475 -0.197634 0.193284 204 51 127
0.670368 0.136318 -0.215674 204 51 127
0.263991 0.363131 0.259844 0 127 127
-0.782018 -0.271052 0.244169 153 76 0
0.682723 -0.376108 0.100559 255 0 0
-0.598804 0.288172 0.406656 0 127 127
-0.211413 0.340643 0.195113 0 127 127
-0.466386 -0.207985 0.302673 76 0 153
-0.701705 0.161442 -0.305614 0 127 127
0.363783 0.078022 0.101182 76 0 153
0.466486 0.138254 0.016536 153 0 76
0.180351 0.252172 -0.313121 0 255 0
0.444097 0.245413 -0.158860 0 0 255
-0.075609 0.290225 0.436469 127 127 0
0.749287 0.113019 0.189024 153 0 76
0.690390 -0.018770 -0.255091 153 0 76
0.544544 -0.197634 0.023464 76 0 153
-0.274239 0.363131 -0.365791 0 127 127
-0.782018 -0.168706 0.246697 153 76 0
-0.367986 -0.076671 -0.313121 76 153 0
0.738578 -0.247162 0.136670 204 51 127
-0.464438 0.138254 0.133782 0 127 127
0.473786 -0.141687 -0.313121 153 0 76
0.770704 0.119146 -0.029149 153 0 76
0.545652 0.363131 0.110030 0 127 127
0.395909 -0.355283 0.070103 153 0 76
0.560027 0.196818 -0.313121 0 0 255
-0.799755 0.363131 -0.194239 0 127 127
-0.782018 0.063738 -0.177451 153 76 0
-0.580733 -0.207301 -0.313121 0 127 127
-0.037631 0.288172 0.019333 0 127 127
0.259652 0.218102 -0.313121 76 153 0
0.732819 -0.001419 0.307968 153 0 76
-0.607316 -0.171380 0.307968 76 0 153
-0.781716 -0.331134 -0.222768 153 76 0
0.444097 -0.489878 0.026206 153 0 76
0.029029 0.288172 0.059441 0 127 127
0.374644 -0.120141 -0.313121 76 153 0
-0.515349 0.126918 -0.226382 0 127 127
0.457401 -0.175400 -0.215674 153 0 76
-0.566519 -0.102405 -0.215674 0 127 127
0.537899 -0.206408 0.329385 127 0 127
0.285644 0.363131 0.386814 0 127 127
0.565466 0.138254 0.079545 153 0 76
-0.770769 -0.407876 -0.137066 153 76 0
-0.065189 0.288172 0.147823 127 127 0
0.504373 -0.301822 -0.313121 153 0 76
-0.131996 -0.194554 -0.313121 76 153 0
0.699356 0.363131 0.137824 0 127 127
-0.152144 0.288172 -0.338388 0 127 127
-0.749893 0.094593 0.263982 127 0 127
0.444769 0.202504 0.238580 0 0 255
-0.324210 0.000158 -0.313121 76 153 0
-0.681629 0.288172 0.327739 0 127 127
0.667304 -0.493543 0.289215 153 0 76
-0.558884 -0.407876 0.319110 255 0 0
-0.375098 -0.277938 -0.069441 76 0 153
-0.193218 -0.095385 -0.313121 76 153 0
-0.140611 0.244903 -0.282066 76 153 0
-0.313675 0.193460 -0.282066 76 153 0
-0.833782 0.362529 -0.402287 0 127 127
0.738578 -0.193565 0.094814 76 153 0
-0.183202 -0.032910 -0.313121 76 153 0
0.682943 -0.207985 0.037159 76 0 153
-0.407223 -0.284853 0.245571 0 255 0
0.168859 0.288172 0.082131 0 127 127
-0.456088 0.202504 0.029082 255 0 0
-0.498375 -0.380788 -0.313121 0 127 127
-0.448385 -0.019160 -0.109473 76 153 0
0.557488 -0.029512 0.314707 153 76 0
0.631092 -0.094733 -0.313121 153 0 76
-0.749893 0.008567 -0.194301 76 153 0
-0.701705 0.225272 0.288902 255 0 0
-0.523913 -0.407876 -0.070526 0 127 127
-0.401889 0.138254 0.093473 127 127 0
-0.391181 0.057768 -0.313121 76 153 0
-0.110055 -0.138936 -0.313121 76 153 0
0.452944 -0.207985 0.183847 76 0 153
-0.421432 0.012392 -0.215674 0 127 127
0.585971 0.288172 -0.283745 0 127 127
-0.495774 -0.407876 0.045618 0 127 127
-0.219715 0.333101 0.436469 127 127 0
-0.407223 -0.087853 -0.135974 153 76 0
-0.403638 -0.397168 -0.084656 0 127 127
-0.407223 -0.091463 0.190780 153 76 0
0.416324 0.363131 0.142870 0 127 127
0.034674 0.020242 -0.282066 76 153 0
0.690795 0.288172 0.014570 0 127 127
-0.407481 0.363131 -0.106400 0 127 127
-0.529395 -0.050802 -0.226382 153 0 76
0.587366 -0.406383 -0.226382 153 0 76
-0.025588 0.288172 0.135043 127 127 0
-0.543930 0.363131 0.281619 0 127 127
-0.749893 -0.267416 -0.071952 127 127 0
-0.642864 -0.376108 0.118910 0 127 127
-0.267067 0.363131 -0.131845 0 127 127
-0.430351 -0.285724 -0.226382 76 0 153
0.519009 0.202504 0.053680 153 0 76
0.362100 0.363131 -0.009534 0 127 127
0.546231 0.202504 -0.168743 153 0 76
0.281213 -0.154678 -0.282066 76 153 0
0.714910 0.288172 -0.311613 0 127 127
-0.197795 -0.193799 -0.282066 76 153 0
0.568438 0.363131 0.386879 0 127 127
0.363783 0.072175 0.240098 76 0 153
-0.407223 -0.160259 0.130929 76 0 153
-0.396515 -0.173584 0.070985 153 76 0
-0.693562 -0.197634 0.112237 204 51 127
-0.258596 0.363131 0.001491 0 127 127
0.851017 0.308379 0.252584 0 127 127
-0.636509 0.202504 0.243779 0 127 127
0.550666 -0.407876 0.017763 153 0 76
0.690390 0.065053 -0.239699 153 0 76
-0.499613 -0.197634 0.127098 204 51 127
-0.488916 -0.236449 -0.226382 0 127 127
0.770704 -0.296730 0.084900 153 0 76
0.770704 -0.168234 -0.099714 153 0 76
-0.749893 -0.098457 -0.197870 76 0 153
0.409848 -0.207985 0.081232 76 0 153
-0.771310 -0.189150 -0.195866 153 76 0
0.266705 0.288172 -0.161400 0 127 127
-0.464741 -0.149656 0.307968 76 0 153
0.445133 -0.376108 -0.192468 0 0 255
-0.056870 0.340643 0.231679 0 127 127
0.531385 0.202504 -0.079894 153 0 76
-0.511847 0.138254 -0.174854 0 127 127
-0.760601 -0.089913 -0.023604 153 76 0
-0.285998 -0.077316 -0.282066 76 153 0
0.474959 0.363131 0.295695 0 127 127
0.033847 0.288172 -0.245637 0 127 127
0.011625 0.058815 -0.282066 76 153 0
-0.749893 0.020658 0.282431 127 0 127
0.581977 -0.104051 0.329385 127 0 127
-0.611437 -0.493543 0.081626 204 51 127
-0.467763 -0.407876 0.177303 0 127 127
-0.224413 0.024866 -0.282066 76 153 0
-0.749893 -0.138248 0.270957 76 0 153
-0.620108 -0.197634 -0.174657 204 51 127
0.523697 -0.376108 0.262317 255 0 0
0.469743 0.363131 0.160287 0 127 127
-0.671262 -0.040220 0.326589 76 0 153
0.417611 -0.115060 0.329385 127 0 127
0.770704 -0.111639 0.278678 153 0 76
0.374492 0.122077 0.153094 76 0 153
0.770704 -0.041774 0.286842 153 0 76
0.373286 0.202504 0.137582 76 0 153
0.401477 0.288172 0.082854 0 127 127
-0.862331 0.313206 -0.058344 0 127 127
-0.682124 0.363131 0.340881 0 127 127
0.648229 0.363131 -0.279709 0 127 127
-0.401691 -0.241181 0.144114 0 255 0
0.460401 0.363131 -0.197656 0 127 127
0.527791 0.363131 -0.356737 0 127 127
-0.731337 -0.207877 -0.215674 153 0 76
0.117467 0.251977 -0.282066 76 153 0
0.320753 0.288172 0.293348 0 127 127
0.582724 0.288172 0.433466 0 127 127
0.457681 -0.244613 0.307968 76 0 153
-0.375098 -0.202714 0.153785 76 0 153
-0.250062 0.288172 0.264546 127 127 0
-0.736681 -0.345553 0.329385 255 0 0
-0.066149 0.363131 0.035755 0 127 127
0.124829 -0.057866 -0.282066 76 153 0
0.516252 -0.282053 0.307968 76 0 153
-0.530163 0.138254 0.158059 0 127 127
0.738578 0.054508 0.077341 153 0 76
0.743526 0.115766 -0.088593 153 0 76
0.831783 0.288172 -0.021836 0 127 127
-0.464277 0.363131 -0.227545 0 127 127
0.711885 -0.019160 0.060846 0 0 255
0.450975 0.092894 -0.313121 76 153 0
0.127420 0.072975 -0.313121 76 153 0
0.501802 0.340249 0.436469 0 127 127
-0.517092 -0.019160 -0.098986 76 153 0
-0.170231 0.062852 -0.313121 76 153 0
0.684134 -0.213179 0.329385 127 0 127
-0.749893 -0.139937 0.035921 76 0 153
0.738578 -0.069964 -0.180325 76 153 0
-0.731702 -0.407876 0.047313 153 76 0
-0.375098 -0.048851 -0.188180 76 0 153
0.690390 -0.435686 0.107412 153 0 76
-0.377824 0.363131 -0.246970 0 127 127
-0.209881 0.103782 -0.282066 76 153 0
-0.503228 0.202504 0.233910 255 0 0
-0.101664 -0.033069 -0.313121 76 153 0
0.213406 0.288172 -0.247075 0 127 127
-0.782018 -0.097793 -0.113630 153 76 0
-0.055183 0.298880 0.352544 127 127 0
0.540520 0.288172 0.065213 0 127 127
-0.692750 -0.029512 -0.035327 76 153 0
-0.861196 0.298346 0.039063 0 127 127
0.636931 -0.176217 -0.226382 153 0 76
0.550614 0.288172 -0.378688 0 127 127
-0.695890 0.202504 0.055004 255 0 0
0.642910 0.138254 0.035063 153 0 76
-0.460686 -0.019160 0.169741 76 153 0
0.690390 0.235274 -0.072707 0 0 255
-0.762164 0.288172 -0.146644 0 127 127
-0.201873 0.288172 -0.159632 0 127 127
-0.519308 -0.003149 0.307968 0 255 0
-0.407223 -0.143211 0.232510 153 76 0
-0.540726 0.040883 -0.313121 0 127 127
0.363783 -0.102275 0.209296 76 0 153
-0.394926 0.202504 0.059435 76 0 153
-0.514206 -0.178750 -0.226382 0 127 127
-0.676315 -0.493543 -0.041300 204 51 127
-0.701705 0.255511 0.196402 255 0 0
-0.589657 -0.019160 -0.138190 76 153 0
0.825160 0.288172 0.431789 0 127 127
0.103115 0.288172 -0.137291 0 127 127
0.607209 0.302875 -0.420116 0 127 127
0.363783 0.164998 0.101850 76 0 153
-0.688920 -0.197634 -0.181519 204 51 127
-0.489089 -0.376108 -0.139680 0 127 127
0.664927 -0.493543 0.205877 153 0 76
0.389333 0.089440 -0.282066 76 153 0
0.496661 -0.407876 -0.000543 153 0 76
-0.749893 -0.169353 0.186972 76 0 153
-0.062646 0.250172 -0.313121 0 255 0
-0.527217 -0.119218 -0.226382 153 0 76
-0.552611 -0.310363 0.329385 255 0 0
-0.407223 0.042138 0.039128 127 127 0
-0.677049 0.202504 0.218444 255 0 0
0.166438 -0.129012 -0.313121 76 153 0
-0.760601 -0.306073 0.291519 153 76 0
0.235282 0.326194 0.377055 0 127 127
0.731096 -0.029512 0.179448 0 0 255
-0.671729 0.288172 -0.115036 0 127 127
0.395909 -0.085297 -0.096777 76 0 153
-0.654682 -0.376108 -0.193623 127 0 127
-0.760601 -0.375838 0.253152 127 127 0
0.333316 0.363131 0.050292 0 127 127
-0.751983 0.363131 -0.131355 0 127 127
0.825473 0.363131 -0.249561 0 127 127
0.710890 0.138254 0.052893 153 0 76
-0.743473 -0.407876 -0.094430 153 76 0
0.738578 -0.126306 -0.107968 76 153 0
-0.375098 0.064160 -0.145804 76 0 153
-0.760601 0.079156 0.076732 127 0 127
0.531947 0.000589 -0.215674 204 51 127
-0.468195 -0.029512 0.037425 76 153 0
-0.407223 -0.255331 -0.137767 0 255 0
-0.556448 -0.359072 -0.204965 127 0 127
0.395909 -0.272498 0.217869 153 0 76
0.652887 -0.127540 -0.226382 153 0 76
-0.718608 0.363131 -0.240095 0 127 127
-0.544764 0.363131 0.069408 0 127 127
-0.375098 -0.027340 0.022146 76 0 153
-0.141028 0.121788 -0.313121 76 153 0
