ply
format ascii 1.0
element vertex 623
property float x
property float y
property float z
property float nx
property float ny
property float nz
property uchar red
property uchar green
property uchar blue
property float opacity
end_header
0.103915 -0.520721 -0.081475 0.000000 -1.000000 0.000000 143 74 31 1.000000
-0.216813 -0.411145 -0.146634 -0.000000 -0.000000 1.000000 154 89 45 1.000000
-0.048979 -0.270117 0.173193 0.000000 0.000000 -1.000000 154 87 44 1.000000
-0.035451 0.580919 -0.114911 0.000000 1.000000 0.000000 153 86 43 1.000000
0.092522 -0.165129 0.160398 0.000000 0.000000 -1.000000 243 215 164 1.000000
-0.081899 0.184120 0.050050 0.000000 1.000000 0.000000 248 217 169 1.000000
-0.146013 -0.533517 0.005000 0.000000 1.000000 0.000000 157 92 48 1.000000
0.239435 -0.306069 -0.054970 0.000000 1.000000 0.000000 255 249 249 1.000000
-0.262780 -0.244828 0.059064 -0.000000 -0.001288 -0.999999 255 255 255 1.000000
-0.160059 -0.360574 0.173193 0.000000 0.000000 -1.000000 160 89 45 1.000000
-0.089209 -0.119423 0.173193 0.000000 0.000000 -1.000000 156 85 45 1.000000
-0.160831 -0.248683 -0.133838 0.000000 0.000000 -1.000000 145 78 39 1.000000
-0.260020 -0.457807 -0.111916 -1.000000 0.000000 0.000000 241 212 162 1.000000
0.170645 0.376189 0.042247 0.000000 1.000000 0.000000 151 81 41 1.000000
-0.244143 -0.142110 -0.049824 0.000000 1.000000 0.000000 241 213 161 1.000000
-0.237824 -0.465302 0.067272 1.000000 0.000000 0.000000 244 216 170 1.000000
0.174157 -0.368523 -0.104491 0.000000 -0.000000 -1.000000 137 77 41 1.000000
0.095781 -0.089919 0.131981 0.000000 1.000000 0.000000 244 212 161 1.000000
0.095458 0.593715 -0.097976 0.000000 1.000000 0.000000 246 217 168 1.000000
0.187880 -0.158121 0.173193 0.000000 -0.000000 1.000000 241 211 166 1.000000
-0.271916 0.388985 -0.047173 0.000000 1.000000 0.000000 245 216 164 1.000000
-0.260020 -0.209969 0.026915 -1.000000 0.000000 0.000000 242 213 161 1.000000
-0.236532 -0.523152 0.133547 0.000000 1.000000 0.000000 255 249 249 1.000000
0.269426 0.947021 0.068357 -0.859179 0.511667 0.002919 255 255 255 1.000000
-0.104838 0.785784 -0.110032 0.000000 -1.000000 0.000000 241 222 173 1.000000
-0.181155 -0.308500 -0.005561 0.000000 1.000000 0.000000 152 89 46 1.000000
0.034604 0.785784 -0.006043 0.000000 1.000000 0.000000 149 79 39 1.000000
-0.114261 -0.523152 0.090733 0.000000 1.000000 0.000000 255 249 249 1.000000
-0.260020 -0.136006 -0.020679 -1.000000 0.000000 0.000000 247 219 167 1.000000
0.072429 0.580919 -0.088786 0.000000 -1.000000 0.000000 247 215 172 1.000000
0.226936 0.798580 -0.113419 0.000000 1.000000 0.000000 244 214 164 1.000000
0.004732 -0.443345 0.160398 0.000000 -0.000000 1.000000 162 93 48 1.000000
0.285806 -0.549161 0.066650 -1.000000 0.000000 0.000000 255 255 255 1.000000
-0.237824 -0.203130 -0.071587 -1.000000 0.000000 0.000000 148 77 43 1.000000
-0.091964 -0.306069 -0.034289 0.000000 1.000000 0.000000 255 249 249 1.000000
-0.201153 -0.520721 -0.046966 0.000000 1.000000 0.000000 243 213 163 1.000000
0.167848 -0.361320 -0.133838 -0.000000 -0.000000 1.000000 243 213 165 1.000000
-0.045310 0.171325 0.057787 0.000000 1.000000 0.000000 155 84 44 1.000000
-0.227929 -0.154386 0.173193 0.000000 -0.000000 1.000000 242 212 156 1.000000
0.141199 0.184120 0.047306 0.000000 -1.000000 0.000000 159 93 47 1.000000
0.128850 0.388985 -0.118180 0.000000 1.000000 0.000000 242 210 150 1.000000
0.031165 0.388985 -0.114293 0.000000 1.000000 0.000000 243 214 165 1.000000
-0.275531 0.878375 0.069269 0.879023 0.000385 0.476779 255 255 255 1.000000
-0.260020 -0.224031 -0.104936 1.000000 -0.000000 0.000000 147 82 38 1.000000
0.284261 -0.079823 0.060537 0.185873 -0.001193 -0.982573 255 255 255 1.000000
-0.210956 0.593715 0.056955 0.000000 1.000000 0.000000 246 217 171 1.000000
-0.214789 -0.132264 -0.146634 0.000000 0.000000 -1.000000 243 213 164 1.000000
0.055066 -0.089919 -0.017039 0.000000 -1.000000 0.000000 156 87 42 1.000000
-0.261947 -0.138468 0.073987 0.528538 0.000548 0.848910 255 255 255 1.000000
-0.170239 0.593715 -0.029762 0.000000 1.000000 0.000000 243 210 157 1.000000
-0.121381 0.388985 0.048045 0.000000 -1.000000 0.000000 166 97 52 1.000000
-0.227140 0.785784 0.040884 0.000000 1.000000 0.000000 152 83 38 1.000000
-0.186741 -0.533517 0.136280 0.000000 -1.000000 0.000000 243 213 164 1.000000
-0.277076 0.381489 0.050442 -1.000000 0.000000 0.000000 241 212 160 1.000000
-0.038139 0.798580 -0.023123 0.000000 -1.000000 0.000000 158 89 46 1.000000
0.222923 0.593715 -0.112247 0.000000 -1.000000 0.000000 142 72 32 1.000000
-0.116803 -0.328846 -0.146634 0.000000 0.000000 -1.000000 243 214 161 1.000000
0.184630 -0.219239 -0.133838 0.000000 0.000000 -1.000000 154 85 40 1.000000
0.241485 -0.253315 -0.104491 0.000000 -0.000000 -1.000000 153 86 43 1.000000
0.231989 -0.237016 -0.117287 0.000000 0.000000 1.000000 147 77 37 1.000000
-0.110491 -0.141710 0.160398 0.000000 -0.000000 1.000000 154 90 50 1.000000
0.268911 -0.417645 -0.132035 -1.000000 0.000000 0.000000 161 95 46 1.000000
0.205125 0.376189 0.033783 0.000000 -1.000000 0.000000 242 213 161 1.000000
-0.062748 -0.495904 0.160398 0.000000 -0.000000 1.000000 147 80 39 1.000000
0.232899 -0.137412 0.160398 0.000000 -0.000000 1.000000 155 90 48 1.000000
0.087718 -0.306069 0.137604 0.000000 -1.000000 0.000000 152 81 41 1.000000
0.070151 -0.485820 0.173193 0.000000 0.000000 -1.000000 158 84 43 1.000000
-0.247224 -0.386693 0.139904 -1.000000 0.000000 0.000000 145 76 33 1.000000
-0.046058 -0.102715 0.011388 0.000000 1.000000 0.000000 155 89 43 1.000000
-0.136426 0.785784 -0.104104 0.000000 -1.000000 0.000000 244 211 157 1.000000
-0.260020 -0.492403 -0.051273 1.000000 -0.000000 0.000000 146 79 36 1.000000
0.124887 0.785784 -0.002965 0.000000 1.000000 0.000000 152 82 42 1.000000
0.175591 -0.225298 -0.146634 -0.000000 -0.000000 1.000000 153 87 41 1.000000
0.040287 -0.260483 0.173193 0.000000 0.000000 -1.000000 146 79 38 1.000000
-0.156948 -0.523152 -0.055540 0.000000 1.000000 0.000000 255 249 249 1.000000
-0.026863 -0.428575 -0.117287 0.000000 -0.000000 -1.000000 242 213 165 1.000000
-0.260020 -0.515911 0.118464 1.000000 -0.000000 0.000000 154 87 44 1.000000
-0.159339 0.593715 0.014356 0.000000 -1.000000 0.000000 155 86 41 1.000000
-0.105207 -0.247765 0.173193 0.000000 -0.000000 1.000000 247 215 164 1.000000
-0.142169 -0.308500 0.005130 0.000000 1.000000 0.000000 150 87 44 1.000000
-0.237824 -0.166100 -0.041152 1.000000 0.000000 0.000000 243 213 163 1.000000
-0.035554 0.184120 -0.030262 0.000000 1.000000 0.000000 243 207 147 1.000000
0.130880 -0.285153 -0.117287 0.000000 -0.000000 -1.000000 246 216 166 1.000000
0.285806 0.140249 0.060986 -1.000000 0.000000 0.000000 255 255 255 1.000000
-0.033131 -0.127687 -0.146634 -0.000000 -0.000000 1.000000 157 90 49 1.000000
-0.033658 -0.102715 0.071616 0.000000 -1.000000 0.000000 239 210 159 1.000000
-0.215060 -0.145811 -0.117287 0.000000 0.000000 1.000000 148 81 40 1.000000
0.074142 -0.102715 -0.077694 0.000000 1.000000 0.000000 156 89 48 1.000000
0.011010 -0.335331 0.173193 0.000000 0.000000 -1.000000 153 84 39 1.000000
0.260406 -0.394778 0.002544 1.000000 0.000000 0.000000 244 215 167 1.000000
0.176472 -0.387917 0.160398 0.000000 0.000000 -1.000000 241 206 150 1.000000
0.104742 -0.175855 0.173193 0.000000 -0.000000 1.000000 240 212 160 1.000000
0.213766 -0.102715 0.002590 0.000000 1.000000 0.000000 149 80 35 1.000000
0.247611 -0.181545 -0.104361 -1.000000 0.000000 0.000000 242 211 158 1.000000
-0.043648 -0.507778 -0.133838 0.000000 0.000000 -1.000000 154 85 42 1.000000
0.162595 -0.388916 -0.117287 0.000000 0.000000 1.000000 150 83 40 1.000000
-0.235863 0.376189 -0.080509 0.000000 -1.000000 0.000000 242 215 163 1.000000
0.181841 -0.223581 -0.104491 0.000000 0.000000 1.000000 249 221 172 1.000000
0.078204 0.376189 -0.071622 0.000000 -1.000000 0.000000 248 219 167 1.000000
0.195946 -0.460998 0.173193 0.000000 -0.000000 1.000000 241 211 165 1.000000
-0.250619 -0.407820 -0.101579 1.000000 0.000000 0.000000 164 99 55 1.000000
0.170415 0.580919 -0.039835 0.000000 1.000000 0.000000 153 86 47 1.000000
-0.250619 -0.506940 -0.095261 1.000000 0.000000 0.000000 138 75 30 1.000000
0.085556 0.785784 -0.119008 0.000000 1.000000 0.000000 158 92 46 1.000000
0.018487 -0.144655 -0.117287 0.000000 -0.000000 -1.000000 243 213 166 1.000000
0.285806 0.034315 0.068300 1.000000 0.000000 -0.000000 255 255 255 1.000000
-0.081569 -0.102715 0.024598 0.000000 1.000000 0.000000 157 91 45 1.000000
-0.175343 -0.134209 0.160398 0.000000 -0.000000 1.000000 152 88 48 1.000000
0.206718 -0.089919 -0.095804 0.000000 -1.000000 0.000000 152 82 34 1.000000
-0.158980 -0.533517 0.129028 0.000000 1.000000 0.000000 151 86 42 1.000000
0.186368 -0.286645 -0.133838 0.000000 0.000000 -1.000000 156 87 44 1.000000
0.174731 -0.161295 0.160398 0.000000 -0.000000 1.000000 155 89 43 1.000000
0.046781 -0.120402 0.160398 0.000000 -0.000000 1.000000 154 89 45 1.000000
-0.067077 -0.393489 -0.117287 0.000000 -0.000000 -1.000000 250 219 173 1.000000
0.229664 -0.137824 -0.133838 -0.000000 -0.000000 1.000000 248 217 175 1.000000
0.056360 -0.183837 0.160398 0.000000 -0.000000 1.000000 160 94 48 1.000000
-0.148007 0.388985 0.032146 0.000000 1.000000 0.000000 244 213 163 1.000000
-0.260020 -0.189118 0.120278 -1.000000 0.000000 0.000000 241 212 160 1.000000
-0.272891 0.783375 -0.067439 -0.000636 1.000000 0.000001 202 208 218 1.000000
0.153194 0.376189 -0.052342 0.000000 1.000000 0.000000 160 94 56 1.000000
0.268911 -0.138684 -0.109769 1.000000 -0.000000 0.000000 246 216 166 1.000000
-0.277076 0.592761 0.040200 -1.000000 0.000000 0.000000 247 218 172 1.000000
0.238934 0.171325 -0.072890 0.000000 1.000000 0.000000 154 85 42 1.000000
-0.083183 -0.243942 0.173193 0.000000 0.000000 -1.000000 145 76 31 1.000000
0.132366 -0.316414 -0.133838 -0.000000 -0.000000 1.000000 241 213 160 1.000000
0.074226 -0.382928 -0.133838 -0.000000 -0.000000 1.000000 245 215 165 1.000000
-0.096823 -0.089919 0.132571 0.000000 1.000000 0.000000 244 214 163 1.000000
-0.210262 0.184120 -0.066927 0.000000 1.000000 0.000000 243 213 163 1.000000
-0.147879 0.184120 -0.119384 0.000000 -1.000000 0.000000 162 96 47 1.000000
-0.260020 -0.457030 0.027411 -1.000000 0.000000 0.000000 241 212 160 1.000000
-0.242269 -0.158771 0.161003 0.000000 0.000000 -1.000000 149 85 45 1.000000
0.268911 -0.314939 -0.134034 -1.000000 0.000000 0.000000 154 89 45 1.000000
0.160266 -0.520721 0.123930 0.000000 -1.000000 0.000000 144 79 37 1.000000
0.276382 0.771607 0.017723 1.000000 0.000000 0.000000 203 209 219 1.000000
-0.090455 0.798580 -0.021476 0.000000 -1.000000 0.000000 159 90 45 1.000000
-0.260020 -0.103970 0.121409 -1.000000 0.000000 0.000000 245 214 164 1.000000
-0.266379 -0.101871 0.069805 -0.000000 -0.000826 -1.000000 255 255 255 1.000000
-0.257026 -0.502689 0.160398 0.000000 -0.000000 1.000000 150 81 36 1.000000
0.260406 -0.161977 0.114227 1.000000 0.000000 0.000000 241 212 159 1.000000
0.228587 -0.533517 0.084931 0.000000 1.000000 0.000000 167 100 57 1.000000
0.240702 -0.089919 -0.097086 0.000000 -1.000000 0.000000 159 90 43 1.000000
-0.100468 -0.407608 -0.146634 0.000000 0.000000 -1.000000 239 213 160 1.000000
0.026315 -0.397016 -0.133838 -0.000000 -0.000000 1.000000 239 209 159 1.000000
0.020447 0.580919 0.052334 0.000000 -1.000000 0.000000 243 212 165 1.000000
-0.211542 0.171325 0.004513 0.000000 1.000000 0.000000 151 82 35 1.000000
-0.260092 0.579666 0.027590 -0.925827 0.377948 0.000000 205 211 221 1.000000
0.005262 -0.407839 -0.146634 -0.000000 -0.000000 1.000000 151 86 42 1.000000
0.256115 -0.116044 -0.068993 1.000000 -0.000000 0.000000 150 85 41 1.000000
0.269678 -0.015038 0.073534 -0.870748 0.000319 0.491729 255 255 255 1.000000
0.034180 0.580919 0.039372 0.000000 -1.000000 0.000000 241 213 159 1.000000
0.038232 -0.205304 -0.117287 0.000000 -0.000000 -1.000000 240 208 154 1.000000
0.173304 -0.226931 0.173193 0.000000 -0.000000 1.000000 242 213 159 1.000000
-0.026671 -0.102715 -0.136368 0.000000 1.000000 0.000000 149 84 38 1.000000
0.188121 0.171325 -0.119874 0.000000 -1.000000 0.000000 243 215 169 1.000000
-0.084777 0.580919 0.011479 0.000000 -1.000000 0.000000 244 215 163 1.000000
-0.175791 0.593715 0.002938 0.000000 -1.000000 0.000000 152 83 38 1.000000
0.169334 0.593715 0.054683 0.000000 -1.000000 0.000000 149 83 37 1.000000
0.052361 -0.290206 -0.117287 0.000000 -0.000000 -1.000000 245 215 169 1.000000
0.058982 -0.337148 -0.146634 0.000000 0.000000 -1.000000 241 213 161 1.000000
0.057223 0.376189 -0.081942 0.000000 1.000000 0.000000 150 79 39 1.000000
0.262870 0.798580 -0.103315 0.000000 1.000000 0.000000 239 218 169 1.000000
-0.096482 0.798580 0.035136 0.000000 -1.000000 0.000000 158 89 42 1.000000
0.159059 -0.261226 -0.117287 0.000000 -0.000000 -1.000000 242 213 160 1.000000
-0.031638 -0.089919 -0.022336 0.000000 -1.000000 0.000000 158 88 48 1.000000
-0.233017 0.184120 -0.092327 0.000000 1.000000 0.000000 240 214 162 1.000000
0.256115 -0.505647 -0.000169 -1.000000 0.000000 0.000000 247 217 166 1.000000
-0.187152 0.376189 -0.050945 0.000000 1.000000 0.000000 155 86 41 1.000000
-0.237824 -0.497805 -0.051480 1.000000 0.000000 0.000000 246 217 166 1.000000
0.115426 -0.250571 0.173193 0.000000 -0.000000 1.000000 238 208 158 1.000000
-0.157162 -0.521196 0.173193 0.000000 0.000000 -1.000000 163 94 47 1.000000
-0.093266 0.798580 -0.004420 0.000000 -1.000000 0.000000 161 92 47 1.000000
0.088462 -0.300911 -0.104491 0.000000 -0.000000 -1.000000 152 87 41 1.000000
0.219886 -0.530128 -0.146634 0.000000 0.000000 -1.000000 246 216 166 1.000000
0.188085 -0.241929 0.173193 0.000000 -0.000000 1.000000 245 216 163 1.000000
0.129192 -0.533517 0.065982 0.000000 1.000000 0.000000 149 80 35 1.000000
-0.220588 -0.366361 -0.117287 0.000000 0.000000 1.000000 155 88 45 1.000000
-0.077881 -0.129541 0.173193 0.000000 0.000000 -1.000000 158 87 43 1.000000
-0.276348 0.933471 0.067286 -1.000000 0.000000 0.000000 255 255 255 1.000000
-0.213659 -0.523152 0.067446 0.000000 -1.000000 0.000000 153 84 41 1.000000
-0.006255 -0.520721 0.080584 0.000000 1.000000 0.000000 244 214 167 1.000000
-0.247224 -0.370624 0.035957 1.000000 -0.000000 0.000000 243 214 162 1.000000
0.268911 -0.250323 -0.005585 -1.000000 0.000000 0.000000 149 82 41 1.000000
0.076229 -0.397935 -0.146634 0.000000 0.000000 -1.000000 243 213 163 1.000000
0.005332 0.376189 0.055818 0.000000 -1.000000 0.000000 242 213 161 1.000000
-0.202223 -0.241856 -0.146634 -0.000000 -0.000000 1.000000 160 94 48 1.000000
0.035176 -0.102715 -0.082002 0.000000 1.000000 0.000000 154 88 42 1.000000
0.208295 -0.150068 0.160398 0.000000 0.000000 -1.000000 243 214 163 1.000000
0.271612 0.064094 0.083121 0.000000 0.000254 1.000000 255 255 255 1.000000
-0.188915 -0.178357 -0.133838 -0.000000 -0.000000 1.000000 244 215 163 1.000000
-0.017510 -0.259033 0.160398 0.000000 0.000000 -1.000000 244 214 163 1.000000
0.217879 0.593715 -0.076064 0.000000 -1.000000 0.000000 140 73 30 1.000000
0.112802 0.593715 -0.050890 0.000000 -1.000000 0.000000 157 92 48 1.000000
0.026421 -0.308500 0.074008 0.000000 1.000000 0.000000 158 91 48 1.000000
-0.056881 0.184120 -0.001228 0.000000 1.000000 0.000000 244 215 163 1.000000
0.114582 -0.453896 0.160398 0.000000 0.000000 -1.000000 247 220 165 1.000000
0.101893 -0.423389 0.173193 0.000000 -0.000000 1.000000 242 212 166 1.000000
-0.220552 -0.434421 -0.133838 -0.000000 -0.000000 1.000000 239 212 165 1.000000
-0.076232 -0.506087 -0.146634 0.000000 0.000000 -1.000000 246 218 167 1.000000
-0.008616 0.171325 0.020391 0.000000 -1.000000 0.000000 243 214 161 1.000000
-0.173310 0.593715 -0.136385 0.000000 1.000000 0.000000 239 211 159 1.000000
0.183497 -0.089919 -0.020428 0.000000 1.000000 0.000000 242 214 164 1.000000
0.271867 0.798580 -0.066950 0.000000 1.000000 0.000000 243 212 166 1.000000
-0.245072 -0.520721 0.010501 0.000000 -1.000000 0.000000 152 83 40 1.000000
0.068656 -0.513503 -0.133838 -0.000000 -0.000000 1.000000 247 217 167 1.000000
0.247457 0.171325 -0.090573 0.000000 1.000000 0.000000 159 93 47 1.000000
0.268911 -0.511191 0.114883 -1.000000 0.000000 0.000000 151 82 37 1.000000
0.182698 -0.308500 -0.056027 0.000000 1.000000 0.000000 152 82 42 1.000000
0.101796 -0.406645 0.173193 0.000000 -0.000000 1.000000 244 216 165 1.000000
-0.260140 0.372110 0.066316 -1.000000 0.000000 0.000000 255 255 255 1.000000
-0.082844 -0.127201 -0.133838 -0.000000 -0.000000 1.000000 252 222 171 1.000000
-0.099406 -0.274363 0.173193 0.000000 -0.000000 1.000000 243 216 170 1.000000
-0.260020 -0.276470 0.090933 -1.000000 0.000000 0.000000 240 211 159 1.000000
0.247611 -0.274004 0.007991 1.000000 0.000000 0.000000 155 90 44 1.000000
-0.208549 -0.137368 -0.133838 -0.000000 -0.000000 1.000000 245 214 164 1.000000
0.086557 -0.509955 -0.104491 0.000000 0.000000 1.000000 242 212 164 1.000000
0.021825 -0.102715 0.130657 0.000000 -1.000000 0.000000 242 216 164 1.000000
0.101766 -0.102715 0.037357 0.000000 1.000000 0.000000 158 89 42 1.000000
-0.218237 -0.533517 -0.097450 0.000000 1.000000 0.000000 156 93 48 1.000000
-0.019469 0.376189 -0.127645 0.000000 1.000000 0.000000 145 78 37 1.000000
-0.232195 0.785784 0.021531 0.000000 1.000000 0.000000 148 79 34 1.000000
-0.263501 0.184120 0.012872 0.000000 1.000000 0.000000 246 216 170 1.000000
0.234425 -0.102715 0.038555 0.000000 1.000000 0.000000 155 86 43 1.000000
-0.260140 -0.118913 0.066373 1.000000 0.000000 -0.000000 255 255 255 1.000000
0.173698 0.785784 -0.089511 0.000000 -1.000000 0.000000 245 214 163 1.000000
-0.085307 -0.533517 -0.084576 0.000000 -1.000000 0.000000 242 212 162 1.000000
0.226947 0.593715 -0.055525 0.000000 1.000000 0.000000 246 219 167 1.000000
-0.066823 -0.476961 -0.104491 0.000000 -0.000000 -1.000000 158 93 49 1.000000
0.190669 -0.520721 -0.130037 0.000000 -1.000000 0.000000 154 85 40 1.000000
0.138131 -0.466577 -0.146634 -0.000000 -0.000000 1.000000 153 88 46 1.000000
0.212288 -0.362623 -0.146634 -0.000000 -0.000000 1.000000 138 71 28 1.000000
0.062476 0.376189 -0.135817 0.000000 1.000000 0.000000 163 97 51 1.000000
0.198852 0.580919 -0.043936 0.000000 1.000000 0.000000 145 78 39 1.000000
0.192644 0.171325 -0.085409 0.000000 1.000000 0.000000 148 81 38 1.000000
0.178534 -0.533517 0.136675 0.000000 -1.000000 0.000000 243 213 163 1.000000
0.216922 -0.321967 -0.146634 -0.000000 -0.000000 1.000000 157 88 43 1.000000
0.227518 -0.306069 0.123316 0.000000 -1.000000 0.000000 150 81 36 1.000000
0.103540 0.593715 -0.071350 0.000000 -1.000000 0.000000 154 88 42 1.000000
-0.150843 -0.420978 -0.146634 0.000000 0.000000 -1.000000 241 213 162 1.000000
0.144765 -0.533517 -0.091552 0.000000 1.000000 0.000000 148 83 41 1.000000
0.220938 -0.533517 0.114251 0.000000 -1.000000 0.000000 244 214 164 1.000000
-0.212347 -0.102715 0.119124 0.000000 1.000000 0.000000 144 79 37 1.000000
-0.127047 -0.491518 -0.104491 0.000000 -0.000000 -1.000000 155 85 37 1.000000
0.054135 -0.378112 0.173193 0.000000 -0.000000 1.000000 245 211 167 1.000000
-0.050529 -0.380054 -0.133838 0.000000 0.000000 -1.000000 149 80 37 1.000000
-0.247224 -0.445049 0.026525 1.000000 -0.000000 0.000000 240 212 160 1.000000
-0.132817 -0.533517 -0.014371 0.000000 -1.000000 0.000000 242 213 161 1.000000
0.285706 0.579368 -0.090931 0.858110 -0.513466 0.000000 200 206 216 1.000000
0.116571 0.798580 0.000982 0.000000 -1.000000 0.000000 143 77 31 1.000000
-0.267431 0.767928 0.011312 1.000000 0.000000 0.000000 194 200 210 1.000000
-0.179326 0.593715 -0.118482 0.000000 1.000000 0.000000 242 212 162 1.000000
0.267740 -0.505681 0.166396 -1.000000 0.000000 0.000000 163 95 46 1.000000
-0.037492 -0.350143 -0.146634 -0.000000 -0.000000 1.000000 154 88 42 1.000000
0.112577 0.785784 0.025648 0.000000 -1.000000 0.000000 242 212 163 1.000000
-0.195861 0.798580 -0.124505 0.000000 -1.000000 0.000000 150 81 36 1.000000
-0.262138 0.961332 -0.136241 -0.000005 -0.999999 -0.001306 255 255 255 1.000000
-0.245618 0.388985 -0.147290 0.000000 1.000000 0.000000 238 209 155 1.000000
-0.050857 0.593715 0.045590 0.000000 1.000000 0.000000 241 213 161 1.000000
0.207694 -0.411610 0.173193 0.000000 0.000000 -1.000000 157 88 45 1.000000
-0.250390 0.171325 -0.085047 0.000000 -1.000000 0.000000 243 214 162 1.000000
0.064252 -0.321209 0.173193 0.000000 0.000000 -1.000000 150 81 38 1.000000
-0.025880 0.580919 -0.079027 0.000000 1.000000 0.000000 154 87 44 1.000000
0.216272 -0.308500 -0.074294 0.000000 -1.000000 0.000000 255 249 249 1.000000
0.087249 0.376189 0.010650 0.000000 -1.000000 0.000000 242 212 162 1.000000
0.166855 0.785784 -0.060887 0.000000 -1.000000 0.000000 247 214 157 1.000000
0.269512 0.792624 0.069492 0.519190 -0.000677 -0.854659 255 255 255 1.000000
-0.276348 0.026896 0.067635 1.000000 0.000000 -0.000000 255 255 255 1.000000
-0.247224 -0.348821 0.018996 -1.000000 0.000000 0.000000 161 90 46 1.000000
0.203008 -0.291642 0.173193 0.000000 -0.000000 1.000000 245 216 167 1.000000
-0.144473 -0.089919 0.078051 0.000000 -1.000000 0.000000 150 80 40 1.000000
-0.138936 -0.160110 0.160398 0.000000 0.000000 -1.000000 242 213 164 1.000000
0.073952 -0.523152 -0.094958 0.000000 -1.000000 0.000000 159 93 47 1.000000
-0.086814 0.388985 -0.030159 0.000000 1.000000 0.000000 244 215 163 1.000000
-0.002369 -0.533517 0.119393 0.000000 1.000000 0.000000 152 86 47 1.000000
-0.091594 -0.154501 -0.117287 0.000000 -0.000000 -1.000000 243 215 165 1.000000
-0.004067 0.798580 -0.038802 0.000000 -1.000000 0.000000 156 87 42 1.000000
0.148414 -0.089919 0.066766 0.000000 1.000000 0.000000 241 209 167 1.000000
0.175046 0.580919 -0.127376 0.000000 1.000000 0.000000 149 84 38 1.000000
0.029998 -0.305868 0.173193 0.000000 -0.000000 1.000000 244 216 164 1.000000
0.014775 -0.509974 -0.104491 0.000000 0.000000 1.000000 243 211 160 1.000000
0.247611 -0.161592 0.143195 -1.000000 0.000000 0.000000 240 211 158 1.000000
-0.032706 -0.102715 0.122176 0.000000 -1.000000 0.000000 243 213 163 1.000000
-0.062149 0.376189 -0.032751 0.000000 1.000000 0.000000 154 85 42 1.000000
-0.260020 -0.282712 0.002074 1.000000 -0.000000 0.000000 150 84 38 1.000000
0.042183 0.798580 -0.021430 0.000000 1.000000 0.000000 242 213 162 1.000000
-0.028593 0.388985 -0.105651 0.000000 -1.000000 0.000000 151 86 44 1.000000
-0.034481 0.171325 0.018745 0.000000 1.000000 0.000000 155 86 43 1.000000
0.100203 -0.475123 -0.133838 -0.000000 -0.000000 1.000000 242 213 159 1.000000
-0.248217 -0.102715 0.137308 -0.000000 -1.000000 0.000000 153 83 36 1.000000
0.011336 0.388985 -0.082074 0.000000 -1.000000 0.000000 155 90 44 1.000000
-0.090831 0.171325 -0.060535 0.000000 1.000000 0.000000 157 88 43 1.000000
0.220011 -0.423714 -0.146634 0.000000 0.000000 -1.000000 241 211 157 1.000000
-0.261105 -0.111404 -0.029681 -1.000000 0.000000 0.000000 255 255 255 1.000000
0.087583 -0.533517 0.135739 0.000000 -1.000000 0.000000 246 215 164 1.000000
0.142401 0.184120 -0.024120 0.000000 1.000000 0.000000 247 212 162 1.000000
0.198951 0.580919 -0.027634 0.000000 -1.000000 0.000000 244 216 164 1.000000
-0.250682 0.798580 -0.103629 0.000000 -1.000000 0.000000 149 80 35 1.000000
-0.121483 0.580919 0.006516 0.000000 -1.000000 0.000000 243 212 156 1.000000
0.114776 0.376189 -0.079922 0.000000 -1.000000 0.000000 247 218 166 1.000000
0.260406 -0.372591 -0.103195 1.000000 0.000000 0.000000 246 216 165 1.000000
-0.214700 -0.287925 -0.117287 0.000000 -0.000000 -1.000000 249 220 170 1.000000
0.215692 -0.261596 -0.104491 0.000000 -0.000000 -1.000000 150 83 40 1.000000
0.206363 -0.533517 0.031192 0.000000 1.000000 0.000000 153 84 39 1.000000
-0.107078 0.593715 0.022906 0.000000 -1.000000 0.000000 160 91 46 1.000000
0.247611 -0.218258 -0.061227 1.000000 0.000000 0.000000 147 82 38 1.000000
-0.096362 -0.328372 -0.146634 -0.000000 -0.000000 1.000000 160 94 48 1.000000
0.061010 0.785784 -0.083723 0.000000 1.000000 0.000000 157 83 42 1.000000
-0.237824 -0.520399 -0.062781 1.000000 0.000000 0.000000 241 210 158 1.000000
0.148796 0.785784 0.030659 0.000000 -1.000000 0.000000 242 214 162 1.000000
0.262066 -0.533517 -0.099837 0.000000 1.000000 0.000000 153 84 39 1.000000
-0.011836 -0.471422 -0.104491 0.000000 -0.000000 -1.000000 159 90 45 1.000000
0.127187 -0.308500 0.045008 0.000000 1.000000 0.000000 157 88 45 1.000000
0.247611 -0.213500 0.052261 1.000000 0.000000 0.000000 157 88 43 1.000000
0.245774 0.785784 -0.126839 0.000000 -1.000000 0.000000 237 214 159 1.000000
-0.005950 -0.493779 -0.133838 -0.000000 -0.000000 1.000000 241 214 163 1.000000
-0.174661 -0.112930 0.160398 0.000000 -0.000000 1.000000 150 89 49 1.000000
0.147983 -0.251016 -0.117287 0.000000 0.000000 1.000000 161 92 47 1.000000
-0.178645 0.376189 -0.066679 0.000000 1.000000 0.000000 146 77 32 1.000000
0.243762 -0.520721 -0.078057 0.000000 -1.000000 0.000000 146 77 30 1.000000
0.201233 0.787428 0.056436 0.000000 0.000000 -1.000000 151 82 39 1.000000
-0.058111 -0.167370 0.173193 0.000000 -0.000000 1.000000 243 217 173 1.000000
0.256115 -0.320173 -0.047337 -1.000000 0.000000 0.000000 242 213 159 1.000000
0.150003 -0.213158 0.160398 0.000000 0.000000 -1.000000 244 214 165 1.000000
-0.250619 -0.160724 0.101544 -1.000000 0.000000 0.000000 243 214 162 1.000000
-0.096931 -0.102715 0.085222 0.000000 -1.000000 0.000000 245 219 178 1.000000
-0.084411 -0.407088 -0.146634 -0.000000 -0.000000 1.000000 155 89 43 1.000000
-0.049246 -0.360714 -0.117287 0.000000 0.000000 1.000000 146 77 34 1.000000
0.138371 -0.401934 0.173193 0.000000 -0.000000 1.000000 245 213 163 1.000000
-0.260020 -0.486880 -0.032039 1.000000 -0.000000 0.000000 150 81 36 1.000000
-0.125311 -0.089919 -0.036812 0.000000 -1.000000 0.000000 156 89 48 1.000000
-0.088592 0.171325 -0.044321 0.000000 1.000000 0.000000 145 76 31 1.000000
0.208463 -0.520721 0.059388 0.000000 -1.000000 0.000000 158 85 41 1.000000
-0.008609 -0.102715 -0.090851 0.000000 1.000000 0.000000 165 100 56 1.000000
-0.277387 0.950867 -0.035761 -0.707101 -0.707107 0.002734 255 255 255 1.000000
-0.135825 -0.274644 0.160398 0.000000 0.000000 -1.000000 235 214 159 1.000000
0.111311 -0.332625 0.173193 0.000000 -0.000000 1.000000 240 217 164 1.000000
0.283194 -0.116115 -0.090843 0.000000 -1.000000 0.000000 255 255 255 1.000000
-0.171074 -0.210689 -0.117287 0.000000 -0.000000 -1.000000 242 213 164 1.000000
0.230323 -0.434612 0.173193 0.000000 0.000000 -1.000000 147 80 39 1.000000
-0.192506 -0.252072 0.173193 0.000000 0.000000 -1.000000 158 89 44 1.000000
0.114423 -0.278262 -0.117287 0.000000 -0.000000 -1.000000 240 211 151 1.000000
-0.205557 -0.320043 -0.146634 -0.000000 -0.000000 1.000000 148 83 41 1.000000
-0.109257 0.580919 -0.118837 0.000000 1.000000 0.000000 151 85 39 1.000000
-0.144128 -0.102715 0.025966 0.000000 -1.000000 0.000000 244 216 162 1.000000
0.193476 -0.271119 0.160398 0.000000 0.000000 -1.000000 241 213 158 1.000000
-0.227455 -0.466051 -0.104491 0.000000 0.000000 1.000000 244 216 167 1.000000
0.209264 -0.483010 0.173193 0.000000 -0.000000 1.000000 243 214 160 1.000000
-0.063685 0.580919 -0.139271 0.000000 -1.000000 0.000000 245 217 166 1.000000
0.177322 -0.533517 0.058526 0.000000 -1.000000 0.000000 241 213 161 1.000000
0.049476 0.593715 -0.002489 0.000000 1.000000 0.000000 241 211 161 1.000000
0.256115 -0.321767 -0.077469 -1.000000 0.000000 0.000000 246 216 168 1.000000
-0.167374 0.785784 0.003503 0.000000 -1.000000 0.000000 244 214 168 1.000000
0.130309 0.580919 -0.085813 0.000000 1.000000 0.000000 156 87 44 1.000000
-0.234944 -0.505424 -0.133838 -0.000000 -0.000000 1.000000 239 208 155 1.000000
-0.277201 0.230004 0.077668 -1.000000 0.000000 0.000000 255 255 255 1.000000
-0.237824 -0.476517 -0.086422 -1.000000 0.000000 0.000000 149 82 41 1.000000
-0.219960 0.785784 -0.033916 0.000000 -1.000000 0.000000 244 215 163 1.000000
-0.101812 -0.422734 -0.133838 0.000000 0.000000 -1.000000 161 90 50 1.000000
0.039396 0.785784 0.042492 0.000000 1.000000 0.000000 155 84 40 1.000000
-0.247224 -0.443135 -0.019510 -1.000000 0.000000 0.000000 148 79 36 1.000000
0.162440 -0.452344 -0.146634 0.000000 0.000000 -1.000000 244 215 162 1.000000
0.256115 -0.435208 0.027882 -1.000000 0.000000 0.000000 247 217 170 1.000000
0.147949 0.171325 0.015982 0.000000 -1.000000 0.000000 241 213 161 1.000000
-0.102673 -0.214794 0.173193 0.000000 -0.000000 1.000000 244 215 164 1.000000
0.256283 -0.314486 0.083963 0.000000 -1.000000 0.000000 246 213 160 1.000000
0.177923 -0.271694 -0.146634 0.000000 0.000000 -1.000000 247 206 151 1.000000
-0.234983 0.388985 0.002484 0.000000 -1.000000 0.000000 145 76 31 1.000000
-0.247224 -0.194341 0.096935 -1.000000 0.000000 0.000000 167 97 50 1.000000
-0.247224 -0.161401 -0.082815 -1.000000 0.000000 0.000000 148 81 38 1.000000
0.052575 -0.379491 -0.146634 -0.000000 -0.000000 1.000000 148 79 34 1.000000
0.083087 0.798580 0.054459 0.000000 1.000000 0.000000 238 211 156 1.000000
0.021999 -0.166972 -0.133838 -0.000000 -0.000000 1.000000 246 214 164 1.000000
-0.247224 -0.327930 0.132178 -1.000000 0.000000 0.000000 154 85 42 1.000000
0.053579 -0.434614 -0.133838 0.000000 0.000000 -1.000000 156 85 41 1.000000
-0.075658 -0.169879 -0.104491 0.000000 0.000000 1.000000 244 215 163 1.000000
-0.117354 -0.291364 -0.117287 0.000000 -0.000000 -1.000000 243 213 167 1.000000
-0.232505 0.593715 -0.064647 0.000000 1.000000 0.000000 245 214 161 1.000000
-0.013672 0.580919 -0.142925 0.000000 -1.000000 0.000000 246 216 173 1.000000
-0.183361 0.171325 -0.034300 0.000000 1.000000 0.000000 161 92 47 1.000000
0.146283 0.184120 -0.061597 0.000000 1.000000 0.000000 242 213 163 1.000000
0.250004 -0.102715 -0.130044 0.000000 -1.000000 0.000000 242 215 160 1.000000
-0.047622 -0.189019 -0.104491 0.000000 0.000000 1.000000 242 212 162 1.000000
0.162661 -0.396899 -0.104491 0.000000 0.000000 1.000000 246 214 164 1.000000
-0.020817 -0.102715 0.137547 0.000000 1.000000 0.000000 157 94 51 1.000000
0.203915 -0.121749 -0.133838 -0.000000 -0.000000 1.000000 236 205 154 1.000000
-0.250619 -0.476416 0.009934 1.000000 0.000000 0.000000 159 90 45 1.000000
-0.169969 -0.453289 -0.133838 0.000000 0.000000 -1.000000 153 84 39 1.000000
0.268745 -0.186471 0.077837 -1.000000 0.000000 0.000000 255 255 255 1.000000
0.235366 -0.278327 0.160398 0.000000 -0.000000 1.000000 159 94 50 1.000000
0.122452 -0.487198 -0.117287 0.000000 -0.000000 -1.000000 242 213 159 1.000000
-0.152242 -0.178207 -0.104491 0.000000 -0.000000 -1.000000 159 94 50 1.000000
-0.002672 0.388985 0.051205 0.000000 1.000000 0.000000 243 214 168 1.000000
-0.039231 -0.523152 0.028519 0.000000 1.000000 0.000000 255 249 249 1.000000
-0.120320 0.798580 0.035506 0.000000 1.000000 0.000000 226 195 145 1.000000
-0.212099 -0.293499 -0.146634 0.000000 0.000000 -1.000000 246 217 167 1.000000
0.285937 0.791955 -0.041887 -1.000000 0.000000 0.000000 159 90 43 1.000000
0.157902 0.184120 0.000545 0.000000 -1.000000 0.000000 148 83 39 1.000000
0.027706 -0.252964 -0.117287 0.000000 -0.000000 -1.000000 241 214 159 1.000000
0.268911 -0.485075 -0.146250 -1.000000 0.000000 0.000000 143 74 31 1.000000
-0.012723 0.785784 -0.089582 0.000000 1.000000 0.000000 149 83 37 1.000000
-0.023042 -0.359561 0.173193 0.000000 0.000000 -1.000000 157 88 43 1.000000
-0.142929 -0.533517 -0.128824 0.000000 -1.000000 0.000000 251 207 158 1.000000
-0.109888 -0.158679 -0.104491 0.000000 0.000000 1.000000 244 210 157 1.000000
-0.011368 0.593715 -0.051896 0.000000 -1.000000 0.000000 165 96 51 1.000000
0.272399 0.766135 0.069318 -0.879023 -0.000385 -0.476779 255 255 255 1.000000
0.178877 -0.195639 -0.133838 0.000000 0.000000 -1.000000 150 84 38 1.000000
0.013467 0.376189 -0.128066 0.000000 -1.000000 0.000000 243 217 166 1.000000
-0.260020 -0.198348 -0.014344 -1.000000 0.000000 0.000000 245 216 164 1.000000
0.209278 -0.089919 0.151719 0.000000 -1.000000 0.000000 152 83 38 1.000000
-0.193229 -0.306069 0.102270 0.000000 1.000000 0.000000 255 249 249 1.000000
0.115066 0.376189 -0.051232 0.000000 1.000000 0.000000 144 74 34 1.000000
-0.013397 -0.459262 0.160398 0.000000 -0.000000 1.000000 163 94 49 1.000000
0.268911 -0.228192 -0.105006 -1.000000 0.000000 0.000000 155 86 43 1.000000
-0.247224 -0.524647 -0.134700 -1.000000 0.000000 0.000000 239 211 159 1.000000
0.078929 -0.410181 -0.117287 0.000000 -0.000000 -1.000000 240 210 163 1.000000
0.168954 -0.200820 -0.146634 -0.000000 -0.000000 1.000000 157 91 45 1.000000
0.192045 -0.533517 -0.021469 0.000000 1.000000 0.000000 160 91 46 1.000000
0.280342 -0.500179 0.060863 0.612395 -0.000966 -0.790551 255 255 255 1.000000
0.161164 0.798580 -0.001628 0.000000 1.000000 0.000000 248 217 168 1.000000
0.202632 -0.417933 0.160398 0.000000 0.000000 -1.000000 243 216 166 1.000000
0.152098 -0.498101 -0.133838 -0.000000 -0.000000 1.000000 245 213 160 1.000000
0.260406 -0.505293 0.150240 1.000000 0.000000 0.000000 244 214 166 1.000000
-0.247057 0.171325 -0.122987 0.000000 1.000000 0.000000 144 74 34 1.000000
0.214193 -0.493064 0.160398 0.000000 -0.000000 1.000000 156 92 43 1.000000
-0.024126 0.184120 -0.128352 0.000000 1.000000 0.000000 242 213 162 1.000000
-0.116806 -0.533517 0.067172 0.000000 1.000000 0.000000 156 90 44 1.000000
-0.186860 -0.313264 -0.117287 0.000000 -0.000000 -1.000000 246 220 171 1.000000
0.236988 -0.165252 0.160398 0.000000 -0.000000 1.000000 161 96 52 1.000000
-0.226904 -0.102715 -0.127755 0.000000 1.000000 0.000000 161 98 55 1.000000
0.051636 -0.531569 0.165420 0.000000 1.000000 0.000000 152 79 33 1.000000
-0.127394 -0.202954 -0.104491 0.000000 -0.000000 -1.000000 150 84 38 1.000000
-0.257652 0.593715 -0.001343 0.000000 1.000000 0.000000 247 218 166 1.000000
-0.257724 -0.488901 0.173193 0.000000 0.000000 -1.000000 155 86 39 1.000000
-0.005759 0.785784 0.026666 0.000000 1.000000 0.000000 162 89 43 1.000000
-0.079511 0.184120 0.034709 0.000000 1.000000 0.000000 244 216 166 1.000000
0.187409 -0.520721 0.100276 0.000000 -1.000000 0.000000 157 88 43 1.000000
0.090889 0.376189 -0.123030 0.000000 1.000000 0.000000 158 92 46 1.000000
-0.204312 -0.511661 -0.117287 0.000000 0.000000 1.000000 154 88 42 1.000000
0.131897 -0.243951 0.160398 0.000000 0.000000 -1.000000 243 213 160 1.000000
0.268911 -0.483879 -0.030250 -1.000000 0.000000 0.000000 153 84 39 1.000000
-0.260020 -0.384085 -0.139270 -1.000000 0.000000 0.000000 240 210 160 1.000000
0.256115 -0.342215 -0.101168 1.000000 -0.000000 0.000000 148 83 41 1.000000
-0.121239 -0.412271 -0.146634 -0.000000 -0.000000 1.000000 162 96 50 1.000000
-0.195882 -0.520635 0.160398 0.000000 0.000000 -1.000000 240 211 158 1.000000
-0.040193 -0.089919 -0.065188 0.000000 -1.000000 0.000000 150 81 38 1.000000
0.061289 -0.102715 -0.002462 0.000000 1.000000 0.000000 149 80 37 1.000000
-0.249007 -0.533517 -0.111052 -0.000000 -1.000000 0.000000 242 211 152 1.000000
0.166249 -0.170237 -0.146634 -0.000000 -0.000000 1.000000 158 91 50 1.000000
-0.105120 0.184120 -0.120857 0.000000 -1.000000 0.000000 155 90 44 1.000000
0.256115 -0.192781 -0.073281 -1.000000 0.000000 0.000000 244 207 152 1.000000
0.158171 -0.520721 0.151831 0.000000 1.000000 0.000000 239 211 160 1.000000
-0.076988 0.184120 -0.109633 0.000000 1.000000 0.000000 242 212 162 1.000000
0.114622 -0.523152 -0.028713 0.000000 1.000000 0.000000 255 249 249 1.000000
-0.036082 -0.434132 0.160398 0.000000 0.000000 -1.000000 243 217 165 1.000000
-0.039618 0.785784 0.000153 0.000000 1.000000 0.000000 160 91 46 1.000000
0.175692 -0.504474 -0.104491 0.000000 0.000000 1.000000 245 214 166 1.000000
-0.241809 -0.102715 -0.008910 0.000000 -1.000000 0.000000 236 220 169 1.000000
-0.276297 0.174170 0.082581 -0.944699 0.000095 0.327940 255 255 255 1.000000
-0.224307 -0.533517 0.019327 0.000000 -1.000000 0.000000 238 217 169 1.000000
-0.119118 -0.398944 -0.133838 0.000000 0.000000 -1.000000 160 91 48 1.000000
0.272789 -0.315977 0.059091 0.000000 0.001288 0.999999 255 255 255 1.000000
-0.260020 -0.354760 -0.020098 1.000000 -0.000000 0.000000 153 84 41 1.000000
-0.205681 -0.089919 0.106132 0.000000 1.000000 0.000000 244 214 164 1.000000
0.194347 0.798580 -0.068514 0.000000 -1.000000 0.000000 153 88 44 1.000000
-0.250619 -0.457704 0.049591 -1.000000 0.000000 0.000000 246 217 165 1.000000
0.284808 0.578611 -0.027833 -0.399281 0.916829 0.000000 198 204 214 1.000000
-0.250619 -0.253872 -0.083032 -1.000000 0.000000 0.000000 244 212 159 1.000000
-0.155448 -0.199710 -0.133838 -0.000000 -0.000000 1.000000 243 209 156 1.000000
0.230444 -0.089919 0.003980 0.000000 1.000000 0.000000 244 212 162 1.000000
0.148438 -0.102715 -0.092888 0.000000 1.000000 0.000000 141 76 34 1.000000
0.223453 -0.298528 -0.146634 -0.000000 -0.000000 1.000000 152 86 40 1.000000
-0.035673 0.798207 -0.148294 0.000000 0.000000 -1.000000 247 217 168 1.000000
0.247611 -0.314207 0.130018 1.000000 0.000000 0.000000 155 86 41 1.000000
0.028832 -0.089919 0.113337 0.000000 -1.000000 0.000000 160 87 43 1.000000
-0.261213 0.800808 0.057717 0.000000 0.001288 0.999999 255 255 255 1.000000
-0.061071 -0.223683 0.160398 0.000000 0.000000 -1.000000 242 213 160 1.000000
-0.059928 -0.102715 0.111515 0.000000 1.000000 0.000000 158 93 47 1.000000
-0.247224 -0.525563 0.072394 1.000000 0.000000 0.000000 158 89 44 1.000000
-0.176075 -0.308500 0.155297 0.000000 1.000000 0.000000 154 91 48 1.000000
-0.167594 -0.476182 -0.104491 0.000000 0.000000 1.000000 243 214 161 1.000000
0.247611 -0.298976 -0.095161 1.000000 0.000000 0.000000 140 77 34 1.000000
-0.277313 -0.114289 0.049904 1.000000 0.000000 0.000000 255 255 255 1.000000
0.189528 -0.102715 0.116546 0.000000 1.000000 0.000000 148 84 44 1.000000
-0.247224 -0.207629 0.055762 1.000000 -0.000000 0.000000 241 213 161 1.000000
0.164237 -0.252926 0.160398 0.000000 0.000000 -1.000000 245 216 164 1.000000
-0.268996 0.359241 0.058998 0.000000 0.000000 -1.000000 206 212 222 1.000000
-0.030546 0.593715 0.003219 0.000000 -1.000000 0.000000 155 86 43 1.000000
-0.263477 -0.312360 0.059151 -0.000000 -0.001288 -0.999999 255 255 255 1.000000
0.216680 -0.221288 0.173193 0.000000 0.000000 -1.000000 147 81 45 1.000000
-0.260230 0.375908 -0.121895 0.000000 1.000000 0.000000 241 213 164 1.000000
-0.216294 0.388985 0.019014 0.000000 1.000000 0.000000 242 213 161 1.000000
-0.033377 0.580919 -0.049197 0.000000 -1.000000 0.000000 246 217 164 1.000000
-0.231594 -0.533517 0.100483 0.000000 1.000000 0.000000 151 85 46 1.000000
0.268911 -0.219837 -0.004672 1.000000 -0.000000 0.000000 244 212 160 1.000000
0.260406 -0.521558 0.133239 1.000000 0.000000 0.000000 250 220 174 1.000000
-0.247224 -0.401298 -0.016370 1.000000 -0.000000 0.000000 246 216 169 1.000000
0.268911 -0.405862 -0.050477 -1.000000 0.000000 0.000000 146 77 32 1.000000
0.163282 -0.216900 -0.146634 -0.000000 -0.000000 1.000000 154 88 42 1.000000
-0.069962 -0.308500 -0.071417 0.000000 -1.000000 0.000000 255 249 249 1.000000
0.145362 -0.533517 0.151673 0.000000 -1.000000 0.000000 248 217 168 1.000000
0.268911 -0.391801 0.153225 -1.000000 0.000000 0.000000 155 88 47 1.000000
-0.007645 -0.163221 -0.117287 0.000000 -0.000000 -1.000000 241 209 157 1.000000
-0.018911 -0.378317 -0.146634 0.000000 0.000000 -1.000000 243 218 166 1.000000
0.241932 0.388985 0.048078 0.000000 -1.000000 0.000000 162 97 53 1.000000
0.093802 -0.439281 -0.117287 0.000000 0.000000 1.000000 155 86 41 1.000000
0.036070 -0.533517 0.053271 0.000000 1.000000 0.000000 152 86 40 1.000000
0.189022 -0.314486 -0.107104 0.000000 -1.000000 0.000000 248 217 166 1.000000
-0.077283 -0.263086 0.173193 0.000000 0.000000 -1.000000 147 78 35 1.000000
-0.017247 0.580919 -0.119854 0.000000 -1.000000 0.000000 248 215 162 1.000000
-0.210152 0.580919 -0.104068 0.000000 -1.000000 0.000000 246 219 169 1.000000
-0.275134 -0.116115 -0.142432 0.000000 -1.000000 0.000000 255 255 255 1.000000
0.040232 -0.308500 0.136110 0.000000 -1.000000 0.000000 255 249 249 1.000000
-0.147255 0.171325 0.048566 0.000000 -1.000000 0.000000 242 213 162 1.000000
-0.262632 0.785784 0.003514 0.000000 -1.000000 0.000000 243 213 162 1.000000
0.080324 0.798580 0.024850 0.000000 1.000000 0.000000 250 221 170 1.000000
-0.241836 0.388985 0.035562 0.000000 -1.000000 0.000000 153 84 41 1.000000
-0.276348 -0.399592 0.082443 0.997866 -0.000020 -0.065293 255 255 255 1.000000
0.027542 0.183253 0.058096 0.000000 0.000000 -1.000000 150 86 46 1.000000
-0.025051 -0.336772 -0.146634 -0.000000 -0.000000 1.000000 151 85 39 1.000000
0.103466 -0.533517 -0.089124 0.000000 -1.000000 0.000000 241 213 162 1.000000
-0.212113 -0.102715 -0.131698 0.000000 -1.000000 0.000000 243 213 165 1.000000
-0.160163 -0.322524 0.173193 0.000000 0.000000 -1.000000 154 85 42 1.000000
-0.075865 -0.089919 -0.118195 0.000000 1.000000 0.000000 243 214 163 1.000000
-0.261957 -0.596582 0.061164 0.000000 0.000000 1.000000 255 255 255 1.000000
0.256115 -0.253644 -0.013415 1.000000 -0.000000 0.000000 157 91 45 1.000000
-0.190394 -0.102715 0.122387 0.000000 -1.000000 0.000000 245 214 165 1.000000
0.092645 0.171325 -0.101992 0.000000 1.000000 0.000000 151 82 37 1.000000
0.043597 -0.102715 0.133317 0.000000 1.000000 0.000000 150 86 46 1.000000
-0.252533 0.184120 -0.145486 0.000000 -1.000000 0.000000 153 84 39 1.000000
-0.263881 0.171043 -0.078416 0.000000 1.000000 0.000000 237 210 162 1.000000
0.260025 -0.252429 -0.117287 0.000000 0.000000 1.000000 157 88 41 1.000000
-0.014946 0.580919 -0.022595 0.000000 1.000000 0.000000 151 82 39 1.000000
0.015505 0.171325 0.036583 0.000000 1.000000 0.000000 155 86 41 1.000000
-0.154201 -0.238712 -0.104491 0.000000 0.000000 1.000000 243 215 163 1.000000
-0.260020 -0.332786 0.098131 1.000000 -0.000000 0.000000 155 88 47 1.000000
-0.247224 -0.338645 0.114855 1.000000 -0.000000 0.000000 246 217 165 1.000000
-0.206571 0.798580 -0.014693 0.000000 1.000000 0.000000 244 218 162 1.000000
-0.198232 -0.089919 -0.023998 0.000000 -1.000000 0.000000 151 85 49 1.000000
-0.019287 -0.125233 0.173193 0.000000 0.000000 -1.000000 160 87 43 1.000000
0.146443 0.798580 0.005463 0.000000 1.000000 0.000000 246 215 165 1.000000
-0.063921 -0.089919 0.032350 0.000000 -1.000000 0.000000 149 81 44 1.000000
0.032395 0.171325 -0.135479 0.000000 -1.000000 0.000000 242 214 162 1.000000
-0.031532 -0.314486 0.168045 0.000000 1.000000 0.000000 159 90 43 1.000000
-0.110294 -0.510183 -0.104491 0.000000 -0.000000 -1.000000 154 87 44 1.000000
0.213844 -0.340409 -0.146634 -0.000000 -0.000000 1.000000 153 84 39 1.000000
0.148536 -0.261267 -0.133838 0.000000 0.000000 -1.000000 164 95 50 1.000000
0.179537 -0.301022 -0.146634 0.000000 0.000000 -1.000000 248 208 156 1.000000
-0.263134 0.929852 -0.140314 1.000000 0.000000 0.000000 208 214 224 1.000000
-0.041175 -0.306069 -0.085841 0.000000 -1.000000 0.000000 157 91 45 1.000000
0.254384 -0.089919 0.115903 0.000000 1.000000 0.000000 245 217 165 1.000000
-0.040998 0.798580 -0.097542 0.000000 1.000000 0.000000 243 213 164 1.000000
0.212842 -0.102715 -0.106659 0.000000 -1.000000 0.000000 242 214 162 1.000000
-0.136502 0.376189 -0.089549 0.000000 -1.000000 0.000000 243 214 164 1.000000
-0.132069 -0.408231 -0.133838 0.000000 0.000000 -1.000000 153 86 43 1.000000
-0.198270 0.388985 0.054692 0.000000 -1.000000 0.000000 153 86 43 1.000000
-0.276348 -0.318635 0.067078 1.000000 0.000000 -0.000000 255 255 255 1.000000
0.087716 0.388985 -0.132980 0.000000 -1.000000 0.000000 153 84 37 1.000000
-0.276145 0.374018 0.037554 -0.538064 -0.842904 0.000000 206 212 222 1.000000
0.267143 -0.533517 -0.000194 -0.000000 -1.000000 0.000000 246 217 165 1.000000
-0.247224 -0.530996 -0.040227 -1.000000 0.000000 0.000000 159 90 43 1.000000
-0.056757 -0.089919 -0.103757 0.000000 1.000000 0.000000 247 216 163 1.000000
0.247611 -0.187946 0.063608 -1.000000 0.000000 0.000000 243 214 162 1.000000
0.197345 0.785784 -0.107067 0.000000 1.000000 0.000000 164 99 55 1.000000
0.267495 0.785784 0.048088 0.000000 -1.000000 0.000000 241 212 160 1.000000
0.243280 -0.331333 -0.146634 -0.000000 -0.000000 1.000000 157 88 43 1.000000
0.240231 0.785784 -0.028362 0.000000 -1.000000 0.000000 245 216 164 1.000000
0.215250 0.184120 -0.056855 0.000000 1.000000 0.000000 240 212 159 1.000000
0.171027 -0.527022 -0.146634 0.000000 0.000000 1.000000 149 80 35 1.000000
-0.037798 -0.533517 0.116767 0.000000 1.000000 0.000000 159 94 48 1.000000
0.208400 -0.167458 -0.104491 0.000000 -0.000000 -1.000000 158 94 54 1.000000
0.046071 0.580919 -0.073479 0.000000 1.000000 0.000000 147 77 37 1.000000
-0.171895 0.580919 -0.145285 0.000000 1.000000 0.000000 158 89 42 1.000000
-0.252765 -0.102715 0.051681 0.000000 -1.000000 0.000000 236 206 160 1.000000
0.093583 0.798580 -0.117600 0.000000 -1.000000 0.000000 153 86 43 1.000000
0.129583 -0.520721 0.083795 0.000000 1.000000 0.000000 242 216 159 1.000000
-0.160742 -0.102715 0.103991 0.000000 -1.000000 0.000000 240 212 160 1.000000
0.191619 -0.089919 -0.086683 0.000000 1.000000 0.000000 240 217 164 1.000000
0.260406 -0.478220 0.141521 -1.000000 0.000000 0.000000 156 87 42 1.000000
0.201368 -0.520721 -0.071260 0.000000 -1.000000 0.000000 140 73 30 1.000000
0.125276 -0.533517 -0.005724 0.000000 -1.000000 0.000000 241 214 166 1.000000
-0.005999 -0.217643 0.160398 0.000000 0.000000 -1.000000 243 212 158 1.000000
-0.061630 -0.378515 -0.104491 0.000000 -0.000000 -1.000000 152 87 43 1.000000
0.284795 -0.534716 0.074015 -0.869344 -0.000316 -0.494208 255 255 255 1.000000
-0.192153 0.171325 -0.097421 0.000000 1.000000 0.000000 152 82 35 1.000000
-0.050990 -0.102715 -0.121241 0.000000 -1.000000 0.000000 245 215 168 1.000000
0.161098 -0.460232 -0.104491 0.000000 0.000000 1.000000 244 213 161 1.000000
-0.078006 -0.520721 -0.011067 0.000000 1.000000 0.000000 241 213 161 1.000000
-0.205904 -0.119452 0.160398 0.000000 -0.000000 1.000000 144 83 40 1.000000
0.256115 -0.381967 0.058547 1.000000 -0.000000 0.000000 160 91 46 1.000000
-0.136855 0.593715 -0.076328 0.000000 1.000000 0.000000 245 215 167 1.000000
0.281570 0.798580 -0.004767 0.000000 -1.000000 0.000000 149 84 42 1.000000
0.088970 0.798580 -0.047108 0.000000 -1.000000 0.000000 157 94 51 1.000000
-0.245822 -0.359194 0.061748 0.000000 1.000000 0.000000 242 213 161 1.000000
0.078441 -0.507595 -0.117287 0.000000 -0.000000 -1.000000 235 207 156 1.000000
0.272554 -0.116115 0.057274 0.000000 1.000000 0.000000 255 255 255 1.000000
-0.231327 -0.092181 -0.146634 0.000000 0.000000 1.000000 161 88 41 1.000000
-0.236427 -0.326722 0.173193 0.000000 -0.000000 1.000000 244 212 160 1.000000
-0.237824 -0.501277 -0.019337 -1.000000 0.000000 0.000000 155 86 39 1.000000
0.256115 -0.457126 -0.000060 1.000000 -0.000000 0.000000 152 83 38 1.000000
-0.261003 -0.116108 0.035483 0.124707 -0.992194 0.000000 255 255 255 1.000000
-0.079975 -0.321738 0.160398 0.000000 -0.000000 1.000000 166 99 58 1.000000
-0.053391 0.184120 -0.138792 0.000000 -1.000000 0.000000 160 95 49 1.000000
-0.177063 -0.306069 0.106564 0.000000 -1.000000 0.000000 166 97 52 1.000000
0.148171 -0.089919 -0.052288 0.000000 1.000000 0.000000 242 212 164 1.000000
-0.060835 0.593715 -0.116285 0.000000 1.000000 0.000000 239 211 157 1.000000
-0.085010 0.376189 -0.107752 0.000000 1.000000 0.000000 152 86 40 1.000000
0.253930 0.181377 0.058096 0.000000 0.000000 -1.000000 161 92 45 1.000000
-0.247224 -0.166383 0.138979 -1.000000 0.000000 0.000000 150 83 42 1.000000
0.057362 -0.266292 -0.104491 0.000000 0.000000 1.000000 246 213 160 1.000000
-0.160411 -0.306069 -0.077338 0.000000 1.000000 0.000000 255 249 249 1.000000
-0.260140 0.166625 0.080271 -1.000000 0.000000 0.000000 255 255 255 1.000000
0.039046 -0.126675 0.173193 0.000000 0.000000 -1.000000 151 80 36 1.000000
-0.134560 -0.306069 -0.101833 0.000000 1.000000 0.000000 255 249 249 1.000000
-0.276655 0.853853 0.069112 -0.879026 0.000393 0.476773 255 255 255 1.000000
0.234869 -0.154149 -0.117287 0.000000 0.000000 1.000000 148 78 31 1.000000
0.189001 0.785784 -0.056974 0.000000 1.000000 0.000000 150 83 42 1.000000
-0.105360 -0.474178 -0.117287 0.000000 0.000000 1.000000 143 75 38 1.000000
0.194448 0.388985 0.015361 0.000000 1.000000 0.000000 243 219 173 1.000000
-0.076295 -0.209512 -0.146634 -0.000000 -0.000000 1.000000 164 98 52 1.000000
-0.021829 -0.461550 0.173193 0.000000 -0.000000 1.000000 241 213 161 1.000000
-0.105259 0.798580 -0.024439 0.000000 1.000000 0.000000 242 212 163 1.000000
-0.243833 0.580919 -0.007696 0.000000 -1.000000 0.000000 242 213 160 1.000000
-0.041017 -0.503249 0.173193 0.000000 -0.000000 1.000000 243 216 170 1.000000
0.161678 -0.089919 0.151537 0.000000 -1.000000 0.000000 150 81 36 1.000000
