ply
format ascii 1.0
element vertex 1308
property float x
property float y
property float z
property uchar red
property uchar green
property uchar blue
end_header
-0.674293 0.102224 0.371518 0 255 0
-0.388717 0.121499 0.522333 127 0 127
-0.800722 0.273161 0.460886 0 255 0
-0.345218 -0.324898 -0.373515 0 255 0
-0.144977 0.200236 0.460886 0 255 0
-0.470143 0.397813 0.118095 0 255 0
0.358742 -0.203362 0.359736 0 255 0
0.229413 -0.203362 -0.382286 0 255 0
0.625683 0.111470 0.424751 0 255 0
-0.014019 0.162566 -0.361758 0 255 0
-0.674293 0.068255 -0.518179 0 255 0
0.680791 0.128600 0.134744 0 255 0
-0.761353 -0.293039 0.460886 0 255 0
-0.250634 -0.231388 -0.411578 0 255 0
-0.389774 0.327952 -0.665338 0 255 0
-0.280571 0.397813 0.379427 0 255 0
-0.042261 -0.061893 0.463286 0 255 0
-0.113235 -0.324898 -0.176578 0 255 0
0.452121 -0.324898 0.125231 0 255 0
0.345296 0.031850 -0.645171 0 255 0
0.589498 0.199190 0.519653 0 255 0
0.056487 -0.231388 0.057940 0 255 0
0.680791 0.031015 -0.614016 0 255 0
-0.674293 0.097859 0.266350 0 255 0
-0.065848 0.162566 -0.489522 0 255 0
-0.400659 0.162566 0.272593 0 255 0
-0.674293 -0.323675 -0.607725 0 255 0
0.561763 -0.324898 0.287185 0 255 0
0.052581 -0.078768 -0.617884 0 255 0
-0.397774 -0.203362 -0.305373 0 255 0
-0.163166 0.162401 0.228585 0 255 0
-0.520151 -0.035589 0.463310 0 255 0
0.680791 0.364556 0.093679 0 255 0
-0.431228 0.233758 0.522333 0 255 0
-0.448981 0.024323 -0.080427 0 255 0
0.680791 -0.320947 -0.140842 0 255 0
-0.102907 0.162566 0.176473 0 255 0
-0.684760 0.083123 0.523666 0 255 0
0.112173 -0.324898 -0.330011 0 255 0
-0.124972 0.397813 0.103002 0 255 0
-0.181446 0.162566 -0.385069 0 255 0
0.295069 -0.114588 -0.665338 0 255 0
0.202416 0.162566 0.389620 0 255 0
-0.023926 -0.309409 0.424751 0 255 0
-0.448974 0.027731 0.215236 0 255 0
0.539756 0.167284 0.463286 0 255 0
-0.033997 0.090206 0.463286 0 255 0
-0.498901 0.397813 -0.449962 0 255 0
0.495017 0.258042 0.424751 0 255 0
0.297176 -0.049241 0.522333 0 127 127
-0.396350 -0.276671 0.479245 0 255 0
-0.247583 0.186769 0.522333 127 0 127
0.101870 0.397813 0.441480 0 255 0
-0.151610 -0.347061 0.456075 0 255 0
0.209612 0.162566 -0.110109 0 255 0
0.454820 -0.068830 0.365103 0 255 0
0.312236 -0.224523 -0.155775 0 255 0
-0.583132 0.192725 0.462084 0 255 0
0.725960 -0.291970 0.505917 0 255 0
-0.674293 0.280248 -0.275028 0 255 0
-0.551880 -0.057369 0.383862 0 255 0
0.454934 0.031101 0.222540 0 255 0
0.454846 -0.046396 -0.545707 0 255 0
-0.674293 0.257330 0.087375 0 255 0
-0.674293 -0.085848 -0.151569 0 255 0
0.505166 0.397813 -0.496929 0 255 0
0.128639 -0.295992 0.510311 0 255 0
-0.674293 -0.285864 -0.367764 0 255 0
0.699421 0.196856 0.467163 0 255 0
0.259309 -0.203362 0.374566 0 255 0
0.455018 0.105602 -0.596185 0 255 0
0.680791 0.297159 -0.006118 0 255 0
-0.069208 -0.231388 0.037285 0 255 0
-0.039172 0.358468 0.463315 0 255 0
0.273257 0.397813 -0.316196 0 255 0
0.427456 -0.203822 -0.645170 0 255 0
0.680791 -0.165829 -0.017272 0 255 0
0.417003 -0.324898 -0.042056 0 255 0
-0.421228 -0.033757 -0.003074 0 255 0
-0.246527 0.157782 -0.302731 0 255 0
0.610685 -0.324898 -0.549991 0 255 0
-0.310130 0.129561 -0.665338 0 255 0
-0.455069 0.397813 0.005653 0 255 0
-0.258450 -0.231388 -0.528682 0 255 0
0.680791 0.022994 -0.098614 0 255 0
-0.114571 0.397813 -0.078293 0 255 0
0.555317 -0.007904 0.335502 0 255 0
-0.678657 0.321959 0.424751 0 255 0
-0.044396 -0.337868 0.486065 0 255 0
-0.382567 -0.120764 0.463286 0 255 0
-0.398102 0.138734 0.424751 0 255 0
0.451267 -0.107415 -0.017113 0 255 0
-0.674293 -0.225041 0.219204 0 255 0
0.315796 0.397813 -0.147527 0 255 0
0.048421 -0.224523 -0.246925 0 255 0
-0.634533 -0.324898 -0.050173 0 255 0
0.530935 0.037802 -0.436784 0 255 0
-0.403558 0.397813 0.442108 0 255 0
-0.014890 0.145093 -0.665338 0 255 0
0.502950 0.377947 0.463315 0 255 0
0.499917 0.373085 -0.665338 0 255 0
-0.551880 -0.060383 -0.379884 0 255 0
0.426748 0.115628 -0.248461 0 255 0
-0.152186 0.397813 0.290729 0 255 0
0.437768 0.155137 0.225986 0 255 0
0.188346 -0.324898 -0.035098 0 255 0
0.110612 -0.078194 -0.599063 0 255 0
-0.167788 0.397813 -0.258705 0 255 0
-0.530432 0.344871 -0.665338 0 255 0
-0.358334 -0.153723 0.522333 127 0 127
-0.202900 -0.021459 0.463286 0 255 0
0.001359 -0.226884 0.295025 0 255 0
-0.435385 -0.066792 0.463286 0 255 0
0.720524 0.307921 0.460886 0 255 0
0.308790 -0.189574 -0.571261 0 255 0
-0.075028 -0.130728 0.522333 127 0 127
0.037229 -0.229436 -0.584364 0 255 0
-0.677992 -0.276116 0.424751 0 255 0
-0.449429 -0.172423 0.260882 0 255 0
0.582999 -0.100291 -0.665338 0 255 0
-0.674293 -0.191385 0.123061 0 255 0
0.524236 0.321883 0.460886 0 255 0
-0.604308 0.397813 0.296470 0 255 0
-0.239296 -0.324898 0.000593 0 255 0
0.680791 -0.277898 -0.039718 0 255 0
-0.321810 0.245103 0.519653 0 255 0
-0.349732 0.162566 0.013855 0 255 0
-0.097746 -0.324898 -0.234347 0 255 0
-0.551880 -0.067843 0.069194 0 255 0
-0.333594 -0.203362 0.332688 0 255 0
-0.403190 0.162566 -0.163703 0 255 0
0.725960 0.276744 0.520664 0 255 0
-0.448897 0.061445 0.368827 0 255 0
0.290173 -0.203362 0.024840 0 255 0
-0.239476 0.361092 -0.665338 0 255 0
0.531036 -0.118169 -0.481835 0 255 0
0.572515 -0.324898 0.106680 0 255 0
0.389568 -0.324898 0.396632 0 255 0
0.680791 0.337836 -0.443591 0 255 0
-0.421228 -0.072658 0.089875 0 255 0
0.652271 -0.324898 0.223072 0 255 0
0.680791 0.396663 0.323597 0 255 0
0.455088 -0.324898 0.306525 0 255 0
0.049212 0.325249 -0.665338 0 255 0
0.425117 0.397813 -0.337435 0 255 0
0.016464 0.397813 -0.500376 0 255 0
0.572286 0.397813 0.090199 0 255 0
0.305396 -0.203362 0.318953 0 255 0
-0.320545 -0.303491 -0.665338 0 255 0
0.403277 -0.231388 -0.254507 0 255 0
0.454914 0.013711 0.321409 0 255 0
-0.451280 -0.324898 0.364891 0 255 0
-0.269469 -0.203362 -0.084069 0 255 0
0.219675 0.397813 -0.181340 0 255 0
0.184003 -0.113541 0.463286 0 255 0
0.511781 0.414797 0.514868 0 255 0
-0.448872 0.072275 0.274223 0 255 0
-0.421228 -0.041775 -0.344918 0 255 0
0.680791 0.212656 -0.248154 0 255 0
0.454247 -0.338027 0.521791 0 255 0
0.428376 0.242754 -0.665338 0 255 0
-0.674293 -0.219159 0.001376 0 255 0
-0.478096 -0.157222 0.424751 0 255 0
0.612382 0.280614 0.472458 0 255 0
0.680791 0.336371 0.140813 0 255 0
0.526357 -0.101992 -0.138184 0 255 0
0.680791 0.185687 0.287009 0 255 0
0.050806 0.162566 -0.618421 0 255 0
-0.429144 -0.003144 0.519653 127 0 127
0.443080 0.013573 -0.645170 0 255 0
-0.094266 0.162566 -0.442604 0 255 0
0.206862 -0.010951 0.463286 0 255 0
0.268672 0.397813 0.346756 0 255 0
-0.444719 0.162566 0.340649 0 255 0
-0.448691 0.152186 0.102131 0 255 0
0.224550 0.324669 0.511735 76 153 0
-0.525738 0.099636 0.463310 0 255 0
-0.120629 0.330929 -0.665338 0 255 0
-0.036311 -0.203362 -0.063018 0 255 0
0.680791 0.183094 -0.097768 0 255 0
0.426748 0.128679 -0.093948 0 255 0
0.686647 -0.347061 0.435717 0 255 0
-0.378600 0.397813 0.186408 0 255 0
-0.606184 0.086929 -0.665338 0 255 0
0.367634 0.042170 0.463286 0 255 0
0.108140 0.297463 0.463315 0 255 0
-0.333471 -0.195178 -0.571261 0 255 0
0.680791 -0.276063 -0.495428 0 255 0
0.560362 -0.258958 0.519653 0 255 0
0.680791 -0.111566 -0.214682 0 255 0
-0.332743 0.373090 0.460886 0 255 0
0.213584 -0.324898 -0.374230 0 255 0
-0.627444 -0.036623 0.523666 0 255 0
0.176845 -0.046136 -0.599063 0 255 0
0.198645 0.162566 0.227762 0 255 0
0.574987 0.140270 0.523666 0 255 0
-0.446438 0.162566 0.010505 0 255 0
-0.146438 -0.041432 0.522333 0 127 127
0.553170 -0.020934 0.169843 0 255 0
-0.605121 -0.143644 0.523666 0 255 0
-0.324247 -0.338027 0.494591 0 255 0
-0.001311 -0.003496 0.522333 0 127 127
0.106924 0.012211 0.522333 0 127 127
-0.631897 0.181447 0.519653 0 255 0
-0.674293 0.344528 -0.119542 0 255 0
0.588331 -0.097504 0.463286 0 255 0
-0.651931 -0.324898 0.244149 0 255 0
-0.168714 0.397813 -0.072571 0 255 0
0.725960 -0.053995 0.521133 0 255 0
0.684016 -0.268238 0.424751 0 255 0
-0.030238 -0.203362 0.334535 0 255 0
-0.807169 0.124957 0.460886 0 255 0
-0.621421 0.269458 0.424751 0 255 0
0.680791 0.238712 -0.162362 0 255 0
0.017951 -0.231388 -0.335806 0 255 0
0.329387 0.113964 0.522333 127 0 127
0.208132 -0.193135 0.519653 0 255 0
0.217727 -0.203362 -0.553431 0 255 0
-0.815823 -0.293787 0.441659 0 255 0
-0.397489 0.162566 -0.616214 0 255 0
-0.294900 0.068351 0.522333 0 127 127
0.444539 -0.035001 0.424751 0 255 0
0.680791 -0.306687 0.058999 0 255 0
0.558952 -0.028531 0.232289 0 255 0
-0.674293 0.126848 0.003549 0 255 0
0.725960 -0.113579 0.512848 0 255 0
-0.261622 0.397813 -0.249986 0 255 0
0.176331 -0.233519 0.463310 0 255 0
-0.585755 -0.324898 -0.413378 0 255 0
-0.545538 0.397813 0.204451 0 255 0
-0.226645 -0.203362 -0.128567 0 255 0
-0.201372 -0.142972 0.483388 0 255 0
-0.674293 0.198117 0.192676 0 255 0
0.202715 0.084304 0.522333 0 127 127
-0.322454 -0.046269 0.522333 0 127 127
-0.674293 -0.289609 -0.255063 0 255 0
-0.287519 -0.324898 0.140314 0 255 0
-0.661834 -0.324898 0.402635 0 255 0
0.446685 0.131938 0.401426 0 255 0
0.142294 -0.231388 0.157647 0 255 0
0.680791 -0.172333 -0.454710 0 255 0
-0.509108 -0.347061 0.453819 0 255 0
0.116868 -0.231388 -0.538926 0 255 0
-0.674293 -0.305423 0.039133 0 255 0
0.466450 -0.324898 -0.428096 0 255 0
-0.448933 0.045692 -0.325190 0 255 0
-0.674293 0.133274 -0.566008 0 255 0
-0.551880 -0.110498 -0.448733 0 255 0
0.680791 -0.168452 0.322601 0 255 0
0.351698 -0.324898 0.284392 0 255 0
-0.011794 0.397813 -0.127259 0 255 0
0.446685 -0.137446 -0.220533 0 255 0
0.159033 -0.203362 -0.225019 0 255 0
0.010226 0.106300 0.522333 0 127 127
0.426748 -0.064819 -0.445510 0 255 0
0.534113 -0.324898 -0.003870 0 255 0
0.657156 0.363173 0.424751 0 255 0
-0.575744 0.375163 0.424751 0 255 0
-0.193862 0.397813 0.034806 0 255 0
0.539501 -0.324898 0.163736 0 255 0
-0.525067 0.025344 -0.386417 0 255 0
0.532546 0.240859 -0.665338 0 255 0
-0.179516 -0.203362 0.169430 0 255 0
0.550312 -0.164005 0.523666 0 255 0
0.426748 -0.100710 0.048237 0 255 0
-0.214619 -0.252795 0.424751 0 255 0
-0.517745 -0.203731 0.523666 0 255 0
0.072900 -0.060756 0.424751 0 255 0
0.082989 -0.203996 0.522333 127 0 127
-0.668283 -0.039105 0.424751 0 255 0
-0.269506 0.374958 0.501177 153 0 76
0.134049 -0.231388 -0.071918 0 255 0
-0.573456 0.397813 -0.566765 0 255 0
-0.449372 -0.147249 -0.470813 0 255 0
0.426748 -0.159566 0.284240 0 255 0
-0.571766 0.105133 0.523666 0 255 0
0.549559 -0.012371 0.519653 0 255 0
-0.185530 -0.231388 -0.353772 0 255 0
0.639673 0.072197 0.459704 0 255 0
-0.171800 -0.324898 -0.084089 0 255 0
0.430475 -0.146230 0.522333 0 255 0
-0.061668 -0.231388 -0.135705 0 255 0
-0.259508 -0.011305 0.522333 0 127 127
0.343143 -0.293295 0.424751 0 255 0
-0.609375 0.397813 -0.401195 0 255 0
0.403267 0.162566 -0.595784 0 255 0
0.513162 -0.324898 -0.608962 0 255 0
-0.280491 0.397813 -0.432266 0 255 0
-0.262127 -0.231388 0.175775 0 255 0
0.426748 0.054251 0.376427 0 255 0
0.556910 0.397813 -0.380825 0 255 0
-0.208174 -0.324898 -0.236764 0 255 0
0.056642 -0.324898 -0.435847 0 255 0
0.157152 -0.324898 -0.659270 0 255 0
-0.604577 -0.118748 0.463286 0 255 0
0.312731 -0.231388 0.157337 0 255 0
-0.307036 0.397813 -0.062232 0 255 0
-0.253099 -0.231388 0.238119 0 255 0
0.215395 -0.203362 -0.018684 0 255 0
0.454951 0.046464 0.465935 0 255 0
0.188266 0.397813 -0.491707 0 255 0
0.629294 -0.097072 0.519653 0 255 0
0.570206 -0.324898 -0.626694 0 255 0
0.492956 0.132852 0.519653 127 0 127
0.082445 0.349379 0.506836 0 255 0
-0.526477 -0.117356 -0.222256 0 255 0
-0.064004 0.270018 0.522333 127 0 127
-0.325137 -0.203362 -0.013530 0 255 0
-0.178169 0.068819 0.424751 0 255 0
-0.284813 -0.324898 -0.277310 0 255 0
-0.449543 -0.222379 -0.054143 0 255 0
0.455069 0.149835 0.124982 0 255 0
0.202874 0.162566 0.008970 0 255 0
0.337084 -0.324898 -0.641701 0 255 0
0.479532 -0.234927 0.522333 0 255 0
0.369906 -0.195425 -0.571261 0 255 0
0.393361 0.108967 0.522333 127 0 127
0.020180 -0.203362 0.412958 0 255 0
0.124346 0.217554 0.424751 0 255 0
0.086240 -0.284828 0.469240 0 255 0
-0.491797 -0.324898 -0.641556 0 255 0
-0.561500 -0.107969 0.519653 0 255 0
0.292393 0.091590 -0.645171 0 255 0
0.680791 -0.060515 -0.174533 0 255 0
0.628600 -0.324898 -0.456177 0 255 0
0.332998 -0.203362 0.248188 0 255 0
0.054838 -0.096828 0.522333 0 127 127
-0.035594 -0.324898 0.172147 0 255 0
-0.674293 -0.220611 -0.382805 0 255 0
0.442731 0.397813 -0.587789 0 255 0
0.791277 -0.291507 0.460886 0 255 0
0.543823 -0.324898 -0.248086 0 255 0
-0.395869 -0.324898 0.402728 0 255 0
0.383814 0.015943 0.522333 127 0 127
-0.066357 -0.262205 0.480629 0 255 0
-0.117447 -0.231388 0.329531 0 255 0
-0.674293 -0.051501 -0.502691 0 255 0
-0.253585 -0.076376 -0.617884 0 255 0
-0.017618 -0.324898 -0.077738 0 255 0
0.495748 -0.134187 0.424751 0 255 0
0.597225 0.302432 0.424751 0 255 0
-0.674293 -0.150295 0.349599 0 255 0
-0.195913 0.162566 0.036898 0 255 0
-0.674293 0.058903 -0.385248 0 255 0
-0.620379 -0.196261 0.519653 0 255 0
-0.775055 0.226745 0.460886 0 255 0
-0.449095 -0.025444 -0.170203 0 255 0
-0.553727 -0.005350 0.329464 0 255 0
-0.559733 -0.028229 0.213383 0 255 0
-0.058183 0.162566 0.204916 0 255 0
-0.675864 0.422498 0.460886 0 255 0
-0.267177 -0.231388 -0.036722 0 255 0
-0.674293 -0.066449 -0.010909 0 255 0
0.206398 -0.231388 -0.132556 0 255 0
0.553170 -0.113277 -0.226231 0 255 0
-0.505892 -0.200740 0.463310 0 255 0
0.066460 -0.203362 -0.539279 0 255 0
-0.388077 0.048500 0.463286 0 255 0
0.549540 0.010022 -0.665338 0 255 0
-0.163001 0.376012 0.463315 0 255 0
0.393641 0.162566 -0.179464 0 255 0
-0.493779 -0.089951 -0.665338 0 255 0
-0.411587 0.297712 0.424751 0 255 0
-0.592765 0.397813 -0.289978 0 255 0
0.234575 -0.324898 0.285393 0 255 0
-0.674293 -0.157341 -0.527256 0 255 0
0.541874 0.397813 -0.626613 0 255 0
0.249947 -0.203362 0.293156 0 255 0
-0.399148 0.397813 -0.605617 0 255 0
0.397314 0.094079 0.463286 0 255 0
0.055247 0.067577 -0.645172 0 255 0
-0.348066 0.061494 0.522333 127 0 127
-0.000655 0.278857 0.522333 0 255 0
-0.146000 0.162566 -0.103335 0 255 0
-0.242270 0.342180 0.424751 0 255 0
0.573722 -0.098264 0.523666 0 255 0
0.426748 -0.071857 0.137925 0 255 0
-0.556915 0.181683 -0.665338 0 255 0
0.036994 -0.203362 0.178368 0 255 0
-0.463057 -0.245107 0.424751 0 255 0
-0.009976 -0.263597 -0.665338 0 255 0
0.324432 0.423831 0.453648 0 255 0
-0.214245 0.162566 -0.486287 0 255 0
-0.484568 -0.037114 0.519653 0 255 0
0.192046 -0.291874 0.503689 0 255 0
0.009495 -0.324898 0.377019 0 255 0
0.353850 0.145340 0.463286 0 255 0
0.543690 -0.195664 -0.665338 0 255 0
-0.323359 -0.001561 0.463286 0 255 0
-0.136171 0.115965 0.424751 0 255 0
0.090653 -0.324898 0.318443 0 255 0
0.663218 0.195115 0.523666 0 255 0
0.130508 -0.203362 -0.317522 0 255 0
0.680791 0.144217 0.410659 0 255 0
0.426748 -0.163146 -0.456932 0 255 0
-0.663288 -0.074471 0.467163 0 255 0
0.404876 -0.224523 0.321232 0 255 0
-0.449448 -0.180613 -0.255256 0 255 0
-0.756943 -0.345458 0.460886 0 255 0
0.048371 0.021910 0.463286 0 255 0
-0.530283 -0.324898 -0.036098 0 255 0
-0.154067 -0.203362 0.046070 0 255 0
0.562321 -0.174914 0.463310 0 255 0
0.680791 -0.321807 -0.218009 0 255 0
-0.209080 -0.324898 0.232404 0 255 0
-0.355385 -0.324898 -0.142279 0 255 0
0.353454 0.397813 0.092147 0 255 0
0.680791 -0.252085 -0.417903 0 255 0
0.167081 -0.231388 0.341460 0 255 0
-0.025105 -0.128610 0.463286 0 255 0
-0.476070 -0.114850 0.522333 127 0 127
-0.220628 0.018315 0.424751 0 255 0
-0.448753 0.124691 -0.271712 0 255 0
-0.449307 -0.118597 -0.003421 0 255 0
0.664956 0.200438 -0.665338 0 255 0
0.400471 -0.203362 -0.006352 0 255 0
-0.385424 -0.324898 -0.469473 0 255 0
0.518398 -0.290544 0.424751 0 255 0
0.397422 0.162566 0.004802 0 255 0
0.243567 -0.279932 -0.665338 0 255 0
-0.519422 -0.092997 0.424751 0 255 0
0.822322 0.383208 0.426413 0 255 0
-0.146059 -0.231388 -0.102987 0 255 0
-0.674293 -0.223064 -0.490303 0 255 0
0.680791 -0.081500 0.296803 0 255 0
0.173979 -0.231388 -0.381553 0 255 0
0.526357 -0.060536 -0.000880 0 255 0
0.207523 -0.324898 -0.600549 0 255 0
0.041800 -0.134524 0.424751 0 255 0
0.553170 -0.050898 -0.226762 0 255 0
-0.674293 -0.016021 -0.440130 0 255 0
0.680791 -0.017275 -0.261017 0 255 0
-0.327574 -0.259192 0.519653 127 0 127
-0.653764 0.174520 0.463286 0 255 0
0.418502 0.162566 -0.343345 0 255 0
-0.734938 -0.120813 0.460886 0 255 0
-0.160278 0.162566 -0.246345 0 255 0
0.375795 0.008040 0.424751 0 255 0
0.232068 0.423831 0.441724 0 255 0
0.436490 0.397813 0.192871 0 255 0
-0.292279 -0.239163 0.424751 0 255 0
0.477260 -0.324898 -0.216600 0 255 0
-0.027997 -0.132453 -0.617884 0 255 0
-0.057145 -0.203362 -0.220061 0 255 0
0.680791 0.066643 -0.326036 0 255 0
-0.614210 -0.218368 0.463286 0 255 0
-0.438790 -0.292967 0.424751 0 255 0
-0.674293 -0.279713 -0.141524 0 255 0
-0.125854 -0.045473 0.463286 0 255 0
0.680791 -0.205488 -0.073460 0 255 0
0.706738 -0.201147 0.463310 0 255 0
0.031320 0.162566 -0.548607 0 255 0
-0.448064 0.162566 0.408003 0 255 0
-0.335379 0.262296 0.467163 0 255 0
-0.517888 -0.324898 0.180523 0 255 0
0.157618 0.149897 0.522333 127 0 127
0.454874 -0.021086 -0.345189 0 255 0
0.563123 -0.324898 -0.140323 0 255 0
0.426748 -0.005094 -0.452620 0 255 0
0.680791 0.337697 -0.541002 0 255 0
0.630707 -0.324898 0.393753 0 255 0
0.115936 0.397813 0.171703 0 255 0
-0.458441 0.051977 0.463286 0 255 0
0.429160 0.162566 -0.218578 0 255 0
0.196707 -0.324898 -0.273687 0 255 0
-0.588262 0.002348 0.463310 0 255 0
-0.403169 -0.223162 0.463286 0 255 0
-0.327738 -0.094774 0.475623 0 255 0
0.002578 -0.224523 -0.385781 0 255 0
-0.273903 0.157782 0.089089 0 255 0
-0.421228 0.062104 -0.535339 0 255 0
-0.421228 0.115841 0.071415 0 255 0
-0.240906 -0.300630 0.462268 0 255 0
-0.600051 -0.324898 -0.326235 0 255 0
-0.474200 0.164925 0.463286 0 255 0
0.439839 0.423831 0.440034 0 255 0
-0.400274 -0.128218 -0.617884 0 255 0
-0.538256 -0.324898 -0.169766 0 255 0
0.526357 -0.017710 -0.490755 0 255 0
-0.467464 -0.281831 -0.665338 0 255 0
-0.674293 -0.180913 -0.224404 0 255 0
0.529041 -0.117883 0.147449 0 255 0
-0.709490 0.280864 0.522253 0 255 0
-0.427783 -0.299854 0.516520 0 255 0
-0.529365 -0.324898 -0.306649 0 255 0
-0.353812 0.162566 0.238062 0 255 0
-0.075676 0.407887 0.494995 0 255 0
0.292952 -0.324898 0.321127 0 255 0
-0.674293 0.046622 -0.615189 0 255 0
-0.233467 -0.104660 0.522333 0 255 0
0.245792 0.162566 -0.346284 0 255 0
0.497160 -0.027667 0.519653 127 0 127
-0.448690 0.152537 0.227756 0 255 0
0.597636 -0.248417 0.461934 0 255 0
0.078977 0.156235 -0.665338 0 255 0
0.676444 -0.324898 -0.591072 0 255 0
-0.083740 0.235089 0.467163 0 255 0
-0.438240 -0.324898 -0.395494 0 255 0
0.387999 -0.175518 0.519653 0 255 0
-0.077538 0.145229 -0.665338 0 255 0
-0.060574 0.397813 0.312885 0 255 0
0.049883 0.245183 -0.665338 0 255 0
0.526357 -0.053558 0.100795 0 255 0
0.288547 -0.181602 -0.617884 0 255 0
0.628004 0.383195 -0.665338 0 255 0
-0.695874 0.292129 0.463315 0 255 0
0.412924 -0.203362 -0.397022 0 255 0
-0.511932 0.030906 -0.665338 0 255 0
0.695564 0.064128 0.467163 0 255 0
0.037835 -0.304536 0.467163 0 255 0
-0.318536 -0.177242 -0.617884 0 255 0
0.283176 -0.023902 -0.617884 0 255 0
0.426748 0.031677 -0.414838 0 255 0
-0.674293 0.232791 0.367766 0 255 0
-0.554408 -0.324898 -0.119983 0 255 0
-0.448778 0.113879 -0.352260 0 255 0
-0.119494 0.397813 -0.165250 0 255 0
0.445352 0.397813 0.076745 0 255 0
0.656516 -0.290868 0.512111 0 255 0
0.426748 0.115160 -0.450855 0 255 0
-0.627346 -0.001051 -0.665338 0 255 0
0.182673 -0.230838 -0.665338 0 255 0
0.428190 -0.272461 0.482513 0 255 0
-0.064993 0.397813 0.017688 0 255 0
-0.674293 0.279764 0.255315 0 255 0
0.066195 0.211073 0.424751 0 255 0
-0.096192 -0.253507 -0.665338 0 255 0
0.324499 0.162566 -0.218952 0 255 0
0.446685 -0.065702 0.208358 0 255 0
-0.247032 0.397813 0.088389 0 255 0
0.520373 0.397813 -0.430145 0 255 0
0.555391 0.069055 0.424751 0 255 0
0.374790 -0.231388 0.407145 0 255 0
0.680791 0.392235 -0.270220 0 255 0
-0.448822 0.094533 0.171189 0 255 0
0.287659 -0.324898 -0.439509 0 255 0
0.680791 -0.161663 0.375211 0 255 0
0.680791 -0.033775 0.217201 0 255 0
-0.220563 -0.192800 -0.571261 0 255 0
0.239649 0.268249 0.522333 127 0 127
-0.421228 -0.050874 -0.440347 0 255 0
-0.060132 0.283689 0.424751 0 255 0
0.134792 -0.078612 -0.645172 0 255 0
0.416009 -0.231388 -0.177613 0 255 0
-0.129895 -0.012395 -0.665338 0 255 0
0.011345 -0.324898 -0.603454 0 255 0
-0.411920 -0.203362 -0.191011 0 255 0
0.680791 0.045796 -0.000109 0 255 0
-0.110914 0.350568 0.460886 0 255 0
0.004445 0.094912 0.424751 0 255 0
0.519917 -0.079299 -0.665338 0 255 0
0.287427 -0.324898 -0.324197 0 255 0
0.205183 0.397813 0.137590 0 255 0
-0.219857 0.162566 0.138671 0 255 0
0.634339 -0.192101 0.463286 0 255 0
0.245416 0.157782 -0.248515 0 255 0
0.169896 0.130983 -0.645171 0 255 0
-0.299505 0.080571 0.424751 0 255 0
-0.674293 0.034598 0.022526 0 255 0
-0.055039 0.397813 -0.369639 0 255 0
0.176261 0.117135 0.463286 0 255 0
0.590561 0.388482 0.463315 0 255 0
0.454931 0.028398 -0.141427 0 255 0
-0.421228 -0.186182 0.014582 0 255 0
0.580851 -0.347061 0.426000 0 255 0
0.366243 0.397813 -0.060760 0 255 0
0.677021 -0.324898 -0.399501 0 255 0
0.526357 -0.089351 0.042505 0 255 0
0.430103 0.397813 -0.232005 0 255 0
-0.294054 0.142214 0.424751 0 255 0
0.105876 -0.324898 -0.579862 0 255 0
-0.454340 0.115140 -0.665338 0 255 0
-0.624406 0.057569 0.463286 0 255 0
-0.674293 -0.157029 -0.044185 0 255 0
0.389882 -0.338027 0.520871 0 255 0
0.131960 0.162566 0.055980 0 255 0
-0.583401 0.140910 0.463286 0 255 0
-0.347607 -0.110184 -0.617884 0 255 0
0.278541 0.162566 -0.519152 0 255 0
-0.401480 0.397813 -0.420021 0 255 0
-0.648365 -0.264742 0.470103 0 255 0
0.137981 -0.048683 0.424751 0 255 0
-0.531665 0.234739 0.519653 0 255 0
-0.090281 -0.203362 -0.036375 0 255 0
-0.076676 -0.203362 0.419290 0 255 0
-0.674293 0.214915 -0.187875 0 255 0
-0.209343 -0.203362 -0.026757 0 255 0
-0.501768 -0.324898 0.063840 0 255 0
0.680791 0.095487 0.064783 0 255 0
0.044171 0.385221 -0.665338 0 255 0
-0.674293 -0.202891 -0.596966 0 255 0
0.108338 -0.063134 0.463286 0 255 0
0.444123 -0.183139 0.424751 0 255 0
-0.071861 0.397813 -0.556889 0 255 0
0.225432 -0.253578 0.519653 127 0 127
0.455914 0.397813 0.253703 0 255 0
-0.163984 -0.324898 -0.281764 0 255 0
-0.744203 -0.224511 0.460886 0 255 0
-0.674293 0.228905 -0.028113 0 255 0
-0.674293 -0.106592 0.190954 0 255 0
-0.013366 -0.231388 -0.570391 0 255 0
-0.205695 -0.092731 -0.617884 0 255 0
0.024054 -0.003261 0.424751 0 255 0
0.578724 -0.210797 0.519653 0 255 0
0.178303 0.053364 0.463286 0 255 0
0.268718 0.414554 0.492474 0 255 0
0.680791 0.210152 -0.451085 0 255 0
0.431238 0.304400 0.424751 0 255 0
0.258792 0.397813 0.072562 0 255 0
0.671405 0.127824 0.519653 0 255 0
0.391264 0.046224 -0.665338 0 255 0
0.526357 -0.063953 -0.456600 0 255 0
-0.301696 -0.231388 -0.623861 0 255 0
0.420769 0.197072 0.424751 0 255 0
0.025441 -0.254420 0.519653 127 0 127
0.439335 0.342657 0.460886 0 255 0
0.553170 0.015668 -0.261329 0 255 0
0.116057 -0.324898 0.035864 0 255 0
0.311353 -0.128510 0.424751 0 255 0
0.407418 0.397813 -0.119642 0 255 0
-0.405327 -0.203362 0.106482 0 255 0
-0.687135 0.074720 0.463286 0 255 0
0.297104 -0.229535 -0.665338 0 255 0
-0.096260 -0.324898 -0.344515 0 255 0
-0.452769 0.397813 -0.175061 0 255 0
0.368814 -0.199172 0.463286 0 255 0
-0.296957 0.397813 -0.004737 0 255 0
-0.606220 -0.309869 0.424751 0 255 0
-0.169430 -0.203362 -0.392335 0 255 0
-0.535051 0.375415 0.523671 0 255 0
-0.148428 0.397813 -0.476660 0 255 0
0.310400 0.055640 0.522333 0 127 127
-0.392510 -0.203362 0.218196 0 255 0
-0.453332 0.397813 -0.102609 0 255 0
-0.062240 0.397813 0.403360 0 255 0
-0.398906 0.397813 -0.276327 0 255 0
0.335275 0.171072 -0.665338 0 255 0
0.339731 0.397813 -0.572446 0 255 0
0.220962 0.195818 0.463310 0 255 0
-0.338192 -0.203362 -0.378520 0 255 0
-0.416450 -0.191315 -0.571261 0 255 0
0.609942 0.397813 -0.540276 0 255 0
0.680791 0.060286 -0.253045 0 255 0
0.089686 0.193707 0.522333 127 0 127
0.447413 -0.059070 -0.593693 0 255 0
-0.205415 -0.182062 -0.617884 0 255 0
-0.278512 0.051744 0.463286 0 255 0
0.650894 0.397813 -0.323376 0 255 0
-0.156812 -0.255421 0.460886 0 255 0
-0.525067 -0.022205 -0.361486 0 255 0
-0.473978 0.275994 0.522333 0 255 0
0.072830 -0.324898 -0.364389 0 255 0
0.522328 0.306951 0.523671 0 255 0
0.280380 -0.231388 0.411490 0 255 0
0.125855 0.322148 0.511092 0 255 0
-0.550976 0.070548 -0.665338 0 255 0
-0.336178 -0.231388 0.125382 0 255 0
0.602248 -0.303703 0.469240 0 255 0
0.354621 -0.185339 -0.617884 0 255 0
-0.465039 -0.324898 -0.522016 0 255 0
0.394460 -0.324898 -0.572192 0 255 0
0.196469 -0.231388 0.211792 0 255 0
0.018392 0.390707 0.446236 0 255 0
-0.674293 -0.252773 0.323169 0 255 0
-0.704448 -0.322914 0.467318 0 255 0
-0.303030 0.197595 0.424751 0 255 0
-0.562461 -0.266996 -0.665338 0 255 0
-0.394125 0.397813 -0.186509 0 255 0
0.553170 -0.009333 -0.321397 0 255 0
0.059847 -0.185655 -0.617884 0 255 0
-0.418818 -0.231388 -0.437892 0 255 0
0.426748 0.104933 -0.374262 0 255 0
0.166554 -0.013947 -0.645171 0 255 0
-0.538097 0.039970 0.403047 0 255 0
-0.111886 0.331327 0.510522 0 255 0
-0.674293 0.276083 0.205482 0 255 0
0.680791 0.367406 -0.488138 0 255 0
0.068123 -0.203362 -0.453357 0 255 0
-0.080170 -0.060123 -0.665338 0 255 0
0.822322 0.186742 0.448441 0 255 0
0.352464 0.397813 0.005648 0 255 0
-0.551880 -0.003518 0.073070 0 255 0
-0.314942 0.354788 0.505763 0 255 0
-0.051506 0.251028 -0.665338 0 255 0
-0.674293 -0.021972 0.110746 0 255 0
-0.055787 0.030397 0.522333 0 127 127
-0.218283 0.397813 0.227271 0 255 0
0.654758 -0.142109 0.519653 0 255 0
-0.371829 -0.324898 0.117902 0 255 0
-0.266813 -0.202766 -0.645174 0 255 0
0.474140 0.137143 0.463310 0 255 0
0.549849 0.341817 -0.665338 0 255 0
-0.253099 -0.203362 -0.186557 0 255 0
-0.719462 0.123456 0.474503 0 255 0
-0.045129 -0.228292 -0.665338 0 255 0
0.561845 -0.052627 0.360175 0 255 0
-0.379799 0.162566 -0.368437 0 255 0
-0.551880 -0.076673 0.019966 0 255 0
0.010635 0.287661 0.424751 0 255 0
0.378157 -0.023913 -0.614594 0 255 0
0.272343 -0.224523 0.071719 0 255 0
0.426748 0.027071 0.419447 0 255 0
0.421331 0.150847 0.522333 0 255 0
0.680791 -0.272867 0.009766 0 255 0
0.526357 -0.007826 0.034416 0 255 0
0.368146 0.162566 0.359853 0 255 0
-0.491203 -0.297063 0.424751 0 255 0
-0.344305 -0.080024 0.424751 0 255 0
-0.289627 -0.285550 0.469240 0 255 0
-0.159524 0.279702 0.424751 0 255 0
-0.565290 0.397813 0.100492 0 255 0
-0.421228 -0.040926 0.047339 0 255 0
-0.674293 -0.242434 -0.277815 0 255 0
-0.230012 -0.203362 0.326521 0 255 0
-0.278917 -0.042686 -0.645174 0 255 0
0.236947 0.378119 0.460886 0 255 0
-0.303466 0.369310 -0.665338 0 255 0
0.454646 -0.221686 0.346825 0 255 0
0.526357 0.006153 0.218255 0 255 0
0.454941 0.038075 0.056998 0 255 0
-0.261480 0.229404 0.424751 0 255 0
0.241030 0.102452 0.463286 0 255 0
0.054878 -0.324898 0.081727 0 255 0
0.309221 0.397813 -0.084978 0 255 0
-0.372143 -0.306654 -0.665338 0 255 0
-0.093559 -0.324898 -0.575417 0 255 0
-0.401281 0.327045 0.463315 0 255 0
-0.448998 0.017184 -0.419620 0 255 0
-0.381713 0.052629 -0.645174 0 255 0
0.680791 0.226801 -0.620521 0 255 0
0.482441 -0.324898 -0.323315 0 255 0
-0.112879 -0.324898 0.168096 0 255 0
-0.185465 0.348054 0.507098 0 255 0
0.401696 -0.324898 -0.353206 0 255 0
0.196615 -0.203362 0.297493 0 255 0
-0.540633 -0.062794 -0.665338 0 255 0
-0.542181 -0.324898 0.302314 0 255 0
0.364054 -0.145287 -0.645170 0 255 0
-0.286755 0.292609 0.518091 127 0 127
-0.167901 0.157196 0.522333 127 0 127
-0.081906 0.162566 -0.193694 0 255 0
-0.535012 -0.324898 -0.552886 0 255 0
-0.170108 -0.161058 0.522333 127 0 127
0.193742 -0.203362 0.373116 0 255 0
-0.223854 0.045755 -0.645173 0 255 0
0.031715 0.162566 -0.076404 0 255 0
-0.417346 -0.176658 0.522333 127 0 127
0.232335 -0.144038 0.463286 0 255 0
0.002901 0.162566 0.115468 0 255 0
-0.055511 0.162566 -0.620916 0 255 0
0.454987 0.078012 -0.218736 0 255 0
0.510791 -0.262205 0.468382 0 255 0
-0.661544 -0.145772 -0.665338 0 255 0
0.287540 0.162566 0.296810 0 255 0
-0.556909 -0.233550 0.523666 0 255 0
-0.486659 0.397813 -0.320541 0 255 0
0.501235 0.397813 -0.098357 0 255 0
-0.609396 -0.148936 0.424751 0 255 0
0.096679 -0.231388 -0.347522 0 255 0
-0.247004 0.280614 0.489350 0 255 0
-0.161945 -0.203362 -0.475071 0 255 0
-0.355400 -0.311553 0.467318 0 255 0
-0.105069 -0.203362 -0.141677 0 255 0
-0.674293 0.346984 -0.055276 0 255 0
0.162155 0.397813 0.082229 0 255 0
-0.278488 -0.203362 0.059516 0 255 0
-0.404230 0.094933 0.470339 0 255 0
-0.195124 0.043402 0.522333 0 127 127
-0.340911 -0.231388 -0.296927 0 255 0
-0.111284 0.162566 -0.286990 0 255 0
0.673832 -0.033418 0.519653 0 255 0
0.392764 -0.347061 0.443873 0 255 0
0.580660 -0.324898 -0.343140 0 255 0
0.654607 -0.337868 0.498235 0 255 0
0.455074 0.154605 -0.014785 0 255 0
-0.551880 -0.015430 -0.294748 0 255 0
0.553170 -0.075503 0.219453 0 255 0
0.448154 -0.231388 -0.005887 0 255 0
-0.674293 0.121859 0.096944 0 255 0
-0.549282 -0.324898 0.355495 0 255 0
-0.545073 0.195253 0.424751 0 255 0
0.123837 0.162566 -0.233568 0 255 0
-0.532994 0.303650 0.523671 0 255 0
-0.674293 0.128566 -0.060719 0 255 0
-0.060276 -0.141295 -0.665338 0 255 0
0.645272 0.308718 0.523671 0 255 0
-0.139352 0.122851 0.491974 0 255 0
0.680791 -0.232740 -0.642437 0 255 0
0.191742 -0.324898 0.333012 0 255 0
0.454689 -0.184472 -0.578435 0 255 0
-0.149841 0.397813 -0.364063 0 255 0
0.426748 0.058221 -0.101215 0 255 0
-0.639848 -0.202436 0.424751 0 255 0
0.680791 0.042745 -0.173019 0 255 0
-0.424901 0.249532 0.424751 0 255 0
-0.421228 0.042345 0.018031 0 255 0
0.426748 -0.000879 -0.190367 0 255 0
-0.460635 0.254685 -0.665338 0 255 0
0.256141 0.037302 0.424751 0 255 0
-0.525067 -0.056527 -0.503279 0 255 0
-0.357965 0.253165 0.424751 0 255 0
-0.198498 -0.324898 -0.663970 0 255 0
0.247237 -0.338027 0.485425 0 255 0
0.680791 0.220260 -0.526863 0 255 0
-0.206143 0.390707 0.445644 0 255 0
0.227557 -0.303712 0.424751 0 255 0
-0.674293 0.048505 0.188614 0 255 0
-0.400157 -0.151213 0.424751 0 255 0
0.514618 -0.310492 0.474701 0 255 0
0.387617 -0.324898 -0.467642 0 255 0
-0.522307 0.017410 0.240491 0 255 0
-0.344582 -0.229165 0.424751 0 255 0
0.008957 -0.011040 -0.645172 0 255 0
-0.123683 -0.123614 -0.617884 0 255 0
-0.150817 0.024256 0.424751 0 255 0
0.096680 -0.203362 -0.257951 0 255 0
-0.030881 -0.184178 -0.617884 0 255 0
0.111228 -0.231388 0.326049 0 255 0
-0.515470 -0.030251 0.292168 0 255 0
-0.406195 0.397813 -0.485683 0 255 0
-0.240692 0.397813 0.337470 0 255 0
-0.550114 0.243286 -0.665338 0 255 0
0.445933 0.397813 -0.490766 0 255 0
0.370061 0.327993 -0.665338 0 255 0
-0.192323 -0.144829 -0.665338 0 255 0
-0.099817 -0.337868 0.495024 0 255 0
-0.567723 0.397813 -0.009439 0 255 0
-0.441165 0.007451 0.419606 0 255 0
0.083840 -0.324898 -0.534111 0 255 0
0.527336 0.036795 0.105550 0 255 0
0.426748 0.114841 0.300549 0 255 0
0.624650 0.397813 -0.215309 0 255 0
0.680791 -0.080949 -0.406094 0 255 0
-0.630303 0.343626 0.424751 0 255 0
0.338274 0.125875 -0.645171 0 255 0
-0.626605 0.368451 -0.665338 0 255 0
0.323386 -0.203362 -0.253172 0 255 0
0.401165 0.397813 -0.271110 0 255 0
0.166848 -0.089349 0.424751 0 255 0
-0.048720 0.061597 0.424751 0 255 0
-0.421228 -0.033933 0.258380 0 255 0
-0.155014 -0.172014 0.463310 0 255 0
0.426748 -0.064645 -0.152699 0 255 0
0.234744 -0.082627 0.522333 0 127 127
-0.163522 0.162566 -0.618730 0 255 0
-0.474424 -0.226750 0.519653 127 0 127
-0.674293 0.181416 0.281547 0 255 0
-0.170323 -0.038894 -0.617884 0 255 0
0.126690 0.140104 -0.665338 0 255 0
0.123051 0.343737 0.463315 0 255 0
-0.397252 -0.186331 -0.617884 0 255 0
0.725960 0.357949 0.509651 0 255 0
0.021506 -0.203362 -0.198630 0 255 0
0.680791 -0.153993 -0.561509 0 255 0
0.412592 -0.203362 -0.525979 0 255 0
0.680791 -0.272591 -0.144774 0 255 0
0.426748 0.107118 0.032920 0 255 0
0.526357 0.007765 -0.135710 0 255 0
0.347946 -0.067768 -0.617884 0 255 0
0.566551 -0.248104 0.424751 0 255 0
-0.205151 -0.224523 0.241371 0 255 0
0.108707 0.397813 -0.583075 0 255 0
0.629907 0.297117 -0.665338 0 255 0
-0.371649 0.411761 0.494267 0 255 0
-0.036063 0.162566 -0.232033 0 255 0
0.099601 0.397813 0.352382 0 255 0
-0.449154 -0.051571 0.144731 0 255 0
0.770766 -0.069655 0.460886 0 255 0
0.142880 -0.203362 -0.425780 0 255 0
0.680791 0.347816 -0.183653 0 255 0
-0.069470 0.162566 -0.102082 0 255 0
0.042893 0.162566 -0.176691 0 255 0
-0.449043 -0.002675 -0.247671 0 255 0
0.511034 -0.324898 -0.148941 0 255 0
-0.315604 0.397813 -0.517443 0 255 0
0.680791 0.352805 -0.623281 0 255 0
0.553170 -0.022445 -0.376753 0 255 0
0.680791 -0.112186 0.070721 0 255 0
-0.553731 -0.077691 0.242097 0 255 0
-0.449265 -0.100391 0.132672 0 255 0
-0.473770 0.397813 -0.256384 0 255 0
0.047006 -0.324898 -0.084280 0 255 0
0.323325 0.397813 -0.233465 0 255 0
0.331060 -0.231388 -0.200899 0 255 0
-0.191638 -0.324898 -0.567427 0 255 0
0.194212 -0.203362 -0.481732 0 255 0
-0.402223 0.397813 -0.553498 0 255 0
-0.674293 0.118564 -0.159328 0 255 0
0.333999 -0.324898 -0.521391 0 255 0
-0.156491 -0.203181 0.424751 0 255 0
0.127961 -0.228677 0.522333 0 255 0
0.401568 -0.142972 0.483859 0 255 0
-0.409580 -0.224523 -0.499974 0 255 0
0.001428 -0.324898 -0.293123 0 255 0
0.680791 0.038906 -0.491302 0 255 0
0.680791 0.265701 0.046126 0 255 0
0.292556 0.299443 0.424751 0 255 0
0.117729 0.030049 0.424751 0 255 0
-0.156937 -0.110826 -0.665338 0 255 0
-0.447248 -0.231388 -0.107904 0 255 0
0.599049 0.397813 -0.093868 0 255 0
-0.603769 -0.324898 0.243515 0 255 0
0.361959 0.414797 0.490797 0 255 0
0.031912 -0.203362 -0.117267 0 255 0
0.526357 0.025156 0.284502 0 255 0
-0.421228 0.080375 -0.373147 0 255 0
-0.344689 0.319419 0.463315 0 255 0
0.680791 0.130800 -0.183577 0 255 0
-0.178784 -0.224523 -0.257676 0 255 0
-0.632796 -0.203942 -0.665338 0 255 0
-0.413172 0.351881 0.506340 0 255 0
0.680791 -0.150348 -0.128091 0 255 0
-0.083609 -0.299444 0.424751 0 255 0
-0.815823 0.377126 0.451191 0 255 0
0.303692 -0.193537 0.463286 0 255 0
-0.525067 -0.015647 -0.200438 0 255 0
-0.370024 -0.324898 -0.316188 0 255 0
0.377666 0.397813 -0.163644 0 255 0
-0.296443 0.162566 -0.569132 0 255 0
-0.414660 -0.231388 0.291673 0 255 0
0.426748 -0.052280 0.053212 0 255 0
-0.455802 0.280614 0.476319 0 255 0
0.410314 -0.231388 0.099834 0 255 0
0.426748 -0.182421 0.027984 0 255 0
-0.254740 -0.224523 0.398602 0 255 0
0.787134 0.389105 0.460886 0 255 0
0.071289 -0.324898 -0.024417 0 255 0
0.426748 0.052014 -0.022787 0 255 0
-0.674293 0.157791 -0.612780 0 255 0
0.057881 -0.318129 -0.665338 0 255 0
0.446685 0.045626 -0.308351 0 255 0
-0.421228 -0.085078 -0.499079 0 255 0
0.454848 -0.044209 -0.100624 0 255 0
0.769062 0.108715 0.460886 0 255 0
0.426748 -0.079893 -0.496930 0 255 0
-0.321638 -0.231388 -0.175725 0 255 0
0.719801 0.005704 0.463286 0 255 0
-0.300494 -0.324898 0.377742 0 255 0
0.680791 0.314635 -0.341822 0 255 0
0.501547 0.076675 0.519653 0 255 0
-0.448964 0.032033 0.307643 0 255 0
-0.254605 -0.324898 -0.328131 0 255 0
0.173533 0.347892 0.507355 0 255 0
-0.421228 -0.036045 0.362967 0 255 0
0.325470 -0.295750 0.469240 0 255 0
0.554591 -0.102054 0.424751 0 255 0
0.355937 0.210295 0.522333 127 0 127
0.680791 -0.272203 0.327283 0 255 0
-0.265810 -0.231388 -0.254037 0 255 0
-0.622766 -0.293489 0.506285 0 255 0
-0.338274 -0.203362 0.239305 0 255 0
0.791569 -0.142472 0.460886 0 255 0
-0.674293 0.029840 -0.116342 0 255 0
-0.445637 0.048602 0.522333 127 0 127
-0.674293 0.310593 -0.218303 0 255 0
-0.420319 -0.324898 -0.061781 0 255 0
0.310909 -0.231388 -0.438773 0 255 0
0.649898 0.252175 0.463310 0 255 0
0.680791 0.203373 0.039218 0 255 0
0.259161 0.250409 0.424751 0 255 0
0.680791 -0.006201 0.043769 0 255 0
0.360015 0.162566 -0.453694 0 255 0
-0.332414 0.184631 -0.665338 0 255 0
0.680791 0.296600 -0.188098 0 255 0
-0.674293 -0.120729 -0.444294 0 255 0
-0.253875 0.162566 -0.045539 0 255 0
-0.421228 -0.160805 -0.071442 0 255 0
-0.674293 -0.260079 -0.556683 0 255 0
0.586008 0.397813 0.368652 0 255 0
-0.815823 -0.081523 0.425770 0 255 0
0.430010 0.397813 -0.430449 0 255 0
-0.329761 0.102861 0.463286 0 255 0
-0.674293 0.367926 0.239244 0 255 0
0.535756 -0.120455 0.249614 0 255 0
0.530577 0.397813 -0.239659 0 255 0
-0.205048 0.397813 -0.438782 0 255 0
0.504607 -0.324898 0.394590 0 255 0
0.275148 0.133497 0.424751 0 255 0
-0.431446 -0.324898 -0.236547 0 255 0
0.473718 0.397813 -0.149798 0 255 0
0.334236 0.023734 0.491903 0 255 0
0.167412 -0.039683 0.522333 0 127 127
-0.648482 -0.324898 0.004094 0 255 0
0.454928 0.026538 -0.376730 0 255 0
-0.002720 -0.203362 -0.023262 0 255 0
-0.278342 -0.120687 0.522333 0 127 127
-0.333233 -0.152374 -0.665338 0 255 0
-0.674293 0.353556 0.332315 0 255 0
-0.340066 -0.203362 -0.209552 0 255 0
-0.031608 -0.324898 -0.158553 0 255 0
-0.406817 -0.224523 -0.244101 0 255 0
0.212295 0.072497 0.424751 0 255 0
-0.113421 -0.324898 0.100823 0 255 0
0.454978 0.069896 -0.523574 0 255 0
0.495932 0.397813 0.386055 0 255 0
0.650430 -0.214937 0.424751 0 255 0
0.213567 0.300205 0.460886 0 255 0
0.424080 0.279330 0.467163 0 255 0
-0.512289 0.018392 0.463286 0 255 0
0.669047 0.414797 0.508443 0 255 0
0.334365 0.125449 0.424751 0 255 0
-0.594439 -0.102734 -0.665338 0 255 0
0.328948 -0.224523 -0.051253 0 255 0
-0.265565 -0.285089 0.424751 0 255 0
-0.029856 -0.324898 0.081277 0 255 0
-0.674293 -0.214578 0.269199 0 255 0
-0.058660 0.162566 -0.286655 0 255 0
-0.304041 0.162566 0.335975 0 255 0
0.175153 0.397813 0.360080 0 255 0
-0.719462 -0.017981 0.499951 0 255 0
0.459355 -0.003479 0.463310 0 255 0
-0.586530 -0.338027 0.521890 0 255 0
0.353834 0.162566 -0.606503 0 255 0
0.184139 -0.026809 0.424751 0 255 0
-0.159183 -0.324898 -0.457034 0 255 0
-0.040489 0.009299 0.424751 0 255 0
0.550672 0.037439 -0.341234 0 255 0
-0.106394 0.397813 0.278318 0 255 0
0.680791 -0.097208 0.155431 0 255 0
0.030478 -0.121097 -0.617884 0 255 0
0.039471 -0.231388 -0.500286 0 255 0
-0.528524 -0.118169 0.157387 0 255 0
-0.421228 -0.074750 -0.143292 0 255 0
-0.329505 -0.324898 -0.184171 0 255 0
0.359576 -0.279579 -0.665338 0 255 0
0.205801 -0.159294 0.424751 0 255 0
-0.677349 0.270050 0.424751 0 255 0
0.369134 0.397813 0.323923 0 255 0
-0.291044 0.279555 -0.665338 0 255 0
-0.326937 -0.055172 -0.617884 0 255 0
0.366755 0.397813 -0.420140 0 255 0
-0.448685 0.154516 -0.501085 0 255 0
0.305738 0.364867 0.424751 0 255 0
-0.421941 -0.268875 -0.665338 0 255 0
-0.458079 0.423048 0.460886 0 255 0
0.152343 0.034354 -0.645171 0 255 0
-0.311119 0.397813 -0.246505 0 255 0
0.454776 -0.107288 -0.067334 0 255 0
-0.681942 -0.168256 0.460886 0 255 0
-0.674293 -0.177250 -0.130110 0 255 0
0.097968 0.397813 0.007036 0 255 0
0.008061 0.397813 0.220019 0 255 0
0.265572 -0.226884 0.229949 0 255 0
0.203318 0.162566 -0.401801 0 255 0
0.553170 -0.086900 -0.376001 0 255 0
-0.301886 -0.170878 0.424751 0 255 0
0.446685 -0.134095 -0.380613 0 255 0
0.242040 -0.226884 -0.421935 0 255 0
-0.253701 -0.324898 0.276387 0 255 0
0.680791 -0.279999 -0.251612 0 255 0
0.446685 0.014979 0.009681 0 255 0
0.011870 -0.099231 0.463286 0 255 0
-0.264088 -0.041674 0.424751 0 255 0
0.646096 -0.324898 -0.500114 0 255 0
-0.131110 0.203526 0.522333 127 0 127
-0.172189 -0.226884 -0.544344 0 255 0
-0.442355 -0.071862 0.236759 0 255 0
0.278490 0.122851 0.504381 0 255 0
0.688570 -0.145993 0.463286 0 255 0
0.012097 0.166752 0.424751 0 255 0
-0.381337 0.162566 -0.566921 0 255 0
0.088116 0.352333 0.424751 0 255 0
0.270961 -0.324898 0.165047 0 255 0
-0.419998 -0.231388 -0.620015 0 255 0
-0.128348 -0.059518 -0.665338 0 255 0
-0.551880 -0.051439 -0.116193 0 255 0
-0.674293 -0.020596 0.254711 0 255 0
-0.449317 -0.123102 -0.563064 0 255 0
-0.102071 -0.212060 0.519653 0 255 0
-0.140469 0.303155 0.460886 0 255 0
0.174271 0.397813 0.266447 0 255 0
0.248531 0.141743 -0.645171 0 255 0
0.106892 0.085863 0.424751 0 255 0
0.350894 -0.231388 -0.372034 0 255 0
0.680791 -0.078423 0.371078 0 255 0
0.088585 0.397813 0.279792 0 255 0
-0.130586 -0.270227 0.424751 0 255 0
-0.448781 0.112620 0.339434 0 255 0
-0.553734 -0.001248 0.376303 0 255 0
-0.068558 -0.146376 0.424751 0 255 0
-0.463567 -0.337868 0.473083 0 255 0
0.231244 -0.203362 -0.085349 0 255 0
0.277230 -0.226884 -0.096979 0 255 0
-0.018580 0.162566 -0.462010 0 255 0
-0.081072 -0.013685 -0.645173 0 255 0
-0.288083 0.162566 -0.419598 0 255 0
0.822322 -0.007370 0.430955 0 255 0
-0.449157 -0.052788 -0.308796 0 255 0
0.184403 -0.231388 0.002758 0 255 0
0.316476 -0.025754 0.424751 0 255 0
0.072453 -0.031153 0.522333 0 127 127
0.710882 0.410485 0.463315 0 255 0
-0.152038 0.074828 0.463286 0 255 0
0.095290 -0.203362 -0.065159 0 255 0
-0.530804 0.037802 -0.487404 0 255 0
0.454695 -0.178873 -0.068982 0 255 0
-0.421188 0.019696 -0.616265 0 255 0
-0.674293 0.038235 0.113950 0 255 0
-0.218681 0.162566 0.329581 0 255 0
0.388452 0.296946 0.517232 0 255 0
-0.649087 0.397813 -0.510755 0 255 0
-0.522329 0.026825 0.309487 0 255 0
-0.269031 0.397813 -0.089678 0 255 0
0.680791 0.369665 0.186844 0 255 0
0.249898 -0.203362 -0.304807 0 255 0
-0.416158 -0.224523 -0.342927 0 255 0
0.588931 0.002964 0.460902 0 255 0
-0.093861 0.013352 0.424751 0 255 0
-0.207474 0.287442 0.460886 0 255 0
0.680791 0.071057 -0.437632 0 255 0
0.631449 -0.324898 -0.295993 0 255 0
0.498115 0.214923 0.519653 127 0 127
-0.441165 -0.128542 0.195574 0 255 0
0.627104 0.397813 0.020663 0 255 0
0.021206 0.316973 0.460886 0 255 0
-0.323936 0.303019 0.424751 0 255 0
0.032113 0.226285 0.463310 0 255 0
0.680791 0.246952 -0.284175 0 255 0
0.294373 -0.324898 -0.118416 0 255 0
0.208487 0.162566 0.107829 0 255 0
0.065909 0.162566 -0.458401 0 255 0
0.110891 -0.324898 -0.463383 0 255 0
-0.693784 -0.024010 0.460886 0 255 0
0.680791 0.098394 0.280443 0 255 0
0.050533 0.126291 0.424751 0 255 0
-0.611679 0.080708 0.424751 0 255 0
-0.584985 -0.100524 0.424751 0 255 0
-0.313385 -0.324898 0.212285 0 255 0
0.426748 0.114632 -0.156142 0 255 0
-0.339508 -0.231388 -0.542389 0 255 0
0.426748 -0.102933 0.448862 0 255 0
-0.449036 0.000190 -0.352841 0 255 0
0.680791 0.298402 -0.660717 0 255 0
-0.384042 0.002351 -0.665338 0 255 0
-0.021506 0.233979 0.467163 0 255 0
-0.674293 0.173473 -0.431788 0 255 0
-0.160945 -0.224523 -0.019428 0 255 0
0.680791 -0.273190 0.257536 0 255 0
0.150333 0.213608 0.463286 0 255 0
-0.315486 0.161381 0.469282 0 255 0
-0.291722 -0.324898 0.054682 0 255 0
0.602518 -0.324898 -0.070902 0 255 0
-0.184697 -0.191591 -0.665338 0 255 0
-0.415468 0.349039 0.424751 0 255 0
0.397361 -0.324898 0.096779 0 255 0
0.532837 0.397813 0.209649 0 255 0
0.592386 -0.324898 0.209099 0 255 0
-0.551880 0.011811 -0.061083 0 255 0
-0.717238 -0.276501 0.523661 0 255 0
0.271049 -0.231388 0.339309 0 255 0
-0.674293 -0.193598 -0.176275 0 255 0
-0.460218 -0.324898 -0.099100 0 255 0
-0.062341 0.169369 0.424751 0 255 0
-0.232976 0.397813 -0.520778 0 255 0
-0.551880 -0.059829 0.144031 0 255 0
-0.106517 -0.203362 -0.213964 0 255 0
-0.674293 0.201210 -0.283326 0 255 0
0.680791 -0.222640 -0.365090 0 255 0
-0.718945 -0.066377 0.517757 0 255 0
0.680791 0.012415 -0.566843 0 255 0
0.454764 -0.118254 -0.309148 0 255 0
-0.586265 0.204055 0.523666 0 255 0
0.323220 -0.231388 0.106217 0 255 0
-0.231126 0.095925 0.463286 0 255 0
-0.282572 0.250807 0.463286 0 255 0
0.454851 -0.041549 -0.026586 0 255 0
0.464843 0.288128 -0.665338 0 255 0
-0.567659 -0.039701 0.463286 0 255 0
0.008047 -0.231388 0.075963 0 255 0
0.446685 0.061209 -0.606781 0 255 0
0.359528 0.162566 -0.360970 0 255 0
0.680791 -0.089177 0.251060 0 255 0
0.265369 0.397813 -0.160204 0 255 0
-0.449355 -0.139954 0.392723 0 255 0
0.337361 0.162566 -0.501844 0 255 0
-0.393531 0.161381 0.495726 0 255 0
-0.389361 -0.023870 -0.609749 0 255 0
0.680791 0.140491 -0.614271 0 255 0
0.554873 0.397813 0.413202 0 255 0
0.366503 -0.203362 -0.111229 0 255 0
-0.674293 0.111008 -0.377776 0 255 0
-0.224995 -0.110356 0.424751 0 255 0
-0.041975 -0.226807 0.463310 0 255 0
-0.089736 -0.231388 -0.354180 0 255 0
0.388322 0.329117 0.463315 0 255 0
0.364752 -0.203362 0.030984 0 255 0
0.429316 -0.324898 0.176991 0 255 0
0.280856 -0.324898 -0.664283 0 255 0
-0.169677 0.213865 -0.665338 0 255 0
0.196900 0.162566 0.438020 0 255 0
-0.281384 -0.246883 0.519653 127 0 127
0.339422 0.397813 0.207000 0 255 0
0.680791 -0.167266 0.141498 0 255 0
-0.421228 -0.010724 -0.092438 0 255 0
0.426748 0.065935 0.210925 0 255 0
-0.475908 0.347048 0.424751 0 255 0
0.453073 -0.231388 -0.310531 0 255 0
-0.486360 0.391398 0.521981 0 255 0
-0.049382 0.084386 0.522333 0 127 127
0.194661 0.195739 0.522333 0 255 0
-0.032179 0.397813 -0.649488 0 255 0
-0.652597 0.102245 0.424751 0 255 0
0.655202 -0.093689 0.460886 0 255 0
0.426748 -0.146290 -0.009470 0 255 0
0.454774 -0.109432 0.129065 0 255 0
-0.115786 0.397813 0.455969 0 255 0
0.582743 0.250624 0.453551 0 255 0
-0.324751 0.162566 -0.080084 0 255 0
0.680791 0.290918 -0.298561 0 255 0
0.013280 0.162566 -0.247148 0 255 0
0.168371 0.397810 0.496887 0 255 0
-0.356080 0.397813 0.088313 0 255 0
-0.421228 -0.202383 -0.134990 0 255 0
0.477529 -0.337868 0.481943 0 255 0
-0.237875 -0.203362 0.106879 0 255 0
0.232177 -0.203362 0.413289 0 255 0
0.426748 -0.144702 0.200096 0 255 0
-0.815823 -0.181998 0.444379 0 255 0
0.628605 0.067558 -0.665338 0 255 0
-0.328817 0.162566 -0.335009 0 255 0
-0.485511 -0.297894 0.520391 0 255 0
-0.421228 0.111929 -0.459776 0 255 0
0.119183 -0.178927 0.424751 0 255 0
0.211659 -0.035620 -0.645171 0 255 0
0.253191 0.162566 0.396574 0 255 0
0.207546 -0.067791 0.424751 0 255 0
-0.317513 0.397813 0.421514 0 255 0
0.680791 -0.146302 -0.341589 0 255 0
-0.195759 -0.324898 0.080331 0 255 0
-0.449453 -0.183101 0.105965 0 255 0
0.612364 0.397813 0.118975 0 255 0
-0.273461 -0.324898 -0.109419 0 255 0
-0.421228 0.057400 0.236855 0 255 0
-0.351543 -0.168413 0.424751 0 255 0
-0.107579 0.206575 0.424751 0 255 0
0.764742 0.167009 0.460886 0 255 0
0.282738 0.397813 0.166910 0 255 0
0.394346 0.162566 -0.273377 0 255 0
0.304010 0.397813 0.092783 0 255 0
-0.548954 -0.162584 -0.665338 0 255 0
0.680791 0.089293 -0.079350 0 255 0
0.169760 0.360167 0.424751 0 255 0
-0.674293 -0.243974 -0.181579 0 255 0
0.530630 -0.063357 0.463310 0 255 0
-0.033186 -0.324898 0.310811 0 255 0
-0.385932 -0.258261 0.522333 127 0 127
0.089842 -0.347061 0.439817 0 255 0
-0.449324 -0.126473 -0.246377 0 255 0
0.359173 -0.203362 0.172467 0 255 0
-0.086010 -0.078741 0.463286 0 255 0
-0.560573 -0.052326 0.338586 0 255 0
0.576432 0.397813 -0.261112 0 255 0
0.680791 0.175155 -0.538436 0 255 0
0.039737 0.162566 0.036325 0 255 0
-0.421225 0.089223 -0.600287 0 255 0
0.173395 -0.203362 0.247796 0 255 0
-0.067563 0.055585 -0.645173 0 255 0
-0.369791 -0.203362 0.302234 0 255 0
-0.525067 -0.092766 -0.361623 0 255 0
-0.039243 0.328802 -0.665338 0 255 0
-0.389409 0.162566 0.162801 0 255 0
0.170695 -0.203362 -0.287530 0 255 0
0.178541 -0.203362 0.158417 0 255 0
-0.448922 0.050417 -0.169038 0 255 0
-0.449418 -0.167421 0.338802 0 255 0
-0.585908 -0.324898 0.036362 0 255 0
-0.674293 0.078607 0.007429 0 255 0
0.407022 0.162566 0.315663 0 255 0
0.526357 -0.080964 -0.254780 0 255 0
0.680791 -0.048167 0.009438 0 255 0
-0.566678 0.414797 0.505249 0 255 0
-0.127426 0.397813 -0.618802 0 255 0
-0.112110 0.308484 0.424751 0 255 0
0.040723 0.397813 0.142399 0 255 0
0.339597 -0.324898 -0.223263 0 255 0
0.180262 -0.231388 -0.551476 0 255 0
-0.301734 -0.005618 -0.665338 0 255 0
-0.459782 -0.183816 -0.665338 0 255 0
0.202074 0.157782 -0.504540 0 255 0
-0.578028 -0.324898 0.175060 0 255 0
-0.122403 0.397813 -0.264272 0 255 0
-0.674293 -0.160070 0.019137 0 255 0
-0.563430 -0.140254 0.463286 0 255 0
-0.286080 -0.324898 -0.523416 0 255 0
0.294781 -0.224523 -0.015382 0 255 0
-0.398151 -0.324898 0.187742 0 255 0
-0.414311 -0.203362 -0.031637 0 255 0
0.417204 -0.324898 0.010974 0 255 0
-0.271678 -0.136628 0.424751 0 255 0
-0.485479 0.352878 -0.665338 0 255 0
-0.635149 0.215419 0.424751 0 255 0
0.680791 0.256405 -0.039143 0 255 0
-0.164494 0.113821 -0.665338 0 255 0
0.660259 -0.324898 0.120264 0 255 0
0.499835 -0.124916 -0.665338 0 255 0
-0.674293 -0.120479 0.281871 0 255 0
0.379831 0.162566 0.051549 0 255 0
0.235293 0.397813 -0.532212 0 255 0
0.725960 0.048121 0.501021 0 255 0
0.442564 -0.231388 0.418378 0 255 0
-0.674293 0.064116 -0.472789 0 255 0
-0.525067 -0.076908 -0.075227 0 255 0
-0.005322 0.215853 -0.665338 0 255 0
-0.579240 -0.062265 0.523666 0 255 0
-0.025995 0.162566 -0.141066 0 255 0
-0.276953 -0.163785 0.463310 0 255 0
0.695793 -0.262205 0.481457 0 255 0
-0.344675 -0.203362 -0.497124 0 255 0
