ply
format ascii 1.0
element vertex 1308
property float x
property float y
property float z
property uchar red
property uchar green
property uchar blue
end_header
-0.380437 0.186985 -0.300852 0 255 0
0.486747 0.121488 0.444272 0 255 0
0.055973 -0.445349 0.400242 0 255 0
-0.039943 -0.338009 0.422992 0 255 0
-0.675070 -0.446460 0.254660 0 255 0
0.555513 -0.206893 0.400242 0 255 0
-0.665576 0.207299 -0.300852 0 255 0
0.380195 -0.072992 -0.504067 0 255 0
0.092785 0.325814 -0.504067 0 255 0
0.197381 -0.446470 0.064498 0 255 0
0.843145 0.328941 0.300295 0 255 0
-0.494967 0.319982 0.411150 0 255 0
-0.085198 0.176404 -0.504067 0 255 0
-0.083166 -0.257602 -0.300852 0 255 0
0.821717 -0.446474 -0.013527 0 255 0
0.441226 -0.343881 0.014902 0 255 0
-0.673233 -0.312626 -0.131495 0 255 0
-0.761333 -0.446463 0.202517 0 255 0
0.295126 -0.160823 -0.504067 0 255 0
-0.437583 -0.446482 -0.169900 0 255 0
0.641975 0.467971 0.065427 0 255 0
-0.627510 -0.301316 0.444272 0 255 0
0.256898 0.304512 -0.504067 0 255 0
-0.673233 0.266765 -0.036682 0 255 0
0.286574 0.287500 -0.029048 0 255 0
-0.673233 -0.193966 0.387134 0 255 0
-0.490193 0.467971 0.321657 0 255 0
-0.775805 0.179089 0.269406 0 255 0
0.323857 -0.343881 0.323725 0 255 0
-0.088257 0.154027 0.435838 0 255 0
0.476941 -0.233625 0.497319 127 0 127
0.843145 0.463909 0.217791 0 255 0
0.029867 0.287500 0.279273 0 255 0
-0.140573 -0.343881 -0.151263 0 255 0
0.484748 -0.322936 0.503812 127 0 127
0.239297 0.141340 -0.300852 0 255 0
0.164612 -0.338009 0.407878 0 255 0
0.199201 -0.189144 -0.504067 0 255 0
0.497035 -0.446460 0.268076 0 255 0
0.650304 -0.140572 0.429589 0 255 0
-0.683537 0.467971 0.290146 0 255 0
-0.513910 -0.176679 -0.300852 0 255 0
0.263858 0.287500 0.245771 0 255 0
0.058807 0.203143 0.434111 127 127 0
-0.775805 0.154069 0.038822 0 255 0
-0.092286 -0.233820 -0.504067 0 255 0
0.493390 0.257577 -0.281758 0 255 0
0.010951 -0.332949 -0.504067 0 255 0
-0.150853 -0.446495 -0.423920 0 255 0
0.454453 0.467971 -0.170885 0 255 0
0.655877 -0.146003 0.400242 0 255 0
0.350493 -0.180243 0.434111 127 127 0
-0.775805 -0.263586 -0.069200 0 255 0
-0.489901 0.306707 -0.504067 0 255 0
0.012387 0.287500 -0.178692 0 255 0
0.843145 -0.337038 -0.388675 0 255 0
0.843145 -0.289573 -0.360890 0 255 0
-0.775805 -0.157628 0.230692 0 255 0
-0.332930 -0.343881 0.044369 0 255 0
-0.552225 -0.446491 -0.352595 0 255 0
-0.050301 -0.101360 -0.300852 0 255 0
-0.754198 0.467971 0.237179 0 255 0
-0.751224 0.102557 0.400242 0 255 0
0.076302 -0.343881 -0.062139 0 255 0
-0.162098 0.467971 0.055391 0 255 0
-0.195597 -0.343881 0.109785 0 255 0
0.080383 -0.380687 0.454433 0 255 0
0.445777 0.287500 -0.004964 0 255 0
0.830494 -0.354123 -0.504067 0 255 0
-0.351755 -0.343881 -0.298480 0 255 0
-0.373860 -0.256963 -0.300852 0 255 0
0.591268 -0.343475 0.445279 0 255 0
-0.775805 -0.260435 0.379367 0 255 0
0.237396 -0.078612 -0.504067 0 255 0
0.346095 -0.343881 0.246376 0 255 0
-0.330614 -0.046763 -0.300852 0 255 0
-0.714967 -0.379888 0.454433 0 255 0
-0.417960 -0.033227 -0.300852 0 255 0
-0.412908 0.222806 0.400242 0 255 0
-0.555936 -0.405377 0.400242 0 255 0
0.146782 0.287500 0.127729 0 255 0
-0.033304 0.017651 -0.300852 0 255 0
0.493390 0.057178 -0.231714 0 255 0
-0.217001 -0.427911 0.400242 0 255 0
0.488385 -0.446484 -0.219415 0 255 0
-0.229670 0.253567 -0.504067 0 255 0
0.069471 -0.273164 -0.504067 0 255 0
0.235682 -0.446463 0.197040 0 255 0
0.015961 -0.365105 0.431722 0 255 0
-0.183022 0.467923 0.420890 0 255 0
-0.126032 -0.313281 -0.300852 0 255 0
0.795371 0.467971 0.228137 0 255 0
0.311423 0.022047 0.430724 127 127 0
0.040053 0.235314 0.434899 0 255 0
-0.104956 -0.165913 0.430724 127 127 0
0.647758 -0.446468 0.097182 0 255 0
-0.364076 0.287500 -0.240461 0 255 0
0.773738 0.467971 0.111663 0 255 0
0.265414 -0.203981 -0.300852 0 255 0
0.493390 0.184327 0.245060 0 255 0
0.670502 -0.072043 -0.504067 0 255 0
-0.306679 -0.446473 -0.004840 0 255 0
-0.111412 -0.255840 -0.300852 0 255 0
-0.764750 0.467971 0.285992 0 255 0
-0.101059 -0.446456 0.341607 0 255 0
0.493390 0.010699 -0.070235 0 255 0
0.843145 -0.176132 -0.029655 0 255 0
0.028103 0.112270 -0.504067 0 255 0
0.431323 0.467971 0.017931 0 255 0
-0.518029 -0.446467 0.126733 0 255 0
0.143468 -0.446473 0.011189 0 255 0
0.843145 0.091969 0.062089 0 255 0
-0.326541 0.208411 0.454433 0 255 0
0.173016 0.318898 0.433184 0 255 0
-0.491879 -0.253684 0.434111 127 127 0
-0.670366 -0.446493 -0.383443 0 255 0
-0.174886 0.364292 0.400242 0 255 0
0.843145 -0.059160 -0.166679 0 255 0
-0.686697 -0.446464 0.180375 0 255 0
-0.775805 -0.071853 0.077957 0 255 0
0.469013 0.253329 0.454433 0 255 0
0.113562 -0.446547 0.425575 0 255 0
0.843145 0.433969 -0.366799 0 255 0
-0.362622 -0.446476 -0.055960 0 255 0
0.655634 0.467971 0.197282 0 255 0
-0.097104 0.287500 -0.058312 0 255 0
-0.168542 -0.151755 0.434111 127 127 0
0.614540 0.382264 0.400242 0 255 0
-0.333772 0.467971 -0.257515 0 255 0
-0.277236 -0.343881 -0.108310 0 255 0
0.647694 0.035624 0.429589 0 255 0
0.843145 0.349273 0.356879 0 255 0
0.264738 -0.446470 0.070599 0 255 0
-0.123964 0.085499 -0.300852 0 255 0
-0.775805 -0.278270 -0.236945 0 255 0
-0.131293 0.467971 0.108086 0 255 0
0.843145 -0.130095 0.080381 0 255 0
0.037362 -0.446465 0.156264 0 255 0
0.493390 0.178708 0.364458 0 255 0
-0.288099 0.287500 0.242328 0 255 0
0.843145 -0.207678 -0.123090 0 255 0
-0.370413 0.252961 -0.504067 0 255 0
0.251843 0.273257 0.454433 0 255 0
0.332075 -0.446464 0.180700 0 255 0
0.172783 0.449037 0.400242 0 255 0
0.493390 -0.135636 -0.178303 0 255 0
-0.673233 0.070371 -0.248472 0 255 0
0.003951 0.467923 0.443326 0 255 0
0.814189 0.238184 -0.504067 0 255 0
0.842611 -0.446479 -0.105137 0 255 0
0.083813 -0.343881 0.148754 0 255 0
-0.508825 -0.261713 -0.504067 0 255 0
0.272470 -0.252133 -0.300852 0 255 0
-0.552295 0.073451 -0.504067 0 255 0
-0.212668 0.243313 0.454433 0 255 0
0.508058 -0.301497 0.400242 0 255 0
0.531724 0.037251 0.400242 0 255 0
-0.568012 -0.446497 -0.472145 0 255 0
-0.775805 0.302976 -0.015075 0 255 0
-0.219313 -0.028202 -0.504067 0 255 0
-0.592551 -0.446476 -0.055657 0 255 0
-0.775805 0.174051 -0.443692 0 255 0
0.679524 -0.446493 -0.395258 0 255 0
-0.140593 -0.446466 0.148930 0 255 0
0.430178 -0.023383 -0.504067 0 255 0
-0.775805 0.273481 -0.186055 0 255 0
0.422285 -0.254434 -0.504067 0 255 0
-0.546370 0.467971 -0.445957 0 255 0
0.493390 -0.242225 0.240296 0 255 0
-0.527997 -0.343881 -0.057495 0 255 0
0.552375 -0.107424 0.419588 0 255 0
-0.775805 -0.138560 -0.361035 0 255 0
-0.742175 -0.446485 -0.223309 0 255 0
-0.512597 0.463515 0.454433 0 255 0
0.158650 0.467971 -0.336417 0 255 0
-0.634156 -0.328017 -0.504067 0 255 0
0.287713 0.287500 -0.134533 0 255 0
0.843145 0.231340 0.208376 0 255 0
0.459877 0.007408 -0.300852 0 255 0
0.575285 0.467971 0.085206 0 255 0
-0.625192 -0.340357 -0.300852 0 255 0
-0.090253 -0.420307 0.400242 0 255 0
0.605094 0.467971 0.217496 0 255 0
-0.093364 -0.321136 -0.300852 0 255 0
0.843145 0.461298 -0.275654 0 255 0
0.843145 0.397206 0.062335 0 255 0
-0.775805 0.174112 -0.302246 0 255 0
-0.706439 0.467971 -0.456258 0 255 0
0.479791 -0.326098 0.476372 127 0 127
0.332734 -0.288012 0.444272 0 255 0
0.803885 0.436018 -0.504067 0 255 0
0.733974 -0.446470 0.065440 0 255 0
-0.167597 0.023341 -0.504067 0 255 0
0.517720 -0.208218 0.444272 0 255 0
0.245108 -0.343881 -0.296728 0 255 0
-0.000453 -0.257245 0.430724 127 127 0
0.843145 0.158594 0.126906 0 255 0
-0.492757 -0.261699 -0.300852 0 255 0
-0.673233 0.269294 -0.137482 0 255 0
-0.118724 -0.446474 -0.013738 0 255 0
0.418094 -0.023229 0.411349 0 255 0
0.706688 -0.135300 -0.504067 0 255 0
-0.446552 -0.446471 0.039340 0 255 0
0.198624 -0.431236 -0.504067 0 255 0
0.264338 0.287500 0.381269 0 255 0
0.489413 -0.299587 0.483487 127 0 127
0.132451 0.149999 -0.300852 0 255 0
-0.057202 -0.285822 -0.300852 0 255 0
-0.224153 0.287500 -0.132099 0 255 0
0.125014 -0.105871 -0.300852 0 255 0
0.214316 0.354256 0.454433 0 255 0
0.824737 0.467971 -0.298666 0 255 0
0.028064 0.467971 -0.424645 0 255 0
0.284927 0.062697 -0.300852 0 255 0
0.303277 0.467971 0.338407 0 255 0
0.636210 0.227166 0.454433 0 255 0
-0.654119 0.229211 0.430724 0 255 0
-0.384612 -0.318192 0.444272 0 255 0
-0.341723 0.459319 0.454433 0 255 0
-0.111598 0.174392 -0.300852 0 255 0
-0.775805 -0.010792 0.163688 0 255 0
-0.182856 0.467971 -0.419576 0 255 0
-0.533579 0.454531 -0.504060 0 255 0
0.564204 0.198161 0.443415 0 255 0
0.493390 -0.231554 0.015206 0 255 0
0.798642 -0.446483 -0.199228 0 255 0
-0.287098 -0.274723 -0.504067 0 255 0
-0.673233 -0.318109 -0.096141 0 255 0
-0.129198 0.467971 0.354917 0 255 0
0.219960 -0.446498 -0.483817 0 255 0
-0.275575 0.327795 -0.504067 0 255 0
-0.138376 0.031044 -0.504067 0 255 0
-0.193479 -0.446463 0.199405 0 255 0
-0.159011 0.285767 -0.300852 0 255 0
0.493390 0.274293 0.395355 0 255 0
0.441350 0.467971 0.288159 0 255 0
0.738492 0.467971 0.331650 0 255 0
-0.775805 -0.126113 0.422362 0 255 0
-0.390373 -0.446460 0.263923 0 255 0
0.453964 -0.289262 0.430724 0 255 0
-0.737334 -0.446547 0.439543 0 255 0
-0.775805 -0.362019 0.180356 0 255 0
-0.543449 0.416267 0.454433 0 255 0
0.112260 0.467971 0.163026 0 255 0
-0.613533 0.115130 0.434111 127 127 0
0.843145 0.392391 -0.225206 0 255 0
0.843145 -0.205198 0.206585 0 255 0
0.843145 -0.233660 -0.173023 0 255 0
0.607348 -0.329828 0.400242 0 255 0
0.575423 0.148938 0.454433 0 255 0
0.493390 -0.033749 0.174430 0 255 0
0.051548 -0.355502 0.430724 0 255 0
-0.009465 -0.343881 0.218712 0 255 0
0.152803 -0.446488 -0.293283 0 255 0
0.269344 -0.298995 -0.300852 0 255 0
0.843145 0.380224 0.004416 0 255 0
0.568098 -0.446461 0.234097 0 255 0
0.439206 -0.096777 -0.300852 0 255 0
-0.525547 -0.272096 0.430724 127 127 0
0.843145 -0.378610 0.377539 0 255 0
-0.404670 0.156889 0.444272 0 255 0
0.368571 0.227318 -0.504067 0 255 0
0.012299 -0.415553 0.454433 0 255 0
-0.521346 0.083365 -0.300852 0 255 0
0.518785 -0.402489 0.454433 0 255 0
-0.226979 -0.446460 0.264400 0 255 0
-0.322543 -0.243211 0.434111 127 127 0
-0.350307 0.467971 -0.368384 0 255 0
0.630985 0.467971 0.316041 0 255 0
0.417561 0.467971 0.095480 0 255 0
0.835920 0.467971 -0.140657 0 255 0
-0.170983 -0.342537 0.430724 0 255 0
0.493390 -0.321584 -0.125789 0 255 0
0.460338 -0.415765 0.454433 0 255 0
0.843145 -0.208588 -0.342872 0 255 0
-0.775805 0.025940 0.131131 0 255 0
-0.234778 -0.343881 0.246957 0 255 0
0.178372 0.273327 -0.504067 0 255 0
0.596097 -0.446475 -0.042816 0 255 0
0.843145 0.114323 -0.438143 0 255 0
0.843145 -0.341786 0.374536 0 255 0
-0.418716 -0.068447 0.430724 127 127 0
0.811818 0.125204 0.428271 0 255 0
-0.157411 0.287500 -0.232633 0 255 0
0.843145 0.039925 0.231537 0 255 0
-0.347666 -0.446474 -0.013458 0 255 0
0.218077 -0.131115 -0.504067 0 255 0
-0.121097 0.257590 0.400242 0 255 0
0.698140 0.116627 0.429589 0 255 0
0.072384 -0.343881 0.225004 0 255 0
-0.621449 -0.446474 -0.014453 0 255 0
0.493390 -0.322578 0.381820 0 255 0
-0.735508 -0.438312 0.400242 0 255 0
-0.775805 -0.185038 -0.481380 0 255 0
0.088192 -0.446488 -0.301759 0 255 0
0.843145 0.427024 -0.043079 0 255 0
0.215482 -0.349333 -0.504067 0 255 0
-0.371255 0.467971 0.371865 0 255 0
0.358209 0.467971 -0.456860 0 255 0
-0.173858 -0.343881 0.336165 0 255 0
0.573549 0.228553 0.400242 0 255 0
-0.673233 0.245856 0.233194 0 255 0
-0.459120 0.287500 0.038154 0 255 0
-0.031889 0.358501 0.454433 0 255 0
-0.775805 0.385959 0.106847 0 255 0
0.843145 -0.426721 -0.192751 0 255 0
-0.413918 0.467971 -0.285358 0 255 0
-0.353537 -0.446478 -0.101268 0 255 0
0.469742 -0.446463 0.209414 0 255 0
0.287831 -0.195270 -0.504067 0 255 0
0.843145 -0.408127 0.205607 0 255 0
-0.637592 0.074894 -0.300852 0 255 0
0.843145 0.390008 0.428731 0 255 0
-0.775805 0.191924 0.299078 0 255 0
0.483365 0.125088 0.489600 127 0 127
-0.508238 -0.000499 -0.504067 0 255 0
0.673539 -0.260618 0.400242 0 255 0
-0.363027 -0.446481 -0.151126 0 255 0
-0.439482 0.319982 0.405164 0 255 0
0.606675 0.339433 0.454433 0 255 0
0.247646 0.467971 -0.342304 0 255 0
-0.107931 0.467971 -0.095298 0 255 0
-0.048310 0.467971 0.211629 0 255 0
-0.775805 0.300691 0.441060 0 255 0
0.324674 0.003729 -0.300852 0 255 0
-0.775805 -0.036255 0.346853 0 255 0
0.843145 -0.400899 0.161227 0 255 0
0.470637 -0.446547 0.419758 0 255 0
-0.149328 0.287500 0.043044 0 255 0
0.573911 -0.446481 -0.152758 0 255 0
0.509056 -0.069379 -0.504067 0 255 0
0.493390 0.194122 0.198345 0 255 0
-0.085831 -0.273005 -0.504067 0 255 0
-0.418746 -0.203449 -0.300852 0 255 0
-0.069566 0.467971 -0.445856 0 255 0
0.599201 -0.095076 0.429589 0 255 0
-0.775805 -0.241707 0.281222 0 255 0
-0.212784 -0.343881 -0.046416 0 255 0
-0.149135 -0.342963 0.454433 0 255 0
-0.295881 0.467971 0.054113 0 255 0
-0.673233 -0.274764 0.165164 0 255 0
-0.479476 0.389809 -0.504067 0 255 0
0.843145 0.221084 0.083594 0 255 0
0.651444 0.466395 -0.496809 0 255 0
-0.186713 -0.089010 -0.504067 0 255 0
-0.775805 -0.040290 -0.255426 0 255 0
-0.594602 0.132802 -0.300852 0 255 0
0.055182 -0.446468 0.101025 0 255 0
0.843145 0.183297 0.338109 0 255 0
0.391976 0.371298 0.400242 0 255 0
-0.460304 0.287500 -0.158174 0 255 0
0.203476 -0.432489 0.400242 0 255 0
0.327121 0.467971 -0.305814 0 255 0
0.333014 0.090221 -0.300852 0 255 0
0.540432 -0.446479 -0.118667 0 255 0
0.193197 -0.343881 0.227917 0 255 0
-0.252609 0.309201 0.400242 0 255 0
0.311221 -0.013084 0.434111 127 127 0
0.332305 0.467971 0.392054 0 255 0
-0.539289 0.287500 -0.292599 0 255 0
0.122242 0.419090 0.400242 0 255 0
0.441059 0.039942 0.400242 0 255 0
0.195834 0.103996 -0.504067 0 255 0
0.571279 -0.244061 -0.504067 0 255 0
-0.668682 0.275471 0.454433 0 255 0
-0.775805 0.026190 -0.216189 0 255 0
0.572289 -0.376117 0.400242 0 255 0
-0.357717 0.204831 0.424407 0 255 0
0.843145 0.168617 0.212015 0 255 0
-0.466956 0.027417 0.434111 127 127 0
-0.646886 0.432387 0.400242 0 255 0
-0.489322 -0.446489 -0.307741 0 255 0
0.496025 0.078138 -0.504067 0 255 0
0.248984 -0.287631 0.430724 0 255 0
0.448600 0.287500 0.129472 0 255 0
-0.060935 0.452610 0.400242 0 255 0
0.503450 -0.225056 0.400242 0 255 0
-0.554576 0.467971 -0.207390 0 255 0
0.843145 -0.224204 -0.075693 0 255 0
0.493390 0.159548 0.295745 0 255 0
-0.381233 0.441675 0.454433 0 255 0
-0.437272 0.042721 -0.300852 0 255 0
-0.775805 0.002879 -0.302869 0 255 0
0.159452 -0.230010 -0.300852 0 255 0
-0.775805 -0.201351 -0.205567 0 255 0
-0.187066 -0.343881 -0.259848 0 255 0
-0.620834 -0.343881 -0.261948 0 255 0
0.105049 -0.343881 -0.243062 0 255 0
0.590023 -0.446470 0.062757 0 255 0
-0.188461 -0.343881 0.060397 0 255 0
-0.775805 -0.378598 -0.015959 0 255 0
0.127120 -0.338205 0.400242 0 255 0
0.843145 -0.025177 0.194812 0 255 0
0.497404 0.467971 -0.114446 0 255 0
0.532758 -0.446483 -0.184132 0 255 0
-0.045374 0.319982 0.401897 0 255 0
0.552507 -0.109582 0.454433 0 255 0
0.522722 -0.066550 0.454433 0 255 0
-0.469590 -0.446466 0.141553 0 255 0
-0.656343 0.287500 0.229313 0 255 0
-0.775805 0.368798 0.250771 0 255 0
0.063795 -0.343881 -0.159037 0 255 0
-0.368549 -0.267985 0.434111 127 127 0
0.284292 -0.446497 -0.471354 0 255 0
-0.648610 -0.343881 0.300175 0 255 0
0.552375 -0.437383 0.431047 0 255 0
-0.673233 -0.245120 0.034544 0 255 0
-0.530940 -0.338009 0.415685 0 255 0
-0.557135 -0.065955 -0.504067 0 255 0
0.686314 -0.180056 -0.504067 0 255 0
-0.775805 0.322879 0.034439 0 255 0
0.843145 -0.329021 -0.501033 0 255 0
-0.652687 -0.446457 0.321714 0 255 0
0.408392 0.467971 -0.361967 0 255 0
0.131257 -0.343881 -0.215883 0 255 0
0.558982 -0.040595 0.400242 0 255 0
-0.609714 -0.400339 0.400242 0 255 0
-0.400016 -0.192085 0.430724 127 127 0
0.370925 -0.446457 0.330755 0 255 0
0.451764 0.232210 -0.504067 0 255 0
-0.621931 0.287500 -0.105103 0 255 0
0.771265 -0.295122 0.429589 0 255 0
-0.024596 0.231949 0.430724 0 255 0
0.342787 0.287500 -0.039843 0 255 0
0.525543 0.222996 0.400242 0 255 0
-0.174289 0.467971 -0.017712 0 255 0
0.493390 -0.182073 0.132579 0 255 0
-0.775805 -0.410140 0.303332 0 255 0
0.493390 0.165244 -0.212524 0 255 0
-0.062135 -0.412986 0.454433 0 255 0
-0.473430 -0.343881 0.383813 0 255 0
0.843145 0.289426 0.055871 0 255 0
-0.072046 -0.446460 0.258200 0 255 0
-0.700977 -0.132205 0.454433 0 255 0
-0.673233 0.258500 0.385562 0 255 0
0.766530 -0.112333 -0.504067 0 255 0
0.093925 0.287500 0.166952 0 255 0
-0.069208 0.287500 0.205596 0 255 0
-0.673233 0.158163 0.071207 0 255 0
0.424624 -0.446484 -0.207127 0 255 0
-0.417362 -0.322225 0.444272 0 255 0
-0.404333 0.467971 -0.376705 0 255 0
0.036229 0.287500 -0.058231 0 255 0
0.486504 -0.315048 -0.300852 0 255 0
-0.460622 -0.069138 0.434111 127 127 0
-0.082799 -0.446470 0.063488 0 255 0
-0.139466 0.234466 0.454433 0 255 0
-0.673233 0.261721 -0.277852 0 255 0
0.270395 0.026101 -0.300852 0 255 0
0.167481 0.287500 0.179099 0 255 0
0.575637 0.003174 0.400242 0 255 0
0.317427 -0.225080 0.434111 127 127 0
0.843145 0.233005 0.324610 0 255 0
-0.529725 -0.422619 -0.504067 0 255 0
-0.463985 -0.373466 0.454433 0 255 0
-0.775805 0.305916 0.296258 0 255 0
-0.347541 -0.163688 0.430724 127 127 0
-0.673233 -0.089381 0.369090 0 255 0
-0.742880 -0.446497 -0.476856 0 255 0
-0.253796 -0.446474 -0.025222 0 255 0
0.493390 0.116910 -0.114135 0 255 0
0.540386 0.379095 0.400242 0 255 0
-0.158540 -0.079321 -0.300852 0 255 0
0.045465 -0.343881 -0.264632 0 255 0
0.843145 -0.142949 0.283405 0 255 0
-0.775805 -0.269105 -0.133171 0 255 0
0.843145 0.248656 -0.414712 0 255 0
-0.775805 -0.280521 0.242268 0 255 0
0.537883 0.467971 0.017018 0 255 0
-0.269504 -0.427036 0.454433 0 255 0
-0.120473 0.467923 0.452823 0 255 0
-0.693541 0.467971 -0.057420 0 255 0
0.298122 0.467971 0.179042 0 255 0
-0.325652 -0.434598 0.400242 0 255 0
-0.638681 0.398842 0.400242 0 255 0
0.285889 0.287500 -0.057030 0 255 0
0.843145 -0.425009 0.307361 0 255 0
-0.477641 0.287500 0.378824 0 255 0
0.725837 -0.446496 -0.445879 0 255 0
-0.561543 0.287500 -0.099330 0 255 0
0.843145 0.293241 -0.209275 0 255 0
-0.601123 -0.343881 0.239943 0 255 0
-0.535833 0.322250 0.400242 0 255 0
0.088083 0.467971 -0.474123 0 255 0
0.843145 0.090564 0.347389 0 255 0
0.670691 0.467971 -0.326292 0 255 0
0.493390 -0.250128 0.266409 0 255 0
-0.673233 -0.311742 -0.035263 0 255 0
-0.170109 0.361178 -0.504067 0 255 0
-0.256054 0.287500 -0.268935 0 255 0
0.324080 -0.024805 -0.504067 0 255 0
0.109607 -0.343881 -0.167627 0 255 0
-0.673233 0.069731 -0.043520 0 255 0
-0.006784 -0.343881 0.170976 0 255 0
0.551935 -0.446473 -0.002464 0 255 0
-0.166244 -0.290496 0.430724 127 127 0
-0.513201 0.467971 0.040304 0 255 0
0.361255 -0.367081 0.400242 0 255 0
0.196278 -0.446465 0.157970 0 255 0
0.156147 0.155148 0.444272 0 255 0
0.271141 -0.446475 -0.038297 0 255 0
-0.228481 0.195770 0.430724 127 127 0
-0.079937 -0.446457 0.320759 0 255 0
0.694938 0.346366 -0.504067 0 255 0
-0.102198 0.467923 0.431780 0 255 0
0.676025 0.192176 0.445407 255 0 0
-0.339834 -0.023062 0.434111 127 127 0
0.649932 0.204831 0.419082 0 255 0
-0.673233 -0.236280 -0.154892 0 255 0
-0.304046 -0.376941 0.400242 0 255 0
-0.729931 0.053279 0.400242 0 255 0
0.418157 0.464967 0.454433 0 255 0
-0.328801 -0.093656 -0.300852 0 255 0
-0.775805 -0.091583 0.261783 0 255 0
-0.697061 -0.303286 0.416112 0 255 0
0.493390 0.262454 0.173957 0 255 0
-0.439613 0.287500 -0.300418 0 255 0
0.337419 0.287500 0.182961 0 255 0
0.448683 0.140403 -0.300852 0 255 0
0.766609 0.033922 0.444406 0 255 0
0.843145 0.115330 0.158371 0 255 0
-0.108020 -0.446480 -0.134990 0 255 0
-0.775805 -0.411923 -0.466517 0 255 0
0.112906 0.467923 0.402645 0 255 0
0.843145 0.041841 -0.075320 0 255 0
0.104867 0.435199 0.454433 0 255 0
0.411116 0.467971 0.156816 0 255 0
-0.775805 0.339381 0.144271 0 255 0
0.049170 -0.062020 0.434111 127 127 0
-0.775805 -0.240028 -0.169993 0 255 0
-0.775805 -0.218948 0.054065 0 255 0
0.738726 0.461180 -0.502260 0 255 0
-0.775805 0.427770 -0.383484 0 255 0
0.664958 0.338103 0.454433 0 255 0
0.729079 0.169330 -0.504067 0 255 0
-0.291917 0.467971 0.104381 0 255 0
0.713716 -0.431450 0.400242 0 255 0
0.843145 0.313723 0.237361 0 255 0
0.843145 -0.359787 0.177664 0 255 0
-0.221861 0.357768 0.400242 0 255 0
0.177809 -0.343881 0.147979 0 255 0
0.843145 0.065328 0.302643 0 255 0
0.364502 0.467971 0.241288 0 255 0
-0.164670 0.287500 0.216117 0 255 0
0.800493 -0.106444 -0.504067 0 255 0
-0.718959 -0.085981 0.400242 0 255 0
0.106946 -0.178838 0.430724 127 127 0
0.843145 0.180472 -0.107065 0 255 0
0.413491 0.319982 0.432125 0 255 0
0.230556 -0.012442 -0.504067 0 255 0
-0.775805 -0.095952 0.443567 0 255 0
0.101063 0.467971 -0.170055 0 255 0
-0.498322 -0.446475 -0.033845 0 255 0
-0.263578 0.467971 -0.104215 0 255 0
0.823588 -0.102496 0.400242 0 255 0
-0.131999 0.127366 -0.300852 0 255 0
-0.502023 0.274310 -0.504067 0 255 0
-0.656935 -0.244348 -0.300852 0 255 0
-0.508184 0.040412 -0.300852 0 255 0
0.389174 0.217779 0.454433 0 255 0
-0.363153 0.467971 -0.226530 0 255 0
-0.706106 -0.446497 -0.461789 0 255 0
0.420753 0.136383 -0.300852 0 255 0
-0.728129 -0.046500 0.430724 0 255 0
-0.226668 -0.084452 0.430724 127 127 0
0.626295 -0.093332 0.400242 0 255 0
-0.523449 -0.127286 0.430724 127 127 0
0.441746 0.387411 0.400242 0 255 0
0.681695 -0.446455 0.368498 0 255 0
-0.775805 0.245449 0.033468 0 255 0
0.781593 -0.283990 -0.504067 0 255 0
-0.366506 0.111189 -0.300852 0 255 0
-0.490455 -0.306307 0.430724 127 127 0
0.676466 -0.016064 -0.504067 0 255 0
0.493390 -0.076962 -0.139363 0 255 0
-0.775805 -0.202300 -0.267695 0 255 0
0.073487 -0.376290 -0.504067 0 255 0
0.843145 -0.138047 -0.229048 0 255 0
0.571866 0.467971 0.302790 0 255 0
-0.108658 -0.446486 -0.253811 0 255 0
-0.011364 0.126328 0.430724 127 127 0
-0.748918 0.269587 0.400242 0 255 0
0.552375 0.231720 0.424983 0 255 0
0.038602 0.467971 0.263431 0 255 0
-0.335725 0.212832 -0.504067 0 255 0
0.756453 0.467971 0.384367 0 255 0
0.190070 0.287500 0.122222 0 255 0
-0.201748 0.467971 0.099262 0 255 0
-0.775805 0.283148 -0.086271 0 255 0
-0.435404 0.283867 -0.504067 0 255 0
0.123053 0.040737 -0.504067 0 255 0
-0.622342 0.467971 -0.176250 0 255 0
-0.690037 0.174730 -0.504067 0 255 0
-0.070423 0.456971 0.454433 0 255 0
-0.214805 -0.338009 0.437788 0 255 0
0.050966 0.287500 0.211932 0 255 0
-0.172287 0.417663 0.400242 0 255 0
-0.441089 -0.256800 -0.300852 0 255 0
0.493390 -0.203307 0.026369 0 255 0
-0.775805 0.323878 -0.123542 0 255 0
0.134750 -0.343881 -0.026257 0 255 0
0.843145 0.441867 0.417336 0 255 0
0.480014 -0.292227 0.454433 0 255 0
-0.742688 -0.446493 -0.393972 0 255 0
-0.234463 0.467971 0.124696 0 255 0
-0.086109 0.287500 0.120116 0 255 0
-0.098936 -0.207861 0.430724 127 127 0
-0.775805 -0.250316 -0.413939 0 255 0
0.237302 -0.056080 0.430724 127 127 0
-0.575664 0.250091 -0.300852 0 255 0
-0.775805 0.338405 -0.271453 0 255 0
-0.673233 0.055991 0.364736 0 255 0
0.440244 0.287500 -0.043183 0 255 0
0.202507 0.262802 -0.300852 0 255 0
0.493390 -0.110527 0.199001 0 255 0
0.259039 -0.014894 0.430724 127 127 0
0.426616 -0.137455 0.400242 0 255 0
0.180038 -0.446457 0.316947 0 255 0
0.004614 0.192571 0.444272 0 255 0
0.021031 0.467971 0.197860 0 255 0
-0.244504 0.400265 0.454433 0 255 0
0.394963 -0.397450 -0.504067 0 255 0
-0.664400 0.010243 0.434111 127 127 0
-0.743487 0.107639 0.454433 0 255 0
-0.338884 0.236453 0.454433 0 255 0
-0.775805 -0.103326 -0.056341 0 255 0
0.237950 0.287500 0.193821 0 255 0
-0.775805 -0.006983 -0.220727 0 255 0
0.843145 -0.410787 -0.129885 0 255 0
0.843145 0.219325 -0.279372 0 255 0
0.843145 0.417733 -0.242382 0 255 0
-0.236530 -0.343881 -0.176937 0 255 0
0.557835 0.022555 -0.504067 0 255 0
-0.523742 -0.343881 0.001506 0 255 0
0.671600 0.467971 -0.122504 0 255 0
-0.504768 -0.343881 -0.253147 0 255 0
-0.514577 -0.446484 -0.219230 0 255 0
0.359654 0.284594 -0.504067 0 255 0
0.843145 -0.011348 0.393834 0 255 0
0.493390 -0.107865 0.037324 0 255 0
0.252097 -0.343881 0.207049 0 255 0
-0.775805 0.278193 -0.275475 0 255 0
-0.613383 -0.446460 0.255786 0 255 0
0.493390 -0.338649 0.132136 0 255 0
-0.775805 0.093059 -0.155692 0 255 0
0.504918 -0.446478 -0.093553 0 255 0
0.506073 0.007351 0.454433 0 255 0
0.304574 -0.446483 -0.187789 0 255 0
0.843145 0.387026 0.193363 0 255 0
0.486357 -0.446461 0.236561 0 255 0
0.843145 0.003022 0.104192 0 255 0
0.756340 -0.446490 -0.326574 0 255 0
0.064056 0.287500 0.323473 0 255 0
-0.775805 -0.054417 0.306416 0 255 0
-0.638813 -0.343881 0.243474 0 255 0
0.843145 0.040275 -0.125404 0 255 0
-0.511435 -0.386439 0.400242 0 255 0
-0.012352 0.467971 0.076588 0 255 0
0.466093 -0.025926 0.454433 0 255 0
0.546400 0.467971 0.237912 0 255 0
-0.565005 -0.343881 -0.013243 0 255 0
-0.479398 -0.321315 -0.300852 0 255 0
-0.490659 0.467971 -0.230876 0 255 0
0.552948 -0.035096 -0.504067 0 255 0
-0.553804 -0.169369 -0.300852 0 255 0
-0.548128 0.281403 0.400242 0 255 0
0.623105 0.467923 0.418171 0 255 0
0.519844 0.021162 0.520444 127 0 127
0.374434 -0.446486 -0.257044 0 255 0
-0.166015 0.047025 0.430724 127 127 0
-0.310554 -0.446467 0.114563 0 255 0
-0.506649 0.467971 0.010832 0 255 0
-0.481404 -0.446493 -0.385678 0 255 0
-0.701263 -0.062664 0.454433 0 255 0
0.576677 0.386633 -0.504067 0 255 0
-0.549638 0.128935 -0.504067 0 255 0
-0.178800 0.448475 0.400242 0 255 0
-0.569002 -0.197985 0.430724 127 127 0
-0.278130 -0.343881 -0.214063 0 255 0
-0.775805 0.343868 0.104275 0 255 0
0.497307 0.071284 0.500340 127 0 127
0.017183 -0.159092 0.434111 127 127 0
0.843145 0.104676 -0.154934 0 255 0
-0.229135 -0.139891 0.434111 127 127 0
-0.440111 -0.137398 0.434111 127 127 0
-0.533086 0.235314 0.435731 0 255 0
0.144434 -0.343881 0.180800 0 255 0
0.534229 0.449257 0.400242 0 255 0
0.843145 0.342037 -0.336973 0 255 0
-0.462197 -0.343881 0.160780 0 255 0
0.116499 0.112954 0.434111 127 127 0
-0.543924 0.467971 -0.376899 0 255 0
-0.302639 0.467971 -0.243542 0 255 0
0.722823 0.107110 -0.504067 0 255 0
0.404346 -0.343881 -0.170931 0 255 0
-0.031752 -0.047300 -0.300852 0 255 0
-0.766333 -0.272489 0.454433 0 255 0
0.493390 0.184867 0.171386 0 255 0
0.843145 0.220720 0.244109 0 255 0
0.537027 0.126987 0.454433 0 255 0
0.049904 0.167975 0.430724 127 127 0
0.498074 -0.097140 0.535713 127 0 127
-0.327343 0.079846 0.430724 127 127 0
-0.437582 0.287500 -0.036056 0 255 0
-0.550212 -0.343881 0.229944 0 255 0
-0.068019 0.287500 0.050071 0 255 0
-0.451553 -0.339237 0.400242 0 255 0
0.493390 -0.191244 0.208359 0 255 0
-0.107879 -0.118683 0.434111 127 127 0
0.593993 -0.446486 -0.247159 0 255 0
-0.155525 -0.409206 0.400242 0 255 0
-0.420893 -0.144923 -0.504067 0 255 0
-0.673233 0.106404 -0.098490 0 255 0
0.090150 -0.446480 -0.127195 0 255 0
0.843145 0.070889 -0.314128 0 255 0
0.074273 0.287500 -0.294522 0 255 0
-0.775805 0.223978 -0.022352 0 255 0
0.188649 0.467971 -0.325853 0 255 0
-0.172881 0.467971 0.283018 0 255 0
0.843145 0.088909 -0.010815 0 255 0
0.225760 -0.446481 -0.149697 0 255 0
-0.477973 -0.343881 0.229088 0 255 0
0.843145 -0.074516 -0.400500 0 255 0
0.155128 -0.101049 0.434111 127 127 0
-0.169162 -0.010161 -0.504067 0 255 0
-0.673233 0.149898 -0.205693 0 255 0
0.579244 0.060250 0.411032 0 255 0
0.107408 -0.446471 0.053376 0 255 0
-0.504692 0.159604 0.430724 0 255 0
-0.047758 0.282785 -0.300852 0 255 0
0.723059 -0.446475 -0.035915 0 255 0
-0.697685 -0.150101 0.430724 0 255 0
0.255791 -0.120537 0.434111 127 127 0
-0.534933 -0.446477 -0.068452 0 255 0
0.000091 -0.343881 -0.279516 0 255 0
-0.649805 -0.412902 -0.504067 0 255 0
0.142769 0.467971 -0.266039 0 255 0
-0.000276 -0.343881 0.060784 0 255 0
0.843145 0.091845 0.387189 0 255 0
-0.299463 0.287500 0.086479 0 255 0
0.500865 0.467971 -0.051915 0 255 0
0.310784 -0.343881 -0.002632 0 255 0
0.482755 -0.270258 0.479145 127 0 127
-0.337285 0.361143 0.454433 0 255 0
-0.673233 -0.040594 0.209825 0 255 0
-0.677270 -0.446474 -0.013459 0 255 0
0.843145 -0.049321 0.292982 0 255 0
-0.438978 0.287500 0.109739 0 255 0
-0.673233 -0.033277 0.394555 0 255 0
0.493390 0.201310 0.047723 0 255 0
0.292977 0.467971 0.261708 0 255 0
0.643949 0.435860 0.454433 0 255 0
-0.396456 -0.343881 -0.050154 0 255 0
0.463639 0.451858 -0.504067 0 255 0
0.128098 0.287500 -0.228299 0 255 0
-0.518317 0.367615 0.454433 0 255 0
-0.775805 0.155435 0.284873 0 255 0
0.379479 0.335172 0.454433 0 255 0
-0.668112 -0.118011 0.430724 127 127 0
0.253178 -0.228764 -0.504067 0 255 0
0.541839 -0.204096 -0.504067 0 255 0
-0.200878 -0.446493 -0.393482 0 255 0
-0.775805 -0.373638 0.427945 0 255 0
0.843145 0.007106 -0.172237 0 255 0
0.094768 -0.178837 -0.504067 0 255 0
0.667375 -0.390163 0.454433 0 255 0
0.142258 0.307832 0.400242 0 255 0
-0.775805 -0.333578 -0.203018 0 255 0
-0.012642 -0.372840 -0.504067 0 255 0
-0.017010 -0.202081 -0.300852 0 255 0
0.843145 -0.039371 -0.350945 0 255 0
-0.665953 -0.446472 0.019672 0 255 0
-0.446680 0.463280 0.454433 0 255 0
0.218059 -0.370228 0.400242 0 255 0
0.597351 -0.207583 0.400242 0 255 0
0.433638 0.467971 -0.472352 0 255 0
0.584129 -0.108652 0.400242 0 255 0
-0.576540 0.274045 -0.504067 0 255 0
0.667200 -0.161268 -0.504067 0 255 0
0.394023 0.279615 -0.504067 0 255 0
-0.723167 -0.446492 -0.375936 0 255 0
-0.775805 -0.103180 -0.152520 0 255 0
0.399248 0.334997 -0.504067 0 255 0
-0.156117 -0.343881 0.250525 0 255 0
0.062812 -0.446491 -0.360170 0 255 0
-0.232080 0.467971 -0.312022 0 255 0
-0.775805 -0.224789 0.423891 0 255 0
-0.728923 -0.446457 0.321652 0 255 0
0.313247 0.467971 0.032873 0 255 0
0.790708 -0.446495 -0.428269 0 255 0
0.050946 -0.194441 0.434111 127 127 0
0.843145 0.424475 -0.331904 0 255 0
-0.775805 -0.220009 -0.458077 0 255 0
-0.775805 -0.087717 0.323160 0 255 0
-0.635206 0.148456 0.434111 127 127 0
-0.656638 -0.031136 0.444272 0 255 0
0.843145 -0.250154 0.133474 0 255 0
-0.775805 -0.094647 0.032020 0 255 0
0.248507 0.451582 -0.504067 0 255 0
0.843145 -0.154523 -0.449303 0 255 0
-0.403339 -0.321894 -0.504067 0 255 0
-0.033585 -0.446488 -0.296256 0 255 0
-0.174878 0.467971 -0.366833 0 255 0
-0.663022 -0.367176 0.400242 0 255 0
-0.775805 -0.142529 0.033403 0 255 0
0.214436 0.203110 -0.504067 0 255 0
0.632074 0.441184 0.400242 0 255 0
-0.285508 -0.446455 0.355187 0 255 0
0.493390 0.189623 -0.130994 0 255 0
0.151629 0.467971 -0.151047 0 255 0
-0.416620 -0.343881 0.308545 0 255 0
-0.775805 0.096676 0.367138 0 255 0
-0.525501 -0.313289 0.430724 0 255 0
0.843145 0.060827 -0.389835 0 255 0
-0.027419 0.151886 -0.504067 0 255 0
0.493390 0.264240 0.247392 0 255 0
-0.297981 0.287500 -0.035529 0 255 0
0.811818 -0.107650 0.439935 0 255 0
-0.775805 0.178763 0.019470 0 255 0
-0.020605 0.248784 -0.300852 0 255 0
-0.193240 -0.125721 -0.300852 0 255 0
0.212961 0.467971 0.381499 0 255 0
0.843145 0.103328 -0.311479 0 255 0
0.843145 0.309561 -0.101086 0 255 0
-0.308470 -0.392815 -0.504067 0 255 0
0.061534 -0.446459 0.285689 0 255 0
0.037453 -0.419734 -0.504067 0 255 0
0.474242 0.287500 0.135863 0 255 0
-0.244838 -0.195997 -0.504067 0 255 0
-0.775805 0.095234 0.196996 0 255 0
-0.172264 0.220648 0.430724 0 255 0
0.479108 -0.148359 0.444272 0 255 0
0.191340 -0.343881 -0.078802 0 255 0
0.021721 0.467971 -0.369953 0 255 0
0.146729 0.398650 0.454433 0 255 0
0.165330 -0.341499 0.454433 0 255 0
0.323383 0.241129 0.454433 0 255 0
-0.673233 -0.134432 0.133978 0 255 0
0.149154 -0.327433 0.430724 0 255 0
-0.775805 -0.329452 -0.076475 0 255 0
-0.035303 0.446289 0.400242 0 255 0
-0.346696 -0.446547 0.431359 0 255 0
-0.673233 0.064086 0.038651 0 255 0
0.505119 -0.446490 -0.341224 0 255 0
0.062387 -0.312001 -0.504067 0 255 0
0.543260 0.025501 0.454433 0 255 0
-0.673233 0.085210 -0.192580 0 255 0
-0.639899 -0.446547 0.400981 0 255 0
0.461263 0.025854 0.508957 127 0 127
0.843145 -0.432037 -0.163165 0 255 0
-0.118776 0.287500 -0.205973 0 255 0
0.122613 -0.304217 -0.504067 0 255 0
0.126323 0.204831 0.411828 0 255 0
-0.530500 -0.440575 0.454433 0 255 0
0.642550 0.363428 0.400242 0 255 0
-0.673233 -0.255033 0.090796 0 255 0
-0.775805 -0.312012 0.237304 0 255 0
-0.363957 -0.446496 -0.446003 0 255 0
0.843145 -0.077216 0.013973 0 255 0
-0.643020 0.467971 0.166555 0 255 0
0.330540 0.287500 -0.216727 0 255 0
-0.775805 -0.001834 -0.126904 0 255 0
0.474223 -0.309695 -0.504067 0 255 0
0.246219 -0.378823 -0.504067 0 255 0
0.303020 -0.343881 0.298389 0 255 0
0.457093 0.122901 0.444272 0 255 0
-0.589558 0.043567 0.430724 127 127 0
0.547684 -0.146550 -0.504067 0 255 0
0.170047 -0.446484 -0.218175 0 255 0
-0.673233 -0.055677 -0.126441 0 255 0
0.030740 0.112799 -0.300852 0 255 0
-0.482394 0.467971 0.087997 0 255 0
0.493390 0.228418 0.192894 0 255 0
0.468894 -0.379336 0.400242 0 255 0
0.190782 -0.446474 -0.014284 0 255 0
-0.633627 0.287500 0.107571 0 255 0
-0.665647 0.467971 -0.342060 0 255 0
0.619339 0.059392 0.400242 0 255 0
-0.673233 -0.311394 0.076961 0 255 0
-0.769001 0.467971 -0.398320 0 255 0
-0.318964 -0.446464 0.178236 0 255 0
0.773605 -0.160761 0.445407 153 0 76
-0.358996 -0.214427 -0.504067 0 255 0
-0.640117 -0.446465 0.169543 0 255 0
0.639833 0.356485 -0.504067 0 255 0
-0.473875 -0.430114 0.400242 0 255 0
0.843145 -0.425295 0.048452 0 255 0
0.365969 -0.376932 0.454433 0 255 0
-0.673233 -0.111936 0.246718 0 255 0
-0.608816 0.086307 0.430724 127 127 0
-0.440251 0.467971 -0.303623 0 255 0
-0.450537 -0.357492 0.430724 0 255 0
0.491704 -0.156186 0.533076 127 0 127
-0.604860 0.093180 -0.300852 0 255 0
-0.150911 0.467971 0.137330 0 255 0
-0.597071 0.287500 0.200503 0 255 0
0.035977 -0.275748 0.430724 127 127 0
-0.322373 -0.446483 -0.188852 0 255 0
0.493390 0.157552 0.078222 0 255 0
0.234878 -0.343881 0.319088 0 255 0
0.223030 0.287500 0.240986 0 255 0
-0.109090 0.115684 0.434111 127 127 0
-0.775805 0.305778 0.123666 0 255 0
0.604021 0.300355 0.400242 0 255 0
-0.775805 -0.228448 0.229379 0 255 0
-0.775805 -0.262072 -0.466021 0 255 0
-0.199151 -0.446488 -0.299016 0 255 0
-0.521143 0.467971 -0.409183 0 255 0
0.843145 0.094160 0.176786 0 255 0
0.087333 0.287500 0.374692 0 255 0
-0.646271 0.467971 -0.262077 0 255 0
-0.524462 -0.060217 0.434111 127 127 0
-0.673233 -0.116431 0.171895 0 255 0
-0.775805 -0.074725 0.145060 0 255 0
-0.775805 0.061336 -0.356938 0 255 0
0.546798 0.086042 0.433615 0 255 0
0.180737 0.467971 0.218350 0 255 0
-0.166138 -0.446463 0.196048 0 255 0
-0.353065 0.021981 0.430724 127 127 0
0.012119 -0.343881 -0.030596 0 255 0
-0.387933 -0.365715 -0.504067 0 255 0
-0.646055 0.170100 0.444272 0 255 0
0.096531 -0.113533 0.430724 127 127 0
-0.758094 -0.001146 -0.504067 0 255 0
-0.775805 0.286916 -0.348547 0 255 0
0.332051 -0.446466 0.140987 0 255 0
-0.775805 -0.327056 0.452784 0 255 0
0.843145 -0.419443 0.139797 0 255 0
0.493390 -0.112885 0.259384 0 255 0
-0.463380 0.318898 0.422291 0 255 0
-0.673233 -0.024135 -0.084410 0 255 0
0.375544 -0.338257 0.444272 0 255 0
0.128894 -0.446483 -0.185758 0 255 0
-0.583408 -0.425717 -0.504067 0 255 0
0.466842 -0.446489 -0.312438 0 255 0
0.507833 0.460181 0.400242 0 255 0
0.843145 0.212314 0.051087 0 255 0
0.843145 0.310746 -0.258963 0 255 0
-0.697061 -0.075835 0.423234 0 255 0
-0.372153 0.467971 -0.103815 0 255 0
-0.112451 0.456413 0.400242 0 255 0
0.710230 0.227129 0.400242 0 255 0
-0.131373 0.287500 0.111917 0 255 0
-0.214216 0.467971 -0.331877 0 255 0
0.010018 0.238071 0.400242 0 255 0
0.323384 -0.446458 0.295319 0 255 0
-0.633467 0.364289 0.454433 0 255 0
-0.279643 0.319982 0.429158 0 255 0
-0.488578 0.408617 0.454433 0 255 0
0.236446 0.287500 0.155843 0 255 0
0.488375 0.222588 0.430724 0 255 0
-0.034005 0.387310 0.400242 0 255 0
0.521278 -0.424788 0.400242 0 255 0
-0.138032 -0.446480 -0.125436 0 255 0
0.797345 -0.097254 0.400242 0 255 0
0.141523 -0.402003 0.400242 0 255 0
0.843145 0.379689 -0.174097 0 255 0
-0.673233 0.171797 0.121677 0 255 0
-0.252909 0.467971 -0.060083 0 255 0
-0.446435 -0.343881 0.078807 0 255 0
-0.524173 -0.446457 0.313682 0 255 0
-0.328694 -0.133264 -0.504067 0 255 0
-0.673233 -0.328228 0.377101 0 255 0
-0.775805 0.429268 0.346350 0 255 0
0.471233 -0.235597 0.430724 0 255 0
-0.319224 -0.343881 -0.029436 0 255 0
0.379884 -0.181311 -0.504067 0 255 0
0.493390 -0.008664 0.066744 0 255 0
0.424561 0.287500 -0.238443 0 255 0
0.508377 -0.077191 0.514209 127 0 127
-0.281362 0.287500 0.140737 0 255 0
0.493390 0.256199 -0.163884 0 255 0
0.657432 -0.294049 0.445407 0 255 0
0.481539 0.177979 0.503434 127 0 127
-0.114429 0.287500 -0.107392 0 255 0
0.204017 -0.446467 0.121659 0 255 0
0.243141 0.048693 0.430724 127 127 0
0.444552 0.318898 0.439363 0 255 0
0.193717 0.467971 -0.419848 0 255 0
-0.512489 -0.368998 -0.504067 0 255 0
-0.105393 0.208139 0.430724 0 255 0
-0.213104 0.467971 0.358843 0 255 0
-0.545852 0.467971 -0.074262 0 255 0
-0.575531 -0.291262 -0.300852 0 255 0
0.289742 0.467971 0.394541 0 255 0
-0.775805 -0.012410 -0.037328 0 255 0
-0.199522 0.287500 -0.140723 0 255 0
0.009151 0.076601 0.434111 127 127 0
0.180373 0.212763 0.454433 0 255 0
0.790444 0.467971 0.322790 0 255 0
0.493390 -0.301692 -0.172509 0 255 0
0.399644 0.467971 -0.252271 0 255 0
-0.287907 0.287500 0.371172 0 255 0
-0.731412 0.439696 -0.504067 0 255 0
-0.280350 0.421897 -0.504067 0 255 0
0.200888 0.055067 0.430724 127 127 0
0.759579 -0.446454 0.387906 0 255 0
-0.066404 0.467971 -0.479292 0 255 0
0.312866 0.352933 0.400242 0 255 0
-0.673233 -0.311502 0.254371 0 255 0
-0.009377 0.443495 0.400242 0 255 0
-0.273439 -0.446468 0.097801 0 255 0
0.781018 -0.446455 0.359917 0 255 0
0.591095 -0.254098 0.444545 0 255 0
-0.708625 0.132357 -0.504067 0 255 0
0.038130 0.287500 0.045101 0 255 0
0.295804 -0.343881 0.154429 0 255 0
-0.041724 0.467971 0.075200 0 255 0
-0.103787 -0.446484 -0.222404 0 255 0
-0.285871 0.147912 -0.504067 0 255 0
0.195730 -0.130913 0.434111 127 127 0
-0.277983 -0.276112 0.437248 0 255 0
0.493390 0.229469 0.272075 0 255 0
0.370915 0.287500 -0.277180 0 255 0
-0.213457 0.467971 0.036992 0 255 0
0.037922 -0.257864 -0.504067 0 255 0
-0.311038 0.032105 -0.300852 0 255 0
-0.600632 -0.343881 -0.068383 0 255 0
0.035293 0.273478 0.400242 0 255 0
-0.155192 0.284907 -0.504067 0 255 0
-0.486282 -0.446487 -0.279524 0 255 0
0.501757 0.467971 0.289814 0 255 0
-0.252323 -0.343881 0.054877 0 255 0
-0.405976 0.463955 -0.500141 0 255 0
-0.177276 0.043094 -0.300852 0 255 0
-0.134707 -0.236191 -0.504067 0 255 0
0.073363 -0.174068 0.434111 127 127 0
0.765364 -0.446497 -0.476779 0 255 0
-0.309139 0.467971 0.077586 0 255 0
0.386498 0.194197 0.430724 0 255 0
0.715105 0.049759 -0.504067 0 255 0
-0.775805 -0.389504 -0.364054 0 255 0
-0.775805 0.044999 0.185318 0 255 0
-0.673233 -0.126295 -0.205975 0 255 0
-0.673233 0.142021 -0.034324 0 255 0
-0.775805 -0.083577 -0.282814 0 255 0
0.843145 0.196146 0.446331 0 255 0
0.287443 0.358561 0.454433 0 255 0
-0.565305 -0.367415 0.400242 0 255 0
0.535717 0.467971 0.043827 0 255 0
0.024845 -0.446478 -0.092559 0 255 0
0.505665 -0.188915 0.430724 0 255 0
0.729926 0.385950 -0.504067 0 255 0
-0.120145 -0.343881 0.232977 0 255 0
-0.412467 0.430073 0.454433 0 255 0
0.109634 -0.297628 -0.300852 0 255 0
0.546798 -0.366386 0.430915 0 255 0
-0.673233 -0.313745 0.017925 0 255 0
0.843145 0.168089 0.258048 0 255 0
0.017202 -0.446496 -0.458021 0 255 0
0.178137 0.023596 -0.504067 0 255 0
-0.661520 0.467971 0.210832 0 255 0
0.443939 0.287500 0.197058 0 255 0
-0.098904 0.013703 -0.504067 0 255 0
-0.411408 -0.427174 0.454433 0 255 0
-0.327648 0.467971 0.217691 0 255 0
0.394948 -0.164758 -0.300852 0 255 0
-0.203467 0.318898 0.420781 0 255 0
0.446780 -0.446467 0.123199 0 255 0
-0.441404 -0.386819 0.454433 0 255 0
-0.772733 0.025044 0.454433 0 255 0
-0.775805 0.319809 -0.074779 0 255 0
0.316410 -0.224113 -0.300852 0 255 0
0.736977 -0.265692 0.400242 0 255 0
0.843145 0.456740 -0.458079 0 255 0
0.196862 0.287500 0.204494 0 255 0
-0.648411 0.287500 0.017972 0 255 0
0.503656 -0.446482 -0.179655 0 255 0
0.843145 -0.244456 -0.326391 0 255 0
-0.187721 -0.446477 -0.074973 0 255 0
-0.261289 -0.247096 -0.504067 0 255 0
0.843145 -0.330063 -0.457773 0 255 0
0.285789 0.467971 -0.432915 0 255 0
0.146696 0.287500 0.304445 0 255 0
0.588717 -0.049815 0.429589 0 255 0
0.843145 0.041190 -0.491562 0 255 0
0.202364 -0.343881 -0.036778 0 255 0
-0.462299 -0.446496 -0.451145 0 255 0
-0.439784 -0.266568 0.430724 127 127 0
0.133803 0.302638 0.454433 0 255 0
-0.724002 0.467971 0.106853 0 255 0
-0.665310 0.467971 -0.423839 0 255 0
0.412810 0.095536 -0.504067 0 255 0
-0.103681 0.467971 0.235937 0 255 0
-0.560770 0.238763 0.400242 0 255 0
0.503186 -0.119111 0.430724 0 255 0
-0.067188 -0.343881 -0.198655 0 255 0
0.401477 -0.343881 -0.256652 0 255 0
-0.752436 0.207667 0.400242 0 255 0
0.650486 -0.211893 -0.504067 0 255 0
-0.775805 -0.221632 -0.107721 0 255 0
0.843145 -0.140445 -0.176721 0 255 0
0.838985 -0.217228 0.400242 0 255 0
-0.678538 0.190289 0.430724 0 255 0
-0.133164 -0.071235 -0.504067 0 255 0
0.195778 -0.165127 0.430724 127 127 0
0.431011 -0.010140 0.430724 0 255 0
-0.775805 0.439455 -0.242659 0 255 0
-0.222392 -0.343881 -0.199536 0 255 0
0.843145 0.067553 -0.437541 0 255 0
-0.594759 -0.421468 0.400242 0 255 0
0.211803 0.467971 0.036930 0 255 0
-0.210856 0.467971 -0.023487 0 255 0
-0.105510 -0.446547 0.442574 0 255 0
-0.046141 0.467971 0.278760 0 255 0
-0.575586 -0.446456 0.345513 0 255 0
0.352302 -0.344368 0.454433 0 255 0
0.493390 -0.112577 0.313681 0 255 0
-0.775805 0.102097 0.243064 0 255 0
0.579509 -0.446458 0.303423 0 255 0
-0.712491 -0.032463 0.400242 0 255 0
0.779320 0.467971 -0.143126 0 255 0
-0.424786 0.342957 0.400242 0 255 0
-0.056587 0.063430 0.434111 127 127 0
-0.631029 -0.343881 -0.182891 0 255 0
-0.552606 -0.446485 -0.225046 0 255 0
0.210364 0.407146 0.400242 0 255 0
0.102047 0.467971 -0.428782 0 255 0
-0.642448 -0.446470 0.059542 0 255 0
-0.190562 0.287500 0.120418 0 255 0
-0.519870 -0.125880 -0.300852 0 255 0
0.289194 -0.343881 -0.106566 0 255 0
-0.111037 0.059636 0.434111 127 127 0
-0.275801 -0.446472 0.027725 0 255 0
-0.705378 -0.274421 0.400242 0 255 0
0.192741 -0.343621 -0.300852 0 255 0
0.843145 0.012934 -0.498588 0 255 0
0.622581 0.268993 0.454433 0 255 0
-0.413262 -0.446469 0.082299 0 255 0
-0.216509 -0.446458 0.293512 0 255 0
0.018936 0.230871 0.454433 0 255 0
0.057586 0.467971 0.153714 0 255 0
0.464560 -0.343881 0.373492 0 255 0
-0.096107 -0.020630 -0.504067 0 255 0
0.200604 0.077333 -0.504067 0 255 0
-0.696177 0.260803 -0.504067 0 255 0
0.641750 -0.368343 0.454433 0 255 0
0.669848 0.030289 -0.504067 0 255 0
-0.673233 -0.248234 -0.092785 0 255 0
-0.425157 0.467971 0.075968 0 255 0
0.310239 -0.446497 -0.462559 0 255 0
0.363476 0.287500 0.177502 0 255 0
-0.673233 -0.111968 -0.273171 0 255 0
-0.673233 -0.015537 0.147138 0 255 0
-0.687062 -0.254491 0.444272 0 255 0
-0.288970 -0.343881 -0.171500 0 255 0
0.228842 -0.208682 -0.300852 0 255 0
0.016109 -0.446473 -0.000333 0 255 0
-0.588955 0.335631 0.400242 0 255 0
-0.673233 0.069233 0.226435 0 255 0
-0.648360 0.287500 0.192767 0 255 0
-0.024758 0.012038 0.434111 127 127 0
-0.673233 -0.271823 -0.232746 0 255 0
-0.314972 0.464399 0.454433 0 255 0
-0.576468 -0.318889 0.430724 0 255 0
-0.606255 0.467971 -0.232291 0 255 0
-0.775805 -0.127502 -0.418410 0 255 0
-0.775805 0.084821 -0.420414 0 255 0
-0.506225 0.467971 0.388753 0 255 0
-0.213935 0.139254 -0.504067 0 255 0
0.493390 -0.213627 -0.135907 0 255 0
0.580292 0.421430 0.400242 0 255 0
-0.630944 0.332464 -0.504067 0 255 0
0.139227 0.443321 -0.504067 0 255 0
0.174930 0.304498 0.454433 0 255 0
0.843145 0.148793 0.157300 0 255 0
0.552707 -0.063350 -0.504067 0 255 0
0.611763 -0.347282 0.430088 0 255 0
-0.090634 -0.343881 0.018274 0 255 0
0.176586 -0.289488 -0.300852 0 255 0
-0.642151 -0.446488 -0.292392 0 255 0
0.546973 0.467971 -0.379391 0 255 0
0.017219 0.419090 -0.504067 0 255 0
-0.481571 -0.358765 -0.504067 0 255 0
-0.775805 0.353262 0.169399 0 255 0
0.283516 -0.278134 -0.504067 0 255 0
-0.334951 0.131207 -0.300852 0 255 0
-0.020366 0.202391 0.430724 127 127 0
0.502351 -0.371363 0.487885 127 0 127
0.493390 -0.029667 0.243925 0 255 0
0.635730 0.159968 -0.504067 0 255 0
0.039621 0.319982 0.422675 0 255 0
-0.775805 0.184292 0.116162 0 255 0
0.843145 0.213853 -0.016898 0 255 0
0.306047 -0.343881 -0.229278 0 255 0
0.493390 -0.309179 -0.200468 0 255 0
-0.775805 -0.030613 0.213443 0 255 0
-0.482442 -0.249124 -0.504067 0 255 0
0.441644 0.318898 0.407266 0 255 0
0.843145 -0.353256 -0.016529 0 255 0
0.493390 -0.143382 0.296974 0 255 0
-0.775805 -0.370499 0.268168 0 255 0
0.786544 0.463882 -0.500205 0 255 0
-0.595330 -0.072812 0.430724 127 127 0
-0.406507 0.320252 0.454433 0 255 0
0.061528 -0.343881 -0.200419 0 255 0
-0.039480 -0.446547 0.442810 0 255 0
-0.145495 0.467971 -0.043048 0 255 0
0.552375 0.055226 0.405690 0 255 0
-0.517535 0.183400 -0.300852 0 255 0
-0.775805 0.198441 0.336872 0 255 0
-0.281202 -0.433000 0.400242 0 255 0
0.274526 0.253847 -0.504067 0 255 0
0.471500 -0.070966 0.454433 0 255 0
0.020616 -0.343881 0.339527 0 255 0
0.344530 -0.446488 -0.287459 0 255 0
-0.673233 0.165116 0.263743 0 255 0
0.484024 0.172085 0.478387 127 0 127
0.030572 0.031193 0.434111 127 127 0
0.493390 -0.078022 0.108632 0 255 0
-0.228232 -0.358873 0.444272 0 255 0
0.020056 0.467971 -0.242809 0 255 0
0.382533 0.006709 -0.300852 0 255 0
-0.715284 -0.317138 0.400242 0 255 0
0.636024 0.467971 -0.179079 0 255 0
-0.673233 0.148392 0.156825 0 255 0
0.639500 0.467971 0.119606 0 255 0
0.144613 0.287500 0.344862 0 255 0
-0.710771 -0.035781 -0.504067 0 255 0
0.817237 0.359198 0.400242 0 255 0
0.176771 -0.343881 -0.018098 0 255 0
0.816634 0.467971 -0.482287 0 255 0
-0.388445 0.467971 0.270232 0 255 0
-0.453964 0.467971 0.041258 0 255 0
0.008801 0.349254 0.400242 0 255 0
0.641328 -0.407423 -0.504067 0 255 0
0.724764 0.306429 0.454433 0 255 0
0.183936 0.156918 -0.504067 0 255 0
0.843145 0.467624 -0.191334 0 255 0
-0.700952 0.449856 0.400242 0 255 0
-0.775805 0.455478 -0.112128 0 255 0
0.356090 0.467971 -0.262154 0 255 0
0.690124 -0.354683 0.454433 0 255 0
-0.397985 -0.350806 0.430724 0 255 0
0.800609 -0.400166 0.454433 0 255 0
0.324360 0.053201 -0.300852 0 255 0
-0.714662 -0.375753 -0.504067 0 255 0
-0.618038 0.467971 0.120935 0 255 0
0.493390 -0.053255 0.150861 0 255 0
-0.452503 0.287500 0.156572 0 255 0
0.197248 -0.286817 0.430724 127 127 0
-0.582462 -0.213922 -0.504067 0 255 0
0.492203 0.407630 0.400242 0 255 0
-0.229303 -0.301689 -0.300852 0 255 0
-0.670406 -0.072175 -0.504067 0 255 0
-0.170586 -0.446474 -0.020189 0 255 0
0.540664 -0.215133 0.454433 0 255 0
0.843145 -0.138902 0.428005 0 255 0
-0.425517 0.375227 0.400242 0 255 0
-0.581167 -0.343881 -0.198127 0 255 0
-0.775805 -0.315264 0.126621 0 255 0
0.493390 -0.083333 0.152040 0 255 0
-0.069096 -0.446483 -0.184401 0 255 0
-0.476427 -0.343881 0.198616 0 255 0
0.843145 0.399238 0.230004 0 255 0
-0.348115 0.109390 -0.504067 0 255 0
0.229920 0.138710 -0.504067 0 255 0
-0.479591 -0.446477 -0.075866 0 255 0
-0.689041 0.357929 0.454433 0 255 0
-0.047033 0.467971 -0.221408 0 255 0
0.490804 -0.446467 0.122525 0 255 0
0.685116 -0.120125 0.429589 0 255 0
0.139844 -0.033688 -0.300852 0 255 0
0.843145 0.132538 -0.065988 0 255 0
-0.201250 -0.378112 0.400242 0 255 0
0.493390 -0.026221 0.085293 0 255 0
0.450621 0.122664 0.500876 127 0 127
-0.370267 0.467971 0.036487 0 255 0
0.596077 0.467971 -0.023131 0 255 0
0.185124 -0.374310 0.400242 0 255 0
-0.148040 0.467971 -0.074702 0 255 0
-0.609412 0.239384 -0.300852 0 255 0
0.711065 -0.389171 0.454433 0 255 0
-0.775805 0.019608 -0.243945 0 255 0
-0.775805 -0.099819 -0.421910 0 255 0
0.843145 0.117812 -0.265801 0 255 0
0.505828 0.180584 0.454433 0 255 0
-0.729556 0.313390 -0.504067 0 255 0
0.843145 0.190377 -0.183781 0 255 0
0.025225 0.287500 -0.126489 0 255 0
0.531469 -0.217298 0.400242 0 255 0
-0.632802 0.287500 0.378719 0 255 0
-0.720396 0.150926 0.400242 0 255 0
0.359151 0.361574 0.454433 0 255 0
-0.297278 0.287500 0.190345 0 255 0
0.493390 0.054268 0.342959 0 255 0
0.843145 0.151622 -0.352104 0 255 0
-0.505509 -0.307910 -0.504067 0 255 0
-0.563061 -0.227249 0.434111 127 127 0
0.442441 0.264946 -0.504067 0 255 0
-0.217523 -0.343881 0.307366 0 255 0
-0.575087 0.014540 0.430724 127 127 0
0.315982 -0.113384 0.434111 127 127 0
-0.673233 -0.079595 0.052454 0 255 0
0.263943 -0.446486 -0.250144 0 255 0
-0.601606 0.464056 0.454433 0 255 0
-0.103970 0.037201 -0.300852 0 255 0
-0.661196 0.455808 0.400242 0 255 0
0.567953 -0.204680 0.454433 0 255 0
0.248011 0.467971 -0.163427 0 255 0
0.128902 -0.343881 0.284401 0 255 0
0.118711 0.064120 -0.300852 0 255 0
0.130149 0.287500 0.154813 0 255 0
-0.647672 -0.339067 0.430724 0 255 0
-0.430139 0.467971 0.335651 0 255 0
0.578256 0.467971 -0.305006 0 255 0
-0.432813 -0.343881 0.121260 0 255 0
0.655381 -0.034878 0.400242 0 255 0
