ply
format ascii 1.0
element vertex 1265
property float x
property float y
property float z
property uchar red
property uchar green
property uchar blue
end_header
-0.139359 0.884696 -0.235484 153 0 76
-0.145114 0.774319 0.264900 0 127 127
-0.237308 0.810787 -0.149528 0 255 0
-0.253068 0.651174 0.219801 0 255 0
0.205265 -0.722465 0.076465 76 0 153
0.155861 0.491214 0.264900 0 127 127
-0.187960 0.933557 -0.000751 76 153 0
-0.230487 -0.951535 0.230124 0 127 127
0.251256 -0.714560 -0.019682 127 127 0
-0.237308 -0.213583 -0.168049 0 255 0
0.209058 -0.099884 -0.137564 204 51 127
0.176181 0.954571 0.085859 76 153 0
-0.103752 0.954571 0.007794 76 153 0
-0.196169 -0.902348 -0.235484 153 76 0
0.251256 0.201958 -0.026320 127 127 0
0.241843 0.672484 -0.235484 127 127 0
-0.130639 0.320586 -0.214470 127 0 127
0.143487 -0.445377 -0.219724 127 0 127
-0.253068 0.218811 -0.149147 0 255 0
-0.253068 0.759910 -0.011591 0 255 0
0.251256 0.436049 -0.000884 127 127 0
-0.197544 -0.540478 -0.214470 127 0 127
-0.174143 -0.120897 0.205227 204 51 127
-0.205443 -0.008498 0.249140 0 127 127
0.235496 0.792690 -0.004628 127 127 0
-0.044681 -0.091372 -0.219724 127 0 127
-0.237308 0.381756 0.030772 0 255 0
-0.024069 -0.930522 0.125127 0 127 127
0.251256 0.000456 -0.165804 127 127 0
0.035163 -0.274447 0.264900 0 127 127
-0.253068 0.786264 0.173457 0 255 0
0.164619 0.686187 -0.214470 127 0 127
-0.237308 -0.887109 0.045198 0 255 0
-0.234291 -0.701452 -0.145416 76 0 153
0.235496 -0.465871 0.034513 153 0 76
0.235496 -0.880490 -0.132916 127 127 0
-0.253068 0.796893 0.059005 0 255 0
-0.201823 -0.486829 0.119380 153 0 76
-0.237308 -0.051483 0.051821 0 255 0
0.162711 -0.701452 0.241193 76 0 153
-0.042328 0.461144 -0.219724 127 0 127
0.064229 -0.722465 0.019198 76 0 153
-0.055211 -0.930522 0.065962 0 127 127
-0.080705 -0.889418 0.249140 153 0 76
0.251256 -0.307056 -0.050499 127 127 0
0.071370 0.952559 0.249140 0 127 127
0.186305 -0.588482 0.264900 153 0 76
-0.237308 0.342232 0.134731 0 255 0
-0.146437 -0.099884 0.167873 204 51 127
-0.239511 -0.274247 0.247827 0 255 0
-0.237308 0.803240 -0.189778 0 255 0
-0.237308 0.468759 -0.113029 0 255 0
0.181637 -0.536258 -0.214470 127 0 127
-0.066685 -0.120897 -0.015580 204 51 127
-0.014791 0.078309 0.249140 0 127 127
-0.237308 0.010152 -0.200799 0 255 0
0.235496 0.477790 0.216274 127 127 0
-0.111647 -0.898959 0.264900 153 0 76
-0.248318 0.784896 0.249140 0 127 127
0.042909 -0.120897 -0.006191 204 51 127
-0.237308 -0.393488 -0.124662 0 255 0
-0.207590 0.582072 0.158047 255 0 0
-0.139646 0.954571 0.095900 76 153 0
0.235496 0.308044 -0.135014 127 127 0
0.251256 0.234426 -0.083587 127 127 0
0.182634 0.829052 0.249140 0 127 127
0.123765 0.825766 0.249140 0 127 127
-0.253068 -0.428303 -0.215524 0 255 0
0.235496 -0.626570 0.096929 127 127 0
-0.253068 -0.324916 -0.011862 0 255 0
-0.021110 0.446379 0.264900 0 127 127
-0.049881 0.282614 -0.214470 127 0 127
0.251256 -0.153006 -0.167298 127 127 0
-0.253068 0.470024 -0.167547 0 255 0
0.235496 -0.537184 -0.205066 127 127 0
0.251256 0.033626 0.102836 127 127 0
0.251256 0.660003 -0.180015 127 127 0
-0.253068 0.763837 0.109538 0 255 0
-0.237308 -0.083563 -0.164872 0 255 0
0.251256 0.153916 -0.054901 127 127 0
0.235496 0.914878 -0.108518 127 127 0
0.119792 0.275706 0.249140 0 127 127
-0.122051 0.519018 -0.219724 127 0 127
0.041714 -0.120897 -0.076396 204 51 127
-0.253068 0.255215 -0.057021 0 255 0
-0.049061 -0.641117 -0.219724 127 0 127
-0.253068 0.279541 -0.097225 0 255 0
-0.253068 -0.778616 0.029812 0 255 0
-0.117490 0.455344 0.249140 0 127 127
0.083785 -0.309070 -0.219724 127 0 127
0.134613 0.954571 0.001277 76 153 0
0.227755 -0.044666 0.264900 0 127 127
-0.237308 -0.141794 0.189134 0 255 0
0.235496 0.251112 -0.117822 127 127 0
0.049233 -0.465815 -0.030028 153 0 76
0.054951 -0.120897 -0.138580 204 51 127
0.235496 0.258977 -0.050423 127 127 0
-0.237308 0.751001 -0.132261 0 255 0
0.235496 -0.230557 0.044971 127 127 0
-0.252164 0.754118 0.247827 0 255 0
0.124467 0.582072 -0.158408 255 0 0
-0.195085 -0.203471 0.264900 0 127 127
0.235496 -0.824892 0.177017 127 127 0
-0.221034 -0.930522 0.103764 0 127 127
0.235496 -0.600121 -0.022513 127 127 0
-0.014871 -0.051016 -0.231208 76 0 153
0.065664 0.603086 0.109871 255 0 0
0.117305 0.954571 0.261292 0 127 127
-0.237308 0.022480 0.088788 0 255 0
0.002519 0.933557 -0.069278 76 153 0
0.251256 0.865770 0.214885 127 127 0
-0.073497 0.933557 -0.187369 76 153 0
-0.037327 0.744945 0.264900 0 127 127
0.201822 0.251601 0.197786 0 0 255
0.026792 0.281842 -0.219724 127 0 127
-0.070953 0.603086 -0.152356 255 0 0
-0.253068 0.079907 -0.152834 0 255 0
-0.237308 -0.058725 -0.174932 0 255 0
0.039048 0.826147 -0.214470 127 0 127
-0.151979 0.954571 0.175157 76 153 0
-0.052326 0.094450 -0.219724 127 0 127
0.169389 -0.701452 -0.145679 76 0 153
0.015129 -0.099884 0.051081 204 51 127
0.135176 0.526916 -0.214470 127 0 127
0.251256 -0.648496 -0.160033 127 127 0
-0.071452 0.331272 -0.219724 127 0 127
-0.054040 0.149678 0.264900 0 127 127
0.251256 -0.620668 0.115261 127 127 0
-0.151220 -0.722465 -0.029034 76 0 153
0.235496 0.065591 -0.215826 127 0 127
-0.253068 0.721800 0.180452 0 255 0
0.200821 -0.951535 -0.124951 0 127 127
0.037172 -0.120897 -0.195584 204 51 127
0.220124 0.954571 -0.062183 76 153 0
-0.010088 0.450413 -0.214470 127 0 127
-0.115931 -0.191322 -0.214470 127 0 127
0.192071 -0.465815 0.204791 153 0 76
-0.253068 0.092387 -0.129195 0 255 0
-0.197181 -0.701452 0.236732 76 0 153
0.214117 -0.075644 0.249140 0 127 127
-0.253068 -0.262241 -0.070355 0 255 0
-0.194389 -0.722465 -0.046143 76 0 153
-0.059598 -0.514373 0.249140 153 0 76
0.163858 -0.895315 0.249140 153 0 76
-0.110520 0.933557 0.218275 76 153 0
-0.237308 0.648551 0.001660 0 255 0
-0.253068 -0.125595 -0.228392 0 255 0
-0.237308 0.731403 0.080498 0 255 0
-0.106664 -0.015381 0.249140 0 127 127
-0.045542 0.051259 -0.219724 127 0 127
0.235496 -0.548580 -0.134591 127 127 0
0.235496 -0.051388 -0.004886 127 127 0
0.085426 0.340310 0.249140 0 127 127
0.158343 0.774427 0.249140 0 127 127
-0.215295 0.933557 0.040734 76 153 0
-0.182590 -0.722465 -0.135535 76 0 153
0.251256 -0.866954 0.120842 127 127 0
0.235496 -0.390107 -0.090967 127 127 0
0.223527 0.933557 0.030724 76 153 0
0.249943 0.705210 0.257777 0 127 127
-0.189547 0.392969 0.249140 0 127 127
0.231923 0.933557 -0.225540 153 0 76
0.062277 -0.465815 0.240518 153 0 76
-0.200134 0.933557 0.097187 76 153 0
-0.253068 0.516797 -0.052554 0 255 0
-0.251755 -0.122819 0.249640 0 127 127
-0.031918 0.140570 -0.214470 127 0 127
-0.234593 -0.951535 0.207206 0 127 127
-0.051615 0.881419 0.264900 0 127 127
0.235496 -0.415057 -0.105938 127 127 0
-0.237308 -0.018118 -0.216045 0 255 0
0.151815 0.270087 0.249140 0 127 127
0.007265 -0.722465 -0.055392 76 0 153
0.132748 -0.226184 0.249140 0 127 127
-0.237308 -0.267754 -0.132381 0 255 0
-0.253068 -0.910965 0.080022 0 255 0
-0.237308 -0.943796 0.152258 0 127 127
-0.188111 -0.701452 0.115591 76 0 153
0.251256 -0.549113 -0.183994 127 127 0
-0.253068 0.453603 0.117992 0 255 0
-0.237308 -0.774112 0.001573 0 255 0
-0.155366 -0.079134 0.249140 0 127 127
0.235496 -0.706124 0.089123 127 127 0
0.003791 0.219197 0.264900 0 127 127
-0.237308 0.058835 0.124604 0 255 0
0.219863 -0.465815 -0.115322 153 0 76
0.251256 0.582515 -0.216240 127 127 0
-0.235955 -0.527035 0.249140 153 0 76
0.235496 -0.101979 -0.083448 204 51 127
0.235496 0.778981 -0.049502 127 127 0
0.179141 -0.705186 0.264900 153 0 76
0.235496 0.802068 0.246889 127 127 0
-0.212460 0.023284 -0.214470 127 0 127
0.235496 0.694115 0.123172 127 127 0
-0.186657 -0.701452 0.193682 76 0 153
-0.129743 -0.486829 0.035756 153 0 76
0.083957 -0.120897 0.086677 204 51 127
0.207471 -0.099884 -0.061033 204 51 127
0.235496 -0.159800 -0.223108 127 127 0
0.251256 0.015509 0.027861 127 127 0
-0.179955 -0.465815 -0.122580 153 0 76
0.224238 -0.730926 0.249140 153 0 76
-0.253068 -0.094358 0.228369 0 255 0
0.251256 -0.824222 0.192710 127 127 0
-0.253068 0.069172 0.210323 0 255 0
0.235496 0.752861 0.053775 127 127 0
0.168880 -0.754396 0.264900 153 0 76
0.049174 -0.221360 0.264900 0 127 127
0.154360 -0.951535 -0.036311 0 127 127
-0.149556 -0.085642 -0.214470 127 0 127
-0.237308 0.871181 -0.148425 0 255 0
0.105853 -0.465815 -0.023635 153 0 76
-0.119151 -0.099884 0.094531 204 51 127
0.036345 -0.015079 0.249140 0 127 127
-0.237308 -0.371356 -0.182548 0 255 0
-0.032501 -0.799661 0.249140 153 0 76
-0.201182 -0.286239 0.249140 0 127 127
-0.237308 -0.031851 -0.003701 0 255 0
0.105145 0.039432 0.249140 0 127 127
0.092432 -0.672464 -0.214470 127 0 127
-0.253068 -0.003410 -0.167511 0 255 0
0.251256 0.823331 0.166081 127 127 0
-0.253068 0.287591 0.010731 0 255 0
-0.181211 -0.712096 0.264900 153 0 76
-0.106701 -0.706051 0.264900 153 0 76
-0.186872 -0.486829 -0.149274 153 0 76
-0.183061 0.954571 -0.073458 76 153 0
-0.237308 -0.268215 -0.046397 0 255 0
-0.196668 0.232785 0.264900 0 127 127
-0.233878 -0.896025 0.249140 153 0 76
-0.168931 -0.486829 0.043162 153 0 76
0.047475 -0.238333 -0.214470 127 0 127
0.030413 -0.930522 -0.083470 0 127 127
-0.253068 0.937991 -0.112598 0 255 0
-0.237308 -0.918560 -0.115523 0 255 0
-0.179432 -0.465815 -0.019599 153 0 76
-0.237308 -0.421032 -0.110444 0 255 0
0.251256 -0.522255 -0.060604 127 127 0
0.251256 -0.496008 0.055513 127 127 0
0.132907 0.251601 -0.121452 0 0 255
0.235496 -0.872404 0.014961 127 127 0
0.251256 -0.758575 -0.162255 127 127 0
-0.237308 0.946083 0.137663 76 153 0
-0.121880 0.414916 0.249140 0 127 127
0.251256 -0.646858 -0.225537 127 127 0
-0.237308 0.647712 0.060986 0 255 0
-0.043487 -0.399916 -0.214470 127 0 127
-0.227356 -0.322824 -0.219724 127 0 127
-0.253068 0.356991 0.005518 0 255 0
0.251256 0.747632 -0.218381 127 127 0
0.006402 0.032836 -0.235484 76 0 153
0.131536 -0.486829 -0.029269 153 0 76
0.028235 0.871112 0.264900 0 127 127
-0.237308 0.810366 -0.101101 0 255 0
0.195602 -0.930522 -0.170068 0 127 127
-0.135282 -0.913908 -0.214470 127 0 127
-0.228012 -0.951535 -0.064908 0 127 127
0.183430 -0.169577 -0.219724 127 0 127
0.136622 0.881880 -0.214470 127 0 127
-0.237308 0.714599 0.052388 0 255 0
0.176870 -0.143592 0.249140 0 127 127
-0.253068 0.707406 -0.041364 0 255 0
0.251256 -0.681011 -0.179725 127 127 0
-0.217522 0.273529 -0.219724 127 0 127
-0.223737 0.244914 -0.214470 0 0 255
0.096517 0.954571 -0.063998 76 153 0
-0.012064 -0.722465 0.118178 76 0 153
-0.171402 0.582072 0.152836 255 0 0
-0.253068 0.192442 -0.174303 0 255 0
-0.253068 0.399366 0.048823 0 255 0
-0.024670 0.933557 0.043728 76 153 0
0.139143 -0.149445 0.249140 0 127 127
0.075716 0.603086 -0.102875 255 0 0
-0.233383 0.880436 -0.219724 153 0 76
0.235496 0.757397 -0.127750 127 127 0
-0.109605 -0.930522 0.123478 0 127 127
-0.253068 -0.317618 0.172472 0 255 0
-0.022381 -0.900987 -0.235484 153 76 0
0.235496 -0.593058 0.241058 127 127 0
0.235496 -0.131337 0.137552 127 127 0
-0.052067 -0.930522 -0.214968 0 127 127
0.090595 0.797908 0.264900 0 127 127
-0.129700 0.603086 -0.154332 255 0 0
0.205788 -0.722465 -0.067430 76 0 153
-0.141336 0.251601 -0.003687 0 0 255
0.098954 0.251601 0.109282 0 0 255
-0.052413 0.230588 0.182347 0 0 255
-0.087853 0.667795 0.249140 0 127 127
0.251256 -0.852358 -0.142783 127 127 0
-0.093958 -0.465815 -0.067257 153 0 76
0.100320 0.525533 -0.219724 127 0 127
0.235496 -0.360550 0.163665 127 127 0
0.092272 -0.930522 0.056530 0 127 127
-0.059365 -0.775680 0.249140 153 0 76
0.121980 -0.701452 -0.082694 76 0 153
0.004289 -0.674114 -0.219724 127 0 127
-0.151127 -0.037491 0.264900 0 127 127
0.122572 0.365121 0.249140 0 127 127
0.205559 0.417626 0.264900 0 127 127
-0.003166 0.852883 -0.235484 153 0 76
0.251256 0.735477 -0.048925 127 127 0
0.139033 0.230588 -0.067945 0 0 255
-0.160354 0.582072 -0.208590 255 0 0
0.251256 -0.171652 0.171017 127 127 0
-0.238556 0.557678 0.247827 0 255 0
0.126377 0.921885 0.249140 0 127 127
-0.069096 0.230588 0.218357 0 0 255
-0.240157 0.220906 -0.235484 0 255 0
-0.237308 0.137098 0.186045 0 255 0
0.201623 -0.096150 -0.219724 127 0 127
0.235496 0.597296 -0.184129 255 0 0
0.158706 -0.930522 -0.020709 0 127 127
-0.237308 0.332720 -0.020280 0 255 0
-0.149332 0.251601 0.228826 0 0 255
-0.207833 0.063895 0.264900 0 127 127
0.251256 0.085600 0.185483 127 127 0
-0.175984 0.251601 0.224043 0 0 255
0.235496 -0.473925 -0.031285 153 0 76
-0.050961 -0.321937 0.264900 0 127 127
0.233656 -0.165718 0.264900 0 127 127
-0.219976 -0.486829 0.007831 153 0 76
0.174823 -0.018661 0.264900 0 127 127
0.168639 -0.951535 -0.209552 0 127 127
0.111414 0.471988 -0.219724 127 0 127
0.214101 -0.722465 -0.024501 76 0 153
0.066481 0.417995 0.264900 0 127 127
0.079203 -0.486829 0.148116 153 0 76
-0.253068 0.519841 0.224506 0 255 0
-0.183972 -0.204231 -0.214470 127 0 127
-0.237308 -0.353372 0.152324 0 255 0
0.235496 0.315031 -0.219744 127 127 0
0.093570 -0.604209 -0.219724 127 0 127
-0.047866 -0.705541 0.264900 153 0 76
-0.221558 0.230588 -0.034849 0 0 255
-0.253068 -0.408978 -0.143247 0 255 0
-0.253068 0.083957 0.062477 0 255 0
0.251256 -0.119867 0.131267 127 127 0
0.082449 -0.114296 0.264900 0 127 127
-0.177027 0.230588 0.128685 0 0 255
0.077193 -0.099884 -0.086240 204 51 127
0.235496 -0.718815 0.222059 127 127 0
-0.193018 0.350399 -0.214470 127 0 127
-0.077506 -0.381151 0.264900 0 127 127
0.235496 -0.568874 0.048300 127 127 0
0.172861 -0.353286 0.264900 0 127 127
0.235496 0.003038 0.189612 127 127 0
-0.025573 0.044202 -0.235484 76 0 153
-0.237308 -0.345229 -0.111888 0 255 0
0.145494 0.296483 0.249140 0 127 127
0.044759 -0.249176 0.249140 0 127 127
-0.136188 0.251601 0.133776 0 0 255
0.235496 -0.138792 -0.086025 127 127 0
0.109207 -0.120897 -0.209684 204 51 127
-0.152439 -0.430975 -0.219724 127 0 127
0.251256 0.691994 0.239405 127 127 0
0.086069 -0.026245 -0.219724 127 0 127
0.251256 -0.084133 0.003842 127 127 0
-0.176514 0.230588 -0.096481 0 0 255
-0.237308 0.585744 0.011682 255 0 0
0.251256 0.675704 -0.143541 127 127 0
0.235496 -0.468061 -0.079674 153 0 76
0.235496 -0.376519 0.112292 127 127 0
-0.237308 0.026828 0.127003 0 255 0
-0.061110 0.201924 0.249140 0 127 127
0.251256 0.006132 0.087535 127 127 0
-0.192848 -0.380910 0.264900 0 127 127
0.092584 -0.524239 -0.219724 127 0 127
0.176008 -0.930522 -0.102204 0 127 127
0.198649 -0.930522 -0.144291 0 127 127
-0.109389 -0.656119 0.264900 153 0 76
0.251256 0.774034 -0.187142 127 127 0
-0.120810 0.251601 0.093034 0 0 255
-0.253068 0.060657 0.229007 0 255 0
-0.237308 -0.864993 0.106806 0 255 0
0.002800 -0.349339 -0.214470 127 0 127
-0.000172 -0.486829 -0.058323 153 0 76
0.007658 -0.196864 0.264900 0 127 127
0.249943 -0.494188 0.263946 153 0 76
0.129150 0.429968 0.249140 0 127 127
0.235496 0.516350 0.165096 127 127 0
-0.237308 0.610626 0.114568 0 255 0
-0.035363 0.402982 -0.219724 127 0 127
0.005731 -0.484393 0.247827 153 0 76
-0.044660 -0.951535 0.076596 0 127 127
-0.253068 0.470917 0.106151 0 255 0
-0.237308 0.932009 -0.054793 0 255 0
-0.253068 -0.901041 -0.049094 0 255 0
-0.204979 -0.096393 0.290713 76 153 0
0.235496 0.499536 0.187987 127 127 0
0.235496 -0.712517 -0.153758 127 127 0
-0.051122 0.933557 -0.201009 76 153 0
-0.237308 -0.145352 0.144512 0 255 0
0.011278 -0.714091 0.264900 153 0 76
-0.149718 0.625456 -0.219724 127 0 127
-0.007758 0.603086 -0.096700 255 0 0
-0.172631 0.429846 0.264900 0 127 127
0.251256 -0.370299 0.028329 127 127 0
-0.134237 -0.486829 -0.191707 153 0 76
0.217282 -0.584198 -0.219724 127 0 127
-0.219293 0.230588 -0.118171 0 0 255
0.020028 0.042603 0.264900 0 127 127
-0.196393 0.732934 -0.219724 127 0 127
0.104436 -0.722465 -0.053738 76 0 153
0.251256 0.790517 0.099395 127 127 0
0.081620 -0.804844 0.249140 153 0 76
-0.237308 -0.770871 0.127257 0 255 0
0.046963 -0.951535 0.144601 0 127 127
-0.031576 -0.465815 -0.199590 153 0 76
-0.133554 -0.037946 -0.214470 127 0 127
0.251256 0.651705 0.035745 127 127 0
0.235496 -0.510444 0.064079 127 127 0
0.235496 -0.599073 -0.231287 127 127 0
0.064104 -0.930522 0.201154 0 127 127
-0.171663 -0.192331 0.264900 0 127 127
-0.199212 -0.838509 -0.235484 153 76 0
-0.253068 -0.935732 0.225552 0 255 0
-0.184459 0.230588 -0.158122 0 0 255
-0.237308 0.938184 0.017250 0 255 0
-0.237308 0.423624 -0.022000 0 255 0
-0.036517 -0.928245 -0.235484 153 76 0
-0.246509 0.068632 0.247827 0 255 0
0.218970 -0.930522 -0.093293 0 127 127
-0.018273 0.390668 -0.214470 127 0 127
0.251256 -0.070932 0.029616 127 127 0
0.235496 0.574123 -0.162858 127 127 0
0.237797 -0.118097 -0.235484 127 127 0
-0.253068 -0.463543 -0.086894 0 255 0
-0.098971 -0.951535 0.147951 0 127 127
-0.237308 -0.108869 -0.025047 0 255 0
-0.253068 -0.415796 0.159268 0 255 0
-0.033281 -0.722465 -0.092848 76 0 153
0.164943 0.016269 0.264900 0 127 127
-0.253068 -0.641836 -0.084868 0 255 0
0.087462 0.933557 0.239021 76 153 0
-0.163682 -0.099884 0.230612 204 51 127
-0.231094 -0.626401 0.264900 153 0 76
-0.253068 0.598445 -0.168781 0 255 0
-0.179419 0.689018 0.264900 0 127 127
0.075880 0.527297 0.264900 0 127 127
0.159183 -0.722465 -0.064784 76 0 153
-0.190724 0.603086 0.034096 255 0 0
0.228973 0.675984 0.249140 0 127 127
0.109703 0.230588 0.168217 0 0 255
-0.253068 -0.565654 0.146355 0 255 0
-0.116685 -0.486829 -0.211150 153 0 76
-0.028990 -0.486829 0.026615 153 0 76
-0.237308 -0.331312 -0.176348 0 255 0
0.237472 0.245599 0.264900 0 127 127
0.251256 -0.184240 -0.185985 127 127 0
-0.253068 0.675040 0.041073 0 255 0
0.235496 0.447103 0.102621 127 127 0
0.251256 0.380273 0.147105 127 127 0
-0.184845 0.813569 0.264900 0 127 127
0.076973 0.568971 0.249140 0 127 127
-0.066507 0.586554 -0.214470 255 0 0
0.049048 0.603086 -0.158460 255 0 0
-0.100930 -0.930522 0.080768 0 127 127
0.238846 -0.288698 -0.235484 127 127 0
0.235496 -0.179476 -0.215452 127 0 127
-0.137479 0.251601 -0.195368 0 0 255
0.190185 0.466983 0.249140 0 127 127
0.011973 0.669021 0.249140 0 127 127
0.196625 0.367109 -0.219724 127 0 127
-0.242191 -0.763935 -0.235484 0 255 0
-0.041414 0.906350 -0.219724 153 0 76
-0.253068 0.828484 0.108457 0 255 0
-0.100305 0.954571 -0.222482 76 153 0
-0.207441 0.251601 -0.136123 0 0 255
-0.164461 0.251601 -0.013143 0 0 255
0.251256 0.214668 0.202953 127 127 0
-0.064880 -0.214239 -0.219724 127 0 127
-0.253068 0.601186 0.092083 0 255 0
0.235496 0.510673 -0.207144 127 127 0
-0.051217 -0.935808 0.249140 153 0 76
0.064101 -0.465815 0.113729 153 0 76
-0.012464 -0.119300 0.242573 204 51 127
-0.253068 0.921836 0.175100 0 255 0
-0.237308 -0.777661 0.242611 0 255 0
0.251256 0.862834 0.042582 127 127 0
0.022917 -0.393087 0.264900 0 127 127
-0.036404 0.827682 0.249140 0 127 127
0.235496 -0.233214 -0.000798 127 127 0
-0.072346 0.603086 0.120528 255 0 0
0.251256 0.631438 0.107278 127 127 0
0.235496 0.503855 0.035252 127 127 0
-0.253068 0.485823 0.044562 0 255 0
0.012575 -0.951535 0.069416 0 127 127
0.162499 0.790861 -0.219724 127 0 127
0.181311 0.224465 0.249140 0 127 127
0.168062 0.680603 0.249140 0 127 127
-0.253068 -0.188640 -0.220559 0 255 0
0.235496 0.565362 -0.193360 127 127 0
0.235496 -0.725577 0.019973 127 127 0
0.130995 0.789609 0.264900 0 127 127
-0.203435 -0.722465 0.029065 76 0 153
-0.150050 0.380328 0.264900 0 127 127
-0.253068 -0.373138 -0.107248 0 255 0
0.251256 0.490539 -0.033011 127 127 0
-0.237308 0.838112 0.035379 0 255 0
-0.237308 0.020228 0.232511 0 255 0
-0.253068 0.337308 -0.083122 0 255 0
0.052719 0.059495 0.249140 0 127 127
-0.253068 0.170847 -0.001981 0 255 0
-0.211529 -0.465815 0.080378 153 0 76
0.189072 0.321133 0.264900 0 127 127
-0.237308 0.536000 0.047426 0 255 0
-0.253068 -0.716942 0.100504 0 255 0
-0.002509 0.901921 -0.235484 153 0 76
-0.219007 -0.099884 0.074400 204 51 127
-0.237308 -0.556831 0.205062 0 255 0
-0.220360 0.758399 -0.219724 127 0 127
0.063243 0.933557 -0.061442 76 153 0
0.235496 0.241774 -0.209252 127 127 0
-0.210243 -0.701452 0.001096 76 0 153
-0.237308 0.024537 -0.069874 0 255 0
0.235496 -0.325674 -0.182533 127 127 0
-0.241860 0.645971 0.249140 0 127 127
-0.201003 0.502812 0.264900 0 127 127
0.092284 -0.465815 -0.114064 153 0 76
-0.007705 -0.513131 0.249140 153 0 76
-0.253068 0.526706 0.086708 0 255 0
-0.093567 0.251601 0.039533 0 0 255
0.121117 -0.054903 -0.214470 127 0 127
0.180358 0.147698 0.249140 0 127 127
0.251256 -0.604324 0.015514 127 127 0
-0.253068 0.220707 -0.170576 0 255 0
0.166625 0.251601 -0.099296 0 0 255
-0.253068 0.164192 0.022383 0 255 0
-0.237308 0.240620 0.004355 0 255 0
-0.205388 0.835522 -0.214470 127 0 127
-0.253068 -0.632020 -0.065334 0 255 0
0.251256 -0.377962 0.191547 127 127 0
0.146794 0.933557 -0.229230 76 153 0
0.251256 -0.422147 -0.055993 127 127 0
-0.212189 -0.722465 0.135745 76 0 153
0.180061 0.894298 0.264900 0 127 127
0.235496 0.263027 0.148429 127 127 0
0.100970 0.603086 0.095538 255 0 0
0.234059 0.498334 0.249140 0 127 127
0.251256 -0.448544 0.072799 127 127 0
0.028674 0.251601 0.069442 0 0 255
0.232316 -0.486829 0.213269 153 0 76
0.235496 -0.935352 0.046615 127 127 0
-0.110393 0.177740 0.249140 0 127 127
-0.050762 0.256760 0.249140 0 127 127
-0.237308 0.337141 -0.162926 0 255 0
0.251256 0.604472 -0.049793 127 127 0
0.122146 -0.796470 -0.214470 127 0 127
-0.237308 0.795975 -0.170936 0 255 0
0.003324 -0.486829 -0.103453 153 0 76
-0.106350 -0.643193 -0.214470 127 0 127
-0.076530 -0.759832 0.264900 153 0 76
0.251256 0.360312 0.073698 127 127 0
0.251256 0.641184 -0.117582 127 127 0
0.064260 -0.810783 0.264900 153 0 76
-0.237308 0.418283 0.156809 0 255 0
-0.122810 -0.701452 0.044795 76 0 153
-0.105691 -0.722465 0.159255 76 0 153
0.145286 0.370578 -0.219724 127 0 127
0.004764 0.254121 -0.219724 127 0 127
0.232976 0.933557 -0.052672 76 153 0
0.251256 -0.771499 0.140487 127 127 0
0.144557 0.049988 -0.219724 76 0 153
-0.012910 -0.701452 -0.073669 76 0 153
-0.211006 0.878349 -0.219724 153 0 76
-0.230999 -0.465815 -0.016200 153 0 76
0.251256 0.418693 -0.028380 127 127 0
-0.040348 0.260370 -0.219724 127 0 127
0.251256 0.883403 -0.151644 127 127 0
-0.017159 -0.120897 0.195655 204 51 127
0.251256 -0.516664 0.222157 127 127 0
0.235496 0.025802 -0.015944 127 127 0
0.090614 0.172911 -0.214470 127 0 127
0.131429 0.933557 -0.017453 76 153 0
0.107726 -0.402775 0.264900 0 127 127
-0.081531 -0.136038 -0.214470 127 0 127
0.251256 -0.444458 -0.156821 127 127 0
0.043549 -0.722465 -0.024294 76 0 153
0.235496 -0.936209 0.130446 0 127 127
-0.090209 0.230588 0.063455 0 0 255
-0.190150 0.027100 -0.214470 127 0 127
-0.253068 0.712047 -0.136425 0 255 0
-0.237308 -0.117641 -0.130946 0 255 0
0.205130 -0.120897 0.169611 204 51 127
0.223933 -0.722465 -0.107351 76 0 153
-0.237308 0.788498 -0.227317 0 255 0
-0.191581 0.954571 -0.033585 76 153 0
-0.062855 0.109829 0.249140 0 127 127
-0.253068 0.431076 -0.121242 0 255 0
0.216638 0.603086 0.083397 255 0 0
0.251256 0.801836 -0.145835 127 127 0
0.059563 -0.055705 -0.214470 127 0 127
-0.145784 0.838399 -0.214470 127 0 127
0.150616 -0.454463 0.264900 0 127 127
-0.128873 0.954571 0.032789 76 153 0
-0.246172 0.865614 0.264900 0 127 127
0.251256 0.817755 -0.218938 127 127 0
0.235496 -0.891864 0.105887 127 127 0
-0.205428 0.787252 -0.219724 127 0 127
0.235496 0.578517 0.186472 127 127 0
0.235496 -0.136217 -0.024391 127 127 0
0.251256 0.355357 0.234623 127 127 0
-0.099804 0.582072 0.161135 255 0 0
-0.187926 -0.001965 0.264900 0 127 127
-0.005286 -0.465815 -0.073307 153 0 76
-0.220012 -0.341691 0.249140 0 127 127
0.251256 -0.042908 0.089456 127 127 0
0.251256 -0.213391 -0.224136 127 127 0
0.006442 -0.701452 0.198563 76 0 153
-0.197557 0.576400 -0.214470 127 0 127
0.048769 -0.527641 0.264900 153 0 76
-0.071397 0.251601 -0.056901 0 0 255
-0.124259 -0.930522 -0.029867 0 127 127
0.071156 0.230588 0.132057 0 0 255
-0.251755 -0.285825 0.264186 0 127 127
0.012957 -0.045648 -0.214470 127 0 127
0.235496 0.233654 -0.040271 127 127 0
-0.237308 -0.901351 0.064051 0 255 0
-0.162994 0.093678 0.249140 0 127 127
0.251256 0.549809 0.116557 127 127 0
0.235496 0.704748 0.156110 127 127 0
0.032213 0.524463 0.249140 0 127 127
0.251256 -0.073584 0.069567 127 127 0
0.023483 -0.649815 0.249140 153 0 76
0.249943 -0.027991 0.264534 0 127 127
-0.037600 -0.725014 -0.219724 127 0 127
-0.237308 0.219751 0.056353 0 255 0
-0.108507 -0.486829 0.076133 153 0 76
-0.253068 -0.308038 0.139709 0 255 0
-0.052260 0.546174 0.264900 0 127 127
0.251256 0.287747 0.177975 127 127 0
0.251256 -0.196136 0.063861 127 127 0
-0.253068 -0.181129 0.039853 0 255 0
0.212122 0.817454 -0.214470 127 0 127
-0.237308 -0.155111 -0.052435 0 255 0
-0.093056 -0.701452 0.225779 76 0 153
-0.158159 0.603086 0.053611 255 0 0
-0.027567 0.337306 0.249140 0 127 127
-0.237308 0.413029 0.137038 0 255 0
0.223050 -0.456333 0.249140 0 127 127
-0.237308 0.035464 0.210271 0 255 0
0.251256 -0.103408 0.102506 127 127 0
-0.237308 0.367154 0.013279 0 255 0
-0.134988 0.254405 0.264900 0 127 127
-0.112239 0.230588 0.108915 0 0 255
0.235496 -0.471202 -0.006252 153 0 76
0.189864 -0.120897 -0.202153 204 51 127
0.235496 0.601706 -0.075207 127 127 0
0.235496 -0.157926 -0.140841 127 127 0
-0.217615 0.523574 -0.214470 127 0 127
0.217949 -0.099884 0.048913 204 51 127
0.235496 0.494102 -0.150486 127 127 0
-0.074598 0.642538 0.249140 0 127 127
0.088408 -0.120897 0.231651 204 51 127
-0.104240 0.251601 0.133328 0 0 255
-0.253068 -0.839465 0.076401 0 255 0
0.012703 -0.701452 0.104620 76 0 153
0.251256 0.199055 -0.223083 127 127 0
-0.237308 -0.783912 -0.063115 0 255 0
0.199287 0.582072 -0.205917 255 0 0
-0.175926 0.230588 0.042731 0 0 255
0.053904 0.933557 0.093374 76 153 0
0.139067 0.084597 0.249140 0 127 127
-0.066209 -0.120897 0.066484 204 51 127
-0.086334 -0.740158 -0.219724 127 0 127
0.152575 0.933557 -0.131157 76 153 0
-0.102253 0.758947 -0.214470 127 0 127
0.251256 -0.933420 0.205064 127 127 0
0.083802 0.230588 -0.142630 0 0 255
-0.157835 -0.824114 0.264900 153 0 76
0.196154 -0.383054 0.249140 0 127 127
0.064381 0.017549 -0.219724 76 0 153
-0.237308 0.569166 0.096366 0 255 0
-0.047181 -0.311558 -0.214470 127 0 127
-0.000687 0.191187 -0.219724 127 0 127
0.171490 -0.701452 0.022985 76 0 153
0.017371 -0.120897 0.093958 204 51 127
0.208806 0.738143 0.264900 0 127 127
0.251256 0.693687 0.078101 127 127 0
0.183771 -0.486829 0.099612 153 0 76
-0.253068 -0.782392 0.145891 0 255 0
-0.253068 0.199718 0.150682 0 255 0
-0.099132 -0.099884 0.192098 204 51 127
0.064261 0.331532 0.264900 0 127 127
0.251256 -0.048544 -0.187935 127 127 0
-0.206439 0.603086 0.116127 255 0 0
-0.063457 -0.266004 0.264900 0 127 127
0.102322 -0.120897 0.070963 204 51 127
0.144511 0.381316 0.264900 0 127 127
0.111129 -0.951535 0.158219 0 127 127
0.251256 0.209310 -0.089108 127 127 0
0.141995 -0.930522 0.154880 0 127 127
-0.128310 0.498338 0.264900 0 127 127
-0.237308 0.939748 0.065930 76 153 0
0.149683 0.936371 0.247827 76 153 0
-0.253068 -0.917991 -0.222342 0 255 0
-0.061004 0.473300 0.264900 0 127 127
0.041398 0.704192 -0.214470 127 0 127
0.235496 -0.589879 0.113485 127 127 0
0.251256 0.023620 0.171674 127 127 0
0.151960 0.864435 0.249140 0 127 127
-0.052946 -0.120897 -0.064010 204 51 127
-0.144927 0.314814 0.264900 0 127 127
-0.253068 -0.194556 -0.057694 0 255 0
-0.100081 -0.722465 0.226355 76 0 153
0.251256 -0.126077 -0.119285 127 127 0
0.076184 0.346689 -0.219724 127 0 127
-0.253068 -0.454186 0.101091 0 255 0
0.004795 0.251601 0.168259 0 0 255
0.251256 -0.944745 0.095031 127 127 0
-0.221311 0.251601 0.191725 0 0 255
-0.168876 -0.099884 -0.160774 204 51 127
0.235496 0.647492 -0.129640 127 127 0
-0.237308 -0.630462 -0.096151 0 255 0
0.251256 0.927247 -0.145571 127 127 0
-0.163157 -0.099884 -0.069948 204 51 127
-0.165705 0.251601 -0.064918 0 0 255
-0.219113 0.073599 0.249140 0 127 127
0.031788 0.037078 -0.214470 127 0 127
-0.237308 -0.218177 0.179894 0 255 0
0.043855 0.012758 0.249140 0 127 127
-0.202614 -0.071796 0.249140 0 127 127
0.131911 -0.507874 -0.219724 127 0 127
0.153386 0.403676 -0.214470 127 0 127
-0.253068 0.409821 -0.157780 0 255 0
0.091560 -0.902772 0.264900 153 0 76
-0.117222 -0.120897 -0.025804 204 51 127
-0.092321 -0.116853 0.264900 0 127 127
0.111528 0.850714 0.249140 0 127 127
0.042440 0.954571 0.195012 76 153 0
0.235496 -0.886456 0.183131 127 127 0
-0.137795 -0.896557 0.249140 153 0 76
-0.073900 0.741649 0.249140 0 127 127
0.124680 0.933557 0.057609 76 153 0
-0.116648 -0.713159 0.249140 153 0 76
-0.060434 -0.465815 0.137061 153 0 76
-0.020807 -0.478686 0.247827 153 0 76
0.112060 -0.120897 -0.106074 204 51 127
0.084064 -0.550455 0.264900 153 0 76
-0.044859 0.230588 -0.026278 0 0 255
0.089251 -0.465815 -0.087688 153 0 76
-0.253068 -0.811294 -0.155341 0 255 0
0.235496 0.951772 0.149621 127 127 0
0.235496 0.402919 0.092259 127 127 0
-0.232793 0.156623 0.249140 0 127 127
-0.161329 -0.099884 0.096845 204 51 127
0.235496 -0.500477 0.230928 127 127 0
-0.237308 -0.915000 -0.058626 0 255 0
-0.237308 0.743442 0.239343 0 255 0
-0.237308 0.087517 0.009423 0 255 0
0.247382 0.954571 -0.189276 127 127 0
-0.136067 -0.725410 0.264900 153 0 76
0.248168 -0.951534 -0.122528 127 127 0
0.241830 -0.242870 0.247827 127 127 0
0.093237 -0.194896 0.249140 0 127 127
-0.237308 0.722657 -0.006951 0 255 0
0.251256 -0.750873 -0.128002 127 127 0
0.251256 -0.411593 -0.027922 127 127 0
-0.029994 -0.226441 -0.214470 127 0 127
0.045995 -0.722465 0.077349 76 0 153
-0.208358 0.933557 -0.104850 76 153 0
0.061079 0.048058 -0.235484 76 0 153
-0.253068 0.175913 -0.041600 0 255 0
-0.253068 0.872057 -0.186787 0 255 0
-0.253068 -0.058231 0.197122 0 255 0
-0.171067 -0.265663 -0.219724 127 0 127
0.075495 0.582072 -0.071906 255 0 0
-0.017119 -0.930522 -0.094435 0 127 127
0.235496 0.559572 -0.074757 127 127 0
-0.253068 -0.885423 -0.105861 0 255 0
-0.237308 0.282849 0.244226 0 255 0
-0.253068 0.343873 -0.199170 0 255 0
-0.214614 -0.465815 0.181295 153 0 76
0.173354 -0.287552 0.249140 0 127 127
0.251256 0.541629 -0.163853 127 127 0
0.154423 -0.099884 -0.162505 204 51 127
-0.237308 -0.556836 0.120447 0 255 0
0.044030 -0.486829 -0.182827 153 0 76
0.203989 0.715847 -0.214470 127 0 127
0.249943 0.095662 0.255960 0 127 127
0.145570 0.954571 0.156965 76 153 0
-0.253068 -0.064869 0.019032 0 255 0
0.235496 -0.845184 -0.062498 127 127 0
0.088203 -0.120897 -0.206205 204 51 127
-0.234144 -0.003885 -0.235484 76 0 153
0.235496 -0.438000 0.102398 127 127 0
-0.253068 0.675542 -0.075467 0 255 0
0.251256 0.097931 -0.010744 127 127 0
-0.229924 -0.120897 -0.070521 204 51 127
-0.237308 -0.035582 -0.075338 0 255 0
0.025472 0.309334 0.249140 0 127 127
0.235496 -0.720290 0.109806 76 0 153
0.069593 0.353841 0.249140 0 127 127
0.241079 0.656018 0.264900 0 127 127
0.240918 -0.530419 0.249140 153 0 76
-0.014834 0.243882 -0.219724 127 0 127
0.251256 -0.769802 -0.118750 127 127 0
0.235496 0.146889 -0.081930 127 127 0
0.235496 0.845545 -0.164261 127 127 0
0.096771 0.945024 -0.235484 76 153 0
-0.253068 0.733512 -0.129177 0 255 0
-0.200129 -0.428428 0.264900 0 127 127
0.220504 -0.099884 -0.181305 204 51 127
-0.155822 -0.930522 -0.191656 0 127 127
-0.050950 0.621458 -0.219724 127 0 127
-0.253068 -0.648108 -0.107996 0 255 0
-0.202114 0.217798 -0.219724 127 0 127
-0.237308 0.855314 0.210908 0 255 0
0.251256 -0.405715 0.077554 127 127 0
-0.237308 0.611001 -0.200512 0 255 0
0.235496 -0.412511 0.142409 127 127 0
0.064558 -0.436014 0.264900 0 127 127
0.212752 -0.361009 0.249140 0 127 127
0.026525 -0.951535 0.180068 0 127 127
0.184420 0.656525 -0.214470 127 0 127
-0.037076 -0.636248 0.249140 153 0 76
-0.159875 -0.704532 -0.219724 127 0 127
0.213358 0.025757 -0.219724 127 0 127
-0.253068 -0.022649 0.084932 0 255 0
0.235496 -0.146088 0.229844 127 127 0
-0.237308 0.747335 0.040947 0 255 0
-0.227767 -0.619768 -0.214470 127 0 127
0.172440 0.230588 0.200290 0 0 255
0.114116 -0.722465 -0.009580 76 0 153
0.101713 -0.465815 0.079239 153 0 76
0.251256 -0.038202 -0.208808 127 127 0
0.105755 -0.795999 0.264900 153 0 76
0.251256 0.761452 -0.090245 127 127 0
-0.253068 -0.095775 -0.013790 0 255 0
-0.223110 -0.233894 0.249140 0 127 127
0.251256 0.437587 0.024108 127 127 0
-0.080964 0.826554 -0.219724 127 0 127
0.044853 0.443208 0.264900 0 127 127
-0.004344 -0.486829 0.025521 153 0 76
0.190516 -0.486829 0.066661 153 0 76
-0.251755 -0.741521 0.260560 153 0 76
-0.253068 0.501247 0.025361 0 255 0
0.019257 0.802572 0.249140 0 127 127
-0.220593 -0.120897 -0.166009 204 51 127
0.024148 0.651201 0.249140 0 127 127
-0.066346 0.251601 -0.153562 0 0 255
0.206927 0.582072 0.064672 255 0 0
0.133762 0.775241 0.249140 0 127 127
0.139142 0.230588 0.004313 0 0 255
-0.253068 0.178959 0.108847 0 255 0
-0.253068 0.838217 0.206942 0 255 0
-0.237308 0.138847 0.071074 0 255 0
0.027058 0.828490 -0.230049 153 0 76
-0.160938 0.824902 -0.214470 127 0 127
0.224640 0.128192 -0.219724 127 0 127
-0.253068 0.373776 -0.049417 0 255 0
-0.237308 0.046116 0.184536 0 255 0
0.251256 -0.826854 -0.160151 127 127 0
-0.115737 -0.348264 -0.219724 127 0 127
0.251256 0.878453 -0.075268 127 127 0
-0.237308 0.951609 -0.146846 0 255 0
-0.253068 -0.317040 0.245351 0 255 0
-0.013625 0.582072 0.083175 255 0 0
0.087146 0.954571 -0.007465 76 153 0
-0.237308 0.573371 0.202091 0 255 0
0.251256 -0.573408 -0.194978 127 127 0
0.230347 0.845118 -0.235484 153 0 76
0.251256 0.638289 -0.211144 127 127 0
0.083556 0.230588 0.100125 0 0 255
0.041048 -0.893650 0.264900 153 0 76
-0.237308 -0.265627 0.158777 0 255 0
0.026764 -0.120897 0.125253 204 51 127
0.235496 0.639166 0.006003 127 127 0
0.006666 -0.258587 -0.214470 127 0 127
-0.039100 -0.120706 -0.219724 127 0 127
0.251256 0.718779 -0.108407 127 127 0
0.196457 -0.701452 0.145154 76 0 153
0.239410 -0.430978 0.247827 127 127 0
0.251256 -0.254490 -0.104609 127 127 0
-0.066429 -0.703035 -0.219724 127 0 127
-0.096513 0.230588 -0.020482 0 0 255
-0.165137 0.166969 0.264900 0 127 127
-0.253068 -0.760177 0.064624 0 255 0
-0.253068 0.539119 -0.073892 0 255 0
0.237314 0.442535 0.247827 127 127 0
-0.129247 0.090240 0.264900 0 127 127
-0.253068 0.199981 0.202163 0 255 0
0.156930 -0.120897 -0.179776 204 51 127
-0.237308 -0.450916 -0.189252 0 255 0
0.083049 0.779262 0.249140 0 127 127
-0.221735 -0.951535 0.182740 0 127 127
-0.214810 0.609058 0.264900 0 127 127
-0.253068 0.609115 0.002555 0 255 0
-0.082337 -0.740398 0.249140 153 0 76
0.235496 -0.710941 -0.096239 127 127 0
0.011219 0.933557 -0.221235 76 153 0
-0.095306 -0.378464 -0.214470 127 0 127
0.056861 -0.099884 -0.061599 204 51 127
0.251256 0.115221 -0.215925 127 127 0
-0.212813 -0.465815 -0.149577 153 0 76
0.235496 0.668830 0.064623 127 127 0
0.082592 0.855496 0.249140 0 127 127
-0.253068 -0.598131 0.171158 0 255 0
0.018925 -0.948463 0.264900 153 0 76
0.004759 0.904991 0.264900 0 127 127
0.152322 0.282154 0.264900 0 127 127
0.137631 0.709193 -0.219724 127 0 127
0.235496 -0.611658 0.042087 127 127 0
0.058632 -0.722465 -0.088476 76 0 153
-0.153112 -0.951535 0.113524 0 127 127
-0.237308 0.152560 -0.068824 0 255 0
0.040879 0.910633 0.249140 0 127 127
0.235496 0.400381 -0.001618 127 127 0
-0.249014 0.157717 0.264900 0 127 127
0.141280 0.016036 0.249140 0 127 127
0.218191 -0.701452 0.173858 76 0 153
-0.253068 0.170768 0.227416 0 255 0
-0.123897 -0.588507 0.249140 153 0 76
0.174394 0.954571 -0.107507 76 153 0
-0.074070 -0.815610 0.264900 153 0 76
0.235496 -0.079739 0.132142 127 127 0
0.111671 -0.099884 0.151594 204 51 127
-0.091650 0.582072 0.085407 255 0 0
0.235496 -0.720271 0.130286 127 127 0
-0.080630 0.417185 0.264900 0 127 127
0.082318 0.033568 -0.219724 127 0 127
0.169339 -0.071448 0.264900 0 127 127
0.117361 -0.426693 0.264900 0 127 127
0.002293 0.954571 -0.094729 76 153 0
-0.237308 0.711931 -0.029433 0 255 0
-0.058395 -0.358614 0.264900 0 127 127
0.096345 0.418440 0.249140 0 127 127
-0.072718 0.887267 -0.235484 153 0 76
-0.168459 -0.010686 -0.235484 76 0 153
0.251256 -0.653926 0.118419 127 127 0
-0.253068 0.208572 0.012921 0 255 0
-0.123559 -0.701531 -0.214470 127 0 127
0.235496 -0.343993 0.125680 127 127 0
0.251256 0.323847 0.026741 127 127 0
0.251256 0.133325 0.083148 127 127 0
-0.237308 -0.425317 0.064988 0 255 0
0.123061 -0.695936 -0.219724 127 0 127
0.026439 -0.825454 -0.229268 153 76 0
0.251256 -0.030055 -0.143845 127 127 0
-0.079531 -0.120897 -0.111266 204 51 127
-0.253068 -0.146966 -0.194107 0 255 0
0.251256 0.014509 0.121166 127 127 0
-0.237308 -0.866807 -0.199031 0 255 0
0.235496 -0.410809 0.035175 127 127 0
0.244211 0.473297 0.249140 0 127 127
0.063346 -0.548653 -0.214470 127 0 127
-0.017703 -0.120897 0.138614 204 51 127
-0.237308 -0.673328 -0.018520 0 255 0
-0.213599 -0.465815 -0.078744 153 0 76
0.251256 0.105380 0.110639 127 127 0
0.035362 0.379257 0.264900 0 127 127
-0.081489 0.603086 -0.175523 255 0 0
-0.115221 -0.701452 0.014358 76 0 153
-0.079957 -0.472382 0.260851 0 127 127
-0.142321 0.463598 0.249140 0 127 127
0.204536 0.230588 -0.203845 0 0 255
-0.223697 0.424906 0.264900 0 127 127
-0.237308 0.548339 -0.131049 0 255 0
-0.082459 -0.722465 0.101864 76 0 153
0.121365 -0.099884 0.080445 204 51 127
0.231975 0.637241 0.264900 0 127 127
0.026341 0.777636 0.264900 0 127 127
-0.237308 -0.106755 0.123471 204 51 127
0.233039 0.604762 -0.219724 127 0 127
-0.181416 0.751441 0.264900 0 127 127
-0.159353 0.031115 0.249140 0 127 127
0.250356 0.347590 -0.235484 127 127 0
0.104512 -0.602337 0.249140 153 0 76
0.191115 0.954571 0.047682 76 153 0
-0.228284 -0.722465 0.099732 76 0 153
-0.237308 0.692248 -0.054243 0 255 0
0.235496 0.691847 -0.102467 127 127 0
-0.047043 0.177192 0.264900 0 127 127
0.251256 0.603902 -0.150554 127 127 0
-0.172120 0.933557 -0.216500 76 153 0
0.151020 -0.585655 0.249140 153 0 76
-0.253068 -0.688557 0.007808 0 255 0
-0.163028 0.312800 0.249140 0 127 127
0.239043 -0.331160 0.264900 0 127 127
0.015562 0.735986 -0.219724 127 0 127
-0.253068 -0.109222 0.078765 0 255 0
0.216395 -0.099884 0.010417 204 51 127
0.251256 0.528369 0.059255 127 127 0
-0.159710 -0.411054 0.264900 0 127 127
0.016235 0.251601 0.144904 0 0 255
-0.159701 -0.722465 0.055674 76 0 153
-0.135388 -0.099884 0.136945 204 51 127
-0.108208 0.582072 0.200667 255 0 0
-0.039673 -0.951535 -0.078453 0 127 127
0.235496 0.535787 -0.176839 127 127 0
0.235496 -0.075786 -0.033861 127 127 0
-0.237308 -0.950166 -0.154074 0 127 127
-0.027133 -0.423114 0.264900 0 127 127
-0.237308 0.300711 0.132710 0 255 0
0.055036 -0.951535 -0.133562 0 127 127
0.197660 0.650132 0.249140 0 127 127
-0.144472 0.542018 -0.219724 127 0 127
0.147375 0.127650 -0.219724 127 0 127
-0.237308 -0.501851 0.141142 0 255 0
0.234651 -0.938760 -0.235484 0 127 127
0.044774 0.016690 -0.219724 127 0 127
0.053156 -0.099884 0.121827 204 51 127
0.101758 -0.722465 0.152755 76 0 153
-0.235747 0.200476 -0.219724 127 0 127
-0.253068 -0.094746 0.042497 0 255 0
0.251256 0.366441 -0.051511 127 127 0
-0.253068 0.376198 0.087344 0 255 0
0.029313 -0.563840 0.264900 153 0 76
-0.178736 0.084455 -0.219724 127 0 127
0.055299 -0.758580 0.264900 153 0 76
0.009687 -0.930522 0.143438 0 127 127
-0.253068 -0.128155 -0.105454 0 255 0
0.150053 -0.270695 0.264900 0 127 127
0.107280 -0.099884 -0.205326 204 51 127
-0.094324 -0.441866 0.249140 0 127 127
0.235496 0.739429 -0.073238 127 127 0
0.251256 0.758663 0.196986 127 127 0
-0.253068 0.083351 0.038403 0 255 0
0.069135 0.806770 -0.214470 127 0 127
0.235496 0.876695 -0.101767 127 127 0
-0.237308 0.920213 -0.209707 0 255 0
-0.237308 -0.374560 0.090658 0 255 0
-0.054628 -0.951535 0.207003 0 127 127
-0.253068 0.263595 0.193211 0 255 0
-0.253068 -0.315345 0.051803 0 255 0
0.235496 -0.068287 0.058282 127 127 0
-0.175399 -0.930522 0.027527 0 127 127
-0.043827 -0.722465 -0.116258 76 0 153
0.222822 -0.465815 -0.179026 153 0 76
0.251256 0.624873 -0.023649 127 127 0
-0.237308 0.139213 0.124735 0 255 0
0.224376 -0.930522 0.185643 0 127 127
0.216716 0.954571 0.209336 76 153 0
0.251256 -0.225612 -0.041288 127 127 0
0.235496 0.771562 0.141762 127 127 0
-0.237308 0.655597 0.096548 0 255 0
0.141993 -0.701452 -0.107057 76 0 153
0.076555 -0.577823 0.264900 153 0 76
0.251256 0.495277 0.231511 127 127 0
-0.253068 -0.624748 0.143431 0 255 0
-0.174712 0.825826 0.249140 0 127 127
-0.237308 0.907325 0.244300 0 255 0
-0.237029 -0.459388 0.264900 0 127 127
-0.002512 0.576568 0.264900 0 127 127
0.235496 0.675549 0.187872 127 127 0
-0.140024 -0.033555 0.249140 0 127 127
0.219801 -0.951535 -0.129652 0 127 127
-0.029023 0.954571 0.135566 76 153 0
-0.085663 0.954571 0.092407 76 153 0
-0.057455 0.230588 0.098022 0 0 255
0.251256 0.121031 -0.131561 127 127 0
-0.237308 -0.677636 -0.102908 0 255 0
0.220425 0.603086 -0.090115 255 0 0
-0.111091 0.703389 0.264900 0 127 127
-0.237308 0.364769 0.231007 0 255 0
-0.213515 -0.951535 -0.098123 0 127 127
-0.006847 0.230588 0.147463 0 0 255
0.251256 0.335954 -0.118127 127 127 0
0.054746 -0.099884 -0.005642 204 51 127
-0.099182 0.582072 -0.029245 255 0 0
0.235496 0.318369 0.088983 127 127 0
-0.045714 -0.563999 -0.219724 127 0 127
0.062274 0.542677 -0.214470 127 0 127
0.251256 -0.905260 -0.220886 127 127 0
-0.237308 -0.761236 0.169403 0 255 0
0.026756 0.603086 0.087478 255 0 0
-0.161438 0.954571 -0.082690 76 153 0
-0.237308 -0.040714 -0.214793 127 0 127
-0.237308 0.619002 -0.010301 0 255 0
0.014821 -0.701452 -0.011738 76 0 153
0.247426 -0.951534 0.140740 127 127 0
-0.086900 0.251601 0.004973 0 0 255
0.235496 -0.198706 -0.230208 127 127 0
-0.053556 0.719012 -0.214470 127 0 127
0.074830 -0.722465 0.184460 76 0 153
0.085115 0.582072 -0.182181 255 0 0
0.014219 0.762577 0.249140 0 127 127
0.105464 0.954571 0.098589 76 153 0
-0.101370 -0.930522 -0.188518 0 127 127
-0.015948 -0.486829 -0.136140 153 0 76
-0.055908 -0.468696 -0.214470 153 0 76
0.251256 -0.309205 -0.010634 127 127 0
-0.011710 0.410520 -0.214470 127 0 127
0.223271 -0.951535 -0.027098 0 127 127
-0.085700 -0.153756 0.264900 0 127 127
0.062022 0.282615 0.249140 0 127 127
0.172991 0.954571 -0.017379 76 153 0
0.083786 0.754808 0.264900 0 127 127
-0.124775 0.935553 0.249140 0 127 127
-0.087037 0.870878 -0.214470 127 0 127
0.251256 -0.456758 -0.086952 127 127 0
0.235496 -0.526457 0.097475 127 127 0
-0.219726 -0.099884 -0.011574 204 51 127
0.235496 0.692730 -0.216969 127 0 127
-0.190938 -0.701452 -0.207242 76 0 153
0.235496 -0.145215 -0.117707 127 127 0
0.235496 -0.299048 0.178989 127 127 0
-0.136446 -0.000768 0.249140 0 127 127
0.235496 0.227654 0.189024 127 127 0
-0.253068 0.904857 -0.174936 0 255 0
-0.141857 0.480651 0.264900 0 127 127
-0.062581 0.954571 0.178396 76 153 0
0.193407 0.933557 0.019083 76 153 0
0.032874 -0.465815 0.238172 153 0 76
0.013349 0.632323 0.249140 0 127 127
-0.237308 -0.030643 0.146306 0 255 0
-0.246111 -0.586352 -0.235484 0 255 0
-0.253068 -0.796053 0.219227 0 255 0
0.139656 -0.676275 0.249140 153 0 76
0.020161 -0.792944 -0.214470 127 0 127
0.235496 -0.007451 -0.176073 127 127 0
0.136555 -0.099884 -0.065015 204 51 127
-0.063743 0.784719 0.249140 0 127 127
0.235496 -0.692447 -0.003143 127 127 0
-0.035904 0.933557 0.222538 76 153 0
0.235496 0.879422 -0.165036 127 127 0
0.235496 0.372989 0.053039 127 127 0
-0.253068 -0.857809 0.227191 0 255 0
0.044705 0.933557 0.004625 76 153 0
0.162124 0.480411 -0.214470 127 0 127
-0.024075 -0.377148 -0.214470 127 0 127
-0.062758 0.381302 0.249140 0 127 127
-0.132295 -0.109831 0.249140 0 127 127
-0.219827 -0.068269 0.264900 0 127 127
0.237816 -0.404438 -0.235484 127 127 0
0.160514 0.230588 -0.029405 0 0 255
-0.237308 0.385684 -0.002811 0 255 0
-0.048596 -0.832333 -0.235484 153 76 0
0.239366 -0.137493 -0.235484 127 127 0
0.235496 -0.873410 -0.164323 127 127 0
0.090276 -0.930522 0.246675 0 127 127
-0.237308 0.350283 0.169211 0 255 0
0.060209 0.688778 -0.214470 127 0 127
-0.239438 -0.711298 0.249140 153 0 76
0.160776 -0.099884 0.148141 204 51 127
-0.056068 0.582072 0.178412 255 0 0
0.251256 0.462074 0.192668 127 127 0
0.235496 -0.437331 -0.023026 127 127 0
0.251256 -0.063832 0.092206 127 127 0
-0.210906 -0.123429 0.294251 76 153 0
0.251256 -0.746732 -0.036555 127 127 0
0.235496 -0.801949 -0.143043 127 127 0
0.012899 0.848230 0.264900 0 127 127
-0.210334 0.009695 0.264900 0 127 127
-0.229797 0.435567 0.249140 0 127 127
0.251256 0.617217 0.037130 127 127 0
0.251256 -0.640545 0.084805 127 127 0
0.251256 0.695868 -0.165740 127 127 0
0.235496 -0.102156 -0.218635 127 127 0
-0.097780 0.954571 -0.051039 76 153 0
0.060238 0.582072 0.080205 255 0 0
0.144583 -0.498342 0.264900 153 0 76
-0.134064 -0.356332 -0.219724 127 0 127
-0.176776 -0.760285 0.249140 153 0 76
0.075868 -0.205807 0.249140 0 127 127
-0.052824 -0.856775 0.264900 153 0 76
-0.107364 0.251601 -0.128400 0 0 255
0.235496 0.612306 0.091597 127 127 0
-0.237308 0.156152 -0.018637 0 255 0
0.003988 0.251601 0.234161 0 0 255
0.139999 0.132629 0.249140 0 127 127
-0.237308 -0.116935 -0.152230 0 255 0
0.072810 0.317829 -0.219724 127 0 127
-0.253068 0.939431 -0.025715 0 255 0
0.070166 0.612650 0.264900 0 127 127
-0.253068 -0.146217 0.077685 0 255 0
0.235496 -0.220437 -0.051361 127 127 0
0.235496 -0.714259 0.061214 76 0 153
0.189012 0.887376 0.249140 0 127 127
0.235496 -0.481738 0.095557 127 127 0
0.103397 -0.099884 0.054895 204 51 127
-0.253068 0.616457 -0.215527 0 255 0
-0.253068 -0.785148 -0.002186 0 255 0
0.251256 0.726272 0.119773 127 127 0
-0.237308 0.898015 0.023841 0 255 0
0.235496 0.771492 0.105580 127 127 0
0.176517 -0.120897 -0.026428 204 51 127
0.017815 0.230588 0.050242 0 0 255
0.181308 0.205078 0.249140 0 127 127
-0.237308 -0.829834 0.123843 0 255 0
-0.237308 -0.624313 -0.024459 0 255 0
-0.030809 -0.701452 -0.198289 76 0 153
0.211638 0.544440 -0.214470 127 0 127
-0.237308 0.431407 -0.042555 0 255 0
-0.055058 -0.465815 -0.108645 153 0 76
0.216807 0.603086 0.122074 255 0 0
-0.020436 -0.791975 0.264900 153 0 76
0.251256 -0.783597 -0.103999 127 127 0
0.235496 -0.021130 0.046364 127 127 0
0.120158 -0.102547 0.242573 204 51 127
-0.253068 -0.237954 -0.085794 0 255 0
-0.239637 -0.019090 0.247827 0 255 0
0.235496 0.870216 0.004121 127 127 0
0.000639 -0.722465 -0.017463 76 0 153
0.110490 -0.676434 0.249140 153 0 76
-0.253068 0.881613 0.123608 0 255 0
-0.253068 0.654696 0.170284 0 255 0
0.152635 -0.120897 0.137461 204 51 127
0.235496 0.820310 -0.155305 127 127 0
0.117145 -0.120897 0.129786 204 51 127
-0.237308 -0.555422 0.085172 0 255 0
0.216189 0.954571 -0.018264 76 153 0
0.028234 -0.120897 0.050932 204 51 127
-0.253068 0.862552 0.057787 0 255 0
0.251256 -0.167282 0.016776 127 127 0
0.103299 -0.099884 -0.013653 204 51 127
0.251256 -0.197724 -0.200988 127 127 0
-0.209242 0.603086 -0.174760 255 0 0
0.251256 0.832582 0.058870 127 127 0
-0.053271 0.368728 -0.214470 127 0 127
0.006463 0.617792 0.264900 0 127 127
0.090525 0.619974 0.249140 0 127 127
0.235496 0.376353 -0.010837 127 127 0
-0.101946 -0.927634 0.264900 153 0 76
-0.237308 0.388411 0.203033 0 255 0
0.231481 -0.701452 -0.040745 76 0 153
0.217179 -0.503156 0.264900 153 0 76
0.251256 0.239146 0.045983 127 127 0
-0.237308 0.305587 -0.147751 0 255 0
0.212921 -0.174342 0.249140 0 127 127
0.251256 -0.626571 0.023900 127 127 0
0.132450 -0.639622 0.249140 153 0 76
-0.237308 -0.577206 -0.059557 0 255 0
-0.253068 0.097273 -0.100740 0 255 0
0.024995 0.954571 -0.204682 76 153 0
0.035470 -0.236593 0.264900 0 127 127
-0.159014 -0.486829 0.245952 153 0 76
0.155861 0.799112 0.249140 0 127 127
-0.185154 -0.151686 0.249140 0 127 127
-0.253068 -0.244339 0.171912 0 255 0
-0.004794 -0.930522 0.218914 0 127 127
-0.237308 0.313932 -0.206745 0 255 0
0.145925 -0.701452 0.231629 76 0 153
0.066949 -0.722465 -0.180829 76 0 153
0.251256 0.601181 0.138121 127 127 0
0.251256 0.423622 -0.161139 127 127 0
-0.164281 -0.486829 0.003586 153 0 76
0.251256 -0.779577 -0.054845 127 127 0
0.122028 0.403066 0.264900 0 127 127
-0.076843 0.241703 -0.219724 127 0 127
-0.090716 -0.018326 -0.214470 127 0 127
-0.042947 0.933557 -0.146519 76 153 0
0.094462 -0.424691 0.249140 0 127 127
-0.080006 -0.169258 0.249140 0 127 127
0.043913 -0.093298 -0.219724 127 0 127
0.141585 0.828490 -0.232796 153 0 76
-0.237308 0.693027 0.041580 0 255 0
0.135164 0.167888 0.249140 0 127 127
0.000476 0.603086 -0.199769 255 0 0
0.084515 0.459430 0.264900 0 127 127
-0.202992 0.251601 -0.081519 0 0 255
-0.237308 -0.867874 -0.179489 0 255 0
-0.248747 -0.951534 0.082562 0 255 0
0.235496 -0.117627 0.019253 127 127 0
0.235496 -0.514267 -0.140003 127 127 0
0.035982 0.951172 0.249140 0 127 127
0.251256 0.511014 -0.218270 127 127 0
-0.223281 -0.099884 0.210553 204 51 127
-0.044101 -0.203762 -0.214470 127 0 127
-0.104877 0.926180 -0.235484 153 0 76
0.138618 -0.951535 0.113919 0 127 127
-0.097444 -0.120897 -0.174604 204 51 127
-0.253068 -0.330522 0.094760 0 255 0
-0.253068 0.405658 0.223801 0 255 0
0.251256 -0.314381 0.185296 127 127 0
