ply
format ascii 1.0
element vertex 1268
property float x
property float y
property float z
property uchar red
property uchar green
property uchar blue
end_header
-0.831532 -0.042919 -0.211177 76 0 153
0.204854 0.279647 0.184467 127 0 127
0.216798 -0.224750 0.104979 153 0 76
0.387909 0.240601 -0.072447 127 0 127
0.290448 -0.270471 0.211144 204 51 127
0.363219 -0.531259 0.214101 76 0 153
0.167992 -0.221920 -0.042394 153 0 76
0.199473 -0.564715 0.060325 153 0 76
-0.782195 -0.006138 0.199946 153 0 76
-0.058625 0.279647 0.214945 127 0 127
0.167992 -0.222738 0.068514 153 0 76
-0.196645 0.279647 -0.214437 127 0 127
0.213968 -0.564715 0.097348 153 0 76
-0.780182 -0.295133 0.178395 153 0 76
0.268554 0.279647 0.182944 127 0 127
0.345924 -0.545193 -0.112326 153 76 0
-0.004216 0.279647 -0.016081 127 0 127
-0.852351 0.240601 0.254203 127 0 127
0.167992 -0.125256 -0.211577 153 0 76
-0.814872 0.044318 0.158341 153 0 76
0.412025 -0.223185 -0.148927 76 0 153
0.297142 -0.461748 0.211144 204 51 127
0.412025 0.206105 0.187399 76 0 153
0.216798 -0.250580 -0.181981 153 0 76
0.167992 -0.357124 -0.076253 153 0 76
0.216798 0.060677 0.059536 153 0 76
0.363219 -0.206778 0.224662 76 0 153
0.092392 0.279647 -0.138719 127 0 127
0.167992 0.041050 -0.012369 153 0 76
0.345180 0.279647 0.273417 127 0 127
0.393822 -0.430490 0.230666 76 0 153
0.363219 0.067791 -0.068869 76 0 153
-0.583574 0.279647 0.054956 127 0 127
0.115183 0.279647 -0.200385 127 0 127
-0.756313 0.240601 0.032722 127 0 127
0.167992 -0.174692 0.035214 153 0 76
0.363219 -0.142979 0.057069 76 0 153
0.189685 0.240601 0.138169 153 0 76
0.272011 -0.067441 -0.218359 255 0 0
-0.650432 0.261603 0.313638 127 0 127
-0.194553 0.240601 -0.048315 127 0 127
0.086726 0.240601 -0.096524 127 0 127
-0.554955 0.279647 -0.204713 127 0 127
-0.020096 0.240601 -0.277013 127 0 127
0.189213 0.240601 0.100803 127 0 127
0.167992 -0.245263 0.004422 153 0 76
0.307751 0.224722 -0.218359 255 0 0
-0.779125 -0.159448 -0.191997 76 0 153
0.167992 -0.302886 -0.012705 153 0 76
0.216798 -0.173619 0.220089 204 51 127
-0.028407 0.279647 0.030121 127 0 127
-0.467145 0.240601 0.198223 127 0 127
-0.659107 0.240601 -0.108229 127 0 127
0.372008 0.279647 -0.082548 127 0 127
0.412025 0.217255 -0.221133 76 0 153
0.412025 0.185922 0.043940 76 0 153
-0.021079 0.279647 -0.064137 127 0 127
-0.916834 0.279647 -0.049421 127 0 127
0.363219 -0.362209 -0.160624 76 0 153
0.216798 -0.444396 0.181079 153 0 76
-0.820647 -0.046038 0.160490 153 0 76
0.282146 0.279647 -0.061357 127 0 127
-0.335312 0.240601 -0.137574 127 0 127
0.391198 0.279647 -0.093067 127 0 127
0.291760 0.259975 -0.320853 127 0 127
0.363219 -0.526358 0.087597 76 0 153
0.249654 0.240601 0.263384 127 0 127
0.330092 -0.564715 0.193934 153 76 0
0.412025 -0.270108 -0.236362 76 0 153
0.412025 -0.562185 0.033345 76 0 153
0.412025 -0.143788 0.015896 76 0 153
-0.045061 0.279647 0.073887 127 0 127
0.228170 0.091525 0.230666 204 51 127
0.344583 0.279647 -0.101362 127 0 127
-0.830116 0.071700 0.205807 153 0 76
-0.818642 -0.347657 -0.166875 76 0 153
0.216798 0.074974 0.008215 153 0 76
-0.885836 0.279647 0.230713 127 0 127
-0.467780 0.240601 0.147865 127 0 127
0.167992 -0.304466 -0.102023 153 0 76
-0.109305 0.240601 0.179567 127 0 127
0.363219 0.199367 -0.001275 76 0 153
0.105620 0.279647 -0.057466 127 0 127
0.251810 -0.546984 0.211144 153 76 0
-0.826525 -0.181294 0.164242 153 0 76
-0.780292 -0.564715 0.187081 153 0 76
0.412025 0.108916 0.046579 76 0 153
-0.733828 0.240601 0.085311 127 0 127
-0.124066 0.279647 0.247905 127 0 127
0.363219 -0.552679 -0.220936 255 0 0
0.412025 -0.144114 0.180620 76 0 153
0.262671 0.279647 -0.320495 127 0 127
-0.918047 0.240601 -0.074190 127 0 127
0.412025 -0.218779 0.126928 76 0 153
0.216798 -0.501023 -0.224103 153 0 76
0.303673 -0.267666 0.230666 204 51 127
-0.483867 0.240601 0.040243 127 0 127
-0.705065 0.279647 0.228336 127 0 127
-0.786014 -0.432016 0.205584 153 0 76
0.167992 -0.010866 -0.043652 153 0 76
0.216798 -0.193761 -0.102948 153 0 76
0.167992 -0.165415 0.076470 153 0 76
0.060420 0.240601 -0.167300 127 0 127
-0.779288 0.034589 -0.190757 76 0 153
0.216798 -0.198336 0.171439 153 0 76
0.184253 0.277601 -0.320853 127 0 127
0.285334 -0.564715 -0.204931 153 76 0
0.216798 -0.214494 0.078777 153 0 76
0.363219 -0.052295 -0.092156 76 0 153
-0.837304 -0.380728 -0.194954 76 0 153
-0.907108 0.279647 -0.289625 127 0 127
0.412025 -0.505771 0.123154 76 0 153
-0.240270 0.240601 -0.001875 127 0 127
0.216798 -0.018911 -0.183858 153 0 76
0.216798 -0.242519 0.086244 153 0 76
0.412025 -0.082771 -0.029255 76 0 153
0.238275 0.240601 0.171296 127 0 127
0.216798 -0.496564 0.021944 153 0 76
0.167992 -0.218809 0.105768 153 0 76
0.322931 -0.545193 -0.030049 153 76 0
-0.130963 0.279647 -0.231837 127 0 127
0.379477 -0.167257 -0.237881 76 0 153
0.296039 -0.546025 -0.237881 255 0 0
0.363219 -0.369883 -0.222006 76 0 153
0.313963 -0.446225 0.211144 204 51 127
0.127812 0.240601 -0.172608 127 0 127
0.190845 -0.564715 -0.110869 153 0 76
-0.306203 0.240601 -0.255502 127 0 127
0.379843 -0.501959 0.230666 76 0 153
0.410719 -0.382848 -0.237881 76 0 153
0.356169 -0.473462 -0.218359 255 0 0
0.351373 -0.429508 0.230666 204 51 127
0.412025 -0.065304 -0.208625 76 0 153
0.167992 -0.076212 -0.170556 153 0 76
0.412025 0.039304 0.047427 76 0 153
-0.101866 0.279647 -0.149384 127 0 127
-0.667416 0.279647 0.311373 127 0 127
0.331790 -0.174259 -0.101523 76 153 0
0.216798 -0.390196 -0.140238 153 0 76
0.412025 0.218784 -0.091207 76 0 153
0.047339 0.255633 -0.320853 127 0 127
0.207833 -0.454491 -0.237881 153 0 76
0.304629 0.240601 -0.054009 127 0 127
-0.197381 0.248204 0.313638 127 0 127
-0.026668 0.258041 0.313638 127 0 127
0.363219 0.206989 -0.109063 76 0 153
0.395274 -0.307708 0.230666 76 0 153
0.216798 0.164297 0.102718 153 0 76
-0.793682 0.240601 0.302127 127 0 127
-0.505551 0.279647 0.032075 127 0 127
0.396401 -0.440026 -0.237881 76 0 153
0.185293 -0.564715 -0.075874 153 0 76
-0.724817 0.279647 -0.226890 127 0 127
0.167992 -0.381133 -0.133354 153 0 76
0.265454 0.136296 0.230666 204 51 127
0.357512 -0.343641 -0.237881 255 0 0
-0.441786 0.279647 -0.091054 127 0 127
0.115472 0.240601 0.181086 127 0 127
0.216798 -0.015780 0.152469 153 0 76
-0.555621 0.279647 -0.295463 127 0 127
0.412025 -0.245067 0.199152 76 0 153
0.320741 -0.371743 0.230666 204 51 127
0.363219 -0.099504 -0.198861 76 0 153
0.050688 0.240601 0.018905 127 0 127
0.363219 -0.108268 -0.014073 76 0 153
0.412025 -0.554569 -0.070946 76 0 153
-0.812979 -0.564715 -0.188330 76 0 153
0.237218 -0.235791 0.211144 204 51 127
-0.356648 0.279647 -0.075135 127 0 127
-0.513161 0.240601 0.257465 127 0 127
-0.255367 0.279647 -0.224303 127 0 127
-0.369641 0.279647 0.216206 127 0 127
-0.665996 0.240601 0.127552 127 0 127
-0.305981 0.240601 -0.015703 127 0 127
0.363219 -0.228087 0.062551 76 0 153
0.306711 -0.564715 -0.136516 153 76 0
0.167992 -0.159753 -0.004074 153 0 76
-0.750377 0.279647 0.013565 127 0 127
-0.549397 0.279647 0.045533 127 0 127
-0.718440 0.265036 0.313638 127 0 127
0.074897 0.279647 0.257644 127 0 127
0.089833 0.240601 0.142647 127 0 127
0.310911 -0.545193 0.061796 153 76 0
-0.156199 0.240601 -0.200696 127 0 127
0.363219 -0.162720 0.023490 76 153 0
-0.804214 0.279647 -0.095849 127 0 127
-0.935050 0.260795 -0.224486 127 0 127
0.287703 -0.545193 -0.154190 153 76 0
0.240961 0.122667 0.211144 204 51 127
-0.553569 0.240601 0.175457 127 0 127
0.319296 -0.010134 -0.237881 255 0 0
-0.476367 0.279647 -0.033622 127 0 127
0.280520 -0.545193 0.007819 153 76 0
0.216798 0.089337 -0.168603 153 0 76
0.003382 0.255797 0.313638 127 0 127
-0.205175 0.279647 0.041451 127 0 127
0.363219 0.097562 -0.232793 76 0 153
0.216798 0.109400 0.049827 153 0 76
0.412025 0.031737 -0.117683 76 0 153
0.216798 0.083315 0.113830 153 0 76
0.167992 -0.357154 0.165474 153 0 76
0.363219 -0.369294 0.072788 76 0 153
0.244192 0.082887 -0.237881 255 0 0
-0.368988 0.279647 0.197259 127 0 127
-0.311833 0.240601 -0.052653 127 0 127
-0.585006 0.279647 0.025767 127 0 127
0.412025 -0.463864 0.032863 76 0 153
0.329370 0.269284 0.313596 127 0 127
-0.669828 0.240601 -0.202090 127 0 127
0.052410 0.240601 0.058086 127 0 127
-0.172150 0.240601 -0.277505 127 0 127
0.412025 -0.533359 -0.039013 76 0 153
-0.478298 0.240601 -0.025241 127 0 127
0.258044 -0.271506 -0.237881 255 0 0
-0.221507 0.269898 -0.320853 127 0 127
0.370187 0.279647 -0.125664 127 0 127
-0.933484 0.240601 0.053088 127 0 127
-0.617051 0.240601 0.163977 127 0 127
0.223863 -0.174259 -0.122937 76 153 0
-0.101815 0.279647 -0.080172 127 0 127
0.332179 -0.564715 0.053395 153 76 0
0.216798 0.033708 0.145420 153 0 76
0.363219 -0.186214 -0.047265 76 0 153
0.410047 -0.492092 -0.237881 76 0 153
0.311295 -0.545193 0.166525 153 76 0
0.412025 0.183599 0.217455 76 0 153
0.412025 0.021019 -0.078092 76 0 153
0.189646 -0.564715 0.100987 153 0 76
-0.091045 0.279647 0.121486 127 0 127
0.167992 -0.126295 -0.136264 153 0 76
-0.351703 0.279647 -0.011186 127 0 127
0.167992 -0.115288 -0.227650 153 0 76
0.363219 -0.438107 -0.093366 76 0 153
0.308874 -0.174259 0.019204 76 153 0
-0.109962 0.279647 -0.288940 127 0 127
-0.744378 0.240601 -0.164113 127 0 127
0.279912 -0.174259 0.186357 76 153 0
0.363219 0.108414 0.016547 76 0 153
0.412025 -0.175250 0.207051 76 0 153
0.363219 -0.222774 -0.172714 76 0 153
0.312547 0.240601 -0.230370 255 0 0
0.278641 -0.154736 -0.148502 76 153 0
0.363219 -0.293897 0.098597 76 0 153
0.363219 -0.327164 -0.109284 76 0 153
0.412025 -0.450521 0.073527 76 0 153
-0.783089 0.111071 0.171708 153 0 76
0.216798 -0.012319 0.180220 153 0 76
0.363219 0.200544 0.220128 76 0 153
-0.119954 0.279647 0.064023 127 0 127
0.246594 -0.241511 -0.237881 255 0 0
-0.016799 0.279647 0.253125 127 0 127
0.167992 0.205844 -0.160756 153 0 76
0.167992 -0.418764 0.195194 153 0 76
-0.234721 0.279647 -0.225318 127 0 127
0.167992 -0.240635 -0.094190 153 0 76
0.412025 -0.480875 0.175542 76 0 153
0.002774 0.279647 -0.218299 127 0 127
0.269701 -0.370231 0.230666 204 51 127
0.296767 -0.331406 0.211144 204 51 127
0.270832 0.279647 0.036580 127 0 127
0.200283 0.240601 0.064110 153 0 76
0.302766 -0.190281 0.211144 204 51 127
0.412025 -0.544464 0.214066 76 0 153
-0.816599 0.279647 -0.288209 127 0 127
0.412025 -0.412583 -0.005367 76 0 153
-0.784220 -0.015837 -0.177450 76 0 153
-0.362812 0.240601 -0.108525 127 0 127
0.363219 -0.248139 0.107242 76 0 153
0.248842 0.240601 0.003166 127 0 127
0.246982 0.065922 -0.218359 255 0 0
0.404634 -0.564715 0.100167 76 0 153
0.412025 0.115151 -0.162794 76 0 153
0.192222 -0.131296 -0.237881 153 0 76
0.208424 0.279647 -0.165221 127 0 127
-0.854290 0.279647 -0.028252 127 0 127
0.305575 -0.545193 -0.174263 153 76 0
0.283671 -0.016284 0.211144 204 51 127
-0.830698 -0.439027 -0.212264 76 0 153
0.223030 -0.174259 0.045616 76 153 0
-0.791951 -0.540809 0.162574 153 0 76
-0.563681 0.279647 -0.011923 127 0 127
-0.868874 0.240601 0.018649 127 0 127
0.016191 0.240601 -0.145938 127 0 127
0.280062 -0.564715 -0.114017 153 76 0
-0.471505 0.240601 -0.281150 127 0 127
0.282054 -0.541477 0.211144 204 51 127
-0.060619 0.279647 -0.010044 127 0 127
0.237743 -0.517907 -0.237881 255 0 0
0.317481 0.240601 0.076116 127 0 127
0.298767 -0.508771 0.230666 204 51 127
0.216798 -0.129681 -0.228996 255 0 0
0.167992 -0.078880 -0.103058 153 0 76
-0.833762 -0.165209 0.200778 153 0 76
0.167992 -0.404453 0.104820 153 0 76
0.302204 0.240601 0.107986 127 0 127
0.220214 -0.360352 0.230666 204 51 127
0.167992 -0.521359 0.012910 153 0 76
0.246389 -0.553723 -0.218359 153 76 0
0.412025 -0.389517 0.016215 76 0 153
-0.693275 0.279647 -0.101976 127 0 127
0.229674 -0.073172 -0.237881 255 0 0
-0.820721 -0.405738 0.160521 153 0 76
0.412025 -0.154958 0.146219 76 0 153
-0.785779 0.094331 0.205277 153 0 76
0.412025 0.278450 -0.048523 127 0 127
0.167992 -0.136622 0.098227 153 0 76
0.216798 0.208714 0.096428 153 0 76
0.412025 0.253155 -0.076003 127 0 127
-0.376574 0.279647 -0.236039 127 0 127
0.412025 -0.060760 -0.142568 76 0 153
0.167992 -0.403207 0.068649 153 0 76
0.319473 0.179061 -0.237347 0 255 0
-0.818169 0.008503 -0.166679 76 0 153
0.368883 -0.337838 0.230666 76 0 153
0.167992 -0.397444 -0.179967 153 0 76
0.325748 -0.174259 -0.139039 76 153 0
-0.569758 0.279647 -0.172682 127 0 127
0.216798 -0.032623 -0.219015 153 0 76
-0.784348 -0.175201 -0.210628 76 0 153
0.216798 -0.245881 -0.138651 153 0 76
0.216798 -0.455532 0.072348 153 0 76
0.328186 0.279647 0.059222 127 0 127
-0.811816 -0.159783 -0.222756 76 0 153
0.216798 -0.043147 -0.058797 153 0 76
-0.707331 0.279647 -0.019935 127 0 127
0.237968 -0.564715 0.080265 153 76 0
-0.556567 0.240601 0.195124 127 0 127
0.167992 -0.225566 0.002154 153 0 76
0.412025 -0.438644 -0.205418 76 0 153
0.216798 0.098307 -0.195556 153 0 76
-0.664062 0.240601 0.290015 127 0 127
0.252791 -0.564715 0.047004 153 76 0
-0.472710 0.240601 -0.242188 127 0 127
-0.788712 0.169002 -0.172275 76 0 153
-0.690755 0.279647 -0.160709 127 0 127
0.412025 -0.214146 0.198046 76 0 153
-0.600038 0.240601 -0.089824 127 0 127
-0.860828 0.240601 -0.129500 127 0 127
-0.833887 0.279647 0.288233 127 0 127
0.412025 -0.454905 -0.232529 76 0 153
-0.800805 0.240601 -0.222161 127 0 127
0.216798 -0.460374 0.021383 153 0 76
0.363219 -0.396721 -0.175460 76 0 153
0.314266 0.240601 0.156242 127 0 127
0.412025 0.007693 0.055661 76 0 153
-0.552903 0.279647 0.294478 127 0 127
0.216798 0.001914 -0.107517 153 0 76
0.363219 -0.028341 0.181582 76 0 153
0.305022 0.279647 0.182445 127 0 127
-0.703127 0.240601 -0.167484 127 0 127
0.167992 -0.104570 0.026357 153 0 76
0.287211 0.279647 0.134453 127 0 127
0.091542 0.279647 -0.100492 127 0 127
0.216798 -0.350572 0.009536 153 0 76
-0.788797 0.279647 0.229899 127 0 127
0.412025 -0.385504 0.175348 76 0 153
-0.389291 0.279647 0.135669 127 0 127
0.216798 0.203068 -0.153441 153 0 76
-0.783624 -0.055376 0.171011 153 0 76
0.363219 -0.119750 0.080269 76 0 153
0.167992 0.009561 0.173019 153 0 76
0.167992 -0.530504 0.198127 153 0 76
-0.041662 0.240601 0.270785 127 0 127
-0.830925 -0.512310 -0.211969 76 0 153
0.167992 -0.491123 -0.070835 153 0 76
0.363219 -0.109172 0.160334 76 0 153
0.412025 -0.180090 -0.048497 76 0 153
0.412025 -0.197860 -0.172835 76 0 153
0.191151 -0.228097 0.230666 153 0 76
0.216798 -0.340959 -0.043809 153 0 76
0.035287 0.240601 0.285629 127 0 127
0.363219 0.028565 0.113687 76 0 153
-0.642110 0.240601 -0.183049 127 0 127
-0.767590 0.279647 0.289674 127 0 127
0.234051 -0.432307 -0.237881 255 0 0
-0.012938 0.279647 0.067636 127 0 127
0.324203 -0.502585 -0.218359 255 0 0
0.412025 -0.253114 -0.067922 76 0 153
-0.825560 0.240601 0.138931 127 0 127
-0.548386 0.279647 0.134240 127 0 127
-0.563370 0.259632 -0.320853 127 0 127
0.318133 -0.174259 -0.019715 76 153 0
-0.539859 0.240601 -0.103707 127 0 127
0.363219 -0.164967 0.086118 76 0 153
0.145437 0.240601 0.292411 127 0 127
-0.043943 0.279647 -0.020595 127 0 127
0.267888 0.279647 0.244070 127 0 127
0.261027 0.038494 -0.237881 255 0 0
0.049325 0.240601 0.234249 127 0 127
0.363219 -0.243549 -0.073058 76 0 153
0.216798 -0.498298 -0.172681 153 0 76
0.412025 0.141567 0.147774 76 0 153
0.185136 0.279647 0.215512 127 0 127
-0.039516 0.240601 -0.272659 127 0 127
0.378617 -0.398907 -0.237881 76 0 153
0.134062 0.279647 -0.199897 127 0 127
0.358918 -0.223268 -0.218359 255 0 0
-0.138027 0.240601 0.237219 127 0 127
-0.345320 0.279647 0.229062 127 0 127
0.167992 -0.493870 -0.143930 153 0 76
0.216798 0.130209 0.140785 153 0 76
-0.930682 0.279647 -0.241505 127 0 127
-0.095308 0.279647 0.310577 127 0 127
-0.832575 0.240601 0.307545 127 0 127
-0.190367 0.240601 -0.210738 127 0 127
-0.859802 0.279647 -0.158324 127 0 127
0.086117 0.279647 0.024323 127 0 127
0.216798 -0.500568 -0.148921 153 0 76
-0.217181 0.240601 0.045498 127 0 127
0.278712 -0.174259 -0.076007 76 153 0
0.292027 -0.064709 -0.218359 255 0 0
0.257200 0.279647 0.075748 127 0 127
-0.165773 0.279647 0.115843 127 0 127
-0.724535 0.240601 -0.320221 127 0 127
0.167992 0.230417 -0.124006 153 0 76
0.381693 0.279647 0.115045 127 0 127
-0.812681 -0.192853 0.215427 153 0 76
-0.778337 0.279647 -0.161301 127 0 127
-0.800941 -0.339195 0.215075 153 0 76
0.363219 -0.531418 0.124967 76 0 153
0.197140 0.229006 0.230666 153 0 76
-0.793176 -0.376496 -0.168849 76 0 153
0.334113 -0.527298 0.211144 204 51 127
0.275803 -0.174259 0.121796 76 153 0
0.216798 0.068522 -0.142601 153 0 76
0.342856 0.240601 -0.148200 127 0 127
-0.128773 0.279647 0.108290 127 0 127
-0.171602 0.279647 -0.254519 127 0 127
0.122352 0.240601 0.024585 127 0 127
0.167992 0.045348 0.092455 153 0 76
0.342656 0.240601 -0.271785 127 0 127
0.216798 -0.415109 -0.056174 153 0 76
0.412025 -0.406265 -0.041952 76 0 153
0.363219 -0.134965 0.172630 76 0 153
0.167992 0.103428 -0.124177 153 0 76
0.167992 -0.355645 0.031367 153 0 76
0.412025 0.232163 -0.108470 76 0 153
-0.797648 -0.004539 0.159665 153 0 76
-0.042742 0.279647 -0.091343 127 0 127
-0.750867 0.279647 0.114874 127 0 127
-0.018110 0.240601 -0.202278 127 0 127
-0.158141 0.240601 -0.304543 127 0 127
0.412025 -0.531331 0.063241 76 0 153
-0.777037 0.279647 0.055615 127 0 127
0.167992 0.139554 0.148835 153 0 76
0.167992 -0.372442 -0.180864 153 0 76
0.412025 -0.323957 0.172600 76 0 153
-0.228965 0.263647 0.313638 127 0 127
0.412025 -0.495075 -0.101464 76 0 153
0.227901 0.240601 0.032661 127 0 127
-0.570977 0.279647 0.173280 127 0 127
0.412025 0.209806 -0.129926 76 0 153
0.180029 -0.418386 0.230666 153 0 76
0.363219 -0.150023 0.130281 76 0 153
-0.218498 0.240601 0.151433 127 0 127
-0.799709 0.240601 0.198142 153 0 76
-0.752635 0.240601 -0.069266 127 0 127
-0.338387 0.249012 -0.320853 127 0 127
0.412025 -0.047713 0.112818 76 0 153
0.270988 -0.154736 0.045436 76 153 0
-0.142716 0.279647 -0.153637 127 0 127
-0.816435 -0.444760 0.214734 153 0 76
0.396039 -0.564715 0.055732 76 0 153
0.254116 0.240601 -0.255080 127 0 127
-0.283986 0.240601 -0.266767 127 0 127
0.412025 -0.321008 -0.127561 76 0 153
-0.890675 0.279647 -0.230775 127 0 127
0.322103 -0.436423 -0.237881 255 0 0
0.093884 0.240601 -0.318826 127 0 127
0.348995 0.279647 -0.220963 127 0 127
-0.791099 0.279647 0.074476 127 0 127
-0.430666 0.279647 -0.111805 127 0 127
-0.865861 0.240601 -0.003453 127 0 127
0.047928 0.256225 0.313638 127 0 127
-0.715210 0.240601 0.311851 127 0 127
0.216798 -0.287076 0.145985 153 0 76
0.257084 -0.523963 0.230666 204 51 127
0.167992 -0.311778 -0.056966 153 0 76
-0.905766 0.240601 0.021146 127 0 127
-0.279345 0.240601 0.275378 127 0 127
0.363219 -0.367722 -0.117782 76 0 153
-0.734942 0.279647 0.062506 127 0 127
0.167992 0.181109 0.148268 153 0 76
0.216798 -0.133588 0.033041 153 0 76
0.323615 -0.545193 -0.088422 153 76 0
-0.672355 0.240601 0.074206 127 0 127
0.412025 0.183157 0.183114 76 0 153
-0.362947 0.279647 0.054863 127 0 127
0.323323 0.093213 0.211144 204 51 127
-0.462071 0.279647 -0.003216 127 0 127
0.173442 0.240601 0.147721 153 0 76
0.167992 -0.286346 0.136628 153 0 76
-0.749469 0.279647 0.248912 127 0 127
0.167992 -0.152589 -0.189277 153 0 76
-0.107785 0.279647 0.258483 127 0 127
0.361003 0.240601 0.238049 127 0 127
-0.928899 0.240601 0.210361 127 0 127
0.216798 0.080715 0.079717 153 0 76
0.252322 -0.545193 -0.078714 153 76 0
0.394100 -0.342878 -0.237881 76 0 153
0.363219 -0.083781 0.099759 76 0 153
0.225600 -0.154736 -0.066854 76 153 0
0.363219 -0.372134 -0.067304 76 0 153
0.216798 0.009351 0.091908 153 0 76
0.132168 0.253814 -0.320853 127 0 127
0.209805 0.279647 -0.256644 127 0 127
0.240664 -0.399421 -0.218359 255 0 0
0.412025 -0.100166 -0.131609 76 0 153
0.256258 -0.564715 -0.096806 153 76 0
0.363219 -0.163195 0.042628 76 153 0
-0.927218 0.240601 -0.197706 127 0 127
0.324501 0.240601 -0.118643 127 0 127
-0.803463 0.170562 0.215407 153 0 76
-0.785160 0.227663 0.204470 153 0 76
0.363219 0.030902 0.093401 76 0 153
0.295342 0.240601 -0.139269 127 0 127
0.191033 0.279647 0.043482 127 0 127
0.230669 -0.545193 0.133632 153 76 0
0.227663 0.240601 -0.034741 127 0 127
-0.059392 0.279647 0.049310 127 0 127
0.412025 -0.494560 -0.080469 76 0 153
0.251578 0.240601 0.134913 127 0 127
0.412025 -0.024603 -0.170455 76 0 153
-0.817194 0.240601 -0.297875 127 0 127
-0.532351 0.279647 0.235894 127 0 127
0.229403 -0.070922 0.230666 204 51 127
0.174345 0.243479 -0.320853 127 0 127
0.412025 -0.144923 0.203927 76 0 153
-0.805801 0.022840 0.215715 153 0 76
0.216798 -0.146303 0.110509 153 0 76
-0.375000 0.279647 0.010740 127 0 127
0.363219 -0.216371 -0.104729 76 0 153
0.363219 -0.202151 0.084946 76 0 153
-0.321943 0.257611 -0.320853 127 0 127
0.261873 -0.174259 0.098982 76 153 0
0.412025 -0.453532 -0.013045 76 0 153
-0.822025 -0.108145 0.212419 153 0 76
0.107142 0.240601 0.152550 127 0 127
0.412025 -0.268965 0.169078 76 0 153
-0.454517 0.240601 -0.046655 127 0 127
0.363219 -0.476937 0.135686 76 0 153
0.216798 0.187423 -0.137547 153 0 76
0.169779 -0.231253 0.230666 153 0 76
0.363219 -0.195109 -0.208220 76 0 153
0.243776 -0.154736 0.174021 76 153 0
-0.649133 0.279647 -0.303467 127 0 127
0.216798 0.015018 0.169202 153 0 76
0.363219 0.147245 -0.203181 76 0 153
0.354448 0.000645 -0.237881 255 0 0
0.363219 -0.517982 -0.163850 76 0 153
0.256669 -0.564715 0.133322 153 76 0
0.251530 0.279647 0.104287 127 0 127
0.205391 -0.564715 -0.184090 153 0 76
0.363219 0.103634 -0.008727 76 0 153
-0.042546 0.240601 -0.023246 127 0 127
0.363219 -0.563139 0.018850 153 76 0
0.363219 0.198356 -0.048423 76 0 153
0.412025 -0.167619 -0.185794 76 0 153
0.167992 -0.124047 0.029342 153 0 76
-0.504827 0.279647 0.252032 127 0 127
0.304413 -0.355604 -0.218359 255 0 0
-0.804997 -0.014610 0.215609 153 0 76
0.254888 -0.154736 0.089083 76 153 0
-0.793882 -0.264143 0.161225 153 0 76
-0.100419 0.240601 0.045887 127 0 127
0.216798 0.102065 -0.148576 153 0 76
0.216798 -0.211419 -0.228520 255 0 0
-0.733762 0.279647 0.031390 127 0 127
-0.779216 0.279647 -0.295516 127 0 127
0.216798 0.032791 0.192864 153 0 76
0.201307 0.256833 0.313638 127 0 127
0.216798 -0.474387 0.191096 153 0 76
0.216798 -0.261371 0.095756 153 0 76
0.363219 0.049330 0.151909 76 0 153
0.282258 0.279647 -0.303313 127 0 127
-0.805132 -0.368454 0.157854 153 0 76
0.412025 -0.141208 -0.119287 76 0 153
-0.885761 0.240601 0.271186 127 0 127
0.167992 -0.344663 -0.128748 153 0 76
-0.505300 0.240601 0.092831 127 0 127
0.378638 0.279647 -0.276104 127 0 127
-0.361757 0.240601 -0.252555 127 0 127
0.395205 -0.165632 0.230666 76 0 153
-0.793509 -0.333856 0.161379 153 0 76
-0.935050 0.255810 0.024082 127 0 127
-0.254823 0.240601 -0.071183 127 0 127
0.304793 -0.070240 -0.237881 255 0 0
-0.806934 0.240601 0.264335 127 0 127
0.393521 0.279647 0.201116 127 0 127
-0.928277 0.279647 0.132108 127 0 127
0.314025 0.041753 -0.218359 255 0 0
-0.787035 -0.504309 0.206914 153 0 76
0.277354 -0.198371 0.230666 204 51 127
-0.715365 0.240601 0.191524 127 0 127
-0.033870 0.240601 -0.211515 127 0 127
0.151351 0.240601 0.040448 127 0 127
0.393114 -0.103072 0.230666 76 0 153
0.228423 0.279647 -0.138907 127 0 127
0.372368 0.240601 0.281797 127 0 127
-0.595547 0.279647 0.200497 127 0 127
0.222031 0.246961 -0.320853 127 0 127
0.207718 0.074965 -0.237881 153 0 76
0.412025 -0.098202 0.159714 76 0 153
0.167992 -0.292694 -0.052581 153 0 76
-0.782497 -0.034922 0.200675 153 0 76
0.412025 -0.506161 -0.207299 76 0 153
0.333394 0.055205 -0.237881 255 0 0
-0.425315 0.279647 -0.278957 127 0 127
0.412025 -0.189766 -0.223028 76 0 153
0.167992 0.230480 -0.057829 153 0 76
-0.473176 0.279647 -0.073806 127 0 127
-0.099751 0.279647 -0.262010 127 0 127
-0.782749 -0.291516 0.201282 153 0 76
-0.359388 0.279647 -0.030949 127 0 127
0.206814 0.279647 -0.024743 127 0 127
-0.431641 0.256879 0.313638 127 0 127
-0.707998 0.279647 -0.234709 127 0 127
0.326009 -0.174259 0.087930 76 153 0
0.282881 -0.115126 0.211144 204 51 127
-0.630825 0.279647 0.135953 127 0 127
0.374532 0.240601 -0.251634 127 0 127
0.382063 0.279647 -0.207723 127 0 127
-0.403142 0.279647 -0.295715 127 0 127
-0.903295 0.240601 0.044873 127 0 127
0.322110 -0.165192 0.211144 76 153 0
0.216798 0.027881 -0.113051 153 0 76
-0.224794 0.279647 0.260699 127 0 127
0.216798 0.012061 0.053523 153 0 76
-0.695417 0.279647 0.071765 127 0 127
0.167992 -0.051880 0.111912 153 0 76
0.302888 -0.145355 -0.218359 255 0 0
0.412025 0.221087 -0.054691 76 0 153
0.216798 -0.166538 0.098860 153 0 76
0.412025 -0.235916 0.001504 76 0 153
0.363219 -0.333384 0.082427 76 0 153
-0.891114 0.279647 0.019789 127 0 127
0.082684 0.240601 -0.275856 127 0 127
-0.514390 0.279647 0.100155 127 0 127
0.276620 -0.379673 -0.218359 255 0 0
0.216798 -0.150132 -0.179811 153 0 76
0.167992 -0.247983 0.054629 153 0 76
-0.338783 0.279647 0.004935 127 0 127
0.327518 -0.233208 -0.218359 255 0 0
-0.785929 -0.230252 -0.175223 76 0 153
0.310248 -0.126316 -0.237881 255 0 0
0.345114 0.279647 -0.060719 127 0 127
0.363219 -0.275835 0.192757 76 0 153
0.167992 -0.188780 -0.086445 153 0 76
0.057099 0.279647 0.208423 127 0 127
0.363219 -0.136918 -0.113675 76 0 153
-0.300667 0.279647 0.090620 127 0 127
0.167992 0.057922 -0.068771 153 0 76
-0.827941 -0.530981 0.165329 153 0 76
-0.778986 0.143785 0.185839 153 0 76
0.341878 -0.174259 0.139506 76 153 0
0.001377 0.240601 0.252890 127 0 127
0.313816 -0.174259 -0.075813 76 153 0
-0.852770 0.279647 0.153880 127 0 127
0.216798 -0.224701 -0.184565 153 0 76
-0.861089 0.279647 -0.011006 127 0 127
0.249651 0.279647 -0.152917 127 0 127
0.381748 -0.075180 0.230666 76 0 153
0.216798 -0.059372 0.134215 153 0 76
0.216267 0.045088 0.230666 153 0 76
0.167992 -0.072388 0.038087 153 0 76
0.227664 -0.009814 -0.218359 255 0 0
-0.493712 0.279647 -0.236868 127 0 127
-0.149960 0.279647 0.026232 127 0 127
0.140017 0.279647 -0.038983 127 0 127
0.367153 0.279647 -0.191431 127 0 127
-0.496552 0.279647 -0.089576 127 0 127
0.394733 -0.559084 -0.237881 76 0 153
-0.292539 0.260814 -0.320853 127 0 127
-0.001188 0.240601 0.103629 127 0 127
0.321734 -0.347697 -0.237881 255 0 0
0.314181 -0.153614 0.230666 204 51 127
0.220547 0.279647 -0.076564 127 0 127
0.363219 0.177412 -0.028431 76 0 153
0.331662 -0.174259 -0.193974 76 153 0
0.280118 -0.545193 0.103001 153 76 0
0.124124 0.279647 -0.224119 127 0 127
-0.771493 0.279647 -0.040033 127 0 127
0.167992 -0.530429 -0.091683 153 0 76
0.345920 -0.154736 -0.128546 76 153 0
0.346641 0.240601 -0.022451 127 0 127
0.216798 -0.131721 -0.085296 153 0 76
-0.749154 0.279647 0.202944 127 0 127
0.363219 -0.065504 -0.071503 76 0 153
0.412025 0.144008 -0.041876 76 0 153
0.363219 0.000642 0.112217 76 0 153
0.348063 -0.507656 -0.218359 255 0 0
0.357851 -0.021235 -0.218359 255 0 0
0.412025 -0.435129 -0.171576 76 0 153
0.318402 0.279647 -0.198333 127 0 127
-0.820853 0.240601 -0.237332 127 0 127
0.216798 -0.083302 -0.041840 153 0 76
-0.795763 -0.248611 0.213034 153 0 76
0.363219 -0.095690 -0.042488 76 0 153
-0.646967 0.240601 -0.292010 127 0 127
-0.645840 0.279647 0.275106 127 0 127
0.363219 0.196421 -0.148849 76 0 153
0.167992 -0.432135 -0.149069 153 0 76
0.412025 -0.319934 -0.025139 76 0 153
-0.805839 0.216451 -0.222935 76 0 153
-0.740934 0.256243 -0.320853 127 0 127
0.121261 0.279647 0.248345 127 0 127
0.216798 0.223834 -0.071061 153 0 76
0.363219 -0.348380 0.106688 76 0 153
0.363219 -0.083590 0.121574 76 0 153
-0.103259 0.240601 0.264724 127 0 127
0.309741 0.279647 0.045397 127 0 127
-0.725225 0.279647 -0.022025 127 0 127
0.216798 0.189781 0.014627 153 0 76
0.412025 0.177525 -0.040807 76 0 153
0.167992 -0.121058 -0.055030 153 0 76
0.363219 -0.529853 -0.205959 76 0 153
0.363219 -0.503770 -0.205957 76 0 153
0.167992 -0.070519 0.186491 153 0 76
-0.779270 -0.481562 0.189804 153 0 76
0.167992 -0.540541 0.018487 153 0 76
-0.095847 0.240601 0.238863 127 0 127
-0.935050 0.265082 0.186710 127 0 127
-0.219455 0.240601 -0.037727 127 0 127
0.363219 -0.267503 -0.156264 76 0 153
-0.023657 0.240601 -0.060424 127 0 127
0.167992 -0.201534 0.099026 153 0 76
0.363219 0.075765 -0.145164 76 0 153
0.359597 -0.564715 0.111338 153 76 0
0.232933 0.013701 0.230666 204 51 127
0.278104 -0.300283 0.211144 204 51 127
0.412025 0.185086 0.111730 76 0 153
0.190849 0.240601 -0.238768 127 0 127
0.216798 -0.204028 -0.142585 153 0 76
-0.304216 0.279647 0.269964 127 0 127
-0.796747 0.240601 0.077720 127 0 127
0.264868 -0.545193 -0.098102 153 76 0
0.412025 0.237458 0.202642 76 0 153
0.216798 0.048896 0.002678 153 0 76
-0.464670 0.240601 0.036219 127 0 127
0.248284 -0.197799 0.211144 204 51 127
-0.021036 0.240601 -0.091858 127 0 127
0.088724 0.240601 -0.078663 127 0 127
0.363219 0.117917 -0.177514 76 0 153
-0.820550 -0.484401 -0.220245 76 0 153
0.101414 0.240601 0.297810 127 0 127
0.363219 -0.016371 0.146942 76 0 153
-0.908464 0.240601 -0.251006 127 0 127
-0.187818 0.279647 0.211104 127 0 127
0.251857 0.176385 0.248432 0 0 255
0.263438 -0.564715 0.099234 153 76 0
0.216798 -0.087585 0.220773 153 0 76
-0.063972 0.279647 0.180750 127 0 127
0.167992 -0.421276 -0.100017 153 0 76
0.363219 0.184126 0.033565 76 0 153
-0.716165 0.240601 0.115127 127 0 127
0.216798 -0.528219 -0.174312 153 0 76
0.412025 -0.133062 -0.219247 76 0 153
0.192052 0.240601 0.182042 153 0 76
0.363219 0.135649 0.187281 76 0 153
0.363219 -0.092932 -0.182172 76 0 153
-0.357195 0.240601 0.286532 127 0 127
0.230088 -0.443190 0.230666 204 51 127
0.412025 -0.157460 -0.072874 76 0 153
0.363219 -0.357488 0.185507 76 0 153
-0.823571 -0.356496 0.211504 153 0 76
0.369370 -0.269196 -0.237881 76 0 153
0.346628 -0.174259 -0.030491 76 153 0
0.167992 -0.206116 0.011697 153 0 76
0.216798 -0.112918 0.146312 153 0 76
-0.652644 0.279647 0.200930 127 0 127
0.412025 0.151936 -0.188426 76 0 153
0.363219 0.062094 -0.180556 76 0 153
0.308089 0.104063 -0.218359 255 0 0
0.070804 0.240601 0.229776 127 0 127
-0.780790 -0.148419 0.196554 153 0 76
0.167992 0.179166 0.180526 153 0 76
0.033731 0.279647 -0.293125 127 0 127
0.348566 -0.174259 0.016783 76 153 0
0.372409 -0.403284 0.230666 76 0 153
0.290077 0.279647 0.088127 127 0 127
-0.794186 0.240601 -0.198417 127 0 127
-0.705262 0.279647 0.267085 127 0 127
0.216798 0.071470 0.214490 204 51 127
0.412025 0.067461 0.172696 76 0 153
0.363219 -0.205016 0.192359 76 0 153
-0.497017 0.244754 -0.320853 127 0 127
0.309207 -0.243617 0.230666 204 51 127
0.027930 0.240601 0.263988 127 0 127
0.216798 -0.238077 0.150391 153 0 76
0.347778 -0.008123 0.230666 204 51 127
0.363219 -0.320267 -0.074788 76 0 153
0.412025 -0.054358 0.180320 76 0 153
0.412025 -0.255783 0.104921 76 0 153
0.230391 0.197954 0.211144 204 51 127
-0.314293 0.279647 -0.055795 127 0 127
0.216798 -0.088635 0.153618 153 0 76
0.302947 -0.285754 0.211144 204 51 127
-0.824799 -0.214168 -0.170134 76 0 153
0.395585 0.091220 0.230666 76 0 153
-0.325184 0.279647 0.201931 127 0 127
0.412025 -0.368663 -0.026810 76 0 153
0.184597 -0.016818 -0.237881 153 0 76
-0.628960 0.240601 0.304971 127 0 127
0.412025 0.106511 -0.027550 76 0 153
0.176914 0.240601 -0.197094 153 0 76
0.398709 0.240601 -0.139722 76 0 153
-0.820214 0.279647 -0.174436 127 0 127
0.269352 0.043949 0.211144 204 51 127
-0.063493 0.262240 0.313638 127 0 127
-0.811944 -0.184402 -0.165170 76 0 153
0.216798 -0.533316 0.036293 153 0 76
0.167992 -0.186794 0.214594 153 0 76
0.412025 0.130471 -0.003970 76 0 153
0.412025 -0.484221 0.098904 76 0 153
0.276857 -0.545193 0.132209 153 76 0
-0.770144 0.240601 0.069196 127 0 127
-0.620317 0.279647 0.031047 127 0 127
0.363219 -0.277657 -0.176400 76 0 153
0.412025 -0.505821 -0.135766 76 0 153
0.412025 -0.376768 -0.214498 76 0 153
-0.764136 0.279647 0.027615 127 0 127
-0.606722 0.240601 -0.135542 127 0 127
0.412025 -0.271003 0.078431 76 0 153
0.167992 0.209345 0.016811 153 0 76
0.232851 0.279647 0.032316 127 0 127
0.167992 -0.030566 0.212515 153 0 76
-0.649710 0.240601 -0.272547 127 0 127
-0.013094 0.279647 -0.095461 127 0 127
-0.272052 0.240601 0.117201 127 0 127
0.367659 0.279647 -0.032554 127 0 127
0.008312 0.240601 0.071078 127 0 127
0.167992 -0.499811 0.012333 153 0 76
0.205744 0.240601 -0.176135 127 0 127
0.412025 0.171225 -0.140152 76 0 153
0.303557 0.279647 -0.094529 127 0 127
0.056751 0.272001 0.313638 127 0 127
-0.580378 0.240601 -0.212161 127 0 127
-0.113767 0.240601 -0.237159 127 0 127
0.303870 0.240601 0.196537 127 0 127
0.140323 0.279647 0.159215 127 0 127
-0.824119 -0.310293 -0.169611 76 0 153
-0.672836 0.240601 -0.170906 127 0 127
-0.158966 0.279647 -0.024526 127 0 127
0.405475 -0.104369 -0.237881 76 0 153
-0.206757 0.279647 0.061033 127 0 127
0.235577 -0.021245 -0.237881 255 0 0
0.221152 0.279647 0.215290 127 0 127
-0.056909 0.279647 -0.035854 127 0 127
0.216798 -0.402651 -0.071244 153 0 76
0.216798 -0.199585 -0.084143 153 0 76
0.363219 0.076831 0.063368 76 0 153
0.252817 -0.319919 -0.237881 255 0 0
-0.167299 0.253753 -0.320853 127 0 127
0.412025 -0.115566 -0.046494 76 0 153
0.412025 0.158794 -0.101857 76 0 153
0.216798 -0.556005 -0.014982 153 0 76
0.405356 0.240601 -0.018327 127 0 127
0.216798 0.206162 -0.115756 153 0 76
-0.267351 0.240601 -0.158512 127 0 127
0.150721 0.240601 -0.078472 127 0 127
0.251959 -0.162429 -0.237881 255 0 0
0.268608 0.279647 -0.183520 127 0 127
0.291842 -0.302684 0.230666 204 51 127
0.167992 -0.460874 -0.121259 153 0 76
-0.321458 0.240601 0.308689 127 0 127
-0.175022 0.279647 0.130982 127 0 127
-0.817594 0.240601 -0.005042 127 0 127
-0.785207 0.279647 0.251382 127 0 127
-0.833159 0.018135 0.171638 153 0 76
-0.190590 0.279647 -0.178836 127 0 127
0.363219 -0.448546 -0.042557 76 0 153
0.320576 0.051671 0.211144 204 51 127
-0.133317 0.279647 -0.274472 127 0 127
0.216798 -0.479857 0.029078 153 0 76
0.231734 -0.154736 -0.003436 76 153 0
0.167992 -0.456187 -0.017010 153 0 76
-0.034942 0.279647 0.140282 127 0 127
0.109704 0.279647 -0.134931 127 0 127
0.182092 0.006613 0.230666 153 0 76
0.353467 -0.174259 -0.092826 76 153 0
0.111347 0.240601 -0.298477 127 0 127
0.234428 0.084080 -0.218359 255 0 0
0.264089 -0.098516 -0.218359 255 0 0
0.233328 -0.174259 -0.048558 76 153 0
-0.125012 0.279647 0.224753 127 0 127
-0.830089 -0.239060 -0.213058 76 0 153
0.167992 -0.431777 -0.082387 153 0 76
0.200429 -0.564715 -0.013481 153 0 76
0.412025 -0.079745 -0.198141 76 0 153
-0.010955 0.279647 -0.258775 127 0 127
-0.628991 0.240601 -0.137298 127 0 127
0.239152 -0.174259 0.126954 76 153 0
0.167992 -0.174873 -0.189783 153 0 76
-0.804308 -0.141944 0.157962 153 0 76
0.216798 -0.375273 -0.046467 153 0 76
0.245570 -0.545193 0.018815 153 76 0
0.167992 0.059821 0.158780 153 0 76
0.350889 0.083576 -0.218359 255 0 0
-0.411840 0.240601 0.146896 127 0 127
-0.765465 0.240601 0.017592 127 0 127
0.363219 0.035048 0.225429 76 0 153
-0.752497 0.240601 0.279213 127 0 127
-0.935050 0.256333 -0.079066 127 0 127
0.412025 0.227002 0.064601 76 0 153
-0.366668 0.240601 0.072813 127 0 127
-0.010698 0.279647 -0.122791 127 0 127
0.363219 -0.371036 0.102965 76 0 153
-0.196225 0.279647 0.298468 127 0 127
-0.656649 0.240601 0.157348 127 0 127
-0.827420 0.279647 -0.048308 127 0 127
0.345330 -0.311200 0.230666 204 51 127
-0.767525 0.240601 -0.319477 127 0 127
-0.820651 -0.113409 -0.220203 76 0 153
0.363219 0.182143 0.153660 76 0 153
-0.012035 0.279647 -0.159986 127 0 127
0.407283 0.279647 0.039060 127 0 127
0.412025 -0.092913 0.205112 76 0 153
-0.800437 -0.341612 -0.165725 76 0 153
0.363219 0.194562 -0.086342 76 0 153
0.363219 -0.196511 0.142048 76 0 153
0.167992 -0.400045 -0.159721 153 0 76
-0.802977 -0.564715 0.172609 153 0 76
0.412025 0.264576 -0.173575 127 0 127
-0.108239 0.279647 -0.246029 127 0 127
-0.891304 0.279647 0.284350 127 0 127
0.363219 -0.509490 0.102469 76 0 153
-0.416576 0.275795 -0.320853 127 0 127
0.216798 -0.074039 0.174474 153 0 76
-0.162501 0.279647 -0.150260 127 0 127
0.216798 -0.030709 -0.154445 153 0 76
0.216798 -0.253460 -0.087350 153 0 76
-0.678745 0.240601 0.043251 127 0 127
-0.294334 0.240601 -0.135101 127 0 127
0.167992 -0.053906 -0.054784 153 0 76
0.363219 -0.489691 0.031030 76 0 153
-0.235454 0.240601 0.171105 127 0 127
0.412025 -0.386138 0.124723 76 0 153
0.063767 0.279647 -0.023188 127 0 127
-0.935050 0.279494 0.030715 127 0 127
-0.724442 0.240601 -0.003459 127 0 127
-0.528738 0.240601 -0.306169 127 0 127
0.262013 0.240601 0.286370 127 0 127
-0.409309 0.240601 0.111215 127 0 127
-0.560974 0.279647 0.313270 127 0 127
0.245007 -0.154736 0.192355 76 153 0
0.292424 0.279647 -0.154745 127 0 127
0.351569 -0.056243 0.211144 204 51 127
0.215182 -0.343598 -0.237881 153 0 76
0.111344 0.260546 0.313638 127 0 127
0.216798 -0.548403 -0.071698 153 0 76
0.412025 -0.467532 0.211295 76 0 153
0.066069 0.240601 0.027453 127 0 127
0.216798 0.223180 0.198016 153 0 76
0.332957 -0.564715 0.159469 153 76 0
0.404856 0.240601 -0.087468 127 0 127
0.216798 -0.301484 0.167736 153 0 76
0.261629 0.279647 0.223848 127 0 127
0.167992 -0.195350 -0.145985 153 0 76
-0.783726 0.152738 -0.178093 76 0 153
0.363219 -0.453567 -0.117776 76 0 153
0.065507 0.279647 -0.107251 127 0 127
0.332705 -0.098260 0.211144 204 51 127
0.265775 0.240601 -0.068868 127 0 127
0.216798 -0.385013 -0.207378 153 0 76
0.363219 -0.219828 -0.001859 76 0 153
0.167992 -0.403001 0.124693 153 0 76
0.167992 -0.522343 -0.160208 153 0 76
0.264002 -0.511570 0.211144 204 51 127
0.363219 -0.406529 -0.049609 76 0 153
0.324889 -0.564715 -0.120414 153 76 0
0.268283 -0.564715 0.065095 153 76 0
0.363219 -0.435997 0.158759 76 0 153
-0.914225 0.240601 0.249251 127 0 127
0.216798 -0.041699 0.098381 153 0 76
0.167992 -0.358527 -0.108920 153 0 76
-0.885277 0.240601 -0.130792 127 0 127
0.167992 -0.011186 0.147399 153 0 76
0.216798 -0.218603 0.188749 153 0 76
0.363219 -0.235932 -0.093720 76 0 153
-0.378012 0.240601 -0.009970 127 0 127
-0.040898 0.279647 -0.067978 127 0 127
0.387382 -0.181496 0.230666 76 0 153
0.394537 0.101704 -0.237881 76 0 153
0.216798 0.124239 0.186039 153 0 76
0.216798 0.092215 0.176758 153 0 76
0.312724 0.278675 -0.320853 127 0 127
0.205050 -0.401320 -0.237881 153 0 76
0.207598 -0.564715 -0.154457 153 0 76
-0.569475 0.240601 0.071565 127 0 127
0.307018 0.063411 0.211144 204 51 127
0.412025 -0.005685 0.170123 76 0 153
0.312583 -0.197583 -0.237881 255 0 0
-0.316695 0.279647 0.141124 127 0 127
0.167992 -0.549916 -0.228068 153 0 76
-0.825580 -0.564715 0.187602 153 0 76
-0.384650 0.279647 -0.219038 127 0 127
-0.717807 0.279647 0.125894 127 0 127
0.231339 -0.545193 -0.165739 153 76 0
0.412025 0.067930 -0.197794 76 0 153
0.167992 0.217109 -0.024546 153 0 76
0.124022 0.279647 -0.171594 127 0 127
-0.607215 0.279647 -0.182446 127 0 127
0.009152 0.279647 0.242578 127 0 127
0.383141 0.279647 -0.228288 127 0 127
0.231552 -0.166075 -0.237881 255 0 0
-0.142629 0.240601 0.191565 127 0 127
0.161112 0.279647 0.167779 127 0 127
0.167992 -0.317324 0.200442 153 0 76
-0.649239 0.279647 -0.021902 127 0 127
0.363219 -0.232228 0.040822 76 0 153
0.107821 0.240601 -0.047117 127 0 127
0.167992 -0.260439 -0.125389 153 0 76
0.396926 -0.019611 0.230666 76 0 153
-0.018286 0.240601 -0.240344 127 0 127
-0.597876 0.240601 -0.048994 127 0 127
0.363219 -0.049383 -0.129014 76 0 153
0.363219 0.135247 -0.024874 76 0 153
-0.785099 -0.559010 -0.211606 76 0 153
0.216798 -0.186914 0.153028 153 0 76
0.363219 0.086205 -0.196929 76 0 153
0.363219 0.040834 0.172922 76 0 153
0.317006 -0.270747 -0.218359 255 0 0
0.185595 0.279647 -0.074555 127 0 127
0.412025 0.257347 0.218006 127 0 127
-0.316429 0.240601 -0.103985 127 0 127
0.226313 0.019276 0.211144 204 51 127
0.328300 -0.253506 0.211144 204 51 127
0.363219 -0.300792 0.198132 76 0 153
-0.332797 0.279647 -0.049977 127 0 127
-0.793986 0.279647 0.011278 127 0 127
0.363219 -0.121712 -0.100816 76 0 153
0.216798 -0.011836 0.197671 153 0 76
-0.591769 0.240601 -0.152734 127 0 127
-0.496366 0.240601 0.179992 127 0 127
0.216798 0.190668 0.219301 153 0 76
0.363219 -0.551653 0.042003 153 76 0
0.220131 -0.564715 -0.235765 255 0 0
-0.205181 0.240601 0.294620 127 0 127
-0.018283 0.240601 0.250883 127 0 127
0.190155 0.240601 -0.024588 153 0 76
0.167992 -0.107413 0.109656 153 0 76
0.138809 0.240601 -0.032338 127 0 127
0.167992 0.208447 0.214422 153 0 76
0.363219 -0.065884 0.124818 76 0 153
0.412025 -0.333153 0.117881 76 0 153
0.370489 0.240601 -0.212269 76 0 153
-0.378594 0.240601 0.301906 127 0 127
-0.691519 0.279647 -0.065141 127 0 127
-0.279663 0.279647 0.047564 127 0 127
-0.194599 0.279647 0.096812 127 0 127
0.025537 0.279647 -0.000136 127 0 127
0.167992 -0.046073 0.032348 153 0 76
0.363219 0.213063 -0.059993 76 0 153
0.327245 -0.134072 0.211144 204 51 127
0.412025 -0.527907 -0.067368 76 0 153
0.412025 -0.085491 0.114482 76 0 153
0.324620 -0.545193 -0.172928 153 76 0
-0.570622 0.279647 0.125107 127 0 127
0.022611 0.279647 -0.104508 127 0 127
0.412025 -0.492133 -0.059257 76 0 153
0.412025 0.065795 0.203751 76 0 153
-0.231170 0.240601 -0.103283 127 0 127
-0.724934 0.240601 -0.087296 127 0 127
0.412025 0.123816 -0.049941 76 0 153
0.167992 -0.015476 -0.179662 153 0 76
-0.526742 0.279647 -0.010891 127 0 127
0.167992 -0.397070 -0.017572 153 0 76
0.412025 -0.373575 -0.181778 76 0 153
-0.098112 0.240601 -0.299378 127 0 127
0.412025 -0.068446 0.227468 76 0 153
0.216798 -0.549749 -0.156060 153 76 0
0.000270 0.240601 0.002031 127 0 127
0.216798 0.120068 -0.120943 153 0 76
-0.580163 0.266574 -0.320853 127 0 127
0.181472 0.114801 -0.237881 153 0 76
0.333334 -0.174259 0.198104 76 153 0
-0.203718 0.279647 -0.022259 127 0 127
-0.255414 0.267193 0.313638 127 0 127
0.242752 -0.154736 0.121184 76 153 0
0.167992 0.032586 -0.143821 153 0 76
0.186380 0.092319 -0.237881 153 0 76
0.167992 0.226790 0.123537 153 0 76
-0.833380 0.261769 0.313638 127 0 127
-0.203673 0.279647 0.270577 127 0 127
-0.898943 0.279647 -0.269462 127 0 127
0.157694 0.240601 0.102691 127 0 127
0.363219 -0.001644 0.225825 76 0 153
-0.725537 0.240601 -0.239416 127 0 127
0.245564 0.237436 0.211144 204 51 127
0.343973 0.279647 0.044927 127 0 127
0.167992 -0.455424 0.147430 153 0 76
-0.427081 0.279647 -0.237851 127 0 127
-0.547651 0.279647 0.275114 127 0 127
-0.915931 0.279647 -0.118782 127 0 127
0.180816 0.240601 0.001238 153 0 76
-0.901624 0.279647 0.070427 127 0 127
0.270365 0.082321 -0.218359 255 0 0
0.363219 -0.181784 0.065364 76 0 153
0.408451 0.240601 0.127701 127 0 127
-0.715101 0.240601 0.281495 127 0 127
0.277562 0.240601 0.158519 127 0 127
0.363219 -0.453237 -0.232054 255 0 0
-0.434992 0.279647 -0.190921 127 0 127
0.305554 -0.379041 0.211144 204 51 127
-0.935050 0.257741 -0.146359 127 0 127
0.167992 -0.269700 -0.156126 153 0 76
0.167992 -0.306208 0.128452 153 0 76
0.343404 0.033706 -0.237881 255 0 0
0.334308 0.279647 -0.287355 127 0 127
0.292690 0.240601 0.181963 127 0 127
0.167992 -0.459900 0.055893 153 0 76
0.167992 -0.087358 0.084774 153 0 76
-0.511594 0.279647 0.064515 127 0 127
0.216798 -0.274689 0.229936 153 0 76
0.243361 -0.409028 0.211144 204 51 127
0.023333 0.279647 0.141258 127 0 127
-0.813390 -0.289402 0.215334 153 0 76
0.363219 -0.228864 -0.059051 76 0 153
0.216798 -0.551231 0.125154 153 76 0
0.363219 0.001038 -0.014382 76 0 153
0.412025 -0.183802 0.168551 76 0 153
-0.470354 0.279647 0.092048 127 0 127
-0.779899 -0.293951 -0.201615 76 0 153
-0.287313 0.279647 0.131434 127 0 127
0.216798 0.175250 0.136304 153 0 76
0.412025 -0.124209 -0.064030 76 0 153
0.363219 -0.098689 0.186648 76 0 153
0.278571 0.164036 0.211144 204 51 127
0.412025 0.060307 0.135468 76 0 153
-0.406303 0.240601 0.187066 127 0 127
0.226118 0.279647 -0.176218 127 0 127
0.216798 0.153111 -0.202679 153 0 76
-0.715739 0.279647 0.185305 127 0 127
0.216798 -0.508591 -0.087741 153 0 76
-0.105857 0.279647 -0.059197 127 0 127
0.222157 0.145565 -0.218359 255 0 0
-0.779520 -0.197543 -0.188993 76 0 153
0.249758 -0.119299 0.230666 204 51 127
0.216798 -0.164714 -0.032203 76 153 0
0.216798 -0.227089 -0.030765 153 0 76
0.363219 0.062147 0.194952 76 0 153
0.221463 0.240601 0.079742 127 0 127
-0.313184 0.263992 0.313638 127 0 127
0.113113 0.279647 0.054207 127 0 127
-0.798440 0.240601 0.279370 127 0 127
0.216798 -0.504811 0.124031 153 0 76
0.155932 0.240601 0.208518 127 0 127
0.219415 0.240601 -0.015113 127 0 127
0.167992 -0.525910 -0.066067 153 0 76
0.237362 0.240601 -0.221008 127 0 127
0.412025 0.005506 0.215584 76 0 153
0.216798 -0.137337 -0.121107 153 0 76
0.294887 0.240601 -0.187969 127 0 127
0.395744 0.279647 0.227189 127 0 127
-0.792196 -0.430582 0.162387 153 0 76
0.257783 0.240601 0.245498 127 0 127
-0.534214 0.240601 -0.082326 127 0 127
0.172871 -0.519396 -0.237881 153 0 76
-0.314274 0.279647 -0.097702 127 0 127
-0.515083 0.240601 -0.101833 127 0 127
0.261554 0.240601 -0.203538 127 0 127
0.167992 -0.119241 0.069381 153 0 76
-0.234501 0.240601 -0.196892 127 0 127
0.412025 -0.360386 0.097399 76 0 153
0.216798 -0.166587 0.144058 153 0 76
0.401753 -0.564715 -0.004431 76 0 153
-0.567754 0.279647 -0.083415 127 0 127
0.274186 -0.201322 -0.237881 255 0 0
0.412025 -0.300102 0.116715 76 0 153
-0.377708 0.279647 -0.025278 127 0 127
0.028162 0.279647 -0.313055 127 0 127
0.167992 -0.518916 0.146298 153 0 76
0.320098 -0.564715 -0.192555 153 76 0
0.216798 -0.282871 0.040191 153 0 76
-0.800652 -0.021451 0.158443 153 0 76
-0.816886 0.234411 -0.221762 76 0 153
0.246819 0.014787 0.211144 204 51 127
0.363219 -0.237169 -0.140466 76 0 153
-0.836890 -0.225761 -0.198100 76 0 153
0.363219 -0.485560 0.164539 76 0 153
0.363219 -0.549286 -0.111495 153 76 0
0.267215 -0.154736 0.002027 76 153 0
-0.227895 0.240601 -0.262123 127 0 127
-0.696561 0.279647 0.148749 127 0 127
-0.126314 0.279647 0.161435 127 0 127
0.395774 -0.234780 0.230666 76 0 153
0.167992 -0.298502 -0.176388 153 0 76
-0.314496 0.279647 0.106709 127 0 127
0.412025 -0.109300 -0.016287 76 0 153
0.412025 0.268166 0.131893 127 0 127
0.412025 -0.181067 -0.237860 76 0 153
0.298409 -0.154736 -0.050642 76 153 0
0.363219 -0.385720 -0.137281 76 0 153
0.412025 0.129677 0.160358 76 0 153
0.363219 -0.096636 -0.078247 76 0 153
-0.803054 0.275964 -0.320853 127 0 127
-0.935050 0.253139 -0.095957 127 0 127
0.363219 0.213041 -0.222095 255 0 0
0.167992 -0.435831 0.119127 153 0 76
0.363219 -0.511665 0.134082 76 0 153
0.346370 -0.227831 0.211144 204 51 127
0.003253 0.240601 -0.037597 127 0 127
0.363219 -0.317637 -0.191477 76 0 153
0.363219 0.058599 -0.033571 76 0 153
0.209413 -0.564715 0.043213 153 0 76
0.250607 0.182795 -0.237881 255 0 0
0.167992 -0.272743 0.003501 153 0 76
0.363219 -0.058197 -0.221916 255 0 0
0.363219 -0.066988 -0.187338 76 0 153
0.412025 0.078219 -0.149047 76 0 153
0.003842 0.279647 0.276167 127 0 127
0.216798 -0.069801 0.033870 153 0 76
0.167992 -0.328661 -0.220163 153 0 76
-0.805520 -0.155034 -0.165017 76 0 153
0.216798 0.086136 -0.067366 153 0 76
0.167992 -0.515842 -0.052003 153 0 76
0.412025 -0.524692 0.180600 76 0 153
0.257966 0.200170 -0.218359 255 0 0
0.389594 -0.379736 0.230666 76 0 153
0.342599 -0.564715 -0.052578 153 76 0
-0.630973 0.240601 -0.105926 127 0 127
0.167992 -0.401464 0.191783 153 0 76
-0.053034 0.240601 -0.211150 127 0 127
0.216798 0.032547 -0.137821 153 0 76
0.216798 -0.257059 0.189423 153 0 76
-0.373151 0.240601 -0.314867 127 0 127
-0.469033 0.279647 -0.108271 127 0 127
-0.565760 0.240601 -0.180064 127 0 127
0.378154 -0.564715 -0.110336 76 0 153
0.167992 -0.159341 -0.066014 153 0 76
0.167992 -0.071695 0.225330 153 0 76
0.400090 0.230137 0.230666 76 0 153
-0.376573 0.279647 -0.084403 127 0 127
0.167992 -0.152390 -0.162674 153 0 76
0.167992 0.083561 -0.007510 153 0 76
0.216798 -0.463630 -0.043074 153 0 76
0.412025 -0.339507 -0.174169 76 0 153
0.077004 0.240601 0.286518 127 0 127
0.302763 -0.104137 -0.218359 255 0 0
-0.887857 0.279647 -0.073188 127 0 127
0.216798 -0.428344 0.204861 153 0 76
-0.579164 0.240601 -0.266948 127 0 127
0.216798 -0.056500 -0.181784 153 0 76
-0.933930 0.279647 0.054405 127 0 127
0.167992 -0.554543 -0.138840 153 0 76
0.412025 0.228758 0.172599 76 0 153
-0.592606 0.240601 -0.306617 127 0 127
0.216798 -0.367251 0.180359 153 0 76
-0.793667 0.240601 -0.047958 127 0 127
0.339289 -0.154736 0.091524 76 153 0
0.180379 -0.210050 -0.237881 153 0 76
0.353950 -0.169553 0.230666 204 51 127
0.296746 -0.174259 -0.078192 76 153 0
0.257534 -0.241859 0.230666 204 51 127
-0.184712 0.240601 -0.178434 127 0 127
0.412025 -0.541339 0.117780 76 0 153
0.330429 -0.174259 -0.212877 76 153 0
0.216798 0.189149 0.198225 153 0 76
0.412025 -0.403229 -0.165648 76 0 153
-0.297375 0.240601 -0.091515 127 0 127
-0.293933 0.240601 -0.058840 127 0 127
0.216798 -0.177183 0.203366 153 0 76
-0.816414 0.279647 0.012164 127 0 127
0.363219 -0.198763 0.167542 76 0 153
0.295839 -0.157054 -0.237881 255 0 0
-0.300787 0.242464 -0.320853 127 0 127
0.363219 -0.479240 0.068458 76 0 153
0.216798 -0.088288 -0.082647 153 0 76
