-0.294600 -0.917451 -0.045763 0.000000 0.500000 0.500000
-0.140933 0.069012 0.460627 0.000000 0.500000 0.500000
0.445561 0.619827 0.071788 0.000000 0.500000 0.500000
-0.284593 0.068125 -0.382754 0.000000 0.500000 0.500000
-0.481638 0.268138 0.043197 0.000000 0.500000 0.500000
0.099196 0.919215 -0.022600 0.600000 0.000000 0.300000
-0.256550 0.158809 -0.403001 0.000000 0.500000 0.500000
0.244553 0.686639 -0.318289 0.300000 0.600000 0.000000
0.044721 -0.884398 0.021172 0.000000 0.500000 0.500000
-0.416027 0.645859 -0.156720 0.000000 0.500000 0.500000
-0.330710 -0.084700 -0.346650 0.000000 0.500000 0.500000
-0.207630 0.771887 -0.336074 0.300000 0.600000 0.000000
0.467508 -0.012405 0.024334 0.000000 0.500000 0.500000
0.439550 0.608092 0.130591 0.000000 0.500000 0.500000
0.296792 -0.905912 -0.236137 0.000000 0.500000 0.500000
0.464285 -0.102239 -0.052538 0.000000 0.500000 0.500000
-0.051024 0.165232 -0.470006 0.000000 0.500000 0.500000
-0.482860 -0.055194 0.022571 0.000000 0.500000 0.500000
0.457229 0.275938 0.106616 0.000000 0.500000 0.500000
-0.216715 -0.580044 -0.424016 0.000000 0.500000 0.500000
-0.440673 -0.293075 -0.192257 0.000000 0.500000 0.500000
-0.383545 0.007529 0.294220 0.000000 0.500000 0.500000
-0.100984 -0.514483 0.469834 0.000000 0.500000 0.500000
-0.122078 0.167993 0.465610 0.000000 0.500000 0.500000
-0.223713 -0.192146 0.428110 0.000000 0.500000 0.500000
0.391802 -0.891829 -0.104985 0.000000 0.500000 0.500000
0.013904 -0.897165 0.406855 0.000000 0.500000 0.500000
-0.404650 0.564472 -0.255014 0.000000 0.500000 0.500000
0.255092 -0.917660 -0.059185 0.000000 0.500000 0.500000
-0.255423 0.897361 0.350371 0.600000 0.000000 0.300000
0.466923 -0.331652 -0.030256 0.000000 0.500000 0.500000
0.113112 0.797652 0.417852 0.600000 0.000000 0.300000
0.466468 -0.677512 0.042571 0.000000 0.500000 0.500000
-0.348932 -0.909929 0.155407 0.000000 0.500000 0.500000
0.256157 -0.139463 0.400433 0.000000 0.500000 0.500000
0.053412 0.780382 0.406091 0.600000 0.000000 0.300000
-0.017550 0.429448 0.479324 0.000000 0.500000 0.500000
-0.476531 -0.687487 -0.073569 0.000000 0.500000 0.500000
0.332744 0.714871 0.216347 0.300000 0.600000 0.000000
0.157905 0.314911 0.449186 0.000000 0.500000 0.500000
0.465373 -0.697841 -0.044400 0.000000 0.500000 0.500000
-0.297386 0.194321 0.379795 0.000000 0.500000 0.500000
-0.116543 0.781156 -0.395688 0.600000 0.000000 0.300000
0.004879 -0.087234 0.479331 0.000000 0.500000 0.500000
-0.421606 0.271354 0.240794 0.000000 0.500000 0.500000
0.425186 0.830199 -0.009635 0.600000 0.000000 0.300000
-0.447086 0.574021 -0.168062 0.000000 0.500000 0.500000
-0.477114 -0.417692 0.077330 0.000000 0.500000 0.500000
0.388309 0.716567 0.059592 0.300000 0.600000 0.000000
0.074574 0.759686 0.389034 0.300000 0.600000 0.000000
0.462583 -0.427792 0.074445 0.000000 0.500000 0.500000
0.318358 -0.641103 0.350829 0.000000 0.500000 0.500000
-0.333474 0.669995 -0.263231 0.300000 0.600000 0.000000
-0.161882 0.888195 -0.397252 0.600000 0.000000 0.300000
-0.294598 0.214475 -0.375058 0.000000 0.500000 0.500000
0.095600 -0.893756 -0.095390 0.000000 0.500000 0.500000
-0.060707 0.086981 0.475796 0.000000 0.500000 0.500000
0.351811 0.805213 0.242587 0.600000 0.000000 0.300000
-0.476995 0.044416 -0.070826 0.000000 0.500000 0.500000
-0.394448 0.756763 -0.072334 0.300000 0.600000 0.000000
0.251509 0.403332 -0.396680 0.000000 0.500000 0.500000
0.398562 -0.074291 0.253078 0.000000 0.500000 0.500000
-0.217391 0.919215 0.071382 0.600000 0.000000 0.300000
0.180056 -0.916970 0.250740 0.000000 0.500000 0.500000
0.443869 -0.848468 0.048120 0.000000 0.500000 0.500000
0.177284 0.919215 -0.259949 0.600000 0.000000 0.300000
-0.075239 -0.381442 -0.466820 0.000000 0.500000 0.500000
-0.439813 -0.174814 0.201613 0.000000 0.500000 0.500000
0.177032 0.068554 -0.434252 0.000000 0.500000 0.500000
-0.313245 -0.527027 -0.360721 0.000000 0.500000 0.500000
-0.434947 0.075116 -0.206092 0.000000 0.500000 0.500000
0.424269 -0.306870 0.202618 0.000000 0.500000 0.500000
0.265211 0.579285 -0.380022 0.000000 0.500000 0.500000
0.235207 0.919215 -0.014042 0.600000 0.000000 0.300000
0.440867 0.634696 -0.022125 0.000000 0.500000 0.500000
0.094820 0.470037 -0.461158 0.000000 0.500000 0.500000
-0.197278 0.919215 -0.197211 0.600000 0.000000 0.300000
0.375538 0.032310 0.285207 0.000000 0.500000 0.500000
-0.047519 -0.757547 -0.469794 0.000000 0.500000 0.500000
0.299011 0.008184 -0.360164 0.000000 0.500000 0.500000
-0.335456 -0.596906 0.349614 0.000000 0.500000 0.500000
0.405283 0.591480 -0.222361 0.000000 0.500000 0.500000
0.292657 0.919102 0.256476 0.600000 0.000000 0.300000
0.304163 0.919215 0.134275 0.600000 0.000000 0.300000
0.454005 -0.107772 0.118049 0.000000 0.500000 0.500000
-0.353905 0.338728 -0.323836 0.000000 0.500000 0.500000
-0.341153 0.562291 0.342267 0.000000 0.500000 0.500000
-0.360956 -0.869475 0.262910 0.000000 0.500000 0.500000
0.092783 0.919215 -0.219627 0.600000 0.000000 0.300000
-0.431472 0.854017 0.082714 0.600000 0.000000 0.300000
0.033910 0.507084 -0.470216 0.000000 0.500000 0.500000
0.233798 0.143137 0.415200 0.000000 0.500000 0.500000
-0.022041 -0.746618 0.478631 0.000000 0.500000 0.500000
0.001586 0.244604 -0.472167 0.000000 0.500000 0.500000
0.415645 0.851037 -0.082112 0.600000 0.000000 0.300000
0.394640 -0.261141 -0.252038 0.000000 0.500000 0.500000
0.445735 -0.304608 0.148821 0.000000 0.500000 0.500000
-0.428763 -0.667695 -0.219118 0.000000 0.500000 0.500000
0.016920 -0.579549 -0.471488 0.000000 0.500000 0.500000
-0.140296 0.466960 -0.453488 0.000000 0.500000 0.500000
0.092135 0.226081 0.468921 0.000000 0.500000 0.500000
-0.386270 -0.675545 -0.283371 0.000000 0.500000 0.500000
0.125471 0.601352 0.451180 0.000000 0.500000 0.500000
-0.189658 0.733710 0.358173 0.300000 0.600000 0.000000
-0.361762 0.104036 0.322490 0.000000 0.500000 0.500000
-0.464243 -0.751898 0.136033 0.000000 0.500000 0.500000
0.270369 0.089989 -0.382224 0.000000 0.500000 0.500000
-0.477747 0.104663 -0.065632 0.000000 0.500000 0.500000
-0.192494 0.836683 -0.385883 0.600000 0.000000 0.300000
-0.119438 -0.542566 -0.458999 0.000000 0.500000 0.500000
-0.335589 0.192760 0.349262 0.000000 0.500000 0.500000
-0.449822 -0.015229 -0.170151 0.000000 0.500000 0.500000
0.356626 0.919215 -0.038084 0.600000 0.000000 0.300000
0.463907 -0.207659 0.061414 0.000000 0.500000 0.500000
-0.129001 0.480398 0.463689 0.000000 0.500000 0.500000
-0.483372 -0.063661 -0.003887 0.000000 0.500000 0.500000
0.278031 -0.913278 -0.217680 0.000000 0.500000 0.500000
-0.135252 -0.916901 0.305114 0.000000 0.500000 0.500000
0.053052 0.919215 -0.242812 0.600000 0.000000 0.300000
0.144006 -0.903520 0.115158 0.000000 0.500000 0.500000
-0.189017 0.919215 0.297939 0.600000 0.000000 0.300000
-0.259442 0.699805 0.319617 0.300000 0.600000 0.000000
-0.039717 0.104220 -0.471143 0.000000 0.500000 0.500000
-0.476191 0.092634 0.082802 0.000000 0.500000 0.500000
-0.124606 0.201493 0.464942 0.000000 0.500000 0.500000
0.310190 -0.597255 0.358047 0.000000 0.500000 0.500000
0.176781 0.919215 0.095126 0.600000 0.000000 0.300000
-0.482271 0.431270 -0.028536 0.000000 0.500000 0.500000
-0.276191 -0.746775 -0.389016 0.000000 0.500000 0.500000
0.182447 -0.456383 -0.432014 0.000000 0.500000 0.500000
0.311729 -0.915674 0.088365 0.000000 0.500000 0.500000
0.463356 -0.462543 -0.060870 0.000000 0.500000 0.500000
0.042135 0.894409 0.428267 0.600000 0.000000 0.300000
-0.151767 -0.605250 -0.449907 0.000000 0.500000 0.500000
0.315263 0.789518 0.279461 0.600000 0.000000 0.300000
-0.414497 -0.116589 0.252153 0.000000 0.500000 0.500000
-0.151716 -0.290651 0.456985 0.000000 0.500000 0.500000
0.201590 -0.719873 -0.424075 0.000000 0.500000 0.500000
0.192342 0.918634 -0.343008 0.600000 0.000000 0.300000
-0.443028 -0.415072 0.193875 0.000000 0.500000 0.500000
-0.356111 -0.798552 0.322418 0.000000 0.500000 0.500000
0.466778 -0.615659 0.040021 0.000000 0.500000 0.500000
-0.340904 0.792286 -0.261569 0.600000 0.000000 0.300000
-0.175819 0.820555 0.400101 0.600000 0.000000 0.300000
0.435292 0.333295 -0.169034 0.000000 0.500000 0.500000
-0.294642 -0.618977 0.381909 0.000000 0.500000 0.500000
-0.214834 0.919215 0.244826 0.600000 0.000000 0.300000
0.225047 0.061820 0.420143 0.000000 0.500000 0.500000
-0.060896 -0.783721 0.473303 0.000000 0.500000 0.500000
-0.168216 0.616179 0.432948 0.000000 0.500000 0.500000
0.237983 0.474722 -0.405269 0.000000 0.500000 0.500000
0.417074 -0.835806 0.180684 0.000000 0.500000 0.500000
-0.352096 -0.398642 0.333097 0.000000 0.500000 0.500000
0.363624 -0.402645 -0.293356 0.000000 0.500000 0.500000
-0.291073 -0.912331 0.236102 0.000000 0.500000 0.500000
0.276926 0.516521 0.384214 0.000000 0.500000 0.500000
-0.365253 -0.838771 0.290882 0.000000 0.500000 0.500000
0.286030 0.919215 -0.187475 0.600000 0.000000 0.300000
0.441383 -0.035224 0.158914 0.000000 0.500000 0.500000
0.464649 0.502337 -0.051334 0.000000 0.500000 0.500000
-0.420191 -0.114756 -0.235790 0.000000 0.500000 0.500000
-0.425506 0.489403 0.233040 0.000000 0.500000 0.500000
-0.483517 0.181556 -0.000639 0.000000 0.500000 0.500000
0.244223 -0.234952 0.408668 0.000000 0.500000 0.500000
0.422775 -0.055096 0.205721 0.000000 0.500000 0.500000
0.149641 -0.617395 -0.445246 0.000000 0.500000 0.500000
-0.446535 0.496008 -0.178068 0.000000 0.500000 0.500000
-0.476796 -0.769226 -0.065284 0.000000 0.500000 0.500000
-0.481237 -0.669693 0.046260 0.000000 0.500000 0.500000
-0.319176 0.484557 -0.356165 0.000000 0.500000 0.500000
0.190023 -0.162059 -0.428872 0.000000 0.500000 0.500000
0.370420 -0.587892 -0.284529 0.000000 0.500000 0.500000
0.135545 0.249403 0.457556 0.000000 0.500000 0.500000
-0.118828 0.076199 -0.459164 0.000000 0.500000 0.500000
0.329590 -0.483449 -0.334004 0.000000 0.500000 0.500000
0.286468 -0.669936 -0.369810 0.000000 0.500000 0.500000
-0.106503 -0.367617 0.469031 0.000000 0.500000 0.500000
-0.408608 -0.690710 -0.254244 0.000000 0.500000 0.500000
0.052489 0.919215 -0.043664 0.600000 0.000000 0.300000
0.376715 -0.528222 -0.276354 0.000000 0.500000 0.500000
-0.311051 0.800840 0.312418 0.600000 0.000000 0.300000
0.270345 -0.780285 -0.379574 0.000000 0.500000 0.500000
-0.380866 -0.908313 0.060279 0.000000 0.500000 0.500000
0.224094 0.919215 -0.179318 0.600000 0.000000 0.300000
0.213697 0.919215 0.300891 0.600000 0.000000 0.300000
-0.218801 -0.917593 0.223250 0.000000 0.500000 0.500000
0.258222 -0.211058 0.398685 0.000000 0.500000 0.500000
0.291193 0.284756 0.373263 0.000000 0.500000 0.500000
-0.482679 -0.395709 0.026650 0.000000 0.500000 0.500000
0.465198 -0.462300 0.052989 0.000000 0.500000 0.500000
0.109791 -0.687747 -0.457569 0.000000 0.500000 0.500000
-0.355357 -0.722722 0.329518 0.000000 0.500000 0.500000
0.389442 -0.105150 -0.259330 0.000000 0.500000 0.500000
0.070459 0.642335 -0.432125 0.000000 0.500000 0.500000
-0.068654 0.801010 0.429119 0.600000 0.000000 0.300000
0.418126 0.865626 0.070578 0.600000 0.000000 0.300000
0.333984 -0.499276 0.336484 0.000000 0.500000 0.500000
0.314216 0.829982 -0.284602 0.600000 0.000000 0.300000
-0.483527 -0.707931 -0.000417 0.000000 0.500000 0.500000
-0.466174 -0.839888 -0.003598 0.000000 0.500000 0.500000
-0.233524 0.388509 -0.416010 0.000000 0.500000 0.500000
0.296493 0.121966 0.369408 0.000000 0.500000 0.500000
0.379811 -0.828049 0.258111 0.000000 0.500000 0.500000
0.300795 0.571398 0.362831 0.000000 0.500000 0.500000
0.206356 0.501681 -0.421968 0.000000 0.500000 0.500000
-0.224986 0.919215 0.169236 0.600000 0.000000 0.300000
0.455144 0.609881 0.007726 0.000000 0.500000 0.500000
0.468008 0.235915 0.020491 0.000000 0.500000 0.500000
-0.314578 0.915934 -0.263259 0.600000 0.000000 0.300000
0.028171 -0.772230 0.476788 0.000000 0.500000 0.500000
0.442803 -0.351947 -0.149067 0.000000 0.500000 0.500000
0.452921 0.122032 0.122989 0.000000 0.500000 0.500000
0.393603 -0.894216 0.088249 0.000000 0.500000 0.500000
-0.459422 -0.318782 -0.145092 0.000000 0.500000 0.500000
-0.442894 -0.817464 0.169558 0.000000 0.500000 0.500000
0.399576 0.259355 0.251458 0.000000 0.500000 0.500000
-0.443620 0.169807 -0.185176 0.000000 0.500000 0.500000
-0.132628 -0.913945 -0.210680 0.000000 0.500000 0.500000
-0.277398 0.919215 -0.154009 0.600000 0.000000 0.300000
0.043837 0.919215 -0.300898 0.600000 0.000000 0.300000
0.412815 -0.313778 -0.220346 0.000000 0.500000 0.500000
0.353164 0.136376 -0.306964 0.000000 0.500000 0.500000
-0.344275 -0.542481 -0.334293 0.000000 0.500000 0.500000
-0.479530 0.000445 -0.052060 0.000000 0.500000 0.500000
-0.221966 -0.502953 0.428967 0.000000 0.500000 0.500000
0.205720 -0.915972 -0.266112 0.000000 0.500000 0.500000
0.249094 -0.215514 -0.398314 0.000000 0.500000 0.500000
0.353901 0.679399 0.209836 0.300000 0.600000 0.000000
0.464017 0.135975 -0.056390 0.000000 0.500000 0.500000
-0.481375 0.502697 0.044959 0.000000 0.500000 0.500000
-0.124000 -0.052680 0.465102 0.000000 0.500000 0.500000
0.148155 0.919215 -0.306168 0.600000 0.000000 0.300000
-0.302287 0.741030 0.268703 0.300000 0.600000 0.000000
0.467395 -0.654896 0.026863 0.000000 0.500000 0.500000
0.207475 0.919215 0.033574 0.600000 0.000000 0.300000
0.449967 -0.679532 0.135261 0.000000 0.500000 0.500000
-0.243119 -0.868423 -0.369095 0.000000 0.500000 0.500000
0.275256 -0.917623 -0.009063 0.000000 0.500000 0.500000
-0.259289 -0.007575 0.408584 0.000000 0.500000 0.500000
-0.059657 0.232728 0.476083 0.000000 0.500000 0.500000
-0.264194 0.787858 -0.331681 0.600000 0.000000 0.300000
-0.153109 -0.894229 0.024206 0.000000 0.500000 0.500000
-0.346639 -0.670109 -0.331812 0.000000 0.500000 0.500000
-0.237724 0.760492 0.322936 0.300000 0.600000 0.000000
0.453683 -0.624080 0.121183 0.000000 0.500000 0.500000
0.119099 -0.912924 0.211149 0.000000 0.500000 0.500000
0.430212 0.067558 -0.181321 0.000000 0.500000 0.500000
0.292235 -0.206297 0.372426 0.000000 0.500000 0.500000
-0.370988 0.503204 0.310485 0.000000 0.500000 0.500000
-0.188704 -0.895194 -0.360869 0.000000 0.500000 0.500000
-0.046867 -0.697141 -0.470553 0.000000 0.500000 0.500000
0.295224 0.919215 0.160166 0.600000 0.000000 0.300000
0.273294 0.051402 0.387281 0.000000 0.500000 0.500000
-0.466403 0.164121 -0.123603 0.000000 0.500000 0.500000
-0.464604 -0.362484 -0.129211 0.000000 0.500000 0.500000
0.246470 -0.020907 0.407267 0.000000 0.500000 0.500000
0.285385 -0.063419 -0.370646 0.000000 0.500000 0.500000
0.467674 -0.718212 0.022554 0.000000 0.500000 0.500000
0.440517 -0.676089 0.163227 0.000000 0.500000 0.500000
-0.018579 0.025629 0.479398 0.000000 0.500000 0.500000
-0.217494 -0.837776 0.413638 0.000000 0.500000 0.500000
-0.335158 -0.916406 0.052702 0.000000 0.500000 0.500000
0.266458 0.831445 0.336336 0.600000 0.000000 0.300000
0.148278 -0.912072 -0.156608 0.000000 0.500000 0.500000
-0.365482 0.803424 0.243994 0.600000 0.000000 0.300000
0.164996 0.570851 0.443939 0.000000 0.500000 0.500000
-0.361992 -0.353495 -0.314956 0.000000 0.500000 0.500000
-0.114054 -0.033792 -0.460421 0.000000 0.500000 0.500000
-0.066435 0.919215 0.372757 0.600000 0.000000 0.300000
-0.314882 -0.858818 -0.323498 0.000000 0.500000 0.500000
-0.167709 0.790672 -0.389861 0.600000 0.000000 0.300000
-0.413294 0.149936 -0.246777 0.000000 0.500000 0.500000
0.284790 -0.892904 0.293141 0.000000 0.500000 0.500000
0.385435 -0.734514 0.272065 0.000000 0.500000 0.500000
0.036147 0.918078 -0.393561 0.600000 0.000000 0.300000
-0.459428 -0.073152 -0.145078 0.000000 0.500000 0.500000
-0.425271 -0.747516 -0.225720 0.000000 0.500000 0.500000
-0.483182 0.405041 0.015297 0.000000 0.500000 0.500000
-0.090006 -0.739190 -0.464416 0.000000 0.500000 0.500000
-0.136813 -0.127603 0.461716 0.000000 0.500000 0.500000
-0.040295 0.492534 0.478275 0.000000 0.500000 0.500000
0.439712 -0.578701 -0.158126 0.000000 0.500000 0.500000
-0.383450 0.743000 0.132006 0.300000 0.600000 0.000000
-0.434381 -0.070306 -0.207430 0.000000 0.500000 0.500000
0.297088 -0.101074 -0.361641 0.000000 0.500000 0.500000
-0.180383 0.919215 0.030970 0.600000 0.000000 0.300000
0.438157 -0.189621 -0.161233 0.000000 0.500000 0.500000
0.067464 -0.611377 -0.465775 0.000000 0.500000 0.500000
-0.035224 -0.423580 -0.471344 0.000000 0.500000 0.500000
-0.472382 0.540069 -0.094153 0.000000 0.500000 0.500000
0.243127 -0.671165 -0.402049 0.000000 0.500000 0.500000
0.004476 0.919215 0.334113 0.600000 0.000000 0.300000
0.267649 0.264599 -0.384311 0.000000 0.500000 0.500000
-0.217907 0.500835 0.430595 0.000000 0.500000 0.500000
0.030586 -0.514871 -0.470700 0.000000 0.500000 0.500000
-0.166047 0.795777 0.401189 0.600000 0.000000 0.300000
0.304955 -0.303837 0.362480 0.000000 0.500000 0.500000
-0.351823 -0.864933 -0.274787 0.000000 0.500000 0.500000
-0.345631 -0.069914 0.340188 0.000000 0.500000 0.500000
-0.377235 -0.711112 -0.295106 0.000000 0.500000 0.500000
-0.270770 0.097056 0.400563 0.000000 0.500000 0.500000
0.366313 -0.900567 0.130635 0.000000 0.500000 0.500000
0.339701 -0.091494 -0.322685 0.000000 0.500000 0.500000
0.435928 -0.778094 0.171836 0.000000 0.500000 0.500000
0.067408 0.353625 -0.465784 0.000000 0.500000 0.500000
-0.113211 -0.396138 -0.460588 0.000000 0.500000 0.500000
-0.236466 -0.476179 0.421858 0.000000 0.500000 0.500000
0.177439 -0.368301 0.441020 0.000000 0.500000 0.500000
0.280486 -0.572271 0.381094 0.000000 0.500000 0.500000
-0.166389 0.362906 0.451889 0.000000 0.500000 0.500000
0.185937 0.919215 -0.100612 0.600000 0.000000 0.300000
-0.464306 0.623181 0.000283 0.000000 0.500000 0.500000
0.320387 -0.908707 0.182150 0.000000 0.500000 0.500000
-0.262087 0.919215 0.214746 0.600000 0.000000 0.300000
0.407667 0.609149 0.210143 0.000000 0.500000 0.500000
0.279363 0.919215 -0.107746 0.600000 0.000000 0.300000
-0.032665 -0.774620 0.477153 0.000000 0.500000 0.500000
-0.236257 0.122953 0.421960 0.000000 0.500000 0.500000
0.468136 -0.539698 0.010157 0.000000 0.500000 0.500000
-0.357919 0.916988 0.209296 0.600000 0.000000 0.300000
0.467971 0.443143 -0.014106 0.000000 0.500000 0.500000
0.441496 -0.726660 0.160524 0.000000 0.500000 0.500000
-0.282803 -0.660179 -0.384128 0.000000 0.500000 0.500000
-0.461753 0.342721 0.145870 0.000000 0.500000 0.500000
-0.344414 -0.130788 0.341433 0.000000 0.500000 0.500000
0.070630 0.195586 0.472550 0.000000 0.500000 0.500000
0.458641 -0.043252 -0.089200 0.000000 0.500000 0.500000
0.463741 -0.734352 0.065341 0.000000 0.500000 0.500000
-0.294108 0.835810 -0.319276 0.600000 0.000000 0.300000
0.348179 0.328941 -0.313451 0.000000 0.500000 0.500000
-0.338461 0.721517 0.229017 0.300000 0.600000 0.000000
-0.073791 -0.897288 0.402994 0.000000 0.500000 0.500000
-0.242449 -0.288418 0.418924 0.000000 0.500000 0.500000
-0.386682 -0.023017 -0.282836 0.000000 0.500000 0.500000
0.008072 0.400293 0.479098 0.000000 0.500000 0.500000
-0.457507 0.508467 0.157478 0.000000 0.500000 0.500000
0.438699 0.546268 -0.158466 0.000000 0.500000 0.500000
0.012701 0.919215 0.291876 0.600000 0.000000 0.300000
0.433710 0.247330 -0.172861 0.000000 0.500000 0.500000
-0.454174 0.088106 0.166881 0.000000 0.500000 0.500000
-0.439797 0.614815 -0.150194 0.000000 0.500000 0.500000
0.183754 0.780533 -0.348630 0.600000 0.000000 0.300000
-0.053352 0.919215 0.220341 0.600000 0.000000 0.300000
-0.058722 0.664503 0.424143 0.300000 0.600000 0.000000
-0.103026 0.447171 -0.462308 0.000000 0.500000 0.500000
0.095578 -0.750281 -0.460594 0.000000 0.500000 0.500000
-0.204003 0.328538 0.436557 0.000000 0.500000 0.500000
0.221559 0.745132 -0.319590 0.300000 0.600000 0.000000
-0.411814 -0.553425 0.256439 0.000000 0.500000 0.500000
0.056580 -0.519289 -0.467296 0.000000 0.500000 0.500000
-0.174242 0.417828 -0.441605 0.000000 0.500000 0.500000
0.402609 -0.493884 0.246614 0.000000 0.500000 0.500000
-0.260055 0.592767 0.398171 0.000000 0.500000 0.500000
0.201340 -0.780913 -0.421859 0.000000 0.500000 0.500000
-0.249569 0.919215 0.101863 0.600000 0.000000 0.300000
-0.134729 -0.900043 -0.116269 0.000000 0.500000 0.500000
-0.107500 0.873978 0.424894 0.600000 0.000000 0.300000
0.271314 0.082898 0.388808 0.000000 0.500000 0.500000
-0.058488 0.477375 -0.469024 0.000000 0.500000 0.500000
-0.450551 0.352995 -0.168395 0.000000 0.500000 0.500000
-0.414040 -0.781736 0.248878 0.000000 0.500000 0.500000
-0.245359 -0.914304 -0.065397 0.000000 0.500000 0.500000
0.126384 0.912372 0.394762 0.600000 0.000000 0.300000
-0.300463 -0.905588 -0.243747 0.000000 0.500000 0.500000
-0.326918 -0.778539 0.355184 0.000000 0.500000 0.500000
-0.291568 -0.344904 0.384694 0.000000 0.500000 0.500000
-0.275095 0.623648 -0.365494 0.000000 0.500000 0.500000
0.342846 0.809806 -0.247289 0.600000 0.000000 0.300000
-0.142770 0.294259 0.460142 0.000000 0.500000 0.500000
0.212987 0.294116 0.426051 0.000000 0.500000 0.500000
-0.161319 0.104316 0.453733 0.000000 0.500000 0.500000
-0.208328 0.381468 0.434762 0.000000 0.500000 0.500000
0.404341 0.914767 0.002238 0.600000 0.000000 0.300000
0.181054 0.410113 -0.432588 0.000000 0.500000 0.500000
0.107380 -0.210207 0.465392 0.000000 0.500000 0.500000
0.371200 0.902305 0.194798 0.600000 0.000000 0.300000
0.119407 -0.883834 -0.401866 0.000000 0.500000 0.500000
-0.073056 -0.894595 -0.399622 0.000000 0.500000 0.500000
-0.188217 0.780543 0.360237 0.600000 0.000000 0.300000
0.443595 0.558069 0.151629 0.000000 0.500000 0.500000
-0.452422 -0.369706 0.171156 0.000000 0.500000 0.500000
0.255545 -0.820110 0.388460 0.000000 0.500000 0.500000
0.464286 0.184042 -0.054345 0.000000 0.500000 0.500000
-0.167766 -0.914435 -0.297716 0.000000 0.500000 0.500000
0.135147 0.919215 -0.090565 0.600000 0.000000 0.300000
-0.003216 0.910940 -0.414048 0.600000 0.000000 0.300000
-0.371086 0.591348 -0.291398 0.000000 0.500000 0.500000
-0.483525 -0.308647 0.007540 0.000000 0.500000 0.500000
0.221658 0.056441 -0.414496 0.000000 0.500000 0.500000
-0.335468 0.594059 -0.333780 0.000000 0.500000 0.500000
-0.330209 -0.651568 -0.347107 0.000000 0.500000 0.500000
0.241333 -0.592008 -0.403171 0.000000 0.500000 0.500000
0.340395 0.420186 -0.322221 0.000000 0.500000 0.500000
-0.211828 0.919215 0.192080 0.600000 0.000000 0.300000
-0.063336 -0.098501 -0.468387 0.000000 0.500000 0.500000
-0.298402 0.410900 0.379013 0.000000 0.500000 0.500000
-0.005907 0.072385 -0.472499 0.000000 0.500000 0.500000
0.285669 0.622425 0.354063 0.000000 0.500000 0.500000
-0.377389 0.101724 -0.294905 0.000000 0.500000 0.500000
0.461582 0.575664 0.051651 0.000000 0.500000 0.500000
0.067420 -0.912278 0.225767 0.000000 0.500000 0.500000
-0.220848 0.789436 0.374057 0.600000 0.000000 0.300000
0.437748 -0.851891 0.073496 0.000000 0.500000 0.500000
0.427604 -0.771716 -0.184815 0.000000 0.500000 0.500000
-0.127505 0.240783 -0.456866 0.000000 0.500000 0.500000
0.425824 0.010033 0.198360 0.000000 0.500000 0.500000
0.388323 -0.850768 0.224908 0.000000 0.500000 0.500000
0.056162 0.252355 -0.467351 0.000000 0.500000 0.500000
0.201554 -0.208735 -0.424093 0.000000 0.500000 0.500000
0.029534 -0.915973 0.336131 0.000000 0.500000 0.500000
-0.455543 -0.482465 0.163083 0.000000 0.500000 0.500000
-0.057535 -0.365739 0.476344 0.000000 0.500000 0.500000
0.144716 0.919215 -0.063976 0.600000 0.000000 0.300000
-0.246198 -0.916028 -0.219075 0.000000 0.500000 0.500000
0.454267 -0.248289 0.118966 0.000000 0.500000 0.500000
-0.479284 -0.206084 -0.053936 0.000000 0.500000 0.500000
0.289365 -0.763004 0.373290 0.000000 0.500000 0.500000
-0.051091 0.551137 0.475814 0.000000 0.500000 0.500000
0.462573 -0.068871 0.074437 0.000000 0.500000 0.500000
-0.177170 0.505798 0.447365 0.000000 0.500000 0.500000
-0.138636 0.919215 -0.187912 0.600000 0.000000 0.300000
-0.435889 0.505786 0.210971 0.000000 0.500000 0.500000
-0.468066 -0.533539 -0.116106 0.000000 0.500000 0.500000
0.463384 -0.670730 0.067866 0.000000 0.500000 0.500000
0.417962 0.016059 -0.209831 0.000000 0.500000 0.500000
0.029397 -0.916298 -0.328443 0.000000 0.500000 0.500000
0.208997 0.793687 0.375707 0.600000 0.000000 0.300000
0.420503 0.355604 0.211378 0.000000 0.500000 0.500000
-0.067266 0.623610 0.455542 0.000000 0.500000 0.500000
-0.474677 0.412987 -0.084547 0.000000 0.500000 0.500000
-0.105962 -0.889966 0.048942 0.000000 0.500000 0.500000
-0.230885 0.867589 -0.367789 0.600000 0.000000 0.300000
-0.213116 -0.907145 0.010425 0.000000 0.500000 0.500000
-0.024420 -0.118409 0.479137 0.000000 0.500000 0.500000
0.363141 -0.717610 0.301295 0.000000 0.500000 0.500000
-0.434927 0.266094 -0.206112 0.000000 0.500000 0.500000
-0.228921 0.233195 0.425557 0.000000 0.500000 0.500000
0.077166 -0.434735 0.471111 0.000000 0.500000 0.500000
0.356938 -0.876335 0.234947 0.000000 0.500000 0.500000
0.413300 0.898482 -0.059863 0.600000 0.000000 0.300000
0.238391 -0.916957 0.183426 0.000000 0.500000 0.500000
-0.134644 0.919215 0.016340 0.600000 0.000000 0.300000
-0.478451 0.231419 -0.060275 0.000000 0.500000 0.500000
-0.454707 -0.598316 -0.158117 0.000000 0.500000 0.500000
-0.325022 -0.836000 -0.332040 0.000000 0.500000 0.500000
0.359286 -0.907803 -0.101713 0.000000 0.500000 0.500000
0.395025 -0.010793 -0.251421 0.000000 0.500000 0.500000
-0.016309 0.919215 -0.069999 0.600000 0.000000 0.300000
-0.155832 0.317443 0.455728 0.000000 0.500000 0.500000
0.000534 0.557016 -0.470472 0.000000 0.500000 0.500000
-0.061044 0.919215 0.061443 0.600000 0.000000 0.300000
-0.164382 0.464506 0.452487 0.000000 0.500000 0.500000
0.327605 0.499427 -0.335786 0.000000 0.500000 0.500000
0.331261 -0.895956 0.224811 0.000000 0.500000 0.500000
0.003972 0.919215 -0.145989 0.600000 0.000000 0.300000
0.465497 0.346217 0.052326 0.000000 0.500000 0.500000
0.117243 -0.223726 -0.455603 0.000000 0.500000 0.500000
0.059584 0.919215 0.207502 0.600000 0.000000 0.300000
-0.290585 0.687594 0.295779 0.300000 0.600000 0.000000
0.450115 0.385946 0.134701 0.000000 0.500000 0.500000
0.014386 0.106348 0.478847 0.000000 0.500000 0.500000
0.046249 0.061887 0.475959 0.000000 0.500000 0.500000
0.133750 -0.449540 -0.451053 0.000000 0.500000 0.500000
-0.283791 0.905943 -0.313758 0.600000 0.000000 0.300000
-0.407288 0.868198 0.163866 0.600000 0.000000 0.300000
0.191404 -0.914308 0.276735 0.000000 0.500000 0.500000
-0.418463 -0.254718 0.245816 0.000000 0.500000 0.500000
0.110934 -0.093392 -0.457268 0.000000 0.500000 0.500000
-0.450427 -0.557790 -0.168697 0.000000 0.500000 0.500000
-0.387463 -0.688062 0.289140 0.000000 0.500000 0.500000
0.201672 0.919215 0.249059 0.600000 0.000000 0.300000
-0.408570 0.826722 0.160771 0.600000 0.000000 0.300000
-0.102079 -0.298561 0.469779 0.000000 0.500000 0.500000
-0.455803 0.305924 -0.155093 0.000000 0.500000 0.500000
0.468060 -0.379913 -0.004825 0.000000 0.500000 0.500000
0.377606 0.848731 -0.192136 0.600000 0.000000 0.300000
-0.407570 0.780280 0.074754 0.600000 0.000000 0.300000
-0.120589 0.919215 0.310272 0.600000 0.000000 0.300000
0.436489 0.412146 0.173459 0.000000 0.500000 0.500000
0.346796 -0.793912 0.316167 0.000000 0.500000 0.500000
-0.303930 -0.301993 0.375187 0.000000 0.500000 0.500000
0.102835 0.919215 -0.302572 0.600000 0.000000 0.300000
-0.359755 0.315274 0.324690 0.000000 0.500000 0.500000
0.462933 -0.203808 -0.064328 0.000000 0.500000 0.500000
-0.312049 0.386791 0.368520 0.000000 0.500000 0.500000
-0.069387 0.532289 -0.467378 0.000000 0.500000 0.500000
-0.015241 -0.286694 0.479547 0.000000 0.500000 0.500000
0.409045 0.800677 0.121012 0.600000 0.000000 0.300000
-0.370508 0.833609 -0.230717 0.600000 0.000000 0.300000
-0.303974 0.291555 -0.367846 0.000000 0.500000 0.500000
-0.428695 0.904571 0.031289 0.600000 0.000000 0.300000
0.288035 0.707509 0.275973 0.300000 0.600000 0.000000
-0.419884 0.784644 -0.068958 0.600000 0.000000 0.300000
-0.141307 -0.216343 -0.453221 0.000000 0.500000 0.500000
-0.075902 -0.002477 -0.466733 0.000000 0.500000 0.500000
0.251775 0.526514 -0.396327 0.000000 0.500000 0.500000
0.124234 0.049075 0.460908 0.000000 0.500000 0.500000
0.239686 -0.335841 0.411507 0.000000 0.500000 0.500000
0.039126 0.919215 0.007364 0.600000 0.000000 0.300000
0.253254 0.871745 -0.339158 0.600000 0.000000 0.300000
-0.229820 0.703686 -0.335157 0.300000 0.600000 0.000000
0.034109 -0.731632 0.477165 0.000000 0.500000 0.500000
-0.005415 -0.769175 -0.471409 0.000000 0.500000 0.500000
-0.470359 -0.139541 0.114621 0.000000 0.500000 0.500000
-0.413571 -0.194945 0.253632 0.000000 0.500000 0.500000
0.399403 -0.520745 0.251735 0.000000 0.500000 0.500000
-0.332933 -0.327718 0.351918 0.000000 0.500000 0.500000
0.292777 0.037849 -0.364951 0.000000 0.500000 0.500000
0.457462 -0.400254 0.105239 0.000000 0.500000 0.500000
0.280476 0.919215 0.195494 0.600000 0.000000 0.300000
0.076914 -0.917622 0.266400 0.000000 0.500000 0.500000
-0.362422 -0.451584 0.321694 0.000000 0.500000 0.500000
-0.481434 0.017200 0.044757 0.000000 0.500000 0.500000
0.141941 0.919215 -0.334875 0.600000 0.000000 0.300000
-0.404584 0.190820 -0.259534 0.000000 0.500000 0.500000
-0.175879 -0.899151 -0.020886 0.000000 0.500000 0.500000
-0.114926 -0.656368 -0.460191 0.000000 0.500000 0.500000
-0.312418 -0.389737 0.368663 0.000000 0.500000 0.500000
-0.168270 -0.252365 0.451056 0.000000 0.500000 0.500000
-0.237140 0.919215 -0.057114 0.600000 0.000000 0.300000
-0.253097 -0.612589 -0.405166 0.000000 0.500000 0.500000
0.119248 -0.906068 0.161406 0.000000 0.500000 0.500000
0.336406 -0.912188 0.097494 0.000000 0.500000 0.500000
0.293750 0.614116 -0.346301 0.000000 0.500000 0.500000
0.354552 0.610287 -0.282577 0.000000 0.500000 0.500000
0.366215 -0.649266 0.297306 0.000000 0.500000 0.500000
0.073685 -0.041695 0.472035 0.000000 0.500000 0.500000
-0.481405 -0.025937 0.044976 0.000000 0.500000 0.500000
0.456840 -0.364090 0.108921 0.000000 0.500000 0.500000
-0.341883 0.430189 0.343663 0.000000 0.500000 0.500000
-0.482586 -0.624579 0.028749 0.000000 0.500000 0.500000
0.467603 -0.726176 -0.015810 0.000000 0.500000 0.500000
-0.157431 0.423943 0.455146 0.000000 0.500000 0.500000
-0.025125 0.797771 0.433900 0.600000 0.000000 0.300000
0.114690 -0.793161 -0.452588 0.000000 0.500000 0.500000
0.073124 0.919215 -0.344544 0.600000 0.000000 0.300000
0.387635 0.601107 -0.243969 0.000000 0.500000 0.500000
-0.114757 0.551849 -0.458903 0.000000 0.500000 0.500000
0.269976 -0.727334 -0.382525 0.000000 0.500000 0.500000
0.405802 -0.874561 -0.130692 0.000000 0.500000 0.500000
-0.007294 -0.294419 -0.472560 0.000000 0.500000 0.500000
0.348042 0.759851 0.174088 0.300000 0.600000 0.000000
-0.044871 -0.015944 -0.470816 0.000000 0.500000 0.500000
-0.424361 -0.150375 0.235374 0.000000 0.500000 0.500000
0.259532 -0.527955 -0.390532 0.000000 0.500000 0.500000
0.094243 0.857429 -0.417362 0.600000 0.000000 0.300000
-0.189007 0.893281 -0.384290 0.600000 0.000000 0.300000
0.253296 0.823671 -0.339126 0.600000 0.000000 0.300000
-0.483584 -0.432326 0.006205 0.000000 0.500000 0.500000
-0.064090 0.650237 -0.426550 0.000000 0.500000 0.500000
0.123405 -0.396436 0.461200 0.000000 0.500000 0.500000
-0.452713 -0.658910 0.170444 0.000000 0.500000 0.500000
0.009770 -0.640747 0.478784 0.000000 0.500000 0.500000
-0.442961 0.378457 0.194019 0.000000 0.500000 0.500000
0.128850 0.919215 0.181095 0.600000 0.000000 0.300000
-0.395740 0.421407 0.278391 0.000000 0.500000 0.500000
0.455012 -0.743341 0.115296 0.000000 0.500000 0.500000
0.453593 -0.731851 -0.114292 0.000000 0.500000 0.500000
-0.357942 0.781673 -0.180660 0.600000 0.000000 0.300000
0.080294 0.017662 0.470919 0.000000 0.500000 0.500000
-0.245521 -0.051307 -0.409921 0.000000 0.500000 0.500000
0.441604 0.429780 -0.152926 0.000000 0.500000 0.500000
0.232074 0.427843 0.416116 0.000000 0.500000 0.500000
-0.058781 0.919215 0.024956 0.600000 0.000000 0.300000
-0.479863 -0.789550 0.013056 0.000000 0.500000 0.500000
0.035295 -0.806043 0.471497 0.000000 0.500000 0.500000
0.468379 -0.626705 0.002305 0.000000 0.500000 0.500000
-0.476252 -0.049407 -0.075224 0.000000 0.500000 0.500000
0.224193 -0.850233 -0.384837 0.000000 0.500000 0.500000
0.088629 -0.894567 0.112161 0.000000 0.500000 0.500000
-0.396154 -0.854989 -0.226757 0.000000 0.500000 0.500000
0.437585 0.388630 -0.163490 0.000000 0.500000 0.500000
-0.015422 0.919215 0.098565 0.600000 0.000000 0.300000
-0.470249 -0.194719 0.115036 0.000000 0.500000 0.500000
-0.423904 0.873352 0.123750 0.600000 0.000000 0.300000
0.461293 0.284839 -0.075314 0.000000 0.500000 0.500000
0.338642 0.676472 -0.225268 0.000000 0.500000 0.500000
0.123906 0.565224 0.459136 0.000000 0.500000 0.500000
0.370752 -0.421251 0.291418 0.000000 0.500000 0.500000
0.311201 0.318882 -0.350781 0.000000 0.500000 0.500000
0.016761 0.783463 0.420495 0.600000 0.000000 0.300000
0.234471 0.244687 0.414778 0.000000 0.500000 0.500000
0.074445 -0.907844 0.372142 0.000000 0.500000 0.500000
0.132465 -0.267401 0.458730 0.000000 0.500000 0.500000
0.393308 -0.365417 -0.254163 0.000000 0.500000 0.500000
-0.431083 0.419511 -0.214392 0.000000 0.500000 0.500000
-0.365179 -0.501154 0.318102 0.000000 0.500000 0.500000
0.048625 -0.857159 0.448369 0.000000 0.500000 0.500000
-0.334647 0.908698 0.262713 0.600000 0.000000 0.300000
-0.295532 -0.836172 0.363120 0.000000 0.500000 0.500000
0.460298 0.585759 -0.036869 0.000000 0.500000 0.500000
-0.439167 -0.351438 -0.195888 0.000000 0.500000 0.500000
0.245180 -0.916948 -0.206102 0.000000 0.500000 0.500000
0.029482 0.919215 -0.092518 0.600000 0.000000 0.300000
0.246722 0.278188 -0.399798 0.000000 0.500000 0.500000
-0.476041 -0.287948 -0.076474 0.000000 0.500000 0.500000
0.307488 0.517979 0.360835 0.000000 0.500000 0.500000
-0.320440 0.918890 -0.237709 0.600000 0.000000 0.300000
0.250027 0.626673 -0.370229 0.000000 0.500000 0.500000
-0.334166 0.919215 0.047104 0.600000 0.000000 0.300000
-0.404022 -0.838595 0.237475 0.000000 0.500000 0.500000
0.456281 0.247480 0.111339 0.000000 0.500000 0.500000
0.099928 0.919215 -0.106309 0.600000 0.000000 0.300000
0.114790 -0.725329 -0.456250 0.000000 0.500000 0.500000
0.189522 0.258289 0.436359 0.000000 0.500000 0.500000
-0.306551 -0.420290 -0.365864 0.000000 0.500000 0.500000
0.461090 -0.221898 0.082730 0.000000 0.500000 0.500000
0.196841 0.350835 0.433218 0.000000 0.500000 0.500000
0.402781 0.780973 0.028935 0.600000 0.000000 0.300000
0.464050 0.232839 0.063368 0.000000 0.500000 0.500000
-0.303852 -0.709019 -0.367940 0.000000 0.500000 0.500000
-0.186407 0.115465 -0.436586 0.000000 0.500000 0.500000
-0.000012 -0.551420 -0.472238 0.000000 0.500000 0.500000
-0.417558 -0.814697 -0.225756 0.000000 0.500000 0.500000
-0.473687 -0.746995 -0.088588 0.000000 0.500000 0.500000
-0.052286 -0.915097 -0.334154 0.000000 0.500000 0.500000
-0.466094 0.603802 -0.070211 0.000000 0.500000 0.500000
0.349965 0.213776 -0.311127 0.000000 0.500000 0.500000
-0.171561 -0.910551 -0.155965 0.000000 0.500000 0.500000
0.020904 -0.401512 0.478289 0.000000 0.500000 0.500000
0.271892 -0.717178 0.387896 0.000000 0.500000 0.500000
0.217886 -0.915674 0.128525 0.000000 0.500000 0.500000
-0.436983 -0.766668 -0.199296 0.000000 0.500000 0.500000
-0.418015 -0.806289 0.236067 0.000000 0.500000 0.500000
-0.368904 -0.775259 -0.304210 0.000000 0.500000 0.500000
-0.361830 -0.167897 -0.315137 0.000000 0.500000 0.500000
0.335249 0.614165 0.313691 0.000000 0.500000 0.500000
-0.260671 -0.126247 0.407716 0.000000 0.500000 0.500000
-0.196301 -0.159835 -0.432481 0.000000 0.500000 0.500000
-0.319461 -0.190614 -0.355944 0.000000 0.500000 0.500000
-0.008880 -0.910405 0.224991 0.000000 0.500000 0.500000
-0.317134 -0.912101 0.197318 0.000000 0.500000 0.500000
-0.384009 -0.295540 0.293617 0.000000 0.500000 0.500000
-0.082588 -0.006291 0.473070 0.000000 0.500000 0.500000
0.325107 0.279853 -0.338095 0.000000 0.500000 0.500000
0.431715 0.623468 -0.122016 0.000000 0.500000 0.500000
0.187721 -0.482427 -0.429826 0.000000 0.500000 0.500000
-0.188716 -0.420226 -0.435622 0.000000 0.500000 0.500000
0.138434 0.222049 -0.449292 0.000000 0.500000 0.500000
0.392427 -0.450960 -0.255379 0.000000 0.500000 0.500000
-0.093024 -0.260301 0.471308 0.000000 0.500000 0.500000
-0.235852 0.649990 0.375794 0.000000 0.500000 0.500000
-0.435916 -0.033767 -0.203727 0.000000 0.500000 0.500000
-0.383720 0.339258 0.293993 0.000000 0.500000 0.500000
-0.066792 -0.917639 0.296688 0.000000 0.500000 0.500000
-0.004053 -0.220484 0.479727 0.000000 0.500000 0.500000
0.221959 0.784804 -0.347909 0.600000 0.000000 0.300000
-0.404808 -0.731028 0.266554 0.000000 0.500000 0.500000
-0.477727 -0.465982 -0.065787 0.000000 0.500000 0.500000
-0.398158 0.802482 0.184615 0.600000 0.000000 0.300000
-0.375210 0.481525 -0.297742 0.000000 0.500000 0.500000
-0.168133 -0.816401 0.443320 0.000000 0.500000 0.500000
0.348075 0.445573 0.320650 0.000000 0.500000 0.500000
-0.217358 0.052397 -0.423753 0.000000 0.500000 0.500000
-0.030928 0.826492 -0.427665 0.600000 0.000000 0.300000
-0.143734 0.605387 0.448770 0.000000 0.500000 0.500000
0.115138 -0.357373 -0.456343 0.000000 0.500000 0.500000
-0.370125 0.719927 0.170218 0.300000 0.600000 0.000000
0.165677 -0.039585 0.446250 0.000000 0.500000 0.500000
0.400987 0.305118 0.249204 0.000000 0.500000 0.500000
0.365473 0.827428 -0.217801 0.600000 0.000000 0.300000
-0.340145 -0.894123 -0.234694 0.000000 0.500000 0.500000
0.155833 -0.423504 0.449956 0.000000 0.500000 0.500000
0.379155 -0.575470 0.280494 0.000000 0.500000 0.500000
0.180350 -0.909491 0.320693 0.000000 0.500000 0.500000
0.327481 -0.454018 0.343149 0.000000 0.500000 0.500000
-0.339236 -0.901673 0.221485 0.000000 0.500000 0.500000
0.214379 0.632191 0.396546 0.000000 0.500000 0.500000
-0.481193 0.113430 -0.039405 0.000000 0.500000 0.500000
0.066983 -0.584367 -0.465856 0.000000 0.500000 0.500000
0.353969 0.783247 -0.144952 0.600000 0.000000 0.300000
-0.355337 0.384921 0.329535 0.000000 0.500000 0.500000
-0.020660 0.919121 -0.389720 0.600000 0.000000 0.300000
0.261384 0.471512 0.396009 0.000000 0.500000 0.500000
-0.459862 0.216597 0.151112 0.000000 0.500000 0.500000
0.392085 0.694193 -0.092933 0.300000 0.600000 0.000000
-0.066912 -0.908389 0.203865 0.000000 0.500000 0.500000
0.262770 -0.068528 0.395364 0.000000 0.500000 0.500000
0.455055 -0.089373 -0.107695 0.000000 0.500000 0.500000
-0.427958 0.622809 0.178965 0.000000 0.500000 0.500000
-0.143868 -0.896337 -0.068279 0.000000 0.500000 0.500000
-0.263793 -0.492875 0.405484 0.000000 0.500000 0.500000
-0.478527 0.183203 0.066924 0.000000 0.500000 0.500000
0.343523 -0.226951 -0.318795 0.000000 0.500000 0.500000
-0.461964 -0.066396 0.145285 0.000000 0.500000 0.500000
-0.135678 0.774353 0.373243 0.300000 0.600000 0.000000
-0.463151 -0.724481 -0.134705 0.000000 0.500000 0.500000
0.181564 0.912046 -0.365120 0.600000 0.000000 0.300000
0.160651 0.728585 0.363127 0.300000 0.600000 0.000000
-0.045048 -0.199044 -0.470793 0.000000 0.500000 0.500000
0.453983 -0.709229 0.120046 0.000000 0.500000 0.500000
-0.367345 -0.407846 -0.307983 0.000000 0.500000 0.500000
0.125159 0.288363 0.460601 0.000000 0.500000 0.500000
0.341500 -0.527190 -0.321011 0.000000 0.500000 0.500000
0.005780 0.534567 0.478952 0.000000 0.500000 0.500000
-0.397645 0.909237 -0.143173 0.600000 0.000000 0.300000
-0.470808 -0.624626 0.112918 0.000000 0.500000 0.500000
0.131310 -0.908402 -0.348548 0.000000 0.500000 0.500000
0.450908 0.146382 0.131100 0.000000 0.500000 0.500000
0.141691 -0.896798 -0.061839 0.000000 0.500000 0.500000
0.084822 -0.471536 -0.462845 0.000000 0.500000 0.500000
-0.129341 0.911834 0.400592 0.600000 0.000000 0.300000
-0.260789 0.919215 -0.254851 0.600000 0.000000 0.300000
-0.363359 0.556053 0.318499 0.000000 0.500000 0.500000
-0.392721 0.467914 -0.274991 0.000000 0.500000 0.500000
-0.089099 -0.135997 0.471971 0.000000 0.500000 0.500000
0.345040 -0.501948 -0.317135 0.000000 0.500000 0.500000
0.467247 -0.176906 0.025584 0.000000 0.500000 0.500000
-0.456122 0.263481 0.161480 0.000000 0.500000 0.500000
-0.374510 0.919215 0.093153 0.600000 0.000000 0.300000
-0.403708 0.072243 -0.260674 0.000000 0.500000 0.500000
-0.247666 0.766790 -0.297596 0.300000 0.600000 0.000000
-0.038808 -0.612367 0.478163 0.000000 0.500000 0.500000
-0.303632 -0.913136 -0.186890 0.000000 0.500000 0.500000
-0.307238 -0.046368 0.372538 0.000000 0.500000 0.500000
0.023560 -0.904364 -0.187006 0.000000 0.500000 0.500000
0.295182 -0.571962 -0.363105 0.000000 0.500000 0.500000
0.360508 0.642302 -0.243859 0.000000 0.500000 0.500000
-0.268049 0.676629 0.325299 0.000000 0.500000 0.500000
0.380892 0.919215 0.010827 0.600000 0.000000 0.300000
0.466104 0.290456 0.047698 0.000000 0.500000 0.500000
0.457549 0.227029 -0.097481 0.000000 0.500000 0.500000
0.282026 0.169773 0.380547 0.000000 0.500000 0.500000
0.239397 -0.917026 -0.079082 0.000000 0.500000 0.500000
0.321694 -0.295754 -0.341208 0.000000 0.500000 0.500000
-0.395870 -0.425374 0.278221 0.000000 0.500000 0.500000
-0.452854 -0.669610 -0.162822 0.000000 0.500000 0.500000
-0.125079 -0.252847 0.464785 0.000000 0.500000 0.500000
-0.469038 0.475462 0.119626 0.000000 0.500000 0.500000
0.089953 -0.581168 0.468854 0.000000 0.500000 0.500000
-0.283731 -0.383188 0.390720 0.000000 0.500000 0.500000
-0.160548 0.919215 -0.227570 0.600000 0.000000 0.300000
0.391324 -0.898915 -0.045182 0.000000 0.500000 0.500000
-0.277042 -0.915874 -0.183123 0.000000 0.500000 0.500000
0.242402 0.903437 0.344107 0.600000 0.000000 0.300000
0.097289 0.086504 0.468050 0.000000 0.500000 0.500000
0.202157 -0.356328 0.430775 0.000000 0.500000 0.500000
-0.018240 0.823234 0.436645 0.600000 0.000000 0.300000
-0.107625 -0.694803 -0.461533 0.000000 0.500000 0.500000
0.417933 -0.130510 -0.209890 0.000000 0.500000 0.500000
-0.472659 -0.791039 0.082819 0.000000 0.500000 0.500000
0.070217 -0.898524 -0.151207 0.000000 0.500000 0.500000
0.331887 -0.423722 0.338813 0.000000 0.500000 0.500000
-0.183524 0.919215 0.104765 0.600000 0.000000 0.300000
0.210660 -0.490881 -0.419888 0.000000 0.500000 0.500000
-0.251378 0.134275 -0.406246 0.000000 0.500000 0.500000
0.120637 0.919215 0.136592 0.600000 0.000000 0.300000
-0.152831 0.833270 0.409623 0.600000 0.000000 0.300000
0.151043 0.725533 -0.362427 0.300000 0.600000 0.000000
0.153554 -0.916634 0.223688 0.000000 0.500000 0.500000
0.416917 -0.801038 0.208915 0.000000 0.500000 0.500000
0.365095 -0.502509 0.298760 0.000000 0.500000 0.500000
0.453233 0.070697 0.121535 0.000000 0.500000 0.500000
0.178941 -0.779154 0.437746 0.000000 0.500000 0.500000
-0.194167 -0.908619 -0.107448 0.000000 0.500000 0.500000
-0.142708 0.919215 0.226792 0.600000 0.000000 0.300000
-0.274305 -0.058129 0.397958 0.000000 0.500000 0.500000
0.400148 -0.154064 -0.243255 0.000000 0.500000 0.500000
0.229688 0.451475 -0.410461 0.000000 0.500000 0.500000
-0.262064 -0.780183 0.404302 0.000000 0.500000 0.500000
-0.103239 -0.872873 0.428808 0.000000 0.500000 0.500000
-0.234618 0.183380 -0.415476 0.000000 0.500000 0.500000
0.005392 0.469158 -0.471999 0.000000 0.500000 0.500000
0.460202 -0.287286 0.088994 0.000000 0.500000 0.500000
0.091911 0.615232 0.453720 0.000000 0.500000 0.500000
-0.148949 0.651824 0.414951 0.000000 0.500000 0.500000
-0.387936 -0.559812 0.288526 0.000000 0.500000 0.500000
-0.424380 -0.888830 -0.036838 0.000000 0.500000 0.500000
0.409576 0.295865 -0.226956 0.000000 0.500000 0.500000
0.370015 -0.312261 0.292375 0.000000 0.500000 0.500000
-0.352317 0.919215 0.176118 0.600000 0.000000 0.300000
-0.241715 0.494491 0.419264 0.000000 0.500000 0.500000
0.440395 0.298502 0.163563 0.000000 0.500000 0.500000
0.222843 -0.731804 0.420757 0.000000 0.500000 0.500000
0.369186 -0.737908 -0.286034 0.000000 0.500000 0.500000
-0.247493 0.919215 0.278337 0.600000 0.000000 0.300000
0.341977 0.398245 0.327654 0.000000 0.500000 0.500000
-0.249289 -0.401858 0.414862 0.000000 0.500000 0.500000
-0.417765 0.099134 -0.239657 0.000000 0.500000 0.500000
-0.420804 0.594780 -0.219020 0.000000 0.500000 0.500000
-0.031602 0.919215 0.069077 0.600000 0.000000 0.300000
-0.261942 0.753204 0.305350 0.300000 0.600000 0.000000
-0.466872 -0.442935 -0.120626 0.000000 0.500000 0.500000
-0.478201 -0.171787 0.069415 0.000000 0.500000 0.500000
0.413599 -0.885367 -0.038771 0.000000 0.500000 0.500000
0.240366 -0.598825 0.410899 0.000000 0.500000 0.500000
-0.182387 0.652880 -0.391631 0.000000 0.500000 0.500000
-0.385027 0.046485 0.292298 0.000000 0.500000 0.500000
-0.338005 -0.423083 0.347285 0.000000 0.500000 0.500000
-0.450653 -0.323681 -0.168142 0.000000 0.500000 0.500000
0.312002 0.026360 0.357358 0.000000 0.500000 0.500000
-0.010696 -0.713794 -0.472440 0.000000 0.500000 0.500000
-0.126465 0.919215 0.117582 0.600000 0.000000 0.300000
-0.092396 0.919215 0.332102 0.600000 0.000000 0.300000
-0.354446 -0.499254 -0.323242 0.000000 0.500000 0.500000
0.308438 0.864026 -0.292132 0.600000 0.000000 0.300000
0.457627 0.175520 0.103890 0.000000 0.500000 0.500000
-0.040737 -0.173650 -0.471098 0.000000 0.500000 0.500000
0.351089 0.046840 -0.309666 0.000000 0.500000 0.500000
0.185518 -0.386310 -0.430748 0.000000 0.500000 0.500000
-0.305769 0.181819 -0.366465 0.000000 0.500000 0.500000
-0.410009 0.292247 -0.252009 0.000000 0.500000 0.500000
0.151105 -0.896325 0.012516 0.000000 0.500000 0.500000
-0.117264 0.919215 -0.293681 0.600000 0.000000 0.300000
-0.060378 -0.407855 0.475884 0.000000 0.500000 0.500000
0.299901 0.361269 0.366559 0.000000 0.500000 0.500000
0.245951 0.919215 -0.090884 0.600000 0.000000 0.300000
0.017661 0.354611 -0.471456 0.000000 0.500000 0.500000
0.318182 -0.850685 -0.310520 0.000000 0.500000 0.500000
0.467543 -0.768180 0.003804 0.000000 0.500000 0.500000
-0.479544 -0.333414 0.059173 0.000000 0.500000 0.500000
-0.401694 0.641242 -0.194778 0.000000 0.500000 0.500000
0.425158 0.865118 0.017163 0.600000 0.000000 0.300000
-0.123845 -0.905131 -0.155212 0.000000 0.500000 0.500000
-0.455582 -0.702744 0.162978 0.000000 0.500000 0.500000
-0.366100 -0.746573 0.316379 0.000000 0.500000 0.500000
0.238047 0.919215 0.224798 0.600000 0.000000 0.300000
0.239817 0.919215 -0.062964 0.600000 0.000000 0.300000
-0.235840 -0.688369 -0.414873 0.000000 0.500000 0.500000
0.247420 -0.916279 -0.003411 0.000000 0.500000 0.500000
-0.297203 -0.320594 -0.373055 0.000000 0.500000 0.500000
0.076553 -0.305427 -0.464241 0.000000 0.500000 0.500000
-0.043135 -0.917479 -0.280583 0.000000 0.500000 0.500000
-0.390406 0.893021 -0.190207 0.600000 0.000000 0.300000
0.267497 -0.115029 -0.384427 0.000000 0.500000 0.500000
-0.111413 0.893594 -0.414131 0.600000 0.000000 0.300000
0.133683 -0.562129 -0.451007 0.000000 0.500000 0.500000
0.408658 -0.289176 0.236111 0.000000 0.500000 0.500000
0.461422 -0.370357 0.081759 0.000000 0.500000 0.500000
0.332530 -0.246700 -0.330834 0.000000 0.500000 0.500000
-0.482169 0.067195 0.038185 0.000000 0.500000 0.500000
0.374829 0.660332 -0.187390 0.000000 0.500000 0.500000
-0.216711 -0.379668 -0.424014 0.000000 0.500000 0.500000
0.117807 0.752509 -0.371152 0.300000 0.600000 0.000000
0.407575 -0.214183 0.238319 0.000000 0.500000 0.500000
-0.133731 0.417113 -0.455222 0.000000 0.500000 0.500000
0.465554 0.396897 0.051894 0.000000 0.500000 0.500000
0.123677 0.268169 -0.453905 0.000000 0.500000 0.500000
0.467058 -0.572819 0.034466 0.000000 0.500000 0.500000
-0.411421 -0.442818 0.257068 0.000000 0.500000 0.500000
-0.121853 0.687895 -0.394029 0.300000 0.600000 0.000000
-0.364447 0.671276 0.225192 0.000000 0.500000 0.500000
0.421894 0.381121 -0.200831 0.000000 0.500000 0.500000
-0.051234 -0.911956 0.364904 0.000000 0.500000 0.500000
0.459705 -0.610977 -0.084712 0.000000 0.500000 0.500000
0.124284 0.542992 -0.453103 0.000000 0.500000 0.500000
0.335788 0.882704 0.263348 0.600000 0.000000 0.300000
0.274545 0.919215 -0.258911 0.600000 0.000000 0.300000
0.409296 0.882659 -0.114920 0.600000 0.000000 0.300000
-0.039839 -0.085628 -0.471138 0.000000 0.500000 0.500000
0.457722 -0.535207 -0.096454 0.000000 0.500000 0.500000
-0.408547 -0.066489 0.261660 0.000000 0.500000 0.500000
0.189636 -0.881055 -0.376617 0.000000 0.500000 0.500000
-0.482811 0.285597 0.023677 0.000000 0.500000 0.500000
0.318574 -0.916535 -0.041350 0.000000 0.500000 0.500000
-0.080947 -0.195087 0.473347 0.000000 0.500000 0.500000
-0.207623 0.325992 -0.427788 0.000000 0.500000 0.500000
0.467390 0.263770 -0.027127 0.000000 0.500000 0.500000
0.105703 -0.890468 -0.009208 0.000000 0.500000 0.500000
-0.483487 -0.338841 -0.001318 0.000000 0.500000 0.500000
-0.470539 -0.280048 0.113936 0.000000 0.500000 0.500000
-0.399988 -0.896095 -0.105636 0.000000 0.500000 0.500000
-0.384840 -0.493789 0.292540 0.000000 0.500000 0.500000
0.434106 0.188413 -0.171903 0.000000 0.500000 0.500000
-0.007046 0.206020 0.479698 0.000000 0.500000 0.500000
