ply
format ascii 1.0
element vertex 615
property float x
property float y
property float z
property float nx
property float ny
property float nz
property uchar red
property uchar green
property uchar blue
property float opacity
end_header
-0.029129 -0.650708 -0.018692 0.000000 -0.000000 1.000000 198 198 198 1.000000
0.050220 0.302008 -0.090088 -1.000000 0.000000 0.000000 198 198 198 1.000000
-0.006449 -0.444769 -0.018692 0.000000 -0.000000 1.000000 198 198 198 1.000000
-0.100569 -0.320194 -0.111622 1.000000 0.000000 0.000000 198 198 198 1.000000
0.044257 0.373918 -0.068535 0.726135 -0.039554 0.686413 198 198 198 1.000000
-0.056792 0.693847 -0.095439 -0.968251 0.124470 -0.216789 198 198 198 1.000000
0.050220 0.838650 0.466801 1.000000 0.000000 0.000000 198 198 198 1.000000
-0.047880 0.643251 0.588280 0.561973 0.397091 0.725607 198 198 198 1.000000
-0.017594 0.075515 -0.061774 0.000000 -0.000000 1.000000 198 198 198 1.000000
0.050220 0.787487 0.577058 -1.000000 0.000000 0.000000 198 198 198 1.000000
0.093302 -0.501409 -0.175663 1.000000 0.000000 0.000000 198 198 198 1.000000
0.334013 -0.255949 -0.141385 0.851209 -0.451771 0.267106 198 198 198 1.000000
0.076617 -0.519866 -0.019331 0.242507 -0.000000 0.970150 198 198 198 1.000000
0.245173 -0.460715 -0.171081 -0.990525 0.064632 0.121171 42 42 42 1.000000
-0.057089 0.748496 0.521759 0.980210 0.145511 0.134218 198 198 198 1.000000
0.049507 0.627819 0.688709 0.967914 0.087474 0.235566 198 198 198 1.000000
0.093302 -0.482664 -0.076648 1.000000 0.000000 0.000000 198 198 198 1.000000
0.066841 -0.354569 -0.018692 0.000000 0.000000 -1.000000 198 198 198 1.000000
0.419519 -0.387721 -0.139734 -0.769018 0.593984 0.236209 198 198 198 1.000000
-0.100569 -0.285390 -0.101239 -1.000000 0.000000 0.000000 198 198 198 1.000000
-0.028765 0.148182 -0.061774 0.000000 -0.000000 1.000000 198 198 198 1.000000
0.335029 -0.095810 -0.145371 0.936222 -0.029466 0.350171 198 198 198 1.000000
-0.057487 0.832183 0.384581 1.000000 0.000000 0.000000 198 198 198 1.000000
-0.021264 -0.663958 -0.166113 0.000000 -1.000000 -0.000000 198 198 198 1.000000
0.033962 0.631681 -0.023963 0.255680 -0.433618 0.864062 198 198 198 1.000000
-0.039870 -0.126280 -0.062291 -0.221341 -0.009767 0.975147 198 198 198 1.000000
-0.012010 0.567726 -0.049701 0.000000 -0.261209 0.965282 198 198 198 1.000000
0.119152 -0.692888 -0.206585 1.000000 0.000000 0.000000 198 198 198 1.000000
-0.223136 -0.334788 -0.179448 0.029658 -0.885065 0.464521 42 42 42 1.000000
-0.022052 -0.233134 -0.057460 0.000000 -1.000000 -0.000000 198 198 198 1.000000
-0.057487 0.774994 0.509853 -1.000000 0.000000 0.000000 198 198 198 1.000000
-0.343270 -0.232135 -0.153419 0.566557 0.213668 -0.795839 198 198 198 1.000000
-0.100569 -0.365264 -0.117927 1.000000 0.000000 0.000000 42 42 42 1.000000
0.093302 -0.635836 -0.079783 1.000000 0.000000 0.000000 198 198 198 1.000000
-0.008098 -0.670472 -0.003303 0.003583 -0.698699 -0.715407 198 198 198 1.000000
0.000271 0.020309 -0.061774 0.000000 0.000000 -1.000000 198 198 198 1.000000
-0.100569 -0.311772 -0.165525 1.000000 0.000000 0.000000 198 198 198 1.000000
0.419740 -0.349367 -0.103998 1.000000 0.000000 0.000000 198 198 198 1.000000
0.341973 -0.403260 -0.159597 0.000000 0.000000 -1.000000 198 198 198 1.000000
-0.100569 -0.459530 -0.185215 1.000000 0.000000 0.000000 42 42 42 1.000000
0.024345 0.715198 0.034386 0.000000 0.690880 -0.722969 198 198 198 1.000000
-0.100569 -0.292569 -0.169195 1.000000 0.000000 0.000000 198 198 198 1.000000
-0.034210 -0.233134 -0.194924 0.000000 -1.000000 -0.000000 198 198 198 1.000000
-0.100569 -0.349322 -0.102111 -1.000000 0.000000 0.000000 198 198 198 1.000000
-0.422268 -0.387114 -0.089765 -0.744542 -0.572368 0.343586 198 198 198 1.000000
-0.380968 -0.160956 -0.073432 0.000000 -0.000000 1.000000 198 198 198 1.000000
0.379030 -0.449727 -0.137436 0.000000 1.000000 0.000000 198 198 198 1.000000
-0.054986 0.684766 0.569484 -0.891325 -0.259707 -0.371607 198 198 198 1.000000
-0.063000 -0.495723 -0.212563 0.000000 0.000000 -1.000000 198 198 198 1.000000
0.039197 -0.071562 -0.166699 -0.489382 -0.013212 0.871969 198 198 198 1.000000
0.030158 0.051640 -0.061969 0.165102 -0.025585 0.985945 198 198 198 1.000000
0.370681 -0.083526 -0.107771 0.000000 1.000000 0.000000 198 198 198 1.000000
0.031383 -0.663958 -0.111130 0.000000 1.000000 0.000000 198 198 198 1.000000
-0.057487 0.865379 0.231655 -1.000000 0.000000 0.000000 198 198 198 1.000000
-0.030042 0.235139 -0.169480 0.000000 0.000000 -1.000000 198 198 198 1.000000
0.113187 -0.367344 -0.040233 0.009400 0.048999 0.998755 42 42 42 1.000000
-0.057487 0.842469 0.116426 -1.000000 0.000000 0.000000 198 198 198 1.000000
0.419357 -0.205212 -0.092070 0.940151 -0.236094 0.245714 198 198 198 1.000000
-0.009125 -0.711349 -0.224913 0.000000 1.000000 0.000000 198 198 198 1.000000
0.093302 -0.621927 -0.048807 -1.000000 0.000000 0.000000 198 198 198 1.000000
-0.017511 0.769692 0.463712 0.000000 0.850152 0.526537 198 198 198 1.000000
0.093302 -0.554726 -0.043187 -1.000000 0.000000 0.000000 198 198 198 1.000000
-0.251358 -0.395249 -0.131911 1.000000 0.000000 0.000000 42 42 42 1.000000
-0.044745 0.477727 0.665346 0.000000 -1.000000 -0.000000 198 198 198 1.000000
0.015308 -0.663958 -0.035134 0.000000 1.000000 0.000000 198 198 198 1.000000
-0.057487 0.080420 -0.104330 -1.000000 0.000000 0.000000 198 198 198 1.000000
-0.021018 -0.233134 -0.160534 0.000000 -1.000000 -0.000000 198 198 198 1.000000
0.400162 -0.387637 -0.073690 0.104548 -0.073044 0.991834 198 198 198 1.000000
-0.007432 0.645585 -0.133034 0.000000 0.374252 -0.927327 198 198 198 1.000000
-0.004109 0.113582 -0.169480 0.000000 -0.000000 1.000000 198 198 198 1.000000
-0.057487 0.898478 0.249270 1.000000 0.000000 0.000000 198 198 198 1.000000
0.093302 -0.373322 -0.151967 -1.000000 0.000000 0.000000 198 198 198 1.000000
-0.100569 -0.253523 -0.146057 -1.000000 0.000000 0.000000 198 198 198 1.000000
0.005770 0.477727 0.692732 0.000000 -1.000000 -0.000000 198 198 198 1.000000
-0.100569 -0.557748 -0.071458 1.000000 0.000000 0.000000 198 198 198 1.000000
0.196171 -0.383964 -0.040233 -0.051400 -0.028769 -0.998264 42 42 42 1.000000
0.419740 -0.114252 -0.098995 -1.000000 0.000000 0.000000 198 198 198 1.000000
0.049756 0.782359 0.088965 0.977889 -0.175276 0.114064 198 198 198 1.000000
0.065344 -0.641141 -0.018692 0.000000 -0.000000 1.000000 198 198 198 1.000000
0.084956 -0.233134 -0.051899 0.000000 -1.000000 -0.000000 198 198 198 1.000000
-0.368696 -0.083526 -0.083994 0.000000 1.000000 0.000000 198 198 198 1.000000
-0.026825 -0.508551 -0.212563 0.000000 -0.000000 1.000000 198 198 198 1.000000
0.038018 -0.367797 -0.018692 0.000000 0.000000 -1.000000 198 198 198 1.000000
0.245383 -0.430347 -0.153354 0.998567 -0.027611 -0.045852 42 42 42 1.000000
-0.419493 -0.248868 -0.083453 0.740201 0.240677 -0.627835 198 198 198 1.000000
-0.012014 0.040809 -0.061774 0.000000 -0.000000 1.000000 198 198 198 1.000000
0.025420 0.886052 0.469078 0.000000 0.909870 0.414893 198 198 198 1.000000
0.093302 -0.284952 -0.056516 1.000000 0.000000 0.000000 198 198 198 1.000000
0.050220 0.845450 0.204039 1.000000 0.000000 0.000000 198 198 198 1.000000
0.050220 0.848515 0.168900 -1.000000 0.000000 0.000000 198 198 198 1.000000
-0.012901 0.316323 -0.061774 0.000000 0.000000 -1.000000 198 198 198 1.000000
-0.057487 0.842904 0.057495 1.000000 0.000000 0.000000 198 198 198 1.000000
0.010551 0.711353 0.668935 0.000000 -0.517745 -0.855535 198 198 198 1.000000
-0.113631 -0.668603 -0.042724 -0.611260 0.790914 0.028559 198 198 198 1.000000
-0.057487 0.161930 -0.094314 1.000000 0.000000 0.000000 198 198 198 1.000000
0.333828 -0.113491 -0.093047 0.979574 -0.076626 -0.185912 198 198 198 1.000000
-0.363134 -0.226015 -0.073432 0.000000 0.000000 -1.000000 198 198 198 1.000000
-0.010848 0.927479 0.302746 0.000000 0.999026 0.044117 198 198 198 1.000000
0.036828 0.917937 0.361434 0.386690 0.907118 0.166157 198 198 198 1.000000
0.048757 0.652818 -0.114660 0.941023 0.144362 -0.306000 198 198 198 1.000000
-0.012204 -0.711349 -0.196260 0.000000 1.000000 0.000000 198 198 198 1.000000
-0.369974 -0.447387 -0.085520 -0.436528 -0.710209 0.552310 198 198 198 1.000000
0.003703 0.899690 0.129617 0.000000 -0.939916 0.341405 198 198 198 1.000000
-0.024384 0.665800 0.569290 0.000000 0.548903 0.835886 198 198 198 1.000000
0.382774 -0.083526 -0.143433 0.000000 -1.000000 -0.000000 198 198 198 1.000000
-0.336805 -0.141767 -0.094845 0.976668 0.151957 0.151753 198 198 198 1.000000
0.046012 -0.663958 -0.028297 0.000000 1.000000 0.000000 198 198 198 1.000000
0.257593 -0.421548 -0.073432 0.000000 -0.000000 1.000000 198 198 198 1.000000
0.094594 -0.479382 -0.152357 1.000000 0.000000 0.000000 42 42 42 1.000000
-0.057487 0.560927 0.679939 -1.000000 0.000000 0.000000 198 198 198 1.000000
-0.057487 0.749512 0.567994 1.000000 0.000000 0.000000 198 198 198 1.000000
0.048580 -0.666340 -0.009140 -0.020438 -0.894794 -0.446012 198 198 198 1.000000
0.252191 -0.363972 -0.141166 -0.039236 0.977230 -0.208526 198 198 198 1.000000
0.288028 -0.441612 -0.078356 0.069230 -0.581904 0.810306 198 198 198 1.000000
0.396520 -0.085469 -0.159597 0.000000 0.000000 -1.000000 198 198 198 1.000000
-0.094050 -0.322827 -0.024840 0.698436 0.000000 -0.715672 198 198 198 1.000000
-0.364522 -0.410698 -0.159597 0.000000 0.000000 -1.000000 198 198 198 1.000000
0.047910 -0.613589 -0.018692 0.000000 0.000000 -1.000000 198 198 198 1.000000
-0.146139 -0.332235 -0.104047 0.000000 -1.000000 -0.000000 42 42 42 1.000000
-0.100569 -0.476325 -0.087388 1.000000 0.000000 0.000000 198 198 198 1.000000
-0.057487 0.843638 0.256704 -1.000000 0.000000 0.000000 198 198 198 1.000000
0.066190 -0.495080 -0.212563 0.000000 0.000000 -1.000000 198 198 198 1.000000
0.338536 -0.282018 -0.151531 -0.574742 0.352907 -0.738328 198 198 198 1.000000
-0.005035 -0.663958 -0.095188 0.000000 -1.000000 -0.000000 198 198 198 1.000000
0.008705 0.477077 -0.169480 0.000000 0.000000 -1.000000 198 198 198 1.000000
-0.050071 0.427236 -0.164020 -0.660736 0.045079 -0.749263 198 198 198 1.000000
-0.056930 -0.070331 -0.152163 -0.973693 0.003881 -0.227831 198 198 198 1.000000
-0.350014 -0.197863 -0.075301 0.298267 0.106403 0.948533 198 198 198 1.000000
-0.234495 -0.391905 -0.190406 0.231710 -0.015696 0.972658 42 42 42 1.000000
-0.043885 -0.663958 -0.148987 0.000000 -1.000000 -0.000000 198 198 198 1.000000
-0.056276 0.790797 0.107053 -0.950292 -0.271158 0.153032 198 198 198 1.000000
-0.049402 0.640170 -0.129923 -0.636111 0.275978 -0.720555 198 198 198 1.000000
0.046308 0.864017 0.068149 0.827177 0.492266 -0.271022 198 198 198 1.000000
-0.100386 -0.503954 -0.038843 -0.986663 -0.000000 0.162774 198 198 198 1.000000
0.419740 -0.415935 -0.104613 -1.000000 0.000000 0.000000 198 198 198 1.000000
-0.128913 -0.332235 -0.109868 0.000000 -1.000000 -0.000000 42 42 42 1.000000
0.045136 -0.091625 -0.069680 0.770290 -0.009265 0.637626 198 198 198 1.000000
-0.026360 0.270851 -0.061774 0.000000 -0.000000 1.000000 198 198 198 1.000000
-0.045939 0.924797 0.262303 -0.470872 0.881299 -0.039902 198 198 198 1.000000
-0.057487 0.815688 0.065303 -1.000000 0.000000 0.000000 198 198 198 1.000000
0.094594 -0.429221 -0.118226 -1.000000 0.000000 0.000000 42 42 42 1.000000
-0.285878 -0.410769 -0.073432 0.000000 -0.000000 1.000000 198 198 198 1.000000
-0.057487 0.706677 0.631138 1.000000 0.000000 0.000000 198 198 198 1.000000
-0.002321 -0.653732 -0.018692 0.000000 -0.000000 1.000000 198 198 198 1.000000
0.050220 -0.193147 -0.095636 -1.000000 0.000000 0.000000 198 198 198 1.000000
-0.021218 -0.473136 -0.212563 0.000000 0.000000 -1.000000 198 198 198 1.000000
0.088008 -0.548645 -0.026324 -0.759673 0.000000 -0.650305 198 198 198 1.000000
0.022519 -0.663958 -0.198853 0.000000 1.000000 0.000000 198 198 198 1.000000
-0.061492 -0.428909 -0.212563 0.000000 -0.000000 1.000000 198 198 198 1.000000
0.093302 -0.347198 -0.048221 -1.000000 0.000000 0.000000 198 198 198 1.000000
0.050132 0.896493 0.378167 -0.989551 -0.140465 -0.032546 198 198 198 1.000000
0.262232 -0.449384 -0.092365 0.061288 -0.977888 0.199945 198 198 198 1.000000
-0.052180 0.046288 -0.161864 0.759478 -0.018303 0.650275 198 198 198 1.000000
0.242945 -0.344086 -0.116128 -0.891789 -0.452451 -0.000825 42 42 42 1.000000
0.032362 0.917114 0.377758 -0.218536 -0.953761 -0.206354 198 198 198 1.000000
-0.145035 -0.386347 -0.040233 0.000000 -0.000000 1.000000 42 42 42 1.000000
0.050220 -0.032066 -0.117984 1.000000 0.000000 0.000000 198 198 198 1.000000
0.050220 0.849285 0.356487 1.000000 0.000000 0.000000 198 198 198 1.000000
0.001767 0.359063 -0.169480 0.000000 0.000000 -1.000000 198 198 198 1.000000
-0.052765 -0.150084 -0.070152 -0.787619 -0.003844 0.616151 198 198 198 1.000000
-0.100569 -0.297726 -0.083171 -1.000000 0.000000 0.000000 198 198 198 1.000000
-0.295628 -0.449727 -0.112561 0.000000 1.000000 0.000000 198 198 198 1.000000
-0.057487 0.878279 0.169044 -1.000000 0.000000 0.000000 198 198 198 1.000000
0.093302 -0.412813 -0.097554 -1.000000 0.000000 0.000000 198 198 198 1.000000
0.404352 -0.207331 -0.158623 0.230497 -0.061759 -0.971111 198 198 198 1.000000
0.050220 0.871220 0.389029 1.000000 0.000000 0.000000 198 198 198 1.000000
0.032529 -0.570106 -0.212563 0.000000 0.000000 -1.000000 198 198 198 1.000000
0.044975 0.437448 -0.161784 0.762756 0.040454 -0.645420 198 198 198 1.000000
0.045027 0.564989 -0.058118 -0.767541 0.160006 -0.620708 198 198 198 1.000000
-0.098985 -0.542188 -0.198650 0.934081 -0.000000 0.357062 198 198 198 1.000000
0.050158 0.652534 -0.037385 -0.990221 0.064591 -0.123651 198 198 198 1.000000
0.010183 0.046213 -0.169480 0.000000 0.000000 -1.000000 198 198 198 1.000000
0.050220 0.174331 -0.120791 1.000000 0.000000 0.000000 198 198 198 1.000000
-0.033092 0.920947 0.213409 0.000000 -0.987936 0.154862 198 198 198 1.000000
0.032533 0.477727 0.674236 0.000000 1.000000 0.000000 198 198 198 1.000000
-0.358077 -0.285598 -0.073465 -0.090032 -0.047026 -0.994828 198 198 198 1.000000
0.049619 -0.032225 -0.152501 0.971848 0.003265 -0.235588 198 198 198 1.000000
-0.408540 -0.449727 -0.102450 0.000000 -1.000000 -0.000000 198 198 198 1.000000
0.050220 -0.005809 -0.103618 -1.000000 0.000000 0.000000 198 198 198 1.000000
0.243229 -0.430950 -0.052769 0.906572 -0.028593 0.421082 42 42 42 1.000000
-0.099244 -0.563614 -0.033230 -0.944906 -0.000000 0.327342 198 198 198 1.000000
0.080888 -0.233134 -0.073549 0.000000 -1.000000 -0.000000 198 198 198 1.000000
-0.383185 -0.210262 -0.073432 0.000000 0.000000 -1.000000 198 198 198 1.000000
0.006758 0.865190 0.514670 0.000000 -0.858169 -0.513367 198 198 198 1.000000
0.186465 -0.333982 -0.177501 -0.019721 -0.926645 0.375421 42 42 42 1.000000
-0.413321 -0.362538 -0.155837 0.359767 0.248893 0.899233 198 198 198 1.000000
-0.056359 0.370177 -0.076791 -0.952711 -0.014869 0.303514 198 198 198 1.000000
-0.057487 -0.196018 -0.140027 -1.000000 0.000000 0.000000 198 198 198 1.000000
-0.033399 0.495971 0.625144 0.000000 0.156983 0.987601 198 198 198 1.000000
0.208502 -0.332235 -0.101755 -0.062488 -0.997890 -0.017631 42 42 42 1.000000
-0.057326 0.582447 -0.065603 0.987601 0.044363 -0.150587 198 198 198 1.000000
-0.031434 -0.635846 -0.212563 0.000000 -0.000000 1.000000 198 198 198 1.000000
-0.345046 -0.233407 -0.078247 -0.471560 -0.218936 -0.854224 198 198 198 1.000000
0.038077 -0.663958 -0.161629 0.000000 1.000000 0.000000 198 198 198 1.000000
-0.248064 -0.430457 -0.050472 0.849797 0.027874 -0.526373 42 42 42 1.000000
-0.014543 0.920046 0.206566 0.000000 -0.985439 0.170032 198 198 198 1.000000
-0.036495 0.220176 -0.061846 0.143519 0.041400 -0.988781 198 198 198 1.000000
-0.100569 -0.319559 -0.065954 1.000000 0.000000 0.000000 198 198 198 1.000000
-0.122078 -0.711349 -0.206324 0.000000 1.000000 0.000000 198 198 198 1.000000
-0.384140 -0.282783 -0.159597 0.000000 -0.000000 1.000000 198 198 198 1.000000
-0.099580 -0.294259 -0.034041 0.957490 0.000000 -0.288467 198 198 198 1.000000
-0.031702 0.818573 -0.009650 0.000000 -0.758836 0.651282 198 198 198 1.000000
-0.081960 -0.663958 -0.167039 0.000000 -1.000000 -0.000000 198 198 198 1.000000
-0.380383 -0.196462 -0.159597 0.000000 -0.000000 1.000000 198 198 198 1.000000
0.050220 0.865406 0.361699 1.000000 0.000000 0.000000 198 198 198 1.000000
-0.042030 0.477727 0.640532 0.000000 -1.000000 -0.000000 198 198 198 1.000000
0.029654 0.703432 0.674705 -0.154479 -0.493154 -0.856116 198 198 198 1.000000
0.027540 -0.233134 -0.075565 0.000000 -1.000000 -0.000000 198 198 198 1.000000
0.046555 0.240234 -0.159724 -0.835365 -0.024994 0.549128 198 198 198 1.000000
0.119152 -0.693733 -0.031942 -1.000000 0.000000 0.000000 198 198 198 1.000000
-0.056950 -0.010600 -0.152015 0.974490 -0.005305 0.224369 198 198 198 1.000000
0.014689 -0.645993 -0.018692 0.000000 -0.000000 1.000000 198 198 198 1.000000
-0.359847 -0.432901 -0.074053 -0.082817 -0.159738 0.983679 198 198 198 1.000000
-0.040372 -0.711349 -0.061844 0.000000 -1.000000 -0.000000 198 198 198 1.000000
0.022151 0.912206 0.159834 0.000000 -0.962156 0.272499 198 198 198 1.000000
-0.009028 0.760496 -0.065455 0.000000 0.630247 -0.776395 198 198 198 1.000000
0.060416 -0.608282 -0.212563 0.000000 -0.000000 1.000000 198 198 198 1.000000
0.382993 -0.165876 -0.159597 0.000000 0.000000 -1.000000 198 198 198 1.000000
-0.382113 -0.095446 -0.159597 0.000000 0.000000 -1.000000 198 198 198 1.000000
0.244185 -0.347079 -0.141023 -0.949450 -0.312612 0.028616 42 42 42 1.000000
-0.057487 0.736289 0.016593 -1.000000 0.000000 0.000000 198 198 198 1.000000
-0.100569 -0.548944 -0.103545 -1.000000 0.000000 0.000000 198 198 198 1.000000
-0.057487 0.465805 -0.132706 1.000000 0.000000 0.000000 198 198 198 1.000000
-0.030599 -0.663958 -0.100670 0.000000 1.000000 0.000000 198 198 198 1.000000
0.328290 -0.363562 -0.096469 0.000000 1.000000 0.000000 198 198 198 1.000000
0.038384 -0.670211 -0.227721 0.018464 0.710077 -0.703882 198 198 198 1.000000
0.247410 -0.398313 -0.141665 1.000000 0.000000 0.000000 198 198 198 1.000000
0.047532 -0.101092 -0.158231 -0.877861 -0.004633 0.478893 198 198 198 1.000000
0.070328 -0.463037 -0.212563 0.000000 0.000000 -1.000000 198 198 198 1.000000
-0.034971 0.255326 -0.061774 0.000000 0.000000 -1.000000 198 198 198 1.000000
-0.422954 -0.351693 -0.115703 -1.000000 0.000000 0.000000 198 198 198 1.000000
0.112427 -0.669949 -0.167840 0.689572 0.723825 -0.023814 198 198 198 1.000000
-0.057487 0.686143 0.613690 1.000000 0.000000 0.000000 198 198 198 1.000000
0.050220 0.495305 -0.086747 -1.000000 0.000000 0.000000 198 198 198 1.000000
-0.336789 -0.189934 -0.097015 -1.000000 0.000000 0.000000 198 198 198 1.000000
0.011101 -0.663958 -0.171630 0.000000 -1.000000 -0.000000 198 198 198 1.000000
-0.006635 0.506624 -0.165676 0.000000 -0.162449 0.986717 198 198 198 1.000000
0.119152 -0.705071 -0.151402 -1.000000 0.000000 0.000000 198 198 198 1.000000
0.015962 0.018384 -0.169480 0.000000 0.000000 -1.000000 198 198 198 1.000000
-0.213663 -0.332235 -0.135368 0.000000 1.000000 0.000000 42 42 42 1.000000
0.108609 -0.667019 -0.150101 0.511329 0.859314 -0.011015 198 198 198 1.000000
-0.172756 -0.354634 -0.191022 0.000000 -0.000000 1.000000 42 42 42 1.000000
-0.029164 0.061636 -0.169480 0.000000 0.000000 -1.000000 198 198 198 1.000000
-0.079943 -0.393924 -0.018812 0.151776 0.000000 -0.988415 198 198 198 1.000000
-0.024442 0.239001 -0.061774 0.000000 -0.000000 1.000000 198 198 198 1.000000
-0.077725 -0.663958 -0.048088 0.000000 -1.000000 -0.000000 198 198 198 1.000000
0.050220 0.274297 -0.111348 -1.000000 0.000000 0.000000 198 198 198 1.000000
-0.050458 -0.583562 -0.212563 0.000000 0.000000 -1.000000 198 198 198 1.000000
0.022101 -0.233134 -0.121897 0.000000 1.000000 0.000000 198 198 198 1.000000
0.038366 -0.663958 -0.055494 0.000000 -1.000000 -0.000000 198 198 198 1.000000
-0.113461 -0.398910 -0.040233 0.000000 0.000000 -1.000000 42 42 42 1.000000
-0.400399 -0.099415 -0.073432 0.000000 0.000000 -1.000000 198 198 198 1.000000
0.027900 0.391775 -0.061774 0.000000 -0.000000 1.000000 198 198 198 1.000000
-0.314165 -0.382900 -0.073722 -0.066266 -0.117224 -0.990892 198 198 198 1.000000
0.043908 0.477727 0.723990 0.000000 -1.000000 -0.000000 198 198 198 1.000000
-0.007105 0.806395 0.183424 0.000000 -0.957133 0.289648 198 198 198 1.000000
0.045506 0.711901 0.657941 0.791665 0.326329 0.516504 198 198 198 1.000000
-0.013719 -0.711349 -0.108594 0.000000 -1.000000 -0.000000 198 198 198 1.000000
0.035648 0.847537 0.030251 -0.330277 -0.778258 0.534072 198 198 198 1.000000
0.093302 -0.383736 -0.045318 1.000000 0.000000 0.000000 198 198 198 1.000000
-0.057487 0.625113 0.678276 -1.000000 0.000000 0.000000 198 198 198 1.000000
-0.034855 0.783816 0.436856 0.000000 -0.893343 -0.449375 198 198 198 1.000000
0.410584 -0.177497 -0.155472 -0.507449 0.108853 0.854779 198 198 198 1.000000
0.196183 -0.443407 -0.040233 0.051379 -0.043411 0.997735 42 42 42 1.000000
-0.100569 -0.287135 -0.057465 1.000000 0.000000 0.000000 198 198 198 1.000000
0.007239 -0.073400 -0.169480 0.000000 -0.000000 1.000000 198 198 198 1.000000
-0.010830 -0.010680 -0.061774 0.000000 0.000000 -1.000000 198 198 198 1.000000
0.376165 -0.143418 -0.073432 0.000000 0.000000 -1.000000 198 198 198 1.000000
-0.098820 -0.711349 0.002516 0.000000 1.000000 0.000000 198 198 198 1.000000
0.040030 0.600337 -0.039799 0.535353 -0.302099 0.788754 198 198 198 1.000000
-0.057487 0.390799 -0.113696 -1.000000 0.000000 0.000000 198 198 198 1.000000
0.414812 -0.294207 -0.081541 -0.633693 0.253982 -0.730703 198 198 198 1.000000
0.006780 0.115582 -0.061774 0.000000 -0.000000 1.000000 198 198 198 1.000000
0.418170 -0.263778 -0.087380 0.838004 -0.308243 0.450262 198 198 198 1.000000
0.026435 0.212001 -0.169480 0.000000 -0.000000 1.000000 198 198 198 1.000000
0.050220 0.665291 -0.091797 1.000000 0.000000 0.000000 198 198 198 1.000000
-0.005387 0.825490 0.566408 0.000000 0.775061 0.631887 198 198 198 1.000000
-0.197082 -0.483023 -0.075817 0.000000 1.000000 0.000000 42 42 42 1.000000
-0.055683 -0.691712 -0.234104 0.000000 0.000000 -1.000000 198 198 198 1.000000
0.055643 -0.553277 -0.018692 0.000000 -0.000000 1.000000 198 198 198 1.000000
0.093302 -0.604705 -0.091983 1.000000 0.000000 0.000000 198 198 198 1.000000
0.394761 -0.149254 -0.159597 0.000000 0.000000 -1.000000 198 198 198 1.000000
-0.336789 -0.320134 -0.103693 -1.000000 0.000000 0.000000 198 198 198 1.000000
-0.001450 -0.233134 -0.088808 0.000000 1.000000 0.000000 198 198 198 1.000000
0.017233 0.898214 0.439718 0.000000 0.936951 0.349461 198 198 198 1.000000
0.183001 -0.414419 -0.040233 -0.044757 0.008206 -0.998964 42 42 42 1.000000
0.351330 -0.145072 -0.073930 0.191885 -0.027467 -0.981033 198 198 198 1.000000
0.419740 -0.316437 -0.103999 -1.000000 0.000000 0.000000 198 198 198 1.000000
-0.004002 0.477727 0.722118 0.000000 -1.000000 -0.000000 198 198 198 1.000000
-0.082106 -0.418540 -0.019097 -0.201793 -0.000000 0.979428 198 198 198 1.000000
0.008430 -0.385455 -0.212563 0.000000 -0.000000 1.000000 198 198 198 1.000000
0.419291 -0.132913 -0.091568 -0.968800 0.092614 -0.229891 198 198 198 1.000000
0.418942 -0.328691 -0.089243 0.808926 -0.469829 0.353410 198 198 198 1.000000
0.333575 -0.126977 -0.135805 -1.000000 0.000000 0.000000 198 198 198 1.000000
-0.066111 -0.460932 -0.212563 0.000000 -0.000000 1.000000 198 198 198 1.000000
0.050220 0.818101 0.473257 1.000000 0.000000 0.000000 198 198 198 1.000000
0.071479 -0.711349 -0.139715 0.000000 1.000000 0.000000 198 198 198 1.000000
-0.071890 -0.711349 -0.015161 0.000000 1.000000 0.000000 198 198 198 1.000000
0.093302 -0.510074 -0.162010 1.000000 0.000000 0.000000 198 198 198 1.000000
-0.018564 -0.145693 -0.061774 0.000000 -0.000000 1.000000 198 198 198 1.000000
0.005592 0.743337 0.498059 0.000000 0.777022 0.629474 198 198 198 1.000000
-0.238625 -0.334308 -0.118918 0.412148 -0.911081 0.008052 42 42 42 1.000000
0.358668 -0.314464 -0.159597 0.000000 0.000000 -1.000000 198 198 198 1.000000
0.093302 -0.277393 -0.174245 1.000000 0.000000 0.000000 198 198 198 1.000000
0.361409 -0.229327 -0.073432 0.000000 -0.000000 1.000000 198 198 198 1.000000
-0.056897 0.018803 -0.152416 0.972339 -0.006005 0.233496 198 198 198 1.000000
0.093302 -0.346106 -0.187639 -1.000000 0.000000 0.000000 198 198 198 1.000000
0.397835 -0.207342 -0.073432 0.000000 -0.000000 1.000000 198 198 198 1.000000
-0.057487 0.677551 -0.079194 1.000000 0.000000 0.000000 198 198 198 1.000000
-0.057487 -0.123817 -0.136942 1.000000 0.000000 0.000000 198 198 198 1.000000
0.175321 -0.332235 -0.094367 0.044287 0.998681 0.025991 42 42 42 1.000000
0.202355 -0.332235 -0.138384 -0.059101 -0.997776 0.030840 42 42 42 1.000000
-0.057487 0.736715 0.577835 -1.000000 0.000000 0.000000 198 198 198 1.000000
-0.087431 -0.711349 -0.092699 0.000000 1.000000 0.000000 198 198 198 1.000000
-0.146822 -0.332235 -0.158450 0.000000 -1.000000 -0.000000 42 42 42 1.000000
0.180250 -0.474235 -0.186615 0.036813 -0.596743 -0.801587 42 42 42 1.000000
-0.041422 -0.711349 -0.130542 0.000000 1.000000 0.000000 198 198 198 1.000000
-0.263854 -0.407802 -0.159597 0.000000 -0.000000 1.000000 198 198 198 1.000000
0.039264 0.528469 -0.057928 0.495911 -0.152373 0.854901 198 198 198 1.000000
0.050220 0.500710 0.669668 1.000000 0.000000 0.000000 198 198 198 1.000000
0.066468 -0.711349 -0.158845 0.000000 -1.000000 -0.000000 198 198 198 1.000000
0.022712 0.477727 0.643256 0.000000 1.000000 0.000000 198 198 198 1.000000
0.050220 0.902261 0.285612 -1.000000 0.000000 0.000000 198 198 198 1.000000
-0.261126 -0.442797 -0.079264 0.017573 0.670716 -0.741506 198 198 198 1.000000
-0.100569 -0.648569 -0.140129 -1.000000 0.000000 0.000000 198 198 198 1.000000
0.085499 -0.272514 -0.023855 -0.642657 0.000000 -0.766154 198 198 198 1.000000
0.024062 0.559579 0.616769 0.000000 -0.248405 -0.968656 198 198 198 1.000000
0.105330 -0.483023 -0.105081 0.005888 -0.999894 0.013280 42 42 42 1.000000
-0.100207 -0.233134 -0.173137 0.000000 -1.000000 -0.000000 198 198 198 1.000000
0.008553 -0.504188 -0.018692 0.000000 -0.000000 1.000000 198 198 198 1.000000
-0.058517 -0.628528 -0.212563 0.000000 0.000000 -1.000000 198 198 198 1.000000
-0.044162 0.508762 -0.163551 0.387283 -0.105740 0.915877 198 198 198 1.000000
0.035864 0.657953 -0.011306 -0.339456 0.492109 -0.801622 198 198 198 1.000000
-0.336789 -0.111246 -0.096757 1.000000 0.000000 0.000000 198 198 198 1.000000
0.048051 -0.355197 -0.018692 0.000000 -0.000000 1.000000 198 198 198 1.000000
-0.057487 -0.065379 -0.118562 -1.000000 0.000000 0.000000 198 198 198 1.000000
0.000101 -0.585323 -0.018692 0.000000 -0.000000 1.000000 198 198 198 1.000000
0.046167 0.736859 0.637704 -0.822676 -0.343900 -0.452700 198 198 198 1.000000
0.245383 -0.394239 -0.066632 0.998095 0.016266 0.059519 42 42 42 1.000000
0.417121 -0.446905 -0.084847 -0.565232 0.564690 -0.601364 198 198 198 1.000000
-0.075639 -0.700373 -0.234104 0.000000 0.000000 -1.000000 198 198 198 1.000000
0.011010 0.440935 -0.061774 0.000000 0.000000 -1.000000 198 198 198 1.000000
-0.057438 0.071819 -0.082946 -0.990305 -0.003649 0.138860 198 198 198 1.000000
0.419740 -0.288881 -0.114107 -1.000000 0.000000 0.000000 198 198 198 1.000000
0.029228 -0.711349 -0.062436 0.000000 -1.000000 -0.000000 198 198 198 1.000000
0.028067 -0.550943 -0.018692 0.000000 0.000000 -1.000000 198 198 198 1.000000
0.040875 0.924102 0.297903 -0.575206 -0.817488 -0.029170 198 198 198 1.000000
-0.057487 0.513068 0.704757 -1.000000 0.000000 0.000000 198 198 198 1.000000
-0.100569 -0.610228 -0.129355 -1.000000 0.000000 0.000000 198 198 198 1.000000
0.119152 -0.700822 -0.120256 1.000000 0.000000 0.000000 198 198 198 1.000000
0.004346 0.327231 -0.169480 0.000000 -0.000000 1.000000 198 198 198 1.000000
0.093302 -0.358223 -0.157621 -1.000000 0.000000 0.000000 198 198 198 1.000000
0.005807 -0.104185 -0.169480 0.000000 0.000000 -1.000000 198 198 198 1.000000
0.066508 -0.416572 -0.212563 0.000000 -0.000000 1.000000 198 198 198 1.000000
0.021740 0.095260 -0.169480 0.000000 -0.000000 1.000000 198 198 198 1.000000
-0.057351 0.835578 0.225901 -0.988395 -0.149605 0.026325 198 198 198 1.000000
-0.022401 0.916775 0.181719 0.000000 0.974465 -0.224539 198 198 198 1.000000
0.012038 0.881893 0.086651 0.000000 0.899573 -0.436771 198 198 198 1.000000
-0.111083 -0.338789 -0.046354 -0.003781 0.696953 0.717106 42 42 42 1.000000
-0.057487 0.812971 0.428100 1.000000 0.000000 0.000000 198 198 198 1.000000
0.049230 0.673847 0.670484 -0.958573 -0.129990 -0.253456 198 198 198 1.000000
0.026503 0.799707 0.167279 0.000000 -0.941172 0.337927 198 198 198 1.000000
0.050220 0.615713 -0.078496 1.000000 0.000000 0.000000 198 198 198 1.000000
0.419539 -0.133126 -0.139583 0.978266 -0.093085 -0.185288 198 198 198 1.000000
0.229562 -0.333203 -0.059675 0.266532 0.958850 0.097811 42 42 42 1.000000
-0.038450 0.916467 0.383860 -0.190840 0.956506 0.220629 198 198 198 1.000000
-0.079393 -0.711349 -0.202708 0.000000 -1.000000 -0.000000 198 198 198 1.000000
0.049976 0.516337 0.642322 0.984974 -0.029358 -0.170190 198 198 198 1.000000
-0.017215 -0.071712 -0.169480 0.000000 0.000000 -1.000000 198 198 198 1.000000
0.333244 -0.405851 -0.073432 0.000000 0.000000 -1.000000 198 198 198 1.000000
0.000819 -0.253970 -0.018692 0.000000 -0.000000 1.000000 198 198 198 1.000000
0.276528 -0.392588 -0.073432 0.000000 -0.000000 1.000000 198 198 198 1.000000
0.001080 -0.522222 -0.212563 0.000000 0.000000 -1.000000 198 198 198 1.000000
-0.169948 -0.444193 -0.040233 0.000000 0.000000 -1.000000 42 42 42 1.000000
-0.337593 -0.326993 -0.089228 -0.720862 -0.591780 -0.360769 198 198 198 1.000000
0.308598 -0.413594 -0.159597 0.000000 -0.000000 1.000000 198 198 198 1.000000
-0.057487 0.604714 0.671745 1.000000 0.000000 0.000000 198 198 198 1.000000
0.049332 0.477727 0.698816 0.000000 1.000000 0.000000 198 198 198 1.000000
0.349064 -0.429974 -0.159361 0.044392 -0.128445 -0.990723 198 198 198 1.000000
-0.057487 0.294323 -0.133706 1.000000 0.000000 0.000000 198 198 198 1.000000
0.089592 -0.599896 -0.028389 0.832985 -0.000000 0.553296 198 198 198 1.000000
-0.404484 -0.333491 -0.159193 -0.120618 -0.083520 -0.989179 198 198 198 1.000000
-0.027896 -0.673487 -0.230265 0.012346 -0.561564 0.827341 198 198 198 1.000000
-0.169009 -0.370170 -0.040233 0.000000 -0.000000 1.000000 42 42 42 1.000000
0.012671 0.736471 -0.083890 0.000000 -0.576449 0.817133 198 198 198 1.000000
-0.100569 -0.527768 -0.176420 -1.000000 0.000000 0.000000 198 198 198 1.000000
0.040749 0.864624 0.509028 -0.567817 -0.710540 -0.415593 198 198 198 1.000000
0.046236 -0.057953 -0.071115 0.821480 -0.011464 0.570123 198 198 198 1.000000
0.050220 0.536973 -0.129173 -1.000000 0.000000 0.000000 198 198 198 1.000000
-0.046105 0.601894 0.604170 0.479530 0.318154 0.817820 198 198 198 1.000000
0.333575 -0.114399 -0.114057 -1.000000 0.000000 0.000000 198 198 198 1.000000
-0.053179 -0.329373 -0.018692 0.000000 -0.000000 1.000000 198 198 198 1.000000
0.020368 0.259522 -0.061774 0.000000 -0.000000 1.000000 198 198 198 1.000000
0.093302 -0.649838 -0.131277 -1.000000 0.000000 0.000000 198 198 198 1.000000
0.050220 0.139551 -0.086591 -1.000000 0.000000 0.000000 198 198 198 1.000000
0.019823 -0.046387 -0.061774 0.000000 -0.000000 1.000000 198 198 198 1.000000
0.088459 -0.611631 -0.204343 -0.781716 -0.000000 0.623634 198 198 198 1.000000
0.050220 0.735592 -0.037444 1.000000 0.000000 0.000000 198 198 198 1.000000
-0.015018 0.735295 -0.084792 0.000000 0.573752 -0.819029 198 198 198 1.000000
-0.057487 0.012973 -0.103165 -1.000000 0.000000 0.000000 198 198 198 1.000000
0.050220 0.819771 0.413492 1.000000 0.000000 0.000000 198 198 198 1.000000
0.093302 -0.507020 -0.046517 -1.000000 0.000000 0.000000 198 198 198 1.000000
0.093302 -0.249275 -0.095394 1.000000 0.000000 0.000000 198 198 198 1.000000
0.039408 0.854145 0.524351 -0.503374 -0.727203 -0.466680 198 198 198 1.000000
-0.100569 -0.415612 -0.083887 1.000000 0.000000 0.000000 42 42 42 1.000000
-0.027649 0.325987 -0.169480 0.000000 -0.000000 1.000000 198 198 198 1.000000
-0.040116 -0.091438 -0.168931 -0.227045 0.012616 -0.973803 198 198 198 1.000000
0.029904 0.348735 -0.169319 0.159241 0.053105 -0.985810 198 198 198 1.000000
-0.069464 -0.266908 -0.018692 0.000000 -0.000000 1.000000 198 198 198 1.000000
-0.020510 -0.249594 -0.018692 0.000000 -0.000000 1.000000 198 198 198 1.000000
-0.055598 0.485163 0.720981 -0.920339 0.055268 0.387197 198 198 198 1.000000
0.400858 -0.116581 -0.073782 0.186026 -0.006304 0.982525 198 198 198 1.000000
-0.022043 0.474273 -0.169480 0.000000 0.000000 -1.000000 198 198 198 1.000000
0.419740 -0.238111 -0.096322 -1.000000 0.000000 0.000000 198 198 198 1.000000
-0.030336 -0.064934 -0.061774 0.000000 -0.000000 1.000000 198 198 198 1.000000
-0.009942 0.740601 0.501624 0.000000 -0.768687 -0.639625 198 198 198 1.000000
-0.057487 0.802029 0.553440 -1.000000 0.000000 0.000000 198 198 198 1.000000
-0.349078 -0.164811 -0.075689 0.370027 0.075848 0.925920 198 198 198 1.000000
0.050220 0.515112 0.682553 1.000000 0.000000 0.000000 198 198 198 1.000000
0.050220 0.604493 0.674375 -1.000000 0.000000 0.000000 198 198 198 1.000000
0.050126 0.355528 -0.082603 0.989172 -0.008119 0.146535 198 198 198 1.000000
0.125721 -0.482395 -0.174255 -0.011839 0.972549 0.232397 42 42 42 1.000000
0.049311 0.815780 0.165462 0.961452 -0.258501 0.093739 198 198 198 1.000000
-0.057487 0.202588 -0.126650 1.000000 0.000000 0.000000 198 198 198 1.000000
-0.050513 0.879860 0.468874 -0.685076 0.660296 0.307700 198 198 198 1.000000
-0.057487 -0.149393 -0.126542 1.000000 0.000000 0.000000 198 198 198 1.000000
-0.404864 -0.083526 -0.147579 0.000000 1.000000 0.000000 198 198 198 1.000000
0.066368 -0.381604 -0.018692 0.000000 -0.000000 1.000000 198 198 198 1.000000
0.061318 -0.711349 -0.051020 0.000000 -1.000000 -0.000000 198 198 198 1.000000
-0.056470 -0.697793 0.002850 0.000000 -0.000000 1.000000 198 198 198 1.000000
-0.021939 0.477727 0.687659 0.000000 1.000000 0.000000 198 198 198 1.000000
-0.092360 -0.416304 -0.207711 -0.624132 0.000000 -0.781319 198 198 198 1.000000
-0.164373 -0.332235 -0.134854 0.000000 -1.000000 -0.000000 42 42 42 1.000000
-0.085476 -0.360126 -0.211467 0.300783 -0.000000 0.953693 198 198 198 1.000000
-0.350833 -0.149507 -0.158067 -0.324102 -0.029747 0.945554 198 198 198 1.000000
0.174225 -0.482822 -0.171013 0.043757 -0.991521 -0.122358 42 42 42 1.000000
0.050220 0.884652 0.260966 -1.000000 0.000000 0.000000 198 198 198 1.000000
-0.041940 0.828544 0.004834 -0.283407 0.752127 -0.594967 198 198 198 1.000000
0.259434 -0.367033 -0.083441 -0.054611 0.823030 0.565367 198 198 198 1.000000
0.419740 -0.084894 -0.116248 -1.000000 0.000000 0.000000 198 198 198 1.000000
-0.100569 -0.356947 -0.132946 1.000000 0.000000 0.000000 42 42 42 1.000000
0.419265 -0.345200 -0.141664 -0.808416 0.507727 0.297786 198 198 198 1.000000
-0.027020 0.793977 0.153445 0.000000 0.925479 -0.378798 198 198 198 1.000000
0.037507 0.593560 0.717903 -0.416032 -0.234616 -0.878563 198 198 198 1.000000
0.026330 0.073472 -0.169480 0.000000 -0.000000 1.000000 198 198 198 1.000000
-0.184821 -0.382177 -0.191022 0.000000 0.000000 -1.000000 42 42 42 1.000000
0.412777 -0.443819 -0.152765 0.423317 -0.428737 -0.798115 198 198 198 1.000000
0.050220 0.792792 0.516476 1.000000 0.000000 0.000000 198 198 198 1.000000
-0.163129 -0.333049 -0.056006 0.008250 -0.963364 -0.268070 42 42 42 1.000000
0.013868 0.814305 0.221495 0.000000 0.983770 -0.179437 198 198 198 1.000000
-0.237209 -0.481537 -0.168073 0.345718 0.938083 0.021872 42 42 42 1.000000
-0.099585 -0.663958 -0.118632 0.000000 1.000000 0.000000 198 198 198 1.000000
0.038317 0.494786 0.627738 -0.450931 0.140463 0.881437 198 198 198 1.000000
0.050220 0.707436 -0.054139 -1.000000 0.000000 0.000000 198 198 198 1.000000
-0.051647 0.764742 0.481534 0.737311 0.554088 0.386469 198 198 198 1.000000
-0.062912 -0.657369 -0.212563 0.000000 0.000000 -1.000000 198 198 198 1.000000
0.293687 -0.363562 -0.107610 0.000000 1.000000 0.000000 198 198 198 1.000000
0.050220 0.480499 -0.101164 1.000000 0.000000 0.000000 198 198 198 1.000000
0.000203 -0.233134 -0.032001 0.000000 -1.000000 -0.000000 198 198 198 1.000000
0.050220 0.652299 0.637157 1.000000 0.000000 0.000000 198 198 198 1.000000
-0.057487 0.613958 0.624754 -1.000000 0.000000 0.000000 198 198 198 1.000000
-0.251358 -0.455249 -0.077537 -1.000000 0.000000 0.000000 42 42 42 1.000000
0.093302 -0.283212 -0.140554 -1.000000 0.000000 0.000000 198 198 198 1.000000
0.134474 -0.332235 -0.167217 -0.021837 -0.997689 0.064341 42 42 42 1.000000
0.034777 0.464884 -0.168530 -0.284533 -0.061680 0.956680 198 198 198 1.000000
0.419087 -0.232245 -0.143016 0.907550 -0.289074 -0.304615 198 198 198 1.000000
0.074611 -0.663958 -0.019459 0.000000 -1.000000 -0.000000 198 198 198 1.000000
0.015209 -0.293571 -0.018692 0.000000 -0.000000 1.000000 198 198 198 1.000000
-0.026760 -0.594579 -0.018692 0.000000 0.000000 -1.000000 198 198 198 1.000000
-0.373677 -0.243345 -0.073432 0.000000 -0.000000 1.000000 198 198 198 1.000000
-0.100569 -0.430104 -0.110463 1.000000 0.000000 0.000000 42 42 42 1.000000
-0.250140 -0.464094 -0.055922 0.949002 0.157158 -0.273308 42 42 42 1.000000
-0.077408 -0.600490 -0.212563 0.000000 0.000000 -1.000000 198 198 198 1.000000
-0.422287 -0.106214 -0.143119 -0.965440 -0.041744 -0.257259 198 198 198 1.000000
-0.100569 -0.369347 -0.050583 1.000000 0.000000 0.000000 42 42 42 1.000000
0.043135 0.753556 0.494127 -0.680650 0.579284 0.448493 198 198 198 1.000000
-0.057487 0.234257 -0.123977 -1.000000 0.000000 0.000000 198 198 198 1.000000
0.011845 -0.146929 -0.061774 0.000000 -0.000000 1.000000 198 198 198 1.000000
0.049434 -0.504590 -0.018692 0.000000 0.000000 -1.000000 198 198 198 1.000000
0.056927 -0.296116 -0.212563 0.000000 0.000000 -1.000000 198 198 198 1.000000
-0.048221 0.210078 -0.165439 0.574970 -0.032055 0.817546 198 198 198 1.000000
0.075224 -0.412775 -0.019148 -0.210633 0.000000 -0.977565 198 198 198 1.000000
-0.057487 0.165267 -0.126317 -1.000000 0.000000 0.000000 198 198 198 1.000000
0.202056 -0.399057 -0.191022 -0.054394 -0.010390 0.998465 42 42 42 1.000000
-0.161467 -0.410663 -0.040233 0.000000 -0.000000 1.000000 42 42 42 1.000000
-0.057487 0.884656 0.376221 1.000000 0.000000 0.000000 198 198 198 1.000000
-0.422954 -0.437166 -0.122592 -1.000000 0.000000 0.000000 198 198 198 1.000000
-0.017073 -0.109867 -0.061774 0.000000 -0.000000 1.000000 198 198 198 1.000000
-0.015666 0.585853 0.721017 0.000000 -0.249157 -0.968463 198 198 198 1.000000
-0.057487 -0.018874 -0.101076 1.000000 0.000000 0.000000 198 198 198 1.000000
-0.348143 -0.127679 -0.076076 -0.442315 -0.041018 -0.895922 198 198 198 1.000000
-0.020539 0.838456 0.016262 0.000000 0.804178 -0.594389 198 198 198 1.000000
0.376575 -0.286545 -0.073432 0.000000 0.000000 -1.000000 198 198 198 1.000000
0.087645 -0.438207 -0.205403 0.741314 0.000000 -0.671158 198 198 198 1.000000
0.050220 0.848387 0.085581 1.000000 0.000000 0.000000 198 198 198 1.000000
-0.057487 0.448827 -0.133650 1.000000 0.000000 0.000000 198 198 198 1.000000
-0.037940 0.562342 0.723847 0.177954 -0.220651 -0.958982 198 198 198 1.000000
-0.057487 0.311699 -0.136165 -1.000000 0.000000 0.000000 198 198 198 1.000000
0.406226 -0.263995 -0.157847 0.260575 -0.132130 -0.956369 198 198 198 1.000000
-0.422954 -0.304276 -0.132624 1.000000 0.000000 0.000000 198 198 198 1.000000
-0.051826 0.858365 0.053959 0.744460 -0.573672 0.341584 198 198 198 1.000000
-0.040120 0.480836 -0.168517 -0.227554 0.068751 -0.971335 198 198 198 1.000000
-0.041666 -0.554515 -0.018692 0.000000 -0.000000 1.000000 198 198 198 1.000000
0.334549 -0.189618 -0.088817 0.899655 -0.267714 -0.344890 198 198 198 1.000000
-0.072397 -0.711349 -0.185166 0.000000 -1.000000 -0.000000 198 198 198 1.000000
-0.231282 -0.466721 -0.041116 -0.115975 -0.249244 0.961471 42 42 42 1.000000
-0.100569 -0.271888 -0.061276 -1.000000 0.000000 0.000000 198 198 198 1.000000
-0.001517 0.343695 -0.169480 0.000000 0.000000 -1.000000 198 198 198 1.000000
-0.012182 -0.620465 -0.018692 0.000000 0.000000 -1.000000 198 198 198 1.000000
-0.019472 0.477727 0.719383 0.000000 1.000000 0.000000 198 198 198 1.000000
-0.336789 -0.260145 -0.115689 -1.000000 0.000000 0.000000 198 198 198 1.000000
0.383142 -0.258649 -0.159597 0.000000 0.000000 -1.000000 198 198 198 1.000000
-0.384135 -0.306681 -0.159597 0.000000 -0.000000 1.000000 198 198 198 1.000000
0.049261 -0.165382 -0.077197 0.958598 -0.003119 0.284747 198 198 198 1.000000
-0.048329 0.149743 -0.065898 0.580090 0.030734 -0.813973 198 198 198 1.000000
-0.057487 0.616510 0.642092 1.000000 0.000000 0.000000 198 198 198 1.000000
0.093302 -0.614515 -0.070447 1.000000 0.000000 0.000000 198 198 198 1.000000
-0.333880 -0.420515 -0.159597 0.000000 -0.000000 1.000000 198 198 198 1.000000
0.033163 -0.501844 -0.212563 0.000000 0.000000 -1.000000 198 198 198 1.000000
-0.057487 0.797431 0.039349 -1.000000 0.000000 0.000000 198 198 198 1.000000
-0.102803 -0.711349 -0.135824 0.000000 -1.000000 -0.000000 198 198 198 1.000000
0.049806 0.131886 -0.151083 0.979170 0.005050 -0.202979 198 198 198 1.000000
-0.151199 -0.476790 -0.184614 0.017891 0.711045 0.702919 42 42 42 1.000000
0.338271 -0.449727 -0.100239 0.000000 1.000000 0.000000 198 198 198 1.000000
0.050220 0.144983 -0.138324 1.000000 0.000000 0.000000 198 198 198 1.000000
-0.024082 -0.370677 -0.212563 0.000000 -0.000000 1.000000 198 198 198 1.000000
0.092162 -0.417665 -0.197576 -0.952068 -0.000000 0.305885 198 198 198 1.000000
0.050220 0.582421 -0.112615 -1.000000 0.000000 0.000000 198 198 198 1.000000
0.353284 -0.200050 -0.159356 0.148152 -0.025426 0.988638 198 198 198 1.000000
0.050220 0.441772 -0.125184 -1.000000 0.000000 0.000000 198 198 198 1.000000
-0.100569 -0.513727 -0.062284 1.000000 0.000000 0.000000 198 198 198 1.000000
0.050220 0.730531 0.577703 -1.000000 0.000000 0.000000 198 198 198 1.000000
-0.100569 -0.476611 -0.182196 1.000000 0.000000 0.000000 42 42 42 1.000000
-0.029341 0.711433 -0.103102 0.000000 0.517935 -0.855420 198 198 198 1.000000
0.256328 -0.420177 -0.159597 0.000000 -0.000000 1.000000 198 198 198 1.000000
-0.103928 -0.711349 -0.222692 0.000000 1.000000 0.000000 198 198 198 1.000000
0.065552 -0.535746 -0.212563 0.000000 0.000000 -1.000000 198 198 198 1.000000
0.093098 -0.430274 -0.038685 0.986052 -0.000000 0.166436 198 198 198 1.000000
-0.057487 0.272434 -0.091691 -1.000000 0.000000 0.000000 198 198 198 1.000000
-0.011391 -0.711349 -0.052661 0.000000 1.000000 0.000000 198 198 198 1.000000
0.050220 0.596913 -0.103765 -1.000000 0.000000 0.000000 198 198 198 1.000000
0.106029 -0.464970 -0.190562 0.005618 -0.187237 -0.982299 42 42 42 1.000000
-0.017873 0.340887 -0.169480 0.000000 0.000000 -1.000000 198 198 198 1.000000
-0.251358 -0.404851 -0.085148 1.000000 0.000000 0.000000 42 42 42 1.000000
0.282482 -0.371177 -0.078740 -0.159664 0.549802 0.819893 198 198 198 1.000000
0.000685 0.218013 -0.169480 0.000000 -0.000000 1.000000 198 198 198 1.000000
-0.023608 0.210508 -0.061774 0.000000 0.000000 -1.000000 198 198 198 1.000000
0.010338 0.777311 0.618324 0.000000 -0.666122 -0.745843 198 198 198 1.000000
0.177895 -0.483023 -0.068717 0.045631 -0.997127 0.060466 42 42 42 1.000000
0.045205 0.734173 0.042635 -0.776956 0.456436 -0.433596 198 198 198 1.000000
-0.420034 -0.327325 -0.148870 -0.683624 -0.384554 -0.620303 198 198 198 1.000000
0.050220 0.757192 0.013008 -1.000000 0.000000 0.000000 198 198 198 1.000000
-0.367153 -0.384961 -0.159597 0.000000 0.000000 -1.000000 198 198 198 1.000000
0.001976 0.229481 -0.061774 0.000000 0.000000 -1.000000 198 198 198 1.000000
-0.417006 -0.191212 -0.080213 0.656897 0.126470 -0.743298 198 198 198 1.000000
0.050220 0.470047 -0.147710 -1.000000 0.000000 0.000000 198 198 198 1.000000
-0.413529 -0.299082 -0.077350 -0.436016 -0.167739 0.884168 198 198 198 1.000000
0.011477 -0.711349 -0.219448 0.000000 -1.000000 -0.000000 198 198 198 1.000000
0.070531 -0.447053 -0.018692 0.000000 0.000000 -1.000000 198 198 198 1.000000
0.093302 -0.638831 -0.189000 -1.000000 0.000000 0.000000 198 198 198 1.000000
0.193792 -0.333692 -0.054452 -0.014821 -0.939420 -0.342447 42 42 42 1.000000
-0.056938 0.119491 -0.152105 0.974037 -0.008406 0.226231 198 198 198 1.000000
0.039105 0.476510 -0.064518 0.485834 -0.057041 0.872188 198 198 198 1.000000
0.092719 -0.663958 -0.063410 0.000000 1.000000 0.000000 198 198 198 1.000000
0.007399 -0.324379 -0.212563 0.000000 0.000000 -1.000000 198 198 198 1.000000
-0.033880 -0.663958 -0.180775 0.000000 1.000000 0.000000 198 198 198 1.000000
-0.015473 0.928660 0.271998 0.000000 -0.999709 0.024138 198 198 198 1.000000
-0.341403 -0.266268 -0.081951 -0.607838 -0.345770 -0.714826 198 198 198 1.000000
0.357719 -0.402212 -0.159597 0.000000 0.000000 -1.000000 198 198 198 1.000000
0.146041 -0.436253 -0.191022 0.026032 -0.034844 -0.999054 42 42 42 1.000000
-0.043730 0.917036 0.196341 0.369198 -0.912362 0.176883 198 198 198 1.000000
-0.029280 -0.347866 -0.212563 0.000000 -0.000000 1.000000 198 198 198 1.000000
-0.057487 -0.126929 -0.107719 -1.000000 0.000000 0.000000 198 198 198 1.000000
0.093302 -0.362252 -0.097736 1.000000 0.000000 0.000000 198 198 198 1.000000
-0.026548 0.553646 0.617551 0.000000 0.239971 0.970780 198 198 198 1.000000
0.111693 -0.361303 -0.191022 -0.008641 -0.056289 0.998377 42 42 42 1.000000
-0.259305 -0.449727 -0.118631 0.000000 -1.000000 -0.000000 198 198 198 1.000000
0.030370 0.759519 0.631696 -0.172543 -0.618381 -0.766703 198 198 198 1.000000
-0.100569 -0.346233 -0.188377 1.000000 0.000000 0.000000 42 42 42 1.000000
0.049013 -0.066796 -0.154655 -0.949627 -0.003982 0.313358 198 198 198 1.000000
-0.221071 -0.374662 -0.191022 0.000000 -0.000000 1.000000 42 42 42 1.000000
0.419740 -0.312589 -0.134829 1.000000 0.000000 0.000000 198 198 198 1.000000
0.046536 0.763293 -0.051042 0.837925 0.357521 -0.412383 198 198 198 1.000000
0.108640 -0.473905 -0.044387 -0.005082 0.581329 -0.813653 42 42 42 1.000000
0.322328 -0.363562 -0.112550 0.000000 -1.000000 -0.000000 198 198 198 1.000000
0.419740 -0.217490 -0.112818 1.000000 0.000000 0.000000 198 198 198 1.000000
-0.342482 -0.385714 -0.159597 0.000000 -0.000000 1.000000 198 198 198 1.000000
-0.336789 -0.353588 -0.128544 1.000000 0.000000 0.000000 198 198 198 1.000000
-0.038473 0.817892 0.575763 -0.191946 0.744265 0.639708 198 198 198 1.000000
-0.026806 0.803854 -0.028833 0.000000 0.722894 -0.690959 198 198 198 1.000000
-0.422954 -0.124412 -0.099667 1.000000 0.000000 0.000000 198 198 198 1.000000
0.023482 0.593157 -0.039167 0.000000 0.337401 -0.941361 198 198 198 1.000000
-0.003853 -0.233134 -0.057469 0.000000 1.000000 0.000000 198 198 198 1.000000
0.050220 0.405593 -0.083568 -1.000000 0.000000 0.000000 198 198 198 1.000000
0.001816 0.097094 -0.061774 0.000000 0.000000 -1.000000 198 198 198 1.000000
0.186691 -0.483023 -0.101108 -0.050529 0.998509 -0.020651 42 42 42 1.000000
0.093302 -0.245064 -0.179058 1.000000 0.000000 0.000000 198 198 198 1.000000
0.050220 0.867526 0.300807 -1.000000 0.000000 0.000000 198 198 198 1.000000
0.093302 -0.354089 -0.126486 1.000000 0.000000 0.000000 198 198 198 1.000000
0.059828 -0.401241 -0.018692 0.000000 -0.000000 1.000000 198 198 198 1.000000
0.050220 0.566964 -0.089815 1.000000 0.000000 0.000000 198 198 198 1.000000
0.018018 0.356290 -0.061774 0.000000 0.000000 -1.000000 198 198 198 1.000000
-0.057487 0.669512 0.601315 1.000000 0.000000 0.000000 198 198 198 1.000000
-0.422853 -0.305473 -0.094212 0.870481 0.449584 -0.200342 198 198 198 1.000000
-0.039983 0.604637 0.715191 0.226238 -0.274221 -0.934676 198 198 198 1.000000
-0.100569 -0.405247 -0.123943 -1.000000 0.000000 0.000000 198 198 198 1.000000
-0.387128 -0.410910 -0.159597 0.000000 0.000000 -1.000000 198 198 198 1.000000
0.040519 0.550394 -0.156174 0.557254 0.152877 -0.816148 198 198 198 1.000000
0.333575 -0.329207 -0.116937 1.000000 0.000000 0.000000 198 198 198 1.000000
-0.057088 0.904185 0.227939 -0.980306 0.196691 -0.017707 198 198 198 1.000000
-0.016591 -0.371050 -0.018692 0.000000 -0.000000 1.000000 198 198 198 1.000000
0.114365 -0.711349 -0.006260 0.000000 1.000000 0.000000 198 198 198 1.000000
-0.119205 -0.332235 -0.095639 0.000000 -1.000000 -0.000000 42 42 42 1.000000
0.419740 -0.126939 -0.123482 -1.000000 0.000000 0.000000 198 198 198 1.000000
0.093302 -0.541385 -0.121373 1.000000 0.000000 0.000000 198 198 198 1.000000
