ply
format ascii 1.0
element vertex 1268
property float x
property float y
property float z
property uchar red
property uchar green
property uchar blue
end_header
0.176433 -0.949555 0.248258 255 0 0
-0.052007 -0.098436 -0.124490 127 127 0
-0.197009 -0.881157 0.178537 204 51 127
-0.023756 -0.082463 0.070289 127 127 0
-0.212031 0.604034 0.215095 76 0 153
-0.102686 0.966489 0.248011 0 0 255
0.001232 -0.444100 0.285530 204 51 127
0.012343 -0.406107 -0.262907 153 0 76
0.213940 -0.642443 -0.229368 153 76 0
0.213940 -0.630593 0.106177 153 76 0
-0.190732 -0.471817 0.204670 255 0 0
-0.212031 -0.066325 0.204748 76 0 153
0.021537 -0.139141 -0.257582 153 0 76
-0.196670 -0.537718 -0.124680 127 127 0
-0.212031 -0.008326 -0.001055 76 0 153
0.213940 -0.155689 -0.249288 153 76 0
-0.212031 -0.850899 0.065809 76 0 153
0.043407 -0.537718 0.084401 127 127 0
-0.212031 0.570254 0.217934 76 0 153
-0.222694 -0.535879 0.285530 76 0 153
-0.212031 -0.817126 -0.106470 76 0 153
0.066598 0.556493 0.067358 76 153 0
0.103209 -0.949283 0.248258 255 0 0
-0.228005 0.875329 0.185132 76 0 153
-0.117742 0.237015 0.197384 0 127 127
-0.010153 0.104783 -0.262907 153 0 76
0.140924 -0.098436 -0.074296 127 127 0
0.015108 0.616086 0.280205 76 153 0
-0.139936 0.051679 -0.257582 153 0 76
0.197966 -0.235727 0.281314 153 76 0
0.197966 -0.325008 -0.082445 153 76 0
-0.067464 0.376529 -0.262907 153 0 76
-0.115540 0.663141 -0.257582 153 0 76
0.179105 0.237015 -0.236861 0 127 127
0.213940 0.718836 0.076348 153 76 0
0.212786 -0.826238 -0.262907 153 0 76
-0.228005 0.739969 -0.080003 76 0 153
0.197966 0.382746 -0.162577 153 76 0
-0.228005 -0.415554 -0.065179 76 0 153
-0.160633 -0.434549 0.285530 204 51 127
-0.212031 -0.164807 0.138693 76 0 153
0.123684 0.540519 -0.094395 76 153 0
-0.021888 0.556493 0.150704 76 153 0
-0.228005 -0.611397 0.168522 76 0 153
0.129028 -0.401940 -0.229407 153 0 76
-0.018541 0.950515 0.186665 0 0 255
-0.228005 0.793044 -0.084840 76 0 153
0.027338 -0.543043 -0.120437 127 127 0
0.048057 -0.881157 -0.160667 204 51 127
-0.135074 0.125048 -0.262907 153 0 76
0.197966 -0.229366 -0.232311 153 76 0
-0.080396 0.237015 -0.060464 0 127 127
-0.182179 -0.417914 -0.129731 153 0 76
0.197966 -0.577407 -0.000847 153 76 0
0.013752 -0.401940 0.099688 153 0 76
0.126717 0.745278 0.280205 76 153 0
0.127794 -0.881157 0.143155 204 51 127
0.197966 0.288535 -0.047924 153 76 0
-0.212031 -0.027156 0.153409 76 0 153
-0.157877 0.320051 -0.262907 153 0 76
-0.105697 0.776032 -0.257582 153 0 76
0.213940 0.633803 -0.168232 153 76 0
0.176667 -0.513099 -0.229810 0 0 255
0.187316 -0.493104 -0.075675 0 0 255
-0.002838 -0.630386 -0.257582 153 0 76
-0.228005 0.015706 0.202610 76 0 153
0.197966 0.534717 0.244144 153 76 0
0.176667 -0.487772 0.138354 0 0 255
-0.212031 0.774538 0.225512 76 0 153
0.213940 -0.504039 0.025618 153 76 0
-0.212031 0.442910 -0.155675 76 0 153
0.180756 -0.082463 -0.233902 127 127 0
-0.076375 0.866936 0.274881 76 153 0
0.213940 0.055866 0.116447 153 76 0
-0.105545 -0.466201 0.285530 204 51 127
0.213940 0.773769 0.051720 153 76 0
-0.228005 -0.289354 -0.022737 76 0 153
-0.003520 -0.897131 -0.240727 204 51 127
-0.228005 0.268184 0.276370 76 0 153
0.213940 -0.698783 0.057362 153 76 0
0.041536 -0.008669 -0.257582 153 0 76
0.213940 -0.544547 -0.220314 153 76 0
0.171766 -0.401940 0.161464 153 0 76
-0.191539 0.519279 0.280205 76 153 0
-0.196214 -0.537718 0.188964 127 127 0
-0.194806 0.023628 -0.257582 153 0 76
-0.162304 -0.881157 0.177823 204 51 127
-0.031722 0.170184 -0.257582 153 0 76
-0.186488 0.418869 -0.257582 153 0 76
0.213940 -0.901604 0.153087 153 76 0
-0.009093 -0.009582 -0.262907 153 0 76
-0.202493 -0.881157 0.135343 204 51 127
-0.228005 -0.398220 0.064260 76 0 153
0.080976 -0.389182 -0.262907 153 0 76
0.006105 -0.401940 0.205398 153 0 76
-0.212031 -0.204651 0.006786 76 0 153
0.069009 -0.897131 0.192582 204 51 127
-0.212031 0.760956 -0.218390 76 0 153
-0.212031 0.024160 -0.012505 76 0 153
-0.212031 0.216111 0.260090 76 0 153
-0.228005 -0.822776 -0.192883 76 0 153
-0.155980 0.540519 -0.081825 76 153 0
-0.216270 -0.255303 0.285530 76 0 153
0.031850 0.107575 -0.262907 153 0 76
-0.005211 -0.082463 -0.060291 127 127 0
-0.036029 -0.543043 0.022118 127 127 0
-0.212031 -0.648387 -0.138978 76 0 153
-0.212031 0.198037 -0.062994 76 0 153
0.045943 -0.881157 0.007652 204 51 127
0.044585 0.226667 -0.257582 0 127 127
-0.228005 -0.494573 -0.155583 76 0 153
-0.091437 0.556493 0.120191 76 153 0
-0.174661 -0.098436 -0.010606 127 127 0
0.213940 0.173167 0.175932 153 76 0
-0.106957 -0.082463 0.246331 127 127 0
-0.175723 -0.636582 -0.262907 153 0 76
-0.212031 0.747874 -0.113280 76 0 153
0.197966 -0.565014 0.205676 153 76 0
0.008390 -0.537718 0.201380 127 127 0
-0.036920 -0.685446 -0.262907 153 0 76
-0.228005 -0.029888 0.282490 76 0 153
-0.070209 0.221041 -0.084477 0 127 127
0.213940 -0.357344 -0.098476 153 76 0
0.087002 0.966489 0.071313 0 0 255
0.197966 0.053261 -0.028457 153 76 0
0.197966 -0.170898 0.043738 153 76 0
0.213940 -0.116168 0.269926 153 76 0
0.020040 -0.543043 0.110752 127 127 0
0.094587 -0.401940 0.087097 153 0 76
0.110161 0.429194 0.274881 76 153 0
-0.064820 -0.098436 -0.190885 127 127 0
-0.136034 0.377498 -0.257582 153 0 76
-0.228005 0.841028 0.148624 76 0 153
-0.082816 -0.537718 0.210042 127 127 0
-0.155544 -0.897131 -0.016721 204 51 127
0.076400 -0.164963 -0.257582 153 0 76
0.213940 0.505631 0.009624 153 76 0
0.129134 -0.082463 0.104203 127 127 0
0.197966 -0.373523 -0.042358 153 76 0
0.187478 -0.401940 0.101771 153 0 76
0.172323 -0.537718 0.265895 127 127 0
0.082694 0.896908 0.274881 76 153 0
-0.005917 0.966489 0.042553 0 0 255
0.197966 -0.276045 -0.015561 153 76 0
0.079720 -0.494835 0.274881 204 51 127
-0.103993 0.221041 -0.072593 0 127 127
0.159089 0.390999 -0.257582 153 0 76
-0.212031 -0.618213 -0.093495 76 0 153
0.020237 0.556493 -0.071618 76 153 0
0.185496 0.333209 0.274881 76 153 0
-0.159530 -0.912159 0.264231 255 0 0
-0.095904 -0.885483 -0.262907 153 0 76
-0.228005 0.427460 0.280875 76 0 153
-0.002608 -0.897131 -0.067557 204 51 127
0.213940 0.554005 0.226519 153 76 0
0.213940 0.907743 0.200628 153 76 0
0.213940 0.774462 -0.002598 153 76 0
-0.212031 0.487316 -0.124236 76 0 153
-0.228005 -0.837349 0.136884 76 0 153
0.187316 -0.446675 0.258424 0 0 255
-0.228005 0.624306 0.177137 76 0 153
0.213940 0.141938 0.227026 153 76 0
-0.016341 -0.417914 -0.195577 153 0 76
-0.228005 0.548016 0.188842 76 0 153
0.197966 -0.133383 0.190989 153 76 0
-0.178177 0.237015 0.022418 0 127 127
0.128789 0.966489 -0.152408 0 0 255
0.179668 0.042080 -0.257582 153 0 76
-0.228005 0.835580 0.072476 76 0 153
-0.132295 0.540519 -0.198669 76 153 0
-0.102219 -0.229355 -0.262907 153 0 76
-0.082316 -0.417914 0.257628 153 0 76
0.067675 -0.881157 -0.099889 204 51 127
-0.201381 -0.530377 0.033800 255 0 0
-0.212031 0.054814 0.123670 76 0 153
-0.212031 -0.316880 -0.114124 76 0 153
0.126086 -0.401940 0.067554 153 0 76
0.213940 0.686834 -0.198479 153 76 0
0.056078 -0.417914 -0.105818 153 0 76
-0.139246 -0.691597 -0.262907 153 0 76
0.030068 0.556493 0.258526 76 153 0
0.193211 0.724412 -0.257582 153 0 76
-0.212031 0.622774 -0.220379 76 0 153
0.176831 -0.852683 -0.257582 153 0 76
-0.228005 -0.925617 0.123315 76 0 153
-0.212031 0.898465 0.204335 76 0 153
0.213940 0.061789 -0.174228 153 76 0
0.146012 0.556493 -0.016955 76 153 0
-0.212031 -0.559760 0.014220 76 0 153
0.078140 0.854621 -0.262907 153 0 76
0.213940 -0.697516 0.261734 153 76 0
0.130139 -0.903277 -0.257582 153 0 76
0.213940 -0.818703 0.202635 153 76 0
-0.092184 0.275789 0.280205 76 153 0
-0.228005 -0.515997 0.077440 76 0 153
-0.096600 -0.914042 0.248258 255 0 0
-0.228005 0.960068 -0.145422 76 0 153
-0.120237 -0.611182 -0.257582 153 0 76
-0.211757 0.495446 -0.257582 153 0 76
-0.228005 0.888271 0.107328 76 0 153
0.213940 -0.666548 -0.039290 153 76 0
0.113315 0.332267 -0.262907 153 0 76
0.126436 0.950515 -0.094053 0 0 255
-0.024358 0.547692 0.274881 76 153 0
-0.228005 -0.299133 0.145543 76 0 153
-0.156069 -0.098436 0.166567 127 127 0
-0.111910 0.556493 -0.048401 76 153 0
0.108539 -0.417914 0.016790 153 0 76
-0.212031 -0.768377 0.216621 76 0 153
0.083214 -0.674224 -0.262907 153 0 76
-0.212031 0.133474 -0.016588 76 0 153
-0.228005 -0.184387 -0.069288 76 0 153
-0.228005 -0.804755 -0.082771 76 0 153
0.075948 0.237957 -0.262907 153 0 76
-0.165766 -0.496236 -0.246933 0 255 0
-0.012800 -0.135832 -0.262907 153 0 76
0.197966 0.147877 0.164128 153 76 0
0.213940 -0.827127 -0.080304 153 76 0
0.078157 0.614989 0.274881 76 153 0
-0.105813 0.950515 -0.126573 0 0 255
-0.212031 0.424170 0.226395 76 0 153
-0.197720 0.331654 0.280205 76 153 0
-0.212031 0.376208 0.089770 76 0 153
-0.228005 -0.613339 0.053912 76 0 153
-0.172558 -0.417914 -0.226527 153 0 76
-0.127620 0.599143 0.274881 76 153 0
-0.228005 -0.583866 -0.040087 76 0 153
-0.228005 -0.670165 0.067313 76 0 153
-0.166734 0.959704 -0.262907 153 0 76
0.197966 -0.768925 -0.028249 153 76 0
0.213940 -0.715913 -0.124080 153 76 0
0.075750 -0.426763 -0.257582 153 0 76
0.176667 -0.495192 0.225671 0 0 255
-0.158442 0.966489 -0.145800 0 0 255
-0.062032 -0.537718 0.008066 127 127 0
0.188745 0.950515 -0.228324 0 0 255
0.038577 0.786783 -0.262907 153 0 76
0.013346 0.540519 0.110848 76 153 0
-0.111520 0.249630 -0.262907 153 0 76
-0.212031 0.131979 0.199551 76 0 153
0.213940 0.059295 0.074935 153 76 0
0.050967 -0.417914 0.004050 153 0 76
-0.228005 -0.435448 -0.188022 76 0 153
0.213940 -0.904062 0.052845 153 76 0
-0.004533 -0.082463 0.198211 127 127 0
-0.228005 -0.784893 0.263408 76 0 153
0.187316 -0.482564 0.170373 0 0 255
0.213940 0.224869 0.006395 153 76 0
-0.163995 0.686332 0.280205 76 153 0
0.197966 0.473358 0.067911 153 76 0
-0.228005 0.287057 0.203685 76 0 153
-0.049306 -0.082463 0.110930 127 127 0
0.088979 0.237015 0.087943 0 127 127
-0.192438 -0.881157 -0.044113 204 51 127
0.213940 -0.415717 0.009281 153 76 0
0.101206 -0.610919 -0.257582 153 0 76
0.197966 -0.916479 0.186234 153 76 0
0.213940 -0.319748 -0.049391 153 76 0
0.213940 0.215179 0.071178 153 76 0
0.213940 0.163555 0.115662 153 76 0
0.197966 0.287333 -0.117817 153 76 0
0.185278 0.779212 -0.257582 153 0 76
0.181696 0.582083 -0.262907 153 0 76
0.213940 0.965418 -0.092835 153 76 0
-0.212031 0.847206 0.003853 76 0 153
-0.119041 -0.098436 -0.041656 127 127 0
0.104687 -0.098436 0.081578 127 127 0
-0.079014 0.443498 -0.262907 153 0 76
0.213940 -0.658603 0.154791 153 76 0
0.183942 -0.401940 -0.034311 153 0 76
-0.192132 -0.082463 0.021394 127 127 0
-0.118262 -0.897131 -0.001930 204 51 127
-0.228005 -0.949518 0.067035 76 0 153
0.072772 0.221041 0.015183 0 127 127
-0.122138 0.221041 -0.203184 0 127 127
0.075793 0.556493 0.148604 76 153 0
-0.212031 0.044764 0.173509 76 0 153
0.176667 -0.422787 0.063582 0 0 255
-0.212031 0.678811 -0.251557 76 0 153
0.158680 -0.543043 0.012473 127 127 0
0.213940 0.524578 -0.013425 153 76 0
-0.212031 0.296180 0.256293 76 0 153
0.197966 0.933027 -0.140961 153 76 0
0.082228 0.341650 0.274881 76 153 0
-0.051406 0.950515 -0.159759 0 0 255
0.213940 0.457614 0.178087 153 76 0
-0.064656 -0.537718 -0.236044 127 127 0
0.197966 -0.276977 -0.057642 153 76 0
-0.124072 0.556493 0.181621 76 153 0
-0.228005 0.385094 -0.257188 76 0 153
0.148206 0.950515 -0.198213 0 0 255
-0.023231 -0.881157 -0.039914 204 51 127
0.127135 -0.417914 -0.171902 153 0 76
0.213940 0.468781 -0.094436 153 76 0
0.110547 0.237015 -0.235856 0 127 127
-0.212031 0.526625 -0.161740 76 0 153
-0.134473 0.956186 -0.257582 0 0 255
0.098428 0.695411 0.274881 76 153 0
0.059418 0.966489 -0.135038 0 0 255
0.044940 0.966489 -0.035038 0 0 255
-0.060175 -0.537718 0.108713 127 127 0
-0.212031 -0.163107 -0.205228 76 0 153
-0.228005 -0.108671 0.067013 76 0 153
0.016537 -0.475615 0.285530 204 51 127
0.111320 -0.881157 0.069607 204 51 127
0.087969 -0.082463 0.186603 127 127 0
-0.212031 0.930757 0.210553 76 0 153
-0.055600 -0.537718 -0.090067 127 127 0
0.197966 0.471236 -0.213919 153 76 0
-0.196752 -0.401940 0.249514 153 0 76
-0.194199 -0.401940 -0.054512 153 0 76
0.114194 -0.638047 -0.262907 153 0 76
-0.228005 0.606654 -0.025924 76 0 153
0.153188 -0.897131 -0.212168 204 51 127
0.213940 0.047452 0.163766 153 76 0
0.197966 -0.072602 -0.114701 153 76 0
0.213940 0.644778 0.141456 153 76 0
-0.211834 0.221041 0.030267 0 127 127
-0.155372 0.237015 0.232641 0 127 127
0.024337 -0.537718 0.141333 127 127 0
-0.212031 0.832134 -0.186570 76 0 153
-0.071991 0.704194 0.280205 76 153 0
-0.228005 0.102285 -0.076244 76 0 153
0.053842 -0.897131 0.144389 204 51 127
0.185671 0.966489 -0.129003 0 0 255
0.213940 -0.444119 -0.145620 153 76 0
0.026619 0.723186 -0.257582 153 0 76
-0.134789 0.950515 0.252587 0 0 255
0.187316 -0.439625 0.208037 0 0 255
-0.105245 -0.382099 -0.257582 153 0 76
-0.228005 -0.229369 -0.070288 76 0 153
0.067654 0.208821 -0.262907 153 0 76
-0.122265 0.540519 -0.149289 76 153 0
0.213940 -0.674835 -0.095496 153 76 0
-0.228005 0.590943 -0.104075 76 0 153
0.197966 0.770482 0.164543 153 76 0
0.213940 -0.851714 0.151354 153 76 0
0.097694 0.950515 -0.122257 0 0 255
0.038573 -0.675249 -0.262907 153 0 76
0.213940 -0.651028 0.256000 153 76 0
-0.114223 -0.401940 -0.095686 153 0 76
0.187316 -0.484294 -0.019879 0 0 255
-0.228005 0.494966 0.092361 76 0 153
-0.116822 0.221041 -0.036363 0 127 127
0.197966 -0.364459 -0.140298 153 76 0
0.210329 0.966489 0.275176 153 76 0
-0.212031 0.729246 -0.185717 76 0 153
-0.212031 -0.274489 -0.183841 76 0 153
0.155828 0.325326 -0.262907 153 0 76
-0.137666 -0.537718 -0.180231 127 127 0
-0.061943 0.112469 -0.257582 153 0 76
-0.076225 -0.082463 -0.002773 127 127 0
0.197966 0.925481 -0.184939 153 76 0
0.213940 0.114343 0.259374 153 76 0
-0.145321 -0.417914 -0.096077 153 0 76
-0.212031 0.459179 -0.021579 76 0 153
0.199587 -0.188114 0.285530 153 76 0
-0.008031 -0.537718 0.103106 127 127 0
0.128146 0.966489 0.179123 0 0 255
0.213940 -0.623737 0.007136 153 76 0
-0.228005 0.004127 -0.198471 76 0 153
0.095603 0.830930 -0.257582 153 0 76
0.197966 0.264398 -0.187703 153 76 0
-0.212031 -0.659439 -0.060905 76 0 153
0.197966 -0.589177 0.162985 153 76 0
-0.115848 -0.003074 -0.262907 153 0 76
0.213940 0.538397 0.111906 153 76 0
0.181134 0.558561 0.280205 76 153 0
-0.009693 0.237015 0.160317 0 127 127
-0.212031 -0.096698 -0.151277 76 0 153
0.054929 0.966489 0.106443 0 0 255
-0.028525 -0.082463 -0.116576 127 127 0
0.136825 0.486695 0.274881 76 153 0
-0.228005 0.101081 -0.242775 76 0 153
-0.040292 -0.897131 0.166358 204 51 127
-0.228005 0.884207 0.261926 76 0 153
-0.013190 -0.098436 -0.162261 127 127 0
-0.048215 -0.484796 -0.262907 153 0 76
-0.228005 -0.514010 0.110026 76 0 153
-0.120902 -0.098436 0.145590 127 127 0
0.213940 0.408821 -0.033271 153 76 0
0.021417 0.292262 -0.262907 153 0 76
-0.228005 -0.217305 0.281274 76 0 153
-0.203618 -0.322077 -0.262907 153 0 76
-0.004907 0.966489 0.248168 0 0 255
-0.017580 -0.450900 -0.246933 0 255 0
0.197966 0.098493 -0.128241 153 76 0
0.016720 -0.082463 -0.003976 127 127 0
-0.212031 0.283050 -0.226182 76 0 153
-0.228005 0.542845 0.079357 76 0 153
-0.077390 0.237015 -0.160002 0 127 127
0.197966 0.581782 0.164029 153 76 0
0.197966 0.632154 -0.113523 153 76 0
0.197966 0.223527 -0.201922 0 127 127
-0.112137 -0.526524 -0.246933 0 255 0
-0.228005 0.899047 0.024827 76 0 153
0.122125 0.776054 0.274881 76 153 0
-0.091857 0.221041 -0.137159 0 127 127
0.085889 -0.543043 -0.000656 127 127 0
-0.228005 0.377421 -0.166283 76 0 153
0.186997 -0.261400 -0.257582 153 0 76
-0.210531 -0.881157 -0.016127 204 51 127
-0.228005 0.794439 0.087492 76 0 153
-0.120092 -0.543043 0.263137 127 127 0
0.140524 0.540519 -0.172588 76 153 0
-0.050137 -0.881157 -0.086810 204 51 127
-0.212031 0.767552 0.256694 76 0 153
-0.228005 0.694650 0.036733 76 0 153
-0.212031 -0.194608 0.197662 76 0 153
-0.032984 -0.097575 0.274881 127 127 0
-0.089091 0.950515 -0.075954 0 0 255
0.156013 0.522066 -0.257582 153 0 76
0.062993 -0.548368 0.275874 204 51 127
-0.228005 -0.436724 0.199233 76 0 153
-0.228005 -0.556578 0.225945 76 0 153
-0.071004 -0.829235 -0.262907 153 0 76
0.197966 -0.563284 0.046139 153 76 0
-0.090921 0.950515 -0.182605 0 0 255
0.197966 -0.165098 0.247476 153 76 0
0.051163 -0.930241 0.264231 255 0 0
-0.086151 0.322000 0.274881 76 153 0
-0.042149 0.237015 0.198133 0 127 127
0.173298 0.237015 0.209791 0 127 127
0.197966 0.310356 -0.235257 153 76 0
0.115031 -0.452595 0.274881 204 51 127
0.085932 -0.401940 -0.202529 153 0 76
-0.192637 -0.098436 0.112303 127 127 0
0.213940 -0.244872 0.238408 153 76 0
0.187316 -0.472756 0.073173 0 0 255
0.197966 -0.358048 -0.234864 153 76 0
-0.228005 -0.618405 -0.185135 76 0 153
0.148941 -0.543043 -0.055158 127 127 0
-0.200268 0.540519 0.050097 76 153 0
0.138927 -0.897131 -0.133490 204 51 127
0.213940 -0.435197 -0.041612 153 76 0
0.179355 0.834877 0.280205 76 153 0
0.144036 -0.082463 0.164257 127 127 0
-0.212031 -0.164929 -0.087649 76 0 153
0.124864 0.221041 -0.088640 0 127 127
-0.228005 -0.519825 -0.171489 76 0 153
-0.207995 0.150190 -0.257582 153 0 76
0.197966 -0.777794 -0.126032 153 76 0
-0.212031 0.747151 -0.029770 76 0 153
0.058924 -0.098436 0.157861 127 127 0
0.127963 -0.094921 -0.262907 153 0 76
-0.228005 0.315910 -0.077307 76 0 153
0.209809 -0.237876 -0.257582 153 0 76
-0.212031 -0.466882 -0.225848 76 0 153
0.168297 0.966489 0.022633 0 0 255
0.014752 0.966489 0.077120 0 0 255
0.197966 0.196387 0.256308 153 76 0
-0.212031 0.142234 0.105148 76 0 153
-0.228005 0.288987 -0.103491 76 0 153
-0.003112 -0.250490 -0.262907 153 0 76
0.213940 -0.340711 0.116861 153 76 0
-0.212031 -0.151363 0.016931 76 0 153
-0.140724 0.556493 -0.044105 76 153 0
-0.075546 0.540519 -0.116944 76 153 0
0.213940 -0.733650 -0.223858 153 76 0
-0.143962 0.221041 0.121183 0 127 127
0.213940 -0.833556 -0.030144 153 76 0
-0.153319 0.480352 0.274881 76 153 0
-0.212031 -0.711564 -0.142084 76 0 153
-0.201381 -0.420993 -0.220639 255 0 0
-0.209924 0.864103 -0.257582 153 0 76
-0.228005 -0.401020 0.213319 76 0 153
-0.212031 0.670897 0.015313 76 0 153
-0.212031 0.179530 0.219319 76 0 153
0.213940 0.019227 0.173846 153 76 0
0.213940 0.359467 0.077838 153 76 0
-0.212031 -0.354095 -0.154879 76 0 153
-0.006375 -0.950377 0.258819 255 0 0
-0.212031 0.913040 -0.131680 76 0 153
0.010506 -0.417914 0.034504 153 0 76
-0.135237 0.950515 -0.199799 0 0 255
-0.158805 0.580972 -0.262907 153 0 76
0.213940 0.802549 0.245221 153 76 0
0.118903 0.237015 -0.143042 0 127 127
0.213940 -0.307097 0.166661 153 76 0
-0.044430 0.645116 0.280205 76 153 0
0.005577 -0.417914 0.152003 153 0 76
0.113180 0.839763 0.274881 76 153 0
-0.063564 0.540519 0.069997 76 153 0
0.163313 0.261836 0.274881 76 153 0
-0.228005 -0.277912 -0.246095 76 0 153
0.197966 0.837024 0.127034 153 76 0
0.131788 -0.401940 0.263253 153 0 76
-0.089556 0.966489 0.108388 0 0 255
0.169228 -0.401940 0.250178 153 0 76
0.197966 -0.080691 0.212984 153 76 0
0.029697 0.587978 0.274881 76 153 0
0.045040 0.540519 0.055321 76 153 0
0.032578 -0.098436 -0.141870 127 127 0
-0.118731 0.853759 0.280205 76 153 0
0.191987 0.966489 -0.170139 0 0 255
-0.125071 -0.881157 -0.072283 204 51 127
-0.201381 -0.444805 -0.148670 255 0 0
-0.228005 0.787243 -0.151928 76 0 153
-0.228005 0.955566 0.031823 76 0 153
-0.047208 0.333107 -0.257582 153 0 76
0.197966 -0.087704 0.097568 153 76 0
-0.155195 -0.082463 -0.105489 127 127 0
0.068881 -0.122961 -0.257582 153 0 76
-0.146851 -0.543043 -0.120585 127 127 0
-0.212031 -0.270134 -0.072336 76 0 153
0.059333 0.950515 -0.184275 0 0 255
-0.065613 0.006007 -0.262907 153 0 76
0.213940 -0.644739 -0.174639 153 76 0
-0.228005 -0.715270 0.074858 76 0 153
0.125297 -0.098436 0.023911 127 127 0
-0.008084 0.950515 -0.042620 0 0 255
0.213940 -0.359785 0.223196 153 76 0
0.197966 -0.297784 -0.103532 153 76 0
-0.011742 -0.401940 -0.230216 153 0 76
-0.228005 0.966010 -0.088491 76 0 153
-0.109042 0.950515 -0.241004 0 0 255
0.213940 0.742928 0.058312 153 76 0
-0.228005 0.113237 0.090802 76 0 153
-0.212031 -0.007359 -0.068601 76 0 153
0.084299 -0.797085 -0.262907 153 0 76
-0.082670 0.621030 -0.257582 153 0 76
0.136020 -0.406990 -0.262907 153 0 76
-0.228005 0.827053 -0.125946 76 0 153
0.176822 -0.420576 -0.101684 0 0 255
-0.200090 -0.420576 -0.028616 255 0 0
0.213940 -0.369099 0.282910 153 76 0
-0.143312 -0.897131 0.138546 204 51 127
-0.212031 0.608527 0.259462 76 0 153
-0.228005 -0.702224 0.121071 76 0 153
-0.196995 0.221041 0.000892 0 127 127
0.082005 -0.082463 -0.167024 127 127 0
0.011230 0.811425 0.280205 76 153 0
0.213940 -0.263031 0.139853 153 76 0
-0.024387 0.237015 0.113937 0 127 127
0.195623 -0.881157 -0.174194 204 51 127
0.024634 0.556493 0.194885 76 153 0
0.109803 -0.401940 -0.086320 153 0 76
-0.228005 0.717837 0.191231 76 0 153
0.149053 0.512761 0.274881 76 153 0
-0.196440 0.966489 0.256713 0 0 255
0.062086 0.556493 0.013848 76 153 0
0.063520 -0.082463 0.242521 127 127 0
-0.178195 0.092701 -0.257582 153 0 76
0.083611 0.958502 0.279475 76 153 0
-0.212031 -0.918858 -0.190203 76 0 153
0.005066 0.540519 -0.235661 76 153 0
-0.085372 -0.881157 -0.026614 204 51 127
0.213940 -0.836937 -0.235838 153 76 0
-0.150949 0.633743 0.274881 76 153 0
0.055418 -0.082463 0.067643 127 127 0
-0.211594 -0.881157 0.241755 204 51 127
0.108156 0.221041 -0.028012 0 127 127
0.197966 -0.517056 -0.126998 153 76 0
0.197966 -0.682112 0.083143 153 76 0
0.014111 -0.098436 0.223177 127 127 0
0.197966 0.675295 -0.050066 153 76 0
0.197966 0.583411 0.253204 153 76 0
0.101017 -0.481923 -0.257582 153 0 76
-0.228005 0.328842 -0.162128 76 0 153
-0.212031 -0.241691 -0.237411 76 0 153
0.103386 0.408668 -0.257582 153 0 76
0.197966 -0.401384 -0.111366 153 76 0
0.066570 0.237015 0.134200 0 127 127
-0.000423 0.556493 0.077373 76 153 0
-0.212031 -0.615999 0.029944 76 0 153
0.176667 -0.423569 -0.240939 0 0 255
-0.212031 -0.117199 -0.185726 76 0 153
0.213940 0.860191 -0.184900 153 76 0
-0.146736 0.775771 0.280205 76 153 0
0.213940 0.855905 -0.231431 153 76 0
-0.123734 -0.881157 0.156064 204 51 127
0.213940 -0.736109 -0.033116 153 76 0
0.113940 -0.881157 -0.057089 204 51 127
0.213940 0.109426 0.134267 153 76 0
-0.212031 -0.938240 -0.139151 76 0 153
0.213940 0.366294 -0.222544 153 76 0
-0.071505 0.144890 -0.262907 153 0 76
-0.174678 0.540519 -0.184787 76 153 0
0.055435 0.966489 0.171588 0 0 255
0.206013 0.336690 -0.262907 153 0 76
0.210470 0.478334 -0.257582 153 0 76
-0.129679 -0.543043 0.013357 127 127 0
0.213940 -0.212660 -0.066001 153 76 0
-0.101578 0.646554 0.274881 76 153 0
0.197966 -0.762207 0.219517 153 76 0
-0.228005 0.516913 0.163238 76 0 153
0.213940 0.924249 -0.117463 153 76 0
-0.228005 0.218809 0.131369 76 0 153
-0.168626 -0.082463 -0.065293 127 127 0
-0.006773 -0.041591 -0.257582 153 0 76
-0.228005 0.180165 0.082846 76 0 153
-0.212031 -0.529071 0.224948 76 0 153
-0.038048 0.966489 0.273879 0 0 255
0.213940 -0.800036 -0.141678 153 76 0
-0.228005 -0.489472 -0.247786 76 0 153
0.142666 0.450085 -0.262907 153 0 76
0.197966 -0.139027 0.158748 153 76 0
-0.228005 -0.219188 0.156941 76 0 153
-0.228005 -0.735410 0.039689 76 0 153
-0.228005 0.167274 0.153429 76 0 153
-0.212031 0.537396 -0.127372 76 0 153
-0.109305 -0.537718 -0.115948 127 127 0
-0.054347 -0.543043 0.258115 127 127 0
-0.228005 -0.050101 -0.210423 76 0 153
0.010021 -0.417914 -0.076011 153 0 76
-0.189222 0.634806 -0.257582 153 0 76
0.008497 0.451314 -0.257582 153 0 76
0.213940 -0.789761 0.139550 153 76 0
-0.228005 -0.872670 0.279551 76 0 153
-0.228005 -0.121289 0.100848 76 0 153
0.049658 0.938595 -0.262907 153 0 76
0.213940 -0.072605 -0.179459 153 76 0
0.149839 0.831597 -0.262907 153 0 76
-0.212031 0.605422 -0.191263 76 0 153
-0.014638 0.423443 0.280205 76 153 0
0.073718 0.596063 -0.257582 153 0 76
-0.228005 -0.327247 0.219577 76 0 153
0.149261 -0.872809 -0.262907 153 0 76
-0.212031 0.934577 -0.181821 76 0 153
-0.228005 -0.265480 -0.038262 76 0 153
-0.228005 -0.914945 0.267278 76 0 153
-0.212031 0.339383 0.122632 76 0 153
-0.212031 0.553523 -0.251543 76 153 0
-0.212031 0.899395 0.084383 76 0 153
-0.228005 -0.687696 -0.235297 76 0 153
0.044872 0.221041 -0.002041 0 127 127
0.187316 -0.445748 0.173244 0 0 255
0.213940 0.397651 -0.243483 153 76 0
0.213940 0.320098 0.101372 153 76 0
0.213940 -0.563722 0.281514 153 76 0
-0.124141 -0.401940 0.149208 153 0 76
-0.147639 0.966489 -0.051117 0 0 255
0.187316 -0.445421 -0.127841 0 0 255
-0.228005 0.245311 0.141658 76 0 153
0.081247 0.388095 -0.262907 153 0 76
0.197966 -0.182908 -0.193772 153 76 0
-0.087056 -0.537718 -0.084006 127 127 0
0.059517 -0.401940 0.138564 153 0 76
0.197966 -0.432939 0.028219 153 76 0
0.213940 -0.563412 -0.023042 153 76 0
0.014606 -0.098436 0.254033 127 127 0
-0.038954 -0.401940 0.056821 153 0 76
-0.083691 -0.455464 -0.262907 153 0 76
0.122182 0.179895 -0.262907 153 0 76
0.197966 0.917003 0.263003 153 76 0
-0.212031 0.281475 -0.186123 76 0 153
0.197966 0.893712 -0.087556 153 76 0
-0.212031 0.089536 0.024488 76 0 153
0.176667 -0.449917 -0.194114 0 0 255
-0.011702 0.745397 -0.257582 153 0 76
0.083603 -0.881157 0.050843 204 51 127
0.195498 0.556493 -0.103894 76 153 0
-0.075892 0.650525 -0.262907 153 0 76
-0.212031 0.657738 0.198231 76 0 153
-0.212031 -0.192661 -0.018902 76 0 153
-0.200871 -0.881157 -0.234433 204 51 127
-0.213934 0.795692 -0.262907 153 0 76
0.213940 -0.323907 0.251727 153 76 0
-0.212031 0.789380 -0.225299 76 0 153
0.213940 -0.589395 -0.045558 153 76 0
0.185423 -0.105877 -0.262907 153 0 76
0.104120 -0.098436 0.128871 127 127 0
0.137049 0.237015 0.124457 0 127 127
-0.019584 0.304057 0.274881 76 153 0
0.197966 0.747266 -0.046094 153 76 0
0.197966 -0.924140 -0.214971 153 76 0
0.213940 0.716080 -0.024279 153 76 0
0.194146 -0.098436 -0.097383 127 127 0
-0.228005 -0.424950 -0.093853 76 0 153
-0.160345 0.966489 0.173251 0 0 255
0.117897 0.221041 0.018617 0 127 127
-0.212031 0.508716 0.190078 76 0 153
-0.213120 0.633558 0.285530 76 0 153
-0.058404 0.468106 0.274881 76 153 0
0.197966 -0.847856 -0.178999 153 76 0
-0.228005 0.069015 0.176511 76 0 153
0.213940 0.225447 0.036273 153 76 0
0.121682 -0.897131 -0.020466 204 51 127
-0.106298 0.503455 0.274881 76 153 0
0.097152 0.221041 0.155424 0 127 127
0.059396 -0.537718 0.178214 127 127 0
0.049381 -0.881157 -0.023709 204 51 127
-0.135473 -0.414527 0.285530 204 51 127
-0.200247 -0.656231 -0.257582 153 0 76
0.197966 -0.115390 0.058236 153 76 0
0.067287 -0.417914 0.030717 153 0 76
0.213940 0.739317 -0.155918 153 76 0
-0.190732 -0.476923 -0.166502 255 0 0
-0.072955 -0.082463 0.090942 127 127 0
0.197966 -0.857022 0.256331 153 76 0
-0.228005 0.066910 0.002320 76 0 153
0.213940 -0.476543 0.134159 153 76 0
0.010710 -0.881157 -0.088716 204 51 127
0.197966 0.379719 -0.084817 153 76 0
0.170788 0.556493 -0.231157 76 153 0
-0.228005 -0.939579 -0.040320 76 0 153
-0.183565 -0.477647 0.285530 204 51 127
-0.212031 -0.655271 0.283815 76 0 153
0.037954 -0.523944 0.285530 204 51 127
-0.228005 -0.341969 -0.205017 76 0 153
0.054498 -0.047612 -0.257582 153 0 76
0.125993 0.880823 -0.257582 153 0 76
-0.093066 0.756558 0.280205 76 153 0
0.197966 0.781409 -0.212367 153 76 0
-0.228005 0.383958 0.267368 76 0 153
-0.228005 0.064724 -0.202134 76 0 153
-0.228005 0.935319 0.285294 76 0 153
0.165051 -0.098436 0.241331 127 127 0
0.197966 -0.922776 0.108280 153 76 0
0.197966 -0.052564 -0.142044 153 76 0
-0.195607 0.585214 0.280205 76 153 0
-0.228005 -0.511983 -0.116165 76 0 153
0.189800 0.221041 -0.059154 0 127 127
-0.127484 0.540519 0.234200 76 153 0
-0.080796 -0.401940 0.138945 153 0 76
0.016776 0.950515 0.239998 0 0 255
-0.036146 -0.897131 0.004782 204 51 127
0.082699 0.950515 -0.004881 0 0 255
-0.131933 0.540519 -0.232977 76 153 0
0.213940 -0.120121 0.029346 153 76 0
0.197966 0.192604 -0.143451 153 76 0
-0.212031 -0.067554 -0.183565 76 0 153
-0.063826 -0.587088 -0.262907 153 0 76
-0.212031 0.628247 -0.081527 76 0 153
0.213940 -0.750063 -0.196973 153 76 0
-0.059557 -0.428414 0.307402 153 0 76
0.197966 -0.468641 -0.059128 153 76 0
0.197966 0.667164 0.161061 153 76 0
-0.050413 0.470898 -0.262907 153 0 76
0.146877 -0.401940 0.104292 153 0 76
-0.141079 -0.651382 -0.257582 153 0 76
-0.198866 -0.185108 -0.257582 153 0 76
-0.044590 0.695028 0.274881 76 153 0
0.053247 -0.638293 -0.262907 153 0 76
0.213940 -0.130558 -0.143994 153 76 0
-0.015099 0.374444 0.280205 76 153 0
0.097973 -0.543043 0.146301 127 127 0
-0.093358 -0.631061 -0.257582 153 0 76
-0.212031 0.582331 -0.076195 76 0 153
0.137876 0.918261 0.280205 76 153 0
-0.228005 0.709810 0.129928 76 0 153
-0.113857 0.966489 -0.002516 0 0 255
0.213940 -0.707884 0.028094 153 76 0
0.151601 -0.082463 -0.152245 127 127 0
-0.212031 -0.892793 0.211251 76 0 153
-0.228005 0.141628 -0.038109 76 0 153
-0.071389 0.551478 0.280205 76 153 0
-0.212031 0.796630 0.030589 76 0 153
-0.212031 0.779268 0.112064 76 0 153
0.136260 0.374792 -0.257582 153 0 76
0.160252 0.966489 -0.097236 0 0 255
0.027095 -0.811954 -0.262907 153 0 76
-0.212031 -0.842627 -0.045569 76 0 153
-0.070885 0.255305 0.274881 76 153 0
0.167491 -0.098436 0.058174 127 127 0
-0.228005 -0.133210 0.136936 76 0 153
-0.228005 0.127217 -0.110427 76 0 153
0.213940 -0.457147 0.097292 153 76 0
0.213940 -0.583212 0.126432 153 76 0
-0.161718 0.430690 -0.262907 153 0 76
-0.212031 0.278841 0.158018 76 0 153
0.197966 -0.208196 0.139473 153 76 0
0.197966 -0.650352 -0.086552 153 76 0
0.213940 0.577792 -0.103984 153 76 0
-0.212031 -0.029713 0.104116 76 0 153
-0.228005 0.104269 0.277566 76 0 153
0.172184 -0.767664 -0.262907 153 0 76
-0.212031 0.737154 0.256641 76 0 153
-0.218812 0.522013 0.285530 76 0 153
0.031668 -0.425540 -0.257582 153 0 76
-0.212031 -0.685598 -0.172680 76 0 153
-0.082819 -0.417914 -0.056185 153 0 76
0.107804 -0.841826 -0.262907 153 0 76
-0.107618 0.221041 -0.009811 0 127 127
-0.049246 -0.881157 -0.241158 204 51 127
0.197966 0.571277 0.032329 153 76 0
-0.212031 0.194810 -0.242331 76 0 153
-0.212031 -0.363765 0.113806 76 0 153
0.096055 -0.923461 0.264231 255 0 0
-0.201381 -0.491751 0.083380 255 0 0
-0.114991 0.422364 0.274881 76 153 0
-0.144495 0.357202 0.280205 76 153 0
-0.032608 0.540519 0.029208 76 153 0
-0.058693 -0.401940 0.244919 153 0 76
-0.138035 -0.455674 -0.246933 0 255 0
-0.097839 0.221041 0.096198 0 127 127
-0.196769 0.300010 0.280205 76 153 0
-0.228005 -0.170917 0.208496 76 0 153
-0.228005 -0.422334 -0.163447 76 0 153
-0.212031 0.360893 -0.204333 76 0 153
0.213940 0.284420 0.020437 153 76 0
-0.170499 -0.310670 -0.257582 153 0 76
0.135109 -0.401940 0.147155 153 0 76
0.197966 -0.110472 0.005423 153 76 0
0.056830 0.540519 0.110822 76 153 0
0.213940 0.449253 -0.135056 153 76 0
-0.212031 0.019875 -0.236042 76 0 153
0.070868 0.148645 -0.257582 153 0 76
0.197966 0.093816 0.277357 153 76 0
0.187316 -0.476214 -0.236107 0 0 255
0.213940 0.093051 -0.188112 153 76 0
0.197966 0.781531 0.259688 153 76 0
0.152805 -0.098436 -0.107216 127 127 0
-0.228005 0.623749 0.234797 76 0 153
0.027324 -0.543043 0.012132 127 127 0
-0.228005 -0.367791 -0.034892 76 0 153
0.012998 0.221041 0.162217 0 127 127
0.197966 -0.523369 0.052381 153 76 0
0.197966 -0.100893 0.133058 153 76 0
-0.076451 -0.897131 0.121360 204 51 127
0.116036 0.540519 -0.043006 76 153 0
0.197966 0.929205 0.084164 153 76 0
-0.212031 0.513505 -0.082945 76 0 153
0.138181 -0.881157 -0.164057 204 51 127
0.197966 -0.478366 0.263961 153 76 0
-0.012963 -0.401940 0.088336 153 0 76
-0.140668 0.291525 -0.262907 153 0 76
-0.076860 0.430396 0.274881 76 153 0
-0.228005 0.029953 0.131659 76 0 153
0.213940 -0.894207 0.232602 153 76 0
-0.228005 0.268349 -0.249904 76 0 153
0.123926 0.480456 -0.257582 153 0 76
-0.228005 0.359086 -0.039599 76 0 153
-0.124127 0.950515 0.196702 0 0 255
0.176667 -0.461390 -0.031327 0 0 255
-0.086437 0.540519 0.037741 76 153 0
0.133752 -0.881157 0.272441 204 51 127
-0.135705 0.221041 0.247925 0 127 127
-0.022077 -0.098436 -0.024767 127 127 0
-0.212031 0.644412 -0.181926 76 0 153
0.197966 0.480756 0.222328 153 76 0
0.124171 -0.098436 0.216847 127 127 0
-0.097698 -0.897131 -0.173623 204 51 127
0.213940 -0.702265 -0.172916 153 76 0
0.197966 0.478841 -0.037979 153 76 0
-0.228005 -0.934810 0.160734 76 0 153
-0.228005 0.795739 0.234607 76 0 153
-0.212031 0.671190 0.152113 76 0 153
0.213940 -0.502940 -0.051560 153 76 0
0.197966 0.313359 -0.197454 153 76 0
0.187316 -0.429124 -0.076764 0 0 255
0.153848 0.556493 -0.122313 76 153 0
-0.124092 -0.401940 0.056989 153 0 76
-0.212031 0.385632 0.021654 76 0 153
-0.133352 -0.881157 -0.221082 204 51 127
0.131278 0.575069 -0.262907 153 0 76
-0.027447 -0.881157 0.218643 204 51 127
-0.125310 -0.543043 0.090137 127 127 0
-0.188530 -0.467833 -0.246933 0 255 0
-0.190732 -0.521883 -0.218376 255 0 0
-0.212031 -0.835937 -0.086210 76 0 153
-0.066532 -0.082463 0.206093 127 127 0
-0.228005 -0.223232 -0.027984 76 0 153
-0.051359 0.237015 0.016018 0 127 127
0.024322 0.872758 -0.262907 153 0 76
0.213940 -0.272095 -0.136241 153 76 0
-0.212031 -0.562315 0.186872 76 0 153
0.197966 0.312612 0.050753 153 76 0
0.197966 -0.831716 0.231903 153 76 0
0.145775 0.950515 -0.245957 0 0 255
0.129152 0.269891 -0.257582 153 0 76
-0.064216 0.966489 0.194697 0 0 255
-0.212031 -0.834021 0.278833 76 0 153
0.042309 0.950515 -0.239128 0 0 255
-0.228005 -0.900239 0.034553 76 0 153
-0.061454 -0.417914 0.000452 153 0 76
-0.228005 0.707095 -0.026924 76 0 153
0.197966 0.685502 0.060108 153 76 0
0.158874 0.686431 -0.262907 153 0 76
0.197966 -0.411629 0.245932 153 0 76
0.077129 -0.098436 0.080571 127 127 0
0.094677 0.935342 -0.262907 153 0 76
0.125472 0.599155 0.280205 76 153 0
0.213940 0.796921 -0.034022 153 76 0
-0.228005 -0.825210 -0.230686 76 0 153
0.197966 0.301008 0.217847 153 76 0
0.197966 -0.923708 -0.121323 153 76 0
-0.228005 -0.447754 0.240066 76 0 153
-0.228005 0.953529 0.257218 76 0 153
-0.228005 0.584821 0.054600 76 0 153
-0.075608 0.221041 0.156764 0 127 127
0.197966 0.024906 -0.244263 153 76 0
-0.212031 0.231242 -0.086973 76 0 153
-0.112735 0.559377 0.280205 76 153 0
0.213940 0.662102 -0.162778 153 76 0
0.176667 -0.510852 -0.178171 0 0 255
-0.137876 0.556493 -0.103991 76 153 0
0.197966 -0.584155 -0.109177 153 76 0
-0.035463 0.221041 -0.155257 0 127 127
-0.200213 -0.504230 -0.257582 153 0 76
0.197966 -0.474376 -0.181671 153 76 0
-0.149106 0.642435 -0.257582 153 0 76
0.178343 0.185431 -0.262907 153 0 76
-0.228005 -0.557262 -0.136599 76 0 153
-0.201381 -0.499284 -0.000072 255 0 0
0.104571 -0.489750 0.285530 204 51 127
-0.176401 -0.002144 -0.257582 153 0 76
-0.228005 0.223885 0.188148 76 0 153
-0.228005 0.589738 -0.238267 76 0 153
-0.228005 0.205808 -0.129355 76 0 153
0.197966 -0.913182 -0.094299 153 76 0
-0.002633 -0.543043 0.160157 127 127 0
0.083945 0.445678 0.280205 76 153 0
-0.190147 -0.062799 -0.257582 153 0 76
-0.212541 -0.950377 -0.260589 153 0 76
-0.199292 -0.897131 0.005795 204 51 127
-0.163591 -0.098436 -0.234039 127 127 0
-0.212031 0.314584 0.208349 76 0 153
0.213940 0.125256 -0.197259 153 76 0
-0.228005 -0.517828 -0.222649 76 0 153
-0.190732 -0.518825 -0.067888 255 0 0
0.197966 -0.614259 0.220184 153 76 0
-0.150301 -0.098436 0.268539 127 127 0
0.190352 0.540519 -0.179160 76 153 0
-0.212031 -0.764133 0.056566 76 0 153
-0.165190 -0.537718 0.158498 127 127 0
0.197966 0.082533 0.215106 153 76 0
0.165782 0.540519 0.069470 76 153 0
0.049326 -0.897131 0.256030 204 51 127
-0.228005 0.936394 -0.090625 76 0 153
0.213940 0.521858 0.031719 153 76 0
0.213940 0.876835 -0.146151 153 76 0
0.213940 0.428523 0.158699 153 76 0
-0.070684 -0.897131 0.094567 204 51 127
0.197966 -0.047627 0.106976 153 76 0
0.213940 -0.317893 -0.126473 153 76 0
-0.212031 0.343337 -0.233115 76 0 153
-0.212031 0.861000 0.046336 76 0 153
-0.112958 -0.543043 0.035494 127 127 0
0.213940 0.261922 -0.082424 153 76 0
0.055466 0.046336 -0.262907 153 0 76
0.080585 0.691467 -0.257582 153 0 76
-0.185775 -0.098436 0.042763 127 127 0
-0.209562 0.966489 0.152759 0 0 255
-0.228005 -0.838395 0.191495 76 0 153
0.197966 0.745315 0.153778 153 76 0
-0.032123 -0.904545 0.248258 255 0 0
0.197966 0.001399 -0.130521 153 76 0
-0.004040 0.505022 -0.257582 153 0 76
0.213940 -0.541573 -0.156125 153 76 0
-0.026029 0.966489 -0.154565 0 0 255
0.182773 0.640793 -0.257582 153 0 76
-0.108756 -0.401940 -0.141744 153 0 76
0.176667 -0.496203 0.104146 0 0 255
0.213940 0.069801 0.043732 153 76 0
0.054187 -0.881157 0.055720 204 51 127
-0.228005 0.774256 0.013601 76 0 153
0.099421 0.966489 -0.240368 0 0 255
0.083966 0.672244 0.274881 76 153 0
-0.212031 -0.403720 0.143257 76 0 153
-0.033350 0.966489 0.076760 0 0 255
-0.020435 0.966489 -0.243816 0 0 255
-0.224733 -0.845506 -0.257582 76 0 153
-0.228005 0.435326 0.180844 76 0 153
0.213940 -0.425983 -0.093521 153 76 0
0.034431 0.221041 -0.165945 0 127 127
0.197966 0.127555 -0.008079 153 76 0
-0.086553 0.286803 -0.257582 153 0 76
0.187124 0.237015 0.034243 0 127 127
-0.021731 0.615133 -0.262907 153 0 76
-0.042466 -0.417914 -0.234150 153 0 76
-0.174873 0.868473 -0.257582 153 0 76
-0.212031 -0.650486 -0.011843 76 0 153
-0.022340 -0.196081 -0.262907 153 0 76
-0.052078 0.237015 0.245335 0 127 127
0.097923 -0.537718 0.211651 127 127 0
-0.228005 -0.075779 0.181279 76 0 153
-0.003359 0.699017 0.274881 76 153 0
-0.228005 -0.810762 0.074550 76 0 153
-0.133428 0.508970 0.274881 76 153 0
-0.061454 -0.942107 -0.257582 153 0 76
0.195939 -0.881157 0.152138 204 51 127
-0.228005 0.197243 0.170591 76 0 153
-0.189956 0.966489 0.183447 0 0 255
-0.201381 -0.471475 -0.197865 255 0 0
0.167823 -0.514870 -0.257582 0 255 0
-0.079551 -0.507351 -0.246933 0 255 0
0.153842 -0.543043 -0.163643 127 127 0
-0.104995 -0.805365 -0.257582 153 0 76
-0.212031 -0.249297 0.009209 76 0 153
0.059858 -0.098436 -0.145218 127 127 0
-0.228005 0.576331 -0.026590 76 0 153
0.187316 -0.466196 0.222847 0 0 255
-0.032317 0.832102 0.280205 76 153 0
-0.190732 -0.481913 0.172487 255 0 0
0.132236 0.373167 0.274881 76 153 0
0.038156 -0.709103 -0.257582 153 0 76
0.197966 0.826179 -0.218267 153 76 0
-0.228005 0.107373 -0.174665 76 0 153
-0.203638 -0.589816 -0.257582 153 0 76
0.122503 -0.098436 -0.043203 127 127 0
0.197966 -0.058414 0.163409 153 76 0
-0.212031 -0.617355 0.234308 76 0 153
-0.228005 0.084919 0.051485 76 0 153
-0.093036 -0.082463 -0.049565 127 127 0
0.165365 -0.061226 -0.257582 153 0 76
0.213940 -0.579050 0.082244 153 76 0
-0.008864 0.540519 -0.121288 76 153 0
0.131698 -0.313712 -0.257582 153 0 76
-0.228005 -0.164199 0.094522 76 0 153
-0.212031 0.090245 0.223700 76 0 153
0.004418 -0.098436 0.148141 127 127 0
-0.136466 0.556493 0.064382 76 153 0
-0.212031 -0.372743 0.074098 76 0 153
-0.138397 -0.098436 0.241517 127 127 0
0.049782 0.556493 -0.041243 76 153 0
-0.065463 -0.111748 -0.257582 153 0 76
-0.212031 -0.195023 0.096812 76 0 153
0.197966 -0.162631 -0.068837 153 76 0
-0.228005 -0.406119 -0.013985 76 0 153
0.149072 0.950515 -0.011272 0 0 255
-0.212031 -0.376410 -0.129778 76 0 153
0.213940 -0.814532 -0.185096 153 76 0
-0.116513 -0.401940 -0.239315 153 0 76
0.213940 0.025639 -0.032467 153 76 0
-0.212031 -0.710292 -0.021699 76 0 153
-0.051393 0.950515 -0.217325 0 0 255
0.185918 0.540519 0.114821 76 153 0
-0.099807 0.950515 0.140628 0 0 255
0.197966 0.426653 -0.133184 153 76 0
0.157874 -0.543043 0.216666 127 127 0
0.023687 0.937802 0.280205 76 153 0
0.191552 0.532815 -0.262907 153 0 76
0.197966 0.470684 -0.147197 153 76 0
0.197966 -0.234408 -0.074792 153 76 0
0.057831 0.950515 0.050090 0 0 255
-0.124296 0.221041 -0.091378 0 127 127
-0.066730 0.237015 0.209472 0 127 127
0.186923 0.237015 0.169096 0 127 127
-0.228005 -0.171651 0.164395 76 0 153
-0.046256 -0.897131 0.198047 204 51 127
0.213940 -0.076064 0.147990 153 76 0
0.154031 0.624137 -0.257582 153 0 76
-0.228005 0.917144 0.156888 76 0 153
-0.072335 0.966489 -0.017207 0 0 255
0.090181 -0.098436 -0.142074 127 127 0
0.049579 0.237015 0.172943 0 127 127
-0.228005 -0.674832 0.113445 76 0 153
0.045253 0.664548 0.280205 76 153 0
0.197966 -0.869446 0.193673 153 76 0
0.213940 -0.451620 -0.236165 153 76 0
-0.212031 -0.005914 0.222815 76 0 153
0.187316 -0.440494 -0.164811 0 0 255
0.213940 -0.623459 -0.045928 153 76 0
0.213940 0.743931 -0.182546 153 76 0
-0.228005 -0.597995 0.208655 76 0 153
0.213940 0.909881 -0.236701 153 76 0
-0.112832 0.393152 -0.262907 153 0 76
0.181587 0.221041 0.118028 0 127 127
-0.091946 -0.431536 0.310267 153 0 76
0.213940 0.870015 -0.006382 153 76 0
0.213940 0.167248 -0.001842 153 76 0
-0.059389 -0.881157 -0.118979 204 51 127
-0.228005 -0.792390 0.114125 76 0 153
0.197966 0.421992 -0.056592 153 76 0
0.213940 0.033400 -0.172647 153 76 0
-0.192224 0.951449 0.280205 76 153 0
0.197966 -0.058812 0.000125 153 76 0
-0.168634 0.826621 0.274881 76 153 0
-0.212031 0.725608 0.042214 76 0 153
-0.199699 -0.401940 0.211639 153 0 76
0.213940 -0.002926 0.249944 153 76 0
-0.170449 -0.881157 -0.000937 204 51 127
0.171503 -0.360496 -0.257582 153 0 76
-0.212031 -0.486983 0.152152 76 0 153
-0.222929 -0.039956 -0.257582 76 0 153
-0.151036 -0.082463 -0.172771 127 127 0
-0.228005 -0.664036 0.187766 76 0 153
-0.134150 -0.537718 0.115678 127 127 0
0.176667 -0.514657 0.139907 0 0 255
-0.228005 0.871542 -0.149624 76 0 153
0.079639 0.556493 -0.082895 76 153 0
0.197966 -0.405946 0.180266 153 76 0
0.197966 0.919324 0.124796 153 76 0
-0.212031 -0.802687 -0.244939 76 0 153
-0.036020 0.966489 -0.059302 0 0 255
0.213940 0.932427 0.144012 153 76 0
0.197966 0.654858 -0.000378 153 76 0
-0.052151 0.528982 -0.257582 153 0 76
-0.212031 -0.579332 0.107554 76 0 153
0.080171 0.950515 -0.050599 0 0 255
-0.191484 0.237015 -0.030088 0 127 127
-0.188789 0.667382 0.274881 76 153 0
0.028589 -0.417914 0.248594 153 0 76
-0.228005 0.072972 -0.029222 76 0 153
-0.228005 -0.296906 -0.095827 76 0 153
0.213940 -0.356627 -0.024649 153 76 0
-0.179349 0.742604 -0.262907 153 0 76
0.153041 0.870574 0.280205 76 153 0
0.197966 0.118326 -0.149828 153 76 0
-0.212031 0.466349 0.201333 76 0 153
-0.201381 -0.519529 0.076933 255 0 0
-0.212031 -0.247580 -0.202806 76 0 153
-0.201381 -0.468946 -0.003838 255 0 0
0.197966 -0.229286 -0.178779 153 76 0
-0.192516 -0.082463 -0.108647 127 127 0
-0.209104 -0.098436 0.181019 127 127 0
0.213940 -0.156732 0.021636 153 76 0
-0.073449 0.540519 -0.181524 76 153 0
-0.132411 -0.482406 0.274881 204 51 127
-0.097943 0.221041 -0.174171 0 127 127
-0.146142 -0.519848 -0.257582 153 0 76
-0.228005 -0.177509 0.260751 76 0 153
0.120685 -0.082463 0.248944 127 127 0
-0.212031 -0.791994 0.185541 76 0 153
-0.011246 0.221041 -0.202796 0 127 127
0.189901 -0.012155 -0.257582 153 0 76
0.213940 -0.667395 -0.002420 153 76 0
0.213940 0.843426 -0.136492 153 76 0
0.213940 -0.030297 0.245615 153 76 0
-0.183211 -0.761830 -0.257582 153 0 76
-0.228005 -0.809834 0.200393 76 0 153
0.170604 -0.082463 0.207705 127 127 0
0.197966 0.360491 0.012145 153 76 0
0.197966 0.909764 0.021543 153 76 0
-0.126737 0.221041 -0.144166 0 127 127
0.197966 0.357029 -0.191103 153 76 0
0.197966 0.189212 0.161703 153 76 0
0.180366 -0.881157 0.058392 204 51 127
-0.150658 -0.724822 -0.262907 153 0 76
-0.228005 0.513888 -0.144488 76 0 153
0.197966 0.580282 0.107100 153 76 0
0.213940 -0.175625 0.116150 153 76 0
0.042143 0.221041 -0.120168 0 127 127
-0.160986 0.174708 -0.262907 153 0 76
-0.171510 0.536145 0.274881 76 153 0
-0.094245 0.419989 -0.257582 153 0 76
0.197966 0.680224 0.261207 153 76 0
-0.212031 0.371456 -0.135701 76 0 153
0.050342 0.237015 0.199622 0 127 127
-0.146181 -0.401940 0.236776 153 0 76
-0.212031 0.856664 0.242803 76 0 153
-0.100787 -0.581798 -0.262907 153 0 76
-0.004517 -0.537718 -0.043352 127 127 0
0.213940 0.609698 0.179789 153 76 0
-0.228005 0.529422 0.000010 76 0 153
0.197966 -0.666674 0.213639 153 76 0
0.058474 0.078210 -0.262907 153 0 76
0.197966 0.048693 0.261644 153 76 0
0.213940 -0.323360 -0.186032 153 76 0
-0.228005 0.420790 -0.169369 76 0 153
0.197966 0.885156 0.269391 153 76 0
0.099848 0.540519 0.168044 76 153 0
0.213940 -0.401029 -0.182463 153 76 0
-0.212031 0.045270 0.218869 76 0 153
-0.132196 -0.881157 -0.137383 204 51 127
0.213940 0.372145 0.159788 153 76 0
-0.107831 0.950515 -0.057049 0 0 255
0.197966 0.905067 -0.040671 153 76 0
-0.166935 0.261538 -0.257582 153 0 76
0.083246 -0.881157 0.095094 204 51 127
0.040994 -0.417914 -0.060496 153 0 76
0.176667 -0.480818 -0.116994 0 0 255
-0.025623 0.839739 -0.262907 153 0 76
-0.106414 -0.881157 0.267903 204 51 127
-0.228005 -0.343495 0.152878 76 0 153
-0.228005 0.265489 0.052072 76 0 153
0.197966 0.200513 0.087341 153 76 0
-0.134102 0.800360 0.280205 76 153 0
-0.212031 0.577446 0.137304 76 0 153
0.190830 0.451689 0.280205 76 153 0
-0.034285 0.570565 -0.262907 153 0 76
0.213940 -0.891729 -0.069154 153 76 0
-0.099461 0.616128 0.280205 76 153 0
0.165538 -0.401940 -0.015142 153 0 76
-0.003787 -0.481880 -0.262907 153 0 76
0.197966 -0.939519 0.003990 153 76 0
0.213940 -0.267471 0.037291 153 76 0
-0.142449 -0.881157 0.196166 204 51 127
0.100216 0.469724 -0.262907 153 0 76
0.080053 -0.401940 -0.132558 153 0 76
0.197966 0.434415 -0.080067 153 76 0
-0.035436 -0.339485 -0.257582 153 0 76
0.197966 -0.025828 -0.093619 153 76 0
0.153695 0.950515 0.097336 0 0 255
-0.212031 -0.734404 -0.230390 76 0 153
0.197966 -0.694995 -0.226041 153 76 0
-0.029494 0.688883 -0.262907 153 0 76
0.138758 -0.537718 0.123100 127 127 0
0.020602 -0.082463 0.022273 127 127 0
-0.209505 0.834393 -0.262907 153 0 76
-0.059976 -0.855091 -0.257582 153 0 76
-0.072781 0.540519 0.015013 76 153 0
-0.182377 0.330181 -0.262907 153 0 76
-0.162552 0.221041 -0.175456 0 127 127
0.213940 -0.524559 0.234257 153 76 0
-0.014033 -0.775520 -0.262907 153 0 76
0.061781 0.420848 0.274881 76 153 0
0.010507 0.221041 -0.019261 0 127 127
-0.228005 0.672991 0.258991 76 0 153
0.084463 -0.881157 0.266356 204 51 127
-0.077286 -0.098436 0.153829 127 127 0
0.197966 -0.231829 -0.107010 153 76 0
-0.212031 0.225529 -0.061106 0 127 127
0.191817 -0.401940 -0.203029 153 0 76
-0.147364 0.966489 0.067298 0 0 255
0.094817 0.221041 -0.103852 0 127 127
-0.212031 -0.201862 -0.221416 76 0 153
-0.228005 -0.735987 0.214744 76 0 153
-0.228005 -0.743203 -0.030540 76 0 153
0.197966 -0.188861 -0.020096 153 76 0
0.156315 0.700852 0.280205 76 153 0
-0.167083 0.066468 -0.257582 153 0 76
-0.228005 -0.506892 -0.074447 76 0 153
0.213940 0.731494 0.213677 153 76 0
-0.061668 -0.401940 -0.089929 153 0 76
-0.228005 0.463557 0.225399 76 0 153
-0.094613 0.949313 0.274881 76 153 0
-0.161261 -0.937881 -0.262907 153 0 76
0.197966 0.131747 0.202462 153 76 0
0.075034 0.221041 -0.160309 0 127 127
-0.136392 -0.537718 0.170354 127 127 0
0.150795 -0.909871 0.248258 255 0 0
0.018547 0.950515 -0.059824 0 0 255
-0.019781 -0.417914 0.137566 153 0 76
0.113571 0.351643 0.280205 76 153 0
-0.228005 -0.876067 -0.094557 76 0 153
0.213940 0.527885 -0.065304 153 76 0
0.136102 0.221041 -0.117322 0 127 127
-0.212031 0.918606 -0.025238 76 0 153
-0.049999 0.416197 0.274881 76 153 0
0.136896 0.966489 0.054198 0 0 255
0.070048 -0.401940 -0.021950 153 0 76
-0.051640 0.966489 -0.239500 0 0 255
-0.183111 -0.082463 0.248733 127 127 0
-0.228005 -0.602622 -0.064358 76 0 153
-0.228005 0.430325 -0.136064 76 0 153
-0.212031 0.403154 0.051220 76 0 153
-0.228005 0.459207 -0.127328 76 0 153
-0.212031 -0.291967 0.026082 76 0 153
-0.081337 -0.417914 -0.238565 153 0 76
-0.105478 -0.098436 0.015599 127 127 0
-0.049983 -0.098436 0.024387 127 127 0
-0.212031 0.366324 -0.016982 76 0 153
0.176667 -0.464610 0.028927 0 0 255
0.213134 0.075673 -0.262907 153 0 76
-0.212031 0.957311 -0.029089 76 0 153
-0.035782 -0.897131 -0.023089 204 51 127
-0.190732 -0.497804 -0.207619 255 0 0
0.197966 0.178843 -0.078022 153 76 0
-0.212031 -0.369700 -0.060374 76 0 153
-0.032542 -0.082463 -0.247844 127 127 0
-0.103242 -0.418389 -0.257582 153 0 76
-0.212031 0.041759 0.251531 76 0 153
-0.228005 -0.095328 0.275828 76 0 153
-0.115706 0.863239 -0.262907 153 0 76
-0.092564 -0.098436 0.199461 127 127 0
-0.172660 0.439997 0.280205 76 153 0
-0.228005 0.243825 0.211286 76 0 153
0.197966 -0.351549 -0.189582 153 76 0
0.003383 -0.897131 -0.036592 204 51 127
-0.212031 0.337489 0.188900 76 0 153
-0.156738 0.844587 -0.262907 153 0 76
-0.012043 0.221041 -0.053548 0 127 127
-0.212031 0.814068 0.210332 76 0 153
-0.212031 -0.079195 -0.018583 76 0 153
-0.212031 -0.863818 0.153698 76 0 153
-0.122803 -0.881157 0.073110 204 51 127
-0.228005 -0.271832 0.113243 76 0 153
-0.041476 0.237015 -0.182030 0 127 127
-0.212031 -0.912485 -0.125884 76 0 153
-0.206655 0.221041 0.230539 0 127 127
-0.212031 0.322530 0.163348 76 0 153
-0.212031 -0.592935 0.158834 76 0 153
0.213940 0.163947 0.057037 153 76 0
-0.189302 -0.401940 -0.003854 153 0 76
-0.212031 0.616978 -0.149469 76 0 153
0.038516 0.540519 -0.200665 76 153 0
