ply
format ascii 1.0
element vertex 1277
property float x
property float y
property float z
property uchar red
property uchar green
property uchar blue
end_header
0.256183 -0.113544 -0.184330 76 0 153
0.038873 -0.430203 0.257039 0 255 0
-0.289386 -0.752297 -0.009544 76 0 153
-0.289386 -0.938357 0.021287 76 0 153
-0.289386 0.114073 0.079021 76 0 153
0.155071 -0.624815 -0.040035 76 0 153
0.291864 0.754466 0.114567 76 0 153
-0.289386 -0.348704 0.133442 76 0 153
0.185490 0.747218 0.098055 76 0 153
-0.149964 0.361624 -0.269719 76 0 153
-0.289386 0.245884 -0.249562 76 0 153
0.291864 -0.319214 0.143031 76 0 153
-0.165674 -0.566539 -0.269719 76 0 153
0.133881 0.901613 0.116360 76 0 153
-0.159444 0.747218 0.044419 76 0 153
0.117333 0.747218 -0.194633 76 0 153
0.251278 -0.778415 0.238875 153 0 76
0.291864 -0.591695 0.213012 76 0 153
0.258539 0.215958 -0.278801 76 0 153
-0.069864 -0.942039 0.083216 76 0 153
0.020670 0.283997 -0.088436 0 127 127
-0.289386 0.475422 -0.032024 76 0 153
0.291864 -0.793553 -0.164108 76 0 153
0.202477 -0.237740 -0.148881 127 127 0
-0.244141 0.747218 -0.246096 76 0 153
-0.080373 0.322585 0.261580 0 255 0
0.240864 -0.624815 -0.082384 76 0 153
0.291864 0.550255 -0.018998 76 0 153
-0.162848 -0.501131 0.261580 0 255 0
0.090204 -0.851276 -0.278801 76 0 153
0.055705 0.823823 -0.278801 76 0 153
0.083976 -0.240332 0.075476 127 127 0
0.256183 0.101831 -0.010682 76 0 153
-0.221076 0.901613 -0.035514 76 0 153
-0.035231 0.013670 -0.038345 127 0 127
0.256183 0.086094 0.163879 76 0 153
0.061621 -0.674175 0.280169 153 0 76
0.256183 -0.147578 0.079410 76 0 153
-0.289386 -0.018019 0.020008 76 0 153
0.256183 -0.000927 -0.106404 76 0 153
0.167933 -0.593656 0.261580 0 255 0
0.139130 0.016164 -0.240963 127 0 127
0.256183 0.585137 -0.163267 76 0 153
0.256183 -0.287427 -0.125798 76 0 153
-0.253058 0.460102 -0.065667 76 0 153
0.089551 -0.381094 0.261580 0 255 0
0.291864 -0.819230 -0.236634 76 0 153
-0.199486 0.017031 0.140615 127 0 127
-0.289386 0.605736 -0.206335 76 0 153
-0.104080 -0.624815 -0.073197 76 0 153
-0.253058 -0.020823 0.216174 76 0 153
0.174838 -0.891134 -0.278801 76 0 153
-0.170612 0.370549 0.257039 0 255 0
-0.283663 0.704542 -0.278801 76 0 153
-0.253058 0.223850 -0.155754 76 0 153
0.241713 0.223033 0.261580 0 255 0
0.153776 0.285470 -0.058891 0 127 127
0.291864 0.102299 0.126203 76 0 153
-0.289386 -0.285203 -0.140062 76 0 153
-0.033331 -0.238391 -0.146070 127 127 0
0.185774 -0.713067 -0.278801 76 0 153
0.291864 0.878239 0.026976 76 0 153
0.256183 0.161230 -0.231062 76 0 153
-0.289386 0.504768 0.216838 76 0 153
-0.180595 -0.624815 0.074098 76 0 153
0.277436 0.397132 0.265952 0 0 255
-0.171479 -0.829813 0.238875 76 0 153
-0.131661 0.471840 -0.278801 76 0 153
-0.289386 0.853924 -0.037838 76 0 153
0.291864 0.349638 -0.048839 76 0 153
0.256183 -0.476755 0.041787 76 0 153
-0.060930 -0.237702 -0.052084 127 127 0
-0.123422 -0.809436 0.303021 153 0 76
0.256183 -0.028462 0.063950 76 0 153
0.291864 0.148105 0.250275 0 0 255
-0.289386 -0.071249 -0.138794 76 0 153
-0.289386 -0.056419 -0.244202 76 0 153
0.208962 -0.450350 0.257039 0 255 0
0.157430 0.015619 0.066126 127 0 127
0.128454 0.901613 0.202328 76 0 153
0.291864 0.607178 -0.117276 76 0 153
0.256183 0.446231 -0.170892 76 0 153
-0.289386 0.617386 0.041294 76 0 153
0.182385 0.286076 0.152681 0 127 127
0.013834 -0.691184 -0.278801 76 0 153
-0.253058 0.666422 -0.030924 76 0 153
-0.289386 -0.399359 -0.256235 76 0 153
0.291864 0.300458 -0.231663 76 0 153
-0.253058 0.179468 -0.040725 76 0 153
-0.184542 -0.338603 0.261580 0 255 0
-0.253058 0.481729 -0.171179 76 0 153
-0.118310 0.014442 -0.229795 127 0 127
-0.253058 0.272624 -0.118895 76 0 153
-0.253058 -0.190173 -0.041145 76 0 153
0.291864 0.368561 0.176390 76 0 153
-0.253058 0.746739 0.064395 76 0 153
-0.245857 -0.243370 -0.140130 76 0 153
0.034629 0.504057 -0.269719 76 0 153
0.214700 -0.144420 0.257039 0 255 0
0.164184 -0.624815 -0.243253 76 0 153
0.291864 -0.584620 0.132660 76 0 153
-0.289386 0.850716 -0.234100 76 0 153
-0.289386 -0.504584 -0.165760 76 0 153
-0.289386 -0.436812 -0.030025 76 0 153
0.256183 -0.074572 0.225101 76 0 153
0.056511 -0.211582 0.261580 0 255 0
-0.159110 0.732807 0.257039 0 255 0
0.202819 -0.793395 -0.278801 76 0 153
-0.253058 -0.323221 -0.015739 76 0 153
-0.134525 0.462293 0.257039 0 255 0
-0.289386 -0.222784 0.043085 76 0 153
0.008719 -0.624815 -0.165432 76 0 153
-0.013378 -0.161119 0.257039 0 255 0
0.256183 0.743206 -0.083323 76 0 153
0.254800 0.361210 -0.269719 76 0 153
-0.108177 0.153461 0.257039 0 255 0
0.291864 -0.313204 -0.189230 76 0 153
0.017458 -0.571089 -0.269719 76 0 153
0.291864 -0.002717 -0.201860 76 0 153
-0.241411 0.872243 0.238875 76 0 153
-0.289386 -0.530021 0.154975 76 0 153
-0.289386 0.401055 -0.202034 76 0 153
0.149431 0.849143 0.290326 76 0 153
0.006135 0.627581 0.261580 0 255 0
-0.015310 0.698977 0.257039 0 255 0
-0.019981 0.747218 -0.111419 76 0 153
0.256183 0.522509 0.228653 76 0 153
0.065546 0.778182 0.263956 0 0 255
-0.253058 0.128028 -0.076559 76 0 153
-0.253058 -0.027899 -0.054473 76 0 153
0.181128 0.409064 0.257039 0 255 0
-0.208574 0.017027 -0.146012 127 0 127
0.256183 -0.491365 0.196726 76 0 153
0.291864 -0.634091 0.251361 0 0 255
-0.253058 -0.072880 0.098534 76 0 153
0.010740 0.285815 0.008038 0 127 127
0.291864 0.518544 -0.191746 76 0 153
-0.068071 0.810792 0.268113 76 0 153
-0.289386 -0.776587 -0.209753 76 0 153
0.291864 -0.452009 -0.232872 76 0 153
-0.289386 0.046801 0.178647 76 0 153
0.189276 -0.760545 0.238875 153 0 76
0.256183 0.426650 0.194162 76 0 153
0.256183 -0.442017 0.228224 76 0 153
0.128796 0.013705 -0.175325 127 0 127
-0.253058 -0.092132 -0.107278 76 0 153
-0.079256 0.283824 0.028606 0 127 127
0.004501 0.901613 0.017937 76 0 153
0.231225 0.860030 -0.278801 76 0 153
-0.078709 -0.881487 0.305782 153 0 76
0.291864 0.464147 -0.105022 76 0 153
-0.243396 -0.934125 -0.278801 76 0 153
0.201071 0.766671 -0.278801 76 0 153
-0.004185 0.701425 -0.278801 76 0 153
0.079350 -0.083235 0.257039 0 255 0
-0.289386 0.639690 0.222539 76 0 153
0.046083 0.286072 -0.228530 0 127 127
0.291864 -0.875486 -0.127597 76 0 153
-0.194111 0.194757 -0.269719 76 0 153
0.147892 0.014257 -0.031499 127 0 127
-0.289386 -0.011531 0.176612 76 0 153
-0.253058 -0.505201 0.050295 76 0 153
0.256183 -0.487481 -0.245676 76 0 153
-0.253058 -0.620019 -0.195293 76 0 153
0.123959 0.185136 -0.278801 76 0 153
0.291864 0.848906 -0.037260 76 0 153
0.256183 -0.007920 0.223249 76 0 153
-0.253058 0.693623 0.177043 76 0 153
0.094468 0.451525 -0.278801 76 0 153
-0.000967 0.747218 -0.020907 76 0 153
0.236711 0.736359 0.257039 0 255 0
-0.183969 0.272565 -0.278801 76 0 153
-0.177353 -0.207051 -0.269719 76 0 153
-0.253058 -0.408388 -0.101877 76 0 153
-0.098499 -0.237034 -0.116320 127 127 0
0.256183 -0.283548 -0.197536 76 0 153
-0.289386 0.312504 -0.013109 76 0 153
-0.289386 -0.622311 -0.103892 76 0 153
-0.289386 0.066582 0.131055 76 0 153
-0.289386 0.666999 -0.167843 76 0 153
-0.257146 0.209067 0.247957 0 0 255
0.052281 0.709942 0.257039 0 255 0
0.045130 -0.237851 -0.197282 127 127 0
0.214593 -0.942039 0.259192 153 0 76
0.256183 -0.349475 -0.032679 76 0 153
-0.187098 -0.942039 0.163003 76 0 153
-0.253058 0.342575 0.059452 76 0 153
-0.104583 0.895003 0.248297 76 0 153
-0.135456 0.773182 0.265329 0 0 255
-0.289386 0.688980 -0.085832 76 0 153
-0.289386 -0.626530 0.100799 76 0 153
0.291864 -0.588838 -0.024125 76 0 153
0.256183 0.178826 -0.134297 76 0 153
0.291864 0.117375 -0.076122 76 0 153
-0.203664 0.901613 0.164684 76 0 153
0.256183 -0.407674 0.126809 76 0 153
-0.008572 -0.402065 -0.278801 76 0 153
-0.289386 -0.403409 -0.153950 76 0 153
0.291864 -0.171726 0.108217 76 0 153
-0.258688 -0.415967 0.263811 0 0 255
-0.117033 0.017257 -0.018837 127 0 127
0.083946 -0.243370 0.190852 127 127 0
0.042699 0.747218 -0.242942 76 0 153
0.291864 -0.657180 0.073810 76 0 153
0.291864 0.696001 -0.219573 76 0 153
-0.076233 0.747218 -0.026022 76 0 153
-0.289386 -0.424643 0.064758 76 0 153
-0.131642 0.742030 -0.278801 76 0 153
-0.215152 -0.572633 0.257039 0 255 0
-0.092630 0.901613 -0.226114 76 0 153
0.256183 0.341649 -0.166269 76 0 153
-0.253058 0.137887 0.153814 76 0 153
0.039100 -0.642814 -0.278801 76 0 153
-0.279225 -0.828772 -0.278801 76 0 153
0.291864 0.261765 -0.143213 76 0 153
-0.117114 -0.574266 0.257039 0 255 0
-0.253058 0.495482 0.123149 76 0 153
-0.007920 0.282503 0.170056 0 127 127
-0.289386 0.629442 -0.072211 76 0 153
0.089973 0.901613 -0.086670 76 0 153
-0.182643 -0.624815 -0.124557 76 0 153
0.256183 -0.400944 -0.075407 76 0 153
0.256183 -0.504475 0.079451 76 0 153
0.291864 0.512162 -0.110810 76 0 153
0.173430 0.017236 0.159799 127 0 127
0.256183 0.733029 0.090257 76 0 153
-0.253058 0.574909 0.181931 76 0 153
0.001010 -0.942039 -0.111428 76 0 153
0.291864 -0.349887 0.090968 76 0 153
0.097713 0.582376 0.257039 0 255 0
-0.243997 -0.942039 -0.046682 76 0 153
0.291864 0.600077 0.032810 76 0 153
0.017135 -0.855576 -0.278801 76 0 153
-0.032558 0.745287 0.257039 0 255 0
-0.038259 0.747218 -0.196689 76 0 153
-0.289386 0.454618 -0.235649 76 0 153
-0.289386 0.485507 -0.139134 76 0 153
0.256183 0.207593 -0.230430 76 0 153
-0.253058 0.547623 0.046462 76 0 153
-0.091348 -0.238451 0.051167 127 127 0
0.291864 -0.726485 -0.121412 76 0 153
-0.253058 -0.303787 0.070448 76 0 153
-0.108947 0.573143 -0.278801 76 0 153
-0.147769 -0.719537 -0.278801 76 0 153
-0.181018 0.704408 -0.269719 76 0 153
0.201310 0.285887 -0.239245 0 127 127
0.118589 -0.297655 0.261580 0 255 0
-0.155829 0.747218 0.184293 76 0 153
-0.193906 0.747218 -0.155483 76 0 153
-0.224039 0.015798 -0.098240 127 0 127
0.208838 -0.942039 0.086654 76 0 153
0.027577 0.282497 0.054862 0 127 127
-0.188154 -0.237604 0.109548 127 127 0
-0.289386 0.262680 0.208521 76 0 153
-0.143145 0.285339 -0.183984 0 127 127
0.259151 -0.407993 0.263020 0 255 0
-0.253058 0.727269 0.217412 76 0 153
-0.267043 -0.085546 0.238875 76 0 153
0.023164 -0.624815 -0.003265 76 0 153
0.238694 0.817051 0.281322 76 0 153
0.291864 -0.671188 -0.102558 76 0 153
0.205641 0.682583 0.257039 0 255 0
0.256183 0.039463 -0.012237 76 0 153
0.239230 0.107100 0.257039 0 255 0
-0.289386 -0.887906 0.047539 76 0 153
-0.253058 0.571661 -0.044122 76 0 153
-0.289386 -0.661180 0.057064 76 0 153
-0.253058 0.665323 -0.239651 76 0 153
0.291864 0.091010 0.022325 76 0 153
-0.002359 -0.624815 -0.073620 76 0 153
-0.222175 -0.942039 0.254496 153 0 76
-0.075791 -0.218116 -0.269719 76 0 153
-0.289386 -0.111126 -0.270372 76 0 153
0.291864 -0.188818 -0.173492 76 0 153
-0.289386 -0.161829 -0.136514 76 0 153
-0.289386 -0.565144 0.185895 76 0 153
0.256183 0.275945 0.100103 0 127 127
0.256183 0.345717 0.091391 76 0 153
0.237226 -0.850239 0.238875 76 0 153
-0.289386 0.155810 -0.207958 76 0 153
-0.289386 -0.084600 0.022880 76 0 153
0.205156 0.506008 -0.278801 76 0 153
0.057306 0.016371 -0.057746 127 0 127
-0.242163 -0.704309 -0.278801 76 0 153
-0.253058 -0.399215 0.047628 76 0 153
0.195162 -0.942039 -0.004250 76 0 153
0.132358 -0.399923 -0.269719 76 0 153
-0.253058 0.028824 -0.236388 76 0 153
0.256183 -0.392035 -0.198169 76 0 153
0.291864 0.506401 0.184157 76 0 153
-0.289386 -0.396851 0.119277 76 0 153
-0.253058 0.082953 -0.093426 76 0 153
0.256183 0.025706 0.172551 127 0 127
-0.159767 -0.942039 -0.084037 76 0 153
-0.110047 0.284487 -0.062015 0 127 127
-0.019551 -0.380557 0.257039 0 255 0
-0.289386 0.614701 0.087050 76 0 153
0.059193 0.662115 -0.269719 76 0 153
-0.154619 -0.942039 0.263595 153 0 76
-0.289386 -0.919148 -0.247220 76 0 153
0.028845 0.747218 -0.117342 76 0 153
0.256183 -0.125897 0.170091 76 0 153
0.291864 -0.778059 -0.207193 76 0 153
-0.021244 -0.477660 0.257039 0 255 0
0.246586 0.283938 0.043823 0 127 127
0.108769 0.285811 0.104416 0 127 127
0.291864 0.355013 -0.191598 76 0 153
0.256183 -0.059588 0.020479 76 0 153
0.291864 0.019429 -0.161844 76 0 153
-0.253058 -0.552100 -0.106748 76 0 153
-0.253058 0.238244 -0.023255 76 0 153
0.083401 0.901613 0.224486 76 0 153
-0.289386 -0.012341 -0.194514 76 0 153
-0.253058 -0.597327 0.076945 76 0 153
0.256183 0.640028 -0.004170 76 0 153
-0.054038 0.286043 -0.225912 0 127 127
-0.017428 -0.942039 0.000568 76 0 153
0.291864 -0.508240 0.113510 76 0 153
-0.289386 0.740605 0.028446 76 0 153
-0.195539 0.747218 0.223163 76 0 153
0.170905 0.571630 -0.278801 76 0 153
0.069661 -0.901081 0.304887 153 0 76
0.256183 -0.096036 -0.045288 76 0 153
0.291864 -0.470374 -0.132952 76 0 153
-0.069211 -0.914811 0.238875 76 0 153
-0.257908 0.863694 -0.278801 76 0 153
0.073225 -0.942039 0.019036 76 0 153
0.106045 -0.318813 -0.269719 76 0 153
0.291864 0.531137 0.075148 76 0 153
0.291864 -0.137156 0.228391 76 0 153
-0.289386 0.375338 0.222896 76 0 153
0.256183 -0.247503 -0.243830 76 0 153
0.256183 0.062417 -0.245922 76 0 153
0.047721 -0.237382 0.150607 127 127 0
0.291864 -0.938444 -0.063785 76 0 153
-0.253058 0.694444 0.082625 76 0 153
0.256183 0.458441 0.226596 76 0 153
0.190755 0.433574 -0.278801 76 0 153
-0.289386 0.329480 -0.276304 76 0 153
-0.125396 0.282782 0.031017 0 127 127
-0.289386 -0.760709 -0.055830 76 0 153
-0.289386 -0.063057 -0.094205 76 0 153
0.162058 0.310396 0.257039 0 255 0
0.291864 -0.233928 -0.086577 76 0 153
-0.250171 0.632103 -0.278801 76 0 153
-0.186536 0.901613 -0.250691 76 0 153
-0.030373 0.847770 0.310714 76 0 153
0.245877 -0.630442 0.238875 76 0 153
0.256183 0.126166 -0.109969 76 0 153
-0.253058 0.744294 0.158771 76 0 153
-0.053132 0.216699 -0.278801 76 0 153
0.040806 -0.150400 -0.269719 76 0 153
-0.253058 0.342583 0.108777 76 0 153
-0.237067 0.283560 -0.226271 0 127 127
0.256183 0.573675 0.045900 76 0 153
-0.289386 0.468802 0.119999 76 0 153
-0.289386 0.290345 0.130702 76 0 153
-0.289386 0.609802 -0.269954 76 0 153
-0.190166 0.282468 -0.177300 0 127 127
-0.253058 -0.498759 -0.139175 76 0 153
-0.289386 0.158646 0.136166 76 0 153
0.291864 0.840508 -0.175804 76 0 153
0.164671 -0.515789 0.257039 0 255 0
-0.171096 -0.893401 -0.278801 76 0 153
-0.193364 -0.624815 0.229928 76 0 153
0.271721 -0.727377 -0.278801 76 0 153
0.155859 0.029845 0.257039 0 255 0
0.291864 -0.159078 -0.098784 76 0 153
0.032172 0.901613 -0.065855 76 0 153
0.256183 -0.245702 0.099684 127 127 0
0.256183 0.203983 0.223407 76 0 153
0.185525 -0.624815 -0.129595 76 0 153
0.093292 0.284750 -0.239935 0 127 127
-0.098336 -0.596158 -0.269719 76 0 153
0.212164 -0.084790 -0.278801 76 0 153
0.218826 0.286061 -0.011398 0 127 127
-0.217401 0.282466 0.020292 0 127 127
-0.195789 -0.907078 0.238875 76 0 153
0.232862 -0.624815 0.027714 76 0 153
-0.284938 -0.319908 -0.278801 76 0 153
-0.253058 -0.598225 -0.234635 76 0 153
0.270568 0.460526 -0.278801 76 0 153
0.136952 -0.222327 0.261580 0 255 0
-0.253058 -0.269443 0.212245 76 0 153
0.256183 0.593732 0.128650 76 0 153
0.291864 0.182539 -0.072063 76 0 153
-0.253058 0.380350 -0.050089 76 0 153
0.097014 -0.637194 0.265696 0 0 255
-0.289386 0.564343 0.120809 76 0 153
-0.253058 0.038662 0.211677 76 0 153
-0.013187 0.810792 0.271133 76 0 153
0.256183 -0.372039 0.181529 76 0 153
0.119787 -0.942039 -0.212242 76 0 153
-0.096561 -0.624815 0.018119 76 0 153
0.226801 -0.816547 0.283774 153 0 76
-0.289386 0.527245 0.063029 76 0 153
-0.024173 0.365237 0.257039 0 255 0
0.188029 -0.896963 0.292804 153 0 76
-0.075066 -0.667429 -0.278801 76 0 153
-0.253058 -0.333371 -0.197273 76 0 153
-0.289386 -0.327736 0.012849 76 0 153
0.256183 0.113440 0.097326 76 0 153
-0.253058 0.123684 -0.206082 76 0 153
-0.253058 -0.564912 -0.021587 76 0 153
0.156804 0.283625 0.031961 0 127 127
0.291864 -0.325792 -0.055844 76 0 153
0.256183 0.563735 -0.051553 76 0 153
0.291864 0.229766 0.030283 76 0 153
0.224881 0.747218 -0.046942 76 0 153
-0.224467 0.829045 -0.278801 76 0 153
-0.253058 0.059366 -0.183055 76 0 153
0.255197 0.901613 -0.055104 76 0 153
0.256183 0.447648 0.116374 76 0 153
-0.116649 0.059358 0.257039 0 255 0
0.291864 0.461749 0.185987 76 0 153
0.081766 0.167457 -0.269719 76 0 153
-0.289386 0.102215 -0.058056 76 0 153
0.018441 -0.624815 0.080353 76 0 153
0.017293 -0.942039 0.265485 153 0 76
0.256183 0.325459 0.238119 76 0 153
0.072131 0.209868 0.257039 0 255 0
-0.253058 -0.011879 -0.005555 76 0 153
-0.224648 0.284916 -0.059147 0 127 127
-0.289386 -0.456501 -0.271471 76 0 153
0.080602 -0.408787 -0.278801 76 0 153
-0.289386 -0.897248 -0.135246 76 0 153
-0.289386 -0.251238 -0.168899 76 0 153
-0.289386 0.596408 0.212062 76 0 153
0.256021 0.747218 0.037006 76 0 153
-0.069483 0.569865 0.257039 0 255 0
0.072129 0.852281 0.308575 76 0 153
-0.112933 -0.054184 0.257039 0 255 0
0.256183 0.515419 -0.137191 76 0 153
0.227950 0.282469 -0.151360 0 127 127
0.291864 0.028195 0.123139 76 0 153
-0.289386 -0.153217 -0.004334 76 0 153
-0.106685 0.895130 0.305195 76 0 153
0.291864 0.864645 -0.112852 76 0 153
-0.253058 0.738855 -0.157470 76 0 153
-0.289386 -0.936965 0.114685 76 0 153
-0.289386 -0.110903 -0.190930 76 0 153
-0.170453 0.687911 0.257039 0 255 0
0.256183 0.509683 0.103393 76 0 153
0.174465 0.036867 0.202374 127 0 127
-0.116036 0.041140 -0.269719 76 0 153
0.291864 0.645698 0.072478 76 0 153
0.256183 -0.275182 0.060301 76 0 153
-0.253058 -0.138173 -0.107206 76 0 153
-0.018776 0.747218 0.214897 76 0 153
-0.254846 -0.882790 0.238875 76 0 153
-0.253058 0.080007 0.051744 76 0 153
-0.253058 -0.529779 0.094253 76 0 153
0.256183 -0.271769 0.232970 76 0 153
-0.035389 -0.624815 0.207049 76 0 153
-0.253058 0.628543 0.017360 76 0 153
-0.289386 -0.212399 0.165448 76 0 153
-0.133802 -0.237473 -0.236978 127 127 0
0.291864 -0.880332 0.040745 76 0 153
-0.289386 -0.476240 0.174778 76 0 153
0.247072 -0.624815 0.096039 76 0 153
-0.289386 -0.840691 -0.058815 76 0 153
0.256183 -0.584967 -0.168405 76 0 153
0.166954 0.658212 0.257039 0 255 0
0.271446 -0.013583 0.266013 0 0 255
-0.253058 -0.619415 0.169027 76 0 153
0.256183 0.679017 -0.241609 76 0 153
-0.253058 0.168228 0.052270 76 0 153
-0.253058 0.539399 0.091781 76 0 153
0.187543 -0.287581 -0.278801 76 0 153
0.291864 0.439202 0.048228 76 0 153
-0.289386 0.373117 0.061989 76 0 153
-0.071799 0.747218 0.037274 76 0 153
0.256183 0.157485 -0.007550 76 0 153
0.044624 0.747218 -0.163455 76 0 153
-0.289386 -0.804232 0.089297 76 0 153
0.027427 0.305238 0.261580 0 255 0
0.291864 -0.737484 0.194383 76 0 153
-0.253058 -0.137601 0.229902 76 0 153
-0.289386 0.375110 0.172873 76 0 153
-0.289386 0.734262 0.092587 76 0 153
0.159474 0.885403 0.248297 76 0 153
0.160050 -0.942039 0.248449 76 0 153
0.067385 0.747218 -0.049739 76 0 153
0.063039 0.015787 0.082662 127 0 127
-0.284788 0.331707 0.263660 0 0 255
-0.289386 0.792333 0.079050 76 0 153
0.089503 -0.141080 -0.278801 76 0 153
-0.108669 -0.866122 0.238875 153 0 76
-0.006920 0.326960 -0.269719 76 0 153
0.016636 0.901613 0.090276 76 0 153
0.257570 -0.024514 -0.278801 76 0 153
0.003876 -0.813526 -0.278801 76 0 153
0.252790 -0.624815 -0.023277 76 0 153
-0.289386 -0.253759 -0.074242 76 0 153
0.047084 -0.274812 0.261580 0 255 0
-0.183755 -0.739854 0.281009 153 0 76
-0.289386 0.332448 -0.134655 76 0 153
0.291864 -0.357689 -0.100802 76 0 153
-0.253058 -0.331981 -0.139120 76 0 153
0.256183 0.690079 0.212678 76 0 153
0.248334 -0.942039 0.066559 76 0 153
0.256183 -0.364848 -0.241286 76 0 153
0.287192 -0.805348 -0.278801 76 0 153
-0.253058 -0.269258 0.138101 76 0 153
0.047381 0.901613 0.008226 76 0 153
0.291864 -0.059689 -0.241824 76 0 153
-0.270750 -0.603047 0.238875 76 0 153
-0.289386 0.805019 -0.090447 76 0 153
0.245803 -0.650902 -0.278801 76 0 153
-0.060659 -0.324066 0.261580 0 255 0
0.083093 0.013666 0.165363 127 0 127
-0.289386 -0.706252 -0.236394 76 0 153
0.078173 0.063656 0.261580 0 255 0
-0.253058 -0.098895 0.151102 76 0 153
-0.222395 0.802253 0.284595 76 0 153
-0.253058 -0.130451 -0.016395 76 0 153
0.011885 0.747218 0.099017 76 0 153
-0.253058 0.042220 0.123221 76 0 153
-0.042668 0.901613 0.153463 76 0 153
-0.289386 -0.754511 -0.153158 76 0 153
-0.289386 -0.544227 -0.187853 76 0 153
-0.270797 -0.328215 0.266089 0 0 255
0.256183 0.330245 -0.012108 76 0 153
-0.253058 0.468895 0.164624 76 0 153
0.256183 -0.166987 -0.053304 76 0 153
0.262987 0.059032 0.264419 0 0 255
-0.279109 0.901613 0.211694 76 0 153
0.256183 -0.094727 0.054947 76 0 153
0.168875 0.608422 0.257039 0 255 0
-0.066807 0.235501 0.261580 0 255 0
0.256183 0.384548 -0.131372 76 0 153
0.198945 0.901613 0.173746 76 0 153
0.291864 0.399859 -0.019118 76 0 153
0.122619 -0.899987 0.238875 153 0 76
0.291864 -0.104015 0.259975 0 0 255
0.147075 -0.240561 0.089346 127 127 0
-0.145510 0.285825 -0.017255 0 127 127
0.118356 -0.624815 0.162136 76 0 153
-0.253058 0.141791 -0.158549 76 0 153
0.291864 -0.179163 0.209350 76 0 153
0.251212 0.747218 -0.155177 76 0 153
-0.253058 -0.250528 0.062541 76 0 153
-0.253058 0.608687 -0.085581 76 0 153
-0.065343 -0.624815 -0.183934 76 0 153
-0.289386 0.435655 -0.081704 76 0 153
0.075378 -0.942039 -0.059197 76 0 153
-0.022197 -0.898549 0.238875 76 0 153
0.154581 -0.088735 0.261580 0 255 0
-0.015509 -0.729348 0.311098 153 0 76
0.291864 0.713053 -0.021568 76 0 153
0.021881 0.227584 0.257039 0 255 0
-0.286276 0.820072 0.238875 76 0 153
0.291864 0.881728 0.170312 76 0 153
0.121860 -0.476947 0.261580 0 255 0
-0.092474 -0.942039 -0.054568 76 0 153
0.291864 0.410833 -0.224758 76 0 153
-0.185506 -0.942039 -0.237045 76 0 153
0.179969 0.747218 -0.193177 76 0 153
-0.031153 0.474202 0.261580 0 255 0
0.103329 0.329424 0.257039 0 255 0
0.291864 -0.080992 -0.119264 76 0 153
0.291864 -0.028913 -0.074147 76 0 153
0.016502 0.350658 0.261580 0 255 0
0.218528 -0.237161 -0.071023 127 127 0
-0.188161 0.901613 -0.125021 76 0 153
-0.004456 -0.942039 0.117138 76 0 153
-0.289386 -0.543759 -0.036152 76 0 153
0.246259 -0.942039 0.228542 153 76 0
-0.253058 0.323983 0.007885 76 0 153
0.172146 -0.537227 -0.269719 76 0 153
-0.253058 0.046196 -0.013258 76 0 153
0.204827 0.884637 0.248297 76 0 153
-0.253058 -0.447296 0.030083 76 0 153
0.291864 0.149481 0.018875 76 0 153
-0.091118 -0.214108 0.196963 127 127 0
-0.130175 -0.624815 0.152300 76 0 153
-0.190999 -0.624815 -0.052687 76 0 153
-0.128792 0.901613 0.106293 76 0 153
-0.253058 -0.592882 -0.068433 76 0 153
0.256183 0.547113 -0.241875 76 0 153
0.201014 -0.446776 -0.269719 76 0 153
-0.247871 -0.601293 -0.278801 76 0 153
0.256183 0.033915 0.081335 76 0 153
0.256183 0.381618 0.056409 76 0 153
0.054077 0.380331 0.257039 0 255 0
-0.251986 -0.030368 -0.269719 76 0 153
-0.289386 -0.334831 0.207723 76 0 153
-0.289386 0.207607 -0.207434 76 0 153
0.211898 -0.942039 -0.067914 76 0 153
0.162876 -0.674275 -0.278801 76 0 153
-0.289386 -0.298113 0.105404 76 0 153
0.131741 -0.028485 -0.269719 76 0 153
-0.289386 0.200634 -0.157154 76 0 153
-0.289386 -0.737063 0.080649 76 0 153
0.104070 0.104564 0.261580 0 255 0
-0.026751 0.788595 -0.278801 76 0 153
-0.175507 -0.624815 0.159404 76 0 153
0.256183 -0.179550 0.036592 76 0 153
0.289058 0.612265 -0.278801 76 0 153
0.173338 -0.624815 0.225941 76 0 153
-0.124875 -0.767224 -0.278801 76 0 153
0.291864 -0.320037 -0.240247 76 0 153
-0.172909 -0.237961 0.023583 127 127 0
-0.289386 0.103892 -0.233942 76 0 153
0.256183 -0.415177 -0.161917 76 0 153
0.073357 -0.131078 0.257039 0 255 0
-0.289386 -0.469120 -0.195294 76 0 153
-0.253058 0.493944 -0.116029 76 0 153
-0.034048 -0.183267 -0.269719 76 0 153
0.186852 0.747218 0.223765 76 0 153
0.066431 0.367839 -0.269719 76 0 153
0.265214 -0.310627 0.265050 0 0 255
0.035764 0.015364 0.141903 127 0 127
0.291864 0.087515 -0.211544 76 0 153
0.291864 0.644511 -0.075208 76 0 153
-0.148507 -0.804003 -0.278801 76 0 153
0.040229 0.201325 -0.269719 76 0 153
-0.138055 -0.624815 0.079590 76 0 153
-0.154723 -0.113098 -0.278801 76 0 153
-0.253058 -0.513927 0.175035 76 0 153
0.061275 -0.624815 0.078218 76 0 153
0.132442 0.283543 0.202422 0 127 127
0.291864 0.719227 -0.084196 76 0 153
0.291864 -0.008768 0.040962 76 0 153
0.256183 0.537308 0.012617 76 0 153
-0.006991 -0.237233 0.074215 127 127 0
-0.209036 -0.237681 -0.052339 127 127 0
-0.235641 -0.490845 0.257039 0 255 0
-0.093047 0.710717 -0.278801 76 0 153
0.006099 0.575558 0.261580 0 255 0
0.291864 -0.798242 0.234458 76 0 153
0.291864 0.509735 0.013071 76 0 153
0.291864 0.230853 0.218534 76 0 153
0.256183 0.466643 -0.132302 76 0 153
0.201121 0.892173 0.290219 76 0 153
-0.253058 0.384274 0.149278 76 0 153
-0.119906 0.901613 -0.175358 76 0 153
-0.289386 0.659547 0.034477 76 0 153
-0.194866 0.602349 -0.269719 76 0 153
0.256183 0.235069 0.128481 76 0 153
-0.137441 0.196369 -0.278801 76 0 153
-0.134334 0.282892 -0.102672 0 127 127
-0.253058 0.362381 -0.203238 76 0 153
0.256183 0.404783 -0.060339 76 0 153
-0.013734 -0.274826 -0.278801 76 0 153
0.014189 -0.116507 -0.269719 76 0 153
-0.108172 0.017228 -0.184397 127 0 127
-0.270369 0.290311 -0.278801 76 0 153
0.115093 -0.624815 -0.077355 76 0 153
-0.289386 -0.472952 -0.137212 76 0 153
0.256183 0.286722 0.172726 0 127 127
-0.276934 0.212881 -0.278801 76 0 153
0.193702 -0.624815 0.104965 76 0 153
-0.139579 0.267454 -0.278801 76 0 153
0.244335 -0.367926 0.261580 0 255 0
0.291864 0.224174 -0.019687 76 0 153
-0.186008 0.747218 0.149521 76 0 153
0.291864 -0.853248 -0.065434 76 0 153
0.291864 0.610637 -0.014591 76 0 153
0.291864 -0.792984 0.027248 76 0 153
0.216750 0.223521 -0.278801 76 0 153
-0.289386 0.443097 0.224630 76 0 153
-0.198944 -0.116086 0.257039 0 255 0
-0.068918 -0.826756 0.238875 153 0 76
-0.083719 -0.942039 -0.139043 76 0 153
-0.289386 -0.131440 0.032101 76 0 153
-0.123086 -0.731698 0.303065 153 0 76
0.291864 0.250496 -0.102311 76 0 153
-0.145997 0.545988 0.257039 0 255 0
-0.047106 0.901613 -0.173809 76 0 153
-0.289386 -0.310174 -0.211121 76 0 153
-0.253058 0.180346 -0.222455 76 0 153
-0.253058 0.397020 0.045109 76 0 153
0.210259 -0.942039 -0.200859 76 0 153
0.104602 -0.491471 -0.269719 76 0 153
0.000234 0.747218 0.021424 76 0 153
0.136956 0.627112 -0.278801 76 0 153
-0.205777 0.236343 -0.269719 76 0 153
0.238644 0.901613 0.092171 76 0 153
-0.289386 -0.163097 -0.046145 76 0 153
0.145845 -0.553395 0.261580 0 255 0
0.256183 0.032451 -0.188213 76 0 153
-0.253058 -0.290524 -0.044068 76 0 153
0.256183 0.459121 0.037329 76 0 153
0.256183 -0.457769 0.160649 76 0 153
0.233931 -0.564065 0.261580 0 255 0
0.256183 -0.038490 -0.033629 76 0 153
0.196879 -0.369971 -0.269719 76 0 153
0.149203 0.312849 -0.269719 76 0 153
-0.162762 0.645920 -0.278801 76 0 153
0.291864 0.356311 0.058542 76 0 153
0.183559 0.801710 0.262392 76 0 153
0.291864 -0.090719 0.021076 76 0 153
0.291864 0.065060 -0.170260 76 0 153
0.098921 0.284851 -0.143388 0 127 127
0.291864 -0.837717 -0.149294 76 0 153
0.064158 0.286060 -0.022321 0 127 127
-0.240014 0.901613 -0.273998 76 0 153
-0.077890 0.747218 0.219615 76 0 153
0.084444 -0.942039 0.237681 153 0 76
0.092731 -0.909506 -0.278801 76 0 153
0.159575 0.901613 -0.096822 76 0 153
0.126186 -0.704218 0.238875 153 0 76
0.256183 -0.253269 -0.000860 76 0 153
0.108063 0.773633 0.238875 0 0 255
0.291864 -0.621662 0.154971 76 0 153
0.117975 0.878038 0.294548 76 0 153
0.291864 0.120515 0.059920 76 0 153
-0.121600 -0.275392 0.261580 0 255 0
-0.110028 0.747218 -0.144549 76 0 153
-0.200882 0.747218 -0.238746 76 0 153
-0.029880 0.898696 0.248297 76 0 153
0.291864 0.544664 0.217812 76 0 153
-0.070405 0.285230 -0.047909 0 127 127
0.291864 -0.704668 -0.182709 76 0 153
0.000904 0.478923 -0.269719 76 0 153
-0.247664 0.250770 0.257039 0 0 255
0.256183 0.568596 0.224278 76 0 153
0.256183 -0.322669 0.085213 76 0 153
0.291864 0.695381 -0.269992 76 0 153
0.291864 0.130007 -0.235664 76 0 153
0.291864 -0.497540 -0.093411 76 0 153
-0.169350 0.452718 -0.278801 76 0 153
-0.289386 0.164752 0.207510 76 0 153
-0.185250 0.207141 0.261580 0 255 0
0.010303 0.743097 -0.278801 76 0 153
-0.005789 -0.942039 -0.040987 76 0 153
-0.257540 0.061053 -0.278801 76 0 153
-0.049643 -0.624815 0.099761 76 0 153
-0.052663 0.507259 -0.278801 76 0 153
-0.289386 -0.118066 0.213267 76 0 153
-0.289386 0.002132 -0.026405 76 0 153
-0.104124 0.747218 0.175705 76 0 153
-0.093351 0.338517 -0.278801 76 0 153
-0.044259 -0.686104 0.271150 153 0 76
-0.289386 0.145112 0.047669 76 0 153
0.256183 -0.616649 0.179077 76 0 153
0.256183 -0.343291 -0.121873 76 0 153
0.256183 -0.196173 0.148169 76 0 153
0.256183 -0.432990 -0.110693 76 0 153
0.092589 0.747218 -0.238294 76 0 153
0.291864 0.696564 0.257994 0 0 255
0.291864 -0.103456 -0.253827 76 0 153
0.047573 -0.778716 -0.278801 76 0 153
-0.289386 0.184536 0.033035 76 0 153
0.256183 -0.464908 -0.210438 76 0 153
-0.001802 -0.710534 0.270575 153 0 76
-0.289386 -0.523750 0.040993 76 0 153
-0.012043 0.901613 -0.198429 76 0 153
0.123406 -0.942039 -0.055365 76 0 153
-0.096267 -0.942039 0.126847 76 0 153
-0.253058 0.717846 -0.109290 76 0 153
-0.108175 -0.044161 -0.269719 76 0 153
-0.026143 -0.942039 0.076004 76 0 153
0.178716 -0.157287 -0.269719 76 0 153
0.291864 -0.927047 -0.018851 76 0 153
0.256183 -0.022946 0.105364 76 0 153
0.012080 0.015033 -0.128735 127 0 127
0.291864 -0.251007 -0.277969 76 0 153
0.291864 0.579067 -0.186168 76 0 153
-0.253058 0.426211 0.088328 76 0 153
0.291864 0.614048 0.154087 76 0 153
-0.125859 -0.781318 0.238875 76 0 153
-0.289386 0.075168 -0.018507 76 0 153
-0.253058 -0.000503 0.157997 76 0 153
-0.148557 0.009186 0.261580 0 255 0
-0.281758 0.155533 -0.278801 76 0 153
0.117421 0.747218 0.134523 76 0 153
-0.078502 0.901613 0.062192 76 0 153
0.230241 -0.624815 -0.177555 76 0 153
-0.082311 -0.542448 0.261580 0 255 0
-0.206924 0.285581 0.105135 0 127 127
0.291864 0.156261 0.138154 76 0 153
-0.128068 -0.116366 0.257039 0 255 0
0.098585 -0.624815 -0.157965 76 0 153
0.256183 -0.153547 -0.196054 76 0 153
-0.253058 -0.360002 0.108430 76 0 153
-0.039808 -0.942039 0.282705 153 0 76
-0.253058 0.392100 0.234573 76 0 153
-0.253058 -0.417856 -0.177058 76 0 153
-0.289386 0.289169 0.055504 76 0 153
-0.088543 0.285196 -0.253729 0 127 127
0.256183 -0.564221 -0.206730 76 0 153
0.255450 0.854904 0.276756 76 0 153
-0.049811 -0.578344 0.261580 0 255 0
-0.159596 -0.335566 -0.269719 76 0 153
0.243487 -0.518864 -0.278801 76 0 153
0.291864 -0.387988 -0.274686 76 0 153
0.291864 -0.821124 0.084064 76 0 153
0.256183 0.243277 -0.079036 76 0 153
0.199738 -0.279050 0.261580 0 255 0
-0.077835 -0.235664 0.257039 0 255 0
-0.253058 -0.469807 0.115076 76 0 153
0.291864 -0.341727 0.034523 76 0 153
-0.190169 -0.726591 -0.278801 76 0 153
0.291864 0.058437 -0.064329 76 0 153
-0.253058 -0.372285 0.003744 76 0 153
-0.253058 0.445422 -0.208087 76 0 153
0.031796 -0.586771 0.261580 0 255 0
-0.253058 -0.493048 -0.183222 76 0 153
-0.253058 0.319269 -0.110360 76 0 153
-0.289386 -0.676881 -0.033066 76 0 153
-0.237945 -0.468404 -0.269719 76 0 153
-0.289386 -0.611132 0.012371 76 0 153
0.119610 -0.942039 0.100075 76 0 153
0.043001 -0.624815 0.205730 76 0 153
0.122864 0.544249 -0.278801 76 0 153
0.143175 -0.181298 0.261580 0 255 0
-0.253058 0.231186 0.154580 76 0 153
-0.289386 -0.180113 0.031158 76 0 153
0.291864 0.338963 0.213422 76 0 153
-0.253058 -0.173585 0.104076 76 0 153
0.030675 -0.758127 0.304689 153 0 76
0.256183 0.212109 -0.159945 76 0 153
-0.072342 0.407622 -0.278801 76 0 153
-0.286043 -0.942039 -0.200298 76 0 153
0.173186 0.058748 -0.269719 76 0 153
0.291864 -0.260472 0.021714 76 0 153
-0.136801 0.015416 0.076684 127 0 127
-0.063561 0.016797 -0.093893 127 0 127
0.019724 -0.924931 -0.278801 76 0 153
0.291864 0.799843 -0.183632 76 0 153
-0.158762 -0.257703 0.257039 0 255 0
-0.050357 -0.416643 0.257039 0 255 0
0.045848 -0.668953 0.238875 153 0 76
-0.289386 0.257007 -0.081093 76 0 153
0.291864 0.731552 0.069327 76 0 153
0.256183 0.617699 0.091493 76 0 153
0.011422 0.285065 -0.131804 0 127 127
-0.187949 0.532752 0.257039 0 255 0
-0.289386 0.212520 0.222285 76 0 153
-0.216805 -0.237023 0.000672 127 127 0
0.291864 0.173039 -0.030715 76 0 153
-0.249859 0.420810 -0.278801 76 0 153
0.259680 0.765539 0.238875 0 0 255
-0.029941 -0.436262 -0.269719 76 0 153
-0.253058 0.734966 -0.207640 76 0 153
-0.289386 -0.327051 0.056899 76 0 153
0.076983 0.294429 0.257039 0 255 0
-0.289386 -0.793640 0.224948 76 0 153
-0.209366 0.384077 0.261580 0 255 0
0.117674 -0.175969 -0.278801 76 0 153
0.115734 0.249482 0.261580 0 255 0
-0.264539 -0.681447 0.266121 153 0 76
-0.120076 -0.942039 0.030629 76 0 153
-0.253058 0.257729 0.045278 76 0 153
-0.023536 0.109946 -0.269719 76 0 153
-0.215061 -0.942039 -0.095516 76 0 153
0.256183 0.189059 0.158664 76 0 153
-0.253058 -0.515612 -0.243522 76 0 153
-0.034108 -0.284356 0.257039 0 255 0
-0.253058 -0.391860 -0.057264 76 0 153
-0.053035 0.285907 -0.181034 0 127 127
0.256183 -0.328893 0.161197 76 0 153
-0.014547 0.367418 -0.269719 76 0 153
-0.005253 -0.942039 -0.200319 76 0 153
0.291864 -0.303973 0.187543 76 0 153
-0.289386 0.812472 -0.001618 76 0 153
0.256183 -0.448512 0.001153 76 0 153
0.166208 0.089750 0.261580 0 255 0
0.256183 -0.050187 -0.111362 76 0 153
0.256183 0.728316 0.184330 76 0 153
-0.253058 0.132713 -0.118392 76 0 153
0.096240 -0.624815 0.056581 76 0 153
0.159293 -0.301296 0.257039 0 255 0
-0.132576 0.901613 0.179177 76 0 153
0.256183 -0.549166 -0.002877 76 0 153
0.291864 -0.513805 0.047040 76 0 153
0.291864 0.415039 0.177477 76 0 153
-0.253058 -0.387349 -0.239141 76 0 153
0.291864 -0.282583 0.093673 76 0 153
-0.153071 -0.479737 -0.269719 76 0 153
0.269786 0.747070 -0.278801 76 0 153
-0.253058 -0.573661 -0.185590 76 0 153
-0.107538 -0.942039 0.171690 76 0 153
0.291864 -0.542629 -0.223390 76 0 153
-0.109837 0.118923 -0.278801 76 0 153
0.251217 -0.773201 -0.278801 76 0 153
0.291864 -0.468043 -0.187612 76 0 153
0.088284 0.689655 -0.278801 76 0 153
0.025523 -0.909195 0.238875 153 0 76
0.111740 -0.239810 0.156733 127 127 0
-0.000202 0.285821 0.084797 0 127 127
0.291864 -0.740602 0.026085 76 0 153
0.291864 -0.558260 0.187722 76 0 153
0.076807 -0.589441 0.261580 0 255 0
0.244607 0.638938 0.261580 0 255 0
0.048971 -0.942039 -0.025087 76 0 153
-0.133740 -0.237520 -0.022229 127 127 0
0.009398 0.268811 0.257039 0 255 0
0.291864 0.811210 -0.259582 76 0 153
0.103560 0.801272 -0.278801 76 0 153
0.256183 0.714062 -0.208944 76 0 153
-0.104723 -0.639285 -0.278801 76 0 153
0.256183 -0.519767 0.235586 76 0 153
0.291864 -0.584584 -0.136187 76 0 153
-0.149856 0.082760 0.261580 0 255 0
0.231477 -0.677073 0.238875 76 0 153
0.066374 -0.230370 -0.269719 76 0 153
-0.082276 -0.239135 0.104490 127 127 0
-0.156688 -0.839866 0.287036 153 0 76
-0.289386 0.404070 0.088654 76 0 153
0.291864 0.778032 -0.229612 76 0 153
0.291864 -0.097093 -0.160175 76 0 153
0.291864 -0.022250 -0.002184 76 0 153
-0.167094 -0.414082 0.257039 0 255 0
0.103342 -0.676253 -0.278801 76 0 153
-0.027155 0.291517 -0.269719 76 0 153
0.058522 0.557705 0.261580 0 255 0
0.186365 -0.632891 -0.278801 76 0 153
-0.253058 0.510170 0.020609 76 0 153
0.200315 -0.240477 0.010922 127 127 0
0.135235 0.837140 0.248297 76 0 153
0.291864 -0.263921 -0.126114 76 0 153
-0.253058 -0.087737 -0.020158 76 0 153
-0.164034 0.015624 0.165189 127 0 127
-0.253058 0.526643 -0.227186 76 0 153
-0.253058 0.070028 -0.046292 76 0 153
0.291864 0.033855 -0.246537 76 0 153
-0.242405 -0.023379 0.257039 0 0 255
-0.037368 -0.747148 -0.278801 76 0 153
-0.241481 -0.113125 0.261580 0 255 0
-0.289386 -0.412807 0.231610 76 0 153
-0.215222 -0.758692 0.238875 153 0 76
0.291864 0.609938 -0.213306 76 0 153
-0.253058 0.736027 -0.025028 76 0 153
-0.120466 0.204860 0.261580 0 255 0
0.093837 0.015760 -0.094167 127 0 127
0.256183 0.107792 -0.050923 76 0 153
-0.115349 0.377378 0.257039 0 255 0
0.019503 0.866716 0.238875 76 0 153
-0.289386 0.534423 0.160329 76 0 153
-0.143916 0.901613 -0.009494 76 0 153
0.256183 -0.197588 -0.191030 76 0 153
-0.037263 -0.624815 -0.247890 76 0 153
-0.205176 -0.942039 -0.017841 76 0 153
0.207197 0.253338 0.261580 0 255 0
0.129037 0.747218 -0.118433 76 0 153
-0.157995 -0.652749 -0.278801 76 0 153
-0.255418 0.705942 0.262422 0 255 0
-0.289386 -0.220843 0.091172 76 0 153
0.291864 -0.226351 0.161913 76 0 153
0.165108 -0.624815 0.050766 76 0 153
0.291864 -0.893094 -0.275122 76 0 153
-0.288818 -0.852106 0.266287 153 0 76
-0.257358 0.086562 0.285180 255 0 0
-0.289386 0.422648 -0.011696 76 0 153
0.291864 -0.915552 0.189197 76 0 153
0.256183 -0.397489 0.076166 76 0 153
-0.016054 -0.497556 -0.278801 76 0 153
-0.016254 -0.836195 0.238875 76 0 153
-0.289386 0.280135 -0.202779 76 0 153
-0.253058 0.008944 -0.159872 127 0 127
0.256183 0.633793 0.134740 76 0 153
-0.255441 -0.837156 0.238875 153 0 76
0.256183 0.542027 0.142592 76 0 153
-0.289386 -0.648312 0.186142 76 0 153
0.291864 -0.175165 -0.027818 76 0 153
0.291864 0.264741 -0.008964 76 0 153
0.256183 -0.110136 0.116393 76 0 153
0.256183 -0.538681 0.188680 76 0 153
0.156226 -0.942039 0.130042 76 0 153
-0.289386 0.216210 0.117943 76 0 153
-0.200011 -0.043977 0.261580 0 255 0
0.291864 -0.222762 0.099793 76 0 153
-0.253058 0.424436 0.167799 76 0 153
-0.289386 -0.622283 -0.059276 76 0 153
0.001248 0.774452 0.238914 76 0 153
-0.289386 0.680602 -0.004372 76 0 153
-0.253058 -0.352806 0.193389 76 0 153
0.256183 0.211490 0.035307 76 0 153
0.077558 -0.942039 -0.207004 76 0 153
0.210581 0.078066 -0.278801 76 0 153
-0.289386 -0.601419 -0.167572 76 0 153
-0.289386 0.768877 -0.227987 76 0 153
-0.246726 0.672610 -0.278801 76 0 153
0.111079 0.283091 -0.049878 0 127 127
0.291864 0.166120 -0.212160 76 0 153
-0.081773 -0.624815 0.219690 76 0 153
0.228190 0.017271 0.030469 127 0 127
-0.154749 0.138882 0.261580 0 255 0
0.291864 -0.475748 0.165524 76 0 153
0.251921 0.901613 0.132203 76 0 153
-0.253705 0.155442 0.252261 0 0 255
0.291864 0.527189 -0.231031 76 0 153
0.291864 0.871017 -0.241086 76 0 153
-0.223913 -0.059142 -0.269719 76 0 153
0.208386 0.014961 -0.177758 127 0 127
0.096270 -0.864160 0.288557 153 0 76
0.258663 -0.717480 0.238875 153 0 76
0.291864 0.658074 -0.179453 76 0 153
-0.253058 -0.199562 -0.149477 76 0 153
-0.209814 -0.942039 0.033929 76 0 153
0.291864 0.815691 0.091828 76 0 153
0.291864 0.122518 0.162822 76 0 153
0.291864 0.187950 -0.162418 76 0 153
0.291864 0.315544 0.054460 76 0 153
-0.253058 -0.590151 0.116399 76 0 153
-0.058766 0.901613 -0.265235 76 0 153
-0.289386 0.672209 -0.046878 76 0 153
-0.289386 -0.534186 -0.077119 76 0 153
-0.289386 -0.074182 -0.045218 76 0 153
-0.253058 -0.343756 0.149614 76 0 153
0.183512 0.494993 0.257039 0 255 0
-0.288622 0.901613 0.001587 76 0 153
0.256183 0.709498 0.128641 76 0 153
0.071592 0.630491 0.261580 0 255 0
-0.289386 -0.261066 0.021065 76 0 153
0.251944 -0.765303 0.277780 153 0 76
0.256183 0.240243 -0.120276 76 0 153
0.032282 0.439482 0.257039 0 255 0
0.291864 0.041663 0.053021 76 0 153
-0.121174 -0.624815 -0.239455 76 0 153
-0.289386 -0.675039 -0.111913 76 0 153
-0.195987 0.613661 0.257039 0 255 0
0.017612 -0.239022 0.179714 127 127 0
0.291864 0.706502 0.161858 76 0 153
0.132350 0.901613 -0.021000 76 0 153
-0.289386 0.569791 -0.009670 76 0 153
0.018886 -0.237094 -0.147873 127 127 0
-0.248327 -0.799121 0.274369 153 0 76
0.017928 0.884140 -0.278801 76 0 153
-0.253058 -0.113092 0.091366 76 0 153
0.291864 -0.585979 0.087989 76 0 153
0.291864 -0.143686 0.145191 76 0 153
0.103035 0.249688 -0.269719 76 0 153
-0.289386 -0.528370 0.115105 76 0 153
-0.234027 0.901613 -0.120342 76 0 153
-0.253058 0.465825 0.096372 76 0 153
0.256183 -0.085862 -0.243908 76 0 153
-0.077363 0.119372 0.257039 0 255 0
0.136607 0.398671 0.257039 0 255 0
-0.253058 -0.623740 0.208714 76 0 153
0.291864 -0.130973 -0.181417 76 0 153
-0.289386 -0.445643 -0.075280 76 0 153
-0.253058 0.221904 -0.108310 76 0 153
-0.253058 0.421628 0.012620 76 0 153
0.256183 0.444412 -0.063937 76 0 153
-0.253058 -0.155795 0.194516 76 0 153
-0.253058 0.338195 -0.237864 76 0 153
-0.064616 0.284651 -0.142799 0 127 127
-0.189095 -0.419141 -0.269719 76 0 153
-0.289386 0.504384 -0.059261 76 0 153
0.256183 -0.214082 0.061853 76 0 153
-0.198836 0.286046 0.163572 0 127 127
-0.253058 -0.162203 0.062177 76 0 153
0.291864 0.313439 0.135164 76 0 153
0.256183 -0.144639 -0.121606 76 0 153
-0.253058 -0.595488 -0.109449 76 0 153
-0.253058 0.101972 0.014063 76 0 153
-0.128063 0.621189 0.261580 0 255 0
-0.253058 -0.361464 -0.099907 76 0 153
-0.289386 -0.384646 -0.118946 76 0 153
-0.253058 -0.258313 -0.104049 76 0 153
0.291864 0.357932 0.134947 76 0 153
-0.205377 -0.234288 -0.262695 127 127 0
0.145607 0.747218 -0.042720 76 0 153
-0.253058 0.345690 -0.025861 76 0 153
-0.201293 0.660063 0.257039 0 255 0
0.212577 0.747218 0.162352 76 0 153
0.067244 -0.751700 0.289810 153 0 76
0.256183 -0.529568 -0.113191 76 0 153
-0.253058 0.587246 0.044428 76 0 153
-0.191350 0.533436 -0.269719 76 0 153
-0.253058 -0.284631 0.006580 76 0 153
0.256183 -0.344097 0.017480 76 0 153
0.256183 -0.307924 0.213083 76 0 153
-0.046752 0.588791 -0.278801 76 0 153
0.256183 0.496650 0.198304 76 0 153
0.256183 0.628463 -0.178969 76 0 153
-0.253058 0.273469 0.219969 76 0 153
-0.283874 -0.764189 0.267731 153 0 76
-0.253058 0.109364 0.187696 76 0 153
0.279238 0.503584 0.265726 0 0 255
-0.289386 0.484583 0.059730 76 0 153
0.291864 -0.226069 0.227091 0 0 255
-0.051947 -0.150103 0.257039 0 255 0
-0.253058 0.526567 0.227521 76 0 153
0.152745 0.533887 0.261580 0 255 0
-0.289386 0.679735 0.205424 76 0 153
0.256183 0.065739 -0.048953 76 0 153
0.150957 -0.907869 0.284572 153 0 76
-0.289386 -0.419522 0.151634 76 0 153
-0.289386 -0.842323 -0.141506 76 0 153
-0.058790 -0.624815 0.029649 76 0 153
-0.289386 -0.441318 -0.235019 76 0 153
-0.289386 -0.029399 0.105281 76 0 153
-0.289386 -0.704653 -0.081038 76 0 153
-0.289386 0.810284 -0.244103 76 0 153
0.256183 0.584496 0.179287 76 0 153
0.256183 -0.087802 -0.097176 76 0 153
-0.003537 0.308504 0.199378 0 127 127
-0.063807 -0.255997 -0.269719 76 0 153
-0.289386 0.291687 0.256461 0 0 255
0.208456 -0.239504 -0.253982 127 127 0
0.256183 -0.587792 0.106011 76 0 153
0.291864 -0.901706 0.082679 76 0 153
0.218282 -0.590257 -0.269719 76 0 153
0.236323 0.282534 -0.079312 0 127 127
0.291864 0.474295 0.144473 76 0 153
-0.253058 -0.196603 -0.201929 76 0 153
-0.184376 0.901613 0.058429 76 0 153
0.107591 -0.675463 0.277436 153 0 76
-0.250711 -0.554351 0.257039 0 255 0
-0.028026 -0.934283 -0.278801 76 0 153
0.291864 -0.820033 0.200941 76 0 153
0.118677 0.013778 0.101344 127 0 127
-0.015446 0.016498 0.058657 127 0 127
0.291864 -0.373924 -0.139888 76 0 153
-0.134215 -0.542913 -0.278801 76 0 153
-0.240192 0.593743 0.261580 0 255 0
-0.289386 -0.490727 -0.017757 76 0 153
-0.289386 0.509025 -0.005580 76 0 153
-0.191941 -0.777588 0.289857 153 0 76
0.256183 0.389760 0.102417 76 0 153
0.184425 -0.056910 0.261580 0 255 0
0.291864 0.671764 -0.139025 76 0 153
0.063203 -0.624815 -0.081988 76 0 153
0.174738 0.283202 0.067118 0 127 127
-0.289386 -0.248639 -0.016116 76 0 153
-0.289386 -0.092882 -0.227978 76 0 153
-0.289386 0.233056 0.061858 76 0 153
-0.289386 -0.363795 0.028129 76 0 153
-0.253058 0.296593 0.038572 76 0 153
0.291864 -0.227852 -0.170373 76 0 153
-0.235942 -0.647183 0.238875 76 0 153
-0.253058 0.165078 0.013252 76 0 153
-0.251641 -0.942039 0.105637 76 0 153
-0.053298 0.901613 -0.127978 76 0 153
0.291864 -0.443925 0.046071 76 0 153
0.291864 -0.068585 0.179755 76 0 153
0.291864 0.439049 -0.014423 76 0 153
-0.289386 0.705820 -0.186030 76 0 153
-0.289386 0.054326 -0.115245 76 0 153
-0.289386 -0.688918 -0.185336 76 0 153
-0.122018 -0.674642 0.262430 153 0 76
-0.151212 -0.942039 -0.275261 76 0 153
0.157015 0.016624 -0.129562 127 0 127
0.189637 -0.230079 0.257039 0 255 0
0.291864 0.811484 0.038274 76 0 153
-0.118820 0.738021 0.261580 0 255 0
-0.174219 0.466411 0.261580 0 255 0
-0.025273 -0.633645 0.265008 0 0 255
0.006884 0.042336 0.261580 0 255 0
-0.067054 -0.942039 0.004662 76 0 153
0.256183 -0.019281 0.155870 76 0 153
0.291864 0.205558 0.176900 76 0 153
0.291864 0.796628 -0.032863 76 0 153
-0.289386 -0.745030 -0.240958 76 0 153
-0.289386 0.889739 -0.234421 76 0 153
0.291864 0.568750 -0.089998 76 0 153
-0.253058 -0.481027 -0.053203 76 0 153
-0.289386 -0.493014 0.131612 76 0 153
0.011606 -0.611335 -0.269719 76 0 153
-0.099481 0.013857 0.049500 127 0 127
0.291864 -0.182518 0.016985 76 0 153
0.126600 -0.238603 -0.235522 127 127 0
0.287022 0.253269 0.263755 0 0 255
-0.190717 -0.473111 0.261580 0 255 0
-0.289386 -0.846462 -0.020277 76 0 153
0.291864 0.482570 0.060197 76 0 153
0.198099 0.280401 0.199900 0 127 127
0.291864 -0.647073 -0.071973 76 0 153
-0.253058 -0.223322 -0.077021 76 0 153
0.247853 0.806735 0.238875 76 0 153
-0.249875 -0.118742 -0.278801 76 0 153
-0.212301 0.288393 0.257039 0 255 0
0.036943 -0.624815 0.163222 76 0 153
-0.289386 -0.325921 0.168374 76 0 153
-0.040011 0.901613 0.114666 76 0 153
0.253207 0.901613 -0.273694 76 0 153
0.256183 0.495112 0.018077 76 0 153
-0.248942 -0.624815 -0.000544 76 0 153
-0.179474 0.801710 0.288285 76 0 153
-0.238333 -0.379281 0.257039 0 255 0
0.291864 0.658316 0.251189 0 0 255
0.222014 0.747218 0.111261 76 0 153
0.249849 -0.345239 -0.278801 76 0 153
0.256183 0.309800 0.076657 76 0 153
0.291864 -0.620220 0.061319 76 0 153
0.154086 0.747218 -0.002250 76 0 153
0.291864 -0.053671 0.089939 76 0 153
-0.289386 0.322241 -0.051999 76 0 153
0.285235 0.581145 0.264367 0 0 255
-0.253058 0.344959 -0.168575 76 0 153
-0.264811 -0.192968 -0.278801 76 0 153
-0.100809 0.901613 0.205687 76 0 153
-0.063429 -0.237398 -0.198498 127 127 0
-0.289386 0.090237 0.175927 76 0 153
-0.289386 0.499989 -0.216102 76 0 153
0.044643 -0.942039 0.050226 76 0 153
-0.251313 0.747218 -0.077877 76 0 153
0.256183 -0.066983 -0.177924 76 0 153
-0.009445 0.440436 0.261580 0 255 0
-0.289386 0.012245 0.044222 76 0 153
0.204833 0.176239 0.257039 0 255 0
-0.242386 0.669462 0.261580 0 255 0
0.169756 0.901613 -0.255917 76 0 153
0.228962 -0.240571 0.184382 127 127 0
0.256183 0.612845 -0.131228 76 0 153
0.256183 0.307772 -0.143572 76 0 153
-0.253705 0.026206 0.248311 0 0 255
0.256183 0.374124 0.011650 76 0 153
0.117757 -0.743058 0.287075 153 0 76
-0.289386 -0.761049 0.157751 76 0 153
0.247101 -0.237454 -0.207590 127 127 0
-0.253058 -0.429201 -0.225469 76 0 153
-0.167028 0.865308 0.296236 76 0 153
0.291864 -0.468449 0.116822 76 0 153
-0.126112 0.863963 0.293169 76 0 153
-0.045379 0.747218 -0.158710 76 0 153
0.291864 0.427217 0.100147 76 0 153
-0.213284 -0.866724 0.277437 153 0 76
-0.253058 -0.064171 -0.233628 76 0 153
-0.289386 -0.559894 0.064373 76 0 153
-0.253058 -0.214286 -0.010983 76 0 153
0.161953 0.486609 -0.278801 76 0 153
-0.238237 0.871996 0.280844 76 0 153
0.256183 0.284554 0.004284 76 0 153
0.291864 0.729369 -0.132347 76 0 153
-0.254256 -0.717038 0.238875 153 0 76
0.291864 -0.537389 -0.062728 76 0 153
-0.252459 -0.942039 -0.165438 76 0 153
-0.289386 -0.478025 0.230200 76 0 153
-0.195830 -0.172450 -0.269719 76 0 153
0.233507 -0.216208 -0.278801 76 0 153
0.183939 -0.240286 0.135137 127 127 0
-0.289386 0.648555 0.132679 76 0 153
-0.062276 0.764436 -0.278801 76 0 153
0.291864 -0.203709 -0.245979 76 0 153
0.156633 -0.242901 0.197977 127 127 0
0.199510 -0.499962 0.261580 0 255 0
0.134930 -0.938420 0.301726 153 0 76
-0.289386 -0.398862 -0.039023 76 0 153
0.256183 0.579710 -0.267342 76 0 153
0.256183 -0.137980 0.039447 76 0 153
0.019598 0.017258 0.038898 127 0 127
0.091257 0.572785 -0.278801 76 0 153
0.197860 0.747218 -0.228348 76 0 153
0.131830 -0.788667 0.286061 153 0 76
-0.077770 -0.504535 0.257039 0 255 0
-0.131823 0.434479 -0.269719 76 0 153
-0.015109 -0.238834 -0.006739 127 127 0
0.256183 -0.118161 0.220330 76 0 153
0.256251 -0.217686 0.238875 76 0 153
0.291864 -0.512573 0.008626 76 0 153
0.256183 0.158913 0.074089 76 0 153
-0.017158 0.017254 0.164668 127 0 127
-0.253058 0.607381 0.154001 76 0 153
-0.289386 0.824755 0.040940 76 0 153
-0.207519 0.747218 0.020449 76 0 153
0.291864 0.377270 0.236423 0 0 255
0.068686 0.488826 -0.278801 76 0 153
0.256183 -0.013079 -0.211537 76 0 153
-0.145681 -0.348186 0.257039 0 255 0
0.137763 0.285876 0.138960 0 127 127
-0.289386 0.368431 0.019579 76 0 153
-0.289386 0.821424 0.199089 76 0 153
0.256183 -0.588805 -0.096937 76 0 153
0.291864 -0.409112 0.171019 76 0 153
-0.289386 -0.028768 0.065748 76 0 153
-0.009414 0.435894 -0.278801 76 0 153
0.291864 0.413639 -0.123712 76 0 153
-0.140580 -0.942039 -0.194490 76 0 153
-0.253058 -0.140537 -0.245137 76 0 153
-0.226744 0.099074 0.261580 0 255 0
-0.046219 -0.074864 0.257039 0 255 0
0.291864 0.073541 0.226026 76 0 153
-0.289386 0.786687 -0.167659 76 0 153
-0.200289 -0.547031 -0.278801 76 0 153
-0.289386 -0.010128 0.253388 76 0 153
-0.289386 -0.570128 0.141146 76 0 153
0.137685 -0.439542 0.257039 0 255 0
-0.257853 -0.942039 0.043308 76 0 153
-0.159836 -0.007827 -0.269719 76 0 153
0.056198 0.419461 -0.269719 76 0 153
-0.289386 -0.180636 -0.201429 76 0 153
